ply
format ascii 1.0
comment PCL generated
element vertex 1336
property float x
property float y
property float z
element camera 0
property float view_px
property float view_py
property float view_pz
property float x_axisx
property float x_axisy
property float x_axisz
property float y_axisx
property float y_axisy
property float y_axisz
property float z_axisx
property float z_axisy
property float z_axisz
property float focal
property float scalex
property float scaley
property float centerx
property float centery
property int viewportx
property int viewporty
property float k1
property float k2
end_header
0.17293644 0.048945613 -0.23981166
0.15922815 0.063368745 -0.23136991
0.17293605 0.062978439 -0.23981977
0.15922847 0.077467337 -0.23136163
0.17293605 0.077011563 -0.23981977
0.15922847 0.091565594 -0.23136175
0.17293644 0.091045216 -0.23981178
0.31336725 0.091094583 -0.23900992
0.15922847 0.1056638 -0.23136163
0.17293605 0.10507783 -0.23981977
0.31461257 0.10583448 -0.22889906
0.15922815 0.11976147 -0.23136991
0.17293605 0.11911099 -0.23981977
0.15922815 0.13385965 -0.23136979
0.17293605 0.13314414 -0.23981977
0.29937279 0.13324563 -0.23862088
0.15922815 0.14795788 -0.23136991
0.17293569 0.14717655 -0.23982793
0.30054078 0.14822246 -0.22850573
0.15922785 0.16205527 -0.23137796
0.17293569 0.16120954 -0.23982781
0.15922785 0.17615338 -0.23137796
0.17293569 0.17524271 -0.23982787
0.28537321 0.17541558 -0.23822355
0.15922785 0.19025144 -0.2313779
0.17293531 0.18927488 -0.23983598
0.28646383 0.19062953 -0.228104
0.15922752 0.20434859 -0.23138624
0.17293531 0.20330778 -0.23983598
0.15922752 0.21844669 -0.23138618
0.17293531 0.21734086 -0.23983598
0.27136675 0.21760282 -0.23783427
0.15922752 0.23254472 -0.23138624
0.17293531 0.23137394 -0.23983604
0.15922752 0.24664283 -0.23138618
0.17293531 0.24540687 -0.23983598
0.25781745 0.24648991 -0.23243135
0.17293531 0.25943998 -0.23983598
0.15922752 0.26074088 -0.23138618
0.15922752 0.27483889 -0.23138618
0.17293531 0.27347293 -0.23983586
0.15922752 0.28893694 -0.23138618
0.17293531 0.28750598 -0.23983598
0.22994715 0.28944147 -0.22840738
0.15922785 0.30303657 -0.23137796
0.17293531 0.301539 -0.23983604
0.21514663 0.30182585 -0.23821551
0.15922785 0.31713462 -0.23137796
0.17293531 0.31557196 -0.23983598
0.15922785 0.33123276 -0.2313779
0.17293569 0.32960653 -0.23982787
0.15922785 0.34533089 -0.23137808
0.17293569 0.34363961 -0.23982793
0.18727067 0.34476116 -0.23422503
0.15922785 0.35942903 -0.23137796
0.17306712 0.35826421 -0.23698205
0.14539284 -0.37531808 -0.22283298
0.14539284 -0.3611542 -0.22283286
0.14539258 -0.34698877 -0.2228412
0.14539258 -0.33282498 -0.2228412
0.14539258 -0.31866118 -0.2228412
0.14539258 -0.30449733 -0.2228412
0.23072757 -0.29100218 -0.21826947
0.14539258 -0.29033342 -0.22284126
0.14539258 -0.27616963 -0.22284126
0.14539258 -0.26200581 -0.2228412
0.14539258 -0.24784191 -0.2228412
0.25926435 -0.24858993 -0.21676809
0.14539258 -0.23367807 -0.2228412
0.14539258 -0.21951422 -0.22284126
0.27250147 -0.21912035 -0.2264955
0.14539258 -0.2053504 -0.22284126
0.14539258 -0.19118655 -0.2228412
0.28652483 -0.19075261 -0.22753817
0.14539258 -0.17702271 -0.22284114
0.14539258 -0.16285886 -0.22284114
0.14539258 -0.14869505 -0.22284114
0.30106831 -0.14861907 -0.22393739
0.14539258 -0.13453116 -0.22284126
0.14539258 -0.1203673 -0.2228412
0.14539233 -0.10620312 -0.22284937
0.31566995 -0.10632019 -0.2203142
0.14539233 -0.092039347 -0.22284937
0.14539258 -0.077875838 -0.22284114
0.14539233 -0.063711762 -0.22284937
0.33032927 -0.063854344 -0.21667677
0.14539258 -0.049548078 -0.2228412
0.3300395 -0.049608946 -0.21889079
0.14539258 -0.035384297 -0.2228412
0.33011973 -0.035419375 -0.21827775
0.14539258 -0.021220446 -0.22284114
0.33019894 -0.021220373 -0.21767253
0.14539284 -0.0070565762 -0.22283286
0.33027822 -0.0070121111 -0.217067
0.14539284 0.0071074218 -0.22283298
0.33035859 0.0072056279 -0.21645254
0.14539284 0.021271257 -0.22283298
0.33043796 0.02143261 -0.21584612
0.14539284 0.035435252 -0.22283298
0.14539258 0.049598776 -0.22284114
0.14539258 0.063762628 -0.22284114
0.14539284 0.077926904 -0.22283298
0.14539284 0.092090823 -0.22283286
0.14539284 0.10625473 -0.22283298
0.14539258 0.12041803 -0.22284114
0.3158718 0.12073863 -0.21867537
0.14539258 0.13458182 -0.22284114
0.14539258 0.14874564 -0.22284114
0.14539233 0.16290876 -0.22284943
0.30172276 0.16336705 -0.21826947
0.14539233 0.17707251 -0.22284943
0.14539233 0.19123629 -0.22284943
0.14539208 0.20539908 -0.22285765
0.2875666 0.20601316 -0.21787161
0.14539208 0.21956278 -0.22285765
0.14539208 0.23372641 -0.22285759
0.27289522 0.23376763 -0.22256076
0.14539208 0.2478902 -0.22285759
0.14539208 0.26205391 -0.22285765
0.14539208 0.27621767 -0.22285771
0.24490698 0.27692181 -0.21850139
0.14539233 0.29038277 -0.22284937
0.14539233 0.30454648 -0.22284943
0.14539233 0.31871033 -0.22284937
0.14539233 0.33287406 -0.22284943
0.20195358 0.33258075 -0.22437376
0.14539233 0.34703791 -0.22284937
0.14539233 0.36120161 -0.22284943
0.14539233 0.37536547 -0.22284937
0.15938449 0.37440428 -0.22730839
0.14555582 0.39071447 -0.21753979
0.11733147 -0.40724301 -0.20552653
0.11733147 -0.39294586 -0.20552653
0.13142793 -0.39120668 -0.21421599
0.11733134 -0.37864712 -0.20553499
0.13142774 -0.37697488 -0.2142244
0.11733134 -0.36435005 -0.20553499
0.17461753 -0.36474165 -0.20341516
0.13142774 -0.36274457 -0.21422446
0.11733134 -0.35005304 -0.20553488
0.13142774 -0.3485145 -0.21422446
0.18863994 -0.34947225 -0.20881456
0.11733121 -0.33575448 -0.20554334
0.13142754 -0.33428288 -0.2142328
0.20258066 -0.33428994 -0.2141912
0.11733121 -0.32145751 -0.20554328
0.13142754 -0.32005274 -0.2142328
0.21720855 -0.3209869 -0.20845443
0.11733121 -0.30716053 -0.20554328
0.13142754 -0.30582267 -0.21423268
0.11733121 -0.29286349 -0.20554334
0.13142754 -0.29159254 -0.21423268
0.11733121 -0.27856648 -0.20554346
0.24588691 -0.27837452 -0.20692861
0.13142754 -0.27736241 -0.21423268
0.11733121 -0.2642695 -0.20554334
0.13142754 -0.26313236 -0.21423268
0.11733121 -0.24997246 -0.20554328
0.13142754 -0.24890225 -0.21423268
0.11733121 -0.2356755 -0.20554328
0.13142754 -0.23467211 -0.21423268
0.27461168 -0.235691 -0.20540881
0.11733121 -0.22137842 -0.20554334
0.13142754 -0.220442 -0.21423268
0.11733121 -0.20708145 -0.20554334
0.13142754 -0.20621191 -0.21423268
0.28784847 -0.20610946 -0.21525598
0.11733121 -0.19278446 -0.20554334
0.13142754 -0.19198182 -0.21423268
0.11733121 -0.17848749 -0.20554328
0.13142754 -0.17775163 -0.2142328
0.30309236 -0.1784142 -0.20640844
0.11733121 -0.1641905 -0.20554328
0.13142754 -0.1635215 -0.2142328
0.30207551 -0.16344598 -0.21521443
0.11733121 -0.14989343 -0.20554346
0.13142754 -0.14929141 -0.2142328
0.11733121 -0.13559641 -0.20554334
0.13142754 -0.13506128 -0.2142328
0.11733121 -0.12129943 -0.20554328
0.13142754 -0.12083122 -0.2142328
0.31674856 -0.1209754 -0.21155679
0.11733121 -0.10700246 -0.20554328
0.13142754 -0.10660113 -0.21423268
0.11733108 -0.092705108 -0.2055518
0.13142754 -0.092370987 -0.21423268
0.33197886 -0.092762075 -0.20407176
0.11733121 -0.078408413 -0.20554334
0.13142754 -0.078140885 -0.21423268
0.11733121 -0.064111441 -0.20554334
0.13142754 -0.063910767 -0.21423268
0.11733134 -0.049814548 -0.20553505
0.13142754 -0.049680702 -0.21423268
0.11733134 -0.035517506 -0.20553488
0.13142774 -0.035450622 -0.21422434
0.11733134 -0.021220464 -0.20553488
0.13142774 -0.021220429 -0.2142244
0.11733134 -0.0069233505 -0.20553488
0.13142774 -0.0069902549 -0.2142244
0.11733134 0.0073736906 -0.20553488
0.13142774 0.0072398819 -0.2142244
0.11733147 0.021670951 -0.20552647
0.13142774 0.021470128 -0.2142244
0.11733134 0.035967827 -0.20553488
0.13142774 0.035700269 -0.2142244
0.33051735 0.035668962 -0.21523929
0.11733121 0.050264597 -0.20554346
0.13142754 0.049930125 -0.21423268
0.33059683 0.04991474 -0.21463215
0.13142774 0.06416063 -0.21422446
0.33067632 0.064169832 -0.21402454
0.11733134 0.064561926 -0.20553488
0.11733134 0.078859061 -0.20553505
0.13142774 0.078390785 -0.2142244
0.33075589 0.078434333 -0.21341658
0.11733134 0.093156084 -0.20553488
0.13142774 0.092620991 -0.2142244
0.3313691 0.092959292 -0.20873082
0.11733134 0.10745315 -0.20553488
0.13142774 0.1068512 -0.21422446
0.11733134 0.12175024 -0.20553499
0.13142774 0.12108136 -0.2142244
0.11733121 0.13604662 -0.20554334
0.13142754 0.1353108 -0.21423268
0.31714514 0.13581005 -0.20833725
0.13142754 0.14954092 -0.21423268
0.11733121 0.1503436 -0.20554334
0.11733121 0.16464059 -0.20554334
0.13142754 0.16377105 -0.21423268
0.11733108 0.1789367 -0.20555174
0.13142735 0.17800029 -0.21424109
0.30291706 0.17868069 -0.20792657
0.11733108 0.19323361 -0.20555174
0.13142735 0.19223027 -0.21424103
0.11733108 0.2075306 -0.20555174
0.13142735 0.20646031 -0.21424103
0.11733108 0.22182751 -0.20555174
0.13142715 0.2206893 -0.21424943
0.28868175 0.22156934 -0.20752418
0.13142715 0.23491928 -0.21424931
0.11733108 0.23612452 -0.20555168
0.11733108 0.2504214 -0.20555174
0.13142715 0.24914926 -0.21424931
0.11733108 0.26471832 -0.20555174
0.13142735 0.26338053 -0.21424109
0.26003 0.26426756 -0.20847958
0.11733108 0.27901524 -0.2055518
0.13142735 0.27761066 -0.21424109
0.11733108 0.29331216 -0.2055518
0.13142735 0.29184067 -0.21424103
0.11733108 0.3076092 -0.20555174
0.13142735 0.30607069 -0.21424103
0.23179848 0.30782044 -0.2043578
0.13142735 0.32030076 -0.21424103
0.21679495 0.32026681 -0.21442419
0.11733121 0.32190758 -0.20554334
0.11733121 0.33620471 -0.20554334
0.13142735 0.33453077 -0.21424103
0.11733121 0.3505016 -0.20554334
0.13142754 0.34876251 -0.21423268
0.11733121 0.36479864 -0.20554334
0.13142735 0.36299092 -0.21424109
0.11733121 0.37909558 -0.20554334
0.13142735 0.3772209 -0.21424097
0.11733121 0.39339262 -0.20554328
0.13142735 0.39145097 -0.21424103
0.11733121 0.40768972 -0.20554334
0.13157918 0.40719929 -0.20766675
0.10310192 -0.42343256 -0.19674647
0.10310186 -0.40906614 -0.19675499
0.10310186 -0.39470151 -0.19675499
0.14632645 -0.39555055 -0.19251263
0.10310186 -0.38033682 -0.19675499
0.16051318 -0.38010025 -0.19798404
0.1031018 -0.36597061 -0.1967634
0.1031018 -0.35160601 -0.19676346
0.1031018 -0.33724141 -0.19676346
0.1031018 -0.32287681 -0.19676346
0.1031018 -0.30851218 -0.19676346
0.23236547 -0.30847698 -0.19699234
0.1031018 -0.29414767 -0.1967634
0.1031018 -0.27978307 -0.1967634
0.1031018 -0.2654185 -0.19676346
0.26123381 -0.26559064 -0.1954478
0.1031018 -0.25105384 -0.1967634
0.1031018 -0.23668931 -0.19676346
0.10310173 -0.22232385 -0.19677186
0.29014909 -0.22263235 -0.19390905
0.10310173 -0.20795926 -0.19677192
0.10310173 -0.19359472 -0.19677192
0.30411893 -0.19352579 -0.19751805
0.10310173 -0.17923021 -0.19677192
0.10310173 -0.16486563 -0.19677192
0.10310173 -0.15050122 -0.19677186
0.31893688 -0.15070777 -0.19378996
0.10310173 -0.13613664 -0.19677192
0.31783754 -0.13577056 -0.20271581
0.10310173 -0.12177212 -0.19677192
0.10310173 -0.10740761 -0.19677186
0.10310173 -0.093043022 -0.19677192
0.34797621 -0.09323132 -0.19188184
0.10310173 -0.078678615 -0.19677186
0.10310173 -0.064314038 -0.19677192
0.1031018 -0.049949579 -0.19676346
0.1031018 -0.035585012 -0.19676346
0.1031018 -0.021220464 -0.1967634
0.10310186 -0.0068558073 -0.19675493
0.10310186 0.0075088684 -0.19675493
0.10310186 0.021873506 -0.19675493
0.10310173 0.03623765 -0.19677186
0.1031018 0.050602563 -0.19676346
0.1031018 0.064967126 -0.19676346
0.1031018 0.079331674 -0.19676328
0.10310186 0.093696848 -0.19675499
0.1031018 0.10806087 -0.1967634
0.3327356 0.10795514 -0.19828892
0.1031018 0.12242552 -0.1967634
0.1031018 0.13679008 -0.19676346
0.10310173 0.15115386 -0.19677192
0.31843388 0.15105207 -0.19787389
0.10310173 0.1655184 -0.19677192
0.10310173 0.17988288 -0.19677186
0.10310166 0.19424649 -0.19678038
0.3041248 0.19416721 -0.19746715
0.10310166 0.20861088 -0.19678038
0.10310166 0.22297539 -0.19678038
0.10310166 0.23733982 -0.19678038
0.10310166 0.25170425 -0.19678026
0.27531743 0.25147375 -0.19835675
0.10310166 0.26606876 -0.19678038
0.10310166 0.28043321 -0.19678038
0.10310166 0.29479772 -0.19678038
0.24696635 0.29523781 -0.1941812
0.10310173 0.30916372 -0.19677192
0.10310173 0.3235282 -0.19677192
0.10310173 0.33789262 -0.19677192
0.10310173 0.35225731 -0.19677192
0.2034412 0.35156748 -0.20021766
0.10310173 0.36662173 -0.19677186
0.18955192 0.36763641 -0.19189048
0.10310173 0.38098636 -0.19677186
0.10310173 0.39535081 -0.19677192
0.10310173 0.40971527 -0.19677192
0.10310173 0.42407987 -0.19677192
0.11745216 0.42386141 -0.19768751
0.074235499 -0.44176981 -0.1789521
0.088737205 -0.43977416 -0.18789148
0.074235499 -0.42726809 -0.17895216
0.088737205 -0.42534122 -0.18789148
0.11770153 -0.42672104 -0.18149024
0.074235499 -0.41276643 -0.1789521
0.088737205 -0.41090661 -0.18790007
0.13205604 -0.41109005 -0.18701762
0.074235566 -0.39826295 -0.1789608
0.088737205 -0.3964738 -0.18790007
0.074235566 -0.38376132 -0.1789608
0.088737205 -0.38204095 -0.18790013
0.074235566 -0.36925969 -0.17896074
0.088737205 -0.36760813 -0.18790013
0.074235633 -0.35475653 -0.17896932
0.088737205 -0.35317376 -0.18790865
0.074235633 -0.34025496 -0.17896938
0.088737205 -0.33874103 -0.18790847
0.074235633 -0.32575336 -0.17896944
0.088737205 -0.32430828 -0.18790865
0.074235633 -0.31125185 -0.17896938
0.088737205 -0.30987552 -0.18790871
0.074235633 -0.29675025 -0.17896938
0.088737205 -0.29544279 -0.18790859
0.24771096 -0.29581153 -0.18538773
0.074235633 -0.28224871 -0.17896932
0.088737205 -0.28100997 -0.18790865
0.074235633 -0.26774713 -0.17896938
0.088737205 -0.2665773 -0.18790859
0.074235633 -0.2532455 -0.17896938
0.088737205 -0.25214452 -0.18790865
0.27677178 -0.25264761 -0.18382388
0.074235633 -0.23874399 -0.17896932
0.088737205 -0.23771177 -0.18790859
0.074235633 -0.22424237 -0.17896938
0.088737205 -0.22327897 -0.18790865
0.074235633 -0.20974082 -0.17896944
0.088737205 -0.20884621 -0.18790871
0.30588007 -0.20941095 -0.18226582
0.074235633 -0.19523926 -0.17896932
0.088737205 -0.19441348 -0.18790865
0.074235633 -0.18073769 -0.17896938
0.088737205 -0.17998067 -0.18790865
0.074235633 -0.16623613 -0.17896932
0.088737205 -0.16554801 -0.18790865
0.32004583 -0.16578829 -0.18478656
0.074235633 -0.15173458 -0.17896938
0.088737205 -0.15111519 -0.18790865
0.074235633 -0.13723293 -0.17896938
0.088737205 -0.13668251 -0.18790859
0.074235633 -0.12273146 -0.17896932
0.088737205 -0.12224971 -0.18790865
0.33499718 -0.12262164 -0.18100739
0.074235633 -0.1082298 -0.17896938
0.088737205 -0.10781704 -0.18790859
0.3338131 -0.10771781 -0.19005549
0.074235633 -0.093728259 -0.17896944
0.088737205 -0.093384236 -0.18790865
0.3641836 -0.093706287 -0.1795398
0.0742357 -0.079226434 -0.17897809
0.088737205 -0.078951247 -0.18791717
0.074235633 -0.064725138 -0.17896938
0.088737205 -0.064518683 -0.18790859
0.34875005 -0.064555913 -0.1862973
0.074235633 -0.050223574 -0.17896932
0.088737205 -0.050085939 -0.18790865
0.34836555 -0.050067965 -0.18907243
0.074235566 -0.035722084 -0.17896062
0.088737205 -0.035653211 -0.18790859
0.34845442 -0.035649147 -0.18843085
0.074235566 -0.021220446 -0.17896074
0.088737205 -0.02122041 -0.18790007
0.34854102 -0.021220446 -0.18780577
0.074235566 -0.0067188265 -0.17896074
0.088737205 -0.0067875907 -0.18790013
0.34862769 -0.0067820847 -0.18718052
0.074235566 0.0077828113 -0.1789608
0.088737205 0.0076451916 -0.18789995
0.34871441 0.0076659378 -0.18655467
0.074235633 0.022284305 -0.17896944
0.088737205 0.022077868 -0.18790871
0.3488012 0.022123514 -0.18592846
0.074235633 0.036785796 -0.17896938
0.088737205 0.036510319 -0.18791717
0.34888798 0.036590859 -0.18530178
0.074235633 0.051287435 -0.17896938
0.088737205 0.050943322 -0.18790871
0.34897608 0.051068179 -0.18466622
0.074235633 0.065788999 -0.17896944
0.088737205 0.065376051 -0.18790859
0.34906298 0.065554835 -0.18403882
0.074235566 0.080291003 -0.17896062
0.088737205 0.079808868 -0.18790865
0.34915 0.080051221 -0.183411
0.074235566 0.094792642 -0.17896062
0.088737205 0.094242126 -0.18789995
0.074235566 0.10929427 -0.17896074
0.088737205 0.10867495 -0.18790007
0.074235633 0.12379523 -0.17896938
0.088737205 0.12310708 -0.18790859
0.33411869 0.12312167 -0.18772024
0.088737205 0.13753989 -0.18790859
0.074235633 0.13829684 -0.17896938
0.074235633 0.15279834 -0.17896932
0.088737205 0.15197268 -0.18790865
0.0742357 0.16729906 -0.17897803
0.088737205 0.16640453 -0.18791717
0.31973618 0.16646621 -0.18730038
0.0742357 0.18180063 -0.17897809
0.088737205 0.18083721 -0.18791711
0.074235633 0.19630311 -0.17896932
0.088737205 0.19526996 -0.18791717
0.074235767 0.21080258 -0.17898667
0.088737205 0.20970151 -0.18792576
0.30534625 0.20982924 -0.18688905
0.074235767 0.22530399 -0.17898661
0.088737205 0.22413418 -0.1879257
0.074235767 0.23980543 -0.17898661
0.088737205 0.23856679 -0.18792564
0.29077363 0.23854068 -0.18811411
0.074235767 0.25430679 -0.17898667
0.088737205 0.25299937 -0.18792564
0.0742357 0.26880962 -0.17897803
0.088737205 0.26743203 -0.18792576
0.0742357 0.28331116 -0.17897803
0.088737205 0.2818661 -0.18791717
0.26230043 0.28251523 -0.18390125
0.088737205 0.2962988 -0.18791717
0.0742357 0.29781267 -0.17897803
0.0742357 0.31231409 -0.17897803
0.088737205 0.31073144 -0.18791711
0.0742357 0.32681563 -0.17897791
0.088737205 0.32516423 -0.18791717
0.23369968 0.32668948 -0.17966074
0.0742357 0.34131715 -0.17897803
0.088737205 0.33959687 -0.18791711
0.2184874 0.3391968 -0.18999565
0.0742357 0.3558186 -0.17897803
0.088737205 0.35402954 -0.18791711
0.088737205 0.36846226 -0.18791717
0.0742357 0.3703202 -0.17897803
0.0742357 0.38482162 -0.17897803
0.088737205 0.3828949 -0.18791711
0.17561865 0.38422623 -0.18174022
0.0742357 0.39932308 -0.17897803
0.088737205 0.39732754 -0.18791711
0.0742357 0.41382471 -0.17897803
0.088737205 0.41176018 -0.18791723
0.0742357 0.4283261 -0.17897803
0.088737205 0.42619282 -0.18791717
0.0742357 0.44282764 -0.17897809
0.088737205 0.44062552 -0.18791717
0.1031724 0.44070575 -0.18759173
0.0742357 0.45732921 -0.17897803
0.059594851 -0.4583557 -0.16992712
0.059594851 -0.44378459 -0.16992712
0.059594851 -0.42921337 -0.16992712
0.059594851 -0.41464227 -0.16992706
0.059594851 -0.400071 -0.16992712
0.059594985 -0.38549823 -0.1699357
0.059594985 -0.37092704 -0.16993576
0.059594985 -0.35635599 -0.16993576
0.20544061 -0.35674277 -0.16775125
0.059595119 -0.34178337 -0.16994458
0.21963999 -0.34120497 -0.17335963
0.059595119 -0.3272123 -0.16994452
0.23404162 -0.32635969 -0.17521882
0.059595119 -0.31264126 -0.16994458
0.059595119 -0.29807025 -0.16994452
0.059595119 -0.28349921 -0.16994452
0.26324856 -0.28298748 -0.17363787
0.059595119 -0.26892814 -0.16994452
0.059595119 -0.2543571 -0.16994452
0.059595119 -0.23978606 -0.16994447
0.29250443 -0.23954245 -0.17205429
0.059595119 -0.22521502 -0.16994447
0.059595119 -0.21064399 -0.16994447
0.059595119 -0.19607292 -0.16994447
0.059595119 -0.1815019 -0.16994447
0.32116657 -0.18101555 -0.17568731
0.059595119 -0.16693085 -0.16994447
0.059595119 -0.15235989 -0.16994447
0.059595119 -0.13778874 -0.16994452
0.33619276 -0.1376701 -0.1718713
0.059595119 -0.12321771 -0.16994458
0.059595119 -0.10864669 -0.16994452
0.059595119 -0.09407565 -0.16994452
0.38060755 -0.094187997 -0.16702503
0.059595119 -0.079504609 -0.16994452
0.35000885 -0.079280831 -0.17721289
0.059595119 -0.064933531 -0.16994452
0.059594985 -0.050362617 -0.16993588
0.059594985 -0.035791524 -0.16993576
0.059594985 -0.021220429 -0.1699357
0.059594985 -0.0066493694 -0.1699357
0.059594985 0.0079217795 -0.16993588
0.059595119 0.022492694 -0.16994447
0.059595119 0.037063658 -0.16994447
0.059595119 0.051634714 -0.16994447
0.059595119 0.066205755 -0.16994447
0.059594985 0.080777325 -0.1699357
0.059594985 0.09534844 -0.16993588
0.34997761 0.09488643 -0.17743808
0.059594985 0.10991957 -0.16993576
0.35147393 0.11014796 -0.16663969
0.059594985 0.12449064 -0.1699357
0.059595119 0.13906105 -0.16994447
0.33551756 0.13846098 -0.17703092
0.059595119 0.15363209 -0.16994452
0.059595257 0.1682023 -0.16995323
0.059595257 0.18277328 -0.16995329
0.32105333 0.18205619 -0.17660642
0.059595119 0.19734523 -0.16994447
0.059595257 0.21191515 -0.16995323
0.059595257 0.22648613 -0.16995323
0.30658165 0.22566991 -0.17619032
0.059595257 0.2410571 -0.16995323
0.059595257 0.25562817 -0.16995323
0.059595257 0.270199 -0.16995323
0.27780509 0.26965332 -0.17349875
0.059595257 0.28477007 -0.16995323
0.059595257 0.29934096 -0.16995323
0.059595257 0.313912 -0.16995323
0.24908005 0.31404179 -0.16921979
0.059595119 0.32848457 -0.16994458
0.059595119 0.34305561 -0.16994458
0.059595119 0.35762662 -0.16994452
0.059595119 0.37219769 -0.16994452
0.059595257 0.38676688 -0.16995323
0.059595257 0.4013378 -0.16995323
0.16153334 0.40099716 -0.17147928
0.059595257 0.41590884 -0.16995323
0.059595257 0.43047991 -0.16995323
0.059595257 0.44505075 -0.16995323
0.059595257 0.45962179 -0.16995323
0.044813246 -0.46046001 -0.16081518
0.044813246 -0.44581872 -0.16081512
0.044813246 -0.4311775 -0.16081512
0.044813246 -0.41653609 -0.16081518
0.044813246 -0.40189478 -0.16081512
0.044813246 -0.3872534 -0.16081512
0.17678788 -0.38809827 -0.15642536
0.044813443 -0.37261054 -0.16082388
0.19115669 -0.37237293 -0.16210961
0.044813443 -0.35796928 -0.16082388
0.044813443 -0.34332794 -0.160824
0.044813648 -0.32868534 -0.1608327
0.044813443 -0.31404546 -0.16082394
0.2495786 -0.31365934 -0.16333205
0.044813443 -0.29940423 -0.16082394
0.044813443 -0.28476298 -0.16082388
0.044813443 -0.27012175 -0.16082388
0.27898183 -0.27000186 -0.16173989
0.044813443 -0.25548041 -0.16082394
0.044813443 -0.24083918 -0.16082394
0.044813443 -0.22619793 -0.16082394
0.30843538 -0.22627211 -0.1601364
0.044813443 -0.21155676 -0.16082394
0.044813648 -0.19691466 -0.16083282
0.3222993 -0.19639201 -0.16649073
0.044813648 -0.18227349 -0.1608327
0.044813648 -0.16763227 -0.1608327
0.044813648 -0.15299112 -0.1608327
0.33740002 -0.15286545 -0.16264629
0.044813648 -0.13834995 -0.16083276
0.044813648 -0.12370878 -0.16083276
0.044813856 -0.10906711 -0.16084152
0.35256213 -0.10916207 -0.15878618
0.044813443 -0.094426721 -0.16082388
0.044813648 -0.079785168 -0.16083276
0.044813648 -0.065143958 -0.16083276
0.36778724 -0.065280959 -0.15490156
0.044813443 -0.050502952 -0.16082394
0.3672927 -0.050542109 -0.15828258
0.044813443 -0.035861671 -0.16082394
0.36739093 -0.035886429 -0.15761089
0.044813246 -0.021220464 -0.16081512
0.3674854 -0.021220373 -0.15696526
0.044813246 -0.006579129 -0.16081512
0.36757988 -0.0065445481 -0.15631914
0.044813443 0.0080620423 -0.16082388
0.36767578 0.0081415437 -0.15566373
0.044813648 0.022703106 -0.1608327
0.36777037 0.022837406 -0.15501672
0.044813648 0.037344255 -0.1608327
0.36786509 0.037543327 -0.15436924
0.044813648 0.051985465 -0.1608327
0.044813443 0.066627093 -0.16082388
0.044813443 0.081268333 -0.16082388
0.044813443 0.095909558 -0.16082388
0.044813443 0.11055087 -0.16082394
0.044813443 0.12519215 -0.16082394
0.35298866 0.12558588 -0.15570807
0.044813648 0.13983263 -0.16083276
0.044813648 0.1544738 -0.16083276
0.33693361 0.15397699 -0.16621035
0.044813648 0.16911502 -0.16083276
0.33836484 0.16967127 -0.15527374
0.044813648 0.18375614 -0.1608327
0.044813648 0.19839731 -0.1608327
0.32238561 0.19782501 -0.16578972
0.044813856 0.21303748 -0.16084158
0.32373327 0.21377569 -0.15484834
0.044813856 0.22767851 -0.16084152
0.044813856 0.24231961 -0.16084158
0.044813856 0.25696084 -0.16084158
0.29348141 0.25664666 -0.16298914
0.044813856 0.27160192 -0.16084146
0.044813856 0.28624296 -0.16084152
0.044813648 0.30088571 -0.16083276
0.2646327 0.30125463 -0.15865362
0.044813648 0.3155269 -0.16083276
0.044813648 0.3301681 -0.16083276
0.044813648 0.34480929 -0.16083276
0.2356514 0.34606501 -0.15430719
0.044813648 0.35945031 -0.16083264
0.22090651 0.36060202 -0.15507883
0.044813648 0.37409154 -0.16083264
0.044813648 0.3887327 -0.1608327
0.044813648 0.4033739 -0.1608327
0.044813648 0.41801509 -0.16083276
0.14729354 0.41795209 -0.16110587
0.044813648 0.43265623 -0.16083276
0.044813648 0.44729742 -0.16083276
0.044813648 0.46193865 -0.16083276
0.044813648 0.4765799 -0.1608327
0.014818937 -0.49429736 -0.14232552
0.014818937 -0.4795137 -0.14232552
0.02988863 -0.47729686 -0.15161502
0.044400971 -0.47936153 -0.14296317
0.014818937 -0.46473005 -0.14232552
0.02988863 -0.46258473 -0.15161502
0.014818937 -0.44994637 -0.14232552
0.02988863 -0.44787255 -0.15161508
0.014818937 -0.43516278 -0.14232552
0.02988863 -0.43316048 -0.15161502
0.014818594 -0.42038095 -0.14231646
0.02988863 -0.41844827 -0.15161502
0.14779031 -0.41982898 -0.14497221
0.014818937 -0.40559542 -0.14232546
0.02988863 -0.40373608 -0.15161508
0.16233253 -0.40391606 -0.15071595
0.014818937 -0.39081183 -0.1423254
0.02988863 -0.38902402 -0.15161502
0.014818937 -0.37602815 -0.14232552
0.029888909 -0.37431017 -0.1516239
0.014819279 -0.36124286 -0.14233458
0.029888909 -0.35959819 -0.1516239
0.014819279 -0.3464593 -0.14233452
0.029888909 -0.34488603 -0.1516239
0.014819279 -0.33167568 -0.14233446
0.029888909 -0.33017403 -0.1516239
0.014819279 -0.31689215 -0.14233446
0.029888909 -0.3154619 -0.15162402
0.014819279 -0.30210853 -0.14233452
0.029888909 -0.3007499 -0.1516239
0.26531088 -0.30079544 -0.15131241
0.014819279 -0.28732491 -0.14233446
0.029888909 -0.28603777 -0.15162402
0.014819279 -0.27254134 -0.14233446
0.029888909 -0.27132565 -0.15162385
0.014819279 -0.25775781 -0.14233446
0.029888909 -0.25661358 -0.1516239
0.29491454 -0.25685161 -0.14969122
0.014819279 -0.24297415 -0.14233452
0.029888909 -0.24190153 -0.1516239
0.014819279 -0.2281906 -0.14233452
0.029888909 -0.22718945 -0.15162402
0.014819279 -0.21340704 -0.14233446
0.029888909 -0.2124774 -0.1516239
0.32456848 -0.21283327 -0.14806724
0.014819279 -0.19862349 -0.14233446
0.029888909 -0.1977654 -0.15162385
0.014819279 -0.18383983 -0.14233452
0.029888909 -0.18305327 -0.1516239
0.33985025 -0.18370531 -0.1439234
0.014819279 -0.1690563 -0.14233452
0.029888909 -0.16834125 -0.1516239
0.33861795 -0.16820906 -0.15333968
0.014819279 -0.15427275 -0.14233452
0.029888909 -0.15362908 -0.1516239
0.014819279 -0.13948914 -0.14233446
0.029888909 -0.13891706 -0.15162385
0.014819279 -0.12470549 -0.14233452
0.029888909 -0.12420494 -0.1516239
0.35385817 -0.12432302 -0.14943266
0.014819629 -0.10992154 -0.14234358
0.029889181 -0.10949244 -0.15163285
0.36911374 -0.10976042 -0.145832
0.014819279 -0.095138334 -0.14233446
0.029888909 -0.09478081 -0.15162402
0.014819629 -0.08035446 -0.14234346
0.029889181 -0.080068484 -0.15163285
0.36916089 -0.080256961 -0.14550972
0.014819279 -0.065571181 -0.14233458
0.029888909 -0.065356672 -0.1516239
0.014818937 -0.05078771 -0.14232552
0.029888909 -0.050644621 -0.1516239
0.014818937 -0.036004104 -0.14232546
0.02988863 -0.035932608 -0.15161496
0.014818937 -0.021220429 -0.14232552
0.02988863 -0.021220429 -0.15161502
0.014819279 -0.0064368611 -0.14233446
0.029888909 -0.0065083047 -0.15162402
0.014819629 0.0083466507 -0.14234346
0.029889181 0.0082035437 -0.15163285
0.014819629 0.023130128 -0.14234346
0.029889181 0.02291563 -0.15163285
0.014819629 0.037913695 -0.14234346
0.029889181 0.037627608 -0.15163285
0.014819279 0.052697457 -0.14233446
0.029889181 0.052339584 -0.15163285
0.36795986 0.052259222 -0.15372157
0.014819279 0.067481063 -0.14233452
0.029888909 0.067051977 -0.1516239
0.36805463 0.066985019 -0.15307313
0.014819279 0.082264662 -0.14233446
0.029888909 0.081764065 -0.1516239
0.36814952 0.081721008 -0.1524244
0.014818937 0.097048782 -0.14232552
0.029888909 0.096476205 -0.1516239
0.36922508 0.096879765 -0.14507079
0.014818937 0.11183239 -0.14232546
0.029888909 0.11118823 -0.15162385
0.014819279 0.12661546 -0.14233452
0.029888909 0.12590036 -0.1516239
0.014819279 0.141399 -0.14233446
0.029888909 0.14061236 -0.1516239
0.35452217 0.14120367 -0.14464062
0.014819629 0.15618181 -0.14234346
0.029889181 0.15532368 -0.15163285
0.014819629 0.17096527 -0.14234358
0.029889181 0.17003566 -0.15163285
0.014819279 0.18574978 -0.14233452
0.029889181 0.18474764 -0.15163285
0.33981264 0.18554755 -0.14421034
0.014819972 0.2005312 -0.14235246
0.029889457 0.1994586 -0.15164173
0.014819972 0.2153147 -0.14235246
0.029889457 0.21417053 -0.15164167
0.014819972 0.23009813 -0.14235252
0.029889457 0.22888243 -0.15164167
0.014819972 0.24488154 -0.1423524
0.029889457 0.24359435 -0.15164173
0.3093341 0.24349591 -0.15235323
0.014819972 0.25966498 -0.1423524
0.029889457 0.25830632 -0.15164173
0.014819629 0.27444983 -0.14234346
0.029889457 0.2730183 -0.15164173
0.014819629 0.28923345 -0.14234346
0.029889181 0.28773162 -0.15163273
0.28035903 0.28832254 -0.14797789
0.014819629 0.30401695 -0.14234346
0.029889181 0.30244368 -0.15163285
0.014819629 0.31880045 -0.14234346
0.029889181 0.31715581 -0.15163285
0.029889181 0.33186775 -0.15163273
0.25125173 0.33335671 -0.14357352
0.014819629 0.33358389 -0.14234346
0.014819629 0.34836751 -0.14234346
0.029889181 0.34657973 -0.15163273
0.014819629 0.36315101 -0.14234346
0.029889181 0.36129174 -0.15163285
0.014819629 0.37793449 -0.14234346
0.029889181 0.37600371 -0.15163285
0.20687103 0.37748128 -0.1445241
0.014819629 0.39271811 -0.14234346
0.029889181 0.39071569 -0.15163285
0.029889181 0.40542778 -0.15163273
0.014819629 0.40750155 -0.14234346
0.014819629 0.42228508 -0.14234346
0.029889181 0.42013976 -0.15163273
0.014819629 0.43706855 -0.14234346
0.029889181 0.43485177 -0.15163285
0.13289687 0.43509597 -0.15060902
0.014819629 0.45185214 -0.14234346
0.029889181 0.4495638 -0.15163285
0.014819629 0.46663561 -0.14234346
0.029889181 0.46427575 -0.15163285
0.029889181 0.47898769 -0.15163285
0.014819629 0.48141915 -0.14234346
0.014819279 0.49620509 -0.14233446
-0.00039797276 -0.49660805 -0.1329453
-0.00039797276 -0.48175213 -0.1329453
-0.00039797276 -0.46689638 -0.13294518
0.073926874 -0.46553028 -0.13886034
-0.00039797276 -0.45204046 -0.13294518
0.10357925 -0.45163989 -0.13473994
-0.00039797276 -0.4371846 -0.1329453
0.1333587 -0.43768775 -0.13061082
-0.00039839 -0.42233062 -0.13293618
-0.00039839 -0.4074747 -0.13293618
-0.00039797276 -0.39261708 -0.13294518
-0.00039797276 -0.37776113 -0.13294518
-0.00039797276 -0.36290529 -0.1329453
-0.00039755553 -0.34804794 -0.13295424
0.23746924 -0.3484309 -0.13069272
-0.00039755553 -0.33319208 -0.1329543
0.25184882 -0.33261532 -0.13652211
-0.00039755553 -0.31833631 -0.13295424
-0.00039797276 -0.30348188 -0.1329453
-0.00039755553 -0.28862476 -0.13295424
0.28124532 -0.28777012 -0.13912177
-0.00039755553 -0.2737689 -0.1329543
-0.00039755553 -0.25891319 -0.13295424
-0.00039755553 -0.24405734 -0.1329543
0.3110505 -0.24353373 -0.13748878
-0.00039755553 -0.2292015 -0.13295442
-0.00039755553 -0.21434577 -0.1329543
-0.00039755553 -0.19948992 -0.1329543
0.34109354 -0.19935432 -0.13442284
-0.00039755553 -0.18463418 -0.1329543
-0.00039755553 -0.16977832 -0.1329543
-0.00039755553 -0.1549226 -0.13295424
0.35648888 -0.15509631 -0.13044709
-0.00039755553 -0.14006676 -0.1329543
0.35516703 -0.13963372 -0.13998669
-0.00039755553 -0.12521097 -0.13295424
-0.00039755553 -0.1103552 -0.1329543
0.38586563 -0.11035897 -0.13287264
-0.00039755553 -0.095499419 -0.13295424
-0.00039713085 -0.080643348 -0.13296336
-0.00039755553 -0.065787815 -0.13295442
-0.00039797276 -0.050932109 -0.1329453
-0.00039797276 -0.03607633 -0.13294518
-0.00039797276 -0.021220464 -0.13294518
-0.00039755553 -0.006364597 -0.1329543
-0.00039713085 0.0084910523 -0.13296336
-0.00039713085 0.023346702 -0.13296342
-0.00039755553 0.038202733 -0.13295424
-0.00039755553 0.053058557 -0.13295424
-0.00039755553 0.067914262 -0.13295424
-0.00039755553 0.082770132 -0.13295424
-0.00039797276 0.09762653 -0.13294518
-0.00039797276 0.11248227 -0.13294518
0.37085932 0.11241636 -0.1338973
-0.00039755553 0.12733755 -0.13295442
-0.00039755553 0.1421933 -0.13295424
-0.00039755553 0.15704909 -0.13295442
0.35607237 0.15700299 -0.13345319
-0.00039713085 0.17190398 -0.13296336
-0.00039797276 0.18676157 -0.13294518
-0.00039671361 0.20161438 -0.13297248
0.34127736 0.2016091 -0.13301778
-0.00039713085 0.2164712 -0.13296336
-0.00039713085 0.23132685 -0.13296336
0.32536754 0.23019934 -0.14157951
-0.00039713085 0.24618262 -0.1329633
-0.00039713085 0.26103833 -0.13296342
-0.00039713085 0.27589399 -0.13296342
0.29626369 0.27524602 -0.1371727
-0.00039713085 0.29074973 -0.1329633
-0.00039713085 0.3056055 -0.13296342
-0.00039713085 0.32046124 -0.13296336
0.26702768 0.320503 -0.13272738
-0.00039755553 0.33531865 -0.13295424
-0.00039755553 0.35017437 -0.13295442
-0.00039713085 0.36502838 -0.13296342
-0.00039713085 0.37988403 -0.13296342
0.19267938 0.39454827 -0.13385206
-0.00039713085 0.39473981 -0.1329633
-0.00039713085 0.40959555 -0.13296342
-0.00039713085 0.42445132 -0.1329633
-0.00039713085 0.43930697 -0.13296336
-0.00039713085 0.45416278 -0.1329633
0.11834024 0.45242819 -0.14000469
0.088737205 0.46742883 -0.13922089
-0.00039713085 0.46901849 -0.13296336
-0.00039755553 0.48387653 -0.1329543
-0.00039755553 0.49873233 -0.13295424
-0.015764266 -0.49894145 -0.12347299
-0.015764266 -0.48401266 -0.12347281
-0.015764266 -0.46908388 -0.12347281
-0.015764266 -0.45415506 -0.12347299
-0.015764758 -0.43922827 -0.12346375
-0.015764758 -0.42429942 -0.12346375
-0.015764758 -0.40937054 -0.12346381
-0.015764758 -0.39444175 -0.12346363
-0.015764266 -0.37951118 -0.12347293
0.20844796 -0.38035277 -0.118918
-0.015764266 -0.36458239 -0.12347299
0.223003 -0.36434418 -0.12481874
-0.015764266 -0.3496536 -0.12347281
-0.015763775 -0.33472332 -0.12348211
-0.015763775 -0.31979465 -0.12348205
0.26742339 -0.31903067 -0.12844402
-0.015764266 -0.3048673 -0.12347281
-0.015764266 -0.28993848 -0.12347293
-0.015764266 -0.27500975 -0.12347281
0.29738235 -0.27457523 -0.12679285
-0.015764266 -0.26008096 -0.12347281
-0.015764266 -0.24515215 -0.12347299
-0.015764266 -0.23022342 -0.12347281
0.32739365 -0.2300448 -0.12512976
-0.015764266 -0.21529455 -0.12347281
-0.015763775 -0.20036496 -0.12348205
-0.015763775 -0.18543622 -0.12348211
-0.015763775 -0.17050755 -0.12348205
0.35782391 -0.17071305 -0.12081242
-0.015763775 -0.15557888 -0.12348205
-0.015763775 -0.14065009 -0.12348205
-0.015763775 -0.12572141 -0.12348205
-0.015764266 -0.11079314 -0.12347293
0.40284705 -0.11096605 -0.11972779
-0.015763775 -0.095863953 -0.12348205
-0.015763775 -0.080935284 -0.12348205
-0.015763775 -0.066006556 -0.12348205
0.38747233 -0.066030726 -0.12243706
-0.015764266 -0.051078007 -0.12347281
0.38685369 -0.0510321 -0.12645483
-0.015764266 -0.036149215 -0.12347281
0.3869592 -0.036131568 -0.12576962
-0.015764266 -0.021220392 -0.12347299
0.38706481 -0.021220392 -0.12508404
-0.015763775 -0.0062917862 -0.12348205
0.38716763 -0.0062989686 -0.12441599
-0.015763283 0.0086368918 -0.12349123
0.38727051 0.0086328816 -0.12374759
-0.015763283 0.023565499 -0.12349123
0.38737351 0.023575014 -0.12307882
-0.015763775 0.03849443 -0.12348211
0.38747656 0.038527444 -0.12240952
-0.015763775 0.053423069 -0.12348205
0.38758105 0.053490505 -0.12173057
-0.015763775 0.06835182 -0.12348193
0.38768423 0.06846372 -0.12106043
-0.015764266 0.083281033 -0.12347281
0.38778752 0.083447181 -0.12038976
-0.015764266 0.098209821 -0.12347281
-0.015764266 0.11313856 -0.12347281
-0.015764266 0.12806736 -0.12347281
0.37251407 0.12813579 -0.12258381
-0.015763775 0.14299536 -0.12348193
-0.015763775 0.1579241 -0.12348211
-0.015763775 0.17285281 -0.12348205
0.35764074 0.17298768 -0.12213439
-0.015763775 0.18778157 -0.12348211
-0.015763283 0.20270923 -0.12349123
-0.015763283 0.21763779 -0.12349123
0.34275931 0.21785918 -0.12169403
-0.015763283 0.23256648 -0.12349123
-0.015763283 0.24749514 -0.12349117
-0.015763283 0.26242366 -0.12349123
0.31234884 0.26202103 -0.12624484
-0.015763283 0.27735233 -0.12349117
-0.015763283 0.292281 -0.12349105
-0.015763775 0.30721128 -0.12348205
0.2829839 0.30750471 -0.12174886
-0.015763775 0.32213995 -0.12348205
-0.015763775 0.33706868 -0.12348205
-0.015763775 0.35199735 -0.12348205
-0.015763775 0.36692598 -0.12348205
-0.015763775 0.38185477 -0.12348211
-0.015763283 0.39678147 -0.12349105
-0.015763283 0.41171017 -0.12349123
0.17832893 0.41180623 -0.12306046
-0.015763283 0.42663875 -0.12349123
-0.015763283 0.44156736 -0.12349123
-0.015763283 0.45649606 -0.12349123
-0.015763775 0.47142696 -0.12348205
-0.015763775 0.48635572 -0.12348211
-0.015763775 0.50128454 -0.12348193
-0.015763775 0.51621318 -0.12348193
-0.031282149 -0.51630032 -0.11390704
-0.031282149 -0.50129789 -0.11390704
-0.031282149 -0.4862954 -0.11390716
-0.031282149 -0.471293 -0.11390716
-0.031282715 -0.45629269 -0.11389774
-0.031282715 -0.44129014 -0.11389786
-0.031282715 -0.42628765 -0.1138978
-0.031282715 -0.41128519 -0.11389774
0.17907079 -0.41266599 -0.10699904
-0.031282715 -0.39628267 -0.1138978
0.19380403 -0.39645907 -0.1129815
-0.031282149 -0.38127849 -0.11390698
-0.031282149 -0.36627612 -0.11390698
-0.031282149 -0.35127366 -0.11390716
-0.031281576 -0.33626977 -0.1139164
-0.031282149 -0.32126877 -0.11390704
-0.031282149 -0.30626637 -0.11390716
0.28356242 -0.30596495 -0.11596811
-0.031282149 -0.29126397 -0.11390716
-0.031282149 -0.27626154 -0.11390716
-0.031282149 -0.26125917 -0.11390704
0.31372863 -0.26121128 -0.11429566
-0.031282149 -0.24625675 -0.11390704
-0.031282149 -0.23125437 -0.11390704
-0.031282149 -0.21625192 -0.11390704
0.34394795 -0.21638156 -0.112611
-0.031282149 -0.20124941 -0.11390716
-0.031282149 -0.18624701 -0.11390716
0.35917234 -0.1864863 -0.11108112
-0.031282149 -0.17124458 -0.11390716
-0.031282149 -0.15624218 -0.11390704
-0.031282149 -0.14123979 -0.11390704
0.37479216 -0.14166467 -0.10700834
-0.031281576 -0.12623689 -0.11391634
0.37336296 -0.12608249 -0.11678028
-0.031282149 -0.11123499 -0.11390704
0.4200598 -0.11158108 -0.10641193
-0.031281576 -0.096232124 -0.1139164
-0.031281576 -0.081229866 -0.11391634
0.38896799 -0.081266642 -0.1127221
-0.031282149 -0.066227719 -0.11390698
-0.031282715 -0.051225431 -0.1138978
-0.031282715 -0.036222976 -0.1138978
-0.031282149 -0.021220429 -0.11390716
-0.031281009 -0.0062181726 -0.11392558
-0.031281009 0.0087841563 -0.11392558
-0.031281576 0.023786591 -0.11391634
-0.031281576 0.038788959 -0.11391622
-0.031281576 0.053791285 -0.11391634
-0.031281576 0.068793669 -0.11391634
-0.031282149 0.083796538 -0.11390716
-0.031282149 0.098798946 -0.11390716
0.38914639 0.098943196 -0.11156344
-0.031282149 0.11380132 -0.11390716
-0.031282149 0.12880373 -0.11390704
-0.031281576 0.14380538 -0.11391634
0.37418973 0.14404155 -0.1111275
-0.031281576 0.15880774 -0.11391634
-0.031282149 0.173811 -0.11390704
-0.031281576 0.18881248 -0.11391634
0.35922766 0.18916099 -0.11068195
-0.031281009 0.20381378 -0.11392558
-0.031281009 0.21881603 -0.11392552
-0.031281009 0.23381832 -0.11392558
-0.031281009 0.24882051 -0.11392552
0.3286176 0.24864501 -0.11519229
-0.031281009 0.26382276 -0.11392558
-0.031281009 0.27882519 -0.11392558
-0.031281576 0.2938289 -0.11391634
0.29912162 0.2943562 -0.11065418
-0.031281576 0.30883113 -0.11391634
-0.031281576 0.32383355 -0.11391634
-0.031281576 0.33883592 -0.11391634
0.26948965 0.34028441 -0.10607612
-0.031281576 0.35383821 -0.11391634
0.25351971 0.35328534 -0.11678946
-0.031281576 0.36884066 -0.11391634
0.23938504 0.37046394 -0.1058057
-0.031281576 0.38384303 -0.11391634
-0.031281576 0.39884529 -0.1139164
-0.031281576 0.41384766 -0.11391622
-0.031281576 0.42885005 -0.11391622
0.16381738 0.42926058 -0.11213839
-0.031281576 0.44385234 -0.11391634
-0.031281576 0.45885471 -0.11391634
-0.031281576 0.47385713 -0.11391634
-0.031281576 0.48885936 -0.11391634
0.058783136 0.48799872 -0.11720443
-0.031281576 0.50386173 -0.11391622
-0.031282149 0.51886672 -0.11390716
-0.062782466 -0.52123535 -0.094480157
-0.046953872 -0.51875442 -0.1042465
-0.062781736 -0.5060811 -0.094489515
-0.046953872 -0.50367761 -0.10424644
-0.062781736 -0.49092916 -0.094489515
-0.046953872 -0.48860085 -0.10424644
-0.062782466 -0.4757795 -0.094480038
-0.046953872 -0.47352403 -0.10424644
-0.062782466 -0.46062747 -0.094480157
-0.046954527 -0.45844936 -0.10423708
-0.062782466 -0.44547552 -0.094480097
-0.046954527 -0.44337249 -0.10423714
-0.062782466 -0.4303236 -0.094480097
-0.046954527 -0.42829564 -0.10423708
0.16424721 -0.42897457 -0.10097063
-0.062783197 -0.41517353 -0.09447062
-0.046954527 -0.41321874 -0.10423708
-0.062782466 -0.40001962 -0.094480038
-0.046954527 -0.39814189 -0.10423702
-0.062782466 -0.38486767 -0.094480157
-0.046954527 -0.38306504 -0.10423714
-0.062782466 -0.36971572 -0.094480097
-0.046953872 -0.36798647 -0.1042465
-0.062781736 -0.35456213 -0.094489574
-0.046953872 -0.35290971 -0.1042465
-0.062781736 -0.33941022 -0.094489574
-0.046953872 -0.33783296 -0.10424644
-0.062781736 -0.3242583 -0.094489574
-0.046953872 -0.32275617 -0.10424644
-0.062781736 -0.30910641 -0.094489574
-0.046953872 -0.30767941 -0.10424644
-0.062782466 -0.29395586 -0.094480097
-0.046953872 -0.29260257 -0.1042465
0.29991096 -0.29272956 -0.10333031
-0.062782466 -0.27880391 -0.094480097
-0.046953872 -0.27752575 -0.1042465
-0.062781736 -0.26365072 -0.094489634
-0.046953872 -0.26244903 -0.1042465
-0.062781736 -0.24849893 -0.094489515
-0.046953872 -0.24737222 -0.10424644
0.33028734 -0.24767371 -0.10163593
-0.062781736 -0.233347 -0.094489515
-0.046953872 -0.23229544 -0.10424644
-0.062781736 -0.21819508 -0.094489515
-0.046953872 -0.21721873 -0.10424644
-0.062781736 -0.20304318 -0.094489515
-0.046953872 -0.20214185 -0.1042465
0.36071754 -0.20254068 -0.099929273
-0.062781736 -0.18789129 -0.094489455
-0.046953872 -0.18706505 -0.1042465
-0.062781736 -0.1727394 -0.094489574
-0.046953872 -0.17198834 -0.1042465
-0.062781736 -0.15758751 -0.094489515
-0.046953872 -0.15691152 -0.10424644
0.37623584 -0.15740396 -0.097137988
-0.062781736 -0.14243563 -0.094489515
-0.046953872 -0.14183474 -0.10424632
-0.062781021 -0.12728317 -0.094498992
-0.046952575 -0.12675698 -0.10426515
0.39131808 -0.12712374 -0.097457886
-0.062782466 -0.11213225 -0.094480097
-0.046954527 -0.11168158 -0.10423714
-0.062781736 -0.096979871 -0.094489574
-0.046953872 -0.09660437 -0.1042465
-0.062781736 -0.08182805 -0.094489574
-0.046953231 -0.081527293 -0.1042558
-0.062781736 -0.066676132 -0.094489574
-0.046953872 -0.066450819 -0.10424644
-0.046954527 -0.051374134 -0.10423714
0.40707964 -0.051538751 -0.093545318
-0.046953872 -0.03629721 -0.1042465
-0.046953231 -0.021220464 -0.10425568
-0.046952575 -0.0061437562 -0.10426515
-0.046952575 0.0089328401 -0.10426509
-0.046953231 0.024009692 -0.10425574
-0.046953231 0.039086439 -0.10425574
-0.046953231 0.05416318 -0.1042558
-0.062781736 0.069690935 -0.094489515
-0.046953872 0.069240287 -0.10424644
-0.062781736 0.084842838 -0.094489515
-0.046953872 0.084317103 -0.10424632
-0.062781736 0.099994674 -0.094489574
-0.046953872 0.099393792 -0.10424632
-0.062782466 0.11514724 -0.094480097
-0.046953872 0.11447067 -0.1042465
0.39092749 0.11476517 -0.099995017
-0.062781736 0.13029851 -0.094489574
-0.046953872 0.12954746 -0.1042465
-0.062781736 0.14545044 -0.094489515
-0.046953231 0.14462349 -0.1042558
-0.062781736 0.16060235 -0.094489515
-0.046953231 0.15970016 -0.1042558
0.37588388 0.16013534 -0.099544346
-0.062782466 0.17575516 -0.094480097
-0.046953872 0.17477779 -0.10424632
-0.062780291 0.19090413 -0.094508469
-0.046952575 0.18985255 -0.10426509
-0.062781021 0.20605694 -0.094498992
-0.046952575 0.2049292 -0.10426509
0.36083335 0.20552635 -0.099093616
-0.062781021 0.22120868 -0.094498932
-0.046952575 0.22000587 -0.10426515
-0.046952575 0.23508251 -0.10426509
0.34507436 0.23511672 -0.10400337
-0.062781021 0.23636058 -0.094498932
-0.062781021 0.25151235 -0.094499052
-0.046953231 0.2501604 -0.1042558
-0.062781021 0.26666427 -0.094499052
-0.046953231 0.26523721 -0.10425568
-0.062781021 0.28181595 -0.094498992
-0.046953231 0.28031388 -0.10425574
0.31544602 0.28105804 -0.099422336
-0.046953231 0.29539055 -0.1042558
-0.062781021 0.29696786 -0.094498932
-0.062781021 0.31211969 -0.094499052
-0.046953231 0.3104673 -0.10425574
-0.062781021 0.32727155 -0.094498932
-0.046953231 0.325544 -0.1042558
0.28568068 0.32721803 -0.094800949
-0.062781736 0.34242499 -0.094489574
-0.046953231 0.34062082 -0.1042558
-0.062781736 0.35757694 -0.094489574
-0.046953231 0.35569748 -0.1042558
-0.062781021 0.37272695 -0.094498932
-0.046953231 0.37077415 -0.1042558
-0.062781021 0.38787884 -0.094498932
-0.046953231 0.38585082 -0.10425568
0.22508988 0.38783756 -0.094697118
-0.062781021 0.40303063 -0.094499052
-0.046953231 0.40092748 -0.10425574
-0.062781021 0.41818243 -0.094498932
-0.046953231 0.4160043 -0.10425568
-0.046953231 0.43108097 -0.10425574
-0.062781021 0.4333342 -0.094498992
-0.062781021 0.44848615 -0.094498932
-0.046953231 0.44615778 -0.10425568
0.14914118 0.44691035 -0.10110182
-0.062781021 0.46363786 -0.094498932
-0.046953231 0.46123442 -0.10425574
-0.062781021 0.47878975 -0.094498932
-0.046953231 0.47631109 -0.1042558
-0.046953231 0.4913879 -0.10425574
-0.062781736 0.49394411 -0.094489574
-0.062781736 0.50909597 -0.094489455
-0.046953872 0.5064671 -0.10424632
0.028135143 0.50904751 -0.094668806
-0.062781736 0.52424771 -0.094489515
-0.046953872 0.52154386 -0.1042465
-0.078768924 -0.5237388 -0.084625483
-0.078768104 -0.50850868 -0.0846349
-0.078768104 -0.49328083 -0.08463496
-0.078768924 -0.47805533 -0.084625423
-0.078768924 -0.46282753 -0.084625423
-0.078768924 -0.44759965 -0.084625423
-0.078768924 -0.43237182 -0.084625483
-0.078769729 -0.41714591 -0.084615946
-0.078768924 -0.40191615 -0.084625423
-0.078768924 -0.38668832 -0.084625483
-0.078768924 -0.3714605 -0.084625363
-0.078768104 -0.356231 -0.084635019
0.25612313 -0.35599229 -0.086044729
-0.078768104 -0.3410033 -0.08463496
0.27077642 -0.33978903 -0.092146277
-0.078768104 -0.32577559 -0.08463496
0.28593594 -0.32460314 -0.092250347
-0.078768104 -0.31054774 -0.08463496
-0.078768924 -0.29532135 -0.084625483
-0.078768924 -0.28009355 -0.084625363
0.31647316 -0.27932116 -0.090527356
-0.078768924 -0.26486576 -0.084625423
-0.078768924 -0.24963786 -0.084625483
-0.078768924 -0.23441005 -0.084625363
0.34706259 -0.23395899 -0.088810682
-0.078768924 -0.21918224 -0.084625483
-0.078768924 -0.20395435 -0.084625483
-0.078768104 -0.18872575 -0.08463496
-0.078768924 -0.17349873 -0.084625483
0.37769419 -0.17330308 -0.087167203
-0.078768924 -0.15827087 -0.084625483
-0.078768104 -0.14304249 -0.0846349
-0.078768104 -0.12781473 -0.084635019
0.40865111 -0.12785842 -0.083824277
-0.078768924 -0.1125874 -0.084625483
0.43751174 -0.11220506 -0.092902839
-0.078768104 -0.09735924 -0.0846349
0.40783888 -0.066806383 -0.08884877
0.4071942 -0.036385007 -0.092836618
0.40730888 -0.021220429 -0.092127383
0.40742207 -0.0060449867 -0.091427088
0.40753382 0.0091411378 -0.090735793
0.40764564 0.024337871 -0.090043902
0.40775758 0.039545394 -0.089351654
0.40786958 0.054763421 -0.08865881
0.40798163 0.069992244 -0.087965608
0.40809536 0.085232258 -0.087262332
-0.078768924 0.10060221 -0.084625423
-0.078768924 0.11583001 -0.084625483
-0.078768104 0.13105708 -0.0846349
0.39273131 0.13077658 -0.088279009
-0.078768104 0.14628492 -0.08463496
-0.078768104 0.16151261 -0.0846349
-0.078768924 0.17674138 -0.084625483
0.37759829 0.17642136 -0.087823033
-0.0787673 0.19196711 -0.084644496
-0.0787673 0.20719483 -0.084644437
-0.0787673 0.22242251 -0.084644437
0.3624596 0.22208831 -0.087357402
-0.0787673 0.2376501 -0.084644437
-0.0787673 0.2528778 -0.084644616
-0.0787673 0.26810551 -0.084644616
0.33195937 0.26760593 -0.088060617
-0.0787673 0.28333318 -0.084644616
-0.0787673 0.29856086 -0.084644496
-0.078768104 0.31379014 -0.08463496
0.30206043 0.31400183 -0.083385408
-0.078768104 0.32901791 -0.08463496
-0.078768104 0.34424567 -0.0846349
-0.078768104 0.35947344 -0.084635019
-0.078768104 0.37470126 -0.08463496
-0.0787673 0.38992697 -0.084644496
-0.0787673 0.40515465 -0.084644437
0.21063149 0.4054096 -0.083461821
-0.0787673 0.42038235 -0.084644437
-0.0787673 0.43561 -0.084644437
-0.0787673 0.45083767 -0.084644437
-0.0787673 0.46606538 -0.084644437
-0.078768104 0.48129547 -0.08463496
-0.078768104 0.49652332 -0.0846349
-0.078768104 0.511751 -0.08463496
-0.078768104 0.52697885 -0.0846349
-0.094916254 -0.52626741 -0.074671447
-0.09491536 -0.51096058 -0.074681222
-0.09491536 -0.49565619 -0.074681222
-0.094916254 -0.48035407 -0.074671626
-0.094916254 -0.46504959 -0.074671566
-0.094916254 -0.44974515 -0.074671626
-0.094916254 -0.43444064 -0.074671626
-0.094917148 -0.41913822 -0.074661911
