ply
format ascii 1.0
comment PCL generated
element vertex 1370
property float x
property float y
property float z
element camera 0
property float view_px
property float view_py
property float view_pz
property float x_axisx
property float x_axisy
property float x_axisz
property float y_axisx
property float y_axisy
property float y_axisz
property float z_axisx
property float z_axisy
property float z_axisz
property float focal
property float scalex
property float scaley
property float centerx
property float centery
property int viewportx
property int viewporty
property float k1
property float k2
end_header
0.31861964 -0.26642537 0.031572104
-0.35992596 -0.25213248 0.032583416
0.33243233 -0.25150689 0.028068662
0.3481558 -0.25249496 0.035199463
-0.37403932 -0.23747762 0.030947506
-0.38837785 -0.22299628 0.030515969
0.36202124 -0.22319205 0.032105207
-0.40264252 -0.19406642 0.029772878
0.37610903 -0.19412971 0.030359983
-0.41689384 -0.1651587 0.029021204
0.39016876 -0.16512063 0.028608918
-0.43113586 -0.13627487 0.028279185
0.40420222 -0.13616572 0.026861072
0.42104399 -0.12252775 0.037813485
-0.44536442 -0.10741334 0.027528644
0.43511954 -0.093471043 0.036057591
-0.45958155 -0.07857497 0.026778758
0.44916883 -0.06446851 0.034305036
0.46370235 -0.035567954 0.034627676
-0.50439078 0.02224407 0.032794893
0.50546509 0.10867594 0.028663814
0.52098233 0.15221517 0.032656968
0.53656852 0.1959414 0.036676466
0.21726553 0.42573389 0.028773844
0.2317131 0.42579943 0.02906692
0.24616639 0.42586684 0.029369414
0.26062435 0.42593446 0.029672086
0.27508566 0.42600003 0.02996546
0.2895529 0.4260675 0.030268252
0.30402333 0.4261331 0.030561924
0.31849986 0.42620072 0.030864835
0.33297944 0.42626637 0.031158805
0.34746358 0.42633191 0.031452715
0.36195225 0.42639765 0.031746745
0.37644544 0.42646325 0.032040775
0.39094323 0.42652884 0.032335103
0.40544552 0.42659467 0.032629371
0.41995037 0.42665836 0.032914579
0.43445957 0.42672199 0.033199966
0.44897318 0.42678577 0.033485293
0.46349123 0.42684951 0.0337708
0.47801372 0.42691317 0.034056365
0.49254301 0.42697904 0.03435123
0.50707442 0.42704281 0.034636855
0.5216102 0.42710653 0.034922779
0.53615046 0.42717049 0.035208642
0.55069512 0.42723435 0.035494626
-0.1882942 -0.37097412 0.049147725
-0.17361268 -0.37072876 0.047922075
-0.15895018 -0.37048382 0.046698153
-0.14430664 -0.37023914 0.045475721
-0.12968203 -0.36999482 0.044254899
-0.11507631 -0.3697508 0.043035626
-0.10050397 -0.36956099 0.042087376
-0.085978001 -0.36950886 0.041827202
-0.071456052 -0.36945683 0.041567147
-0.056938387 -0.3694067 0.04131645
-0.042424373 -0.36935467 0.041056514
-0.027914505 -0.36930445 0.040805876
-0.013408422 -0.36925247 0.040546119
0.0010936591 -0.36920047 0.040286481
0.015591742 -0.36914852 0.040026844
0.03008583 -0.36909655 0.039767265
0.044576138 -0.36904645 0.039516926
0.059074577 -0.36907431 0.039655983
0.07359942 -0.36922833 0.040425539
0.088136151 -0.3693825 0.04119575
0.10268477 -0.36953676 0.041966558
0.11724587 -0.36969304 0.042747259
0.13181838 -0.36984757 0.043519318
0.14640284 -0.37000227 0.044292152
0.16099924 -0.37015709 0.045065522
0.17560761 -0.37031195 0.045839489
0.19022889 -0.37046877 0.046623409
0.20505083 -0.37097588 0.049156964
-0.26054937 -0.35559148 0.044916332
-0.24585275 -0.35535485 0.043686926
-0.23117641 -0.35512036 0.042468488
-0.21651901 -0.35488617 0.041251481
-0.20188051 -0.3546522 0.040036023
-0.18725996 -0.35441685 0.038812995
0.20388813 -0.35433131 0.038368642
0.21920703 -0.35572064 0.045587599
-0.27472571 -0.34060174 0.04245913
0.23331107 -0.34052449 0.042040825
-0.28898796 -0.32579225 0.040805936
0.24736105 -0.32538363 0.038498223
0.26284778 -0.326662 0.045718253
-0.31932488 -0.31261691 0.048651755
0.27686951 -0.31151778 0.042161703
-0.30322528 -0.31100872 0.039155722
-0.33359471 -0.29778337 0.046987653
0.29083851 -0.29643044 0.038618565
0.30649307 -0.29759777 0.045839429
-0.34783947 -0.28297603 0.045326471
0.32043195 -0.28250593 0.042273223
-0.36205924 -0.26819459 0.04366827
0.33431989 -0.26747224 0.038729727
0.35027847 -0.26863641 0.046688855
-0.37625408 -0.25343907 0.04201293
-0.39116374 -0.23917522 0.043919623
0.36448497 -0.23930448 0.044907093
-0.40552929 -0.21003209 0.043165743
0.37866464 -0.21002784 0.043128669
-0.41988134 -0.18091126 0.04240334
0.39281768 -0.18080623 0.041353703
-0.43422389 -0.15181473 0.041650712
0.4069441 -0.15163963 0.039581835
-0.44855279 -0.12274089 0.040889442
0.43808851 -0.10873027 0.048913658
-0.46287015 -0.093690455 0.040128767
0.45223105 -0.079515241 0.047137082
-0.47717592 -0.064663447 0.039368749
-0.49147022 -0.035659902 0.038609326
0.47917971 0.0078016827 0.038646281
0.49472353 0.051357213 0.04268223
0.51033413 0.095100038 0.046735466
-0.5517413 0.44425032 0.046548724
-0.53729677 0.44433445 0.046912909
-0.5228492 0.44442078 0.04728663
-0.50839341 0.44450486 0.047650993
-0.49393457 0.44459122 0.048025012
-0.47946995 0.44467762 0.048399091
-0.46500883 0.44477266 0.04881078
-0.45054141 0.44486791 0.049222589
0.030404974 -0.40255675 0.060496092
0.045054507 -0.40249959 0.060230911
0.059713956 -0.40254045 0.060420394
-0.18933985 -0.38771415 0.059596539
-0.17457666 -0.38745654 0.058357418
-0.15983267 -0.38719937 0.057119727
-0.14510785 -0.38694242 0.055883944
-0.13040219 -0.38668594 0.054649711
-0.11571564 -0.38642973 0.053416789
-0.10106027 -0.38622063 0.052411139
-0.086455144 -0.38616791 0.052157581
-0.071853563 -0.38611326 0.051894665
-0.057256307 -0.3860606 0.051641166
-0.042662747 -0.38600597 0.051378369
-0.028073233 -0.38595143 0.051115692
-0.013487766 -0.3858968 0.050853074
0.0010936591 -0.3858442 0.050599933
0.015671114 -0.38578963 0.050337374
0.030244529 -0.38573506 0.050074875
0.044813901 -0.38568062 0.049812615
0.059392512 -0.38571566 0.049981296
0.07399717 -0.38587737 0.050759375
0.088613838 -0.38603917 0.051537931
0.10324252 -0.38620114 0.052317202
0.11788324 -0.3863633 0.053097188
0.13253669 -0.38652748 0.053887129
0.14720161 -0.38668981 0.054668486
0.1618786 -0.38685235 0.055450261
0.1765677 -0.38701504 0.05623281
0.19126892 -0.3871778 0.057015955
0.20622692 -0.38781247 0.060069919
-0.26199332 -0.37221292 0.055337191
-0.24721226 -0.37196034 0.05407542
-0.23245427 -0.37171373 0.052843392
-0.21771546 -0.3714675 0.051613033
-0.20299475 -0.37121969 0.050374866
0.22046237 -0.37243745 0.056459248
-0.27636418 -0.35727444 0.053661406
0.23464507 -0.35712248 0.052871585
0.2502014 -0.35853326 0.06020242
-0.29070964 -0.34236234 0.051988482
0.24877307 -0.34186336 0.049288154
0.26435441 -0.34321272 0.056591332
-0.32123455 -0.32917786 0.059927821
-0.30502984 -0.32747647 0.050318599
0.27845383 -0.32795015 0.052993834
0.29418054 -0.32924828 0.060325563
-0.33558768 -0.31424138 0.05824393
0.29249996 -0.31274533 0.049409866
0.3082495 -0.31398076 0.056704581
-0.34991544 -0.29933137 0.056563079
0.32226664 -0.29877254 0.053106487
0.33816367 -0.29995793 0.060439289
-0.36421791 -0.28444767 0.054885089
0.33623078 -0.283622 0.04952234
0.35267895 -0.28518611 0.059681654
-0.37849513 -0.26959017 0.05321002
-0.39399174 -0.25558862 0.057525873
0.3669807 -0.25563708 0.057875395
-0.40845767 -0.22622766 0.056751668
0.38125536 -0.22614408 0.056072593
-0.42291179 -0.19689064 0.055978179
0.39550292 -0.19670691 0.054273009
-0.43735635 -0.16757838 0.055214703
0.40972355 -0.16732548 0.052476943
-0.45178705 -0.13828897 0.054442465
0.42391938 -0.13800037 0.050693691
-0.46620604 -0.10902325 0.053670764
0.45533311 -0.094768591 0.060136259
-0.48061329 -0.07978145 0.052899778
-0.49500883 -0.050563343 0.052129388
0.46818259 -0.050584476 0.052815199
0.4838199 -0.0068264315 0.056912184
0.52601194 0.13903128 0.050806105
0.54176015 0.18315291 0.054903924
-0.4360677 0.44496298 0.049634635
-0.42158768 0.44505811 0.050046861
-0.40709934 0.44515127 0.050449848
-0.39260677 0.44524649 0.050862432
-0.37810788 0.44534183 0.051275134
-0.36360267 0.44543716 0.051688135
-0.34909111 0.44553253 0.052101254
-0.33457327 0.44562799 0.052514553
-0.32004911 0.44572353 0.052927911
-0.30551705 0.44581684 0.05333221
-0.29098025 0.44591245 0.053746045
-0.2764371 0.44600806 0.054160058
-0.26188761 0.44610375 0.054574192
-0.013649231 -0.41974214 0.071828127
0.0010936591 -0.41968232 0.071559668
0.015832419 -0.41962233 0.071291327
0.030567193 -0.4195646 0.071032703
0.045297768 -0.41950479 0.070764482
0.060038961 -0.41955179 0.070975244
0.0748059 -0.41972938 0.071770608
-0.20526239 -0.40491045 0.07141602
-0.19039713 -0.40464005 0.070161343
-0.17555131 -0.40436995 0.068908393
-0.16072495 -0.40410027 0.067657053
-0.14591797 -0.40383092 0.066407382
-0.13113034 -0.40356183 0.06515938
-0.11636202 -0.40329322 0.063912988
-0.10162322 -0.40306592 0.062858164
-0.086937539 -0.40301058 0.062601805
-0.07225544 -0.40295336 0.062335968
-0.057577435 -0.40289608 0.062070191
-0.042903747 -0.40284082 0.06181407
-0.028233854 -0.40278354 0.061548352
-0.013568055 -0.40272632 0.061282873
0.0010936591 -0.40266913 0.061017394
0.0743993 -0.40270996 0.061206996
0.089096792 -0.40287969 0.061994255
0.10380644 -0.40304953 0.062782168
0.11852825 -0.40321943 0.063570797
0.13326226 -0.4033896 0.064360082
0.14800921 -0.40356183 0.06515938
0.16276769 -0.4037323 0.065949917
0.17753842 -0.40390286 0.066741228
0.1923214 -0.40407354 0.067533016
0.20741665 -0.40484437 0.071109295
0.015751358 -0.40261394 0.060761452
-0.26356691 -0.38918915 0.066693485
-0.2485868 -0.38874966 0.064578831
-0.23374629 -0.3884908 0.063333213
-0.21892515 -0.38823217 0.062089145
-0.20412232 -0.387972 0.060837388
0.22173224 -0.38934785 0.067456722
-0.27802223 -0.3741464 0.064997554
0.23599447 -0.37391219 0.063827395
0.25164628 -0.37539652 0.071243405
-0.29245189 -0.35913026 0.063304603
0.26587847 -0.35995501 0.067590237
-0.32316875 -0.34593919 0.071348906
0.29587916 -0.34594098 0.071358383
-0.30685595 -0.34414086 0.061614811
0.28005645 -0.3445724 0.063951015
-0.33760625 -0.33089826 0.069644749
0.31002781 -0.33055484 0.067704916
-0.35201803 -0.31588408 0.067943454
0.32412255 -0.31522727 0.064065218
0.34011734 -0.31648198 0.071473479
-0.36640421 -0.30089658 0.066245377
-0.38076484 -0.2859357 0.064550281
-0.39685881 -0.272239 0.071320117
0.36951286 -0.27219698 0.071032703
-0.41142851 -0.24265826 0.070534706
0.38388374 -0.24248421 0.069204867
-0.42598835 -0.21310283 0.069759488
0.39822721 -0.21282813 0.067380309
-0.44053423 -0.18357047 0.068975449
0.41254339 -0.18322867 0.065559447
-0.4550682 -0.15406227 0.068191886
0.4268344 -0.15368623 0.063751519
-0.46959025 -0.12457819 0.067408919
0.44109839 -0.12419982 0.06194675
-0.4841004 -0.095118321 0.066626787
0.47275046 -0.065894708 0.071358383
0.49952489 0.037121143 0.061026812
0.51529813 0.081259377 0.06515944
-0.528934 0.096139573 0.069243014
0.53113991 0.12558968 0.06930989
0.23627116 0.44875947 0.066073835
0.25101092 0.44883209 0.066388309
0.26575553 0.44890466 0.066703022
0.2805036 0.44897529 0.067008197
0.29525787 0.44904801 0.067323029
0.31001547 0.44911852 0.067628503
0.32477936 0.44919133 0.067943513
0.33954647 0.44926187 0.068249166
0.35432005 0.44933465 0.068564475
0.36909851 0.44940737 0.068879783
0.3838799 0.44947818 0.069185674
0.39866805 0.44955093 0.069501221
0.413459 0.44962168 0.069807291
0.42825684 0.4496946 0.070123136
0.44305956 0.44976753 0.070439041
0.45786488 0.44983819 0.070745349
0.47267729 0.44991139 0.071061432
0.48749214 0.44998214 0.071367979
0.50231433 0.45005512 0.071684241
0.51713878 0.45012599 0.071991205
-0.058231015 -0.4371334 0.083295822
-0.043393571 -0.43707073 0.083024085
-0.028560314 -0.43700796 0.082752705
-0.013731312 -0.43694755 0.082490861
0.0010936591 -0.43688485 0.082219422
0.075216644 -0.43693632 0.082442343
0.090078428 -0.43712226 0.083247244
0.015914453 -0.43682224 0.081948042
0.030731071 -0.43675953 0.081676841
0.045543741 -0.43669915 0.081415355
0.06036729 -0.43675062 0.081638038
-0.22138509 -0.42232388 0.083392859
-0.20641522 -0.42203823 0.082112849
-0.1914662 -0.42175496 0.080844164
-0.17653686 -0.42147207 0.079577148
-0.16162717 -0.42118967 0.07831198
-0.1467371 -0.42090759 0.077048302
-0.13186659 -0.42062578 0.075786233
-0.11701562 -0.42034444 0.074525952
-0.10219241 -0.42009777 0.073420942
-0.087424845 -0.42003778 0.073152065
-0.07266178 -0.41997987 0.072892845
-0.057902418 -0.41991988 0.072624147
-0.043147415 -0.41986203 0.072365105
-0.028396256 -0.41980216 0.072096646
0.089585103 -0.41990706 0.072566569
0.10437661 -0.42008498 0.073363364
0.11918043 -0.4202629 0.074160755
0.13399656 -0.42044106 0.074958682
0.14882503 -0.42061943 0.075757384
0.16366668 -0.4208 0.076566398
0.17851993 -0.42097858 0.077366471
0.1933856 -0.42115727 0.078167081
0.20862028 -0.42207491 0.082277536
-0.26516074 -0.40637192 0.078196108
-0.24997663 -0.40572593 0.075199306
-0.23505266 -0.40545437 0.073939621
-0.22014827 -0.40518335 0.072681785
0.22301692 -0.40645504 0.078582168
0.25310802 -0.39245653 0.082413316
-0.27970159 -0.39122328 0.076479733
0.23735958 -0.39089707 0.074910641
-0.29421654 -0.37610158 0.074766397
0.26742029 -0.37689239 0.078717351
-0.32512471 -0.36290103 0.08289808
-0.30870554 -0.36100698 0.073056102
0.28167772 -0.36138788 0.075035632
0.29759908 -0.36283013 0.082529664
-0.33964741 -0.34775427 0.08117336
0.3118268 -0.34732193 0.078833342
-0.35414416 -0.3326346 0.079451621
0.32600003 -0.33187321 0.075151145
0.34209546 -0.33320025 0.082645893
-0.368615 -0.31754196 0.07773304
-0.38305995 -0.30247635 0.076017439
0.35511443 -0.30196649 0.072864115
0.38654682 -0.25905052 0.082510293
0.40098745 -0.22917248 0.080660343
-0.44375852 -0.19979608 0.082936883
0.41540244 -0.19935271 0.078823626
-0.45839721 -0.17006578 0.082141876
0.4297899 -0.16958992 0.076990485
-0.47302383 -0.14036006 0.081347466
0.4441478 -0.13988301 0.075151145
-0.48763838 -0.11067884 0.080553889
0.45848048 -0.11023365 0.073324919
0.48855096 -0.021741256 0.075536072
0.50442064 0.022605363 0.079731941
0.53197062 0.45019907 0.072307706
0.54680461 0.45027 0.072614729
-0.08841671 -0.45466855 0.094626665
-0.073487736 -0.45460299 0.094351828
-0.058563296 -0.45453978 0.094087005
-0.043642715 -0.45447424 0.093812227
-0.028726362 -0.45440871 0.093537629
-0.013814239 -0.45434317 0.09326303
0.0010936591 -0.45428002 0.092998326
0.015997406 -0.4542146 0.092724085
0.030896932 -0.4541491 0.092449784
0.045792237 -0.45408368 0.092175603
0.060699601 -0.45414436 0.092430174
0.075632393 -0.45433846 0.09324342
0.090577729 -0.45453271 0.094057441
0.10553563 -0.45472714 0.094872177
-0.22263466 -0.43965501 0.094214439
-0.20758098 -0.43935829 0.09292984
-0.19254726 -0.43906203 0.091646969
-0.17753346 -0.43876618 0.090365708
-0.16253953 -0.43847069 0.089086115
-0.14756541 -0.43817553 0.087808311
-0.13261108 -0.43788087 0.086532176
-0.11767651 -0.43758655 0.085257769
-0.10276794 -0.43731952 0.084101439
-0.087918013 -0.43725675 0.083829641
-0.073072277 -0.43719393 0.083557785
0.10495315 -0.43731052 0.084062576
0.11983988 -0.43749675 0.084868848
0.13473907 -0.43768308 0.085675836
0.14965072 -0.43786967 0.086483538
0.16457488 -0.43805629 0.087291777
0.17951246 -0.43824536 0.088110507
0.19446172 -0.43843231 0.088920236
0.20983803 -0.43950775 0.093576849
-0.26677254 -0.42376056 0.089828253
-0.25138205 -0.42289221 0.085938454
-0.23637366 -0.4226079 0.084664762
0.22431663 -0.42376277 0.089838088
-0.28139991 -0.40850469 0.088091016
0.23873943 -0.40807846 0.086113572
0.25458694 -0.40971676 0.093714118
-0.29600102 -0.39327618 0.086356997
0.2689788 -0.39402613 0.089965045
-0.32710436 -0.38006878 0.094587445
0.29933915 -0.37991756 0.093831837
-0.31057593 -0.37807503 0.084625959
0.28331649 -0.37839809 0.086240172
-0.34171337 -0.36481467 0.092841685
0.31364688 -0.36428553 0.090092123
-0.35629606 -0.3495881 0.091099083
0.32789779 -0.34871197 0.086356938
0.34409684 -0.35011476 0.093949556
-0.3708525 -0.33438885 0.089359462
-0.38538283 -0.31921697 0.087623179
0.35758209 -0.31897947 0.086220741
-0.39976779 -0.28913274 0.085315943
0.37207839 -0.28898609 0.08436358
-0.41444275 -0.25932896 0.084519088
0.40378833 -0.24574685 0.09413594
-0.42910773 -0.22955085 0.083732605
0.41829938 -0.21570145 0.092263639
0.43278459 -0.18571495 0.090404749
0.44724202 -0.15578613 0.088549435
-0.49122831 -0.12646802 0.094685674
0.46167171 -0.1259146 0.086697817
0.47740856 -0.081507422 0.090267956
-0.50473011 -0.066584237 0.089271724
0.49337575 -0.036951289 0.094528615
0.52035975 0.067146339 0.083946168
0.53637165 0.11188348 0.088188589
-0.54801351 0.46786448 0.084538579
-0.5332886 0.46796408 0.084956408
-0.51855725 0.46806386 0.085374296
-0.50381953 0.46816379 0.085792601
-0.48907548 0.46826354 0.086211026
-0.47432497 0.46836337 0.08662957
-0.45956808 0.46846339 0.087048233
-0.44480252 0.46856096 0.087457478
-0.43003285 0.46866092 0.087876558
-0.4152568 0.46876103 0.088295817
-0.40047431 0.46886125 0.088715374
-0.38568544 0.46896145 0.089134991
-0.37089011 0.46906155 0.089554787
-0.35609016 0.46916401 0.089984655
-0.34128192 0.46926433 0.090404928
-0.32646719 0.46936464 0.090825319
-0.31164607 0.46946499 0.09124583
-0.29681846 0.46956548 0.091666579
-0.28198442 0.46966588 0.092087507
-0.26714393 0.46976638 0.092508674
-0.10393792 -0.47234273 0.10581368
-0.088921025 -0.47227669 0.10554546
-0.073907882 -0.4722082 0.10526758
-0.058899015 -0.47213975 0.10498971
-0.04389466 -0.47207373 0.10472178
-0.028894279 -0.47200537 0.10444421
-0.013898173 -0.471937 0.10416663
0.0010936591 -0.4718686 0.10388899
0.016081294 -0.47180268 0.1036213
0.031064659 -0.47173437 0.10334396
0.046043754 -0.47166607 0.10306668
0.061035659 -0.47173437 0.10334396
0.076052815 -0.471937 0.10416663
0.091082662 -0.47213975 0.10498971
0.10612524 -0.47234273 0.10581368
-0.2238995 -0.4571842 0.10516828
-0.20875993 -0.45687419 0.10386914
-0.19364056 -0.45656461 0.10257167
-0.1785413 -0.45625535 0.10127598
-0.16346216 -0.45594659 0.099981964
-0.14840306 -0.4556382 0.098689675
-0.13336396 -0.45533019 0.097399116
-0.11834486 -0.45502266 0.096110284
-0.10334939 -0.45473185 0.094891787
0.12050675 -0.45492408 0.095697403
0.13548991 -0.45511881 0.09651345
0.15048571 -0.45531374 0.097330213
0.16549413 -0.45550883 0.098147631
0.18051521 -0.455704 0.098965645
0.19554992 -0.4559018 0.099794388
0.21107015 -0.45714632 0.10500956
-0.26840401 -0.44136107 0.1016022
-0.25280327 -0.44025174 0.096798658
-0.23770952 -0.43995431 0.095510602
0.22563164 -0.44127434 0.10122651
-0.2831189 -0.42599648 0.09984374
0.24013671 -0.42546386 0.097458124
0.256082 -0.42717847 0.10513854
-0.29780722 -0.41065958 0.098088562
0.27055705 -0.41136357 0.10135496
-0.31246901 -0.39535034 0.096336424
0.28497601 -0.39561012 0.097586274
0.30109829 -0.39720461 0.10525763
-0.34380451 -0.38208327 0.10465235
0.31548679 -0.38144702 0.10147369
-0.35847417 -0.36674821 0.10288841
0.32981956 -0.36575055 0.097704291
0.34612182 -0.36722898 0.10538673
-0.3731173 -0.35144085 0.10112762
-0.38792557 -0.33633077 0.10032755
0.3600862 -0.33623293 0.099774659
-0.40271965 -0.3062754 0.099518061
0.3746818 -0.30601239 0.09789145
-0.41750348 -0.2762464 0.09871918
0.38924915 -0.27585042 0.096011817
-0.432273 -0.24624088 0.097911179
0.42123923 -0.23228158 0.10590303
-0.44703022 -0.21626027 0.097103715
0.43582359 -0.20206799 0.10401779
-0.46177518 -0.18630463 0.096296966
0.45037973 -0.17191279 0.10213619
-0.47650784 -0.15637389 0.095490992
0.46609372 -0.14219843 0.10522789
0.50941342 0.0078015807 0.09880805
0.52552211 0.052752644 0.10310632
0.24101426 0.47264776 0.10458302
0.25605214 0.4727259 0.10491031
0.27109507 0.47280407 0.1052379
0.2861416 0.47287989 0.10555536
0.30119458 0.47295806 0.10588318
0.31625098 0.47303385 0.10620099
-0.10453366 -0.49015576 0.11686921
-0.0894306 -0.49008176 0.11657792
-0.074332781 -0.49001288 0.1163069
-0.059238844 -0.48994148 0.11602587
-0.044149227 -0.48987013 0.11574501
-0.029064097 -0.48980135 0.11547422
-0.013983058 -0.48972994 0.11519331
0.0010936591 -0.48965868 0.11491269
0.016166056 -0.48958743 0.11463207
0.031234285 -0.48951873 0.11436152
0.04629812 -0.48944747 0.11408103
0.061375529 -0.48952377 0.11438155
0.076478012 -0.4897351 0.11521351
0.09159334 -0.48994666 0.11604601
0.10672152 -0.49015829 0.11687934
-0.24042684 -0.4752394 0.11757261
-0.22517872 -0.47491276 0.1162467
-0.20995228 -0.47458908 0.1149326
-0.19474626 -0.47426581 0.11362052
-0.17956059 -0.473943 0.11230993
-0.16439524 -0.47362062 0.11100125
-0.14925019 -0.47329873 0.1096943
-0.13412538 -0.4729771 0.10838914
-0.11902075 -0.47265604 0.10708565
0.12118053 -0.47254583 0.10663813
0.13624926 -0.47275165 0.10747337
0.15133013 -0.47295505 0.10829949
0.16642377 -0.47315878 0.10912615
0.18153022 -0.47336251 0.10995346
0.19665048 -0.47356898 0.11079162
0.2123169 -0.47499436 0.11657792
-0.27005541 -0.45917729 0.11352032
-0.2542406 -0.4578079 0.10778183
-0.23906049 -0.45749709 0.10647917
0.22696225 -0.45899343 0.11274993
-0.28485888 -0.44370243 0.11174041
0.24155052 -0.44305497 0.10893685
0.25759611 -0.44484979 0.11670864
-0.2996355 -0.42825565 0.10996354
0.272154 -0.42890671 0.11287999
0.30287981 -0.41469893 0.11682904
-0.31438521 -0.41283688 0.10818988
0.28665513 -0.41302577 0.10906637
-0.34592131 -0.39956373 0.11660808
-0.32910821 -0.39744616 0.10641956
0.31735012 -0.39881375 0.11299998
-0.360679 -0.38411874 0.11482239
0.33176401 -0.38299063 0.10918599
0.34816906 -0.38454446 0.1169495
-0.37540984 -0.36870188 0.11304003
-0.3908127 -0.35395807 0.11475229
0.36262393 -0.35372868 0.11351037
-0.40571529 -0.32367229 0.11393088
0.37732011 -0.32327759 0.1116004
-0.42060751 -0.29341349 0.11312008
0.39198765 -0.29288611 0.1096943
-0.43548521 -0.26317832 0.11229998
0.40662867 -0.26255509 0.10780174
-0.45035043 -0.23296855 0.11148059
-0.46520317 -0.20278402 0.1106618
0.45355961 -0.1882669 0.11590552
-0.48004347 -0.17262477 0.10984385
-0.49487138 -0.14249082 0.10902649
0.48215958 -0.09743154 0.10955465
0.49829695 -0.05246539 0.11390078
0.54170501 0.097903535 0.10743368
0.33131236 0.47310981 0.10651892
0.34637859 0.47318572 0.10683692
0.36145163 0.47326407 0.10716516
0.37652779 0.47333995 0.10748339
0.39160886 0.47341594 0.10780174
0.40669486 0.47349197 0.1081202
0.4217858 0.47356796 0.10843879
0.43688166 0.47364405 0.10875762
0.4519825 0.47372004 0.10907638
0.46708819 0.47379619 0.10939521
0.48220134 0.47387472 0.10972428
0.49731702 0.47395086 0.11004341
0.51243764 0.47402701 0.11036253
0.52756321 0.47410318 0.11068183
0.54269373 0.47417942 0.11100131
-0.10513785 -0.5081799 0.12808144
-0.089946434 -0.50809216 0.12774622
-0.074762538 -0.50802046 0.1274721
-0.059582539 -0.50794601 0.12718791
-0.044406928 -0.50787169 0.12690371
-0.029235693 -0.5077973 0.12661958
-0.014068909 -0.50772566 0.12634581
0.0010936591 -0.50765133 0.12606192
0.016251856 -0.50757706 0.12577808
0.031405687 -0.50750285 0.12549436
0.046555147 -0.50742853 0.12521064
0.061718963 -0.50751346 0.12553495
0.076908052 -0.50773621 0.1263864
0.092109837 -0.50795662 0.1272285
0.10732462 -0.50817722 0.12807125
0.12255242 -0.50839806 0.12891483
-0.24180883 -0.49318472 0.12879288
-0.22647257 -0.49284407 0.12745172
-0.21115826 -0.49250641 0.12612271
-0.19586457 -0.49216929 0.1247955
-0.18059149 -0.49183249 0.12346995
-0.16533898 -0.49149624 0.12214625
-0.15010698 -0.49116042 0.12082428
-0.13489546 -0.49082515 0.11950421
-0.11970437 -0.49049023 0.11818588
0.12186257 -0.49037012 0.11771327
0.13701652 -0.4905822 0.11854786
0.15218414 -0.49079695 0.11939347
0.16736399 -0.49100935 0.12022954
0.18255678 -0.49122196 0.12106633
0.19776252 -0.49143475 0.12190384
0.21357855 -0.49305561 0.12828463
-0.27172723 -0.47721323 0.1255855
-0.2556943 -0.47556394 0.11889011
0.22830874 -0.47692388 0.12441081
-0.28662038 -0.4616265 0.12378347
0.24298115 -0.46085539 0.12055212
0.25912833 -0.46273214 0.12841672
-0.30148628 -0.44606823 0.12198478
0.27377 -0.44665888 0.12454236
-0.31632501 -0.43053839 0.12018925
0.28835276 -0.43064648 0.12067318
0.30468264 -0.43240243 0.12853879
-0.34806424 -0.41726017 0.12871146
-0.33113667 -0.41503701 0.118397
0.31923568 -0.41638771 0.12466383
-0.36291105 -0.4017036 0.12690371
0.33373162 -0.40043592 0.12080419
-0.37773064 -0.3861756 0.12509918
0.36519775 -0.37147346 0.12744159
-0.40875781 -0.34133112 0.12856919
0.37999791 -0.34079021 0.12551463
-0.42375791 -0.310837 0.12773603
0.39476711 -0.31016544 0.12358123
-0.43874538 -0.28036875 0.12690377
0.4095073 -0.27960059 0.12165165
-0.45372018 -0.24992618 0.12607199
0.4242208 -0.24909702 0.1197359
-0.46868232 -0.21950933 0.12524104
0.43890566 -0.21865284 0.11782384
-0.48363185 -0.18911812 0.12441087
0.47076812 -0.15885705 0.12481576
0.51450628 -0.0072986642 0.11826622
-0.53001732 0.0078016487 0.12790871
0.53078818 0.038069859 0.12265134
-0.54416358 0.49247476 0.12419826
-0.52913213 0.49257955 0.12462336
-0.51409674 0.49268672 0.12505877
-0.49905476 0.49279401 0.12549442
-0.48400611 0.49290133 0.12593019
-0.46895078 0.49300882 0.12636614
-0.4538888 0.49311635 0.12680227
-0.43882012 0.49322367 0.12723869
-0.42374259 0.49332878 0.12766504
-0.40866065 0.49343643 0.12810171
-0.39357203 0.49354401 0.12853885
-0.37847671 0.49365163 0.12897587
-0.10574898 -0.52641153 0.1394226
-0.090468191 -0.52630913 0.13904262
-0.075196818 -0.52623159 0.13875496
-0.059930176 -0.5261569 0.13847774
-0.044667583 -0.52607948 0.13819045
-0.029409412 -0.52600211 0.13790298
-0.014155665 -0.52592462 0.13761586
0.0010936591 -0.52584726 0.13732857
0.016338643 -0.52577269 0.13705182
0.031579204 -0.52569544 0.13676476
0.046815351 -0.52561808 0.13647783
0.062066644 -0.52571201 0.13682628
0.077342644 -0.52594125 0.13767725
0.092631787 -0.52617079 0.13852912
0.10793463 -0.52640319 0.13939184
0.12325017 -0.52663314 0.14024508
-0.24320672 -0.51133662 0.14014226
-0.2277813 -0.51098156 0.13878578
-0.21237808 -0.51062971 0.1374414
-0.19699575 -0.51027834 0.13609886
-0.18163425 -0.50992739 0.13475806
-0.16629355 -0.50957692 0.1334191
-0.1509736 -0.50922704 0.13208199
-0.13567436 -0.50887752 0.13074666
-0.12039579 -0.50852847 0.12941313
0.13779324 -0.50861901 0.12975913
0.15304713 -0.5088402 0.13060409
0.16831496 -0.5090642 0.13145995
0.18359509 -0.50928581 0.13230646
0.19888832 -0.50950748 0.13315368
0.21485427 -0.51133132 0.1401217
-0.27341977 -0.495473 0.13780034
0.22967136 -0.4950693 0.13621151
-0.25716463 -0.49352327 0.13012558
-0.28840366 -0.47977275 0.13597584
0.2444289 -0.47886884 0.13230652
0.26067895 -0.48082954 0.14026576
-0.30335999 -0.46410152 0.13415474
0.27540395 -0.46462169 0.13633448
-0.3182888 -0.44845903 0.13233703
0.29007217 -0.44848025 0.13242888
0.30650711 -0.45031855 0.14038908
-0.3331902 -0.43284526 0.13052255
0.32114387 -0.43417245 0.13646758
-0.36517081 -0.41950685 0.13913512
0.33572108 -0.41808778 0.13255131
-0.38008022 -0.40386614 0.137308
0.35037038 -0.40221885 0.12938267
-0.39374298 -0.37184897 0.12939286
0.38271207 -0.35855204 0.13961798
0.39758429 -0.32769045 0.13765675
0.41242924 -0.29689142 0.1357097
0.42724502 -0.26615283 0.13376641
-0.47221377 -0.23648611 0.1400395
0.44202948 -0.23547332 0.13181686
-0.48727414 -0.20585933 0.13919663
0.45678714 -0.20485529 0.1298812
0.48700634 -0.11367654 0.12923008
0.50331759 -0.068292841 0.13366431
0.51970226 -0.022704784 0.13811851
-0.36337465 0.49375942 0.12941319
-0.34826595 0.49386713 0.12985075
-0.33315057 0.49397504 0.13028836
-0.31802842 0.49408281 0.1307264
-0.30289957 0.49419081 0.13116443
-0.28776401 0.49429873 0.13160276
-0.27262315 0.49440932 0.13205153
-0.10636719 -0.5448541 0.15089512
-0.090995952 -0.54473603 0.15046912
-0.075636491 -0.54465538 0.15017807
-0.060281504 -0.54457474 0.14988732
-0.04493124 -0.54449713 0.149607
-0.029585132 -0.54441655 0.14931625
-0.014243498 -0.54433602 0.14902574
0.0010936591 -0.5442555 0.14873523
0.016426345 -0.54417509 0.14844483
0.031754721 -0.54409748 0.14816493
0.047078554 -0.54401702 0.14787465
0.062418338 -0.54412049 0.1482479
0.077782646 -0.54435909 0.14910883
0.093160234 -0.5445978 0.14997035
0.10855114 -0.54483682 0.15083277
0.12395601 -0.54507887 0.1517064
-0.2446195 -0.52969593 0.15161276
-0.22910519 -0.52932894 0.15025091
-0.21361203 -0.52896255 0.14889091
-0.19814 -0.52859658 0.14753276
-0.18268904 -0.5282312 0.14617652
-0.16725911 -0.52786624 0.14482194
-0.15185021 -0.52750182 0.14346939
-0.13646224 -0.52713788 0.14211869
-0.12109517 -0.52677441 0.14076972
0.13857891 -0.52686322 0.14109921
0.15392084 -0.52709347 0.14195389
0.16927598 -0.52732402 0.14280939
0.18464534 -0.52755743 0.14367586
0.20002709 -0.52778828 0.14453274
-0.27513343 -0.5139606 0.1501677
-0.25865188 -0.51168942 0.14149034
0.23105043 -0.51343369 0.14815462
-0.29020917 -0.49814537 0.14832044
0.24589409 -0.49709925 0.14420229
0.27705902 -0.48280349 0.14827889
-0.30525702 -0.4823595 0.14647657
-0.32027707 -0.46660271 0.14463615
0.2918123 -0.46652874 0.14432621
-0.33526927 -0.45087513 0.14279908
0.32307336 -0.45216939 0.14840341
-0.36745879 -0.43753251 0.15151912
-0.35023385 -0.43517652 0.14096522
0.33773625 -0.43595451 0.14445013
-0.38245916 -0.42177749 0.14966929
0.35287917 -0.42045894 0.14355195
-0.39671737 -0.39000943 0.14425391
0.3678104 -0.38947487 0.14158303
-0.41184402 -0.35925406 0.14341784
-0.42695576 -0.32852286 0.14257216
0.41539326 -0.31443143 0.14997041
-0.4420546 -0.29781783 0.14172715
0.43031058 -0.28345266 0.14798868
-0.45714059 -0.26713893 0.14088303
0.44520053 -0.25253692 0.14602131
0.46006107 -0.22168213 0.14405775
0.47553748 -0.175854 0.14480132
-0.50509053 -0.16092646 0.14925402
0.49195173 -0.13025221 0.14930594
0.53616101 0.023089319 0.14259273
0.24595007 0.49751449 0.14465672
0.2612955 0.49759334 0.14497709
0.27664733 0.49767488 0.14530778
0.29200426 0.49775633 0.1456387
0.30736628 0.49783778 0.14596957
0.32273343 0.49791941 0.14630061
0.33810395 0.49799845 0.14662153
0.35348126 0.49808002 0.14695275
0.3688637 0.49816167 0.14728421
0.38425323 0.49824587 0.14762604
0.39964598 0.49832755 0.14795762
0.41504386 0.49840936 0.14828932
0.43044689 0.49849099 0.1486212
0.44585505 0.49857283 0.14895314
0.46126831 0.49865454 0.14928514
0.47668675 0.49873638 0.14961743
0.49211031 0.49881828 0.14994973
0.50754166 0.49890274 0.1502924
0.52297562 0.49898455 0.15062499
0.53841472 0.49906665 0.15095758
0.55385894 0.49914855 0.15129036
-0.10699259 -0.56351137 0.16250116
-0.091529354 -0.56337363 0.16201758
-0.076081268 -0.56329274 0.16173369
-0.060637217 -0.563209 0.16143954
-0.045197707 -0.56312519 0.16114539
-0.029762886 -0.56304443 0.16086191
-0.01433235 -0.56296074 0.160568
0.0010936591 -0.56287706 0.16027421
0.016515145 -0.56279331 0.15998036
0.031932112 -0.56270975 0.15968668
0.0473448 -0.56262904 0.15940362
0.062774114 -0.56274253 0.15980202
0.078227744 -0.56299061 0.1606729
0.093694828 -0.56323886 0.16154456
0.10917537 -0.56348735 0.16241711
0.12466939 -0.56373608 0.16329026
-0.24605002 -0.5482716 0.16322708
-0.23044446 -0.54788983 0.16184932
-0.21486032 -0.54750854 0.16047353
-0.19929752 -0.54712772 0.15909952
-0.18375608 -0.54674751 0.15772754
-0.1682359 -0.54636776 0.15635723
-0.15273698 -0.54598862 0.154989
-0.13725924 -0.54560995 0.15362257
-0.12180266 -0.5452317 0.15225786
0.13937363 -0.54531837 0.15257019
0.15480465 -0.54555792 0.15343481
0.17024903 -0.54579771 0.15430021
0.18570776 -0.54604065 0.15517688
0.20118426 -0.54629534 0.15609598
-0.27686864 -0.53268057 0.16269052
-0.26015642 -0.53006607 0.15298688
0.2161465 -0.52983046 0.15211219
0.23244624 -0.53202105 0.16024268
-0.2920374 -0.51674861 0.16081995
0.24737704 -0.51555055 0.15624225
-0.30717787 -0.50084633 0.15895277
0.26224697 -0.49914297 0.15224749
0.27873421 -0.50120598 0.1603685
-0.32229018 -0.48497373 0.15708917
0.2935735 -0.48479605 0.15636772
-0.33737439 -0.46913061 0.15522915
0.30835208 -0.46844894 0.15237242
0.325028 -0.4703871 0.16049451
-0.35243055 -0.4533169 0.15337235
0.3397758 -0.45403767 0.15649313
-0.38486794 -0.43991384 0.16218579
0.35542232 -0.43896064 0.15791589
-0.39973906 -0.40844771 0.15935105
0.37045887 -0.40773427 0.15591842
-0.4149771 -0.3774491 0.15849191
0.38546544 -0.37657017 0.15392482
-0.43020207 -0.34647703 0.1576333
0.40044418 -0.34547001 0.15194565
-0.44541401 -0.31553152 0.15677541
0.43342277 -0.30100483 0.16242748
-0.46061286 -0.28461245 0.15591836
0.44841751 -0.26984763 0.16043156
-0.47579873 -0.25372007 0.15506202
0.46388608 -0.23902094 0.16062051
-0.49097157 -0.22285393 0.1542064
0.50844061 -0.084443264 0.15383101
0.52500445 -0.038425818 0.15837663
0.54164392 0.0078016147 0.16294301
-0.10762531 -0.58238703 0.17424309
-0.092069462 -0.58223146 0.17371118
-0.076531224 -0.58214742 0.17342407
-0.060997084 -0.5820604 0.17312652
-0.045467526 -0.58197337 0.17282897
-0.029942552 -0.58188635 0.17253149
-0.014422158 -0.58179939 0.17223406
0.0010936591 -0.58171546 0.17194736
0.01660498 -0.58162856 0.17165029
0.032111727 -0.5815416 0.1713531
0.0476139 -0.58145475 0.17105603
0.063134044 -0.58158201 0.17149097
0.078678049 -0.58183974 0.1723721
0.094235659 -0.58209765 0.17325401
0.1098069 -0.58235598 0.17413676
-0.23179941 -0.56666797 0.17358357
-0.21612319 -0.56627142 0.17219156
-0.20046858 -0.56587553 0.17080158
-0.18483558 -0.56548011 0.16941333
-0.1692241 -0.56508529 0.16802722
-0.15363409 -0.56469095 0.16664279
-0.13806553 -0.56429726 0.16526031
-0.12251837 -0.56390399 0.16387975
0.14017764 -0.56398797 0.16417474
0.15569875 -0.56423718 0.16504955
0.17123339 -0.56448662 0.16592503
0.18678157 -0.56473607 0.16680115
0.20240366 -0.56515759 0.16828096
-0.26167843 -0.54865682 0.16461724
0.21745445 -0.54855472 0.16424853
0.23385787 -0.55083245 0.17246777
-0.29388869 -0.53558677 0.17347729
0.24887675 -0.53422379 0.16841841
-0.30912298 -0.51956654 0.17158645
0.2638354 -0.51768178 0.16438538
0.28042984 -0.51983339 0.17260581
-0.32432872 -0.50357634 0.16969937
0.29535466 -0.5032832 0.16854542
-0.33950603 -0.48761606 0.16781569
0.31022108 -0.48680225 0.16451198
0.32700652 -0.48882744 0.17273331
-0.35465494 -0.47168556 0.16593558
0.34184018 -0.47234124 0.16868293
-0.36977553 -0.45578483 0.16405886
0.35800445 -0.45773414 0.1724996
-0.40280485 -0.42716599 0.17466885
0.37314785 -0.42626157 0.17047286
-0.41815808 -0.39592224 0.17379636
0.38826087 -0.39485228 0.16845024
-0.433498 -0.36470553 0.17292452
0.40334564 -0.36350793 0.16644228
-0.44882473 -0.33351573 0.17205358
0.41839814 -0.33222419 0.16442758
-0.46413818 -0.30235291 0.17118341
-0.47943839 -0.27121699 0.17031395
-0.49472544 -0.24010792 0.16944516
0.48040465 -0.19319977 0.16519707
0.49699885 -0.14716873 0.16979468
0.51366919 -0.1009265 0.17441332
-0.54014915 0.5181163 0.16551358
-0.52480382 0.51823157 0.16596711
-0.50944883 0.51834422 0.16641045
-0.49408975 0.5184595 0.16686451
-0.47872368 0.51857501 0.16731888
-0.46335065 0.51869047 0.16777337
-0.44797072 0.51880586 0.16822803
-0.43258378 0.51892149 0.16868293
-0.4171899 0.51903707 0.16913807
-0.40179116 0.51915538 0.169604
-0.38638327 0.51927119 0.17005962
-0.37096837 0.51938695 0.1705153
-0.35554653 0.51950282 0.17097121
-0.34011948 0.51962131 0.17143798
-0.32468355 0.51973724 0.17189443
-0.30924064 0.51985323 0.17235094
-0.29378918 0.5199666 0.17279708
-0.27833235 0.52008265 0.17325407
-0.092615917 -0.60131049 0.18554217
-0.076986052 -0.60122007 0.18524081
-0.061361168 -0.60113293 0.18495047
-0.045740508 -0.60104257 0.18464941
-0.030124485 -0.60095221 0.18434846
-0.014513098 -0.60086179 0.18404752
0.0010936591 -0.60077149 0.18374676
0.016695868 -0.60068452 0.18345678
0.032293446 -0.60059416 0.18315619
0.047886405 -0.60050404 0.18285578
0.063497864 -0.60063934 0.18330652
0.079133227 -0.60090697 0.18419796
0.094782844 -0.60117811 0.18510097
0.11044583 -0.60144621 0.18599403
-0.23317032 -0.58566707 0.18545592
-0.21740094 -0.58525515 0.18404758
-0.20165342 -0.58484364 0.18264109
-0.18592775 -0.58443278 0.18123662
-0.17022388 -0.58402252 0.17983395
-0.15454173 -0.58361274 0.1784333
-0.13888127 -0.58320355 0.17703462
-0.1232425 -0.58279508 0.1756379
0.12539177 -0.5826143 0.1750201
0.14099029 -0.58287305 0.17590433
0.15660331 -0.58313501 0.17679995
0.17222926 -0.58339411 0.17768574
0.18786895 -0.58365345 0.1785723
0.20363802 -0.58425117 0.18061537
-0.26333416 -0.56771767 0.17726934
-0.24749731 -0.56706494 0.17497748
0.21877842 -0.5675081 0.17653334
0.23528808 -0.56987792 0.18485367
-0.27862579 -0.55163723 0.17537159
0.25039616 -0.55312896 0.1807546
-0.31109276 -0.53852457 0.18438065
0.2654433 -0.53644764 0.17667204
0.28214484 -0.53868681 0.18498278
-0.32639486 -0.52241784 0.18248016
0.29715919 -0.52199984 0.18088305
-0.34166646 -0.50633854 0.18057263
0.31211296 -0.50538015 0.17679995
0.32900757 -0.50749165 0.18511182
-0.35690933 -0.49028951 0.17866844
0.34392813 -0.49086675 0.18101162
-0.3721216 -0.47426808 0.17675728
-0.38743633 -0.45843428 0.17553139
0.37587428 -0.44505829 0.18523014
0.39109722 -0.41340214 0.18318844
0.4062874 -0.38180777 0.18114018
0.42144915 -0.35027897 0.17910671
0.43658045 -0.31881344 0.17707735
-0.48313406 -0.28898311 0.18580031
0.45167902 -0.28740948 0.17504144
0.46867192 -0.25715935 0.18134373
0.48537275 -0.21090505 0.18601555
0.53041625 -0.054471649 0.17905331
-0.077446654 -0.62052089 0.19720775
-0.061729211 -0.62042701 0.19690299
-0.046016462 -0.62033331 0.19659841
-0.030308567 -0.62024283 0.1963048
-0.014605109 -0.62014908 0.19600034
0.0010936591 -0.62005544 0.19569606
0.016787743 -0.61996168 0.19539171
0.032477312 -0.61987132 0.1950984
0.048162114 -0.61977774 0.19479442
0.06386631 -0.6199249 0.19527227
0.079594195 -0.62020272 0.19617432
0.095335998 -0.62048066 0.1970771
-0.23455746 -0.60489124 0.19746894
-0.21869381 -0.6044634 0.19604385
-0.20285226 -0.60403609 0.19462061
-0.18703283 -0.60360944 0.19319952
-0.17123544 -0.60318339 0.19178033
-0.15546007 -0.60275793 0.19036317
-0.13970666 -0.60233301 0.18894792
-0.12397514 -0.60190868 0.18753457
-0.10826549 -0.60148495 0.18612325
0.12612262 -0.60171461 0.18688792
0.14181323 -0.60198313 0.18778259
0.15751851 -0.60225517 0.18868876
0.17323688 -0.60252428 0.18958491
0.18896912 -0.60279363 0.19048196
0.20488758 -0.60358012 0.19310188
-0.26501799 -0.58703607 0.19013608
-0.24896163 -0.58607966 0.1868664
0.22011869 -0.58669478 0.18896937
0.23673597 -0.58915883 0.19739276
-0.28040525 -0.57083505 0.18821406
0.25193432 -0.57226741 0.19324291
-0.31308937 -0.55772787 0.19734931
-0.29576352 -0.55466455 0.18629557
0.26706958 -0.5554415 0.18909901
-0.32848561 -0.54149717 0.19541347
0.29898599 -0.54094738 0.19337291
-0.34385267 -0.52529716 0.19348133
0.31402811 -0.52418691 0.18923938
-0.35919061 -0.50912791 0.19155294
0.34604365 -0.50962335 0.19350314
-0.37449953 -0.49298927 0.18962812
-0.39043427 -0.47769296 0.1911093
0.36062256 -0.4767808 0.18728667
-0.40591791 -0.4461728 0.19022262
-0.42138806 -0.41468012 0.18933654
0.4092747 -0.40037939 0.19606549
-0.43684471 -0.38321474 0.18845135
0.42454505 -0.36859959 0.19400197
-0.45228794 -0.35177687 0.18756694
0.43978223 -0.3368822 0.1919319
-0.46771771 -0.32036635 0.18668324
0.45499092 -0.305231 0.18987679
0.50215083 -0.16443677 0.19070911
0.51900673 -0.11775303 0.19542432
-0.53116071 -0.086125605 0.19025505
-0.26578683 0.51016492 0.19601119
0.23648609 0.50997216 0.19522882
-0.26501656 0.52436864 0.19012523
0.23584439 0.52425319 0.18967146
0.25108525 0.52340931 0.18634939
0.26675484 0.52349693 0.18669409
0.28242972 0.52358443 0.18703878
0.29810998 0.52367222 0.18738371
0.31379554 0.52375978 0.1877287
0.32948816 0.52385014 0.1880846
0.34518445 0.52393776 0.18842989
0.3608861 0.5240255 0.18877524
0.37659305 0.52411336 0.18912059
0.39230537 0.5242011 0.18946624
0.40802521 0.52429163 0.18982273
0.42374605 0.52437687 0.19015771
0.4394744 0.52446467 0.19050378
0.45520809 0.52455252 0.19084966
0.47094718 0.52464056 0.19119596
0.48669159 0.52472848 0.19154215
0.50244141 0.52481651 0.19188869
0.51819378 0.52490175 0.19222432
0.53395706 0.52499253 0.19258177
0.54972297 0.52508074 0.19292849
-0.046295933 -0.63985622 0.20870012
-0.03049466 -0.63975888 0.20839196
-0.014698211 -0.63966519 0.20809489
0.0010936591 -0.63956791 0.20778698
0.016880792 -0.63947076 0.20747912
0.032663185 -0.63937354 0.20717132
0.048441093 -0.63927996 0.20687461
0.064239137 -0.63943952 0.20738012
0.080060638 -0.63972759 0.2082929
-0.22000204 -0.62390035 0.20818293
-0.20406538 -0.6234569 0.20674276
-0.18815106 -0.62301403 0.20530462
-0.17225906 -0.62257189 0.20386851
-0.15638933 -0.62213027 0.20243442
-0.14054181 -0.62168932 0.2010023
-0.12471646 -0.62124896 0.19957221
-0.10891325 -0.6208092 0.1981442
-0.093168803 -0.62061471 0.19751257
0.11109234 -0.62076223 0.19799167
0.12686214 -0.62104076 0.19889611
0.14264591 -0.62131941 0.19980139
0.1584437 -0.62159854 0.20070744
0.17425643 -0.62188107 0.20162517
0.19008233 -0.62216061 0.20253289
0.20615269 -0.62314922 0.20574355
-0.26672482 -0.60660541 0.20317858
-0.25044331 -0.60531968 0.19889605
0.22147556 -0.60611933 0.20155972
-0.28220907 -0.59028184 0.20123172
0.25349024 -0.59164023 0.20587522
-0.2976639 -0.57398945 0.19928867
0.26871741 -0.57467359 0.20169085
-0.33060324 -0.56082165 0.20851296
0.28388253 -0.55777615 0.19752342
0.30083546 -0.56013024 0.20601803
-0.34606692 -0.54449922 0.20655602
0.31596532 -0.5432238 0.20182192
-0.36150113 -0.52820808 0.20460284
0.34818545 -0.52861291 0.20614976
0.33103514 -0.52638936 0.19765407
-0.37690595 -0.51194781 0.20265329
-0.39347678 -0.4972485 0.20691842
0.36328128 -0.4961116 0.20230317
-0.40907934 -0.4654749 0.20601803
0.37864298 -0.46413505 0.20021611
-0.42466819 -0.43372917 0.20511818
0.39397335 -0.43222365 0.19813329
-0.44024339 -0.40201136 0.2042191
-0.45580488 -0.37032136 0.20332092
0.44303384 -0.35522071 0.20701736
-0.47135276 -0.33865911 0.20242357
0.45835179 -0.32331628 0.20493174
-0.48688701 -0.3070246 0.20152694
0.47355777 -0.27567685 0.20250005
0.49044493 -0.22898121 0.20727026
0.53594095 -0.070852444 0.20016158
-0.2673437 0.48151457 0.20790792
0.23777884 0.48117203 0.20642436
-0.266563 0.49588153 0.20194232
0.23713133 0.49561283 0.20081663
-0.5516367 0.54473972 0.20815003
-0.53596818 0.54486358 0.20862305
0.0010936591 -0.65931332 0.2200222
0.01697495 -0.65921253 0.21971059
0.032851443 -0.6591118 0.21939903
0.048723146 -0.65901107 0.21908778
0.064616419 -0.65918738 0.2196328
-0.20529301 -0.6431101 0.21900988
-0.18928267 -0.64265072 0.21755451
-0.1732949 -0.64219201 0.21610129
0.2074336 -0.64296269 0.21854305
-0.15732968 -0.64173406 0.21464992
-0.14138694 -0.64127654 0.21320069
-0.12546663 -0.64081985 0.21175349
-0.10956872 -0.64036375 0.21030843
-0.093727753 -0.64014459 0.2096141
-0.077912733 -0.64005071 0.20931655
-0.062101956 -0.63995337 0.20900834
0.095896237 -0.64001602 0.20920658
0.11174594 -0.64030463 0.21012092
0.12761045 -0.64059693 0.21104717
0.14348851 -0.64088607 0.21196324
0.15938076 -0.64117551 0.21288019
0.17528717 -0.64146507 0.21379781
0.19120882 -0.6417585 0.21472752
-0.2684522 -0.62642395 0.21637845
-0.25194266 -0.62478912 0.21106935
-0.23596112 -0.62434447 0.20962512
0.22284935 -0.62578607 0.21430689
-0.28403461 -0.60997623 0.21440637
0.23820187 -0.60867971 0.21008784
0.25506693 -0.61125821 0.21867645
-0.29958719 -0.59356004 0.21243823
0.2703858 -0.59414548 0.21443963
-0.31511006 -0.5771752 0.21047378
0.28564185 -0.57710296 0.21022022
0.30270642 -0.57954949 0.21880984
-0.34830981 -0.56394953 0.21979964
0.3179284 -0.56250083 0.21457243
-0.36384144 -0.54753441 0.21782106
0.33308795 -0.54552209 0.21035236
0.35047263 -0.54802841 0.21965492
-0.37934336 -0.53115082 0.2158463
0.36597767 -0.51572758 0.2175324
0.38145083 -0.48349309 0.21541411
0.39689437 -0.45132723 0.21331131
-0.44369519 -0.42110187 0.22023362
0.4123064 -0.41922694 0.21121269
-0.45937684 -0.38915572 0.21932119
0.42768466 -0.38719001 0.20910746
-0.47504464 -0.35723779 0.21840978
0.46176285 -0.34167159 0.22021139
-0.49069858 -0.3253479 0.21749902
-0.50547403 -0.26131243 0.21307909
0.507411 -0.1820673 0.2120626
0.52445656 -0.13493371 0.21687752
-0.52028972 0.54498452 0.20908552
-0.50460416 0.54510576 0.20954788
-0.4889116 0.54522675 0.21001071
-0.47321188 0.54534793 0.21047378
-0.45750511 0.54546922 0.21093696
-0.44179124 0.54559046 0.21140027
-0.4260726 0.54571468 0.21187502
-0.41034445 0.54583609 0.21233881
-0.39460918 0.54595757 0.21280277
-0.37886685 0.54607904 0.21326703
-0.36311933 0.54620349 0.21374261
-0.34736457 0.54632807 0.21421832
-0.33160073 0.54644966 0.21468312
-0.31583145 0.54657435 0.21515924
-0.30005324 0.54669601 0.21562469
-0.28426942 0.54682088 0.21610129
-0.26847687 0.54694271 0.21656692
0.049008835 -0.67898256 0.23145854
-0.2065354 -0.66299999 0.23142481
-0.19042787 -0.66252375 0.22995186
-0.17434318 -0.6620481 0.22848088
-0.15828131 -0.66157329 0.22701222
-0.14224221 -0.66109908 0.22554547
-0.12622581 -0.66062552 0.22408098
-0.11023206 -0.66015267 0.22261834
-0.09429387 -0.6599111 0.22187114
-0.07838437 -0.65981382 0.22157019
-0.062479157 -0.65971279 0.22125804
-0.046578746 -0.65961206 0.22094619
-0.030683145 -0.65951121 0.22063428
-0.014792342 -0.65941048 0.22032267
0.08053267 -0.659486 0.22055638
0.096463166 -0.65978491 0.22148097
0.11240796 -0.66008413 0.22240639
0.12836772 -0.66038716 0.22334373
0.14434122 -0.66068691 0.22427088
0.16032903 -0.66098696 0.22519875
0.17633122 -0.66128719 0.22612745
0.19234778 -0.66158777 0.22705698
0.20873059 -0.66302532 0.23150349
-0.27020204 -0.64649975 0.22974956
-0.25345999 -0.64449197 0.22338837
-0.23738162 -0.64403081 0.22192693
-0.22132596 -0.64357013 0.22046739
0.22424036 -0.64569938 0.2272138
0.25666344 -0.63112277 0.23163855
-0.28588381 -0.62992603 0.22775203
0.23968485 -0.62844151 0.22293079
-0.30153537 -0.61338425 0.22575808
0.27207512 -0.61386168 0.22734833
-0.31715685 -0.59687436 0.22376817
0.28742164 -0.59666848 0.2230646
-0.33274829 -0.58039606 0.22178191
0.31991607 -0.58201987 0.22748291
-0.36621219 -0.56711197 0.23121113
0.33516645 -0.5648945 0.22320986
-0.38181245 -0.55060303 0.22921056
-0.39656693 -0.51711029 0.22297537
0.38430285 -0.50314391 0.23085105
-0.41229028 -0.48507917 0.22206074
0.3998591 -0.47071695 0.22871667
-0.42799968 -0.45307639 0.22114676
0.41538116 -0.43835419 0.22657531
0.43087348 -0.40606043 0.22444963
0.446334 -0.37383291 0.22232825
0.4785468 -0.29458535 0.22410321
0.49562442 -0.24744001 0.2289747
0.54158223 -0.087578692 0.22171503
0.22454514 0.53450876 0.2300418
-0.25368986 0.54921669 0.22525471
0.22443135 0.55019319 0.22898602
0.24042553 0.55028713 0.22934526
0.25642526 0.55038124 0.22970462
0.27243054 0.55047536 0.23006409
0.28844136 0.55056953 0.23042381
0.30445772 0.55066365 0.23078364
0.32047969 0.55075788 0.23114353
0.33650717 0.55085206 0.23150361
-0.19158696 -0.68263721 0.24249923
-0.17540416 -0.68214434 0.24101043
-0.15924448 -0.68165231 0.23952383
-0.14310782 -0.68116099 0.23803943
-0.12699413 -0.68067026 0.23655701
-0.1109034 -0.68018025 0.23507684
-0.094866812 -0.67991495 0.23427534
-0.078861244 -0.6798104 0.2339595
-0.062860534 -0.67970592 0.23364377
-0.046864953 -0.67960513 0.23333931
-0.030873891 -0.67950064 0.23302376
-0.014887687 -0.67939627 0.23270833
0.0010936591 -0.67929184 0.23239285
0.01707015 -0.67918754 0.2320776
0.033041965 -0.67908686 0.23177361
0.064997889 -0.67916882 0.23202121
0.081010364 -0.67948204 0.23296738
0.09703692 -0.67979181 0.23390317
0.11307794 -0.68010181 0.23483974
0.12913342 -0.68041211 0.23577708
0.14520419 -0.68072641 0.2367267
0.16128875 -0.68103731 0.23766577
0.17738785 -0.68134832 0.23860568
0.1935015 -0.6816597 0.23954648
0.22564773 -0.66586053 0.24027252
-0.25499561 -0.6644327 0.23585624
-0.23881923 -0.66395444 0.23437703
-0.22266583 -0.66347682 0.23289984
-0.28775716 -0.65013629 0.24127173
0.24118778 -0.64845562 0.23594666
-0.30350897 -0.63346702 0.23925179
0.27378428 -0.63382339 0.24040878
-0.31923032 -0.61683011 0.23723572
0.28922543 -0.61648387 0.23608232
-0.33492124 -0.60022533 0.23522359
0.30460256 -0.59921616 0.23177361
0.32192886 -0.60178524 0.24055624
-0.35058185 -0.58365262 0.23321533
0.33726931 -0.58450782 0.23621792
-0.38431376 -0.5703094 0.24274945
0.35309586 -0.56820196 0.23514456
-0.39970586 -0.53728563 0.23928577
0.36871651 -0.53564078 0.23300123
-0.41555181 -0.50499284 0.23835659
-0.4313837 -0.47272879 0.23742813
0.41850457 -0.45777208 0.24218071
-0.44720143 -0.44049346 0.23650044
0.43411034 -0.42521507 0.24002308
-0.4630051 -0.40828687 0.23557371
0.44968385 -0.39272535 0.2378695
-0.47879466 -0.376109 0.23464787
0.46645427 -0.36127749 0.24122632
-0.49457017 -0.34395984 0.23372263
0.51278281 -0.20007205 0.23386931
0.53002232 -0.15247975 0.238787
0.22579458 0.50535363 0.24163526
