ply
format ascii 1.0
comment PCL generated
element vertex 1395
property float x
property float y
property float z
element camera 0
property float view_px
property float view_py
property float view_pz
property float x_axisx
property float x_axisy
property float x_axisz
property float y_axisx
property float y_axisy
property float y_axisz
property float z_axisx
property float z_axisy
property float z_axisz
property float focal
property float scalex
property float scaley
property float centerx
property float centery
property int viewportx
property int viewporty
property float k1
property float k2
end_header
0.013753163 -0.44140738 0.11853655
0.028211566 -0.44152921 0.12120598
0.064797834 -0.43648493 0.12211133
0.12482942 -0.43121246 0.12226328
0.15547101 -0.4355838 0.11672892
0.18626525 -0.44056612 0.11042095
0.24382442 -0.43470895 0.11768414
0.25900343 -0.44099915 0.11481442
0.27131665 -0.43022484 0.10866673
0.28855783 -0.43961397 0.11499389
-0.30046272 -0.4060815 0.10538965
-0.25554526 -0.41046825 0.11476891
-0.23838463 -0.41785538 0.11658636
-0.20636395 -0.41835257 0.11842131
-0.15812722 -0.42321929 0.12131181
0.12838818 -0.42356336 0.12099037
0.27152935 -0.40617639 0.12028223
0.29816923 -0.41013849 0.10754588
0.30610737 -0.41989824 0.11528424
-0.31962255 -0.40057281 0.10922615
-0.28217232 -0.39150044 0.11656313
0.24517477 -0.39393115 0.12101496
0.31988671 -0.3936401 0.11586519
-0.31999978 -0.37579823 0.11973464
-0.29820824 -0.37729302 0.11366007
0.30060819 -0.37107825 0.11059596
0.30541193 -0.38214508 0.1121778
-0.30538994 -0.35435823 0.11643878
0.30904415 -0.35474589 0.11450038
0.32679278 -0.355205 0.11698387
-0.3139044 -0.34462932 0.11745579
0.30160782 -0.34257922 0.11433078
0.3224315 -0.34016636 0.1189952
-0.32650542 -0.32343858 0.11453323
-0.31160808 -0.32674593 0.12041534
0.30279744 -0.31286365 0.11618008
0.33125573 -0.31265426 0.1155742
0.36269215 -0.31463021 0.11758582
-0.40229928 -0.29208696 0.11738729
-0.38973835 -0.29440132 0.10781825
-0.37876385 -0.30261743 0.11751881
-0.31764883 -0.30191624 0.12060612
-0.29756892 -0.2977787 0.10996475
0.3055633 -0.29504192 0.10987183
0.3863818 -0.30429536 0.11744486
0.40829048 -0.29081631 0.11744287
-0.35484618 -0.28728247 0.11312858
-0.3351424 -0.28852612 0.10911412
-0.31948993 -0.27700034 0.12189845
0.33117047 -0.28367075 0.11799943
0.34314948 -0.28570759 0.10901869
0.38581538 -0.28370225 0.11949518
0.4097631 -0.27833945 0.12263983
-0.41369811 -0.26576912 0.11965013
-0.37623414 -0.27061245 0.10797983
0.3217532 -0.25668302 0.11949029
0.39152905 -0.26746973 0.10853583
-0.31711131 -0.24780089 0.12152753
0.30854642 -0.24718563 0.11418229
-0.3273049 -0.22220795 0.12169497
-0.31438094 -0.21925022 0.12218858
-0.29814753 -0.22785202 0.10812394
0.31171939 -0.22503071 0.11407583
0.32054463 -0.20106347 0.1203723
-0.32976189 -0.18548208 0.11312414
-0.31390315 -0.19249354 0.12188307
0.30812877 -0.19340421 0.11391517
-0.31345704 -0.16572611 0.12159795
-0.29773277 -0.16198149 0.10640518
0.31402442 -0.16986592 0.11726164
-0.33202219 -0.14948712 0.10660859
-0.31293142 -0.13895492 0.12126159
0.29674476 -0.14793769 0.10471306
0.31183219 -0.14667749 0.11363468
-0.33384189 -0.11561456 0.10438307
-0.31238931 -0.11217484 0.1209151
0.29493645 -0.10970661 0.10870032
0.31368625 -0.11509903 0.11744243
-0.31223002 -0.085370883 0.12081307
-0.29787135 -0.096913278 0.10469867
0.31193894 -0.088163748 0.11312482
0.29307196 -0.071375914 0.11348304
0.31938478 -0.061760567 0.12121878
-0.31216624 -0.058561392 0.12077231
0.30787188 -0.058862325 0.1137508
-0.31213436 -0.03175015 0.12075192
0.29122287 -0.03347221 0.11829571
0.31362835 -0.032916266 0.11748479
-0.31207061 -0.0049386173 0.12071116
0.31348988 -0.0055223815 0.11747568
-0.31195879 0.021874081 0.12063971
0.31406 0.021874081 0.1178403
-0.31242132 0.048683573 0.12093537
0.31423253 0.049263712 0.11778044
-0.31242132 0.075493068 0.12093537
0.31404355 0.076656893 0.11785243
-0.31226179 0.10230692 0.1208334
0.3138628 0.10405341 0.11791836
-0.31207061 0.12912486 0.12071116
0.30865893 0.12949386 0.11425409
0.31868839 0.1334134 0.12172674
0.33598024 0.14225811 0.1042317
-0.31693047 0.15645586 0.1126621
0.31349272 0.15885703 0.11805642
-0.3117356 0.18276861 0.12049704
0.29520199 0.18023133 0.12119304
0.30846605 0.18331432 0.11413094
0.3203792 0.18908669 0.12049311
-0.31630597 0.21716797 0.11347097
0.29687211 0.21760112 0.11878386
0.31428325 0.21359739 0.11734769
0.33549744 0.20873544 0.1059808
-0.31143248 0.23642227 0.12030306
-0.29116338 0.24382913 0.1226486
0.31447306 0.24097279 0.1175939
-0.31124097 0.26325655 0.12018066
0.29991165 0.25305745 0.11859448
0.31439722 0.26836675 0.11770429
0.33505023 0.27715313 0.10778017
-0.31551588 0.29243332 0.11423357
-0.29173425 0.2984024 0.12085026
0.30038837 0.29454455 0.11264043
0.31434554 0.29575998 0.11782983
-0.32585993 0.32033971 0.10647104
-0.31098568 0.31692275 0.12001732
0.30164117 0.30399337 0.12060203
0.3092688 0.31776717 0.11464419
0.30211496 0.33321995 0.11017648
0.31931841 0.32854137 0.12126706
-0.31740808 0.34843075 0.11475729
-0.29291406 0.35259253 0.11905208
0.31423384 0.35055044 0.11807632
0.33453789 0.34781402 0.10963921
-0.31467652 0.36883596 0.11500524
0.3038694 0.3662124 0.11304412
0.30941319 0.37154877 0.11473643
-0.31630293 0.39110565 0.11541846
0.3203792 0.38416806 0.12049311
-0.32767615 0.40113983 0.11926483
-0.32059783 0.41656768 0.1139672
-0.29241174 0.40256172 0.11742613
0.30427781 0.41124085 0.11703721
0.31471416 0.40526596 0.11773672
-0.30997989 0.42435101 0.11937426
0.30915642 0.42538005 0.11457223
0.33319485 0.42248982 0.11161689
-0.32959479 0.44072771 0.11709477
-0.3152113 0.44746336 0.11616166
-0.29263625 0.45247468 0.11578742
0.31451347 0.44612959 0.11760836
0.31252447 0.4650487 0.11813206
-0.33172831 0.48219422 0.11310535
-0.31325147 0.47884497 0.11949561
0.3088032 0.47923574 0.11434649
-0.3091177 0.50498831 0.11882257
-0.2928637 0.50114572 0.11418919
0.29713121 0.5018822 0.10506206
0.31117791 0.50433862 0.11640064
0.33126497 0.50085354 0.11370082
-0.33399993 0.52502227 0.10803397
-0.31502965 0.52204293 0.11441044
0.31875467 0.52378976 0.12167834
-0.3086701 0.53190571 0.11853649
-0.29417595 0.55034095 0.11255196
0.29562688 0.53231317 0.1071408
0.30827326 0.533135 0.11400757
-0.30819061 0.55883706 0.11822979
0.29414701 0.56238681 0.1090976
0.31052846 0.55656099 0.11606687
-0.30772683 0.58577418 0.11793317
0.30745399 0.58710909 0.11348356
0.32896522 0.58260977 0.11587948
-0.31216529 0.60551238 0.11664324
-0.2939125 0.59585708 0.11106697
0.30496216 0.60268211 0.11075527
-0.30713496 0.61274552 0.11755467
0.30679506 0.6141575 0.11306231
-0.29941666 0.63915741 0.11336526
0.30400321 0.64592528 0.1093587
0.30599105 0.6412484 0.11254809
0.29000646 0.64979559 0.11255834
-0.29945493 0.67472988 0.1125717
0.28871939 0.67806375 0.11295618
0.30507398 0.66837889 0.11196151
0.32482618 0.67133123 0.11827033
-0.30709237 0.696868 0.11911824
-0.30502126 0.69380164 0.11620308
0.30345067 0.69164312 0.10968409
-0.30393144 0.72093773 0.11550605
0.28747657 0.70592654 0.11299012
-0.29170823 0.7239213 0.10691854
0.29685521 0.72813225 0.11003657
-0.30284059 0.74809384 0.11480845
0.28515604 0.76033092 0.11158113
0.29449955 0.75409847 0.11372606
-0.2955673 0.76904786 0.10980693
0.29947147 0.77187198 0.10715856
0.31813943 0.76909316 0.12093925
-0.30207354 0.79031444 0.11871793
-0.28464156 0.79640621 0.10468833
0.28416896 0.78649664 0.10911297
-0.29923058 0.80844939 0.10996469
-0.27747932 0.81196463 0.10605815
0.2965858 0.80350244 0.10590754
-0.25183567 0.82999396 0.10425248
0.24095289 0.83008933 0.11422113
0.25656539 0.81814301 0.12122504
0.26894987 0.83599597 0.12106802
0.28578433 0.82864785 0.10374478
-0.27548161 0.83849055 0.10477603
-0.24962996 0.84086162 0.1110101
-0.24436256 0.84742171 0.11122095
-0.22640528 0.83991766 0.1097606
-0.20115365 0.84339446 0.11238063
-0.18019827 0.84775639 0.11181246
-0.15135002 0.84989709 0.10563419
-0.12295535 0.85122293 0.1061654
-0.094976865 0.85341609 0.10665964
-0.066007793 0.85468829 0.10720432
-0.036656138 0.85583282 0.10776073
-0.0061751492 0.85595834 0.10837341
0.025096297 0.85552013 0.10902055
0.057203177 0.85449678 0.10970374
0.090678848 0.85230541 0.11045279
0.12502651 0.84956992 0.11123744
0.15756787 0.84537566 0.11660725
0.18000379 0.84367883 0.11841687
0.19856934 0.84012866 0.1130347
0.23923883 0.84699333 0.10656161
-0.20416963 0.86280841 0.11254069
-0.16534464 0.86941332 0.11153872
-0.12625849 0.86901075 0.10760948
-0.097603239 0.86518878 0.1052611
-0.072352819 0.86540312 0.10583772
-0.021888405 0.8654449 0.10594999
0.0033425463 0.86538529 0.10578978
0.028572075 0.8655104 0.10612603
0.053809233 0.86533165 0.10564574
0.079056516 0.86511713 0.10506866
0.10432494 0.86476535 0.10412266
0.14700003 0.87354761 0.10508311
0.17336561 0.86992526 0.10466812
0.19901769 0.86563051 0.10428968
0.22390221 0.86055404 0.10395239
-0.095130697 0.87596256 0.10990366
-0.061554939 0.87820923 0.10915055
-0.029294336 0.87937307 0.10845961
0.0021906085 0.8800388 0.10780072
0.032856397 0.88012415 0.10717747
0.041793421 0.88152283 0.11363739
0.062560417 0.87942052 0.10659949
0.091583513 0.87823492 0.10605097
0.11956775 0.87608558 0.105555
-0.1675221 -0.46887374 0.12326485
-0.10285561 -0.46720576 0.12365984
-0.076276138 -0.46777779 0.12483256
-0.05150979 -0.47160402 0.12564234
-0.023187222 -0.46833315 0.12597111
0.0079783807 -0.46783766 0.12787481
0.029876586 -0.46809644 0.12548581
0.05642736 -0.46761444 0.12449767
0.083004035 -0.4669604 0.1231569
-0.21304563 -0.45477891 0.12464742
-0.17672183 -0.45878106 0.12473645
-0.12954819 -0.44296011 0.13427709
-0.10291749 -0.44372472 0.13581474
-0.093025766 -0.44922209 0.13693416
-0.07632459 -0.44426444 0.13690011
-0.04975576 -0.4446463 0.13766791
-0.023204073 -0.4447872 0.13795133
0.0033424895 -0.44472912 0.13783473
0.029893382 -0.44454655 0.1374675
0.06396471 -0.4524163 0.13378006
0.083052032 -0.44344223 0.13524666
0.12496649 -0.45488101 0.12991977
0.17498206 -0.44948047 0.12748934
0.22099577 -0.44464415 0.12333276
-0.23659891 -0.4381974 0.12469944
-0.22720285 -0.43327609 0.13169658
-0.20973137 -0.43970194 0.12772487
-0.18295445 -0.44088671 0.13010764
-0.15622525 -0.44200328 0.13235286
-0.14845079 -0.43015215 0.12360565
-0.11792701 -0.42681107 0.12783544
-0.087519355 -0.42436773 0.13092884
0.063930921 -0.42492521 0.13022287
0.094330087 -0.4277623 0.12663108
0.1065269 -0.43603462 0.12841642
0.13634308 -0.44168675 0.13171646
0.1630618 -0.44053659 0.12940326
0.18983877 -0.43923417 0.12678422
0.21672176 -0.43748587 0.12326849
-0.29135364 -0.40783268 0.12355019
-0.26387691 -0.41187701 0.13152984
-0.23676117 -0.41445696 0.13662022
-0.20985457 -0.4161382 0.13993749
-0.057194136 -0.42283168 0.13287346
-0.026918905 -0.42227486 0.13357829
-0.015991563 -0.40849009 0.13567747
0.0033425463 -0.4224706 0.13333052
0.033617262 -0.42334351 0.13222544
0.051054966 -0.41537979 0.13066855
0.14448547 -0.41966346 0.12427467
0.16315232 -0.41700304 0.14164378
0.18933877 -0.4111568 0.13230658
0.19682832 -0.41860554 0.14075972
0.2168626 -0.41375959 0.13524427
0.24147092 -0.41269034 0.13188823
0.27276942 -0.41176859 0.12346946
-0.26834911 -0.39063826 0.12524953
-0.22665562 -0.38808393 0.13096221
-0.18083832 -0.39233267 0.13510762
-0.13078427 -0.39711106 0.13738336
-0.076039307 -0.40247241 0.13764617
0.17488697 -0.39765459 0.129388
0.2441909 -0.38681537 0.14106591
-0.2916308 -0.38353726 0.134719
-0.26495433 -0.38482004 0.12275893
-0.23715179 -0.38051975 0.13826218
0.21398436 -0.3829163 0.13518004
0.23815246 -0.37307268 0.12941067
0.27802235 -0.38239086 0.13089964
-0.32053387 -0.35017854 0.12877199
-0.27831233 -0.35600665 0.13115749
0.25647834 -0.36471635 0.12833999
0.27351528 -0.35156617 0.12687521
0.29262519 -0.3550356 0.1359532
-0.29597178 -0.34460187 0.13597359
-0.32121029 -0.32375398 0.13649623
-0.29066578 -0.32755488 0.13892443
0.29718822 -0.32117367 0.14025506
-0.40491506 -0.29008058 0.13117799
-0.37249607 -0.29619336 0.1325507
-0.34991184 -0.29280871 0.1361749
-0.32279596 -0.29251027 0.13562812
0.30092114 -0.30028617 0.14116925
0.32893407 -0.29535168 0.1408326
0.35620621 -0.29468188 0.13960558
0.37450951 -0.29528901 0.12499749
-0.41299292 -0.27867794 0.1247327
-0.38256386 -0.27455199 0.13029689
0.30053547 -0.27347803 0.14092666
0.3518641 -0.27930614 0.1343784
-0.32460573 -0.25986069 0.13277462
-0.2967836 -0.25842035 0.13283338
0.38016015 -0.26010773 0.12425115
0.3908115 -0.26655826 0.13855265
-0.32178739 -0.23948164 0.12814572
-0.28772387 -0.24922119 0.13886148
0.29833189 -0.24606776 0.1397844
-0.29641512 -0.23042244 0.13310221
0.29990864 -0.21982895 0.14053261
-0.31996331 -0.20174327 0.13014738
-0.29544246 -0.20246342 0.13381195
-0.28757089 -0.18241674 0.13667729
0.29763451 -0.18617952 0.13840802
-0.31805837 -0.16373709 0.13310176
-0.29453656 -0.17448148 0.13447316
0.29894409 -0.16617858 0.13992611
-0.2935293 -0.14648812 0.13520817
0.29849362 -0.13933848 0.13964286
-0.31625304 -0.12669672 0.13527274
-0.29228622 -0.11848681 0.13611524
-0.28663054 -0.11909193 0.13462292
0.2968539 -0.11348912 0.13689739
-0.31439728 -0.089598507 0.13810925
-0.29156315 -0.090442106 0.13664289
0.29789811 -0.085622616 0.13926841
-0.29141185 -0.062367372 0.13675334
0.32258046 -0.076575391 0.12619184
-0.28716803 -0.054690741 0.13250341
0.29711545 -0.054273091 0.13576503
-0.29127726 -0.034289446 0.13685161
0.29780155 -0.031876024 0.13920778
-0.31299657 -0.012207221 0.12835816
-0.29109234 -0.0062094405 0.13698654
0.29775327 -0.0050014108 0.13917738
0.32194695 -0.016512392 0.12817125
-0.28797603 0.0084078163 0.13042125
0.2932955 0.0085711032 0.12661201
-0.29085675 0.021874081 0.13715847
0.29765671 0.021874081 0.13911675
-0.31307763 0.048273664 0.13033676
-0.29149598 0.04995377 0.13669196
0.29279372 0.045505386 0.13466074
0.32172099 0.044481803 0.13017285
-0.28976056 0.071568891 0.12831716
0.28921154 0.06279999 0.14009815
-0.29210117 0.078021944 0.13625027
0.28558967 0.078943729 0.13484278
0.30032048 0.078793555 0.13499352
-0.29171449 0.10610689 0.13653244
0.29453948 0.10195057 0.13657588
0.32077107 0.10866927 0.13229361
-0.31179139 0.11319704 0.13248843
0.28389677 0.11451504 0.13871172
0.30108905 0.12360319 0.13823567
-0.29074624 0.1323235 0.13159783
0.29593101 0.13720459 0.12685366
-0.29099134 0.16229647 0.13706021
0.30087391 0.15303303 0.13810299
-0.31048545 0.1800845 0.13470478
0.29738298 0.18314722 0.13894446
0.31972206 0.17495312 0.13448514
-0.2906864 0.18920138 0.13089563
0.29756334 0.18829107 0.12447263
-0.29030141 0.21851134 0.13756362
0.2972379 0.21003532 0.13885343
-0.31902221 0.23899534 0.13919418
0.29710937 0.23692486 0.13877259
0.31873193 0.24310574 0.13673656
-0.30908775 0.24917242 0.13699521
-0.28994808 0.24662921 0.13782153
0.29691589 0.26382202 0.13865098
-0.3213051 0.27986288 0.13275981
-0.28966182 0.27474809 0.13803035
0.2967549 0.29071978 0.13854964
-0.31557485 0.32081184 0.13300537
-0.28929129 0.30288041 0.1383009
0.29664195 0.3176156 0.13847876
0.31770042 0.31341979 0.13905966
-0.2889038 0.33102152 0.13858351
-0.32541478 0.35940224 0.12486546
-0.28777483 0.3592546 0.13940734
0.29651326 0.34451526 0.13839786
0.2962876 0.37142873 0.13825603
-0.2872014 0.38744044 0.13982567
0.31636301 0.38655907 0.14148137
-0.28666177 0.41563272 0.14021954
0.29604596 0.3983483 0.1381039
0.2957719 0.4252767 0.13793157
-0.28603724 0.44384736 0.14067523
0.2954978 0.45221007 0.13775946
-0.28537875 0.47207901 0.14115575
-0.28172278 0.4831194 0.14024279
0.29297787 0.48301432 0.13881272
-0.31534666 0.51050419 0.12273764
-0.28460196 0.50034237 0.14172281
0.29494965 0.50609183 0.13741468
-0.28178075 0.5306263 0.13837487
-0.31373221 0.54068077 0.12463158
0.29259491 0.53361893 0.13765615
0.29420736 0.56002879 0.13694805
-0.3121174 0.57063073 0.12667184
-0.2814503 0.57637012 0.13658556
0.29346034 0.5846805 0.13679539
0.31712866 0.57986712 0.12286495
-0.31052047 0.60026968 0.12867521
-0.28088084 0.62065309 0.13485953
0.28070509 0.61599851 0.14127122
0.29240465 0.61980689 0.1356831
0.31588295 0.60801536 0.12377383
-0.30909964 0.62889314 0.12906758
-0.29511932 0.6391632 0.14172451
0.29286751 0.64103222 0.13610555
0.31432024 0.63625354 0.12491431
-0.30769143 0.65725851 0.1294561
-0.28003016 0.6634683 0.13319793
0.28280467 0.66211563 0.13414648
0.312556 0.66456538 0.12620179
-0.29423606 0.66619462 0.14116919
0.29062387 0.66791934 0.13419081
-0.29979053 0.68925345 0.13505079
0.29068559 0.69536805 0.13473369
0.31057301 0.69296068 0.12764882
-0.29857957 0.71659291 0.13453738
-0.27546981 0.70822352 0.13088541
0.28483817 0.70799655 0.12799826
0.28996065 0.71138263 0.13123652
0.30833679 0.72145385 0.12928075
-0.30995268 0.73914695 0.13927445
-0.30370951 0.74013889 0.12890908
0.28960124 0.7225641 0.13405208
-0.29267734 0.7471174 0.14018902
-0.27954581 0.74793816 0.12989092
0.28900892 0.75037944 0.13185918
0.30564547 0.75010192 0.1312447
-0.30223897 0.76798046 0.13041508
-0.27896345 0.77667272 0.13253404
0.16725402 0.76903981 0.13091484
0.29497167 0.77796566 0.13345042
-0.31306225 0.79311913 0.12514228
0.16659679 0.79724228 0.13162138
0.25639525 0.79743147 0.13662319
0.28516313 0.78753871 0.1283609
-0.27495453 0.80226982 0.13504779
-0.25819981 0.79906648 0.12840049
-0.24023186 0.81038213 0.13464001
0.22605975 0.8097949 0.13973796
0.27875406 0.80868959 0.12886402
-0.27492559 0.81934875 0.12432551
-0.24026543 0.8275851 0.13516915
-0.21919948 0.82135189 0.13270774
-0.19796716 0.82573521 0.14074846
-0.19028239 0.82423019 0.12906103
-0.1641984 0.82828861 0.12953486
-0.13745639 0.83174616 0.13004844
-0.109275 0.83362991 0.13065866
-0.080821119 0.83549458 0.13127641
-0.051315624 0.83637512 0.13195825
-0.021188991 0.83685005 0.13267107
0.009770575 0.83668762 0.13342933
0.041882467 0.83554262 0.13425399
0.074958809 0.83368558 0.13513021
0.10908795 0.83105367 0.13606235
0.14487079 0.82700515 0.13709028
0.18132894 0.82299 0.13889049
0.20503081 0.82347006 0.1349235
0.23230258 0.82837278 0.12859908
0.25571874 0.82609195 0.12756115
-0.19028762 0.84189057 0.13777052
-0.15040688 0.84638083 0.13035351
-0.12013775 0.84841406 0.13085358
-0.097318515 0.84706831 0.12732862
-0.083683714 0.8526634 0.1347587
-0.068142503 0.84644181 0.12961455
-0.048695955 0.8512221 0.13163288
-0.021803461 0.84797299 0.12970705
-0.018351784 0.85559088 0.13305731
0.0080044847 0.85182756 0.13094757
0.028492084 0.84781015 0.12927915
0.048309345 0.85140473 0.12994476
0.072274067 0.85416645 0.13091257
0.078841828 0.84701395 0.12718572
0.1025709 0.84951615 0.12786339
0.12925377 0.84812397 0.12658453
0.15704276 0.8486008 0.12907284
0.18134955 0.84881496 0.12929808
0.20923872 0.84077907 0.12811263
0.2316836 0.84223998 0.1299381
-0.17461416 0.86250377 0.12588719
-0.055021632 0.86996204 0.12463881
0.11581904 0.86566675 0.12445907
0.012754556 -0.4439829 0.14675514
0.045396037 -0.44465131 0.14593616
0.076484844 -0.44356355 0.14522398
-0.095753543 -0.4306404 0.14991419
-0.057598542 -0.43717861 0.14873089
-0.021801535 -0.44146973 0.14547905
0.04027513 -0.43468046 0.14581914
0.1015475 -0.43510327 0.14516211
0.13576171 -0.43834972 0.14398944
0.16400853 -0.43419814 0.14346662
0.19148766 -0.42918563 0.14299624
-0.18138498 -0.4135175 0.14759526
-0.15631127 -0.4185352 0.1446667
-0.13577271 -0.4225235 0.14928854
-0.12962203 -0.4194819 0.14653456
-0.10298103 -0.42019093 0.14793365
-0.067691565 -0.41801018 0.15242243
-0.049789179 -0.42107648 0.14968081
-0.023221154 -0.42120299 0.1499304
0.0052883173 -0.41484082 0.1548472
0.029910119 -0.42097536 0.14948131
0.056492034 -0.42055377 0.14864941
0.083098486 -0.41992933 0.14741737
0.10973489 -0.41917771 0.14593437
0.142479 -0.42082614 0.14399628
0.21827869 -0.42338824 0.14257346
0.24313679 -0.41478121 0.14230804
-0.26409262 -0.38785592 0.14308067
-0.23692326 -0.39068455 0.14855729
-0.20997782 -0.39254755 0.15216446
-0.18226239 -0.39561889 0.15552309
-0.15639843 -0.39503333 0.15697747
-0.12762862 -0.39106718 0.15244851
-0.10304468 -0.39662915 0.16006723
-0.095514938 -0.38844541 0.14676522
-0.064236715 -0.38929075 0.14749146
-0.031691905 -0.38873726 0.14830349
0.0022095104 -0.38673183 0.14920555
0.056523804 -0.39699763 0.16078061
0.086857036 -0.39281201 0.15083416
0.10979456 -0.3956601 0.15819095
0.12127712 -0.39731276 0.16025996
0.13648939 -0.39468119 0.15629552
0.1632421 -0.3934516 0.15391481
0.1806443 -0.39229667 0.15434153
0.21673925 -0.38917774 0.14989522
0.26555911 -0.40240121 0.14225002
0.28555876 -0.38607028 0.14240602
-0.23636362 -0.37417707 0.1587829
-0.20815094 -0.37312379 0.14571807
-0.17941214 -0.37362891 0.14898118
-0.15458843 -0.38273171 0.14555521
-0.10164351 -0.37098444 0.15266456
-0.044183381 -0.37629414 0.15192375
0.019278297 -0.38229719 0.1486567
0.037420388 -0.38341719 0.15019083
0.074423522 -0.37820178 0.15129425
0.11835509 -0.36841467 0.15445249
0.15302522 -0.37047094 0.15118498
0.1833394 -0.37552124 0.14469016
0.25425407 -0.38524505 0.14388752
-0.29191786 -0.35914329 0.14580832
-0.26122737 -0.35790491 0.14949976
-0.23982963 -0.36120552 0.14318468
-0.20250775 -0.36198652 0.14827058
-0.15429357 -0.36622831 0.15141755
-0.14602202 -0.36536881 0.1577463
0.092882164 -0.36325318 0.16046713
0.13321976 -0.3629443 0.15213691
0.15606646 -0.35946143 0.15401304
0.21716326 -0.36607274 0.15897651
0.24438448 -0.36274749 0.15265761
0.26966617 -0.35691208 0.14718834
0.30206504 -0.36378583 0.14288084
-0.29215908 -0.33496246 0.15740561
-0.27877694 -0.33597308 0.14437687
-0.26015234 -0.32948217 0.15166436
-0.22197025 -0.3322891 0.16009296
0.18110749 -0.33672455 0.15998958
0.20506622 -0.34051943 0.15594712
0.24150684 -0.33183429 0.15265352
0.27235386 -0.33266607 0.15312174
0.31423372 -0.33379391 0.14376371
-0.29647711 -0.31491876 0.14477415
-0.26415804 -0.32800677 0.15765396
0.27839032 -0.32812303 0.15880452
-0.29952756 -0.29970881 0.14449602
-0.27361953 -0.30099231 0.15998758
0.26952848 -0.29125562 0.15724871
0.35684487 -0.30172279 0.14380607
0.38375023 -0.29956219 0.14342068
-0.30814621 -0.28313354 0.14573967
-0.30457684 -0.27240521 0.14767055
0.31704113 -0.28696844 0.14553535
0.40699354 -0.28844073 0.14329326
-0.40508178 -0.26622599 0.14422365
-0.40127096 -0.26098415 0.14516385
-0.28213593 -0.27065527 0.16046475
0.36443624 -0.26847461 0.14992471
0.38466066 -0.26567516 0.14323302
0.41382131 -0.26017126 0.14487554
-0.30513501 -0.24560179 0.14802137
-0.3090322 -0.23164684 0.14774111
-0.30526254 -0.21884377 0.14810176
-0.30486378 -0.19212632 0.14785103
-0.30710655 -0.1737316 0.15006335
-0.30422589 -0.1654169 0.14745
-0.30353963 -0.13869847 0.14701845
-0.30336034 -0.11200258 0.14953478
-0.30230999 -0.085219011 0.14624546
0.28213105 -0.082825966 0.15822385
0.30434746 -0.084728956 0.15985556
-0.31239551 -0.051825751 0.14255278
-0.30233556 -0.055007339 0.15057011
0.28390786 -0.046824344 0.15333876
0.30852255 -0.054044407 0.15566058
-0.30211824 -0.03167595 0.14612488
-0.31041175 -0.014478628 0.14701223
-0.30203828 -0.0049016587 0.14607461
-0.27613622 -0.014091937 0.15991382
0.28572726 -0.0093887188 0.15388484
0.30659124 -0.018958468 0.15347256
-0.30118981 0.010229565 0.15743484
0.31064603 0.0049633607 0.15716058
-0.30850101 0.022090677 0.15093721
-0.30187866 0.021874081 0.14597405
0.28760272 0.027083885 0.14259434
-0.3022781 0.048647646 0.14622524
-0.27759853 0.048880573 0.1574042
-0.30347255 0.066289142 0.15893476
-0.27268419 0.055589799 0.16004287
0.28761229 0.055090386 0.15707912
0.31076545 0.065693736 0.15954369
-0.30250162 0.075417146 0.14636588
-0.30232602 0.10219346 0.14625537
-0.27865055 0.10935804 0.15500242
-0.3123441 0.1196475 0.15814506
-0.30216628 0.1289724 0.14615494
-0.27528855 0.12753212 0.15977392
0.28805482 0.11433867 0.15474059
-0.31455538 0.15898581 0.15175921
-0.30207053 0.15575133 0.14609471
-0.27965379 0.16810212 0.1526701
0.28222078 0.14968367 0.14256997
-0.30189461 0.18253638 0.1459842
0.28057101 0.18439303 0.14631276
0.28855175 0.17208254 0.15245973
-0.31676555 0.19866002 0.14559346
-0.30171868 0.20932463 0.1458737
-0.28031847 0.22467113 0.15043126
0.27895293 0.21861321 0.14987347
-0.30155891 0.23611489 0.14577314
0.28901631 0.22822684 0.15024264
-0.30136704 0.26291069 0.1456525
0.27736267 0.25237709 0.15329038
-0.28090039 0.27960262 0.14825891
0.28947783 0.28288665 0.14808379
-0.30114341 0.28971288 0.14551182
0.27579683 0.28571492 0.15659955
-0.30091944 0.31651917 0.14537108
0.27424866 0.31867391 0.15987116
-0.28149426 0.33312377 0.14614169
0.2899729 0.33618155 0.14597784
-0.30071142 0.34332776 0.14524037
0.27296537 0.34971899 0.16028267
-0.29999155 0.37020066 0.14478786
-0.30241308 0.39661908 0.14323758
-0.28120464 0.38378802 0.14415814
0.29023844 0.38772267 0.14394635
-0.29936746 0.4238745 0.14439543
-0.28152949 0.43419048 0.14216992
-0.29904714 0.45072114 0.14419405
0.29047948 0.43791914 0.14196821
-0.30292258 0.47378203 0.14447412
0.31467262 0.46276775 0.14401068
-0.29869518 0.47757849 0.14397264
-0.2982946 0.50445026 0.14372082
-0.29786202 0.53133476 0.14344884
-0.28380761 0.5286234 0.14230238
0.27641922 0.52415943 0.15723288
0.31239232 0.54272652 0.14667487
-0.29870287 0.5567202 0.14515157
-0.28274229 0.55696845 0.14307976
-0.29670799 0.58518261 0.14272317
-0.28150684 0.58536607 0.14398123
0.2785446 0.56971347 0.14932372
-0.26990643 0.60378003 0.1602845
0.27909496 0.60762906 0.16003713
-0.29598609 0.61215121 0.14226936
-0.27996531 0.61384827 0.14510623
0.28177896 0.61350226 0.16089863
-0.30016938 0.64249051 0.15404217
-0.2782695 0.64239198 0.14634384
0.28090414 0.64057654 0.16035806
0.30896813 0.62788802 0.14953245
-0.26931256 0.64726412 0.1583081
0.27826899 0.6506983 0.15808637
-0.27641883 0.67100179 0.14769419
0.28002885 0.66766679 0.15981725
-0.30749768 0.69134384 0.14722221
-0.27142894 0.69453543 0.15279201
0.27808726 0.69358295 0.15769668
0.2779032 0.72198296 0.15850346
0.30363852 0.72030193 0.15266606
-0.29243743 0.73073959 0.15309937
-0.27083954 0.7308473 0.15257365
0.27594036 0.73288786 0.1543849
-0.25758785 0.75748384 0.15358797
0.25670075 0.7528398 0.15951966
0.2785365 0.74875546 0.1588947
-0.27452967 0.77809566 0.15531924
-0.26591557 0.77718109 0.15522628
-0.24353983 0.7783165 0.15303099
0.25647184 0.77552587 0.14899215
0.27262807 0.773018 0.15415698
-0.22335537 0.79033124 0.15305218
-0.20025583 0.79836154 0.15333837
0.26158398 0.79439437 0.15197219
-0.24863124 0.80268914 0.14985058
-0.22297624 0.80516708 0.15608442
-0.17567886 0.80453604 0.15375163
-0.14957455 0.80887878 0.15429215
-0.12249323 0.81219798 0.1549072
-0.09469334 0.81487775 0.15557195
-0.065824129 0.816508 0.15631498
-0.036187917 0.81751919 0.15710823
-0.0051536546 0.81716985 0.15800342
0.026642943 0.81629717 0.15894416
0.059378024 0.81472063 0.15994385
0.1791586 0.8066265 0.15975615
0.20461947 0.80452979 0.15448119
0.22014405 0.81645471 0.15213495
0.23651162 0.8049193 0.14976893
0.26320124 0.80662304 0.14941709
-0.19851036 0.81805795 0.14584243
-0.17263025 0.82691985 0.1437946
-0.14424436 0.82856554 0.14494263
-0.12216562 0.82870758 0.14839207
-0.09952087 0.83043534 0.15536268
-0.069969036 0.83190334 0.15542106
-0.04679979 0.83016706 0.15214488
-0.028446512 0.83293986 0.15549052
-0.0032724692 0.83646184 0.15754722
0.0050575673 0.82869309 0.1540658
0.028038263 0.83336025 0.15435793
0.053501394 0.82977051 0.15112509
0.057679482 0.83597475 0.15584275
0.08288262 0.83216858 0.15246752
0.10375668 0.82861602 0.14815614
0.12450444 0.82697898 0.15155081
0.14331253 0.83066332 0.15366025
0.16217116 0.82696354 0.14806205
0.19576299 0.82260597 0.15254362
0.054647561 0.84567779 0.15410167
-0.098205656 -0.38907227 0.16760348
-0.076422453 -0.39713472 0.16104592
-0.049822658 -0.39747724 0.16170919
-0.023238234 -0.39758849 0.16192463
0.0039470289 -0.39219263 0.16888593
0.02992663 -0.39739156 0.16154328
0.037972637 -0.38815564 0.17492287
0.068628184 -0.39544281 0.16761421
0.1013233 -0.38714197 0.17317474
-0.21010593 -0.3688944 0.16433881
-0.18326554 -0.37027553 0.16696332
-0.1564942 -0.37141871 0.1691359
-0.12977621 -0.37236863 0.17094113
-0.10453096 -0.37250331 0.17597875
-0.071750954 -0.3763575 0.17574179
-0.04985619 -0.37384799 0.17375237
-0.027101059 -0.38006973 0.17474335
0.0033424895 -0.37389159 0.17383516
0.032660726 -0.37506095 0.17469971
0.056556199 -0.37339589 0.17289314
0.087844603 -0.37196127 0.17384085
0.10985833 -0.37205511 0.17034516
0.13126548 -0.38469341 0.17243865
0.13656637 -0.37109596 0.16852261
0.1617144 -0.37539813 0.1689972
0.18802379 -0.3760792 0.17122552
0.1901736 -0.36834317 0.16329125
0.2148315 -0.36976087 0.17075577
-0.14020386 -0.36272976 0.17833214
-0.11601035 -0.36258727 0.16132341
-0.086096369 -0.36056319 0.16392651
-0.056252744 -0.35933572 0.16550481
-0.026450915 -0.35898957 0.16595025
-0.010391505 -0.35001841 0.1654522
0.0033426031 -0.35913372 0.16576464
0.033145342 -0.35973984 0.16498512
0.059664968 -0.35846436 0.16220522
0.14485018 -0.36642244 0.17408714
0.1926689 -0.36225119 0.17033507
0.23671725 -0.35964862 0.16685714
0.26219362 -0.34760568 0.1704296
-0.26449054 -0.33991143 0.166638
-0.23723975 -0.34310538 0.17259629
-0.21023767 -0.34518623 0.17647822
-0.18010513 -0.34125635 0.17202502
-0.12332901 -0.33495912 0.17114541
-0.089629814 -0.33185101 0.17585112
-0.071089081 -0.34474736 0.16742881
-0.05745063 -0.33184612 0.17676295
-0.023905158 -0.33030403 0.17778394
0.095684864 -0.32939819 0.17262954
0.1634289 -0.34619811 0.1783659
0.19028683 -0.34464428 0.17546719
0.21729894 -0.34229478 0.17108403
0.24457817 -0.3386412 0.16426833
0.24915606 -0.3298887 0.17254607
0.28178015 -0.32980552 0.1706907
-0.29241186 -0.31067824 0.16890486
-0.26468098 -0.31594029 0.17854296
-0.23342182 -0.31794897 0.17079344
-0.20461246 -0.31416085 0.1762128
-0.17865646 -0.32285616 0.17374134
-0.14982648 -0.32680377 0.17437705
0.010649737 -0.32781991 0.17887677
0.02471382 -0.32352987 0.17863075
0.18054387 -0.31302947 0.17722028
0.21070062 -0.32009205 0.16799381
0.24478665 -0.31439605 0.17571452
-0.25498542 -0.29611841 0.17280456
-0.23575036 -0.30570766 0.17193554
-0.19766524 -0.30611959 0.17730843
0.27263716 -0.30801636 0.16402933
0.29240242 -0.30374193 0.16744518
-0.29145682 -0.28369591 0.16728249
-0.28053793 -0.27613562 0.17014512
0.27296823 -0.28301677 0.17442419
0.29082051 -0.27303994 0.16648678
-0.29218358 -0.25543386 0.17361569
0.28456551 -0.26940081 0.1699024
0.30639324 -0.2652114 0.16953187
-0.29261017 -0.24546267 0.17172441
-0.28154629 -0.23897551 0.17003885
0.29099736 -0.24621356 0.16659604
-0.29484901 -0.21854666 0.17310812
0.29093325 -0.21941006 0.16655642
0.30620313 -0.22341308 0.1705184
-0.29746285 -0.21120921 0.17549323
-0.27825326 -0.20413014 0.16997415
0.29304716 -0.20518346 0.17232212
0.30534372 -0.20334397 0.16621305
-0.29491311 -0.19182859 0.17314763
0.2959829 -0.18572469 0.17038862
-0.29456151 -0.16513804 0.17293037
-0.27912909 -0.16632231 0.17392556
0.27795136 -0.15808983 0.17553598
0.29946223 -0.1658733 0.17025024
-0.29477233 -0.14575176 0.17537847
-0.27591982 -0.14022461 0.16487481
0.2982457 -0.1445803 0.16773798
-0.27779496 -0.12937553 0.1741254
0.28247738 -0.12786445 0.16504034
0.30185804 -0.11905362 0.1687977
-0.29297808 -0.11177763 0.17195192
0.29587021 -0.1143124 0.16482562
-0.29233801 -0.085070476 0.17155623
-0.27649295 -0.092923179 0.1745614
0.29442307 -0.088188127 0.16715755
-0.27207851 -0.076393999 0.16996956
0.28479016 -0.072238334 0.16215044
0.30050874 -0.062721193 0.16979836
-0.29212987 -0.058339976 0.17142756
-0.27266887 -0.049834456 0.17566419
0.28790405 -0.058636196 0.16468434
-0.29824081 -0.029875791 0.17378107
0.29409829 -0.033163138 0.16727768
-0.29187357 -0.0048662573 0.1712693
-0.27100277 -0.0087109581 0.17125505
0.29400691 -0.0056453831 0.16730148
-0.30647904 0.0086346976 0.17095992
-0.29168171 0.021874081 0.17115054
-0.27201152 0.024587538 0.16779079
0.29377386 0.021874081 0.16737564
-0.30830237 0.044477645 0.16780001
-0.29214606 0.048611958 0.17143753
0.29429692 0.049390834 0.16724002
-0.31024855 0.081414059 0.16360779
-0.2899594 0.0806624 0.17008613
0.29465303 0.076900929 0.16717312
-0.29811183 0.098904088 0.16635501
-0.27423692 0.093314499 0.16307388
0.29442888 0.10442065 0.16722971
-0.28979966 0.12342571 0.16998738
0.28796852 0.12921877 0.16472414
-0.30108482 0.13418038 0.16395763
0.30044109 0.13467036 0.16984835
0.30940452 0.13109602 0.16214633
-0.29340407 0.1572855 0.16990237
0.2940394 0.15946992 0.16731039
-0.29166552 0.1823274 0.17114063
0.28762987 0.18290952 0.16451485
-0.2984623 0.20285082 0.16918722
-0.26868686 0.20412362 0.17863862
0.29993483 0.19109751 0.17022388
0.30811295 0.1982989 0.16481821
-0.29142526 0.20908484 0.17099214
0.27804956 0.20885372 0.17834581
0.2935167 0.21454251 0.16743465
-0.29421085 0.23497593 0.17356418
0.28724274 0.23661602 0.16427562
-0.2909607 0.26261148 0.17070508
-0.2693077 0.2594862 0.17608328
0.29316264 0.25551507 0.16743387
-0.29581788 0.27159491 0.17367259
0.27862412 0.26405236 0.17579935
0.29885402 0.27580211 0.17102528
0.30678082 0.26760623 0.16757354
-0.29067239 0.28938618 0.17052683
0.28685537 0.29033655 0.16403615
-0.29023969 0.31618047 0.17025924
-0.26957762 0.31280786 0.17363152
0.27923891 0.31788185 0.17331463
0.29253894 0.31063017 0.1676112
0.29804283 0.33231577 0.17162672
0.3054691 0.33898708 0.17040996
-0.29133695 0.3469148 0.1704229
0.2864033 0.34407815 0.16375679
-0.2891812 0.36981523 0.1696053
-0.26955655 0.36427566 0.17127289
0.27905187 0.36898336 0.17097729
0.29121569 0.36584958 0.16798881
-0.28886032 0.3966206 0.16940683
0.2710419 0.38816136 0.16958503
0.29611474 0.38899907 0.17305642
-0.26997042 0.41516137 0.16892855
0.27777246 0.40549746 0.16419047
0.30254886 0.41600809 0.17350706
-0.28950867 0.42541277 0.17163141
0.28227189 0.42222553 0.16581677
0.29547152 0.41732547 0.17353363
-0.28817028 0.45025578 0.1689804
0.27531752 0.44428137 0.16696729
0.29479387 0.44566905 0.17403601
-0.27033803 0.46469846 0.16664752
0.27958289 0.46884033 0.16638513
0.29408222 0.47403076 0.17456368
-0.28775287 0.47709385 0.16872244
0.2753956 0.4778693 0.16531906
-0.28755531 0.50719929 0.17729191
-0.28736731 0.50393426 0.16848429
0.26595712 0.50510454 0.17127146
0.2840769 0.50555921 0.162319
0.29677054 0.49826953 0.17589298
-0.27870426 0.52178782 0.16630219
0.27973285 0.51673633 0.16418529
0.29242057 0.53083611 0.1757957
-0.2997928 0.54760098 0.17604712
0.26465261 0.53491002 0.17277119
0.28364012 0.53250569 0.16204903
-0.27846101 0.55851579 0.16508049
0.26337612 0.56433594 0.17407848
0.28128546 0.56117308 0.16188842
0.29147002 0.55928415 0.17650065
-0.28559965 0.58461362 0.16739169
0.28245887 0.58648086 0.16131885
0.29353058 0.58227056 0.17878091
-0.30221605 0.59385365 0.16762625
0.26221395 0.59291035 0.17416753
-0.28476319 0.61157727 0.16687468
0.2610324 0.62139243 0.17460808
0.28829178 0.61649096 0.17885746
-0.28399083 0.63854271 0.16639735
0.25988159 0.64950782 0.1748054
-0.28307283 0.66555375 0.16583002
0.25876486 0.67724729 0.17471568
-0.28212216 0.69258881 0.16524246
-0.28108996 0.71966016 0.16460475
-0.25782162 0.71616548 0.17928381
0.26164398 0.71121174 0.17677663
-0.27482864 0.73372489 0.17859043
-0.24356151 0.73730403 0.17863813
0.25656539 0.73198134 0.17447588
-0.27496284 0.75197965 0.16412026
-0.22897217 0.75769734 0.17804225
0.25886211 0.74969923 0.17770973
-0.20788652 0.76878875 0.17814375
-0.18477751 0.77715057 0.17845401
0.24679258 0.77345854 0.17685601
0.25379473 0.77834725 0.17536387
-0.24302961 0.7819016 0.16868559
-0.22258021 0.78595787 0.17467628
-0.19810432 0.78708249 0.17757054
-0.15995899 0.78333658 0.17893341
-0.14705077 0.79624742 0.17929915
-0.13346925 0.78750277 0.1795729
0.17882465 0.78762722 0.17878617
0.20485775 0.79076374 0.17494063
0.22018416 0.78792334 0.17110214
0.22998135 0.78201371 0.16496554
-0.21669345 0.81275362 0.16468003
-0.19750331 0.80715591 0.16108793
-0.17218947 0.80860448 0.16473211
-0.14697292 0.80974585 0.16760394
-0.12183193 0.81060672 0.16976978
-0.096732616 0.81139231 0.17174594
-0.08221177 0.80875456 0.17383857
-0.07168676 0.811831 0.17284964
-0.046662014 0.8121953 0.17376627
-0.021657314 0.81231874 0.17407688
0.0033425463 0.81230026 0.1740301
0.028345481 0.81216449 0.17368861
0.053364869 0.81176305 0.17267884
0.086017929 0.81153822 0.16624926
0.10210601 0.81221926 0.17437372
0.12902714 0.8092795 0.16929893
0.15924652 0.80535716 0.16849591
0.18114001 0.80288565 0.17743997
0.23112474 0.81128538 0.16159299
-0.17543137 0.82182491 0.1630953
-0.13795957 0.82726246 0.16178441
0.13144378 0.8296715 0.1662233
0.18791339 0.81879842 0.16749638
-0.1565899 -0.34777561 0.18130878
-0.14769433 -0.36170071 0.18139544
-0.12985608 -0.34874007 0.18310785
-0.10317324 -0.34940311 0.18434468
-0.070468567 -0.35288492 0.18565926
-0.04988984 -0.35018918 0.18581116
-0.023272507 -0.35025978 0.1859429
0.0025106061 -0.35014635 0.18774062
0.029960163 -0.35010082 0.18564638
0.056588367 -0.34977409 0.18503687
0.083239228 -0.34919992 0.18396561
0.10992038 -0.34844828 0.18256357
0.13664408 -0.34747455 0.18074706
-0.19398555 -0.34626216 0.18341462
-0.18715346 -0.33641425 0.18697737
-0.10361283 -0.32931694 0.19794668
0.062327161 -0.34481862 0.19106734
0.11725957 -0.34018883 0.19018345
0.16717573 -0.33609748 0.18718256
0.21181358 -0.33258262 0.18176378
-0.2517367 -0.31120223 0.18712687
-0.23740287 -0.31923714 0.18458162
-0.21037278 -0.32142189 0.18858312
-0.18349144 -0.32290807 0.19130543
-0.1566918 -0.32404131 0.19338088
-0.14941166 -0.30974743 0.18068399
-0.12994029 -0.32502934 0.19519077
-0.099983111 -0.31975359 0.18930463
-0.076570593 -0.32620457 0.1973432
-0.049923088 -0.32650927 0.19790125
-0.031076482 -0.32248604 0.18980114
0.0033424895 -0.32655412 0.19798346
0.02997656 -0.32643759 0.19777007
0.046492569 -0.32405311 0.1800648
0.05662116 -0.32610595 0.1971626
0.083945587 -0.32161617 0.18876505
0.10998489 -0.32477799 0.19473031
0.13672839 -0.32374471 0.19283773
0.16353293 -0.32242203 0.19041499
0.19041044 -0.32082653 0.18749285
0.21745084 -0.31835979 0.18297464
-0.26489237 -0.29180589 0.19023259
-0.23756069 -0.29537314 0.19664906
-0.17339759 -0.30692989 0.18518899
-0.14372665 -0.30353019 0.18963046
-0.11418337 -0.30095908 0.19298951
-0.084723309 -0.29887852 0.1957075
-0.055339593 -0.29775658 0.19717319
-0.02599562 -0.29752135 0.19748063
-0.0050491253 -0.29186568 0.1951782
0.0033425463 -0.2975767 0.19740833
0.032687716 -0.29807508 0.19675712
0.061877474 -0.29805875 0.19319442
0.091506943 -0.30148685 0.19230005
0.12334482 -0.30623633 0.18572749
0.14520121 -0.30549365 0.18291195
0.17062245 -0.29377151 0.18496941
0.2176148 -0.29429898 0.19471698
0.2369826 -0.29687184 0.18974929
0.26232672 -0.30140656 0.18054643
-0.29270062 -0.28614825 0.18005669
-0.25524983 -0.27450532 0.18030857
-0.2171981 -0.27686068 0.1889689
-0.17164463 -0.2799302 0.19372521
-0.12117716 -0.28345117 0.19629346
-0.066024192 -0.28739491 0.19694455
0.18924381 -0.27630082 0.18939532
0.23792472 -0.27136043 0.1836551
0.27283886 -0.27342501 0.18693212
-0.29300442 -0.26148555 0.19108044
-0.26011023 -0.26741418 0.18889295
0.20758016 -0.25990024 0.19886582
0.22918981 -0.26240668 0.18806623
0.27345681 -0.25695232 0.18307233
-0.26858413 -0.24636076 0.18840845
0.26599744 -0.23563045 0.18278584
0.2796014 -0.24597056 0.19104001
-0.28304598 -0.22212906 0.195521
0.27613118 -0.2241779 0.19309707
-0.27606699 -0.20506987 0.18296541
-0.26494864 -0.20451142 0.189538
-0.27986637 -0.18416405 0.19038275
0.26339969 -0.1886376 0.19782063
0.27837649 -0.19327869 0.18731874
-0.28420502 -0.16490544 0.19789727
-0.26512069 -0.16682309 0.19375789
0.27714208 -0.16135265 0.19333376
-0.29796097 -0.13942851 0.19770756
-0.27942741 -0.143318 0.19060014
-0.2672683 -0.13794649 0.1877602
0.2620891 -0.15299779 0.19803208
0.27963373 -0.13883094 0.19105971
-0.27345172 -0.12009074 0.18490478
-0.30035815 -0.10124475 0.18802609
-0.28277871 -0.11160411 0.19703069
-0.26558793 -0.1041131 0.18729231
0.26073796 -0.1172671 0.19887607
0.27872953 -0.11208749 0.19051036
-0.29196072 -0.089988954 0.18120562
-0.2767331 -0.088354945 0.19138682
0.25950417 -0.082760721 0.19848391
0.27560121 -0.090092264 0.19126774
0.30136129 -0.094962865 0.18090051
-0.30247986 -0.064421758 0.18132789
-0.27081469 -0.063380361 0.1868602
-0.28152743 -0.058246642 0.19627069
0.27784091 -0.058526874 0.18997069
-0.2904008 -0.029014913 0.18404476
-0.27607098 -0.033252843 0.19158557
-0.26356429 -0.037982795 0.18988143
0.27576736 -0.031490572 0.18969209
0.30010444 -0.034646284 0.18370111
-0.27582029 -0.005691722 0.19164145
0.27759847 -0.0049284212 0.18982334
-0.28866589 0.034029443 0.18698376
-0.27550182 0.021874081 0.19173694
-0.26456416 0.024564762 0.18698604
0.27601135 0.026361842 0.18815392
0.29876146 0.027548175 0.18659002
-0.27591559 0.049438965 0.19154911
0.27787313 0.04867411 0.1899901
-0.27591929 0.077003852 0.1916437
-0.26638117 0.086885273 0.18407801
0.27771154 0.075477049 0.18989195
0.29820475 0.090013519 0.18946901
-0.28808829 0.0966575 0.18987091
-0.27595142 0.10456789 0.19166324
0.27696133 0.097612306 0.18675019
-0.2811904 0.12871386 0.19606596
0.27754986 0.12908582 0.18979375
-0.27045485 0.13556041 0.18712699
-0.26786509 0.14689851 0.18128498
-0.27904585 0.16106644 0.19212945
0.27749667 0.15396583 0.18539068
0.29715651 0.15526175 0.19248949
-0.28075692 0.18215714 0.1958027
0.27740458 0.18269958 0.18970549
-0.26961452 0.19245172 0.18775007
-0.274876 0.21489644 0.19185439
0.2771782 0.20951807 0.18956795
0.29158521 0.22438413 0.19646107
-0.28205809 0.23462719 0.19588488
0.27693555 0.23634186 0.18942061
-0.27432778 0.25587213 0.19190329
0.27672535 0.26316735 0.18929297
0.28883368 0.26053971 0.19397241
-0.26786393 0.27789098 0.18904814
0.26489761 0.26988944 0.19558294
-0.29396391 0.29964885 0.18121438
-0.27966458 0.28911093 0.1951392
0.27651516 0.28999668 0.18916526
0.29160246 0.29564497 0.19460073
-0.27923065 0.31587759 0.19487566
-0.26693627 0.3064259 0.1897359
0.27141649 0.31383017 0.18913153
-0.29226702 0.33238792 0.18453778
-0.26559538 0.33502191 0.19073018
-0.27847502 0.34268686 0.19441655
-0.25713637 0.34346989 0.19883025
0.27037278 0.34874234 0.18949272
-0.29090479 0.36296734 0.1845485
-0.27815336 0.36945891 0.19422121
-0.26480412 0.36358058 0.19131693
0.27497762 0.37061346 0.18823138
-0.28934518 0.39444044 0.18674941
-0.27776712 0.39624491 0.19398658
-0.26089576 0.3936384 0.19400996
0.27468625 0.39747635 0.18805426
0.26775134 0.40050313 0.19571514
-0.29053733 0.42138162 0.19203384
-0.27741334 0.42303351 0.19377172
-0.2633062 0.42073193 0.19242781
0.27434599 0.42435101 0.18784766
-0.27702677 0.44983315 0.19353692
-0.26046348 0.44738474 0.19323748
0.271092 0.45079514 0.19037037
-0.29538652 0.45993993 0.18915655
-0.28630584 0.45622817 0.19075705
-0.28072476 0.4816018 0.19293022
-0.26158273 0.47797498 0.19370574
0.27358446 0.4781312 0.1873849
-0.29754877 0.5032447 0.18290131
-0.27617356 0.50346643 0.19301856
-0.25972655 0.50044602 0.19267391
0.27079949 0.50188911 0.18884304
-0.27952754 0.52334797 0.19333203
-0.28199378 0.54586202 0.19522335
-0.25923344 0.5383141 0.19184363
0.27058586 0.53881145 0.18746029
-0.27502966 0.55718273 0.19232363
-0.25800881 0.56414235 0.19635597
0.27219006 0.55889845 0.18653803
-0.27748024 0.57939452 0.19380844
-0.25862586 0.58643627 0.1860538
0.27141109 0.58589697 0.18606485
-0.28140521 0.59768826 0.1884699
-0.25641754 0.5929867 0.19753586
0.26801214 0.5905894 0.18574871
-0.27351353 0.61101401 0.19140279
-0.25461686 0.62190342 0.19887105
0.27058318 0.61291927 0.18556191
-0.27536738 0.63467515 0.19358788
-0.25811562 0.63033545 0.18377057
0.26865414 0.63717133 0.18428434
0.28670868 0.64513868 0.18003142
-0.27430072 0.66209406 0.19335239
-0.27794492 0.68299568 0.18443236
-0.25750625 0.67306507 0.18155192
0.27343482 0.67253226 0.18242601
0.29227686 0.66568094 0.18356596
-0.27316794 0.68929589 0.19277596
0.27535981 0.69840556 0.18344624
-0.27202833 0.71652019 0.19251487
0.26689219 0.72124636 0.18331988
0.22971106 0.74071163 0.19507828
0.25077397 0.73060155 0.19516778
0.28307626 0.73099649 0.1827248
-0.25624582 0.74910861 0.18091366
-0.23077609 0.7518459 0.19707413
0.26503491 0.74859691 0.18219163
-0.24797042 0.76315379 0.18437736
-0.22223024 0.76656556 0.19260021
-0.19675909 0.76913488 0.19879226
0.15527146 0.77773869 0.18943274
0.17852464 0.76846313 0.19717331
0.20170602 0.76534706 0.19105154
0.22156858 0.77875221 0.18732843
0.22980556 0.76157689 0.18057695
-0.20000117 0.78961366 0.1852759
-0.17183609 0.78977668 0.18407834
-0.14664084 0.79117823 0.18752906
-0.12154755 0.79213184 0.18987697
-0.10125067 0.79187304 0.1862586
-0.078226447 0.79370117 0.18103662
-0.071501039 0.79362828 0.19356124
-0.047603209 0.79440898 0.18824144
-0.021593833 0.79419708 0.19496168
-0.013881735 0.79308075 0.19025934
0.0081946412 0.79449928 0.18940862
0.028282968 0.79399711 0.19446944
0.049499132 0.79336637 0.18920377
0.079087459 0.79158747 0.18909509
0.10326814 0.79196268 0.18946034
0.11979395 0.78672433 0.18996942
0.1535428 0.78938645 0.18311742
0.18692298 0.78795648 0.19876556
0.22606567 0.7817421 0.19027175
-0.16075355 0.80134368 0.18859008
-0.12259457 0.80774403 0.18701935
-0.086683072 0.81210822 0.18562801
-0.052508831 0.81493998 0.18437321
-0.019957868 0.81629723 0.18324833
0.011662235 0.81695348 0.18219
0.042422079 0.81695718 0.18119407
0.072574727 0.81251574 0.1887058
-0.13172038 0.81866986 0.18287978
-0.01501664 0.82707453 0.18030532
0.030384133 -0.33000273 0.2048018
0.063594893 -0.33104211 0.20367201
0.09555722 -0.33070564 0.20265484
0.12624232 -0.3288717 0.20175746
-0.11771438 -0.30971676 0.21065935
-0.077428356 -0.31839088 0.20890069
-0.039671201 -0.32424623 0.20737164
-0.033276357 -0.32354194 0.20305273
-0.0039759353 -0.32780397 0.20602933
0.030363524 -0.31842053 0.20553565
0.087949358 -0.31389374 0.20557174
0.14019032 -0.3098942 0.20339803
0.15548427 -0.32519746 0.20100327
0.18376563 -0.32034984 0.20034148
0.21112093 -0.31431845 0.19977181
-0.21051984 -0.29753575 0.20053862
-0.18362091 -0.29903525 0.20323578
-0.15920238 -0.2985653 0.20905252
-0.14664552 -0.30269012 0.20829354
-0.13002814 -0.30124307 0.20720676
-0.10330897 -0.30195352 0.20848478
-0.073303811 -0.29965392 0.21270311
-0.049956165 -0.30280879 0.210023
-0.023305699 -0.30287245 0.21013756
0.0033424895 -0.30284521 0.21008848
0.029993242 -0.30272698 0.20987578
0.056655206 -0.3023721 0.20923756
0.083340742 -0.30175313 0.20812428
0.11005531 -0.30098796 0.20674798
0.13682006 -0.29989359 0.20477958
0.16364475 -0.29853266 0.2023318
0.18806164 -0.30632502 0.19943373
0.19054224 -0.29690403 0.19940247
0.23640825 -0.30515689 0.19943294
0.25878486 -0.29128453 0.19943534
-0.23772676 -0.27142209 0.20863372
-0.2126365 -0.27550462 0.21552505
-0.20286737 -0.27482197 0.21445303
-0.1837526 -0.27511075 0.21514995
-0.15690924 -0.2763429 0.21732661
-0.11411506 -0.27096236 0.20496741
-0.08304783 -0.27273878 0.20588022
-0.050432593 -0.27258804 0.20694408
0.13691251 -0.27600026 0.21672131
0.16290203 -0.27737007 0.2151463
0.19899774 -0.27503476 0.2110638
0.24418761 -0.27485853 0.20108984
0.27825731 -0.27246016 0.199791
-0.26511127 -0.26758656 0.2018581
-0.22984436 -0.25766802 0.20182884
-0.20063519 -0.25506657 0.20599054
-0.1733036 -0.26394513 0.20341872
-0.14380871 -0.26078478 0.20666946
-0.09149836 -0.2570278 0.21136487
-0.033594612 -0.26083234 0.21104889
-0.016137313 -0.27041569 0.20816819
0.024617376 -0.26621631 0.20896055
0.056366716 -0.26204664 0.2109541
0.099498473 -0.26174387 0.20739716
0.17791611 -0.25352591 0.20732653
0.21776369 -0.27032265 0.20669162
0.24516264 -0.26607937 0.19919568
-0.29348427 -0.23573868 0.20033355
-0.25797462 -0.23993084 0.20778325
-0.2345552 -0.24814707 0.19933027
-0.22744669 -0.2499866 0.20239699
-0.19179021 -0.25069606 0.20554179
-0.17079069 -0.2477629 0.21497563
0.14555089 -0.24421889 0.21310541
0.21794559 -0.24604808 0.21822308
0.24539469 -0.24155088 0.21041925
0.25711167 -0.24672431 0.20880476
0.29310256 -0.24542831 0.2007264
-0.27076536 -0.21826732 0.20265615
-0.24894175 -0.21998428 0.20791842
-0.21085678 -0.221908 0.21672586
0.18919416 -0.22092427 0.21740884
0.20391889 -0.21659668 0.21527663
0.23462626 -0.21440043 0.21141616
0.26607135 -0.21914162 0.21415339
-0.29414469 -0.20883714 0.20779032
-0.25643018 -0.21076319 0.21632141
0.2950823 -0.19519448 0.20329386
-0.29584339 -0.17554776 0.20478083
-0.28377256 -0.18151134 0.20922071
-0.26141161 -0.19221684 0.21536231
0.27624795 -0.1869853 0.21618031
0.27000576 -0.16533569 0.21650206
0.27675632 -0.1438694 0.21680562
-0.2826665 -0.12977259 0.20690668
