ply
format ascii 1.0
comment PCL generated
element vertex 1323
property float x
property float y
property float z
element camera 0
property float view_px
property float view_py
property float view_pz
property float x_axisx
property float x_axisy
property float x_axisz
property float y_axisx
property float y_axisy
property float y_axisz
property float z_axisx
property float z_axisy
property float z_axisz
property float focal
property float scalex
property float scaley
property float centerx
property float centery
property int viewportx
property int viewporty
property float k1
property float k2
end_header
0.95422512 -0.10431916 -0.10190018
0.95930403 -0.10346673 -0.10610515
-0.8869682 -0.084908821 -0.09726344
-0.87481558 -0.082301326 -0.098801076
-0.7891922 -0.072623603 -0.10404852
0.38093591 -0.076837517 -0.094455138
0.77031672 -0.071473889 -0.10578671
0.95952183 -0.081319615 -0.10621603
-0.89529324 -0.060751393 -0.089718744
-0.87948799 -0.05909162 -0.10254954
0.40039361 -0.065970823 -0.091458827
0.95270115 -0.060637891 -0.10496904
-0.88408732 -0.035974167 -0.10623939
0.40324345 -0.039432533 -0.093343601
0.96012741 -0.036716081 -0.098137334
0.97426176 -0.035710454 -0.089111224
0.40608722 -0.012946816 -0.095224738
0.96751744 -0.012946816 -0.09133938
0.97951591 -0.012946816 -0.093458652
0.40608722 0.013512662 -0.095224738
0.96751744 0.010746541 -0.09133938
0.97951591 0.0097648222 -0.093458652
-0.88408732 0.033107884 -0.10623939
0.40324345 0.040024616 -0.093343601
0.96013856 0.034591474 -0.098127186
0.97426176 0.032580458 -0.089111224
-0.8953048 0.058759697 -0.089708373
-0.87948799 0.056270391 -0.10254954
-0.79219651 0.054422684 -0.092417836
0.77268374 0.052107625 -0.095917836
0.9527123 0.058589451 -0.10495855
-0.87481558 0.079525858 -0.098801076
0.40280867 0.066109873 -0.092952728
0.9595325 0.078216501 -0.10622481
-0.88697958 0.083002068 -0.097253293
0.39755347 0.093206003 -0.089580491
0.94609296 0.095951274 -0.10400932
-0.87435412 0.10514597 -0.099949762
-0.85622025 0.11995253 -0.096730128
-0.42914912 0.11710408 -0.10531272
0.39469245 0.11987616 -0.087688014
-0.86541492 0.12631468 -0.091259107
-0.78495955 0.12420307 -0.088147253
0.92712015 0.13333175 -0.10493086
0.94282562 0.12738098 -0.092673421
-0.86054099 0.14985912 -0.087348849
-0.77408224 0.15449408 -0.098927587
-0.42555574 0.14331412 -0.10289584
0.74915791 0.15413114 -0.095831066
0.92927879 0.15475045 -0.094550326
0.94355828 0.14768994 -0.093208939
-0.8470279 0.16334398 -0.10477316
-0.42196783 0.16959043 -0.10048306
0.91649228 0.17523327 -0.10377397
0.93818808 0.17106104 -0.088833287
-0.84398079 0.19675511 -0.10371111
-0.7682699 0.19193216 -0.095976338
-0.41837078 0.19593394 -0.098063797
0.73899609 0.18935433 -0.091154382
0.92176253 0.17932148 -0.10136208
-0.8585881 0.20438138 -0.090937331
-0.8369422 0.2053057 -0.10360338
0.90395975 0.21071163 -0.10286595
-0.83194739 0.22122797 -0.094206199
-0.8162415 0.22667889 -0.10413533
0.72977573 0.22281495 -0.10586916
0.88679618 0.22693679 -0.10040265
0.91793543 0.21786234 -0.10185239
-0.79704773 0.24199414 -0.099806786
-0.78026068 0.25054976 -0.096271962
0.60374993 0.24532112 -0.10132065
0.84288293 0.25226709 -0.10274121
0.86966187 0.24555236 -0.099081874
0.88019288 0.24368832 -0.10125901
-0.75902939 0.27006367 -0.10075927
-0.69495207 0.26236162 -0.10172206
-0.59964699 0.27386516 -0.10616039
-0.57613021 0.26343688 -0.10024863
-0.5463478 0.26346448 -0.10021065
-0.48805663 0.26928592 -0.092233226
-0.45819709 0.26931372 -0.092195258
0.43158036 0.26859173 -0.098986506
0.46765289 0.26934144 -0.09215717
0.52737337 0.26928604 -0.092233106
0.55724216 0.26929992 -0.092214182
0.67636782 0.26812205 -0.093828216
0.82256955 0.26614395 -0.10269794
0.84563947 0.26335356 -0.1013996
-0.737432 0.28150862 -0.10312197
-0.71542394 0.29159367 -0.10323712
-0.6889289 0.291632 -0.10377201
-0.66219455 0.29165593 -0.10431221
-0.65068072 0.28249788 -0.10174322
-0.38682702 0.28730085 -0.10250679
-0.37162024 0.29280338 -0.096955657
-0.33471701 0.2927523 -0.09635964
-0.29817718 0.29271889 -0.095768988
-0.26200897 0.29268569 -0.095184326
-0.22621989 0.29263598 -0.094606325
-0.19077802 0.29260361 -0.09403336
-0.16230442 0.29237351 -0.090525717
-0.13741754 0.29221991 -0.088094071
-0.12096633 0.29252332 -0.092905298
-0.10560554 0.29224852 -0.088608161
-0.086573705 0.29249185 -0.09234938
-0.073497638 0.29229391 -0.089126796
-0.046794545 0.29239208 -0.090724945
-0.013574164 0.29239157 -0.090717107
0.014575973 0.29238331 -0.090714887
0.024729345 0.29239962 -0.090714097
0.047640651 0.2923533 -0.090180337
0.058107022 0.29244646 -0.091253147
0.086099975 0.29239219 -0.0907249
0.11934111 0.29239312 -0.090738058
0.14491189 0.29223269 -0.088608846
0.16025865 0.29255649 -0.092903987
0.17672411 0.29220393 -0.088094652
0.19499539 0.2925882 -0.093465403
0.20823416 0.29217544 -0.087585241
0.23008184 0.29262048 -0.094032615
0.2655105 0.29266986 -0.094604909
0.30129901 0.2927199 -0.095182896
0.3374801 0.29273599 -0.095768139
0.35031849 0.28074971 -0.089139953
0.60347533 0.29061079 -0.10012989
0.61987293 0.29171386 -0.10596244
0.64732462 0.29168946 -0.10540771
0.67746413 0.29236859 -0.10308434
0.70149797 0.29162651 -0.10431358
0.72055888 0.2931239 -0.10195942
0.72823256 0.29160279 -0.10377333
0.7547344 0.29157943 -0.10323787
0.78100622 0.29155594 -0.10270697
0.80515343 0.28230715 -0.10418156
-0.72181857 0.29317966 -0.10261495
-0.64439702 0.31162664 -0.10401854
-0.58812451 0.30786872 -0.10006604
-0.55596191 0.29919243 -0.10299459
-0.5190658 0.29769415 -0.099214494
-0.47564378 0.30351627 -0.098359078
-0.43634081 0.30509403 -0.097681418
-0.40345618 0.29944125 -0.097297102
0.35925961 0.31116748 -0.095637858
0.4358916 0.30775732 -0.096967846
0.48093519 0.29881272 -0.09793143
0.51802003 0.29992995 -0.098502412
0.57420665 0.31182757 -0.10622789
0.6009798 0.30978778 -0.10575293
0.62390637 0.3118279 -0.099904746
0.76115209 0.2931613 -0.10261558
0.80248612 0.29509765 -0.10188386
-0.66291463 0.31304762 -0.10114089
-0.6367389 0.31680265 -0.098183513
-0.60897148 0.31791884 -0.10026585
-0.58169961 0.31775147 -0.099953413
-0.44471669 0.31887573 -0.10205092
-0.39068314 0.31642085 -0.097471207
0.37601349 0.31298697 -0.091065273
0.39580512 0.31782579 -0.10605411
0.40228558 0.31799313 -0.10040438
0.42973635 0.31750038 -0.099485114
0.56594843 0.31897786 -0.10224144
0.62425238 0.31421205 -0.093961328
-0.66521817 -0.324258 -0.079388708
-0.63824123 -0.32395938 -0.075432748
-0.472913 -0.32671559 -0.082437515
-0.41365123 -0.32350409 -0.083481014
0.36479431 -0.32392609 -0.084897384
0.55789375 -0.32415184 -0.069598392
0.59950203 -0.32102233 -0.070164934
0.62251276 -0.32312551 -0.080746353
-0.73623252 -0.30457157 -0.078754783
-0.70290601 -0.30377275 -0.075675398
-0.68318498 -0.30452013 -0.079614878
-0.66417331 -0.30753896 -0.085995138
-0.57865953 -0.31364262 -0.081068128
-0.54709631 -0.3058182 -0.08178398
-0.52932835 -0.30373818 -0.076858342
-0.50570911 -0.3006646 -0.07818909
-0.49426052 -0.31379598 -0.07592459
-0.43213809 -0.30365273 -0.083701715
-0.37391955 -0.30421296 -0.084629416
-0.34423676 -0.30417657 -0.085110947
-0.3142682 -0.30412391 -0.085597381
-0.28401878 -0.30407077 -0.086088538
-0.25350314 -0.30404875 -0.086583018
-0.2226899 -0.30401066 -0.087082848
0.26200649 -0.30401078 -0.087082952
0.2928198 -0.30404899 -0.086583123
0.32335359 -0.30410245 -0.086087465
0.4520238 -0.31170288 -0.076230958
0.47250929 -0.30565709 -0.083632216
0.4898842 -0.30890197 -0.07804589
0.50138432 -0.30571717 -0.083163172
0.53436351 -0.31439209 -0.082401991
0.64114958 -0.30441901 -0.080934614
0.65484118 -0.30307132 -0.071189508
0.66850048 -0.30443814 -0.080491275
0.69522828 -0.303749 -0.075863943
0.72248864 -0.3044906 -0.079615906
0.73530078 -0.30299199 -0.072167948
0.74912536 -0.30450907 -0.079184324
0.77586639 -0.30374232 -0.075710684
0.80171889 -0.304575 -0.078331247
-0.77955723 -0.28293848 -0.078620061
-0.7624504 -0.2911858 -0.077467725
-0.72817189 -0.29776597 -0.072879955
-0.69987762 -0.29919717 -0.075501397
-0.67220694 -0.29918751 -0.075483724
-0.62828344 -0.28878033 -0.071625248
-0.59214842 -0.28539225 -0.076411605
-0.47597781 -0.28381476 -0.069873601
-0.34010357 -0.29922616 -0.075554535
-0.31242782 -0.29923588 -0.075572327
-0.28475568 -0.29922616 -0.075554535
-0.25708473 -0.29920679 -0.07551907
-0.22941044 -0.29920685 -0.075519189
-0.2017362 -0.29920679 -0.07551907
-0.17406194 -0.29920679 -0.07551907
-0.14638758 -0.29920679 -0.07551907
-0.11871332 -0.29920679 -0.07551907
-0.091038957 -0.29920685 -0.075519189
-0.063364178 -0.29921642 -0.075536743
-0.035690378 -0.29920679 -0.07551907
-0.0080159009 -0.29921648 -0.075536743
0.019658294 -0.29921642 -0.075536743
0.047332548 -0.29920673 -0.075518966
0.075006977 -0.29920685 -0.075519189
0.10268122 -0.29920679 -0.07551907
0.13035542 -0.29920691 -0.075519308
0.15802966 -0.29920685 -0.075519189
0.18570392 -0.29920679 -0.07551907
0.21337947 -0.29919717 -0.075501397
0.24105385 -0.29919717 -0.075501397
0.26872844 -0.29919717 -0.075501397
0.29640275 -0.29919717 -0.075501397
0.32407731 -0.29919717 -0.075501397
0.38093236 -0.29946256 -0.085276917
0.4378469 -0.2856704 -0.068896681
0.54793996 -0.28489915 -0.082954794
0.60168892 -0.29662311 -0.070786804
0.65615642 -0.29923576 -0.075572208
0.68383044 -0.29923588 -0.075572327
0.7115041 -0.29923588 -0.075572327
0.739178 -0.29923576 -0.075572208
0.76685178 -0.29923576 -0.075572088
0.79452574 -0.29923576 -0.075572208
0.82378465 -0.29502892 -0.078224003
0.84407794 -0.28116697 -0.078258544
-0.79957741 -0.26812512 -0.078683972
-0.7719788 -0.26534986 -0.073830262
-0.76525927 -0.27633828 -0.071843013
-0.69493032 -0.26285854 -0.086163327
-0.57610166 -0.26388112 -0.084739268
-0.5463239 -0.26392192 -0.08468236
-0.48803213 -0.2696647 -0.076684862
-0.45081654 -0.27334988 -0.073120162
0.43669021 -0.263881 -0.084739491
0.46763384 -0.26973334 -0.076589093
0.5273518 -0.26967838 -0.076665714
0.55721617 -0.26967838 -0.076665714
0.60282391 -0.26963151 -0.07921508
0.67634404 -0.26854131 -0.078249291
0.84431738 -0.27342761 -0.072921813
0.86440301 -0.26733962 -0.078291729
-0.81962943 -0.2533071 -0.078747496
-0.80162692 -0.25383613 -0.073510468
0.38130558 -0.24572842 -0.086678401
0.57296348 -0.26142502 -0.071013451
0.86632538 -0.25140858 -0.07477206
0.88388664 -0.25035426 -0.076082289
-0.85985118 -0.22371939 -0.078871429
-0.8382141 -0.23128147 -0.074916542
-0.72470057 -0.23751746 -0.070528761
0.90996152 -0.23634399 -0.074569657
0.92549944 -0.22590604 -0.07838802
0.92079574 -0.21288136 -0.072662741
-0.87215525 -0.18731537 -0.07962577
-0.85053015 -0.19979522 -0.07931748
-0.42367524 -0.1962667 -0.070094377
0.38610625 -0.19945344 -0.082009152
0.93277127 -0.19738135 -0.084419593
0.9397245 -0.19471298 -0.078974739
-0.86643541 -0.18142167 -0.083931282
-0.85553479 -0.17609601 -0.083332539
-0.42651799 -0.16991925 -0.072038338
0.38898447 -0.17265034 -0.0839127
-0.87426579 -0.15687642 -0.076940507
0.95054251 -0.15282537 -0.079896748
-0.88270569 -0.14487235 -0.080566704
-0.8820442 -0.13249294 -0.069995925
-0.85895103 -0.13702109 -0.073754311
-0.77200943 -0.13763529 -0.076921463
-0.42931059 -0.14362711 -0.073947638
0.39184126 -0.14590131 -0.085802317
0.95298183 -0.12781806 -0.071502656
-0.43205336 -0.11738885 -0.075823069
0.75249094 -0.11444088 -0.084698677
0.9615764 -0.11017528 -0.080835178
-0.89345908 -0.10161325 -0.081525773
-0.87630975 -0.1058393 -0.070449963
-0.77858961 -0.10167414 -0.070154876
-0.43480536 -0.091201432 -0.077704713
0.94416785 -0.10816539 -0.081056938
0.95833319 -0.10463195 -0.075930938
-0.88124335 -0.082470462 -0.07446982
-0.79243755 -0.081648082 -0.084639609
0.75927317 -0.080724604 -0.081454143
0.9516198 -0.084132351 -0.074303567
0.96367073 -0.081552185 -0.080347463
-0.90442115 -0.057514243 -0.082503363
-0.88614523 -0.059199385 -0.078464001
-0.79218704 -0.055627808 -0.07721132
-0.43753728 -0.06506566 -0.079572499
0.7726751 -0.053340234 -0.080728427
0.97091609 -0.062701188 -0.083261624
-0.90305406 -0.036769822 -0.082685664
-0.89103782 -0.036024928 -0.082450315
-0.79994291 -0.047360845 -0.081118733
-0.44026384 -0.038980842 -0.081436872
0.76610601 -0.046893686 -0.078185499
-0.91077411 -0.012946816 -0.075689092
-0.89589918 -0.012946816 -0.086411506
-0.80750483 -0.012946816 -0.077571869
-0.44299978 -0.012946816 -0.083307445
0.77296144 -0.012946816 -0.074905738
0.98435366 -0.022621511 -0.082759857
-0.91562057 -0.01261831 -0.083498001
-0.89374447 0.00010233931 -0.083501771
-0.91077411 0.010797318 -0.075689092
-0.89589918 0.010083431 -0.086411506
-0.80750483 0.021531088 -0.077571869
-0.44299978 0.013061721 -0.083307445
0.77296144 0.021058219 -0.074905738
0.96263605 0.010009758 -0.082763627
-0.90306497 0.034698971 -0.082675517
-0.89103782 0.033209406 -0.082450315
-0.793872 0.03399758 -0.070656359
-0.44026384 0.039121233 -0.081436872
0.77505714 0.033937141 -0.070749283
-0.88445365 0.050642706 -0.080490306
-0.7999714 0.055881724 -0.08110556
0.76610601 0.054946922 -0.078185499
0.95134264 0.054070689 -0.08179225
0.96898383 0.055500813 -0.084743828
-0.88124335 0.07975138 -0.07446982
-0.43753728 0.065231457 -0.079572499
0.95163089 0.081966788 -0.074293301
0.96368146 0.078526594 -0.0803563
-0.87200242 0.088843457 -0.081529304
-0.79246581 0.090105802 -0.084626317
-0.43480536 0.091392674 -0.077704713
0.75930053 0.088720568 -0.08144109
0.9402678 0.097315535 -0.080838829
0.95834392 0.10165907 -0.075939819
-0.87632078 0.10316825 -0.070458978
-0.43206805 0.11760505 -0.075833037
0.94417912 0.10607583 -0.08104679
-0.88205564 0.13050784 -0.069985658
-0.86145306 0.13197908 -0.080570236
-0.77301085 0.13041762 -0.08390449
0.75371075 0.12833478 -0.081469074
0.92943364 0.1398451 -0.07990022
0.9529925 0.12489803 -0.071511552
-0.87428844 0.15496944 -0.076919988
-0.77104449 0.14199863 -0.07038179
-0.42932552 0.1438687 -0.073957726
0.39184126 0.14659858 -0.085802317
-0.85332996 0.17390426 -0.081489936
-0.42651799 0.1701877 -0.072038338
0.38898447 0.17337395 -0.0839127
-0.86645871 0.179594 -0.083910763
-0.85054141 0.19725664 -0.079326481
-0.42369005 0.19656052 -0.070104703
0.92579418 0.18806995 -0.081703618
-0.83899891 0.21071322 -0.078871429
-0.75340807 0.20854264 -0.074890003
-0.6334728 0.20512177 -0.079731852
-0.51473439 0.20517537 -0.079656139
0.38612199 0.20020248 -0.082019418
0.49467403 0.20517537 -0.079656139
0.61342084 0.20514846 -0.079693988
0.90474433 0.21282122 -0.078388482
0.92073458 0.20229352 -0.07055521
-0.83761257 0.2256217 -0.07293275
-0.818874 0.22547083 -0.078810722
0.35870355 0.23358725 -0.086683929
0.88437414 0.22664255 -0.078356162
0.92102355 0.21875301 -0.074847698
-0.80013824 0.24409068 -0.074443951
-0.72472298 0.2370194 -0.086087376
0.59864885 0.25121006 -0.071017265
0.70601922 0.24207255 -0.079050094
0.84367406 0.25425717 -0.078291729
0.86401731 0.24045441 -0.078323945
0.887869 0.24353477 -0.074354544
-0.79999638 0.25617084 -0.07531096
-0.77876502 0.25509423 -0.078683972
-0.75712836 0.27128482 -0.076494515
-0.57145548 0.27269036 -0.081579134
-0.50116831 0.27359915 -0.069871485
-0.46873912 0.26653609 -0.069616526
-0.36766914 0.27381545 -0.076439023
0.52624267 0.27247566 -0.08295314
0.82626367 0.26903328 -0.075602219
0.84734201 0.27190262 -0.073629335
-0.76545697 0.27889821 -0.074073344
-0.7387718 0.28467053 -0.078556836
-0.715424 0.29159379 -0.078753412
-0.6889289 0.291632 -0.079181239
-0.66221434 0.28328946 -0.076489508
-0.61702597 0.27549618 -0.071240872
-0.44965103 0.27754435 -0.083268911
-0.41017619 0.29112777 -0.08370696
-0.35186863 0.29200998 -0.084627762
-0.32208395 0.29203701 -0.085109234
-0.2920126 0.29204863 -0.085595727
-0.26166856 0.29207578 -0.086086214
-0.23103917 0.29210338 -0.086581364
-0.20012991 0.29214716 -0.087080628
0.23943692 0.29213142 -0.087081254
0.27035576 0.2921035 -0.086581528
0.30099446 0.29209176 -0.086085752
0.35862961 0.28714204 -0.085282385
0.4336853 0.27783266 -0.083797187
0.4627924 0.27524716 -0.068895772
0.61988002 0.29172879 -0.080933124
0.64733171 0.2917043 -0.080489337
0.65143287 0.28609937 -0.069192722
0.67746753 0.29237601 -0.07561852
0.70149797 0.29162651 -0.079614416
0.72055912 0.29312378 -0.071674228
0.72823256 0.29160279 -0.079182386
0.7547344 0.29157943 -0.078753933
0.78100008 0.29154146 -0.078329697
0.80307001 0.28193757 -0.078224003
-0.73075455 0.29747579 -0.082431287
-0.72181857 0.29317966 -0.072165847
-0.70189255 0.29747579 -0.082431287
-0.66417331 0.30619469 -0.085995138
-0.64427608 0.31136349 -0.079387292
-0.55846405 0.29997534 -0.077036545
-0.52639216 0.29783213 -0.077239469
-0.51708168 0.29998469 -0.069546282
-0.49754283 0.293423 -0.08223255
-0.47556666 0.30474815 -0.078970402
-0.39186022 0.31117979 -0.083478391
-0.35554376 0.29749563 -0.082392052
-0.32668412 0.29748571 -0.082411557
-0.29782593 0.29746592 -0.082450777
-0.26896375 0.2974658 -0.082450777
-0.2401031 0.29745594 -0.082470283
-0.21124063 0.29745582 -0.082470387
-0.1823795 0.29744592 -0.082490116
-0.15351699 0.29744592 -0.082490116
-0.12465449 0.29744592 -0.082490116
-0.095792383 0.297436 -0.082509622
-0.066929862 0.297436 -0.082509726
-0.038067121 0.297436 -0.082509622
-0.0092045553 0.29742607 -0.082529232
0.019658294 0.29742596 -0.082529455
0.048521202 0.29742607 -0.082529232
0.077384114 0.29742607 -0.082529336
0.1062469 0.29742607 -0.082529232
0.13510987 0.29742607 -0.082529336
0.16397271 0.29742607 -0.082529232
0.19283459 0.29743609 -0.082509503
0.22169721 0.297436 -0.082509622
0.25056008 0.297436 -0.082509622
0.27942118 0.29744601 -0.082489997
0.30828208 0.29745594 -0.082470283
0.34270501 0.31178892 -0.084894642
0.42605817 0.30180451 -0.083806843
0.45102769 0.29776227 -0.078368545
0.46060225 0.30394375 -0.074195236
0.48224843 0.29945767 -0.074290246
0.51283854 0.302001 -0.082396805
0.5160414 0.3029083 -0.07160911
0.54285336 0.30532244 -0.076767072
0.60127634 0.31039551 -0.080745324
0.62527001 0.3041454 -0.076355547
0.65464175 0.29742619 -0.082529113
0.6835047 0.29742607 -0.082529232
0.71236342 0.297436 -0.082509726
0.7412262 0.297436 -0.082509622
0.76115209 0.2931613 -0.072166234
0.77008456 0.29744601 -0.082489997
0.80218744 0.29319915 -0.072663739
-0.66337401 0.31254819 -0.071075767
-0.61772257 0.3123987 -0.079790026
-0.45133409 0.3142384 -0.082435399
0.58300596 0.31388605 -0.069596171
-0.66468215 -0.3230685 -0.054775979
-0.61816156 -0.31924325 -0.05443183
-0.58434176 -0.32552028 -0.055703226
-0.5000304 -0.32422459 -0.05675232
-0.42386839 -0.31991273 -0.055680748
-0.41297048 -0.32223418 -0.057848502
0.3354094 -0.32125127 -0.066954032
0.37156096 -0.32224253 -0.060158398
0.42555612 -0.32677865 -0.058083903
0.56852001 -0.32628515 -0.05635779
0.62233478 -0.32275346 -0.055773865
-0.76084149 -0.30081341 -0.054045763
-0.73623246 -0.30457145 -0.054270674
-0.70982164 -0.30453873 -0.054591995
-0.6831851 -0.30452025 -0.054915827
-0.66708255 -0.31634462 -0.061665241
-0.64700043 -0.31640595 -0.049138781
-0.56012452 -0.30909148 -0.058469575
-0.5516426 -0.31513852 -0.056304257
-0.52461195 -0.30793017 -0.057116907
-0.47998455 -0.31760532 -0.051376183
-0.43978837 -0.31819108 -0.05760226
-0.39643499 -0.3187359 -0.053485308
-0.37511799 -0.30857328 -0.063384056
-0.34697792 -0.30336323 -0.067923307
-0.34423664 -0.30417648 -0.059037838
-0.3122319 -0.30377385 -0.063439041
-0.27891096 -0.30376887 -0.063401729
-0.2535032 -0.30404887 -0.060141888
-0.23774007 -0.30347943 -0.066594794
-0.2226899 -0.30401066 -0.060516689
-0.20206001 -0.30352288 -0.066160768
-0.19159375 -0.30398834 -0.060894679
-0.16346519 -0.30375782 -0.063503951
-0.1301412 -0.30375937 -0.063484102
-0.096827596 -0.30376092 -0.063468263
-0.063536033 -0.30377018 -0.063456088
-0.030257072 -0.30376256 -0.063448414
0.0030206032 -0.30376294 -0.06344445
0.034666982 -0.30375901 -0.063646227
0.03790256 -0.303767 -0.06324251
0.069562532 -0.30376267 -0.063448384
0.10284731 -0.30376199 -0.063456222
0.13613819 -0.30376923 -0.063468009
0.16781463 -0.30392686 -0.061662126
0.17107643 -0.30362573 -0.065305173
0.20277558 -0.30376631 -0.063503638
0.23613063 -0.30377275 -0.063527212
0.26200649 -0.30401078 -0.060516749
0.27703035 -0.30351365 -0.066593826
0.29281968 -0.30404875 -0.060141999
0.3130883 -0.3034524 -0.067032605
0.32334453 -0.30408663 -0.059770625
0.38186496 -0.3011401 -0.059117939
0.45006087 -0.30963269 -0.057969104
0.46830082 -0.31104109 -0.053551596
0.48009008 -0.3039028 -0.057412218
0.50138426 -0.30571705 -0.057576951
0.53619218 -0.31800008 -0.056913037
0.60219204 -0.3187263 -0.053467285
0.64115673 -0.30443415 -0.055905227
0.66850734 -0.30445299 -0.05557267
0.69561702 -0.30447212 -0.055243138
0.72249526 -0.30450556 -0.054916229
0.7491318 -0.30452392 -0.054592397
0.77553672 -0.30454227 -0.054271471
0.80171889 -0.304575 -0.053952944
-0.78082162 -0.28605148 -0.054093193
-0.73079401 -0.2987271 -0.067433208
-0.70193052 -0.2987271 -0.067433327
-0.59286225 -0.28529516 -0.056390006
-0.37060148 -0.28665206 -0.052523617
-0.35556561 -0.29873735 -0.067413598
-0.32670423 -0.2987271 -0.067433208
-0.29784268 -0.29871717 -0.067452699
-0.26898235 -0.29869688 -0.067491695
-0.24012116 -0.2986767 -0.06753093
-0.21125677 -0.2986767 -0.06753093
-0.18239239 -0.2986767 -0.06753093
-0.15352817 -0.29867682 -0.067530692
-0.12466379 -0.29867682 -0.067530692
-0.095799223 -0.29867682 -0.067530692
-0.066934824 -0.29867682 -0.067530692
-0.038070429 -0.29867682 -0.067530692
-0.009206038 -0.29867682 -0.067530692
0.019658351 -0.29867682 -0.067530692
0.048522741 -0.2986767 -0.067530811
0.077387132 -0.2986767 -0.067530811
0.10625164 -0.2986767 -0.067530811
0.13511534 -0.29868677 -0.067511424
0.1639795 -0.29868689 -0.067511201
0.19284377 -0.29868677 -0.06751132
0.22170794 -0.29868677 -0.06751132
0.2505722 -0.29868677 -0.067511424
0.27943644 -0.29868689 -0.067511201
0.30829895 -0.29869699 -0.067491591
0.3530795 -0.29229996 -0.062868327
0.62581432 -0.29866666 -0.067550421
0.65304828 -0.29250634 -0.060502071
0.68353957 -0.2986767 -0.06753093
0.71240395 -0.2986767 -0.067530811
0.74126399 -0.29868689 -0.067511082
0.77012837 -0.29868689 -0.067511201
0.81782883 -0.28318965 -0.06513913
0.82458133 -0.2969906 -0.053824376
0.84489083 -0.28321204 -0.053848494
-0.79452389 -0.27311707 -0.052519012
-0.67029011 -0.27981269 -0.062552363
-0.43953022 -0.26208067 -0.058707733
0.82927096 -0.27107126 -0.058155891
0.86521369 -0.26942432 -0.053872611
-0.82091731 -0.25661907 -0.05418453
-0.79306948 -0.25349894 -0.050198417
-0.62223214 -0.26088038 -0.063474938
0.85918969 -0.25576225 -0.061397281
0.8855499 -0.25562739 -0.053896729
-0.86111319 -0.22711313 -0.054276202
-0.84100276 -0.2418754 -0.054230366
-0.82074654 -0.23040213 -0.066244155
0.70599437 -0.24250014 -0.063476309
0.90275228 -0.23540138 -0.055830989
0.92626834 -0.22802167 -0.053944621
-0.86869591 -0.20428358 -0.050341975
-0.75340366 -0.20913044 -0.05927721
-0.63344544 -0.20566875 -0.064257383
-0.51470876 -0.20570843 -0.064200372
0.494654 -0.20572166 -0.064181328
0.61339229 -0.20568198 -0.064238563
0.73537689 -0.21569863 -0.049827378
0.91077209 -0.20458528 -0.057102751
-0.87565923 -0.19695517 -0.054691996
-0.85640097 -0.20029996 -0.054228175
0.38966179 -0.20013168 -0.052315179
0.93939257 -0.1995503 -0.056197893
-0.8614068 -0.17653582 -0.058307085
-0.76497203 -0.18430094 -0.059919063
0.39192361 -0.1732652 -0.053836334
0.7308768 -0.18194045 -0.057787362
0.92818326 -0.17982613 -0.06390515
0.94221497 -0.17451246 -0.062593862
-0.886204 -0.15472184 -0.055393595
-0.8663916 -0.15287147 -0.062368553
-0.77240926 -0.15028253 -0.056360964
0.94536233 -0.15535268 -0.05974729
-0.87136674 -0.12930578 -0.066422373
0.39408824 -0.14644513 -0.055292208
0.75492156 -0.13514076 -0.062815294
0.93258733 -0.13151214 -0.056894545
0.94313014 -0.13138692 -0.050561015
-0.89697891 -0.1117591 -0.056106705
-0.77984595 -0.11613788 -0.05280355
-0.43951744 -0.11762337 -0.049258847
0.39624995 -0.11966532 -0.056745965
0.96389854 -0.11703025 -0.055668224
-0.88977188 -0.10826963 -0.063096941
-0.44234231 -0.091374896 -0.051222246
0.3984237 -0.092925236 -0.058207769
0.96255577 -0.10494347 -0.04985543
-0.8923887 -0.083428174 -0.05290908
-0.78730959 -0.081867516 -0.049232733
-0.43726611 -0.072297946 -0.064795479
0.37980607 -0.079109579 -0.066104382
0.96789086 -0.081785068 -0.054338444
0.97517335 -0.073822692 -0.056380142
-0.90664136 -0.064178944 -0.053038057
-0.89216328 -0.059320927 -0.053710792
-0.78631812 -0.058573082 -0.054643113
-0.44510227 -0.065180533 -0.053140666
0.40057889 -0.066225804 -0.059657257
0.76678097 -0.061945602 -0.060099903
0.95398468 -0.059838533 -0.056690324
0.96611297 -0.059492931 -0.063196883
-0.89706707 -0.036085337 -0.05776855
-0.79386228 -0.035151966 -0.05541883
-0.44782749 -0.039038163 -0.05503485
0.40274596 -0.039566223 -0.061114732
0.77504802 -0.035092101 -0.055512216
0.96637052 -0.036524639 -0.060935255
0.97849834 -0.035787366 -0.063251272
-0.91058803 -0.018234335 -0.05968963
-0.45054731 -0.012946816 -0.056925442
0.40506443 -0.012946816 -0.062673852
0.7720356 -0.023527326 -0.052980404
0.98137069 -0.018565217 -0.059695851
-0.90195036 0.010143373 -0.061809141
-0.89741731 0.010944651 -0.057573412
-0.45054731 0.013119066 -0.056925442
0.40506443 0.013651095 -0.062673852
0.77532357 0.0099402033 -0.054352466
0.96500039 0.017160961 -0.05710813
0.97872645 0.010198794 -0.060986105
-0.89706707 0.033330224 -0.05776855
-0.44782749 0.039235875 -0.05503485
0.40274596 0.040291995 -0.061114732
0.96638167 0.034208596 -0.060925219
0.97849834 0.03273429 -0.063251272
-0.90528768 0.058072306 -0.049244706
-0.88928825 0.055995941 -0.055277135
-0.46121642 0.060819149 -0.06478779
0.95370936 0.061057352 -0.056382876
0.96611816 0.056872204 -0.063201338
-0.89239442 0.081028104 -0.052904058
-0.44510227 0.065403752 -0.053140666
0.40234476 0.067441992 -0.062877625
0.96790153 0.078837097 -0.054347333
-0.87559116 0.098947577 -0.056109447
-0.78733832 0.090434954 -0.049219165
-0.77862191 0.099954933 -0.055038553
-0.44234231 0.091623962 -0.051222246
0.3984237 0.093691081 -0.058207769
-0.88978332 0.10620613 -0.063086793
-0.77470511 0.1099965 -0.061700817
-0.43953225 0.11789818 -0.049269054
0.39626533 0.12045059 -0.056756232
0.75576717 0.11170072 -0.059166607
0.93109739 0.11563407 -0.052392375
0.94263089 0.10412683 -0.055671249
0.96256649 0.10204846 -0.049864549
-0.87137783 0.12668328 -0.066431433
-0.85892582 0.13529019 -0.058945056
-0.77987444 0.12464224 -0.052789982
0.94314122 0.12918063 -0.050550979
-0.86571628 0.14604259 -0.058891591
-0.77240926 0.15872282 -0.056360964
0.39408824 0.14725116 -0.055292208
0.92985851 0.14673208 -0.055645127
0.94165128 0.15082173 -0.062134769
-0.86142927 0.17401026 -0.058325443
0.39192361 0.17409129 -0.053836334
0.92820579 0.17777056 -0.063884854
0.94222605 0.17169878 -0.062602758
-0.85466701 0.18388538 -0.054694902
-0.76004076 0.19035438 -0.056144033
0.73314029 0.18982597 -0.053800728
0.92111588 0.18795311 -0.054285672
0.93682164 0.19526087 -0.058130916
-0.86873043 0.20230393 -0.050311867
-0.85641217 0.19782448 -0.054237414
-0.84028423 0.21409248 -0.054276202
0.38967729 0.20097761 -0.052325558
0.73538983 0.21521346 -0.065448031
0.90553337 0.21494287 -0.053944621
-0.82044768 0.22863257 -0.05294564
0.88517153 0.2287389 -0.053920787
0.90727538 0.22901416 -0.056912843
-0.80010837 0.24356741 -0.054184873
-0.70029664 0.25394678 -0.06251359
-0.41735375 0.24966389 -0.0587123
0.85817558 0.24519816 -0.058116663
0.86211008 0.24833414 -0.057559606
-0.7880494 0.27384087 -0.065482691
-0.78006089 0.25828499 -0.054139201
-0.76003844 0.27298409 -0.054093476
-0.57145548 0.27269036 -0.056388807
-0.5527246 0.26361454 -0.049050178
0.471542 0.26362833 -0.049030799
0.60282713 0.26735055 -0.06459786
0.68072063 0.25775695 -0.057207543
0.82418305 0.27011648 -0.053848494
0.84449911 0.25633299 -0.053872611
-0.74007154 0.2877377 -0.054046098
-0.715424 0.29159379 -0.054269593
-0.68892896 0.29163212 -0.054590572
-0.66219467 0.29165593 -0.054914746
-0.58455634 0.27829972 -0.056849848
-0.52709466 0.27803928 -0.057354067
-0.41104084 0.28181812 -0.05003741
-0.37163427 0.29278603 -0.067921877
-0.35186869 0.2920101 -0.058675464
-0.33471701 0.2927523 -0.067474395
-0.32208395 0.29203701 -0.059036527
-0.29509938 0.29239145 -0.06321618
-0.26184341 0.29238868 -0.063180804
-0.22862953 0.29236969 -0.063149959
-0.20012027 0.29213119 -0.060515437
-0.19077802 0.29260361 -0.065729633
-0.16230439 0.29237363 -0.063098788
-0.13740756 0.29220393 -0.061275471
-0.12096633 0.29252332 -0.064883575
-0.10560554 0.29224852 -0.061660644
-0.086573824 0.29249173 -0.06446664
-0.073487267 0.29227784 -0.062049929
-0.046794605 0.29239208 -0.063248217
-0.013574164 0.29239151 -0.063242346
0.014575973 0.29238331 -0.063240692
0.024729345 0.29239962 -0.063240126
0.047629591 0.29233691 -0.062840298
0.058118537 0.29242983 -0.063644916
0.086099923 0.29239225 -0.063248217
0.11934105 0.29239318 -0.063258141
0.14491189 0.29223269 -0.061661217
0.16027084 0.29253975 -0.064883113
0.17672417 0.29220405 -0.061275523
0.19499539 0.2925882 -0.065303698
0.20823416 0.29217544 -0.060893599
0.23475936 0.29237589 -0.063122302
0.26551062 0.29266974 -0.066158205
0.27035576 0.29210359 -0.060140688
0.3011421 0.29239795 -0.063180521
0.3374801 0.29273587 -0.067030773
0.35957488 0.28881204 -0.059122104
0.45130813 0.27802914 -0.057373445
0.50886714 0.27800906 -0.05741233
0.61988717 0.29174373 -0.055903967
0.64733171 0.29170439 -0.05557153
0.67454094 0.29168001 -0.055241715
0.70150459 0.29164124 -0.05491503
0.72823256 0.29160279 -0.054591428
0.7547344 0.29157943 -0.054270048
0.78100008 0.29154146 -0.053951804
0.79608989 0.27922076 -0.055066381
0.81095535 0.28285745 -0.059393335
-0.72813839 0.29550958 -0.058461133
-0.69983727 0.29694021 -0.061129782
-0.67217213 0.29692104 -0.061094318
-0.6411854 0.31091177 -0.054625627
-0.61140668 0.30792311 -0.061818261
-0.53174603 0.30033848 -0.060051348
-0.50308955 0.29881415 -0.060270358
-0.47304097 0.31051621 -0.05786309
-0.41373706 0.30887184 -0.055549975
-0.3961665 0.30606422 -0.062970877
-0.34008348 0.2969687 -0.061183143
-0.31240913 0.29697829 -0.061200935
-0.2847403 0.29695913 -0.061165359
-0.25706929 0.29694968 -0.061147567
-0.22939783 0.29694021 -0.061129782
-0.20172502 0.29694021 -0.061129894
-0.17405105 0.29694963 -0.061147455
-0.14637834 0.29694968 -0.061147567
-0.11870551 0.29694968 -0.061147567
-0.091032743 0.29694968 -0.061147567
-0.063360021 0.29694968 -0.061147567
-0.035687301 0.29694963 -0.061147455
-0.0080145299 0.29694968 -0.061147567
0.019658238 0.29694968 -0.061147567
0.047331065 0.29694968 -0.061147567
0.07500378 0.29694968 -0.061147567
0.10267644 0.29694963 -0.061147455
0.13034914 0.29694968 -0.061147567
0.15802191 0.29694968 -0.061147567
0.18569484 0.29694968 -0.061147567
0.21336763 0.29694968 -0.061147567
0.24104147 0.29694021 -0.061129782
0.26871443 0.29693997 -0.061129663
0.2963872 0.29694009 -0.061129782
0.32406026 0.29694021 -0.061129782
0.35118881 0.31102192 -0.062917322
0.39237446 0.30876654 -0.060154069
0.42685223 0.30325893 -0.058021534
0.45066926 0.29332265 -0.057927635
0.47965148 0.29333609 -0.057575349
0.51469338 0.30559233 -0.056909043
0.53582257 0.30845276 -0.060773108
0.56328696 0.31221056 -0.053358849
0.60139537 0.30215594 -0.055976655
0.65612453 0.29696867 -0.061183143
0.68379694 0.29696867 -0.061183143
0.71146935 0.29696867 -0.061183143
0.73913765 0.29697829 -0.061200935
0.76681006 0.29697818 -0.061200816
0.79448241 0.29697829 -0.061200935
-0.66789687 0.31562987 -0.061001617
-0.56314409 0.31282356 -0.055701409
-0.437803 0.31343019 -0.05095258
0.33398125 0.31440464 -0.049029883
0.36288142 0.31280595 -0.052184161
0.39433658 0.31317648 -0.067319378
0.40368146 0.31448641 -0.058082309
0.54712343 0.31367421 -0.05635659
-0.663854 -0.32123134 -0.030154232
-0.63789308 -0.32378811 -0.035648968
-0.59616077 -0.32476085 -0.040624995
-0.58469003 -0.32624844 -0.03072926
-0.52947903 -0.32683954 -0.031168371
-0.50108409 -0.32630351 -0.031405203
-0.44298923 -0.32427385 -0.031902008
-0.44132566 -0.32505503 -0.039368037
0.36393395 -0.32240623 -0.032884795
0.39194286 -0.31926644 -0.032699164
0.4065682 -0.32405847 -0.038781326
0.45264804 -0.32290772 -0.032160047
0.51861787 -0.32512289 -0.039674308
0.53796268 -0.32149324 -0.031488042
0.62182164 -0.32168105 -0.030806854
-0.70289129 -0.30376706 -0.035859372
-0.6831786 -0.30450544 -0.030216888
-0.66043466 -0.31440055 -0.038142871
-0.63862789 -0.31322044 -0.039371725
-0.61139929 -0.30943576 -0.046699438
-0.55323952 -0.31841227 -0.031086501
-0.53153038 -0.30919847 -0.040305723
-0.50884098 -0.31405047 -0.044744592
-0.48890629 -0.31386495 -0.039899629
-0.46755865 -0.31090784 -0.043849152
-0.43779519 -0.31503224 -0.035863627
-0.40953463 -0.31371582 -0.038412433
-0.40141734 -0.30068171 -0.032547452
-0.37704432 -0.30619603 -0.035908971
-0.346964 -0.30338058 -0.038888048
-0.34423664 -0.30417648 -0.032964557
-0.3122319 -0.30377391 -0.035898823
-0.27891099 -0.30376878 -0.035873909
-0.25351238 -0.3040646 -0.033700418
-0.23774007 -0.30347943 -0.038002703
-0.22268996 -0.30401078 -0.033950534
-0.20206001 -0.30352288 -0.037713248
-0.19159381 -0.30398843 -0.034202527
-0.16346519 -0.30375788 -0.035942014
-0.13014124 -0.30375943 -0.035928782
-0.096827626 -0.30376095 -0.03591824
-0.063541964 -0.30376181 -0.035910223
-0.030257013 -0.30376261 -0.035905007
0.0030206032 -0.30376294 -0.035902385
0.034678154 -0.30374259 -0.036037307
0.03790256 -0.303767 -0.035767812
0.06956248 -0.30376273 -0.035904977
0.10284728 -0.30376193 -0.035910282
0.13613303 -0.30376118 -0.03591809
0.16780442 -0.30391055 -0.034714445
0.17107643 -0.30362585 -0.03714278
0.20277555 -0.30376643 -0.035941865
0.23613063 -0.30377275 -0.03595769
0.26201597 -0.30402663 -0.033950474
0.27703047 -0.30351353 -0.038001847
0.2928198 -0.30404899 -0.033700816
0.31306151 -0.30348685 -0.038293976
0.33302215 -0.31108677 -0.035330776
0.36287552 -0.31439906 -0.037089627
0.3923679 -0.31030154 -0.045023154
0.43764734 -0.31096399 -0.038986664
0.47236338 -0.3053799 -0.032230061
0.50129712 -0.30554843 -0.031993687
0.51983505 -0.31578159 -0.047974009
0.54236239 -0.3107971 -0.042916592
0.56400925 -0.31501803 -0.039221112
0.5908407 -0.31692916 -0.032190874
0.61524659 -0.30311945 -0.040744666
0.6411497 -0.30441922 -0.030876469
0.65482509 -0.30308959 -0.041065361
0.6685074 -0.30445319 -0.030654576
0.6952315 -0.30375651 -0.035912391
0.72248858 -0.3044906 -0.030217174
0.73530078 -0.30299199 -0.04171804
0.7491318 -0.30452392 -0.030001096
-0.77765459 -0.28187004 -0.034108549
-0.75549132 -0.28300861 -0.042461488
-0.45511335 -0.29225227 -0.032223217
-0.41103572 -0.28330702 -0.034903534
0.47712401 -0.28382069 -0.039879385
0.54793996 -0.28489915 -0.031886615
0.80767208 -0.28288767 -0.041922469
-0.77009606 -0.27716923 -0.045351546
-0.76548952 -0.27634719 -0.033649027
-0.61359692 -0.26610461 -0.030066244
-0.58458799 -0.27962685 -0.041897271
-0.55270004 -0.26378521 -0.03334903
-0.52712673 -0.27935249 -0.042418364
0.45133081 -0.27935249 -0.042418588
0.47152001 -0.26378521 -0.03334903
0.50889277 -0.27933216 -0.04245713
0.79380095 -0.27409533 -0.040211465
-0.81099987 -0.25287157 -0.038825627
-0.70027906 -0.25426778 -0.046820302
-0.62346292 -0.24907027 -0.041837309
0.38902736 -0.25987187 -0.033500589
0.68070441 -0.25803503 -0.041487914
0.82666355 -0.2508651 -0.036561359
0.85350281 -0.25099871 -0.040826399
-0.851623 -0.22860776 -0.033894181
-0.84228271 -0.22497015 -0.042724695
-0.72987604 -0.22756135 -0.032760546
0.55809379 -0.23287834 -0.041201908
0.88903117 -0.22878046 -0.035547663
-0.87907493 -0.2063521 -0.029916659
0.88843727 -0.21910034 -0.032841731
0.92400271 -0.22229633 -0.047523838
-0.755077 -0.18856223 -0.03673603
-0.43103841 -0.1966864 -0.043365341
0.73538113 -0.19034411 -0.034129757
0.92086154 -0.20324461 -0.039042417
-0.871907 -0.17839606 -0.038339686
-0.43386555 -0.1702791 -0.045330394
0.92946815 -0.1804197 -0.033250831
-0.88701767 -0.16012393 -0.033509552
-0.86883426 -0.15043865 -0.036579419
0.90272188 -0.15877999 -0.043020304
0.92740715 -0.15167671 -0.037315112
-0.87444395 -0.13809338 -0.037852552
-0.80162364 -0.12963711 -0.047900084
-0.43670192 -0.1439243 -0.047301833
0.92986739 -0.13142781 -0.031122345
0.94730991 -0.14350758 -0.030505829
0.95718497 -0.1282098 -0.04534271
-0.90056467 -0.12209491 -0.030846193
-0.7747004 -0.11085065 -0.046252463
0.40477607 -0.11987025 -0.030290302
0.75082141 -0.11540624 -0.045334261
0.93108112 -0.11655163 -0.036876056
-0.88230503 -0.1060853 -0.045553487
0.40699407 -0.093077406 -0.031806838
0.95054907 -0.10739735 -0.043937404
0.95974946 -0.1047819 -0.030912157
-0.91157895 -0.078644469 -0.031326126
0.92933375 -0.085812435 -0.037909519
0.95624256 -0.083611153 -0.038854394
0.38898903 -0.060642861 -0.037359428
0.40914688 -0.066327102 -0.033278618
0.96578598 -0.06270685 -0.033779565
-0.92280114 -0.034335889 -0.031815577
-0.90807313 -0.036343686 -0.037678394
-0.79482979 -0.047470964 -0.045635011
-0.47423258 -0.032400765 -0.035471741
0.41129625 -0.039616939 -0.034748401
0.96210593 -0.036442012 -0.033619609
-0.92064369 -0.012946816 -0.035535235
-0.9080441 -0.012946816 -0.037087802
-0.79692709 -0.015189045 -0.039914537
-0.458143 -0.012946816 -0.030437052
0.41345793 -0.012946816 -0.036226507
0.94579965 -0.016392544 -0.043220077
0.96496081 -0.012946816 -0.031070806
0.98664665 -0.019172136 -0.036733273
0.77532357 -0.011110554 -0.039072525
-0.92064369 0.010570185 -0.035535235
-0.9080441 0.01020352 -0.037087802
-0.90107125 0.021731434 -0.031817518
-0.79898256 0.017570842 -0.04539844
-0.45453089 0.016953753 -0.032955598
0.41345793 0.013703167 -0.036226507
0.77205765 0.022191523 -0.037673321
0.9407264 0.019918887 -0.040671039
0.96425813 0.011655103 -0.031408954
0.98804408 0.00991836 -0.041721102
-0.90807861 0.03384681 -0.037673492
0.41129625 0.040393427 -0.034748401
0.96210593 0.034043573 -0.033619609
-0.79485828 0.05610197 -0.045621675
-0.78058952 0.058675908 -0.034824628
0.413167 0.049346164 -0.037355039
0.75505298 0.059583001 -0.031318925
0.76679838 0.060450681 -0.044918362
0.94742608 0.054784678 -0.03883009
0.95917791 0.057628036 -0.036233749
-0.8900516 0.065897949 -0.031328119
0.40914688 0.067123614 -0.033278618
0.95624256 0.081272304 -0.038854394
-0.77537256 0.086742088 -0.043553594
0.40699407 0.093893975 -0.031806838
0.75540775 0.085622936 -0.045245614
0.93425941 0.08400549 -0.048420075
0.93841004 0.091960341 -0.030913752
-0.88231617 0.10347575 -0.045562666
-0.87924713 0.10924108 -0.030848075
0.40477607 0.12070748 -0.030290302
0.71766239 0.10967324 -0.046979789
0.95055997 0.10511579 -0.043927599
-0.89475369 0.13325456 -0.034237478
-0.87735027 0.12705515 -0.041453656
-0.77301586 0.12128453 -0.047898266
0.89638054 0.12698129 -0.032347091
0.92952341 0.13040686 -0.034131225
0.9571957 0.12536812 -0.045351658
-0.88429451 0.15336922 -0.036624175
-0.87050188 0.1512433 -0.033852115
-0.43670192 0.14422616 -0.047301833
0.89337331 0.15817533 -0.036317561
0.92688441 0.15313762 -0.033745721
-0.87192959 0.17613624 -0.038339112
-0.75461471 0.16136359 -0.038644586
-0.43388048 0.17060654 -0.045340825
0.73504889 0.16343372 -0.035616759
0.91406852 0.1685653 -0.03010748
0.92388237 0.17710672 -0.036385749
-0.85815275 0.19325882 -0.029918313
-0.43103841 0.19704129 -0.043365341
0.89038676 0.18915591 -0.040261235
0.91074443 0.20476134 -0.040845159
0.92087263 0.2011372 -0.0390325
-0.85181946 0.22665672 -0.033724058
-0.84239686 0.22262342 -0.042817678
-0.72989446 0.22722602 -0.048445281
-0.61147857 0.23263536 -0.040788714
0.5838865 0.22272852 -0.041204412
0.5907771 0.23299238 -0.040283587
0.70993775 0.22948258 -0.045251433
0.85617357 0.22484693 -0.034996808
0.88877213 0.22235575 -0.041762207
0.92413545 0.21965061 -0.047633763
-0.81113541 0.25095564 -0.038806845
-0.79303253 0.25152421 -0.03560992
-0.70400453 0.24003127 -0.030320518
-0.64951521 0.23910525 -0.041839596
0.36653149 0.24766684 -0.033503439
0.82608569 0.25207558 -0.045047212
0.85119754 0.24646205 -0.040905204
0.88615364 0.24569958 -0.046435583
-0.78127104 0.27378169 -0.042451795
-0.67447877 0.26775056 -0.043290082
-0.62224305 0.25869736 -0.048748467
-0.61358917 0.26583436 -0.045958731
-0.49378219 0.2694599 -0.040909465
0.50218469 0.27352321 -0.039877962
0.52966744 0.2709538 -0.036417108
0.59282041 0.26672912 -0.044712547
0.65481275 0.2727313 -0.036353704
0.79425067 0.25888932 -0.032098629
-0.7740202 0.27784276 -0.039715741
-0.68892246 0.29161739 -0.029999956
-0.66218793 0.29164112 -0.030215975
-0.43316025 0.27970177 -0.032226183
-0.37386695 0.28855422 -0.036464732
-0.35186869 0.2920101 -0.032723051
-0.33471689 0.2927525 -0.03858896
-0.32208383 0.29203689 -0.032963701
-0.29509941 0.29239151 -0.035750192
-0.26185462 0.29238805 -0.035726678
-0.22863892 0.29238546 -0.035705697
-0.20012991 0.29214716 -0.033949506
-0.19077802 0.2926037 -0.03742579
-0.16231066 0.29236522 -0.035672199
-0.13740756 0.29220393 -0.034456406
-0.12096645 0.29252309 -0.036861878
-0.10560554 0.29224864 -0.03471319
-0.086573705 0.29249185 -0.03658383
-0.073487148 0.29227772 -0.034972824
-0.046800476 0.29238388 -0.035771746
-0.013568632 0.29238343 -0.035767835
0.014576087 0.29238331 -0.035766613
0.024729345 0.29239962 -0.03576621
0.047629707 0.29233691 -0.035499562
0.058118425 0.29242995 -0.036036167
0.086099923 0.29239225 -0.035771657
0.11933583 0.29238495 -0.035778325
0.14491183 0.29223257 -0.034713589
0.16027084 0.29253975 -0.036861364
0.17672417 0.29220405 -0.03445635
0.19500782 0.29257157 -0.037142266
0.2082243 0.29215947 -0.034202129
0.23475936 0.29237595 -0.035687704
0.2655105 0.29266986 -0.037711542
0.27035588 0.29210371 -0.033699904
0.30114874 0.29238924 -0.035726588
0.33746666 0.29275298 -0.038292836
0.3530719 0.29008004 -0.048332278
0.45041439 0.29284716 -0.032232795
0.4794426 0.29293907 -0.031996649
0.61988723 0.29174384 -0.030875497
0.64400125 0.2923772 -0.035698455
0.67746753 0.29237601 -0.035749163
0.70150459 0.29164124 -0.03021609
0.72055888 0.2931239 -0.041388679
0.72823256 0.29160279 -0.030000299
0.76422632 0.28636482 -0.041234095
0.8077457 0.28152537 -0.041860435
-0.72181857 0.29317966 -0.041716617
-0.65534425 0.30890656 -0.048736271
-0.6427893 0.30813041 -0.030157082
-0.61737847 0.31166518 -0.030316547
-0.55681634 0.29895958 -0.040305387
-0.5317775 0.30556816 -0.031089295
-0.511365 0.30775338 -0.035035703
-0.41317937 0.30468342 -0.035498623
0.34183329 0.31027624 -0.032883313
0.36805618 0.30462301 -0.035550933
0.4308193 0.31052518 -0.03215982
0.51632613 0.30875355 -0.031490892
0.59001011 0.30592197 -0.040164504
0.60057473 0.30895731 -0.03080634
0.76113522 0.29317954 -0.041716445
-0.6632123 0.31464115 -0.040284675
-0.64695168 0.31426427 -0.034769211
-0.61982989 0.31584638 -0.040327694
-0.57848924 0.31980202 -0.0383805
-0.56330043 0.31462473 -0.034141909
-0.5080865 0.31422597 -0.031167574
-0.49316081 0.31940523 -0.039163399
-0.47525218 0.31457797 -0.035875324
-0.4238435 0.31769392 -0.041286435
-0.39640927 0.31654283 -0.039099205
0.38016316 0.31694865 -0.039870244
0.41305479 0.31882983 -0.040438775
0.43132079 0.31328127 -0.038783718
0.4640823 0.31419808 -0.034643214
0.50389272 0.31973431 -0.038514141
0.51982373 0.31356344 -0.033437282
0.54359055 0.31477022 -0.039672945
0.59648514 0.3159703 -0.043066371
-0.63957012 -0.32065117 -0.010924283
-0.57853073 -0.32134867 -0.023633968
-0.49318746 -0.32097533 -0.02435666
0.41849706 -0.3211523 -0.024014242
0.50391787 -0.32130933 -0.023710139
-0.76142502 -0.30221969 -0.029613469
-0.7362262 -0.30455685 -0.029786844
-0.69596744 -0.30301034 -0.011268012
-0.64559901 -0.31574813 -0.014621876
-0.60352337 -0.30503348 -0.015495315
0.4119094 -0.30161786 -0.021551412
0.57935381 -0.30365685 -0.025355294
0.6152305 -0.30313769 -0.010781296
0.654809 -0.30310771 -0.010941558
0.69657618 -0.30113199 -0.011123545
0.77553672 -0.30454227 -0.029787127
-0.7815454 -0.28783357 -0.029638954
-0.74146599 -0.29803017 -0.011484776
-0.70988774 -0.29906449 -0.016788125
-0.68183231 -0.29905468 -0.016769882
-0.3731854 -0.29901546 -0.016696792
-0.34512517 -0.29901546 -0.016696792
-0.317063 -0.29902533 -0.01671515
-0.2890029 -0.29902533 -0.01671515
-0.26093966 -0.29904482 -0.016751524
-0.23287702 -0.29906449 -0.016788125
-0.20481616 -0.29907429 -0.016806483
-0.17675915 -0.29905468 -0.016769882
-0.14869949 -0.29905468 -0.016769882
-0.12063995 -0.29905468 -0.016769882
-0.092580348 -0.29905468 -0.016769882
-0.064520568 -0.29905468 -0.016769882
-0.036461074 -0.29905462 -0.016769767
-0.0084013604 -0.29905468 -0.016769882
0.019658294 -0.29905474 -0.016769882
0.04771778 -0.29905468 -0.016769882
0.075777553 -0.29905468 -0.016769882
0.10383715 -0.29905468 -0.016769882
0.1318967 -0.29905468 -0.016769882
0.1599572 -0.29904488 -0.016751636
0.18801703 -0.29904482 -0.016751524
0.21607685 -0.29904482 -0.016751524
0.24413645 -0.29904488 -0.016751636
0.27219623 -0.29904494 -0.016751636
0.30025613 -0.29904488 -0.016751636
0.32831591 -0.29904488 -0.016751636
0.3563776 -0.29903507 -0.016733166
0.63697702 -0.29903507 -0.016733166
0.66503328 -0.29904482 -0.016751524
0.69309306 -0.29904482 -0.016751524
0.72114891 -0.29905462 -0.016769767
0.73257726 -0.29520383 -0.012295421
0.76414901 -0.28635195 -0.020437445
0.79185712 -0.28968373 -0.0291132
0.81868196 -0.28246608 -0.029726978
-0.80169278 -0.27344725 -0.029664267
-0.76979434 -0.27856237 -0.014545366
-0.67446619 -0.26793027 -0.027482092
-0.49376014 -0.26956469 -0.025168747
-0.42991105 -0.27278852 -0.027130894
0.53307039 -0.26953697 -0.025207974
0.5928272 -0.26698956 -0.028813675
0.65479714 -0.27284098 -0.020531457
0.83964324 -0.27001008 -0.029720481
-0.84203899 -0.24459979 -0.029715519
-0.81453407 -0.25550616 -0.02191975
0.79425538 -0.26036856 -0.017035559
0.80485147 -0.25734994 -0.012705795
0.82691211 -0.25643346 -0.025755864
0.86059904 -0.25755763 -0.029713865
0.88155466 -0.24512328 -0.029707197
-0.86224937 -0.23016843 -0.029740948
-0.84387279 -0.22593173 -0.013752319
-0.70399129 -0.24023457 -0.014527235
-0.61148995 -0.23300412 -0.024929751
0.59078407 -0.23334357 -0.024441496
0.70992523 -0.22980571 -0.029531464
0.79441434 -0.23873092 -0.011928163
0.85618341 -0.22618222 -0.019870341
0.86752278 -0.22958159 -0.022741493
0.9024992 -0.23267755 -0.029700641
-0.61095703 -0.2055748 -0.011854369
0.52751571 -0.22292145 -0.010951649
0.59020442 -0.20553453 -0.011913206
0.84290665 -0.21350251 -0.015340574
0.87924778 -0.20457295 -0.012737837
0.92303789 -0.21913432 -0.029711813
-0.87432331 -0.2028196 -0.014230199
-0.86232603 -0.20080568 -0.029021658
-0.44282109 -0.19681925 -0.019612074
0.39802349 -0.20050317 -0.025673311
0.87283391 -0.18612324 -0.029189616
0.89037627 -0.19038168 -0.02496339
0.90012699 -0.20390648 -0.025935911
-0.44498631 -0.17042953 -0.021141835
0.40028313 -0.17358311 -0.027218238
0.90317363 -0.1798221 -0.023296911
-0.75461471 -0.16192505 -0.022988472
0.73504889 -0.16397122 -0.019945826
0.893363 -0.15931666 -0.020967491
0.90621251 -0.15579945 -0.020664413
-0.89207876 -0.13135059 -0.029778332
-0.88092482 -0.13004753 -0.014300894
-0.75359178 -0.14162754 -0.025604893
-0.44702989 -0.14408627 -0.022585623
0.40252361 -0.14670603 -0.028750051
0.86521113 -0.14091578 -0.015554488
0.89636517 -0.12804902 -0.016924728
0.909244 -0.13183831 -0.018038526
-0.44907045 -0.11778159 -0.024027243
0.89483184 -0.11383344 -0.029250506
-0.89311028 -0.10688338 -0.021538243
-0.75887549 -0.10423406 -0.018830772
-0.45112291 -0.091514982 -0.025477301
0.74046403 -0.10439084 -0.019093487
0.90582758 -0.10225212 -0.014136985
0.93285418 -0.10761086 -0.028495662
-0.90529746 -0.083588257 -0.018153235
-0.89324427 -0.082839541 -0.024652328
-0.77537745 -0.087600239 -0.028053928
0.75541222 -0.086494423 -0.02975427
0.91527146 -0.084099904 -0.0128172
0.93583316 -0.083854511 -0.025875703
-0.91144246 -0.059916884 -0.01274924
-0.89825726 -0.05944223 -0.028864417
-0.77483296 -0.061140813 -0.014780484
-0.76424116 -0.066303015 -0.011925638
-0.45315748 -0.065287314 -0.026914816
0.75029343 -0.063332886 -0.013795078
0.88726538 -0.070121318 -0.016421992
0.93811285 -0.056524187 -0.026043948
-0.45533639 -0.039096564 -0.028454155
0.91655302 -0.043238059 -0.029830325
0.94165736 -0.036523849 -0.020753693
0.94255918 -0.016754631 -0.02167473
0.90899849 -0.00082320347 -0.017589152
-0.79284948 0.016748533 -0.028866358
0.94508725 0.01322658 -0.02287627
-0.77428436 0.033825286 -0.017003749
-0.45533639 0.039352685 -0.028454155
0.75469846 0.033568159 -0.017405912
0.90571886 0.031674311 -0.020978779
0.9165259 0.042713434 -0.014013436
