ply
format ascii 1.0
comment PCL generated
element vertex 1342
property float x
property float y
property float z
element camera 0
property float view_px
property float view_py
property float view_pz
property float x_axisx
property float x_axisy
property float x_axisz
property float y_axisx
property float y_axisy
property float y_axisz
property float z_axisx
property float z_axisy
property float z_axisz
property float focal
property float scalex
property float scaley
property float centerx
property float centery
property int viewportx
property int viewporty
property float k1
property float k2
end_header
-0.38275269 0.47192657 -0.15469813
-0.38239968 0.47431901 -0.12242758
-0.38273463 0.47662002 -0.090299249
-0.38411394 0.47876844 -0.058575854
-0.38468191 0.48107472 -0.02599798
-0.33332202 0.49219707 0.043580346
-0.39706165 0.48384252 0.032027882
-0.38836047 0.48779401 0.072191946
-0.26584503 0.51134837 0.1972961
0.36154681 0.52044731 -0.26518819
0.30783471 0.51501465 -0.25724447
0.3029736 0.51667434 -0.22525547
0.3435069 0.52501553 -0.16960186
0.343528 0.52745628 -0.13416034
0.21777929 0.51128006 -0.16581237
0.15425594 0.50421935 -0.16565657
0.092473261 0.49735352 -0.16548237
0.032320909 0.49066892 -0.16531281
-0.026264681 0.48415849 -0.16514771
-0.085953444 0.47741964 -0.16651709
-0.14840226 0.47019663 -0.17045774
0.32783237 0.54538518 0.1518289
-0.31397781 0.44928646 -0.20647569
-0.35481578 0.44516599 -0.20028926
-0.38028237 0.44339335 -0.18484776
-0.38485152 0.44486517 -0.15606323
-0.38483697 0.44707003 -0.12403963
-0.38480675 0.44929886 -0.091692701
-0.38436618 0.4516145 -0.058748126
-0.29558161 0.46801215 0.035932716
-0.38999009 0.45527413 0.0035438389
-0.39671266 0.45650271 0.032278635
-0.37326965 0.46261612 0.083204225
-0.26600268 0.48239884 0.19717927
0.32945693 0.48713514 -0.2464924
0.30168402 0.48555812 -0.22590901
0.30182934 0.4878256 -0.19112778
0.30691829 0.49080017 -0.15342523
0.21724197 0.48058376 -0.16610061
0.14574105 0.4728201 -0.17030531
0.076491281 0.46530151 -0.17436802
0.009368238 0.4580138 -0.17830582
-0.05572452 0.45094657 -0.18212479
-0.11891376 0.44408476 -0.18585065
-0.1802467 0.4374246 -0.18946734
0.32702962 0.51264191 0.15134114
0.30069226 0.51131159 0.17341144
-0.21794607 0.43834612 -0.11423606
-0.31882304 0.42574969 -0.14554381
-0.34512162 0.42398641 -0.13022254
-0.34142652 0.42663318 -0.095327191
-0.26190877 0.44055179 -0.0090410914
-0.28804153 0.43885976 0.007112816
-0.38623366 0.42635801 -0.027076567
-0.39453563 0.42726305 0.00033229403
-0.38783106 0.43044707 0.038656034
-0.3644267 0.43620172 0.089657128
-0.26680773 0.45335329 0.19658214
0.37858397 0.46241751 -0.22206314
0.32141888 0.45717624 -0.2159068
0.30167294 0.45673603 -0.19120826
0.30251455 0.45897168 -0.15574262
0.1787329 0.44493136 -0.18674305
0.10860736 0.43781039 -0.19057904
0.040686067 0.43091449 -0.19427498
-0.025190953 0.4242256 -0.19786914
-0.089132257 0.417732 -0.20137671
-0.15120386 0.41142774 -0.20479108
-0.21146969 0.40530697 -0.208106
0.32566053 0.47983655 0.1505096
0.29980382 0.47865388 0.17286241
-0.21677604 0.41052893 -0.11350026
-0.21685734 0.41253424 -0.080335021
-0.23924839 0.41148672 -0.061361328
-0.27089608 0.40914813 -0.048677526
-0.38295451 0.39560553 -0.090447254
-0.38757947 0.39694223 -0.060945198
-0.39091051 0.39847371 -0.030327259
-0.38771993 0.40094066 0.0051478688
-0.37471238 0.40482435 0.048075996
-0.35511994 0.40968528 0.096448779
-0.27582633 0.42314664 0.1898948
0.34778512 0.43124485 -0.16739197
0.21203238 0.41676182 -0.20335622
0.14105901 0.41005236 -0.20693807
0.07230638 0.40355331 -0.21039835
0.0056333905 0.39725026 -0.21376337
-0.059090085 0.39112994 -0.21705873
-0.11439022 0.38612407 -0.21593229
-0.16766226 0.38132453 -0.21444501
-0.21952082 0.37665716 -0.21291231
-0.26913366 0.37222874 -0.21079576
-0.31667504 0.36802068 -0.20814255
-0.35668379 0.36473125 -0.20146361
-0.36575601 0.36536732 -0.17555797
-0.37045741 0.36657131 -0.14670122
-0.36859006 0.36863536 -0.11329354
-0.37065151 0.37020963 -0.082172982
-0.37563595 0.37141815 -0.052778974
-0.37656376 0.3731702 -0.020355331
-0.37471339 0.37530541 0.014337043
-0.36788198 0.37812123 0.052980594
-0.34372133 0.38327035 0.10476656
-0.28100041 0.39362624 0.18605813
0.25179946 0.38899925 -0.21696717
0.18841362 0.38366553 -0.2157848
0.12751877 0.37856522 -0.2141964
0.068124935 0.37358889 -0.21268117
0.010216859 0.36873645 -0.21121471
-0.046707492 0.36395189 -0.21004914
-0.1026794 0.35923263 -0.20918345
-0.1572711 0.35462922 -0.20834984
-0.21104373 0.35007784 -0.20785189
-0.26237965 0.34576869 -0.20669304
-0.31214502 0.34160328 -0.20534305
-0.35552233 0.33815321 -0.20073357
-0.36635113 0.33853588 -0.17593864
-0.37235445 0.33949813 -0.14793512
-0.36776891 0.34173965 -0.1127504
-0.35442114 0.34505892 -0.071257718
-0.36143297 0.34594515 -0.043067873
-0.36376292 0.34740987 -0.011457836
-0.3631098 0.34925392 0.02253506
-0.35627994 0.35187545 0.061311677
-0.33058313 0.35685363 0.11435405
-0.28268084 0.36463839 0.18481202
0.33617613 0.36540717 -0.20842734
0.26621088 0.35985604 -0.20952389
0.20097743 0.35474706 -0.20917334
0.13771008 0.34979689 -0.20873322
0.076060601 0.34497118 -0.20834854
0.016065713 0.3402755 -0.20796314
-0.042359579 0.33570266 -0.20758793
-0.099276111 0.33124793 -0.20722227
-0.15491727 0.32688797 -0.20696928
-0.20915176 0.32263824 -0.20672271
-0.26074022 0.31863418 -0.20569718
-0.31079298 0.31475887 -0.20450734
-0.3539989 0.31159353 -0.19977556
-0.36649215 0.3117651 -0.17602885
-0.37334135 0.31256005 -0.14857697
-0.37139714 0.31433621 -0.11515004
-0.34676141 0.31865388 -0.066106379
-0.35431993 0.319415 -0.038204372
-0.3573364 0.32069385 -0.0069909263
-0.35791382 0.32226068 0.026206015
-0.35077164 0.32471892 0.065266952
-0.32665744 0.32913682 0.11721865
-0.28451487 0.33566502 0.18345204
0.34275842 0.33480558 -0.20509133
0.27017745 0.32947132 -0.20747527
0.20347983 0.32465005 -0.20785658
0.13984607 0.32007834 -0.20758826
0.077931128 0.31563014 -0.20732728
0.017685404 0.31130233 -0.20706262
-0.040995099 0.3070865 -0.20681553
-0.098152392 0.3029801 -0.2065745
-0.15382718 0.29898068 -0.20632967
-0.20811097 0.29508069 -0.20610119
-0.25971267 0.29140952 -0.2050731
-0.3098588 0.28784832 -0.20393002
-0.35304019 0.28494972 -0.19917282
-0.36661732 0.28499848 -0.17610876
-0.37387359 0.28568602 -0.14892319
-0.37300315 0.28720495 -0.11621242
-0.34395754 0.29161173 -0.064220756
-0.35153282 0.29230908 -0.036298573
-0.35522029 0.29341364 -0.0055203456
-0.35669714 0.2947579 0.027065538
-0.35010025 0.29695523 0.065749034
-0.32824567 0.30076915 0.11605966
-0.28631234 0.30673051 0.18211921
0.34512469 0.30372825 -0.20389178
0.27171367 0.29880819 -0.20668165
0.20486003 0.29441223 -0.20713043
0.14116201 0.29025108 -0.20688292
0.079185784 0.28620243 -0.20664223
0.01886278 0.28226176 -0.20640802
-0.039872557 0.27842483 -0.20618008
-0.097082213 0.27468756 -0.2059579
-0.15282419 0.27104613 -0.20574154
-0.20712078 0.26749998 -0.20551006
-0.25876734 0.26415893 -0.20449887
-0.30892399 0.26092094 -0.20335233
-0.35222211 0.2582756 -0.19865859
-0.36664858 0.2582427 -0.17612903
-0.37413958 0.25884622 -0.14909612
-0.37356955 0.26019916 -0.11658702
-0.34245655 0.26439676 -0.063211285
-0.34998375 0.26503587 -0.035239756
-0.35421771 0.2659896 -0.0048233718
-0.35625905 0.26715901 0.027375158
-0.35005105 0.26912001 0.065784462
-0.33029959 0.27238742 0.11456072
-0.28805572 0.27783546 0.1808264
-0.22586638 0.28525281 0.26347789
0.34690157 0.27256459 -0.20299143
0.2730538 0.26810318 -0.20598976
0.20607114 0.26413724 -0.20649293
0.14231412 0.26038805 -0.20626526
0.080281861 0.25674024 -0.20604379
0.019944131 0.25319287 -0.20580678
-0.038843103 0.24973589 -0.20559722
-0.096047387 0.24637315 -0.20536156
-0.15178554 0.24309659 -0.20513211
-0.20611285 0.23990297 -0.20490846
-0.25782132 0.23689139 -0.20392428
-0.30802095 0.23397404 -0.20279403
-0.35145098 0.23158282 -0.19817361
-0.36663297 0.23149139 -0.17611866
-0.37439016 0.23201254 -0.14925905
-0.37396288 0.23321828 -0.11684719
-0.34129354 0.23712575 -0.06242907
-0.34906334 0.23768112 -0.034610339
-0.3532308 0.23854545 -0.0041374117
-0.35578814 0.23955464 0.027707737
-0.34955946 0.24132147 0.066137314
-0.33973074 0.24341384 0.10767869
-0.28976271 0.24897689 0.1795606
-0.24166226 0.25443476 0.2515769
0.34865716 0.24136895 -0.20210135
0.27435073 0.2373721 -0.20531973
0.2072617 0.23383984 -0.2058665
0.14346685 0.23050493 -0.20564722
0.081378609 0.22725891 -0.20544501
0.020987689 0.2241023 -0.20522667
-0.037794102 0.22103015 -0.20500346
-0.095048405 0.21803783 -0.20478597
-0.15083411 0.21512228 -0.20457388
-0.20518981 0.21228181 -0.20435743
-0.25695783 0.20960084 -0.2033996
-0.30722997 0.20700268 -0.20230533
-0.35080552 0.20486686 -0.19776784
-0.36664858 0.20473748 -0.17612903
-0.37457785 0.2051881 -0.14938113
-0.37297168 0.20634679 -0.11619177
-0.34042048 0.20981167 -0.061842099
-0.34822327 0.21030322 -0.03403575
-0.35344115 0.21099314 -0.004283594
-0.35658357 0.21184608 0.027145814
-0.35055882 0.2134009 0.065419666
-0.33807176 0.21546245 0.10888921
-0.28884915 0.22035109 0.18023802
-0.24546568 0.22484072 0.24871139
0.35007212 0.21012257 -0.2013844
0.27551654 0.20661065 -0.20471774
0.20834678 0.20351532 -0.20529556
0.14451776 0.2005955 -0.20508416
0.082436241 0.19775595 -0.2048676
0.022031868 0.19499338 -0.20464616
-0.036782015 0.19230357 -0.20443031
-0.094066955 0.18968369 -0.20422049
-0.14989966 0.18712991 -0.204026
-0.20430036 0.18464194 -0.20382637
-0.25614372 0.18229164 -0.20290518
-0.30645502 0.18001603 -0.20182639
-0.35015976 0.17813917 -0.19736183
-0.36664858 0.17798486 -0.17612903
-0.37387359 0.1784244 -0.14892319
-0.37248382 0.17942452 -0.11586886
-0.3408249 0.18239857 -0.062114023
-0.34814239 0.18286015 -0.033980474
-0.35382947 0.18343312 -0.0045533553
-0.35695684 0.18418032 0.026882153
-0.35070622 0.18555559 0.06531398
-0.33306691 0.18770209 0.11254136
-0.2898488 0.19157995 0.17949682
-0.24915275 0.19532749 0.24593364
0.35151097 0.17885309 -0.20065504
0.2765511 0.17582226 -0.20418335
0.20928332 0.17316426 -0.20480259
0.1453833 0.17065808 -0.20462003
0.083234943 0.16822086 -0.20443165
0.022747731 0.16584878 -0.2042481
-0.036125515 0.16354026 -0.20405874
-0.09348508 0.16129082 -0.20388499
-0.14931761 0.15910204 -0.20368472
-0.20375267 0.15696779 -0.20349924
-0.25564522 0.15495074 -0.20260234
-0.30598658 0.15299867 -0.20153689
-0.34978127 0.15138514 -0.197124
-0.36682063 0.15122281 -0.17623895
-0.37318471 0.15164694 -0.14847507
-0.37101889 0.15254733 -0.11490003
-0.34097037 0.15500733 -0.062211782
-0.34851399 0.15539031 -0.034234479
-0.35436323 0.1558722 -0.0049244855
-0.35745975 0.15651427 0.026526777
-0.35075542 0.15771867 0.065278597
-0.33280042 0.15957649 0.11273588
-0.2903311 0.16285753 0.17913932
-0.25176567 0.16594689 0.24396484
0.35228813 0.14753041 -0.20026129
0.27710178 0.14499509 -0.20389886
0.20975181 0.14277665 -0.20455612
0.14579558 0.14068581 -0.20439911
0.083594508 0.13865255 -0.2042353
0.023096034 0.1366754 -0.20405427
-0.03580666 0.1347504 -0.20387836
-0.093175791 0.1328755 -0.20370688
-0.14905307 0.13104959 -0.20352925
-0.203513 0.12926999 -0.2033563
-0.25546229 0.1275866 -0.20249106
-0.30588976 0.12595603 -0.20147693
-0.3497183 0.1246099 -0.19708435
-0.36693045 0.12446676 -0.17630905
-0.37356055 0.12480797 -0.14871946
-0.37101889 0.12557554 -0.11490003
-0.34114811 0.1276173 -0.062331334
-0.34961239 0.12789351 -0.034985676
-0.35557598 0.12828951 -0.005767541
-0.35867566 0.12882411 0.025667788
-0.35177031 0.12983701 0.064549804
-0.3333334 0.13140786 0.11234705
-0.29105434 0.13413285 0.17860292
-0.25465775 0.13660306 0.24178576
0.3523564 0.11616999 -0.20022655
0.27712351 0.11414014 -0.20388769
0.20973054 0.1123639 -0.2045673
0.14585768 0.11069411 -0.20436583
0.083714433 0.10906956 -0.20417002
0.023231594 0.10748841 -0.20397909
-0.035694104 0.10594761 -0.20381463
-0.093084775 0.10444695 -0.20365442
-0.14900005 0.10298489 -0.20349824
-0.203513 0.10155931 -0.2033563
-0.25551221 0.10021079 -0.20252135
-0.30595431 0.098905817 -0.20151693
-0.34981304 0.097827807 -0.19714382
-0.36719641 0.097707003 -0.17647907
-0.37393624 0.097975902 -0.14896394
-0.36971045 0.098652028 -0.11403462
-0.341649 0.10021859 -0.062668465
-0.35067773 0.10041843 -0.035714008
-0.35683617 0.10072774 -0.0066432636
-0.36016598 0.10114652 0.02461483
-0.35348761 0.10194799 0.063316688
-0.33483148 0.10321267 0.11125372
-0.2929644 0.10537665 0.17718658
-0.25834039 0.10728438 0.23901127
0.35203657 0.084798388 -0.20038895
0.27707967 0.083283104 -0.20391031
0.20979463 0.081953719 -0.20453367
0.14589888 0.0807008 -0.20434396
0.083734252 0.079481825 -0.20415901
0.023231594 0.078295439 -0.20397909
-0.035694104 0.07713984 -0.20381463
-0.093103237 0.076013871 -0.20366497
-0.14903522 0.074916847 -0.20351906
-0.20354736 0.073847689 -0.20337687
-0.25556213 0.072835885 -0.20255162
-0.30600291 0.071857177 -0.20154691
-0.34995484 0.071046121 -0.19723289
-0.36741561 0.070953384 -0.17661928
-0.37406152 0.071157604 -0.14904536
-0.36734232 0.071733683 -0.11246821
-0.34244031 0.072821066 -0.063200586
-0.35175845 0.072962753 -0.036453038
-0.3581433 0.073188223 -0.0075518582
-0.36167082 0.073496558 0.023551667
-0.35564345 0.07407897 0.061768703
-0.33682629 0.075031765 0.10979796
-0.29521534 0.076647125 0.17551748
-0.26201409 0.078036651 0.2362434
0.35171673 0.053432271 -0.20055084
0.27703556 0.05242683 -0.20393308
0.20977306 0.051540963 -0.20454492
0.14585768 0.050705336 -0.20436583
0.083694421 0.049892701 -0.20418091
0.023173407 0.049101457 -0.20401137
-0.035750289 0.048331089 -0.20384654
-0.093157522 0.047580466 -0.20369625
-0.14908832 0.046849139 -0.20355023
-0.20359866 0.046136394 -0.2034076
-0.2556285 0.04546158 -0.20259206
-0.30606747 0.044809133 -0.2015869
-0.35009646 0.044267021 -0.19732212
-0.36752495 0.044205777 -0.17668936
-0.37413958 0.044342488 -0.14909612
-0.3658092 0.044756271 -0.1114544
-0.34310219 0.045440629 -0.063645616
-0.35287046 0.045526639 -0.037213281
-0.3592723 0.045676537 -0.0083365943
-0.36283502 0.045881324 0.02272908
-0.35712793 0.046263434 0.060702614
-0.33880192 0.046889156 0.10835648
-0.2976 0.047958061 0.17374915
-0.26536199 0.048865691 0.23372085
0.35146526 0.022072257 -0.2006783
0.27696943 0.021571124 -0.20396723
0.20973054 0.021128396 -0.2045673
0.14581633 0.020710593 -0.20438813
0.083614521 0.020303937 -0.20422436
0.023115398 0.019908501 -0.20404375
-0.03580666 0.019523328 -0.20387836
-0.093212143 0.019148031 -0.2037278
-0.14914125 0.018782383 -0.20358106
-0.20365004 0.018426022 -0.20343807
-0.25569513 0.018088473 -0.20263261
-0.30614832 0.017762119 -0.20163672
-0.35023832 0.017490504 -0.19741121
-0.36761886 0.017460315 -0.17674945
-0.37420225 0.017528953 -0.14913686
-0.36433762 0.017749993 -0.11048093
-0.34373152 0.01807276 -0.064068727
-0.35396567 0.018111402 -0.037962183
-0.36035183 0.018186441 -0.0090869088
-0.36398205 0.018288152 0.021918844
-0.35879007 0.018474283 0.059509188
-0.34069204 0.018784901 0.10697701
-0.29996374 0.019314742 0.17199644
-0.26859728 0.019760082 0.23128338
0.35132822 -0.0092834355 -0.20074777
0.27692547 -0.0092834355 -0.20399007
0.20970947 -0.0092834355 -0.20457859
0.14577514 -0.0092834355 -0.20441003
0.083574496 -0.0092834355 -0.20424618
0.023057401 -0.0092834355 -0.2040761
-0.035863042 -0.0092834355 -0.20391017
-0.093266718 -0.0092834355 -0.20375918
-0.14919408 -0.0092834355 -0.20361216
-0.20370129 -0.0092834355 -0.20346877
-0.25574508 -0.0092834355 -0.2026629
-0.30621278 -0.0092834355 -0.20167656
-0.35036433 -0.0092834355 -0.19749047
-0.36774409 -0.0092834355 -0.17682935
-0.37428051 -0.0092834355 -0.14918795
-0.36261109 -0.0092834355 -0.10933904
-0.34442529 -0.0092834355 -0.064535327
-0.35497963 -0.0092834355 -0.038655497
-0.3614952 -0.0092834355 -0.0098817218
-0.36522481 -0.0092834355 0.021040756
-0.36045033 -0.0092834355 0.058317073
-0.34239787 -0.0092834355 0.10573225
-0.30251184 -0.0092834355 0.17010704
-0.27182555 -0.0092834355 0.22885126
0.3511225 -0.040636182 -0.20085199
0.2768594 -0.040137045 -0.20402408
0.20966671 -0.039694712 -0.20460086
0.14571303 -0.039276563 -0.20444329
0.083534703 -0.038870111 -0.2042681
0.022999298 -0.038474351 -0.20410818
-0.035937957 -0.038089044 -0.20395271
-0.093339622 -0.03771377 -0.2038009
-0.14924707 -0.037348311 -0.20364314
-0.20375267 -0.036991969 -0.20349924
-0.2557947 -0.03665445 -0.20269309
-0.30627754 -0.03632782 -0.20171645
-0.35047472 -0.036055226 -0.19755985
-0.36786908 -0.036024898 -0.17690937
-0.37434316 -0.036094531 -0.14922866
-0.35225639 -0.036428317 -0.10249036
-0.34537628 -0.036624387 -0.065174937
-0.35604116 -0.036658939 -0.039381213
-0.362573 -0.036732521 -0.010630855
-0.36628932 -0.036833316 0.020288613
-0.36186478 -0.037012085 0.057301462
-0.34391963 -0.037321106 0.10462181
-0.30479968 -0.037835434 0.16841048
-0.27466226 -0.038268745 0.2267139
0.35078007 -0.071983039 -0.20102583
0.27674928 -0.070988752 -0.20408104
0.20962435 -0.070105247 -0.20462331
0.14565139 -0.069268614 -0.20447658
0.0834345 -0.068455026 -0.20432256
0.022921847 -0.067663901 -0.20415129
-0.03601303 -0.066893324 -0.20399518
-0.093412355 -0.066142812 -0.20384319
-0.14930016 -0.065412238 -0.20367435
-0.20375267 -0.064700507 -0.20349924
-0.255878 -0.064023964 -0.20274371
-0.30635825 -0.063370749 -0.20176657
-0.35063225 -0.062824152 -0.19765903
-0.36786908 -0.062766358 -0.17690937
-0.3744213 -0.062904187 -0.14927939
-0.35041952 -0.063607082 -0.10127544
-0.34684196 -0.063938163 -0.066160657
-0.35721439 -0.064012587 -0.040183358
-0.36345753 -0.064165048 -0.011245737
-0.36686972 -0.064372286 0.019878551
-0.36256346 -0.064727522 0.056799829
-0.34502697 -0.065337732 0.1038138
-0.30672622 -0.066350639 0.16698192
-0.27728394 -0.067203723 0.22473875
0.35062009 -0.10332872 -0.20110673
0.27670529 -0.10184027 -0.20410363
0.2096028 -0.1005156 -0.20463459
0.14563085 -0.099260665 -0.20448767
0.083394669 -0.098039784 -0.2043445
0.022824926 -0.096851587 -0.20420511
-0.036087882 -0.09569627 -0.20403755
-0.093430534 -0.094572023 -0.20385361
-0.14930016 -0.093476646 -0.20367435
-0.20376968 -0.092408583 -0.20350963
-0.255878 -0.091394223 -0.20274371
-0.30642298 -0.090412654 -0.20180647
-0.35078964 -0.089590222 -0.19775786
-0.36791608 -0.089506537 -0.17693929
-0.37449962 -0.089712411 -0.14933023
-0.34981221 -0.090785719 -0.10087358
-0.34832227 -0.091224365 -0.067156106
-0.3581779 -0.091350235 -0.040842138
-0.36411637 -0.091587357 -0.011703419
-0.3674176 -0.09190125 0.019491488
-0.36324561 -0.092430219 0.056309924
-0.34643063 -0.09332487 0.1027896
-0.30858219 -0.094831072 0.16560563
-0.27984887 -0.096090019 0.22280639
0.3502548 -0.13466457 -0.20129183
0.27659526 -0.13268873 -0.20416045
0.20949644 -0.13092263 -0.2046905
0.14554839 -0.12925018 -0.20453165
0.083334759 -0.12762313 -0.20437703
0.022805652 -0.12604029 -0.20421593
-0.03610687 -0.12449989 -0.20404826
-0.093466885 -0.12300025 -0.20387454
-0.14935309 -0.12153915 -0.20370518
-0.20380405 -0.12011573 -0.20353016
-0.25591117 -0.1187633 -0.20276374
-0.3064388 -0.11745513 -0.20181631
-0.35088411 -0.11635571 -0.19781724
-0.36788473 -0.11624871 -0.1769193
-0.374437 -0.11652437 -0.1492895
-0.35251167 -0.11785353 -0.1026591
-0.35106987 -0.11843611 -0.069004171
-0.35907653 -0.11867235 -0.041456558
-0.36445379 -0.11900936 -0.011938149
-0.36759484 -0.11943386 0.019366436
-0.36335936 -0.12014153 0.056228157
-0.3472392 -0.12130795 0.10219947
-0.30961981 -0.1233073 0.1648362
-0.39218435 -0.120713 0.13816997
-0.41727409 -0.12031001 0.15387216
0.3502548 -0.16600984 -0.20129183
0.27652907 -0.16353722 -0.20419464
0.2094536 -0.16133058 -0.20471294
0.14552765 -0.15924098 -0.20454265
0.083334759 -0.15720804 -0.20437703
0.022805652 -0.15522948 -0.20421593
-0.03610687 -0.153304 -0.20404826
-0.093521535 -0.15142702 -0.20390609
-0.14945881 -0.14959835 -0.20376754
-0.20394078 -0.14781769 -0.20361179
-0.2560108 -0.14612874 -0.20282437
-0.3065359 -0.14449367 -0.20187637
-0.35119915 -0.14310946 -0.19801545
-0.36786908 -0.14299074 -0.17690937
-0.37420225 -0.14334537 -0.14913686
-0.35350078 -0.14495042 -0.10331353
-0.35257789 -0.14565438 -0.070018239
-0.3595899 -0.14599565 -0.041807681
-0.36475894 -0.14642654 -0.012150189
-0.36801356 -0.14695174 0.019070538
-0.36378139 -0.14783607 0.055925019
-0.34789887 -0.14928274 0.10171808
-0.36276704 -0.14927569 0.1254265
-0.38802573 -0.14876996 0.14130315
-0.40186945 -0.14880963 0.16566376
0.34991246 -0.19733746 -0.20146549
0.2764411 -0.19438341 -0.20424017
0.2093685 -0.19173557 -0.20475769
0.14544529 -0.18922818 -0.20458695
0.083254941 -0.18678878 -0.20442076
0.022728469 -0.18441461 -0.20425893
-0.036162972 -0.18210512 -0.20408
-0.093521535 -0.17985575 -0.20390609
-0.14940572 -0.17766418 -0.20373635
-0.20387241 -0.1755282 -0.20357098
-0.25597763 -0.17349961 -0.2028044
-0.3065359 -0.17153572 -0.20187637
-0.35112029 -0.16987896 -0.19796599
-0.36846331 -0.16969962 -0.17728958
-0.37460899 -0.17013535 -0.14940168
-0.3508032 -0.17223316 -0.1015291
-0.35318729 -0.1728947 -0.070427902
-0.36079204 -0.17327091 -0.042629644
-0.36601123 -0.17378482 -0.013020536
-0.3690922 -0.17442453 0.018308407
-0.36511156 -0.17547116 0.054970011
-0.34976104 -0.17717645 0.10035919
-0.31193075 -0.18018684 0.16312276
-0.25549063 -0.18429926 0.24115829
0.34977543 -0.22867157 -0.20153494
0.27635288 -0.22522809 -0.20428564
0.20930476 -0.22214037 -0.20479149
0.14536273 -0.21921395 -0.20463113
0.083155021 -0.21636687 -0.2044751
0.022631541 -0.21359719 -0.20431276
-0.036275614 -0.21090178 -0.20414391
-0.09361247 -0.20827881 -0.20395836
-0.14949407 -0.20572212 -0.2037881
-0.20394078 -0.20323138 -0.20361179
-0.25611061 -0.2008606 -0.20288493
-0.30666512 -0.1985696 -0.20195612
-0.35124618 -0.19663687 -0.19804509
-0.3684791 -0.19643466 -0.17729941
-0.37401432 -0.19698222 -0.14901465
-0.34965226 -0.19946575 -0.10076784
-0.35379627 -0.2001237 -0.070837572
-0.3612248 -0.20057394 -0.042925581
-0.36580247 -0.20121542 -0.012875332
-0.36770764 -0.20203923 0.019286731
-0.36353791 -0.20327327 0.05610013
-0.34831107 -0.20525505 0.10141733
-0.31281346 -0.20861173 0.16246812
0.34938744 -0.25998601 -0.20173143
0.27619889 -0.25606665 -0.204365
0.20919821 -0.25254112 -0.20484735
0.14528038 -0.24919824 -0.20467541
0.083075181 -0.24594462 -0.20451884
0.022534899 -0.24277805 -0.20436648
-0.036350697 -0.23969908 -0.20418638
-0.093703292 -0.23670027 -0.2040109
-0.14956456 -0.23377976 -0.20382947
-0.20400926 -0.23093331 -0.20365283
-0.25617722 -0.22822398 -0.20292531
-0.3067942 -0.22560111 -0.20203614
-0.35138807 -0.22339134 -0.19813418
-0.36854151 -0.22316597 -0.17733958
-0.37343538 -0.22383887 -0.14863816
-0.34906042 -0.22667833 -0.10037645
-0.354341 -0.2273462 -0.071203709
-0.36125681 -0.22789876 -0.042947315
-0.36517656 -0.22868115 -0.012440456
-0.3659991 -0.22970434 0.02049375
-0.36179984 -0.23111755 0.057347886
-0.34671134 -0.23337258 0.10258466
-0.31388208 -0.23700556 0.16167572
0.3490223 -0.29129559 -0.20191664
0.27600077 -0.28689918 -0.20446756
0.20904912 -0.28293669 -0.20492597
0.14517725 -0.27917951 -0.20473067
0.082995184 -0.27552098 -0.2045625
0.022457533 -0.27195877 -0.20440939
-0.036425538 -0.26849508 -0.20422874
-0.093776025 -0.26512155 -0.20405273
-0.14963518 -0.26183614 -0.20387073
-0.20409498 -0.25863266 -0.20370381
-0.2562601 -0.25558481 -0.20297568
-0.30689111 -0.25263295 -0.20209587
-0.35154542 -0.25014195 -0.19823298
-0.3682133 -0.24992831 -0.17712958
-0.37271485 -0.25071779 -0.1481695
-0.34906042 -0.25385267 -0.10037645
-0.35539758 -0.25451592 -0.071914569
-0.36133701 -0.25521895 -0.043002248
-0.36424497 -0.25618437 -0.011792807
-0.36385295 -0.25743866 0.022009971
-0.36009225 -0.25899211 0.058574244
-0.34506008 -0.26152495 0.10378969
-0.31491598 -0.26538196 0.16090897
0.34879401 -0.32261068 -0.20203225
0.27582476 -0.31773013 -0.20455867
0.2088789 -0.31332782 -0.20501542
0.14503288 -0.3091554 -0.20480803
0.082895435 -0.30509418 -0.20461693
0.022379981 -0.3011381 -0.20445266
-0.036500644 -0.29728973 -0.2042712
-0.093848571 -0.29354155 -0.20409465
-0.14974101 -0.28988811 -0.20393282
-0.20419772 -0.28632891 -0.20376517
-0.25634319 -0.28294411 -0.2030264
-0.30698791 -0.279663 -0.20215586
-0.35178155 -0.27688256 -0.19838154
-0.36760324 -0.27672234 -0.17673953
-0.3718687 -0.27762157 -0.14761907
-0.34934834 -0.28100049 -0.10056681
-0.35637376 -0.28167346 -0.072570935
-0.36133701 -0.28254512 -0.043002248
-0.36273393 -0.28375921 -0.010742692
-0.36178416 -0.28520611 0.023471694
-0.35838285 -0.28689912 0.059801556
-0.34320867 -0.28972769 0.10514074
-0.31813219 -0.29353026 0.1585242
0.3484062 -0.35390672 -0.20222881
0.27600077 -0.34859157 -0.20446756
0.20881492 -0.34372616 -0.20504889
0.14492969 -0.33913273 -0.20486303
0.082775719 -0.33466372 -0.20468232
0.022283237 -0.33031419 -0.20450614
-0.036594369 -0.32608128 -0.20432414
-0.093957745 -0.32195669 -0.20415756
-0.14982912 -0.31793991 -0.20398448
-0.20430036 -0.31402332 -0.20382637
-0.25642633 -0.31030199 -0.20307666
-0.30706865 -0.30669293 -0.20220551
-0.35200191 -0.3036204 -0.19852003
-0.36757195 -0.30346939 -0.17671928
-0.37100643 -0.30454242 -0.14705832
-0.35016379 -0.30808944 -0.10110623
-0.35736513 -0.3088114 -0.07323762
-0.36002287 -0.31000599 -0.0421037
-0.36060956 -0.31142554 -0.0092660133
-0.35966393 -0.31301776 0.024969542
-0.35706273 -0.314798 0.060749575
-0.34231511 -0.31786552 0.10579269
-0.31931525 -0.32183069 0.15764675
0.34842905 -0.38523844 -0.2022171
0.27602279 -0.37944004 -0.20445628
0.20890011 -0.37413895 -0.20500442
0.14497088 -0.36912334 -0.20484117
0.082795724 -0.36424586 -0.20467141
0.022283237 -0.35949883 -0.20450614
-0.036650635 -0.35487509 -0.20435621
-0.094048761 -0.35037187 -0.20421001
-0.14993504 -0.34598824 -0.20404674
-0.204403 -0.34171593 -0.20388755
-0.25640976 -0.3376691 -0.20306675
-0.30716547 -0.33371964 -0.20226552
-0.35219067 -0.3303577 -0.19863886
-0.36752495 -0.3302187 -0.17668936
-0.37026909 -0.33146539 -0.1465787
-0.35375598 -0.33485597 -0.10348206
-0.35971284 -0.33578002 -0.074816443
-0.36040765 -0.33730134 -0.042366818
-0.35965893 -0.33899978 -0.0086053256
-0.35914564 -0.34068847 0.025335666
-0.35882255 -0.34237239 0.059485875
-0.34628218 -0.34546611 0.10289786
0.14556883 -0.39917776 -0.20452078
0.083155021 -0.39386696 -0.2044751
0.022515625 -0.38870999 -0.20437729
-0.036538087 -0.38368735 -0.20429248
-0.093939587 -0.3788085 -0.20414709
-0.1499173 -0.37404907 -0.20403627
-0.20424888 -0.36943656 -0.20379572
-0.25644293 -0.36503065 -0.20308675
-0.30735913 -0.36073318 -0.20238505
-0.35245815 -0.35708231 -0.19880696
-0.36711803 -0.35701162 -0.17642914
-0.37045741 -0.35829142 -0.14670122
-0.36010453 -0.36122566 -0.10768116
-0.3650493 -0.36234498 -0.078405596
-0.36400965 -0.3642 -0.044829562
-0.36223543 -0.36616263 -0.01039621
-0.36267328 -0.36787415 0.022843473
-0.36387879 -0.36950836 0.055855274
-0.35181811 -0.37279752 0.09885823
0.34931886 -0.44800475 -0.20176624
0.3102451 -0.44527164 -0.18678088
0.30170676 -0.44622338 -0.15616767
0.14775613 -0.42943653 -0.20334831
0.085153095 -0.4236953 -0.20338419
0.024218865 -0.4181065 -0.20343015
-0.035131048 -0.41266176 -0.20349586
-0.09293922 -0.40735787 -0.20357059
-0.14924707 -0.40219167 -0.20364314
-0.20387241 -0.39718789 -0.20357098
-0.2561273 -0.39243567 -0.20289502
-0.3071816 -0.38779026 -0.20227543
-0.35261527 -0.38381603 -0.19890569
-0.36719641 -0.38374996 -0.17647907
-0.36951587 -0.38525924 -0.14608867
-0.36892143 -0.38715944 -0.11351263
-0.37489033 -0.38822639 -0.085023798
-0.37307966 -0.39031836 -0.051031195
-0.3704333 -0.39254048 -0.016094247
-0.3702181 -0.39446434 0.017513063
-0.37095389 -0.39628148 0.050774865
-0.36006689 -0.39966285 0.092838809
0.34775046 -0.47702497 -0.23739581
0.30560037 -0.47370261 -0.22392409
0.30245456 -0.4754042 -0.19080468
0.30267155 -0.47755897 -0.15565997
0.14996649 -0.45973653 -0.20216328
0.087273926 -0.45357478 -0.20222647
0.026273482 -0.44757926 -0.20228793
-0.033159256 -0.44173592 -0.20237976
-0.091027789 -0.43604639 -0.20246889
-0.147376 -0.43050697 -0.20254581
-0.19434467 -0.42617649 -0.19788349
-0.19431907 -0.42815399 -0.16534995
-0.19429325 -0.43015033 -0.13250643
-0.1958212 -0.43195385 -0.10032568
-0.19618794 -0.43393379 -0.067116812
-0.21419118 -0.43350419 -0.045063853
-0.23950642 -0.43205857 -0.027915867
-0.27011675 -0.42986262 -0.014561089
-0.35933319 -0.41945598 -0.041632131
-0.38911098 -0.41729325 -0.029076608
-0.38315311 -0.42015198 0.0083742421
-0.38075718 -0.42253396 0.043735512
-0.37082037 -0.42601448 0.084991425
0.37493774 -0.50967956 -0.2586562
0.31461987 -0.50366968 -0.25387055
0.30228436 -0.50420761 -0.22560479
0.30511504 -0.50684655 -0.18943082
0.343528 -0.51445013 -0.13416034
0.15215912 -0.49007261 -0.20098782
0.089397192 -0.48349166 -0.20106703
0.028310757 -0.4770858 -0.20115504
-0.031166092 -0.47084796 -0.20125142
-0.08909598 -0.46477175 -0.2013555
-0.14552028 -0.45885345 -0.20145734
-0.19434467 -0.45396936 -0.19788349
-0.19431907 -0.45607868 -0.16534995
-0.19429325 -0.45820808 -0.13250643
-0.32320955 -0.44159874 -0.18041776
-0.35861158 -0.43850011 -0.17098907
-0.37767205 -0.43777195 -0.15139367
-0.38321254 -0.43903235 -0.12296509
-0.38012448 -0.44158474 -0.08854381
-0.26890337 -0.46027917 0.020198386
-0.31512508 -0.45557562 0.02234884
-0.39715829 -0.44543511 -0.0015205089
-0.39245373 -0.4483147 0.035336666
-0.38210779 -0.45208061 0.07675463
0.34990367 -0.53732735 -0.27086762
0.3029567 -0.53287143 -0.25967038
0.30175069 -0.53506231 -0.22587527
0.3435069 -0.54358238 -0.16960186
0.343528 -0.54602307 -0.13416034
0.15435486 -0.52044725 -0.19981119
0.091523275 -0.51344621 -0.19990647
0.030370101 -0.50663143 -0.2000102
-0.02918938 -0.49999282 -0.2001323
-0.087179735 -0.49352905 -0.2002514
-0.14364485 -0.48723602 -0.20035714
-0.19434467 -0.48176223 -0.19788349
-0.19431907 -0.48400342 -0.16534995
-0.33619413 -0.46443555 -0.22020622
-0.37326351 -0.46088129 -0.21188758
-0.38485035 -0.46125078 -0.18776901
-0.38463393 -0.46346599 -0.15592179
-0.38402507 -0.46576419 -0.12350232
-0.38422629 -0.4679572 -0.09130241
-0.38474452 -0.47012138 -0.059006959
-0.27784213 -0.48940215 0.048262939
-0.33529922 -0.48258767 0.042183321
-0.39994609 -0.47454989 0.029956587
-0.38815191 -0.47877911 0.07234405
0.34085435 -0.56700051 -0.27528191
0.30165058 -0.56346953 -0.26031974
0.30399713 -0.5663383 -0.22473672
0.34348401 -0.57500809 -0.1696136
0.343528 -0.57759601 -0.13416034
0.15655304 -0.55086064 -0.19863281
0.093671985 -0.54344159 -0.19873334
0.032412823 -0.53621066 -0.19887456
-0.027210305 -0.52917296 -0.19901213
-0.085243307 -0.52232361 -0.19913559
-0.14176689 -0.51565248 -0.19925551
-0.19432761 -0.50955784 -0.19787294
-0.32469267 -0.49079189 -0.24454509
-0.36634007 -0.48629874 -0.23883726
-0.38489541 -0.48554206 -0.21920097
-0.38341168 -0.48807365 -0.18684912
-0.38160115 -0.49068376 -0.15394928
-0.34311372 -0.49940941 -0.096443288
-0.37569547 -0.49636143 -0.085565381
-0.38264641 -0.49758136 -0.057572372
-0.38474515 -0.4996309 -0.026042031
-0.30160949 -0.51613396 0.065985531
-0.37997085 -0.50531787 0.044300139
-0.39338818 -0.50550097 0.068523012
0.34222811 -0.59820724 -0.27461183
0.30165058 -0.59425765 -0.26031974
0.30366328 -0.59723121 -0.22490573
0.3435069 -0.60644102 -0.16960186
0.343528 -0.60916895 -0.13416034
0.15877478 -0.58131635 -0.19744144
0.095783167 -0.57346833 -0.1975808
0.034477282 -0.56582952 -0.19772683
-0.025209859 -0.55839163 -0.19787967
-0.083322488 -0.5511499 -0.19802877
-0.13988702 -0.54410273 -0.19815281
-0.19432761 -0.53735089 -0.19787294
-0.3475222 -0.51363558 -0.25841269
-0.38149074 -0.51019454 -0.24820088
-0.38431063 -0.51210189 -0.21883328
-0.3327446 -0.52346861 -0.15444666
-0.3791233 -0.51786041 -0.15233748
-0.33265305 -0.52847219 -0.089524433
-0.37799829 -0.52301568 -0.087113976
-0.38106674 -0.52498853 -0.056492291
-0.38376272 -0.52704716 -0.025359085
-0.28860104 -0.54661757 0.07517603
-0.36101952 -0.53627962 0.057908244
-0.39863735 -0.53212094 0.064692706
0.36145562 -0.6324805 -0.26523286
0.30359903 -0.62537932 -0.25935084
0.30352962 -0.62815285 -0.22497348
0.38109311 -0.64436424 -0.15018925
0.343528 -0.64074188 -0.13416034
0.16097867 -0.61180758 -0.19626024
0.097917087 -0.60353607 -0.19641551
0.036524542 -0.59548175 -0.19658847
-0.02322595 -0.58764279 -0.19675665
-0.081381418 -0.58001405 -0.19691002
-0.13800465 -0.57258701 -0.19704878
-0.31263778 -0.54393262 -0.26849928
-0.36116987 -0.53772199 -0.26670286
-0.38495514 -0.53593117 -0.2503421
-0.38284773 -0.53883201 -0.21791349
-0.33271256 -0.55053675 -0.15442628
-0.37621951 -0.54516077 -0.15044886
-0.37268838 -0.54841119 -0.1160043
-0.37675282 -0.55028516 -0.086276345
-0.36159328 -0.55575901 -0.043177515
-0.3826367 -0.55450869 -0.024576509
-0.38465032 -0.55682641 0.0073165689
-0.35332406 -0.56547135 0.063434035
-0.39971989 -0.55943298 0.063902736
0.32266089 -0.65961111 -0.24987175
0.3020398 -0.65882725 -0.22572891
0.30214199 -0.66179574 -0.19096613
0.3059063 -0.66545868 -0.15395775
0.16318531 -0.6423378 -0.19507721
0.10003382 -0.63363796 -0.19526008
0.038594261 -0.62517405 -0.19543791
-0.021220524 -0.61693299 -0.19562149
-0.079456076 -0.60890955 -0.1958005
-0.13612023 -0.60110527 -0.19594333
-0.32018602 -0.56924415 -0.2730054
-0.36857077 -0.56274414 -0.27119833
-0.38495514 -0.56226355 -0.2503421
-0.33275786 -0.57487404 -0.18642092
-0.33272862 -0.57759637 -0.15443665
-0.37445265 -0.57229531 -0.14929986
-0.37435612 -0.57504457 -0.11710725
-0.30884829 -0.5905543 -0.04060892
-0.35686079 -0.58400857 -0.039941698
-0.38243032 -0.58181047 -0.024433097
-0.38468206 -0.58419728 0.007294016
-0.3524574 -0.59345287 0.064056493
-0.39960852 -0.58696264 0.06398388
0.31417489 -0.69205374 -0.21957839
0.30187386 -0.69281679 -0.19110464
0.30242482 -0.69604045 -0.15578981
0.16539498 -0.67290699 -0.19389276
0.10217316 -0.66378129 -0.19409207
0.040646892 -0.65489948 -0.19429655
-0.019231901 -0.64625549 -0.19449584
-0.077510104 -0.63784337 -0.19467922
-0.13423352 -0.62965769 -0.19483651
-0.31940907 -0.59606218 -0.27254152
-0.36957213 -0.58890092 -0.27180681
-0.38495514 -0.58859599 -0.2503421
-0.38207701 -0.59194106 -0.21742901
-0.37824923 -0.59550911 -0.18354757
-0.37382677 -0.59923184 -0.14889276
-0.37432453 -0.60199195 -0.11708642
-0.37656343 -0.60442394 -0.08614897
-0.37961206 -0.60671389 -0.055497646
-0.38258904 -0.60904098 -0.024543269
-0.38465032 -0.61158073 0.0073165689
-0.361231 -0.61944556 0.057756446
-0.39375564 -0.6156947 0.068254873
0.16760734 -0.70351529 -0.19270693
0.10429508 -0.69395864 -0.19293351
0.042701967 -0.68466151 -0.19315389
-0.017221639 -0.67561734 -0.19335784
-0.075561658 -0.66681224 -0.1935562
-0.13234437 -0.65824407 -0.19372885
-0.30858579 -0.62496543 -0.26608035
-0.36325952 -0.61655486 -0.26797235
-0.38495514 -0.61492836 -0.2503421
-0.38275525 -0.61828363 -0.21785538
-0.3327446 -0.6317181 -0.15444666
-0.37299678 -0.62622285 -0.14835288
-0.37572333 -0.62863648 -0.11801147
-0.34287617 -0.63865834 -0.063493602
-0.37726888 -0.63437182 -0.053895615
-0.38396871 -0.63600564 -0.025502218
-0.31995633 -0.65295607 0.053023424
-0.37868604 -0.64338452 0.045222674
-0.38442555 -0.64529777 0.075063325
0.36184484 -0.76396227 -0.19541772
0.31615534 -0.75791717 -0.18372847
0.29908407 -0.75777715 -0.15754767
0.16980171 -0.7341584 -0.19153076
0.10643972 -0.72417796 -0.19176267
0.04477933 -0.71446443 -0.19199899
-0.015227926 -0.70501137 -0.19222929
-0.073611133 -0.69581622 -0.19243222
-0.13045321 -0.68686479 -0.19261906
-0.18583187 -0.6781438 -0.19280159
-0.34758472 -0.64634627 -0.25845051
-0.3841742 -0.64143038 -0.24985935
-0.38415664 -0.64445609 -0.21873666
-0.37256965 -0.65004778 -0.17991544
-0.37775019 -0.651999 -0.15144458
-0.34957218 -0.66135478 -0.10071494
-0.3726933 -0.65938872 -0.0835464
-0.38266227 -0.66034377 -0.057583109
-0.3847293 -0.66308355 -0.026031068
-0.34332922 -0.6756646 0.036510192
-0.40114886 -0.66585726 0.029093061
-0.36429626 -0.67754078 0.089752331
0.36198255 -0.79543686 -0.1953477
0.29205278 -0.78390491 -0.19617695
0.22831564 -0.77361119 -0.19478756
0.16372719 -0.76303762 -0.19478676
0.10856698 -0.75443095 -0.19060111
0.04683933 -0.74430013 -0.19085379
-0.013213116 -0.73444533 -0.19108854
-0.071658239 -0.7248553 -0.19130665
-0.12855969 -0.71551973 -0.19150861
-0.18399565 -0.70642453 -0.19170524
-0.301265 -0.68332028 -0.23031379
-0.36963969 -0.67105812 -0.2408766
-0.38491067 -0.6707502 -0.21921059
-0.38406155 -0.67412138 -0.18726471
-0.38272142 -0.67763782 -0.15467787
-0.38263428 -0.68089938 -0.12258259
-0.38262472 -0.68417484 -0.090225309
-0.38477623 -0.686979 -0.059028588
-0.31880757 -0.70575309 0.019789241
-0.37111828 -0.69689476 0.016876936
-0.39931262 -0.69364852 0.030411549
0.29040998 -0.81452078 -0.19702548
0.22870323 -0.80427176 -0.19458339
0.16585392 -0.79366982 -0.19364674
0.10253675 -0.7828638 -0.1938936
0.040979378 -0.77236027 -0.19411162
-0.019023344 -0.76211649 -0.19437782
-0.069684342 -0.75393397 -0.19016911
-0.1266638 -0.74420893 -0.19039661
-0.18215674 -0.73473871 -0.1906077
-0.19430178 -0.73532975 -0.16533947
-0.19427587 -0.73879009 -0.13249579
-0.37046909 -0.7006231 -0.21013092
-0.384835 -0.70053118 -0.18775919
-0.38486695 -0.70385993 -0.15607324
-0.38483697 -0.70723569 -0.12403963
-0.38475969 -0.71065593 -0.091660999
-0.31611761 -0.73071599 -0.01208399
-0.36077058 -0.72339833 -0.0093780402
-0.40120924 -0.71703905 -0.0043825228
-0.38629761 -0.72422242 0.039756969
0.29069838 -0.84555876 -0.19687647
0.22797126 -0.83467674 -0.19496858
0.16773273 -0.8242808 -0.19263984
0.10467902 -0.81312346 -0.19272386
0.043113098 -0.80221629 -0.19292532
-0.016918162 -0.791574 -0.1931859
-0.075488292 -0.78118271 -0.19351402
-0.13227308 -0.77112401 -0.19368677
-0.18773539 -0.76129067 -0.19393799
-0.20518106 -0.76060897 -0.17194813
-0.22145118 -0.76020813 -0.14929093
-0.23733042 -0.75989932 -0.12642348
-0.2526558 -0.75972426 -0.10322876
-0.2679573 -0.75955337 -0.080033988
-0.29245284 -0.75709093 -0.062935367
-0.33016634 -0.75129598 -0.054945879
-0.36983427 -0.74495274 -0.048812166
-0.4006424 -0.74078649 -0.03709162
-0.39032319 -0.74702555 0.0033085365
-0.36342415 -0.75755888 0.056181706
0.29411927 -0.87735927 -0.19510962
0.22805753 -0.86526775 -0.1949233
0.16961351 -0.85492498 -0.19163164
0.10686494 -0.84343129 -0.19153048
0.045249909 -0.83211058 -0.19173741
-0.014829079 -0.82106471 -0.19200343
-0.073482208 -0.81027043 -0.19235803
-0.13043532 -0.79979944 -0.1926087
-0.18650723 -0.78945106 -0.19320448
-0.24230422 -0.77907389 -0.19449823
-0.29382163 -0.76968241 -0.19401845
-0.34411281 -0.76051331 -0.19355996
-0.35905224 -0.76029986 -0.1712708
-0.37309077 -0.76031601 -0.14841406
-0.38365006 -0.76123095 -0.12325457
-0.3897396 -0.76331496 -0.095010184
-0.39349872 -0.76602727 -0.064992554
-0.38119233 -0.77297741 -0.023572428
-0.360506 -0.78220356 0.02437461
0.22891842 -0.89605534 -0.19447024
0.1696344 -0.88513172 -0.19162032
0.10826278 -0.87357736 -0.19076724
0.047389273 -0.8620432 -0.19054803
-0.012756341 -0.85058832 -0.19083005
-0.071418501 -0.83940858 -0.19116856
-0.12863095 -0.82849902 -0.19155069
-0.18527773 -0.81763375 -0.19247065
-0.24341066 -0.80627745 -0.19517052
-0.29393557 -0.79680961 -0.194089
-0.34351146 -0.78750145 -0.19318193
-0.37157139 -0.78380483 -0.17927723
-0.36704889 -0.78874719 -0.14448418
-0.36887398 -0.79203922 -0.11348137
-0.36776581 -0.796152 -0.080232389
-0.36108059 -0.80181158 -0.042826742
-0.34781444 -0.80931354 -0.00037254579
0.22848804 -0.9265216 -0.19469692
0.16969733 -0.91534984 -0.19158675
0.10838461 -0.90341252 -0.19070086
0.047644567 -0.89151603 -0.19040613
-0.011747631 -0.87986624 -0.1902591
-0.069702439 -0.8684907 -0.19017984
-0.12684262 -0.85722655 -0.1905015
-0.18404748 -0.84583873 -0.19173618
-0.24403054 -0.83359247 -0.19554703
-0.29374009 -0.82401872 -0.19396809
-0.34382808 -0.81425029 -0.19338097
-0.34079626 -0.81894779 -0.15959592
-0.3480877 -0.82084745 -0.13215159
-0.34078297 -0.82680511 -0.094901614
-0.3366971 -0.83192563 -0.059337988
-0.32874882 -0.83817577 -0.02072035
0.16679309 -0.94476718 -0.19314353
0.10846561 -0.93323886 -0.19065659
0.047801673 -0.92096663 -0.19031873
-0.01161444 -0.90892226 -0.19018365
-0.069573343 -0.89716655 -0.19010527
-0.12657431 -0.88556552 -0.19034402
-0.18389146 -0.87376726 -0.19164324
-0.24386294 -0.86111617 -0.19544514
-0.2921268 -0.85162914 -0.19297117
-0.32894281 -0.84527832 -0.18402217
-0.28883606 -0.86065334 -0.12636647
-0.3059155 -0.85990173 -0.10472245
-0.31083474 -0.86262035 -0.0750935
-0.30343747 -0.86890495 -0.036970161
0.10314271 -0.96155214 -0.19356266
0.045995437 -0.94986719 -0.19132285
-0.011462248 -0.93798596 -0.19009745
-0.069462791 -0.9258393 -0.19004147
-0.12648496 -0.91385823 -0.19029167
-0.18370079 -0.9017086 -0.19152924
-0.24238792 -0.88901973 -0.19454931
-0.29160503 -0.87895274 -0.19264862
-0.28230059 -0.88581741 -0.15469721
-0.28107882 -0.89038491 -0.12140567
-0.28097787 -0.89466709 -0.088502727
-0.26883808 -0.90254492 -0.047316328
-0.01735446 -0.96528912 -0.193433
-0.072266385 -0.95366007 -0.19165696
-0.12773725 -0.9417575 -0.19102611
-0.18491399 -0.9292379 -0.19225366
-0.240962 -0.91693532 -0.19368306
-0.23713677 -0.922396 -0.15898532
0.32470044 0.8999629 -0.049797177
0.29033265 0.90601563 -0.060084559
0.24011871 0.91681075 -0.060502954
0.1932683 0.92648798 -0.063848995
0.13701364 0.93889451 -0.061975218
0.31346977 0.8888731 0.05915346
0.33812916 0.87706584 0.0078815799
0.34706363 0.87006158 -0.031745501
0.34506628 0.86636865 -0.063493639
0.33763862 0.86431444 -0.091373459
0.31963167 0.86538804 -0.11221903
0.29962933 0.86703473 -0.13186862
0.23753156 0.88091415 -0.12517306
0.18009046 0.89331311 -0.1223753
0.11990038 0.90638685 -0.11881437
0.050821394 0.92188716 -0.11089862
0.35339162 0.84916306 0.030948151
0.36059135 0.84284878 -0.0077311527
0.36173165 0.8383463 -0.041774698
0.35584176 0.83590788 -0.070740536
0.34567288 0.83471686 -0.096687429
0.3373979 0.83299828 -0.12377458
0.32712883 0.83186108 -0.14945495
0.25750402 0.84746575 -0.13773006
0.16543972 0.86921704 -0.1133207
0.11097325 0.88026464 -0.11339165
0.057132926 0.89103425 -0.11466632
0.0046805022 0.90131879 -0.11756044
-0.055054806 0.91351229 -0.11702333
0.3504048 0.82644761 0.067102745
0.37087956 0.81653565 0.018592844
0.37602681 0.81102586 -0.018459914
0.37372732 0.80765104 -0.049976483
0.36553693 0.80594748 -0.077260651
0.35479721 0.80496585 -0.10272246
0.34711993 0.8031503 -0.13009791
0.34038696 0.80109346 -0.15793362
0.29626745 0.80925459 -0.16210158
-0.12902346 0.92082095 0.06866771
-0.15889783 0.92448896 0.050540611
-0.1755856 0.92457604 0.024256876
-0.18577641 0.92292339 -0.0058447681
-0.063330382 0.88594949 -0.11225421
-0.11162295 0.89459538 -0.11918215
0.37380579 0.79217392 0.05029951
0.38948074 0.78393352 0.0054509714
0.3889457 0.78017503 -0.027439503
0.38469413 0.77745724 -0.05747506
0.37802744 0.77541524 -0.085660636
0.36999035 0.7737596 -0.11277138
0.36369285 0.77165687 -0.14087708
0.3532424 0.77067465 -0.16615492
0.31503046 0.77702236 -0.17389825
-0.16586113 0.89948505 0.091434442
-0.20960921 0.90660876 0.08134485
-0.2393364 0.91002035 0.062313296
-0.25915614 0.9108364 0.037197687
-0.26819631 0.90886867 0.0058051124
-0.28715408 0.90946162 -0.019817499
-0.1772266 0.87716353 -0.11714409
-0.22752856 0.8858577 -0.12445665
0.39739424 0.75829309 0.033361502
0.40190294 0.75330907 -0.0033253077
0.39963213 0.75015116 -0.034867316
0.39374447 0.7479676 -0.063663192
0.38629043 0.74621183 -0.091217734
0.36470565 0.74812317 -0.10927612
0.35201287 0.74773026 -0.13328031
0.34024325 0.74710506 -0.15784173
0.31891912 0.74891829 -0.17634329
0.11311477 0.7974593 -0.080981992
0.028505988 0.81497657 -0.063297056
-0.2684736 0.88563359 0.079706892
-0.29998001 0.88930684 0.061143517
-0.31291616 0.88832814 0.031575941
-0.31724352 0.88522792 -0.0027847681
-0.32670534 0.8834213 -0.034037463
-0.32328466 0.87847209 -0.072177254
-0.27080339 0.86159277 -0.13621508
0.39095119 0.73622984 0.071899518
0.41083354 0.72744906 0.023711229
0.40761149 0.72462368 -0.0073585231
0.37532422 0.72917247 -0.017971775
0.34727404 0.73261106 -0.031889439
0.38920671 0.71850002 -0.093179122
0.39296219 0.71403486 -0.12796514
0.25831878 0.7439186 -0.072340682
-0.14563113 0.83994907 0.1528821
-0.1804838 0.84444588 0.13764282
0.19174744 0.74943417 -0.12957971
0.11084557 0.76551533 -0.113314
0.026535636 0.78226984 -0.096400976
-0.061400685 0.79974067 -0.078799397
-0.15349625 0.81804574 -0.060293756
-0.33796671 0.85822684 0.0089462288
-0.34168175 0.8550967 -0.025711065
-0.33790898 0.85022467 -0.064192772
-0.24926864 0.82542133 -0.14775865
0.41288075 0.70320076 0.055896863
0.41003072 0.70036 0.02428779
0.36910784 0.70685977 0.019844538
0.39227974 0.69769531 -0.029757077
0.39817816 0.69280446 -0.066694744
0.39754671 0.68953496 -0.09878809
0.39752579 0.68615067 -0.13098367
0.39807567 0.6826629 -0.16324008
0.39628708 0.67976421 -0.1936824
0.35642463 0.68589431 -0.19992384
0.21024252 0.71698177 -0.14101025
0.15617959 0.72620296 -0.14085208
0.1007627 0.73565286 -0.14071161
0.024619576 0.74982208 -0.12925607
-0.063009575 0.76651108 -0.112439
-0.15476808 0.78399384 -0.094758555
-0.25060225 0.80224735 -0.076349065
-0.35178962 0.82155168 -0.056614511
-0.33689085 0.81436688 -0.10078914
-0.27509943 0.79666728 -0.16901672
0.38910159 0.68491375 0.10752311
0.41338593 0.67567754 0.055527881
0.38435808 0.67913389 0.042722259
0.34955868 0.68391365 0.033656295
0.39773092 0.6692282 -0.033545688
0.39584553 0.66634429 -0.065099679
0.38881496 0.6646809 -0.092915669
0.38811928 0.66157269 -0.12476199
0.39593112 0.65654182 -0.16184525
0.39791447 0.65289062 -0.19472328
0.39236856 0.6509859 -0.22252259
0.34689164 0.65813321 -0.22546412
0.15617959 0.69791508 -0.14085208
0.1007627 0.70700145 -0.14071161
0.043865617 0.71633279 -0.14054531
-0.014455759 0.72589314 -0.14041947
-0.074394763 0.73572218 -0.14025621
-0.15602891 0.75023228 -0.12892957
-0.36627001 0.79276693 -0.048708729
-0.35629508 0.78691703 -0.09038768
-0.2702378 0.76461452 -0.17157477
0.40620124 0.65322685 0.094843082
0.41210657 0.64857084 0.056461632
0.36694476 0.65554845 0.055226199
0.39825866 0.64519018 -0.00075057521
0.39579532 0.64252251 -0.032200478
0.37838098 0.64322376 -0.053158462
0.34154311 0.64823943 -0.061124235
0.39209127 0.63385898 -0.12738921
0.23586148 0.6651777 -0.057734057
0.39590269 0.62684476 -0.19343688
0.39793783 0.6233598 -0.2260242
0.37144271 0.6261043 -0.24063735
0.15617959 0.66962719 -0.14085208
0.1007627 0.67835003 -0.14071161
0.043865617 0.68730813 -0.14054531
-0.014455759 0.69648612 -0.14041947
-0.074394763 0.70592195 -0.14025621
-0.13602011 0.7156266 -0.14005394
-0.19919153 0.7255668 -0.13992789
-0.33365032 0.75033116 -0.1025263
-0.35359165 0.75101876 -0.12771244
0.41329607 0.62406397 0.089582197
0.40685061 0.62230891 0.06029699
0.35556284 0.6303221 0.063399099
0.39693114 0.61820763 0.00018722937
0.38544512 0.61759245 -0.025006237
0.3912476 0.61327922 -0.061955906
0.34617969 0.61985409 -0.064242378
0.38939762 0.60763288 -0.12560752
0.34609815 0.61379826 -0.12943314
0.38711762 0.60218555 -0.18781854
0.39798379 0.59699005 -0.22605304
0.38337332 0.59714657 -0.24801107
0.33114755 0.6050939 -0.24713548
0.1007627 0.64969867 -0.14071161
0.043865617 0.65828347 -0.14054531
-0.014455759 0.66707903 -0.14041947
-0.074394763 0.67612171 -0.14025621
-0.13602011 0.685422 -0.14005394
-0.19919153 0.69494808 -0.13992789
-0.28610346 0.70914698 -0.12801352
-0.29344812 0.70733535 -0.15936095
0.41366097 0.59645051 0.089311831
0.39505044 0.59731495 0.068908028
0.39822003 0.59364069 0.032768488
0.39615619 0.59108579 0.00073470548
0.37650558 0.59217805 -0.018792709
0.33013579 0.59873551 -0.020171462
0.38770232 0.58403206 -0.092167348
0.38761997 0.58117127 -0.12443184
0.38991255 0.57785839 -0.15793057
0.34608963 0.58384669 -0.16158056
0.39799905 0.57062727 -0.22606261
0.38613427 0.57023042 -0.24971734
0.33792385 0.57703912 -0.25125179
0.1007627 0.62104726 -0.14071161
0.043865617 0.62925887 -0.14054531
-0.014455759 0.63767201 -0.14041947
-0.074394763 0.64632148 -0.14025621
-0.13602011 0.65521747 -0.14005394
-0.19919153 0.66432935 -0.13992789
-0.28639415 0.67796665 -0.1278578
-0.28713295 0.6749723 -0.16268425
-0.28622419 0.67169201 -0.19805634
-0.33106562 0.67709678 -0.20990746
0.4137722 0.56889492 0.089229278
0.38783729 0.5711816 0.074171744
0.39822003 0.56623501 0.032768488
0.39615619 0.56379628 0.00073470548
