ply
format ascii 1.0
comment PCL generated
element vertex 675
property float x
property float y
property float z
element camera 1
property float view_px
property float view_py
property float view_pz
property float x_axisx
property float x_axisy
property float x_axisz
property float y_axisx
property float y_axisy
property float y_axisz
property float z_axisx
property float z_axisy
property float z_axisz
property float focal
property float scalex
property float scaley
property float centerx
property float centery
property int viewportx
property int viewporty
property float k1
property float k2
end_header
-0.27716705 0.064188316 -0.59019184
-0.24869978 0.11921133 -0.5869751
-0.24351692 0.19233307 -0.58960009
-0.24450514 0.26915175 -0.58853149
-0.27071485 0.34761599 -0.58809614
-0.30132213 -0.08650928 -0.51970387
-0.26806909 -0.079866603 -0.50988245
-0.28762794 -0.033581775 -0.5468235
-0.23622221 -0.025533304 -0.53014612
-0.27992716 0.023881456 -0.57132053
-0.24019805 0.04247399 -0.56284809
-0.1733934 0.04488809 -0.52655506
-0.22240043 0.10925939 -0.5752058
-0.17048165 0.11662703 -0.5451827
-0.1177788 0.12427638 -0.51233244
-0.2177515 0.20656197 -0.5799427
-0.16946101 0.1982118 -0.55508089
-0.10498808 0.20110285 -0.51568079
-0.22316921 0.29316741 -0.57717991
-0.17258397 0.27600929 -0.55328512
-0.11139768 0.27410859 -0.51377058
-0.24133575 0.35653955 -0.57187986
-0.16855568 0.34863874 -0.53540516
-0.12234064 0.33729994 -0.50774431
-0.28082588 0.43234909 -0.56517649
-0.23224482 0.42536783 -0.54493046
-0.17015216 0.41256019 -0.51581526
-0.2934362 0.50324935 -0.53532028
-0.24600968 0.49325052 -0.51870918
-0.30971408 0.54540348 -0.51016474
-0.36256871 -0.20998777 -0.44420528
-0.32118893 -0.18546256 -0.45278502
-0.26703492 -0.16754915 -0.43996525
-0.30576032 -0.12949766 -0.49032211
-0.24178994 -0.11291882 -0.47014618
-0.17070696 -0.094227999 -0.44076729
-0.20764703 -0.059444506 -0.49160433
-0.15443495 -0.035565965 -0.47290754
-0.089686818 -0.020271463 -0.44483948
-0.15108839 0.010484726 -0.49777985
-0.093094684 0.04564853 -0.47840834
-0.037252165 0.051617347 -0.4387722
-0.079880051 0.11608997 -0.49040079
-0.022593863 0.12361748 -0.44918776
-0.067485653 0.20258224 -0.4955101
-0.020415016 0.19497147 -0.45412731
-0.071102656 0.27613178 -0.49352455
-0.020644672 0.26991779 -0.44926786
-0.085268147 0.35286185 -0.48650646
-0.033068143 0.35106432 -0.44556808
-0.15530512 0.44799098 -0.48973942
-0.091092743 0.42525342 -0.46620369
-0.042930283 0.41080782 -0.43291473
-0.22446546 0.51987988 -0.49094343
-0.16115698 0.50166208 -0.4588685
-0.096138142 0.48498085 -0.43797731
-0.31251723 0.58012122 -0.47271776
-0.24755326 0.57292676 -0.45790768
-0.19287911 0.5606637 -0.43391705
-0.36036256 0.64099574 -0.457232
-0.32059085 0.62373209 -0.43937635
-0.38833678 -0.25789425 -0.3891449
-0.32232162 -0.24553722 -0.38738251
-0.26647797 -0.23823385 -0.3627615
-0.28877831 -0.20527361 -0.41232967
-0.23841733 -0.19523834 -0.38971472
-0.17448187 -0.17939949 -0.36678219
-0.21523553 -0.14692512 -0.42588615
-0.15537566 -0.13142708 -0.40157461
-0.093836673 -0.10797732 -0.38622713
-0.035921372 -0.08453685 -0.35820961
-0.073024474 -0.054153576 -0.40904284
-0.013796009 -0.031863738 -0.3789258
0.041196108 0.003510213 -0.36274767
-0.0031903684 0.035959452 -0.40590477
0.060592532 0.050086506 -0.36904383
0.016576685 0.11561909 -0.41663694
0.063618407 0.12332851 -0.38678265
0.10712668 0.13548549 -0.35984755
0.021033108 0.19721948 -0.42165422
0.063730963 0.19911598 -0.39429903
0.10712668 0.20123766 -0.36382914
0.020939641 0.27285555 -0.41861916
0.06368044 0.27554023 -0.39078665
0.10712668 0.27852228 -0.35979271
0.010034189 0.3488571 -0.41400957
0.063474357 0.35341015 -0.37708139
0.10712668 0.33458117 -0.35046577
-0.0075532272 0.43015295 -0.39653492
0.050015178 0.41663414 -0.36324883
-0.14056543 0.53117365 -0.41998339
-0.078929029 0.50992364 -0.40650415
-0.031510331 0.49983251 -0.37341928
-0.22780132 0.6085903 -0.41040182
-0.16052783 0.5917564 -0.37923145
-0.097112857 0.56535029 -0.37426615
-0.37722492 0.68600607 -0.35766411
-0.30891156 0.64921045 -0.40303135
-0.24738613 0.64175278 -0.38318682
-0.42047325 0.70697683 -0.36190605
-0.45487592 -0.3112109 -0.29737329
-0.4002479 -0.31223738 -0.28785181
-0.37978774 -0.28423893 -0.34226179
-0.31225899 -0.28173098 -0.31205893
-0.23469844 -0.2553795 -0.31183672
-0.1780301 -0.25166515 -0.29326391
-0.20281932 -0.21787986 -0.34168386
-0.15516669 -0.20994082 -0.32977581
-0.086142503 -0.17974615 -0.30967283
-0.016841695 -0.15431221 -0.28880548
-0.055216603 -0.12196298 -0.34169531
-0.0017556176 -0.1110801 -0.31479549
0.056462906 -0.092303984 -0.28909063
0.018401109 -0.063033976 -0.33617735
0.062632486 -0.036693577 -0.32312346
0.12124051 -0.021909311 -0.29024935
0.084947668 0.014580084 -0.33648682
0.14088169 0.048257615 -0.30840206
0.19777013 0.071492679 -0.27389145
0.14732005 0.11261747 -0.3248415
0.20306557 0.12199552 -0.28576326
0.1516401 0.19235127 -0.33159924
0.20861733 0.19515042 -0.28878498
0.15170529 0.27048287 -0.32765436
0.20871592 0.27434027 -0.28591347
0.14555261 0.35298371 -0.31581306
0.19745617 0.33096835 -0.28408813
0.079428583 0.43022618 -0.33823586
0.13221186 0.4255262 -0.29818058
0.0036652908 0.52100015 -0.33680725
0.060194515 0.50055248 -0.30974197
0.1146794 0.4857806 -0.28101015
-0.063921921 0.59117627 -0.31900263
-0.0095680729 0.57378924 -0.30124807
0.050505813 0.55837518 -0.27563286
-0.35684258 0.68841708 -0.34755802
-0.32553598 0.69137889 -0.33514738
-0.22627851 0.67046392 -0.32963085
-0.16033551 0.66123104 -0.32166195
-0.099822573 0.63591868 -0.30940247
-0.20998502 0.70568651 -0.27519369
-0.46698168 -0.34095258 -0.23448992
-0.40079734 -0.34283212 -0.2182107
-0.32884091 -0.31783286 -0.23593187
-0.24699041 -0.293587 -0.24884987
-0.14560103 -0.26662031 -0.23198795
-0.099967636 -0.24971664 -0.22715569
-0.069866858 -0.21923949 -0.25004959
-0.0074547604 -0.19141905 -0.24025631
0.056474637 -0.1670534 -0.22399378
0.066154882 -0.12414223 -0.25685453
0.13283609 -0.10668531 -0.22272635
0.16143441 -0.039417326 -0.24904442
0.21275726 -0.026265759 -0.21711111
0.22423865 0.041631177 -0.24277544
0.27512306 0.055616092 -0.20775986
0.23469475 0.11282101 -0.25904226
0.285157 0.12214705 -0.2208581
0.24365997 0.19692984 -0.26159191
0.28937513 0.19610137 -0.22586393
0.2437816 0.27683359 -0.25895929
0.29187375 0.27274412 -0.2194171
0.22777197 0.34898347 -0.2541256
0.27814978 0.34551099 -0.21592522
0.16790652 0.4515872 -0.25798941
0.21986902 0.42198163 -0.23115158
0.26961389 0.39812201 -0.20223713
0.14735103 0.51105726 -0.23772955
0.21133152 0.47819287 -0.20963621
-0.006700635 0.6106655 -0.25995874
0.068815768 0.58615696 -0.23036861
0.11483911 0.56538367 -0.21820831
-0.069637708 0.6594947 -0.25371599
-0.0082440898 0.64975572 -0.21965885
0.037728272 0.62809545 -0.21258497
-0.46541145 0.70547611 -0.24359274
-0.41542098 0.70781356 -0.2662797
-0.23535687 0.71130955 -0.25163031
-0.12496486 0.69978476 -0.20266724
-0.10201705 0.700656 -0.19889498
-0.27442935 -0.61651838 -0.1197753
-0.37583187 -0.55071318 -0.13221264
-0.3170754 -0.56316561 -0.13459539
-0.27445832 -0.5807873 -0.11954021
-0.38960713 -0.49316952 -0.14544058
-0.3187139 -0.49340063 -0.14381409
-0.43844643 -0.43536532 -0.13623238
-0.38956922 -0.41588482 -0.17420435
-0.31813478 -0.42183912 -0.14799404
-0.27443555 -0.40189946 -0.1197257
-0.5419516 -0.36237442 -0.1519618
-0.4575142 -0.37291697 -0.16141558
-0.38723582 -0.36495361 -0.18828058
-0.31288251 -0.35610944 -0.16205359
-0.25653124 -0.34137452 -0.14990854
-0.1313872 -0.3065578 -0.11923838
-0.174793 -0.30204323 -0.1643486
-0.075561859 -0.27356526 -0.15504122
-0.0058314428 -0.24610569 -0.15943813
0.048013277 -0.23312026 -0.14370394
0.066187054 -0.20152538 -0.17396402
0.13377139 -0.17656282 -0.15110064
0.16958602 -0.12920353 -0.17577744
0.2223779 -0.11174766 -0.14846277
0.27406377 -0.091882288 -0.11965847
0.24166483 -0.049185824 -0.17830706
0.29325849 -0.026070381 -0.14793825
0.34547263 0.0035099827 -0.12141991
0.30232418 0.03864063 -0.17554331
0.35371593 0.055644419 -0.13796091
0.31690699 0.10838485 -0.1897068
0.36387783 0.12445151 -0.15190029
0.36624497 0.19187053 -0.15900993
0.31652352 0.30597243 -0.19524097
0.36445138 0.27143139 -0.15480757
0.3115229 0.35972327 -0.18342781
0.36092961 0.35197875 -0.1412549
0.29836509 0.42992824 -0.16176033
0.34443444 0.40693346 -0.13490582
0.17701095 0.53928977 -0.19154692
0.22779933 0.50950497 -0.17073631
0.28063262 0.48451623 -0.14468527
0.1474762 0.59039652 -0.16805029
0.22578263 0.55691797 -0.13650799
-0.5435226 0.6896342 -0.14417171
-0.49831453 0.69207627 -0.13323259
-0.010332331 0.68477237 -0.16594934
0.060212065 0.64860255 -0.17060328
0.13097522 0.63341731 -0.12961292
-0.52306241 0.70372033 -0.18562603
-0.46454576 0.70354706 -0.18637562
-0.43259141 0.70749044 -0.16930103
-0.079798199 0.70447856 -0.18234253
-0.29594502 -0.71406096 -0.075745106
-0.23546964 -0.72114742 -0.06695509
-0.16030404 -0.72597051 -0.059179306
-0.10631556 -0.73443455 -0.048720837
-0.37155581 -0.61877704 -0.10849047
-0.3211306 -0.64044011 -0.10524082
-0.23802614 -0.6475789 -0.095729351
-0.16764188 -0.65923244 -0.067819595
-0.38354096 -0.58285981 -0.10848379
-0.34685898 -0.59383923 -0.11370516
-0.23472977 -0.57202667 -0.089209557
-0.18534967 -0.60581559 -0.051475048
-0.45504501 -0.47491196 -0.11018229
-0.24870598 -0.50188363 -0.077476978
-0.59809166 -0.40982756 -0.058640003
-0.52801645 -0.40393203 -0.10419559
-0.48034623 -0.4520486 -0.10294914
-0.24324486 -0.42184949 -0.089640617
-0.17706257 -0.39438328 -0.053126812
-0.53787428 -0.37871242 -0.11436224
-0.22885618 -0.36052209 -0.099678993
-0.16502118 -0.34649032 -0.06035614
-0.098830752 -0.31159326 -0.068919182
-0.013662465 -0.28678083 -0.075129509
0.064854614 -0.25647718 -0.076561928
0.11929359 -0.23889637 -0.068671703
0.16145167 -0.20752539 -0.084954739
0.22331718 -0.17555259 -0.07516098
0.25134069 -0.14070372 -0.095299721
0.30077937 -0.11347879 -0.074154377
0.35132617 -0.094169483 -0.045380116
0.31479046 -0.060388859 -0.10533047
0.37023377 -0.026760895 -0.075485706
0.38927242 0.045499336 -0.098540306
0.42882365 0.058103096 -0.063892365
0.39348605 0.098963007 -0.11769295
0.44268525 0.1274067 -0.077097893
0.44537777 0.19672358 -0.080309391
0.44580635 0.26952046 -0.07630682
0.39467657 0.36300698 -0.10480547
0.43958229 0.339358 -0.069391727
0.37220767 0.43715763 -0.088165283
0.42380726 0.40547517 -0.053161621
0.30776343 0.51697546 -0.09125948
0.35832348 0.49777755 -0.060040474
0.23255339 0.59646022 -0.086709976
0.28502446 0.5694837 -0.066854
-0.59639966 0.65851736 -0.06621933
-0.54960209 0.6698392 -0.081120491
-0.47379473 0.68727076 -0.073065281
-0.43081042 0.68815726 -0.041256428
0.083134241 0.67529845 -0.10091591
0.1552103 0.64041525 -0.095460415
0.20422098 0.63462335 -0.064393997
-0.44492194 0.69957167 -0.099658489
-0.42142418 0.7002365 -0.096680164
-0.23223743 0.70647883 -0.068718433
-0.067873888 -0.84649253 0.029981136
-0.042813368 -0.84614992 0.028672695
0.032065049 -0.84718841 0.03263998
-0.21229246 -0.78275245 -0.025796413
-0.16200629 -0.81022209 -0.0025725365
-0.097957335 -0.8097356 -0.0028891563
-0.011386842 -0.80724597 0.0064034462
0.032392979 -0.81856036 0.018439293
-0.21080357 -0.75463128 -0.04067421
-0.07336437 -0.72264796 -0.019566536
-0.031425633 -0.73546988 0.013439655
-0.14642081 -0.64266038 -0.029920101
-0.10241681 -0.67455286 -0.014391899
-0.16376212 -0.56651801 -0.017628193
-0.11770678 -0.54608279 0.02756691
-0.21261206 -0.48829797 -0.022603035
-0.1678029 -0.49685499 0.00072574615
-0.11762477 -0.50841075 0.0263834
-0.62013036 -0.40323153 -0.015215874
-0.54275388 -0.43263009 -0.01099968
-0.49107125 -0.44513834 0.020217419
-0.21102449 -0.43700668 -0.038466454
-0.1563839 -0.42480883 -0.0083303452
-0.096360005 -0.40360904 0.0068774223
-0.62357235 -0.34312126 -8.4877014e-05
-0.13788971 -0.36401418 -0.034768105
-0.086855404 -0.34931317 -0.0095624924
-0.03611248 -0.33907002 0.01851511
0.045193598 -0.29410431 0.0041484833
0.14422841 -0.25615093 -0.005510807
0.23067233 -0.2106216 -0.0082564354
0.29948452 -0.17636566 0.004887104
0.31601834 -0.14390613 -0.025962353
0.37524068 -0.11566906 0.0069179535
0.39405385 -0.062076125 -0.023205757
0.44765005 -0.02847225 0.0075392723
0.45956844 0.040394139 -0.024016857
0.51234037 0.059588086 0.021492481
0.47423646 0.10140646 -0.038360596
0.51572645 0.1272701 -0.001203537
0.52904588 0.20198636 0.0052857399
0.52111375 0.27232993 -0.0009469986
0.47586054 0.35997728 -0.02429533
0.51453716 0.34631339 0.0090689659
0.456853 0.42310727 -0.011365891
0.50699401 0.40337759 0.028893948
0.39703673 0.50321972 -0.012586594
0.43894535 0.48460796 0.014826775
-0.62804294 0.60162592 0.01977253
0.32145432 0.5887199 -0.0056495667
0.36332029 0.5571835 0.0026688576
-0.61592871 0.62789518 -0.01564312
-0.55392414 0.64331371 -0.0029039383
-0.47583154 0.66503149 0.0052504539
0.23123895 0.64889401 0.0069065094
0.28099564 0.62447053 0.0089812279
-0.081715368 -0.87777418 0.053295612
-0.019162394 -0.89074105 0.063734055
0.056423172 -0.88434285 0.07741785
0.10712668 -0.86806434 0.11240101
-0.07160946 -0.8391028 0.099304676
0.0598852 -0.80113298 0.061686993
0.11736898 -0.81933278 0.10201359
-0.0019136071 -0.72610605 0.05080986
0.056479704 -0.7578392 0.079115391
-0.081150778 -0.54875457 0.043344498
-0.043803863 -0.54990149 0.050117493
-0.086669885 -0.49539652 0.046331406
-0.019781448 -0.50433064 0.081428528
0.030470505 -0.52028286 0.10168457
-0.53291208 -0.4091011 0.064301491
-0.49721709 -0.42456663 0.053481579
-0.088369824 -0.44441164 0.060474396
-0.027013086 -0.42445871 0.07941246
0.030724905 -0.40396595 0.090669632
-0.67614424 -0.33754662 0.064629555
-0.60399538 -0.36467913 0.081570625
-0.0034588203 -0.35345489 0.04779768
0.05637623 -0.35234866 0.084166527
-0.69844282 -0.29055271 0.10438538
-0.66176647 -0.25278756 0.11178017
0.081973024 -0.29833364 0.049931526
0.13239004 -0.28815863 0.076527119
0.22116628 -0.24970078 0.071681499
0.25797617 -0.222764 0.048363209
0.31042087 -0.20825103 0.083082676
0.3604655 -0.17382681 0.073343754
0.40218452 -0.13982818 0.067370892
0.44525683 -0.10640571 0.076417446
0.47973326 -0.053417914 0.063831806
0.5274545 -0.021992156 0.09143734
0.54543877 0.041446265 0.066737652
0.59256333 0.080157988 0.10132647
0.55935133 0.12908098 0.04602623
0.60138977 0.13597432 0.091617107
0.60294718 0.20689254 0.084949017
0.55827487 0.29175019 0.038257599
0.60035384 0.2780343 0.084614754
0.55488491 0.36299542 0.059140205
0.59108156 0.34740332 0.091195107
0.48316154 0.45475224 0.038933277
0.53361928 0.42990112 0.079534054
-0.68268007 0.52577221 0.092017651
-0.65147579 0.53196603 0.10419321
0.46698546 0.51534307 0.07393074
0.51646179 0.48959529 0.10576296
-0.67350876 0.57005769 0.053585529
-0.62257826 0.57782835 0.067429543
-0.55891323 0.60345751 0.084925175
-0.49386075 0.61730796 0.10465336
0.38486856 0.58434957 0.062757015
-0.53456235 0.63263923 0.051426411
-0.46810445 0.64191782 0.067032337
-0.42273197 0.65952551 0.060025692
-0.022120871 -0.92707217 0.14032555
0.055776451 -0.94682139 0.11890793
0.12797469 -0.941594 0.15528107
0.18559447 -0.93810344 0.18013048
0.08148317 -0.91965598 0.11356449
0.13834476 -0.89388716 0.15157795
0.19801849 -0.85312462 0.15450048
0.15348068 -0.80481541 0.12660551
0.21112907 -0.80197161 0.15779924
0.26425871 -0.80832177 0.18438435
0.11998198 -0.76708847 0.1191659
0.23809776 -0.75612229 0.18510485
0.081316426 -0.53850484 0.13522625
0.02970136 -0.46104172 0.13499069
0.062020671 -0.49304089 0.13382244
0.1332361 -0.49132657 0.16599703
0.18559767 -0.5065136 0.18026972
0.012668453 -0.44313541 0.12989473
0.068299204 -0.42406645 0.14824486
0.12454921 -0.40919277 0.16765499
-0.61324179 -0.31778952 0.14869928
-0.55653268 -0.33007592 0.15412569
0.13671035 -0.33934239 0.13482809
0.1959317 -0.33069623 0.17412281
-0.69434404 -0.25126639 0.14108944
-0.63988137 -0.27436882 0.16803885
-0.53268003 -0.27066782 0.17466402
-0.49234393 -0.28319311 0.16818094
0.15845828 -0.29190421 0.11914301
0.21115699 -0.28257316 0.16085863
0.2886349 -0.24292849 0.15180826
-0.7020815 -0.17517264 0.15969753
-0.65307564 -0.15377314 0.18765783
0.37773979 -0.18988267 0.13105059
0.43165386 -0.16533238 0.15556574
-0.75671202 -0.12737472 0.18285847
-0.73071361 -0.10120406 0.18358326
0.46845543 -0.12553558 0.13508797
0.5177747 -0.095277533 0.15820837
0.55789834 -0.022323247 0.12875843
0.5894798 -0.022605609 0.16925001
0.61191863 0.042299233 0.14467812
0.62283659 0.093732409 0.13200998
0.66116911 0.11429684 0.16907263
0.66614306 0.18547596 0.15952206
0.62022102 0.31136698 0.11502123
0.66610461 0.26347965 0.15930319
-0.75841051 0.3707076 0.18954468
0.61375827 0.36415496 0.12873363
0.66143501 0.33610252 0.1707077
-0.75541937 0.39557615 0.17777061
-0.71044904 0.42966768 0.17205572
0.60082483 0.42570794 0.15746593
-0.69223475 0.48054224 0.13231325
-0.62718254 0.51148224 0.15476274
-0.56049991 0.5271489 0.1835084
0.53910494 0.49606043 0.14945507
0.57630253 0.47268602 0.16836119
-0.59151983 0.5469023 0.14374018
-0.54614252 0.56621295 0.14372301
-0.47732285 0.5923605 0.15739012
-0.41473916 0.60365605 0.17199373
0.44111684 0.56872422 0.11980629
-0.44850829 0.62377799 0.13967419
-0.43142149 0.64463884 0.11377859
0.23056859 -0.93961966 0.21746969
0.26727673 -0.93069851 0.24972677
0.21269254 -0.89762837 0.20854664
0.32125738 -0.85301262 0.25942516
0.3023383 -0.80887568 0.20876741
0.35824981 -0.79254097 0.25244379
0.29904252 -0.75715089 0.21952343
0.36126068 -0.74545479 0.25714016
0.21709827 -0.48896533 0.20985365
0.28721434 -0.48310483 0.24642372
0.15109275 -0.42715746 0.20763493
0.21357593 -0.4219313 0.236938
0.27673957 -0.44281268 0.26119328
0.23259372 -0.34648773 0.21319771
0.28811792 -0.32639125 0.23840475
-0.617369 -0.24674878 0.20484161
-0.55792898 -0.25715524 0.21839762
-0.50162899 -0.23469846 0.22062254
0.23852468 -0.28556523 0.19619608
0.29852501 -0.27815861 0.23418474
0.34507358 -0.23443657 0.21684265
-0.68096018 -0.20664614 0.19489193
-0.62803978 -0.18542171 0.2346859
-0.57507288 -0.21052441 0.25786448
-0.50403219 -0.20906681 0.23419619
0.39801881 -0.20804736 0.21764851
0.46480548 -0.16882554 0.22492123
-0.76018035 -0.088454597 0.19651175
-0.69168037 -0.099188283 0.22746515
-0.63731349 -0.12944968 0.23677778
0.54536521 -0.11602928 0.2327323
0.58397418 -0.075964399 0.22372627
-0.76061028 -0.016306374 0.22437429
-0.71694082 -0.030610329 0.23589993
0.62747556 -0.023020674 0.21955919
0.6668272 0.003510213 0.24462509
-0.75710106 0.043404058 0.23678064
-0.72309446 0.043688666 0.26137257
0.67753237 0.043253731 0.22828197
-0.75917965 0.11016788 0.24512339
0.70734376 0.10439328 0.23199606
-0.75788701 0.18980098 0.23999071
0.7159462 0.1887836 0.22098398
0.75063413 0.19118686 0.2654624
-0.75740212 0.2633661 0.22747469
-0.72144854 0.28145558 0.25472879
0.71618682 0.26833981 0.22234297
0.75045967 0.25816986 0.26451826
-0.76214874 0.33276549 0.20425987
-0.70674759 0.3513076 0.23397255
-0.64353114 0.37883949 0.26499414
0.70497733 0.34889078 0.23377705
-0.69303888 0.40798566 0.20919275
-0.63199657 0.42888629 0.23661518
-0.57338077 0.4571988 0.24919271
0.63576543 0.43971562 0.21598577
0.67497295 0.41163328 0.2398138
-0.61212754 0.48591915 0.20071936
-0.5515635 0.49940068 0.22498751
-0.47904614 0.52306557 0.24379301
-0.42670044 0.53733742 0.24968433
0.55805796 0.53401744 0.22812271
0.59819585 0.49458426 0.23059511
-0.46611306 0.56355709 0.20615673
-0.42064855 0.57081825 0.21037626
0.50406247 0.55922031 0.21994019
0.39607415 -0.80928952 0.30154419
0.43245509 -0.78270018 0.30415916
0.3939904 -0.73153657 0.27578402
0.45721242 -0.7270664 0.31384087
0.47599605 -0.67955041 0.33166361
0.40743437 -0.46060172 0.32884026
0.30485934 -0.41882515 0.28454781
0.3750746 -0.42707381 0.30642796
0.43490788 -0.43353134 0.33071089
0.30335414 -0.36851263 0.29711199
0.36332974 -0.35084173 0.32247782
-0.49843231 -0.25214723 0.27880239
0.38066629 -0.26994219 0.29071617
0.44422171 -0.2515524 0.33258295
-0.59129095 -0.15766315 0.2718792
-0.54331404 -0.17842259 0.30334091
-0.49239048 -0.18716156 0.32235527
0.46148732 -0.20537102 0.32228279
0.51103592 -0.1580539 0.28033304
-0.61672229 -0.096567012 0.28374529
-0.55721462 -0.11480034 0.32921219
0.56975234 -0.13255574 0.31748343
0.60487795 -0.090679772 0.27762318
0.65455306 -0.078603916 0.33801413
-0.68165851 -0.023371844 0.27557135
-0.6218248 -0.031299818 0.30857086
0.6443218 -0.050209183 0.27156067
0.69098246 -0.02371797 0.30990505
-0.68689519 0.035921436 0.29087257
-0.6360845 0.03077958 0.32099247
0.74144512 0.048813134 0.31340742
-0.70374221 0.11165747 0.29398012
-0.65085632 0.10594048 0.33075142
0.76434243 0.11865935 0.30276012
-0.70405936 0.1927979 0.29534435
-0.64740425 0.20034364 0.33378506
0.78662699 0.19376324 0.31316233
-0.68635976 0.26798308 0.28847218
-0.63112724 0.27906707 0.31820583
-0.57822168 0.30506343 0.34354973
0.77959341 0.28195396 0.31154442
-0.67227232 0.32601988 0.27364826
-0.6191811 0.35143441 0.29331589
-0.55652463 0.36713135 0.32542372
-0.49523708 0.38683259 0.33916473
0.75177234 0.3631821 0.30811167
-0.59211451 0.4069185 0.27599478
-0.5385257 0.43278497 0.29561615
-0.46765301 0.4422037 0.31707287
0.68785661 0.44919106 0.29118299
0.73375684 0.42581603 0.32157755
-0.48458841 0.48767167 0.27651024
-0.43179443 0.50197291 0.28277159
0.62393606 0.52031952 0.31582355
0.67768252 0.47880512 0.31099367
0.49025127 0.60556287 0.33732939
0.54372936 0.57655144 0.32714748
0.30079356 -0.77115768 0.37638474
0.46629259 -0.79770607 0.37137747
0.49544644 -0.77312958 0.38553381
0.38535485 -0.72914124 0.39672327
0.44241658 -0.6950106 0.41199493
0.53339851 -0.72845811 0.39311934
0.48313597 -0.64763987 0.35654354
0.53448772 -0.65816098 0.36378717
0.58119577 -0.65186572 0.40492773
0.53087878 -0.5825541 0.383564
0.5948168 -0.58166915 0.40222979
0.55275089 -0.51172376 0.40039301
0.59624588 -0.49955812 0.41306019
0.45637956 -0.40080106 0.36378241
0.6112743 -0.44462124 0.42074823
0.40319398 -0.35448262 0.35992002
0.44657367 -0.34968323 0.38169956
0.49842739 -0.33189029 0.4131937
0.46570179 -0.27923417 0.36525345
0.5181517 -0.26819125 0.40206385
-0.46991351 -0.16135871 0.35188675
0.49300042 -0.21698906 0.36283779
0.54043639 -0.19652465 0.39049721
0.58262771 -0.16431327 0.41587019
-0.53407586 -0.088085324 0.35219526
-0.48668912 -0.10691635 0.37040091
0.62093067 -0.1215961 0.3909359
-0.55132431 -0.027471172 0.36532593
-0.47793129 -0.032289051 0.40188789
0.73980629 0.0035099827 0.35574532
-0.6075896 0.058488153 0.35331249
-0.56062281 0.039110418 0.37564373
-0.4956421 0.03702962 0.40764666
-0.61912918 0.11905424 0.35612392
-0.55890995 0.1145376 0.38767004
-0.50734562 0.11524388 0.41066122
-0.61494547 0.18919039 0.35579538
-0.55785316 0.1974472 0.38191319
-0.49330696 0.19898798 0.41036654
-0.60630208 0.25046635 0.34688044
-0.55103362 0.27571827 0.36359549
-0.47723404 0.28176951 0.39763069
-0.42426172 0.31115618 0.41550016
-0.53370947 0.34223026 0.35014057
-0.47267267 0.35453159 0.36929893
-0.42154291 0.35129288 0.3969121
0.79677653 0.34836063 0.36590147
-0.44342902 0.40263623 0.35833931
-0.41654995 0.41686222 0.36277533
0.76912606 0.41725981 0.36555243
0.68326056 0.4973394 0.3462801
0.53514093 0.6109044 0.36886787
0.49175292 0.63539612 0.35126257
0.47650009 -0.64999682 0.4733777
0.64337754 -0.57509154 0.44874573
0.54299927 -0.50257069 0.43512726
0.64114553 -0.50242609 0.43348598
0.67279017 -0.47730386 0.45646811
0.55112731 -0.41231427 0.44462395
0.61334729 -0.41479385 0.43552923
0.68448383 -0.4153406 0.45884085
0.54334712 -0.33423987 0.43830204
0.61386639 -0.33428898 0.43933487
0.68868726 -0.33686173 0.46742201
0.54258573 -0.27741528 0.43170643
0.61541224 -0.26470622 0.45007992
0.67708272 -0.26720342 0.48434877
0.61904073 -0.1976743 0.45058584
0.67829317 -0.21066986 0.49221087
0.6450634 -0.13805202 0.46027327
0.68728775 -0.11064965 0.48889875
-0.45374748 0.0035099827 0.42536068
-0.45468554 0.045654725 0.43145275
-0.46852514 0.11584258 0.43031216
-0.42990866 0.130698 0.45410967
-0.45469633 0.20013329 0.43152237
-0.42875996 0.20091687 0.44625521
-0.42630264 0.27020821 0.42945528
0.58352983 0.60601979 0.42276287
0.70007712 -0.17822225 0.50937891
0.70960706 -0.12558839 0.50925684
0.74251842 -0.083134361 0.53418493
0.74338251 -0.054331157 0.53928804
0 0 0 1 0 0 0 1 0 0 0 1 0 0 0 0 0 675 1 0 0
