ply
format ascii 1.0
comment PCL generated
element vertex 1131
property float x
property float y
property float z
element camera 1
property float view_px
property float view_py
property float view_pz
property float x_axisx
property float x_axisy
property float x_axisz
property float y_axisx
property float y_axisy
property float y_axisz
property float z_axisx
property float z_axisy
property float z_axisz
property float focal
property float scalex
property float scaley
property float centerx
property float centery
property int viewportx
property int viewporty
property float k1
property float k2
end_header
0.34369361 0.02339045 -0.30073857
0.36206561 0.025974408 -0.3025856
-0.39231607 0.063820176 -0.29589367
-0.24496061 0.063824594 -0.29583025
0.33704397 0.056821205 -0.30045962
0.36236894 0.056306005 -0.30831432
0.384233 0.056956753 -0.29834604
-0.41916111 0.083931215 -0.2957027
-0.39197206 0.090499543 -0.29724455
-0.3585096 0.090497397 -0.29723144
-0.33173162 0.09049686 -0.29725146
-0.29841244 0.090561964 -0.29650998
-0.26498842 0.090587072 -0.29620695
-0.23151091 0.090593033 -0.29615188
0.33776212 0.092576854 -0.30420828
0.36264011 0.089700364 -0.30680156
0.38413823 0.090374582 -0.29883862
-0.38549069 0.11735689 -0.29640317
-0.35857961 0.11730395 -0.29693222
-0.33193135 0.11736312 -0.29633951
-0.311984 0.11743162 -0.29565501
0.30418032 0.12400084 -0.29687214
0.33655518 0.12332306 -0.30346322
0.36381659 0.12365512 -0.30030775
0.33719739 0.14377043 -0.29962778
0.35769555 0.14406109 -0.29711127
-0.25040454 -0.029462427 -0.26368546
-0.23676372 -0.029461935 -0.26366067
0.335168 -0.036386251 -0.27083611
0.35943812 -0.035036772 -0.2719593
-0.41966924 -0.0023231506 -0.26857328
-0.39172271 -0.0024131872 -0.27149677
-0.35845304 -0.0091390274 -0.26842403
-0.32836336 -0.0077982694 -0.26916695
-0.29713914 -0.009151835 -0.26889825
-0.26291215 -0.0091802105 -0.27012062
-0.22912934 -0.0091460682 -0.26878595
-0.20893234 -0.002285663 -0.2673614
0.3333545 -0.0094901323 -0.28176332
0.36627397 -0.0096307471 -0.28674102
0.38969457 -0.0091806352 -0.2699666
-0.42589843 0.027562283 -0.28320003
-0.39511782 0.024110846 -0.28487349
-0.36139822 0.024112202 -0.28492427
-0.32783493 0.024141937 -0.284271
-0.29412982 0.024144061 -0.28422666
-0.2622039 0.022486754 -0.28359962
-0.22944656 0.026026666 -0.28505206
-0.20075986 0.02447889 -0.27681971
0.32902998 0.02060055 -0.28782439
0.37150371 0.010273397 -0.29483438
0.39070329 0.027632594 -0.28241611
-0.42713559 0.057433188 -0.29105377
-0.39301974 0.050593451 -0.29312944
-0.35918131 0.057217002 -0.29436922
-0.32845107 0.055909313 -0.29385567
-0.29616559 0.058560401 -0.29433417
-0.26537365 0.057236552 -0.29407787
-0.22916329 0.055894926 -0.29409075
-0.19910647 0.057603717 -0.28844905
0.30179393 0.059037611 -0.26662493
0.40260771 0.058590077 -0.27338099
-0.42973745 0.094141729 -0.29379487
-0.19872777 0.091019146 -0.29111886
0.30496198 0.10441428 -0.29152799
0.32206801 0.087784477 -0.2894125
0.40314466 0.092765056 -0.27069783
-0.42718869 0.12463478 -0.29085064
-0.39610869 0.12764058 -0.29416633
-0.35920918 0.13098252 -0.29424405
-0.32582495 0.13105243 -0.29359508
-0.2922017 0.12430299 -0.29404426
-0.26535764 0.12428948 -0.29416609
-0.2319231 0.12435009 -0.29359293
-0.19909751 0.12487609 -0.2885344
0.31833649 0.12451962 -0.29189181
0.38560897 0.1246042 -0.29119611
-0.4222737 0.15231267 -0.2841506
-0.39497083 0.1589126 -0.2854588
-0.36107388 0.1588062 -0.28631592
-0.32750502 0.15886867 -0.28580165
-0.29409108 0.15904102 -0.2844162
-0.26230237 0.16089919 -0.28302979
-0.2296755 0.15721783 -0.28360462
-0.20164481 0.15684786 -0.2801826
0.31859332 0.15832624 -0.29022336
0.36942914 0.15861103 -0.28788781
0.38821641 0.15309542 -0.2776475
-0.42166457 0.18351585 -0.26959324
-0.39263868 0.19510326 -0.26783609
-0.36124864 0.19642079 -0.26813126
-0.3284969 0.19364172 -0.26854205
-0.29748246 0.19520083 -0.26714444
-0.26666528 0.19164735 -0.26816344
-0.22919321 0.1882019 -0.26840115
-0.19990465 0.18386489 -0.26699233
0.29494965 0.18841544 -0.26685929
0.32169166 0.19478548 -0.2700994
0.36993289 0.19529974 -0.26641107
-0.15876183 -0.16797552 -0.23015952
-0.13075562 -0.16785046 -0.23218918
-0.09579502 -0.16766641 -0.23517847
-0.068063803 -0.16766635 -0.23517847
-0.033420004 -0.16768822 -0.23482347
0.001228977 -0.16773333 -0.23409081
0.028958669 -0.16781512 -0.23276234
0.05672881 -0.16788206 -0.23167562
-0.35307777 -0.1262105 -0.23161578
-0.32954693 -0.13077676 -0.23340249
-0.29677156 -0.13299528 -0.23547769
-0.26077896 -0.1371685 -0.23515487
-0.23439109 -0.13991725 -0.23546219
-0.19940221 -0.14673826 -0.23786449
-0.16473778 -0.146709 -0.23833179
-0.13013773 -0.14670491 -0.23832726
-0.095566019 -0.14671439 -0.23798585
-0.067951731 -0.1467672 -0.23688364
-0.033364631 -0.14681226 -0.23599029
0.0012674071 -0.14683425 -0.23554873
0.028979499 -0.14688504 -0.23458862
0.063656345 -0.1469029 -0.23425913
0.098353125 -0.14694288 -0.23353457
0.13034061 -0.14841619 -0.23192096
0.16794232 -0.15405849 -0.23042059
-0.36733156 -0.11236717 -0.23004818
-0.23084596 -0.056752093 -0.2579391
-0.20737863 -0.061350588 -0.24650764
0.33483729 -0.061366647 -0.24440765
0.35800287 -0.065985836 -0.24354386
-0.42598724 -0.029171314 -0.2447834
-0.39247885 -0.036052965 -0.24071479
-0.36135033 -0.034708776 -0.24394679
-0.32936642 -0.036100142 -0.24519706
-0.29727319 -0.037492923 -0.24715948
-0.26269394 -0.040318981 -0.2558403
-0.22817412 -0.038526155 -0.2604084
-0.2044723 -0.036136575 -0.25074482
0.30824247 -0.033676587 -0.23745894
0.32351711 -0.036236599 -0.25824261
0.37176839 -0.049911533 -0.25626278
0.38761243 -0.043012485 -0.24482703
-0.42251143 -0.015683178 -0.25787258
-0.39418674 -0.01577032 -0.26164722
-0.37346649 -0.015792497 -0.26260304
-0.2015337 -0.011058856 -0.25538063
0.3056778 -0.015251931 -0.23919821
0.4109138 -0.0011933446 -0.23188114
0.40656817 0.01869601 -0.25359344
0.30925918 0.05250141 -0.2621479
-0.18600909 0.0958189 -0.23442793
-0.18346483 0.12157414 -0.25386977
0.40672591 0.12861514 -0.25280523
-0.18278569 0.15530145 -0.25905943
0.41004065 0.15108958 -0.23624372
-0.42274776 0.20347732 -0.25700498
-0.25773028 0.20292792 -0.26076078
-0.2307227 0.2032277 -0.25871205
-0.19230244 0.19637203 -0.24915981
0.29670274 0.20393795 -0.25385451
0.3789888 0.20386973 -0.25432038
0.39311913 0.18361896 -0.25217223
-0.42622834 0.21919075 -0.24390244
-0.39499095 0.22783193 -0.24181533
-0.36106405 0.22454399 -0.24516916
-0.32996285 0.2263642 -0.24236774
-0.29564354 0.22653356 -0.24130678
-0.26319385 0.22402418 -0.24261212
-0.23263767 0.21878198 -0.24655747
-0.20575756 0.21951804 -0.24177551
0.30370757 0.21776983 -0.2531321
0.33267766 0.22619081 -0.24350095
0.35760343 0.22353679 -0.24568892
0.38284063 0.22079679 -0.23347139
-0.3313897 -0.15557426 -0.20228958
-0.26146251 -0.16993189 -0.1983912
-0.23154134 -0.16927339 -0.20908403
-0.19451131 -0.16842449 -0.2228682
-0.16057573 -0.17608052 -0.21342945
-0.1268205 -0.18390289 -0.20093942
-0.098339677 -0.18371233 -0.20368958
-0.069937088 -0.18351352 -0.20655847
-0.034687087 -0.18345743 -0.20736766
0.00048647448 -0.18352112 -0.20644808
0.028615089 -0.1837717 -0.2028327
0.067348301 -0.18001246 -0.20690393
0.098548844 -0.16820917 -0.22636509
0.13361163 -0.16850823 -0.22150731
0.16904509 -0.16899316 -0.21363521
0.1978201 -0.16953677 -0.20480776
-0.42313814 -0.12733519 -0.20239806
-0.38942906 -0.1315437 -0.21526122
-0.36452276 -0.13590869 -0.22205329
-0.32775092 -0.14768377 -0.21950936
-0.2924076 -0.15451786 -0.22189569
-0.27045053 -0.15421423 -0.22753167
-0.21446139 -0.12628989 -0.22955871
-0.19388954 -0.1263729 -0.2273984
-0.16611284 -0.12639612 -0.22679615
-0.13144828 -0.12645641 -0.22523022
-0.096635923 -0.12647457 -0.22475863
-0.068747357 -0.12647521 -0.22474146
-0.033924468 -0.12650996 -0.22383809
0.00092772394 -0.12654302 -0.22298002
0.028840864 -0.12655994 -0.22253919
0.063756526 -0.12660372 -0.22140241
0.098698974 -0.12663178 -0.22067356
0.13704671 -0.13005088 -0.22218108
0.16838804 -0.13347587 -0.22357225
0.19623829 -0.14041775 -0.22431064
0.2313536 -0.14054267 -0.22186565
0.26649749 -0.14066836 -0.21996498
0.29361492 -0.13806301 -0.21577549
0.31728914 -0.13419601 -0.20724678
-0.41914284 -0.10830881 -0.20873117
-0.39087239 -0.10568613 -0.21900177
-0.36034164 -0.10333343 -0.22001052
-0.32760108 -0.10565688 -0.22049332
-0.29255515 -0.10564682 -0.22107697
-0.26426929 -0.10559893 -0.22302628
-0.229408 -0.10560688 -0.22278881
-0.1953456 -0.10576688 -0.2165668
-0.16755049 -0.10581134 -0.21475768
-0.13256593 -0.1058293 -0.21407199
-0.097489983 -0.10582574 -0.21418262
-0.069486067 -0.10584655 -0.21344829
-0.034432337 -0.10586199 -0.21285653
0.00063658506 -0.10588033 -0.21217179
0.028704608 -0.10592 -0.21055269
0.06386254 -0.10599633 -0.20747828
0.099099845 -0.10603955 -0.20573068
0.13416913 -0.10596342 -0.20908403
0.16948336 -0.10602172 -0.20684028
0.19782655 -0.10607841 -0.20466375
0.2326736 -0.11302727 -0.20860934
0.26117611 -0.10841338 -0.2052424
0.29677737 -0.1132065 -0.20279145
0.33292064 -0.099222742 -0.19716525
-0.42973351 -0.056752041 -0.20411777
-0.38728857 -0.056752041 -0.20468211
-0.36222482 -0.06733498 -0.2064116
-0.32897189 -0.070809714 -0.21398544
-0.29487649 -0.073588155 -0.21614027
-0.26627409 -0.077804394 -0.21143126
-0.23267522 -0.079117693 -0.21989536
-0.20181495 -0.07774245 -0.22045732
0.28873214 -0.056752041 -0.21029115
0.32673213 -0.073570043 -0.2192328
0.3662256 -0.084878244 -0.20935369
0.38675943 -0.07079272 -0.21226048
-0.41974273 -0.049786169 -0.21534896
-0.40544868 -0.049792644 -0.21644759
-0.28427678 -0.056751944 -0.22805643
-0.2705358 -0.056751944 -0.2270503
-0.18943539 -0.035647847 -0.20824599
0.29411587 -0.042797599 -0.22246385
0.39887863 -0.042788204 -0.22224522
-0.19035006 -0.0073055103 -0.20125675
0.41545093 -0.014559455 -0.20921206
-0.18949701 0.034709796 -0.20777512
-0.18777516 0.062021397 -0.22093272
-0.18816392 0.083216257 -0.21796203
0.42916796 0.1329143 -0.21088243
0.42196319 0.16090652 -0.21186042
-0.4232904 0.23543984 -0.22873497
-0.25629598 0.23541343 -0.22889805
-0.22884732 0.23581675 -0.22640371
-0.19282132 0.23253021 -0.21796036
0.37003464 0.23565248 -0.22742009
-0.42417079 0.25449878 -0.19835544
-0.39259303 0.25220478 -0.21190095
-0.36433351 0.25207797 -0.21264958
-0.32968205 0.25244674 -0.21047163
-0.29528373 0.25310427 -0.20658922
-0.26709497 0.25308266 -0.20671725
-0.23237169 0.25363135 -0.20347691
0.34463298 0.25213942 -0.21228671
0.35939643 0.25286227 -0.20801806
-0.13016351 -0.20070544 -0.16619277
-0.10110566 -0.20045123 -0.16949654
-0.064919658 -0.20012474 -0.17373729
-0.029042028 -0.20007139 -0.17443013
-0.00040766597 -0.20015603 -0.17333126
0.028241621 -0.20037577 -0.17047596
0.064178184 -0.20060804 -0.16745949
-0.38823321 -0.15727538 -0.17072153
-0.35486674 -0.15613611 -0.19186616
-0.33061507 -0.17158431 -0.17156053
-0.29958883 -0.1708284 -0.18383479
-0.26536146 -0.18096326 -0.1750412
-0.22920075 -0.18550932 -0.17775178
-0.19953857 -0.18497112 -0.1855197
-0.17006883 -0.18440241 -0.19372869
0.099435076 -0.18441933 -0.19348502
0.12804596 -0.18481043 -0.18783951
0.16413236 -0.18537587 -0.17967749
0.20063734 -0.18605 -0.16994786
0.22710885 -0.17023429 -0.19348168
0.26407063 -0.17102386 -0.18066049
0.2993544 -0.16378441 -0.18323112
0.32831591 -0.15672776 -0.18088508
-0.42300978 -0.14271422 -0.17506766
-0.40560159 -0.14213651 -0.18757582
0.33380991 -0.13486558 -0.19138908
-0.43539515 -0.099561796 -0.18248606
0.22722934 -0.099337846 -0.19218493
0.32473153 -0.10888472 -0.18874407
0.35600385 -0.099476859 -0.18616438
-0.42677033 -0.078097299 -0.18829012
-0.40017301 -0.080429383 -0.19037867
-0.3756454 -0.085113861 -0.19404817
-0.19272974 -0.070993401 -0.18307304
0.27746961 -0.056752142 -0.18761158
0.29424223 -0.071132161 -0.16818571
0.26523888 -0.056751944 -0.17029309
0.42138499 -0.028167071 -0.17956424
-0.19105321 0.01408194 -0.19588399
0.40423471 0.21263194 -0.19441366
-0.19941159 0.25656635 -0.1861465
0.32739925 0.24934006 -0.18670201
0.38590273 0.25079989 -0.17808127
-0.34608048 -0.18870631 -0.13160825
-0.25771227 -0.20317808 -0.13407469
-0.23456162 -0.20256412 -0.14205027
-0.19657007 -0.20165473 -0.15386105
-0.15951385 -0.20109183 -0.1611743
-0.13334516 -0.21789962 -0.13314152
-0.10373509 -0.21757686 -0.13695216
-0.066996202 -0.2173171 -0.14001918
-0.030484915 -0.21728477 -0.14040232
-0.0012840889 -0.21724594 -0.14086032
0.027866734 -0.21749461 -0.13792348
0.06443882 -0.21791571 -0.13295126
0.1002898 -0.20103997 -0.16184735
0.12946627 -0.20161802 -0.15434074
0.16629541 -0.2023682 -0.144593
0.1960596 -0.20302951 -0.13600373
-0.42344481 -0.15867408 -0.14476514
-0.38815764 -0.17353612 -0.13986826
-0.36296406 -0.17260504 -0.15498519
-0.32194138 -0.18794349 -0.14261746
-0.29046226 -0.18705389 -0.15545917
0.23055626 -0.18689919 -0.157691
0.26070637 -0.18766508 -0.14663768
0.29664218 -0.18026963 -0.14917779
0.33420181 -0.17342135 -0.14172912
0.26758057 -0.10031162 -0.15001369
0.2898539 -0.10040313 -0.14605594
0.35342929 -0.11458959 -0.15787411
0.26139054 -0.085939407 -0.14042592
0.28716946 -0.08100909 -0.14836287
0.17400515 0.07477545 -0.13776731
0.19132014 0.065261789 -0.13410521
0.22511977 0.06013979 -0.13811779
0.17393605 0.089309491 -0.13880873
0.20337076 0.082192741 -0.13614345
-0.18484305 0.23652968 -0.131284
-0.12905148 -0.23558554 -0.10027266
-0.099091813 -0.23539186 -0.10237145
-0.061702475 -0.23512644 -0.10524464
-0.031985693 -0.23516116 -0.10486722
-0.0022904687 -0.23528123 -0.10356712
0.02744996 -0.23542568 -0.102005
0.049782157 -0.23568496 -0.099197865
-0.3884753 -0.19044882 -0.10645509
-0.36256289 -0.18929148 -0.12316084
-0.32893649 -0.20526278 -0.10699296
-0.29688811 -0.20426565 -0.11994529
-0.2605249 -0.21200117 -0.11608505
-0.22434714 -0.21974215 -0.11138201
-0.1936435 -0.21903056 -0.11978555
-0.16331159 -0.21840543 -0.1271677
0.10119809 -0.21832356 -0.12813425
0.13096717 -0.21910745 -0.11887741
0.16096839 -0.21981341 -0.11054015
0.19786392 -0.21482769 -0.1116817
0.23393655 -0.20406556 -0.12254405
0.26479971 -0.20503294 -0.10997796
0.29375863 -0.19731814 -0.11491299
0.32298902 -0.18965545 -0.117908
-0.42532799 -0.17552941 -0.10749674
-0.40641695 -0.17448094 -0.12452555
0.23701103 -0.076434352 -0.11564684
0.16717647 0.060642332 -0.12995744
0.19790412 0.046933345 -0.11204267
0.15767597 0.090374313 -0.12495136
0.19645008 0.10458267 -0.1309309
-0.18838738 0.12930802 -0.10250783
-0.18795377 0.15869308 -0.10602808
-0.18679917 0.18721554 -0.11540246
-0.18586408 0.2156952 -0.12299442
0.31692463 0.25491422 -0.10826898
-0.32846054 -0.22317877 -0.070796728
-0.29562184 -0.2219303 -0.085541487
-0.25347158 -0.2387042 -0.066512585
-0.22968876 -0.23802406 -0.073875427
-0.19827722 -0.23715264 -0.083310127
-0.16736495 -0.23645508 -0.09086132
-0.14429009 -0.23589563 -0.096917152
-0.094296113 -0.25390688 -0.066113949
-0.063813366 -0.25364771 -0.068702698
-0.033552073 -0.25372878 -0.067893505
-0.0032867901 -0.25387576 -0.066425323
0.01944107 -0.2539691 -0.065492153
0.072197065 -0.23602089 -0.095560312
0.10223863 -0.23658329 -0.089472771
0.1324736 -0.23715302 -0.083305597
0.16311881 -0.23807332 -0.073343039
0.23759001 -0.22201169 -0.084579706
0.26923883 -0.22322425 -0.070259571
-0.42559442 -0.19256711 -0.07588172
-0.38803163 -0.20772225 -0.075042248
-0.36209387 -0.20652017 -0.090657473
-0.26363289 -0.22092181 -0.097450495
0.21440078 -0.22137079 -0.092149973
0.30433977 -0.20649174 -0.091026783
0.32871351 -0.20751405 -0.077747107
-0.19285603 0.034237288 -0.066226721
-0.1923255 0.056725994 -0.070534229
-0.19118184 0.086310886 -0.079819679
-0.19054122 0.1084704 -0.085020542
0.39593235 0.19909823 -0.081150055
0.37987295 0.22832644 -0.087109804
-0.23517537 -0.25698584 -0.035346746
-0.20309436 -0.25598195 -0.045378923
-0.16383459 -0.2550965 -0.054225206
-0.13277127 -0.25451824 -0.060004711
0.065020837 -0.25464192 -0.058768511
0.10325415 -0.25534168 -0.051777124
0.13414851 -0.25614062 -0.043793201
0.15758547 -0.25695834 -0.035623312
-0.37935483 -0.22534174 -0.045255661
-0.36189976 -0.22447434 -0.055497646
-0.33204427 -0.23248085 -0.051695585
-0.29404733 -0.24012169 -0.051167965
-0.26969463 -0.23931018 -0.059953451
-0.11727987 -0.25418901 -0.063294411
0.034604538 -0.25406113 -0.064572573
0.19419314 -0.23915455 -0.061638117
0.22556256 -0.24016201 -0.050731897
0.25753939 -0.24141532 -0.03716445
0.30153385 -0.22457394 -0.054319859
0.32598406 -0.22554201 -0.042887926
-0.42719355 -0.21061519 -0.037462473
-0.40724957 -0.2090959 -0.057198048
-0.19054414 -0.082305066 -0.043331861
-0.15833217 -0.087584019 -0.033606291
-0.096736312 -0.087597996 -0.032699347
-0.19589801 0.0046679452 -0.041529179
-0.19431856 0.019529402 -0.054352522
-0.30108833 -0.25946939 -0.010529518
-0.26785353 -0.2581715 -0.023498535
-0.21626097 -0.27584639 -0.0032610893
-0.19188634 -0.27502325 -0.01089859
-0.15994379 -0.27423966 -0.018169403
-0.12826887 -0.27350429 -0.024992943
-0.097141623 -0.27326736 -0.027191877
-0.066103935 -0.27306736 -0.029047012
-0.035144366 -0.27293095 -0.030312061
-0.0043031238 -0.27309811 -0.028761148
0.026564639 -0.27346414 -0.025365591
0.06532646 -0.27414867 -0.019014835
0.10434705 -0.2749829 -0.011272669
0.13586006 -0.27583897 -0.0033295155
0.17329837 -0.25746587 -0.030550003
0.19711436 -0.258347 -0.021744967
0.22921845 -0.25958097 -0.0094149113
-0.42684346 -0.22864047 -0.0062978268
-0.39317539 -0.23556694 -0.01693821
-0.36188802 -0.2431601 -0.018276453
-0.335899 -0.24187911 -0.032145262
0.29014012 -0.24282104 -0.021946907
0.33064342 -0.23881754 -0.0091569424
-0.18383071 -0.072326243 -0.013056517
-0.16101469 -0.072366722 -0.0078084469
-0.12875955 -0.07999298 -0.019382477
-0.098684937 -0.072380215 -0.0060386658
-0.06669277 -0.079997674 -0.018820524
-0.03568995 -0.080016509 -0.017399073
-0.0046316236 -0.080022424 -0.01657033
0.026423475 -0.080066338 -0.013032913
0.065364949 -0.080077052 -0.012039661
0.1043174 -0.080078259 -0.012114048
0.13508162 -0.087770268 -0.021505117
0.16618264 -0.08779265 -0.020047665
0.18940559 -0.087779447 -0.020912886
-0.19776693 -0.041273225 -0.026355267
-0.1971084 -0.010460045 -0.031701565
-0.18398112 0.23934835 -0.011754036
0.25998247 0.22738799 -0.013530493
0.29027247 0.22744623 -0.0075981617
0.39979813 0.22330272 -0.015081882
-0.18757749 0.26317188 -0.025191784
-0.15998994 0.26177859 -0.017638206
-0.12910235 0.26210982 -0.015516281
-0.098001197 0.26212779 -0.015407324
-0.066787273 0.26184967 -0.017178774
-0.035689108 0.26180929 -0.017439842
-0.0046266839 0.26191205 -0.016778708
0.026453231 0.26207688 -0.015745878
0.065346204 0.262281 -0.014468431
0.10426081 0.26232627 -0.014196396
0.13540345 0.26236808 -0.013933182
0.16654146 0.26238617 -0.013835669
0.19931895 0.25784826 -0.012844086
0.22884007 0.25462362 -0.0135324
0.25945759 0.26164907 -0.018602848
0.29086834 0.26210022 -0.015728474
0.31478971 0.26282513 -0.01117444
-0.42006731 0.30346593 -0.0016953945
-0.39294586 0.300524 -0.018311262
-0.36110735 0.2998707 -0.022001028
-0.33008343 0.29985848 -0.022070169
-0.2995511 0.30034533 -0.019320726
-0.26848304 0.30032164 -0.019454002
-0.22930023 0.29985759 -0.022075653
-0.19047083 0.29201287 -0.022664309
-0.15958372 0.29220137 -0.021576643
-0.12869893 0.29246408 -0.020070076
-0.097799599 0.29280117 -0.018134832
-0.066743888 0.29283476 -0.01794672
-0.03550373 0.29214916 -0.021851063
-0.0045562871 0.29258689 -0.019340038
0.02647068 0.29297322 -0.017129898
0.065364175 0.29370004 -0.01295805
0.10436569 0.2941564 -0.010327101
0.13556942 0.29421231 -0.010008097
0.16680063 0.29431829 -0.0093886852
0.19808696 0.29450619 -0.008302927
0.22941169 0.29471299 -0.0071148872
0.26068515 0.2947681 -0.0067980289
0.28940251 0.29227594 -0.0061283112
0.31632242 0.28818241 0.00053739548
-0.3927702 0.32332459 -0.0072059631
-0.36342999 0.32528991 -0.01062274
-0.3324815 0.32552955 -0.0093560219
-0.30147758 0.32574475 -0.0082135201
-0.26520813 0.32686916 -0.010512829
-0.22766873 0.32361397 -0.011265993
-0.19228451 0.32588816 -0.0074563026
-0.16119903 0.32615757 -0.0060315132
-0.13256368 0.32356977 -0.0059201717
-0.098739415 0.31847042 -0.0052521229
-0.067527704 0.31861508 -0.0044696331
-0.035719946 0.32408491 -0.016974211
-0.0046211407 0.32416528 -0.016517401
0.0237258 0.32365409 -0.0054559708
0.065456383 0.3191694 -0.0014688969
-0.035946764 0.34839439 -0.011970282
-0.0022741407 0.35461926 -0.0069463253
-0.012933537 0.38225782 0.00054836273
-0.1967895 -0.29536185 0.030217886
-0.16414531 -0.29444304 0.022260904
-0.13193499 -0.293764 0.016381025
-0.099980682 -0.29321715 0.011644602
-0.068394609 -0.29310331 0.010658264
-0.036853872 -0.29303271 0.010047197
-0.0053760223 -0.29315278 0.011087418
0.0261002 -0.29362336 0.015162468
0.065631367 -0.29428637 0.020904064
0.1054455 -0.29528269 0.029532433
-0.37936184 -0.26337692 0.028516531
-0.36135885 -0.26232246 0.017980337
-0.32909161 -0.26731855 0.014837027
-0.29090884 -0.27859062 0.022202253
-0.25721979 -0.27715591 0.008890152
-0.2325367 -0.27633321 0.0012574196
0.16773991 -0.27691868 0.0066888332
0.20008352 -0.27822953 0.018851757
0.22462808 -0.2792832 0.028628588
0.26185369 -0.26095632 0.0043287277
0.29511049 -0.26249829 0.019737005
0.32056737 -0.26382312 0.032975197
-0.42779097 -0.24778131 0.031748772
-0.40814292 -0.24623817 0.015045166
-0.16300142 -0.056752041 0.01131916
-0.13150565 -0.056752093 0.011627913
-0.076395035 -0.056752041 0.012659311
-0.037011117 -0.056752093 0.013785124
-0.005486533 -0.056752041 0.015117168
0.03397049 -0.056752142 0.017792225
0.065588191 -0.056752108 0.017326355
0.10512162 -0.056752093 0.017664671
0.1360991 -0.07244508 0.0023992062
0.16820985 -0.064612642 0.015054941
0.1925368 -0.064657494 0.024282694
-0.18733557 -0.040875297 0.017296076
-0.16458791 -0.040872648 0.026591063
-0.13283443 -0.040872253 0.026624203
-0.10053043 -0.048810948 0.019197226
-0.066507287 -0.046156719 0.023552895
-0.037679218 -0.040849932 0.029542446
-0.0058938935 -0.040844336 0.030266285
0.023326317 -0.046138532 0.026865005
0.065710731 -0.040828291 0.03234911
0.10553184 -0.040824071 0.032885313
0.13686159 -0.056751944 0.020369291
-0.18832359 0.19722742 0.02585268
0.23873247 0.19518194 0.0092437267
0.39068672 0.19697261 0.023783922
-0.18662843 0.21904051 0.011172295
-0.1644617 0.22095248 0.025390387
-0.13534349 0.22354496 0.024990797
-0.1006701 0.22831425 0.021085739
-0.069007501 0.22834358 0.021296978
-0.037351109 0.22841069 0.021781206
-0.0058039688 0.22115278 0.026894569
0.026037695 0.22820422 0.020290375
0.065617017 0.22825137 0.020631552
0.10536249 0.2211259 0.02670002
0.13711381 0.22109458 0.026471853
0.16881189 0.22095972 0.025475264
0.20042697 0.22072712 0.023740053
0.22896367 0.22256574 0.017817974
0.2541827 0.22626418 0.0062894821
0.30071479 0.2098639 0.0011155605
0.38717788 0.2174013 0.018427372
-0.16227297 0.24170047 0.0043289661
-0.13100809 0.24194551 0.0060043335
-0.099583372 0.2419768 0.0062184334
-0.068067037 0.24179733 0.0049908161
-0.036661446 0.2418718 0.0055003166
-0.0052204505 0.24183422 0.0052428246
0.026208447 0.24185258 0.0053687096
0.065496728 0.24181986 0.0051460266
0.10477398 0.24178132 0.004881382
0.13615079 0.24161318 0.0037322044
0.16747245 0.24140617 0.0023169518
0.19094537 0.24125922 0.0013122559
0.3794243 0.24149561 0.002928257
0.30083176 0.30413175 0.0020654202
0.333765 0.29033798 0.013266087
-0.42297494 0.32145342 0.010895014
-0.4066073 0.33668721 0.00816679
-0.12277098 0.33541402 0.0015521049
-0.099635795 0.33647433 0.0070598125
-0.076285049 0.33720788 0.010872841
0.034088194 0.33559713 0.0025019646
0.06551604 0.33630159 0.0061633587
0.10480742 0.32843125 0.0060319901
0.13627018 0.328527 0.0065391064
0.16777223 0.32869852 0.0074539185
0.19923513 0.32868898 0.0074071884
0.2307985 0.32890388 0.0085396767
0.26241493 0.32915166 0.0098381042
0.29387075 0.32118124 0.0094211102
0.32405412 0.31243882 0.019169807
-0.42581835 0.33958164 0.023207426
-0.40079188 0.35426691 0.017369986
-0.36752027 0.36057222 0.0094189644
-0.33137017 0.36222965 0.0098369122
-0.29328862 0.3587366 0.0081729889
-0.25718674 0.36043695 0.0087604523
-0.22569266 0.36040929 0.0086517334
-0.19441603 0.36077365 0.01043725
-0.16293074 0.36080426 0.010590315
-0.13151906 0.3610552 0.011833429
-0.1005621 0.36266026 0.019728422
-0.077128455 0.35570744 0.024568319
0.026147552 0.3609978 0.011547565
0.062424593 0.36046883 0.016706228
0.10509644 0.35413823 0.016727924
0.13677171 0.35446545 0.018363237
0.1684528 0.35464332 0.019251585
0.20014265 0.35475442 0.0198071
0.23198572 0.35517991 0.021931648
0.26386535 0.35555342 0.023798227
0.29274243 0.34467372 0.022156239
-0.32302761 0.38744479 0.024612904
-0.29097909 0.38703248 0.022700071
-0.25961724 0.38751221 0.024925709
-0.22750497 0.38690171 0.022093534
-0.19569004 0.38668567 0.021091223
-0.16422425 0.387113 0.023073196
-0.13248393 0.38703626 0.022716999
-0.101135 0.38806906 0.027508974
-0.069555476 0.38085598 0.030940533
-0.029825486 0.38905096 0.032063961
0.0021150187 0.3881411 0.027844667
0.025941558 0.38827887 0.028482914
0.065661177 0.38298821 0.02846241
0.10531974 0.37166759 0.025031567
0.13713081 0.37204394 0.026842833
0.16896659 0.37231275 0.028135538
0.20090052 0.37273577 0.030170918
0.232877 0.3731187 0.032013416
-0.22090444 0.40500751 0.032221079
-0.197008 0.40498239 0.032109022
-0.16518873 0.40504137 0.03237319
-0.28942579 -0.29904336 0.062101841
-0.26388761 -0.29802489 0.05328083
-0.22979823 -0.29638547 0.039083958
-0.16028716 -0.3152988 0.062935114
-0.13571811 -0.31483257 0.059149504
-0.10309982 -0.31423056 0.054261208
-0.070774518 -0.31393507 0.051862955
-0.038599648 -0.31386527 0.051295757
-0.0065124817 -0.31410894 0.053273678
0.02562386 -0.31447265 0.056227446
0.057862949 -0.31512299 0.061507225
0.13762292 -0.29629475 0.038297892
0.17018197 -0.29753244 0.049015999
0.20318834 -0.29895183 0.061308861
-0.41858846 -0.26671126 0.061835527
-0.39834252 -0.26480994 0.042836189
-0.36089543 -0.28221217 0.05580616
-0.33428904 -0.28079355 0.04264307
0.2411693 -0.28003696 0.035623074
0.26622131 -0.28119165 0.046337366
0.29154414 -0.28239655 0.057517052
0.33896232 -0.26560423 0.050774574
-0.16588096 -0.024801254 0.039054155
-0.13400005 -0.02478997 0.039790154
-0.10204546 -0.024787862 0.039925575
-0.070180349 -0.024761904 0.04162097
-0.03820999 -0.024754543 0.042098045
-0.0062461682 -0.024734426 0.043399096
0.025752539 -0.024710923 0.044923306
0.065810643 -0.024700619 0.04560113
0.10588793 -0.02469223 0.046136379
0.13785496 -0.03270793 0.043861628
0.17001507 -0.032677144 0.046104908
0.19420519 -0.032657243 0.048363447
-0.19067122 -0.0006306991 0.046184301
-0.1675577 -0.00038570911 0.05516839
-0.13541107 -0.00037035346 0.055734873
-0.10322015 -0.00036333501 0.055985451
-0.071100384 -0.00032204762 0.057561398
-0.038877837 -0.00031409785 0.057841539
-0.0066548064 -0.00029636174 0.058549404
0.025578849 -0.00026194006 0.05987525
0.065923348 -0.00024025887 0.06064558
0.10357065 -0.0029438436 0.060212612
0.14132419 -0.002897229 0.062182665
0.16290888 -0.0082693249 0.063167095
-0.19218728 0.03197974 0.059313536
-0.19278756 0.064533159 0.064512014
-0.19260709 0.096753426 0.062948942
-0.19153006 0.12824282 0.053622007
-0.19029218 0.15930542 0.042901516
-0.17081355 0.16383481 0.060585499
-0.13587935 0.16926995 0.061020374
-0.10358322 0.16925889 0.060915947
-0.07132896 0.16932493 0.06152916
-0.039056726 0.16938296 0.06206727
-0.0067757666 0.16947901 0.062958717
0.025550075 0.16941351 0.062350512
0.065943927 0.16948718 0.063035965
0.10636957 0.16959575 0.064042091
0.13869363 0.16956902 0.063792944
0.16299322 0.16966999 0.064732552
-0.18935411 0.18238428 0.034777164
-0.16671239 0.19180441 0.04706502
-0.13478479 0.1919964 0.048670292
-0.10270038 0.19201887 0.048862457
-0.070632815 0.19208983 0.049456596
-0.038527496 0.19210407 0.049570084
-0.0064326562 0.19218117 0.050239801
0.025687275 0.19220284 0.05041647
0.065841004 0.19214553 0.049939394
0.10598852 0.19213945 0.049897909
0.13812464 0.19219598 0.050369501
0.17025624 0.1922074 0.050453424
0.19948974 0.19454262 0.047724009
-0.12550046 0.21413946 0.033785582
-0.10164787 0.21422774 0.034461975
-0.069756083 0.21420202 0.034264565
-0.037869342 0.21417022 0.034022331
0.02587959 0.21415114 0.033875704
0.065717399 0.21414664 0.033842087
0.35510322 0.29677778 0.051289797
0.33811918 0.32769734 0.044689894
-0.061989404 0.35839951 0.038018465
0.30526003 0.35839951 0.038018465
0.32067791 0.34162417 0.033819437
-0.045947403 0.38201067 0.036402225
0.081650861 0.38940984 0.033729553
0.10558809 0.38967097 0.034941196
0.13758343 0.39023307 0.037549257
0.16950211 0.39020753 0.037430286
0.19379468 0.39128712 0.042438269
0.25703809 0.37370276 0.034822464
-0.23774487 0.40648568 0.038844347
-0.13353872 0.40553787 0.03459692
-0.10178652 0.40594095 0.036402464
-0.070100084 0.40680206 0.040260077
-0.038111985 0.40668318 0.039727449
-0.0061542988 0.40672979 0.039936781
0.025812071 0.40667051 0.039670944
0.06579271 0.40731305 0.042549133
0.097875163 0.40814677 0.046284676
-0.43575138 0.72010171 0.066218376
-0.43541086 0.73572981 0.064743996
-0.098126695 -0.33613539 0.098677397
-0.073417574 -0.33600143 0.097653151
-0.040511191 -0.33583537 0.096385241
-0.0076839998 -0.33587772 0.096708059
-0.36104807 -0.30325022 0.098533392
-0.33379745 -0.30158147 0.084082365
-0.30728021 -0.30020368 0.072149754
-0.26186296 -0.31919006 0.094527721
-0.23603112 -0.3180576 0.085333824
-0.2021223 -0.31677625 0.074929714
-0.17687659 -0.31579053 0.066927433
0.0821575 -0.31575492 0.066637039
0.10662073 -0.31654561 0.07305789
0.13950838 -0.31774327 0.082781076
0.17275795 -0.31907746 0.093613148
0.23676506 -0.30062225 0.075774193
0.27090716 -0.3024281 0.091414213
-0.39876044 -0.28507981 0.08241415
0.30884793 -0.2834346 0.067148447
0.32603082 -0.28425106 0.074723721
0.36061427 -0.089471258 0.088968992
0.11456794 0.0080339089 0.067776918
0.13073394 0.0080093741 0.066985607
0.17143613 1.0062009e-05 0.070790529
-0.16908236 0.032425456 0.069838524
-0.13671276 0.032451339 0.07044816
-0.10431014 0.032467581 0.070875645
-0.071930632 0.032513827 0.071913481
-0.039480336 0.032520108 0.072093964
-0.0070306733 0.032533795 0.072409391
0.025429945 0.032547735 0.072739363
0.066028789 0.032598615 0.073949337
0.10668641 0.032678522 0.075796366
0.13646069 0.029946193 0.075239897
0.37585357 0.04106921 0.081692457
-0.16983947 0.065264985 0.077110529
-0.1373871 0.065321706 0.078071117
-0.10484108 0.065324776 0.078124046
-0.072338648 0.065375336 0.079017639
-0.039783038 0.06538552 0.079210997
-0.0071927533 0.06534072 0.078454971
0.025351528 0.065409116 0.079625607
0.066080049 0.06547185 0.080707073
0.10689889 0.06563662 0.083575726
0.13703941 0.068674587 0.088825464
0.37598887 0.065577149 0.082571268
-0.16989273 0.097833447 0.077650785
-0.1374647 0.097927801 0.078931332
-0.10490212 0.097929917 0.078963518
-0.072377928 0.097981922 0.079666615
-0.039785005 0.097954132 0.079283953
-0.0072141774 0.097949423 0.079213381
0.025344873 0.098025881 0.080260992
0.066084243 0.098097347 0.081260681
0.10688636 0.09823098 0.083094358
0.13970412 0.098544203 0.087486029
0.3757737 0.089944161 0.081173658
-0.16931438 0.12988323 0.072102308
-0.13700014 0.13002369 0.073692083
-0.1045875 0.13010976 0.074663401
-0.072104946 0.13013837 0.074970484
-0.039623432 0.13017946 0.075445414
-0.0071140751 0.13018367 0.075492382
0.025397694 0.13018718 0.075539589
0.066048265 0.1302658 0.07642293
0.10673256 0.13035545 0.077446699
0.13934848 0.13050774 0.079193592
0.16938007 0.13351169 0.08235383
-0.16065177 0.15368176 0.066578865
-0.13641652 0.15373367 0.067096233
-0.1041003 0.153824 0.067997694
-0.071722962 0.15385762 0.068335533
-0.039342798 0.15390483 0.068806887
-0.0069373176 0.15392345 0.06899333
0.025479916 0.15386999 0.068457603
0.065994233 0.15398246 0.069581985
0.10653856 0.15404838 0.070240974
0.13902023 0.15416703 0.071425676
0.17423441 0.15968096 0.072580099
0.19558324 0.17004955 0.068253994
-0.43645695 0.68070668 0.06927371
-0.43596348 0.7042495 0.067137241
-0.32422012 -0.32269621 0.12299442
-0.28827718 -0.3205938 0.10592461
-0.22478014 -0.33962357 0.12533116
-0.19037737 -0.33830529 0.11525846
-0.15649316 -0.33727852 0.10741162
-0.13139084 -0.33674654 0.10334778
-0.11472997 -0.3364225 0.10087156
0.025111388 -0.33638021 0.10054779
0.058030885 -0.33698884 0.10519791
0.091146782 -0.33797655 0.11274695
0.12455317 -0.33918288 0.12196469
0.14982991 -0.34022066 0.12989402
0.22348747 -0.32142264 0.11265469
0.24943203 -0.32295188 0.12506986
-0.4297626 -0.28825638 0.1118896
-0.38956532 -0.30542406 0.11735964
0.19792712 -0.32012084 0.10208488
0.29699197 -0.30396187 0.10469651
0.32339835 -0.30547333 0.11778641
0.36637828 0.19319236 0.12837815
0.36519593 0.21714357 0.12029386
0.36442327 0.24132898 0.11501122
-0.016942561 0.39363998 0.13074493
-0.4342781 0.79452628 0.13211632
-0.43335027 0.8178792 0.12796021
-0.18708296 -0.36129284 0.16163087
-0.16104545 -0.36033282 0.15470243
-0.12683803 -0.35952279 0.14885569
-0.092936561 -0.35896891 0.14485979
-0.059252083 -0.35869274 0.14286613
-0.025685519 -0.35862535 0.14237976
0.0078016184 -0.35903656 0.14534712
0.032968715 -0.35939389 0.14792681
0.058215946 -0.36012998 0.15323925
0.0920403 -0.36098266 0.15939236
0.11754677 -0.36169285 0.16451716
-0.38934147 -0.32698211 0.15779042
-0.36090964 -0.32494748 0.14127278
-0.29569682 -0.34323305 0.15291262
-0.2598891 -0.34129933 0.13813591
0.16683178 -0.34101543 0.13596678
0.19251576 -0.34219676 0.14499402
0.2272321 -0.34403032 0.15900469
0.26693189 -0.3240132 0.13368726
0.2934413 -0.32559559 0.14653492
0.32002145 -0.32699144 0.15786624
-0.42044622 -0.30866018 0.14538431
0.35387501 -0.090540223 0.15839767
0.36427796 0.016247541 0.1525085
0.36423686 0.055573136 0.15229416
0.3603867 0.11956123 0.1449585
0.33728945 0.24766749 0.1607554
-0.033730298 0.39421543 0.13351345
-0.43737137 0.69917583 0.14597249
-0.43653041 0.72302067 0.14220548
-0.43565196 0.75509042 0.13827062
-0.43484992 0.77882051 0.13467789
-0.26674631 -0.36471406 0.18632126
-0.23097235 -0.36301768 0.1740787
-0.20452496 -0.36192062 0.16616082
-0.13073969 -0.38340268 0.1971209
-0.09617427 -0.38300145 0.19437742
-0.061701789 -0.38262114 0.19177747
-0.027416661 -0.38271081 0.19239092
0.0068687014 -0.38291347 0.19377589
0.032604493 -0.38312775 0.19524074
0.13471839 -0.36252257 0.17050457
0.16071323 -0.36390421 0.18047643
0.19570041 -0.36573213 0.19366837
-0.43178847 -0.33193508 0.19800568
-0.39505079 -0.3391428 0.1867249
-0.36071441 -0.34752047 0.18567443
-0.33265588 -0.34569299 0.17171001
0.2626465 -0.34622017 0.17573881
0.28975987 -0.34815353 0.19051242
0.35606068 -0.073767722 0.17417169
0.35567856 0.028219186 0.17141366
0.35498071 0.044980697 0.16637754
0.34158084 0.15779084 0.19354749
0.35924152 0.2355153 0.19712734
-0.069534138 0.36937755 0.17803097
-0.43161184 0.88024354 0.19718647
-0.23746517 -0.38750991 0.22520256
-0.21045652 -0.38638762 0.21752954
0.12791422 -0.38659728 0.21896267
0.15431672 -0.3877781 0.22703624
-0.42126232 -0.35333553 0.23011041
-0.3510839 -0.3704733 0.22788501
-0.32240278 -0.36833212 0.21243238
-0.29441518 -0.36652961 0.19942403
-0.19262044 -0.38572708 0.21301222
-0.16583262 -0.38447094 0.20442438
0.058397926 -0.38395211 0.20087767
0.093002178 -0.38516799 0.20919061
0.23122607 -0.36777607 0.20841908
0.25828314 -0.36950356 0.22088599
-0.3997111 -0.3506515 0.20959973
0.30800301 -0.34940237 0.20005512
0.32667619 -0.350952 0.21189594
0.36332431 -0.10900925 0.22659206
0.33708993 -0.013229508 0.22584176
0.3620556 0.099384658 0.21743655
0.34446707 0.12525827 0.21560192
0.36255321 0.16044661 0.2210269
0.36138988 0.1942524 0.21263194
0.32706779 0.22053361 0.21507549
0.36021289 0.21918625 0.20413756
-0.43695715 0.7515772 0.22198558
-0.43559143 0.78397894 0.21564937
-0.4343892 0.8164795 0.2100718
-0.4328391 0.84815443 0.20288014
-0.29307631 -0.3907972 0.24767756
-0.26489615 -0.38891259 0.23479152
-0.16225399 -0.41014564 0.25915527
-0.13510607 -0.40889886 0.25105762
-0.099474475 -0.40793559 0.24480033
-0.064260267 -0.40764511 0.2429142
-0.029126726 -0.40746966 0.24177504
0.005869057 -0.40805668 0.24558687
0.032193664 -0.40852183 0.24860859
0.058603849 -0.4093183 0.25378227
0.085155234 -0.41048282 0.26134562
0.1721724 -0.3889541 0.23507619
0.19899742 -0.39026216 0.24401927
0.22619261 -0.39193186 0.25543571
-0.39013886 -0.3734951 0.24969316
-0.37078565 -0.37217787 0.24018645
0.27686951 -0.37118074 0.23299026
0.2954824 -0.37265235 0.24361086
0.31395701 -0.37376183 0.25161791
0.34689319 0.013156354 0.23414111
0.34808874 0.057309933 0.2432766
0.34772804 0.092221536 0.24052048
0.33254656 0.12880823 0.25955725
0.32982889 0.17078605 0.23749304
0.3483597 0.24182564 0.2453475
0.24460709 -0.39326784 0.26456952
0.26328951 -0.39480537 0.2750814
0.37307596 -0.36208507 0.2969687
0.365549 -0.33677092 0.28562927
0.38893443 -0.33344147 0.28259492
0.37240914 -0.30768406 0.29215622
0.38925892 -0.29795104 0.2848134
0.39062074 -0.27201849 0.29412436
0.33380118 0.10300871 0.26974344
0.3523896 0.2191205 0.27614117
0.29987234 0.24692875 0.28434491
-0.43458226 0.82227957 0.29419613
0.36653224 -0.37350214 0.31471372
0.35543764 0.19496408 0.29943252
0.29410297 0.23283747 0.3149693
0.32675508 0.22019121 0.31032062
0.26604486 0.24962014 0.30490875
-0.43763381 0.75560778 0.30887794
-0.43655935 0.78082848 0.30370831
-0.43536684 0.80573505 0.29797125
0.34417823 -0.38794753 0.35399485
0.36067536 -0.38593316 0.33945632
0.36070645 0.034696154 0.33969426
0.32581991 0.11804039 0.35435367
0.32563981 0.14554378 0.35279369
0.30818564 0.20165125 0.36148238
0.33347863 0.19951543 0.34166145
0.26104534 0.2279222 0.3498764
0.29679367 0.21772903 0.34087205
0.35702154 -0.42914581 0.38256407
0.33727589 -0.40919569 0.37346911
0.36406493 -0.40800908 0.36535716
0.32913089 -0.00088206679 0.38302732
0.34754395 0.16656917 0.38132143
0.26455957 0.20474228 0.39016151
0.30095041 0.19435799 0.38038492
0.32817486 0.18452173 0.37474799
0.235627 0.22201532 0.37799191
0.25340253 0.2209121 0.36843896
0.35307959 -0.45482981 0.42626476
0.33158973 -0.43249553 0.40432191
0.23757677 -0.094310984 0.40332007
0.26574111 -0.094309956 0.40324187
0.23808393 -0.075582102 0.40990829
0.26378632 -0.063028529 0.41655898
0.29556221 -0.056752041 0.41977859
0.31333515 -0.075577095 0.40926337
0.23872663 -0.056751944 0.418257
0.33139458 -0.019203797 0.402632
0.30440393 0.16023955 0.41437221
0.32254145 0.16900131 0.40764856
0.23782276 0.2065047 0.4065156
0.26698619 0.18880838 0.41758227
0.29355872 0.1870245 0.39975858
-0.43799275 0.74995232 0.40086627
-0.43797085 0.7686761 0.40075731
0.33594066 -0.45737401 0.44200182
-0.41139424 -0.42184997 0.45998716
-0.39026123 -0.420266 0.44915795
-0.36179724 -0.42046943 0.45054793
0.31740737 -0.43907377 0.44704938
0.23959863 -0.037770368 0.42958474
0.2682001 -0.037759379 0.43101597
0.29684305 -0.037747309 0.43257713
0.23424561 -0.0058524385 0.44275928
0.26922625 -0.0090366527 0.44262671
0.29776293 -0.0090550259 0.44176984
0.31730434 0.00057413056 0.44609308
0.20339976 0.020056874 0.45823574
0.23190708 0.019931555 0.45416999
0.2608071 0.019984156 0.45588255
0.28988105 0.020081989 0.45905542
0.31782904 0.019832931 0.45096183
0.35597131 0.03893207 0.44974327
0.35587931 0.058034644 0.44899583
0.31736225 0.086604454 0.44663048
0.35448927 0.086059429 0.43770981
0.31665766 0.12429901 0.44009256
0.26943198 0.17247179 0.44521689
0.29919162 0.15428686 0.45604587
0.23080146 0.19098687 0.43935251
0.34117612 -0.48412988 0.48734236
0.20510778 -0.44506609 0.4859705
0.30247781 -0.42607635 0.4888835
0.2043474 0.039851181 0.47362328
0.29156941 0.039969385 0.4766891
0.30206588 0.059686713 0.48476696
0.32082924 0.059411056 0.47880054
0.30211267 0.1373485 0.48523498
0.26289427 0.15635982 0.48053074
0.28115374 0.15533864 0.46846747
0.23290777 0.17459092 0.46815777
0.32351121 -0.46734551 0.50368547
0.29371077 -0.44705126 0.4988637
0.18723127 0.041426025 0.51453376
0.23636407 0.041444719 0.51502323
0.26610577 0.041576952 0.51845694
0.28389436 0.060304262 0.49813533
0.34446216 0.061119847 0.51580048
0.34366357 0.090172224 0.50888419
0.26546699 0.1393252 0.51091361
0.29449207 0.12917003 0.5065577
0.22575554 0.1583266 0.50375342
0.3264128 -0.43217927 0.53060913
0.16850798 0.061973803 0.53428602
0.19806805 0.061877191 0.53219461
0.2278733 0.061975472 0.53432059
0.25760752 0.062005401 0.53497267
0.16878378 0.082083024 0.54025769
0.1954596 0.088950016 0.54448414
0.22840193 0.082174189 0.54195142
0.26856998 0.092442684 0.54755712
0.30121827 0.08881361 0.54242921
0.28672624 0.12095586 0.5287919
0.37211695 0.0036857314 0.58082891
0.37680542 0.025003754 0.61889434
0.3596254 0.025872722 0.64711833
0.38688725 -0.03568298 0.70074868
0.34723592 -0.014258578 0.72382331
0.35979885 -0.035369836 0.74143267
0.36232916 -0.067532249 0.76384425
0 0 0 1 0 0 0 1 0 0 0 1 0 0 0 0 0 1131 1 0 0
