ply
format ascii 1.0
comment PCL generated
element vertex 514
property float x
property float y
property float z
element camera 1
property float view_px
property float view_py
property float view_pz
property float x_axisx
property float x_axisy
property float x_axisz
property float y_axisx
property float y_axisy
property float y_axisz
property float z_axisx
property float z_axisy
property float z_axisz
property float focal
property float scalex
property float scaley
property float centerx
property float centery
property int viewportx
property int viewporty
property float k1
property float k2
end_header
0.11267556 -0.095072903 -0.30297852
0.17597708 -0.10562367 -0.30343962
0.23511103 -0.10353965 -0.30256939
0.28178012 -0.095181048 -0.29946423
0.04937312 -0.063445158 -0.30161572
0.10204796 -0.063300222 -0.30891514
0.17553049 -0.063185453 -0.31505919
0.23861323 -0.063201785 -0.31437111
0.30240706 -0.063375801 -0.30565548
0.027569443 -0.22512425 -0.25832462
0.10236976 -0.22348553 -0.2796154
0.17663975 -0.222959 -0.2864542
0.24097067 -0.22373806 -0.27633333
-0.0806541 -0.18340485 -0.23944616
-0.036799327 -0.18226081 -0.25777102
0.027850237 -0.18109436 -0.27672338
0.10227506 -0.18030079 -0.28950024
0.17635778 -0.18004611 -0.29359961
0.24010552 -0.18025856 -0.29027033
0.30456585 -0.18088433 -0.28013706
0.37029231 -0.1819644 -0.2627244
0.43112019 -0.18327539 -0.241642
-0.089183658 -0.11423872 -0.24160099
-0.036649503 -0.1177862 -0.26187706
0.027931511 -0.1170118 -0.28194284
0.098715879 -0.12367026 -0.2920599
0.17629096 -0.13763507 -0.29523754
0.24519025 -0.13242836 -0.29343605
0.30663127 -0.11946378 -0.28702402
0.36953235 -0.11748226 -0.26980591
0.43407837 -0.11570004 -0.24565887
-0.10159044 -0.06441997 -0.25094366
-0.036058143 -0.063911572 -0.2773571
0.017541729 -0.063594371 -0.29375458
0.37072593 -0.055797759 -0.28334522
0.43466786 -0.053513147 -0.26180983
0.48053113 -0.053856205 -0.24075985
-0.12677442 -0.20792368 -0.19704723
0.48620799 -0.20758438 -0.20194721
-0.16259298 -0.16895555 -0.18831587
-0.11199822 -0.18012255 -0.22234488
0.46102673 -0.18428132 -0.22577095
0.49572515 -0.17420709 -0.21161222
0.5443235 -0.16494064 -0.18151093
-0.19456226 -0.099055849 -0.17502499
-0.1571411 -0.11571802 -0.20131397
-0.11954537 -0.12468152 -0.22319651
0.46076971 -0.14075793 -0.22762537
0.49513742 -0.11956717 -0.21551132
0.55117333 -0.098695718 -0.18459129
-0.15814576 -0.065093063 -0.2160058
0.51623452 -0.054180577 -0.21982527
0.56553221 -0.032641351 -0.18626356
-0.66436088 -0.22546618 -0.1070385
-0.61817086 -0.22519486 -0.11104774
-0.55702579 -0.22286801 -0.11197615
-0.49386457 -0.22513834 -0.11182499
-0.4257589 -0.22497323 -0.11408615
-0.35800427 -0.22493045 -0.11463261
-0.29070741 -0.2251478 -0.11168289
-0.22784194 -0.22312556 -0.10841227
-0.16683112 -0.21408173 -0.1081624
-0.74448967 -0.15781915 -0.10346603
-0.67014873 -0.16781621 -0.1287632
-0.62378776 -0.16747603 -0.13493109
-0.55644119 -0.16743571 -0.1356926
-0.48903051 -0.16736743 -0.13694334
-0.42168656 -0.16730371 -0.13812447
-0.35458741 -0.16730794 -0.1379981
-0.28771529 -0.16741706 -0.1359601
-0.21982226 -0.16700882 -0.14380121
0.58290887 -0.16666193 -0.15009594
0.62026179 -0.16389538 -0.11748934
-0.7434634 -0.10110541 -0.10716915
-0.67628157 -0.095624387 -0.1399951
-0.61962903 -0.099728622 -0.15237188
-0.55240786 -0.099671125 -0.15439892
-0.48547789 -0.099637799 -0.15539265
-0.41857404 -0.099606268 -0.15650797
-0.35196224 -0.099624649 -0.15592527
-0.28567612 -0.099725083 -0.15251875
-0.22986028 -0.099672489 -0.15429354
0.58123207 -0.11060365 -0.1595664
0.614519 -0.094756439 -0.13020277
-0.74253082 -0.033250757 -0.11053419
-0.679793 -0.037440017 -0.14369154
-0.61762238 -0.032868236 -0.16078472
-0.55080426 -0.032858089 -0.16183329
-0.48416522 -0.035626672 -0.16222143
-0.4172805 -0.032838643 -0.16414404
-0.34814858 -0.035619702 -0.16306877
-0.28747493 -0.035644319 -0.16044521
-0.22098148 -0.035635032 -0.15951014
-0.15226589 -0.021800309 -0.15046644
-0.086029783 -0.021845192 -0.139256
-0.024952233 -0.027520578 -0.12624884
0.036643855 -0.021948334 -0.11255741
0.070485979 -0.03329391 -0.10444021
0.61437929 -0.037456952 -0.14886618
-0.74295557 0.023232877 -0.10900164
-0.67352033 0.016089194 -0.15072107
-0.61746573 0.022627354 -0.16144037
-0.55065572 0.022614542 -0.16251612
-0.48403522 0.017857745 -0.16288185
-0.41742557 0.022605449 -0.16328001
-0.3541294 0.017862633 -0.16278172
-0.2815685 0.017883755 -0.16012573
-0.21547171 0.017935552 -0.15495443
-0.15241447 0.022776205 -0.14852095
-0.08603543 0.022883311 -0.13922501
-0.016570978 0.014615244 -0.12498617
0.036643557 0.023191761 -0.11251879
0.070485979 0.01197555 -0.10401297
0.62928009 -0.010663091 -0.14067698
-0.74486196 0.068611853 -0.10212231
-0.67856729 0.078804806 -0.13978624
-0.61913002 0.078341253 -0.15447998
-0.55196512 0.078275852 -0.15644789
-0.4851661 0.078259379 -0.15700436
-0.41850534 0.078263529 -0.15689468
-0.3519564 0.078290604 -0.15598822
-0.28548032 0.07834997 -0.15410995
-0.21914136 0.078474082 -0.15003729
-0.15284202 0.07869143 -0.14296436
-0.086363792 0.078994103 -0.13312817
-0.019546419 0.079412758 -0.11956215
0.034322977 0.07525035 -0.10761929
-0.68158925 0.14244004 -0.11937332
-0.62358475 0.14609626 -0.13581133
-0.55564761 0.14590383 -0.1393795
-0.48819658 0.14580373 -0.14125967
-0.42111912 0.14579023 -0.14145756
-0.35424054 0.14585282 -0.14037657
-0.28741512 0.14595623 -0.13841057
-0.22079024 0.1462155 -0.13357735
-0.15408917 0.14658917 -0.12673998
-0.087253645 0.14713664 -0.11659336
-0.024411641 0.13397631 -0.10861683
-0.66715991 0.20763402 -0.11090088
-0.61734462 0.20739052 -0.11453342
-0.55798376 0.21203397 -0.11539745
-0.49320623 0.21486707 -0.11524296
-0.42549846 0.21483886 -0.11560297
-0.35801727 0.21492337 -0.11453533
-0.29327881 0.2121539 -0.11380434
-0.22280174 0.20368978 -0.11343527
-0.16116266 0.19839765 -0.10840845
-0.11067387 0.19314119 -0.10258627
-0.67362785 -0.29449603 -0.054824829
-0.61910331 -0.30670375 -0.058236122
-0.55026162 -0.30963841 -0.057705879
-0.48092142 -0.30944178 -0.059690475
-0.41883487 -0.31291714 -0.057823181
-0.36266997 -0.30623654 -0.062968254
-0.29736313 -0.30964532 -0.057645798
-0.22797716 -0.29769334 -0.061727524
-0.15987904 -0.29868183 -0.051449776
-0.090912551 -0.28739372 -0.048561573
-0.04527311 -0.28848523 -0.036746979
-0.74213815 -0.22816478 -0.070254803
-0.67437363 -0.25389969 -0.082304478
-0.611467 -0.26071543 -0.091281891
-0.54318905 -0.2606777 -0.09172821
-0.48595068 -0.2604911 -0.093929768
-0.4288635 -0.26033753 -0.095745087
-0.36079028 -0.26035011 -0.095594883
-0.29299867 -0.26056385 -0.093071938
-0.21945754 -0.25513569 -0.090235233
-0.15722789 -0.24980985 -0.085947514
-0.089560941 -0.25080231 -0.073676586
-0.026047245 -0.25443089 -0.057310581
0.024155468 -0.26548108 -0.035000801
-0.74530339 -0.19194978 -0.10052967
-0.73254693 -0.12538245 -0.063769341
0.63737762 -0.11269666 -0.098600864
0.10833956 -0.02579613 -0.094696045
0.16186786 -0.024365021 -0.077963352
0.23165625 -0.024475239 -0.054289818
0.27887362 -0.033817627 -0.036439419
0.10227615 0.016584318 -0.095636845
0.16187784 0.0187052 -0.077264309
0.23164962 0.01893479 -0.054161549
0.27888036 0.0009156419 -0.036343098
0.63756979 0.012019943 -0.097601891
-0.74598587 0.10273545 -0.098067284
0.047821589 0.1026584 -0.10006523
0.093246199 0.080276467 -0.091497898
0.16208315 0.080916263 -0.070837498
0.22909699 0.078727216 -0.047981262
-0.74632967 0.12547266 -0.096826553
-0.70429122 0.17163721 -0.084064484
-0.014634386 0.16528481 -0.095126152
0.03637176 0.14862537 -0.088971615
0.093385816 0.14944135 -0.073892117
0.1597321 0.14766327 -0.053294182
0.2092879 0.13972043 -0.039106369
-0.73917091 0.22066693 -0.03918457
-0.68018842 0.22431338 -0.089479923
-0.62085164 0.23867133 -0.099755764
-0.26947987 0.23864475 -0.10006571
-0.22448763 0.23894005 -0.096582413
-0.15223253 0.23026191 -0.091917038
-0.08611998 0.22003761 -0.08503437
-0.020981297 0.21813196 -0.072941303
0.036016203 0.21928206 -0.058041096
0.088942468 0.20597084 -0.050684452
0.13989559 0.19756539 -0.038732052
-0.67189753 0.28267899 -0.067826271
-0.61628973 0.28702602 -0.070416451
-0.54704034 0.28674689 -0.073242664
-0.4811742 0.28955087 -0.073666096
-0.42086446 0.28655612 -0.075211525
-0.36069074 0.28354073 -0.07660675
-0.29565069 0.28691161 -0.071541309
-0.22763485 0.28756499 -0.065096378
-0.1593461 0.28823119 -0.058425903
-0.090679541 0.27721506 -0.052862644
-0.021861665 0.26646498 -0.044254303
-0.48481962 0.33640206 -0.038581848
-0.41545355 0.33643562 -0.038291454
-0.34626633 0.33663517 -0.036563396
-0.6664629 -0.37131312 0.01093483
-0.61583579 -0.37740046 0.0091657639
-0.5578028 -0.37176403 0.0012693405
-0.49221513 -0.37412804 0.0014224052
-0.42161146 -0.37393689 -0.00018644333
-0.35131451 -0.37394276 -0.00013494492
-0.28658199 -0.37722746 0.0076746941
-0.23015979 -0.37248814 0.0073552132
-0.16440985 -0.36304784 0.0074834824
-0.094449952 -0.35618731 0.015771389
-0.023735158 -0.34058025 0.016990185
-0.74523067 -0.31367484 -0.016693115
-0.67279148 -0.3358472 -0.026925087
-0.62454259 -0.33500999 -0.034693718
-0.23103356 -0.33539474 -0.031123161
-0.16235977 -0.33668429 -0.019159794
-0.097232789 -0.32285145 -0.01819706
-0.018097416 -0.30446038 -0.015606403
0.035365712 -0.30349877 -0.0014762878
0.088148043 -0.29896128 0.012732506
0.14146955 -0.29459772 0.029423237
-0.7417866 -0.26594907 -0.029475689
0.04727019 -0.26603708 -0.028436661
0.093858197 -0.2673015 -0.013502598
0.16478331 -0.26982307 0.016273499
0.31476793 -0.022295605 -0.022280693
0.36737674 -0.026277669 0.00032424927
0.30767405 0.026530989 -0.024015903
0.36097917 0.017461494 -0.0012454987
0.41283292 0.01295098 0.022588253
0.63544858 0.024701841 0.01369381
0.25592065 0.10523336 -0.033172131
0.3035385 0.082562305 -0.017512798
0.36431652 0.083386332 0.0091056824
0.40115118 0.072013654 0.023934364
0.18636832 0.17474841 -0.033545017
0.24008973 0.15563306 -0.020637035
0.30536461 0.15376896 0.0061683655
0.361904 0.13898657 0.025062084
-0.74300861 0.24500677 -0.024940491
0.099532619 0.23896576 -0.02784586
0.16679469 0.22572717 -0.012193203
0.2316521 0.21765515 0.0082998276
0.29498488 0.20200025 0.025279045
-0.74479353 0.26886103 -0.018315792
-0.092186436 0.31473514 -0.024934769
-0.022691704 0.30395976 -0.017171383
0.035568789 0.28047851 -0.018996716
0.093968779 0.28236163 0.00054121017
0.15901926 0.27847588 0.021727562
-0.66940844 0.35543033 -0.0090456009
-0.62294602 0.34774619 -0.021348
-0.55806398 0.35021457 -0.020168304
-0.48968771 0.36277544 -0.012311459
-0.41914788 0.36239341 -0.015413284
-0.34977531 0.36291021 -0.011218071
-0.29014996 0.35002142 -0.021790504
-0.23297712 0.35124019 -0.01161623
-0.16358194 0.35222402 -0.0033917427
-0.098768085 0.35139936 0.0094747543
-0.023797169 0.34304497 0.018948555
0.035219204 0.31865969 0.011481285
0.070485979 0.31995997 0.023545742
-0.66136384 0.39067343 0.022521019
-0.61462188 0.39095005 0.024633408
-0.55485761 0.3905023 0.021211147
-0.49600115 0.39059675 0.021933079
-0.42420372 0.38979781 0.015828133
-0.353737 0.38999698 0.017350197
-0.28347963 0.39050889 0.021262646
-0.23700824 0.39144433 0.028410435
-0.67480588 -0.4193719 0.078848839
-0.62217486 -0.41671374 0.058538914
-0.55051208 -0.4166936 0.058383465
-0.49011722 -0.41620263 0.054633141
-0.43004969 -0.41586262 0.052033901
-0.35880357 -0.41611004 0.053925037
-0.2882531 -0.41725317 0.06265974
-0.21707129 -0.41808069 0.068983078
-0.15860432 -0.42064148 0.088551521
-0.74332738 -0.3697601 0.06508112
-0.16690008 -0.39054313 0.039983273
-0.090598464 -0.3865414 0.055555344
-0.02998358 -0.379134 0.063342094
0.034692228 -0.3569414 0.057367325
0.088495642 -0.35266617 0.073101521
0.14297447 -0.34894282 0.094587803
-0.73654187 -0.31923264 0.039155483
0.10612306 -0.31935585 0.040385723
0.17096169 -0.31204402 0.062447071
0.23850805 -0.29070485 0.073770523
0.2872588 -0.27560785 0.084590435
0.22519241 -0.2724286 0.047044277
0.31048372 -0.25066099 0.073406219
0.33583832 -0.25189266 0.089405537
0.7093271 -0.09505105 0.087422371
0.45033073 -0.010663287 0.039698124
0.501616 -0.010663352 0.066625595
0.55368578 -0.010663482 0.094218731
0.70960069 -0.039514303 0.077003479
0.74548423 -0.034784418 0.087345123
0.4505097 0.02496849 0.041152
0.50198758 0.025294229 0.069304943
0.61940765 0.025184877 0.05604887
0.69932795 0.021383382 0.077729225
0.74585557 0.025531415 0.089068413
0.43401769 0.087871991 0.044833183
0.49616486 0.082034603 0.077039242
0.63893747 0.080910385 0.08475256
0.69712245 0.073710248 0.086745262
0.74737155 0.061860077 0.096101284
0.37189189 0.17177376 0.046726704
0.42675614 0.15402715 0.066598415
0.48013577 0.13391878 0.086041927
0.24850589 0.2504032 0.038790226
0.3082054 0.21911104 0.043551445
0.3632881 0.21972759 0.072982311
0.408158 0.20641163 0.088949203
0.17763934 0.29882503 0.04833746
0.2331997 0.28602752 0.063550472
0.29434043 0.26118729 0.071356297
0.33565727 0.25450796 0.087267399
-0.74273062 0.34810877 0.062801361
-0.071729422 0.36857766 0.034797668
-0.024711944 0.37030956 0.048858166
0.034703214 0.35937223 0.056421757
0.094356813 0.34396589 0.060610294
0.16054687 0.33151671 0.074805737
-0.67364788 0.4214142 0.073996067
-0.62412846 0.42048562 0.067292213
-0.55127382 0.41977581 0.062170982
-0.47900513 0.41937017 0.059243679
-0.41799986 0.41825175 0.051172733
-0.35887915 0.41871327 0.054502487
-0.28767711 0.41914797 0.057639122
-0.21631971 0.41364285 0.060668945
-0.16350657 0.40498781 0.058282375
-0.096821755 0.39574167 0.061248779
-0.037775815 0.39839733 0.081541538
-0.65909421 -0.44841129 0.11491823
-0.61123943 -0.4489193 0.11858368
-0.54917192 -0.44806728 0.11243391
-0.48737052 -0.44723043 0.10639524
-0.41440147 -0.44706136 0.10517502
-0.35371402 -0.44699103 0.10466862
-0.29447961 -0.44865617 0.11668491
-0.22248322 -0.45017114 0.12761879
-0.17512836 -0.45276919 0.14636755
-0.099609196 -0.42389852 0.11343956
-0.039928414 -0.42791376 0.14412117
-0.74002957 -0.39138013 0.1463213
-0.0022631139 -0.39865837 0.10587168
0.03392354 -0.40095064 0.1244812
0.094850019 -0.38520616 0.12839127
0.1681985 -0.36098129 0.13032818
0.2182976 -0.35555711 0.15595961
0.24708155 -0.32117903 0.11910868
0.30611211 -0.29508856 0.12213087
0.35183141 -0.27973148 0.13328695
0.37468785 -0.25399318 0.11669111
0.41488963 -0.25666574 0.15141201
0.71197093 -0.20804317 0.16079521
0.70552683 -0.16945568 0.12859869
0.7509259 -0.1639021 0.14068079
0.71236122 -0.13177255 0.10225248
0.76442945 -0.10808875 0.11855125
0.8255378 -0.09046033 0.14550686
0.58044684 -0.010663287 0.11030865
0.77696252 -0.010663482 0.12036419
0.83205962 -0.035268303 0.14691257
0.85957229 -0.035322081 0.15903473
0.56776631 0.025724091 0.10672855
0.60427308 0.025705267 0.10760689
0.77579844 0.025816347 0.11515093
0.81479979 0.013840624 0.14320135
0.5599339 0.089669228 0.11472797
0.61061192 0.092518419 0.10927439
0.69975674 0.11035265 0.099829197
0.76598918 0.091484539 0.11469221
0.80644727 0.087504305 0.14254951
0.45805812 0.18312295 0.10243797
0.49879518 0.16461414 0.11691999
0.55587667 0.14624842 0.14006805
0.63461328 0.15711707 0.12486029
0.7003994 0.1519773 0.1234479
0.75145733 0.15593886 0.13776875
0.43581796 0.220717 0.11942959
0.47637019 0.22305484 0.15139055
0.61275637 0.18652612 0.15769815
0.68701255 0.18662527 0.15931034
0.26399583 0.30379015 0.097952366
0.30564827 0.29751894 0.11587763
0.36394039 0.27878636 0.13238192
0.41403282 0.25926617 0.14346123
0.10698301 0.37828556 0.11361456
0.16799891 0.36334357 0.12395906
0.23518486 0.33700043 0.12471294
0.29247236 0.33464885 0.15984154
-0.74285913 0.40833268 0.15745974
-0.099319041 0.42609477 0.10777378
-0.021122448 0.42298889 0.12900591
0.034020949 0.40290397 0.11597633
0.070485979 0.40617776 0.14099503
0.16911161 0.38383931 0.15870571
-0.661502 0.45292899 0.12534428
-0.61165082 0.4522154 0.12046576
-0.54987466 0.45156565 0.11602402
-0.48774597 0.45047376 0.10855818
-0.41417503 0.44975895 0.10367107
-0.35455772 0.4508144 0.1108861
-0.2940985 0.45114189 0.11312532
-0.22225532 0.45290449 0.12517691
-0.15071484 0.45641935 0.14920759
-0.47968754 -0.48581308 0.20436335
-0.4291752 -0.48537096 0.2013402
-0.35466009 -0.48584589 0.20458698
-0.74716043 -0.43187514 0.17439175
-0.13968563 -0.45577577 0.16806698
-0.10432886 -0.46018723 0.19990349
-0.0037533343 -0.431353 0.1704011
0.020603333 -0.43466562 0.19571686
0.10792426 -0.40924278 0.19180632
0.18267426 -0.38434392 0.19191313
0.24448022 -0.35865167 0.18467474
0.30745772 -0.33481786 0.1948905
0.36864838 -0.30055523 0.18329334
0.42160276 -0.28654096 0.21370125
0.44278547 -0.25886306 0.17995214
0.47248504 -0.26191267 0.21956921
0.63401318 -0.2360758 0.20929098
0.7025739 -0.22695909 0.19691515
0.75683916 -0.21030328 0.19749308
0.76187003 -0.18350953 0.16336632
0.80980611 -0.17355387 0.21131659
0.82489073 -0.12194625 0.16877604
0.79124856 -0.060370635 0.18435764
0.83193731 -0.052010361 0.18115807
0.83643675 0.026410758 0.1654191
0.86874151 0.014439696 0.19625759
0.84015512 0.088711381 0.18100071
0.58901501 0.16217983 0.163311
0.78744125 0.16239494 0.16730309
0.82852435 0.14760402 0.20179796
0.51037228 0.23006596 0.19007969
0.55107337 0.19652051 0.18481398
0.63043547 0.22583069 0.1888237
0.69356525 0.22617999 0.19359493
0.75625896 0.21388377 0.19529152
0.79440856 0.18903948 0.19851255
0.38315111 0.31444514 0.204422
0.43630216 0.28038973 0.195714
0.46987534 0.26391661 0.19838095
0.24364644 0.36039475 0.16920185
0.29470217 0.3506588 0.19260693
0.033237688 0.43687677 0.18558645
0.10769194 0.41049939 0.17401743
0.17030688 0.40161765 0.20117235
0.22139396 0.39175761 0.22299719
-0.4911094 0.4885245 0.19806337
-0.42857748 0.48842487 0.19741726
-0.35588774 0.49101961 0.21427011
-0.30705935 0.49273038 0.2253828
-0.09116587 0.46199057 0.18729925
-0.055353642 0.46752712 0.22515297
-0.58855557 -0.49227053 0.24851322
-0.51162565 -0.49153855 0.24350595
-0.29661646 -0.49172005 0.24474955
-0.74331248 -0.44299403 0.25935364
-0.08082284 -0.46458992 0.2316761
0.045140315 -0.44153944 0.2482419
0.27264386 -0.36443952 0.23837852
0.61925316 -0.25316224 0.27119541
0.69384015 -0.25239417 0.26069641
0.75540686 -0.2389705 0.25107098
0.85242665 -0.13678256 0.23242331
0.87871945 0.077758573 0.23676252
0.5655461 0.23064558 0.25426435
0.60820866 0.24539495 0.2820406
0.82304442 0.20616162 0.26960135
0.50025284 0.26742131 0.23976469
0.62987006 0.2690286 0.25874996
0.69413388 0.26938474 0.26295519
0.73118651 0.26886377 0.25680256
0.29808438 0.36866742 0.24084377
0.34755319 0.34196755 0.22775126
0.070485979 0.44412521 0.23789787
-0.61654389 0.49813968 0.26051521
-0.28390527 0.49561018 0.24408484
0.69389963 -0.27041903 0.33006954
0.7900399 0.24631977 0.2940588
0.88200569 -0.037714195 0.46972704
0.86231458 -0.037967645 0.50269413
0.64498186 0.20819223 0.50951529
0 0 0 1 0 0 0 1 0 0 0 1 0 0 0 0 0 514 1 0 0
