ply
format ascii 1.0
comment PCL generated
element vertex 881
property float x
property float y
property float z
element camera 1
property float view_px
property float view_py
property float view_pz
property float x_axisx
property float x_axisy
property float x_axisz
property float y_axisx
property float y_axisy
property float y_axisz
property float z_axisx
property float z_axisy
property float z_axisz
property float focal
property float scalex
property float scaley
property float centerx
property float centery
property int viewportx
property int viewporty
property float k1
property float k2
end_header
0.60719436 0.018732205 -0.15717196
0.59943193 0.048776072 -0.16125417
0.62351847 0.043827809 -0.1587677
-0.56133127 -0.11744273 -0.11076951
-0.49299204 -0.11746322 -0.11032772
0.56783193 -0.11740913 -0.11149788
0.59327561 -0.11736992 -0.1123476
0.61932778 -0.11744075 -0.11081362
-0.62902761 -0.066051699 -0.11326218
-0.59867257 -0.078838982 -0.11480427
-0.55920273 -0.082997821 -0.11867547
-0.51656526 -0.082992852 -0.11871386
-0.47451693 -0.083069891 -0.11618876
-0.42378482 -0.080999613 -0.11392617
-0.3810806 -0.074582823 -0.11384845
-0.35028505 -0.077516645 -0.11081743
0.37975752 -0.066105261 -0.11093521
0.41713446 -0.072912045 -0.11245918
0.46166417 -0.077410527 -0.11504793
0.50079739 -0.085239038 -0.11506867
0.54966223 -0.083072588 -0.11609674
0.59178889 -0.083001338 -0.11828923
0.61738551 -0.083006889 -0.11823487
-0.62905324 -0.031886723 -0.11317706
-0.60088241 -0.035262894 -0.11605883
-0.55821538 -0.03179764 -0.12233019
-0.51614785 -0.03181795 -0.12038898
-0.47172189 -0.033953104 -0.11907434
-0.42593381 -0.036732838 -0.11529279
-0.38085648 -0.031861328 -0.11503911
-0.33650526 -0.034016915 -0.1121912
-0.29584381 -0.014775798 -0.11252379
-0.27042535 -0.023331491 -0.11088538
0.34550408 -0.023332484 -0.11117792
0.37096778 -0.03187795 -0.11249781
0.41322437 -0.031855024 -0.11533451
0.46388403 -0.031827148 -0.11831093
0.50619745 -0.03181795 -0.11983252
0.54831815 -0.031803563 -0.1219275
0.59018934 -0.031790573 -0.12468147
0.61605906 -0.040298589 -0.1233027
-0.60722214 0.0090980781 -0.11770988
-0.55818892 0.010757904 -0.1224432
-0.51564175 0.010756449 -0.12241244
-0.47574294 0.0071163448 -0.12141681
-0.42939228 0.0056698518 -0.11974311
-0.39130405 0.0071575874 -0.11775708
-0.34066844 0.0071859108 -0.1146462
-0.29579574 0.010867906 -0.11283803
-0.27043375 0.010891217 -0.11082482
0.34546891 0.0023304978 -0.11143184
0.37109336 0.010882025 -0.11166096
0.41320708 0.010838007 -0.11544847
0.46383503 0.010802672 -0.1185689
0.5058763 0.010764449 -0.12132883
0.54629636 0.010642025 -0.13060069
0.59145284 0.0088413199 -0.13988304
0.62095088 0.0020724023 -0.13679838
-0.62948 0.053638782 -0.11175537
-0.60108417 0.053352136 -0.12124753
-0.5582763 0.053322267 -0.12212086
-0.51618958 0.053386461 -0.12021708
-0.4738794 0.053425673 -0.11897779
-0.42526528 0.055618819 -0.11703467
-0.38451001 0.051106524 -0.11505079
-0.34101486 0.048731949 -0.11260939
-0.29605243 0.036549501 -0.11112261
0.41797382 0.04079276 -0.11254764
0.46188566 0.047888275 -0.11389542
0.49978036 0.055534657 -0.11978602
0.54268098 0.052575026 -0.14622784
0.57889575 0.056570757 -0.15305233
-0.59954298 0.093306437 -0.11675096
-0.55917722 0.096053347 -0.11875939
-0.51718199 0.096178152 -0.11624002
-0.47497088 0.096278578 -0.11424685
-0.42753753 0.094663426 -0.1123178
-0.39001572 0.08784233 -0.11182904
0.50619346 0.096003279 -0.11971688
0.54429364 0.095027447 -0.13933611
0.59399188 0.094843991 -0.14312387
-0.56077743 0.12198725 -0.11282134
-0.51836181 0.12206662 -0.11153102
0.51446176 0.13001004 -0.12102509
0.54624611 0.13637842 -0.12167883
0.59431553 0.13601638 -0.12270594
0.61747491 0.14727616 -0.11789322
0.59566039 -0.24150383 -0.067972183
-0.60286796 -0.21318153 -0.072892666
-0.5615865 -0.21450897 -0.077593803
-0.51849568 -0.21462779 -0.076249123
-0.47064435 -0.21668991 -0.072627544
-0.43170571 -0.2059598 -0.075798988
-0.38006961 -0.20619158 -0.073061466
-0.33685461 -0.20633738 -0.071341515
-0.29370445 -0.20656401 -0.068663597
0.32547489 -0.20672052 -0.066815376
0.3686128 -0.20644155 -0.070111275
0.41498277 -0.21220632 -0.07073307
0.45528615 -0.2149533 -0.072543144
0.50709289 -0.21478027 -0.074512959
0.55003029 -0.21456818 -0.0768857
0.59245086 -0.21420667 -0.080975056
-0.60595816 -0.17260744 -0.091548443
-0.56264752 -0.16754572 -0.097893238
-0.51380056 -0.16987692 -0.095307827
-0.47112787 -0.17000258 -0.093548298
-0.42865321 -0.17021814 -0.090491772
-0.38573167 -0.1703086 -0.089191437
-0.34314722 -0.17055893 -0.085562229
-0.29166216 -0.17075804 -0.082648754
-0.24866009 -0.17093115 -0.080167294
-0.20548595 -0.17105749 -0.078354359
-0.16226257 -0.1711978 -0.076374531
-0.12117712 -0.16919403 -0.073794842
-0.075597733 -0.16276482 -0.072072506
-0.035619501 -0.16114248 -0.070230961
0.0027210116 -0.15413021 -0.070741177
0.12469934 -0.15419938 -0.069619179
0.15078853 -0.16286005 -0.070589066
0.19404666 -0.16259068 -0.074748993
0.23756646 -0.17133991 -0.074271202
0.28058088 -0.17104 -0.078561783
0.32359368 -0.17082921 -0.081623077
0.36634988 -0.17055503 -0.08557272
0.41773847 -0.17033912 -0.088694096
0.46047735 -0.17016636 -0.091175079
0.50312167 -0.1700011 -0.093622208
0.54952794 -0.16742319 -0.09531641
0.59070665 -0.17192867 -0.096754551
0.62365222 -0.1613168 -0.09429121
-0.60597926 -0.12633091 -0.10430217
-0.56221688 -0.12788434 -0.10748076
-0.5196088 -0.12621853 -0.10655212
-0.47336465 -0.12794156 -0.10637927
-0.42568964 -0.12630866 -0.10474896
-0.38305679 -0.1263776 -0.10338545
-0.34042847 -0.1264665 -0.10162973
-0.29799521 -0.12663639 -0.098188877
-0.25530401 -0.12676564 -0.095611572
-0.20408282 -0.12697782 -0.091358662
-0.16113582 -0.12709101 -0.08910656
-0.1181059 -0.12721185 -0.086697102
-0.075022951 -0.12737063 -0.083530903
-0.031818938 -0.12753555 -0.080189705
0.011490664 -0.12778346 -0.075298786
0.037559625 -0.11942007 -0.067957401
0.11071 -0.12626629 -0.070635319
0.15040292 -0.12763081 -0.078258038
0.19340003 -0.12734064 -0.084095478
0.23645611 -0.12720491 -0.086808205
0.27919725 -0.1269771 -0.091371059
0.33044678 -0.12677194 -0.095479965
0.37309119 -0.12662756 -0.098337173
0.41547725 -0.12644207 -0.10204172
0.45807037 -0.12634632 -0.10393715
0.50030553 -0.1261844 -0.1071589
0.54803926 -0.12783997 -0.10829687
0.59401101 -0.13462719 -0.10941052
0.62066603 -0.13482709 -0.10570097
-0.61303973 -0.091819093 -0.10948777
-0.42464632 -0.1003693 -0.10978627
-0.38186058 -0.10037155 -0.10973096
-0.33351904 -0.086142845 -0.10874295
-0.296709 -0.083354168 -0.10674882
-0.25417951 -0.083429888 -0.10426927
-0.20307228 -0.083544843 -0.1007328
-0.1602861 -0.08360856 -0.098709583
-0.11751649 -0.083712779 -0.095164299
-0.074601918 -0.083810188 -0.091966629
-0.031569097 -0.083928093 -0.088280678
0.011588227 -0.084061995 -0.083803654
0.052817982 -0.082287557 -0.070567131
0.10918216 -0.086441197 -0.077187538
0.14992985 -0.0839388 -0.087714672
0.19285086 -0.083807051 -0.092043877
0.23565358 -0.083689608 -0.095869064
0.27820352 -0.083548293 -0.10058546
0.32927963 -0.083432868 -0.10439062
0.37016067 -0.086796202 -0.10646081
0.41029543 -0.096180886 -0.10736847
0.44855639 -0.10039998 -0.10899043
-0.2963908 -0.040468238 -0.10887361
-0.24879056 -0.034361172 -0.10805702
-0.20465733 -0.034075867 -0.10592318
-0.1615385 -0.035374224 -0.10393333
-0.11717893 -0.034121282 -0.099962234
-0.074377343 -0.032000616 -0.096465588
-0.029268604 -0.034179144 -0.092931747
0.011620795 -0.032074787 -0.086619377
0.052798789 -0.029996172 -0.073877811
0.11047131 -0.039082836 -0.07770586
0.15166187 -0.03205302 -0.087677479
0.19461726 -0.034141302 -0.097498417
0.23671916 -0.035383642 -0.10323334
0.27968353 -0.034063105 -0.10678411
0.3238658 -0.034349889 -0.10836124
-0.63053596 0.01948566 -0.10823822
-0.61365145 -0.014775599 -0.10739708
-0.24501505 0.010912905 -0.10886288
-0.20000146 0.0072669061 -0.10650182
-0.15812516 0.0058247736 -0.10371351
-0.11716609 0.0073294444 -0.10018778
-0.074369937 0.01105627 -0.096579075
-0.033892948 0.0074090427 -0.092709541
0.011622379 0.011166372 -0.08696413
0.051501453 0.0095775826 -0.073666096
0.10704999 0.011289875 -0.076043606
0.14989398 0.011140087 -0.088284016
0.1901456 0.0073726149 -0.095460892
0.23339213 0.005844268 -0.10203552
0.27525157 0.0072828541 -0.1053071
0.32536072 0.012636661 -0.10813713
-0.33060756 0.070844688 -0.10908985
-0.29648599 0.062316563 -0.10823774
-0.25392812 0.053822491 -0.10615778
-0.2028842 0.053938512 -0.10246515
-0.1602506 0.054042708 -0.099090576
-0.1174939 0.05415519 -0.095491886
-0.074604809 0.054265801 -0.09189558
-0.031603422 0.054412272 -0.087155342
0.011577753 0.054529782 -0.083242416
0.04192204 0.050453242 -0.073852062
0.10925972 0.052608784 -0.074803352
0.15010579 0.054495964 -0.084258556
0.19309054 0.05436803 -0.088506699
0.23577057 0.054180849 -0.094544888
0.27823651 0.054001097 -0.10027885
0.32931694 0.053885724 -0.10408688
0.37180805 0.053800065 -0.1068871
0.41101873 0.064031713 -0.10816431
0.44844201 0.070824586 -0.1096096
-0.63057578 0.088014267 -0.10810518
-0.61328226 0.10511599 -0.10865831
-0.40762705 0.10508214 -0.10928869
-0.37924936 0.099421941 -0.10843682
-0.33972523 0.096702784 -0.10577106
-0.2972742 0.096841939 -0.10298729
-0.25472352 0.096987642 -0.10007429
-0.20360886 0.097204976 -0.095741749
-0.16093795 0.097427301 -0.091305733
-0.11803205 0.097607605 -0.087712288
-0.075066641 0.097861886 -0.082640171
-0.031884406 0.098091245 -0.078055859
0.011479272 0.09825515 -0.074774742
0.037559625 0.089761086 -0.07028389
0.11885212 0.095562533 -0.070458889
0.15045407 0.098130167 -0.077277184
0.19361085 0.097945452 -0.08100462
0.23650528 0.097683348 -0.08624506
0.27905023 0.097356766 -0.092772961
0.33033091 0.097176589 -0.096349239
0.37295336 0.097030737 -0.099260807
0.41556972 0.096918844 -0.10151052
0.45805886 0.096795879 -0.10399389
0.48353812 0.096725889 -0.10533333
-0.60712248 0.1399679 -0.10036325
-0.56288505 0.1482124 -0.10501242
-0.51527947 0.1500593 -0.1032362
-0.47499853 0.13751684 -0.10480618
-0.42640299 0.13990776 -0.10131645
-0.38392034 0.14008211 -0.098788261
-0.34151015 0.1403296 -0.095237732
-0.29259405 0.14278142 -0.090976238
-0.25116044 0.13825935 -0.089541912
-0.20480004 0.14106078 -0.084682941
-0.16189185 0.14134677 -0.080536366
-0.11882655 0.14164604 -0.076212883
-0.077302456 0.13839318 -0.072844982
-0.035617847 0.13159308 -0.07013464
0.011397103 0.12477196 -0.067601681
0.15081625 0.12462219 -0.070036411
0.19431888 0.13329212 -0.070866585
0.23749815 0.13302115 -0.075032234
0.28072265 0.14158629 -0.077206612
0.32351744 0.14123489 -0.082218647
0.36636046 0.1410072 -0.085507393
0.41766572 0.14075133 -0.089131355
0.46047214 0.14060947 -0.09119606
0.49715415 0.14255157 -0.098532677
0.56840938 0.15646616 -0.10907888
-0.60587347 0.18587679 -0.086691856
-0.56279767 0.18190642 -0.092509747
-0.51502287 0.18382594 -0.090342045
-0.47249478 0.18407516 -0.087532997
-0.42972329 0.1842691 -0.085338116
-0.38198629 0.18634954 -0.081419468
-0.34061643 0.18300723 -0.079992294
-0.29268542 0.185128 -0.075629234
-0.24970055 0.18545233 -0.071964264
-0.21067682 0.18120758 -0.070659637
-0.16299491 0.17706259 -0.068071365
0.32540008 0.17712037 -0.067389011
0.36830947 0.17671625 -0.072162151
0.41192737 0.18548545 -0.07161665
0.45533431 0.18542665 -0.072292805
0.50541073 0.18453456 -0.082353592
0.54528958 0.1831667 -0.097802162
0.58833915 0.18317924 -0.097653389
0.62312371 0.18330607 -0.096311092
-0.60264975 0.21835789 -0.073631763
-0.56210732 0.21989435 -0.075640678
-0.51912338 0.22009477 -0.073694229
-0.47624958 0.2203747 -0.07100153
-0.43222877 0.21142097 -0.073282719
-0.38057256 0.21171612 -0.070332527
-0.3376151 0.21207558 -0.066740513
0.51598984 0.21140234 -0.073467731
0.54504102 0.22161451 -0.075849056
0.59565854 0.22338133 -0.078041077
0.62790543 0.21094467 -0.078041077
-0.61939979 -0.28111064 -0.027047634
-0.5497182 -0.29951656 -0.02176857
-0.5317778 -0.29944447 -0.022353649
-0.32652068 -0.2811766 -0.02647686
-0.29123297 -0.28136551 -0.024839878
-0.25597778 -0.28163069 -0.022544384
0.32195714 -0.28140804 -0.024471283
0.35713515 -0.28108871 -0.027237892
0.45563647 -0.2994253 -0.022508621
0.49929765 -0.29892799 -0.026547432
0.55176705 -0.2984814 -0.030172825
0.59897405 -0.30436409 -0.030565739
0.62321568 -0.29873016 -0.028152943
-0.60266078 -0.25755408 -0.048745155
-0.56291538 -0.26339015 -0.04770565
-0.51964253 -0.25831166 -0.051158428
-0.4730767 -0.26135349 -0.04618454
-0.42949548 -0.26158011 -0.044050217
-0.38563892 -0.261704 -0.042921066
-0.34337845 -0.25819531 -0.0426507
-0.29731321 -0.25273478 -0.044015408
-0.25361678 -0.25303483 -0.04112339
-0.20973946 -0.25326928 -0.038868904
-0.16067462 -0.25553209 -0.034147739
-0.11830269 -0.25215977 -0.032533169
-0.080662072 -0.25122291 -0.030103207
-0.033380512 -0.24534984 -0.029541016
0.010915501 -0.24574943 -0.025547028
0.11740345 -0.2454477 -0.028562069
0.15290229 -0.25436088 -0.028370857
0.1969815 -0.25394151 -0.032403469
0.24099313 -0.25361267 -0.035561085
0.2847451 -0.25316265 -0.03992033
0.32837075 -0.25273818 -0.043999672
0.37476209 -0.2594614 -0.043225765
0.41620797 -0.26139396 -0.045754433
0.45979583 -0.26114208 -0.048126698
0.5032658 -0.26086366 -0.050658703
0.54657978 -0.26056764 -0.053425312
0.59080178 -0.26946506 -0.052025795
0.6172238 -0.2694985 -0.051739216
-0.62758291 -0.22482064 -0.059772015
-0.42526743 -0.22435854 -0.06477499
-0.3818261 -0.22446945 -0.063574314
-0.33838978 -0.22460911 -0.06206274
-0.29508084 -0.22486998 -0.059239388
-0.25113374 -0.2160053 -0.060702324
-0.20758429 -0.21616296 -0.058896542
-0.16407835 -0.21643408 -0.055836201
-0.12045974 -0.21671249 -0.05268383
-0.076755315 -0.21705018 -0.048894882
-0.032898191 -0.21738388 -0.045147419
0.01108868 -0.21778747 -0.040576935
0.055298947 -0.21696185 -0.029822826
0.10814998 -0.21780759 -0.040321827
0.15193047 -0.21714666 -0.047776699
0.19563523 -0.21678701 -0.051840305
0.23918203 -0.21641681 -0.056019783
0.28257278 -0.21605848 -0.060078621
0.32642105 -0.2248586 -0.059361458
0.36975473 -0.22458594 -0.062314987
0.40434998 -0.22437032 -0.064648628
-0.10223666 -0.18952118 -0.063566685
-0.076115444 -0.18966302 -0.061722755
-0.028069798 -0.18541028 -0.060272217
0.013048651 -0.17588165 -0.059130192
0.055169441 -0.17316316 -0.047990322
0.10547422 -0.17476329 -0.056296825
0.1513204 -0.18980031 -0.059938431
0.19481903 -0.18951052 -0.063704967
0.058562368 -0.13025467 -0.060750008
0.090002388 -0.13714221 -0.062737465
0.072477169 -0.10206956 -0.0656147
0.089938059 -0.067154303 -0.065522671
0.12516385 -0.014775732 -0.057551384
0.072476991 0.020141643 -0.065626144
0.063768089 0.055118073 -0.06380558
0.090073287 0.072746903 -0.059667587
0.058603663 0.10083026 -0.058189392
0.095878989 0.10187536 -0.06059742
-0.067243993 0.1598971 -0.064510345
-0.028026301 0.15575776 -0.061555862
0.01129587 0.15160565 -0.058625221
0.055208519 0.14373809 -0.046126366
0.10779728 0.1433681 -0.051450729
0.15128021 0.151452 -0.060741901
0.19511223 0.16028942 -0.059412956
0.23851901 0.15997501 -0.063497066
-0.19833669 0.19491281 -0.063629627
-0.16369149 0.19522943 -0.060204506
-0.11997268 0.18654215 -0.05966568
-0.076460809 0.18697472 -0.054776669
-0.032764349 0.1874582 -0.049317837
0.01112378 0.18794768 -0.043802261
0.051766403 0.18732256 -0.03074789
0.11185384 0.18694277 -0.035130024
0.15218084 0.18804201 -0.042778492
0.19602305 0.18774137 -0.046164989
0.2396 0.18728621 -0.051289558
0.2827951 0.18669285 -0.057971954
0.32644829 0.19532855 -0.059129715
0.36952171 0.19489071 -0.063868523
-0.62890559 0.239539 -0.055249691
-0.60151047 0.24785393 -0.059135437
-0.55719978 0.24761778 -0.061180592
-0.51399535 0.24787065 -0.058991432
-0.46595728 0.24355832 -0.058530807
-0.42646316 0.23914322 -0.058914185
-0.38316259 0.23943347 -0.056317806
-0.33989143 0.23980486 -0.052987099
-0.29582489 0.23093039 -0.054162979
-0.25242758 0.23132712 -0.050495148
-0.20894277 0.23178646 -0.046235085
-0.16533858 0.23228709 -0.041599751
-0.12386882 0.22739451 -0.040043831
-0.077371299 0.22395599 -0.036569595
-0.033336017 0.22455798 -0.030776978
0.01096479 0.21574374 -0.030086994
0.037559625 0.21653323 -0.022198677
0.14408682 0.21606711 -0.026854515
0.19713296 0.22017628 -0.030208111
0.23586753 0.22606803 -0.033270359
0.28749484 0.22761393 -0.037905693
0.32879719 0.23238499 -0.040633678
0.37222108 0.23187152 -0.045432568
0.41579145 0.2315674 -0.048269272
0.45974013 0.23154725 -0.048491955
0.50310087 0.23119108 -0.051432133
0.54515505 0.2477715 -0.059847832
0.58855373 0.24761006 -0.061247349
0.63189286 0.22994982 -0.062806606
-0.60618073 0.27624834 -0.042519093
-0.56167829 0.27605322 -0.044064522
-0.5180099 0.27626163 -0.042434216
-0.47448564 0.27658573 -0.039875984
-0.43091041 0.27693775 -0.03711319
-0.38720211 0.2772755 -0.034448624
-0.33847174 0.27970234 -0.029316902
-0.29885036 0.26852494 -0.033461094
-0.24638107 0.26917437 -0.028187275
-0.20247191 0.26971081 -0.023832798
-0.11348769 0.25178513 -0.025089741
-0.087025404 0.25219214 -0.021565914
0.2775504 0.25188652 -0.024213314
0.41094556 0.2697143 -0.023804665
0.45507443 0.26948494 -0.025666237
0.50277126 0.26879379 -0.031158924
0.54844868 0.2759189 -0.045084953
0.59158796 0.27544931 -0.048773289
0.61704242 0.2749835 -0.052453518
-0.59316564 0.30502722 -0.025595665
-0.55776209 0.30509982 -0.025072098
-0.51383579 0.30539337 -0.02295351
0.51773965 0.30534416 -0.023308277
0.54829758 0.31155089 -0.029825211
0.59638906 0.31344804 -0.028991699
0.62242103 0.31312397 -0.031280518
-0.59667122 -0.34095156 0.020396233
-0.55882418 -0.34007204 0.014049053
-0.51359111 -0.34004471 0.013850689
-0.46878397 -0.34028727 0.015601635
-0.4241828 -0.34071153 0.018663406
-0.38834089 -0.34100038 0.020749569
-0.35236672 -0.3412264 0.022378922
0.33650163 -0.34090027 0.020025253
0.37218609 -0.34035999 0.016125202
0.41667649 -0.33974251 0.011670589
0.46098629 -0.33910564 0.0070734024
0.50311476 -0.34685108 0.010618687
0.5467689 -0.35068744 0.01222229
0.59140462 -0.34569016 0.0024414062
0.61555785 -0.35796219 0.012804508
-0.62952298 -0.32127312 0.0084939003
-0.60307574 -0.30827621 -0.0089755058
-0.56443363 -0.31282413 -0.010727882
-0.51295632 -0.31150472 -0.011743069
-0.47182608 -0.30971572 -0.011772156
-0.42756826 -0.30998877 -0.0096359253
-0.38325742 -0.31027782 -0.0073623657
-0.33891484 -0.31061515 -0.0047135353
-0.29441541 -0.31090039 -0.0024852753
-0.2470907 -0.30716303 -0.0017971992
-0.2046476 -0.3019188 -0.0029082298
-0.16006239 -0.30231634 0.00030183792
-0.11540791 -0.30279914 0.0042257309
-0.072937831 -0.29746217 0.0028181076
-0.025410559 -0.29369208 0.0037608147
0.010509439 -0.29439691 0.009636879
0.055618685 -0.28565606 0.01231575
0.10067695 -0.2943854 0.009534359
0.14528704 -0.2931267 -0.00098609924
0.1904383 -0.3026363 0.0029087067
0.23503385 -0.30210584 -0.0014195442
0.27949464 -0.30159494 -0.0055203438
0.32459658 -0.31082436 -0.00303936
0.36876246 -0.31020594 -0.0078978539
0.41284269 -0.30967689 -0.012070179
0.45829564 -0.31914005 -0.0078058243
0.50186157 -0.31836268 -0.013745785
0.5462364 -0.31819773 -0.015006542
0.58082914 -0.3175852 -0.019687176
-0.060362387 -0.26403728 -0.020716667
-0.024847325 -0.26441786 -0.017184258
0.010760581 -0.26496518 -0.012105942
0.055469539 -0.25653881 -0.0074315071
0.097047538 -0.25869915 -0.015171051
0.126554 -0.26395997 -0.02143383
0.055364661 -0.2284361 -0.020633221
0.073247544 0.19935188 -0.015576839
0.090956792 0.19881268 -0.021410465
0.0108441 0.23461087 -0.019556522
0.059101753 0.229028 -0.0049009323
0.10018098 0.22683591 -0.0088553429
0.14453912 0.23487955 -0.017062664
0.1799749 0.23445097 -0.021039486
-0.29192519 0.28799754 -0.019963264
-0.24799314 0.28863466 -0.015095711
-0.20389885 0.28928828 -0.010099888
-0.15908127 0.28022873 -0.011226177
-0.1147674 0.28095439 -0.0055155754
-0.067806318 0.27447352 -0.0038609505
-0.025325123 0.27279133 0.00060081482
0.01055659 0.27337322 0.0053181648
0.052020244 0.26311338 0.010353565
0.1007614 0.2651909 0.012613297
0.14787865 0.27120879 0.0061221123
0.19033748 0.27288532 0.00137043
0.23479436 0.27220032 -0.0042014122
0.27971917 0.28123 -0.0033478737
0.32391137 0.28056383 -0.0086150169
0.36801371 0.27998582 -0.013162613
0.41333988 0.28943259 -0.0089974403
0.45773533 0.28917938 -0.010932446
0.49361384 0.28926569 -0.010273933
-0.61082613 0.32061499 -0.010060787
-0.56142342 0.32494748 -0.010872364
-0.5173915 0.32535958 -0.0080552101
-0.47168469 0.31581768 -0.012413025
-0.42757639 0.31621975 -0.0095896721
-0.38347793 0.31671274 -0.0061383247
-0.3393428 0.31729692 -0.0020384789
-0.29517746 0.31799677 0.0028753281
-0.2508662 0.31876248 0.008245945
-0.20907308 0.31608617 0.010604858
-0.16096783 0.31010947 0.011081219
-0.11625984 0.31097013 0.017292976
-0.089345962 0.31155285 0.02149868
0.28224194 0.31147477 0.020936012
0.32688716 0.31073132 0.015569687
0.37132564 0.30997267 0.010095119
0.4157809 0.30941945 0.006102562
0.46179366 0.3192299 0.011528492
0.50097221 0.31935507 -2.1934509e-05
0.57155895 0.32342392 -0.021290779
-0.6020866 0.34558439 0.0070314407
-0.56576216 0.34541723 0.005947113
-0.52148008 0.34589955 0.0090789795
-0.47710836 0.34639657 0.01230669
-0.43265206 0.34693033 0.01577425
-0.38821462 0.34758863 0.020049572
0.51509821 0.34567142 0.0075974464
0.54746163 0.35202199 -0.0094313622
0.59228718 0.35208324 -0.0089840889
0.62703329 0.3424809 -0.013124943
-0.56155157 -0.38345614 0.06107378
-0.51557136 -0.38353378 0.061577797
-0.46992874 -0.38385913 0.063690186
-0.43319577 -0.38399759 0.0645895
-0.39646482 -0.38415986 0.065644264
0.32360992 -0.38387877 0.063819408
0.3687942 -0.38283345 0.057029247
0.41411987 -0.38215256 0.052607059
0.45916584 -0.38140067 0.047723293
0.50622076 -0.39159071 0.053925991
0.54725289 -0.38886398 0.048263073
0.59109724 -0.39242077 0.047558784
0.62178594 -0.37991714 0.038087368
-0.61452639 -0.35609606 0.041469574
-0.56447071 -0.36139351 0.03626442
-0.51884919 -0.36139286 0.036260128
-0.47366709 -0.3616803 0.038226128
-0.42846918 -0.36201349 0.040503979
-0.38312238 -0.36230129 0.042470455
-0.33366257 -0.35559002 0.037944794
-0.29488453 -0.35459667 0.039466381
-0.25086546 -0.35073823 0.038004875
-0.20950991 -0.35340196 0.043886662
-0.16403803 -0.35388583 0.047283173
-0.11850439 -0.35449567 0.051561356
-0.077135146 -0.34964961 0.049843788
-0.02664749 -0.34499928 0.049607754
0.0099805854 -0.3458682 0.055879116
0.055889137 -0.32641223 0.047763348
0.10187167 -0.34561363 0.054041386
0.14783768 -0.35486352 0.054139614
0.19341432 -0.3540456 0.0484128
0.2387259 -0.35316098 0.042225361
0.28384638 -0.35232237 0.036351681
0.32492417 -0.35688323 0.036447048
0.37483659 -0.36117372 0.034761906
0.41062376 -0.36054406 0.03045702
0.45536554 -0.35992727 0.026239872
-0.062310878 -0.32348204 0.025372982
-0.026114512 -0.32407546 0.02990818
0.010214096 -0.3247872 0.035346031
0.055767201 -0.3060908 0.031607628
0.10133688 -0.32463133 0.034154892
0.14647169 -0.32336107 0.024448395
0.055760555 0.28852615 0.030375004
0.10130435 0.29490918 0.032850266
0.12839052 0.2940492 0.02628088
-0.19835313 0.33001986 0.023806572
-0.16246918 0.33075374 0.028823853
-0.11746588 0.33176437 0.0357337
-0.068243593 0.32454169 0.036020279
-0.026410501 0.32341594 0.040891647
0.010079177 0.32425433 0.046765804
0.055923648 0.3159453 0.052960396
0.10177989 0.31556368 0.050443649
0.14762054 0.32466695 0.049657822
0.19309041 0.32378379 0.043447971
0.23823793 0.32278958 0.036486149
0.28423744 0.33240777 0.040132999
0.32926512 0.33163801 0.034871101
0.37406901 0.33083197 0.029358864
0.41886652 0.33022156 0.025186062
-0.60784483 0.36700648 0.028089523
-0.56196481 0.36674234 0.026454449
-0.51724654 0.36722365 0.029433727
-0.47272587 0.36794403 0.033888817
-0.42800149 0.36862984 0.038131714
-0.38311017 0.369324 0.042425632
-0.34152213 0.35708755 0.03411293
-0.29568127 0.36249042 0.045188427
-0.25194192 0.35909757 0.046898365
-0.21330756 0.35848019 0.050796509
-0.16423143 0.35214353 0.049634933
-0.11884984 0.35326046 0.056890965
-0.082368851 0.35425529 0.063351154
0.25926968 0.35474077 0.066506386
0.28653854 0.35408911 0.062272549
0.32295993 0.35348871 0.058372498
0.36816189 0.35257113 0.05241251
0.41320845 0.35171577 0.04685688
0.45838302 0.35116708 0.043292522
0.50363171 0.36547139 0.056225777
0.53524071 0.37230939 0.060893536
-0.60532659 0.38930675 0.052417755
-0.55883306 0.3889361 0.050229549
-0.51399106 0.38970211 0.054751396
-0.46906215 0.39052424 0.059607029
-0.43285778 0.39107773 0.062875271
-0.40566316 0.39151171 0.065438271
0.41348895 -0.42831206 0.10823965
0.45902371 -0.42688107 0.099790096
0.5050602 -0.42618364 0.095672131
0.55094934 -0.4254916 0.091586113
0.5869559 -0.4244979 0.085718155
0.61525285 -0.42475176 0.087216377
-0.62971443 -0.38548359 0.074242592
-0.6052624 -0.39679873 0.086822987
-0.56071275 -0.40738332 0.095053673
-0.51314706 -0.40680671 0.091487408
-0.47639209 -0.40724811 0.094216824
-0.43004972 -0.40757427 0.096234798
-0.37887642 -0.40016386 0.088511467
-0.33914569 -0.3990331 0.089192867
-0.29382622 -0.39466095 0.085105896
-0.25190026 -0.39767832 0.092407703
-0.20952724 -0.39238632 0.088516235
-0.15791042 -0.38710755 0.084789753
-0.12101305 -0.38789904 0.089931488
-0.074539825 -0.38847795 0.093691826
-0.027989101 -0.38936278 0.09943819
0.0093812142 -0.39065826 0.10785198
0.065641128 -0.37068284 0.099776268
0.11255796 -0.38976735 0.10206699
0.14958173 -0.38822618 0.092056274
0.19953488 -0.39480004 0.094007015
0.23362528 -0.39764062 0.092196941
0.27952781 -0.39641827 0.084445477
0.32703325 -0.40697151 0.092505932
0.37260768 -0.40568689 0.084559917
0.41799632 -0.40449601 0.077193737
0.4631294 -0.40334946 0.070100307
-0.064135939 -0.36610028 0.068445683
-0.027244162 -0.36658564 0.071763992
0.0097282622 -0.36742195 0.07748127
0.051462919 -0.35361478 0.078085423
0.1025452 -0.36767372 0.079202175
0.06542331 0.33795401 0.078052044
0.10232957 0.33689386 0.070804596
-0.19374384 0.37382463 0.070266247
-0.15723804 0.37483022 0.076486588
-0.12057602 0.37593096 0.083295345
-0.069567651 0.37177616 0.086194038
-0.027687188 0.36748403 0.088376522
0.0064359847 0.36473849 0.090727806
0.056352496 0.35998893 0.10059214
0.10307996 0.35973546 0.098945141
0.15425405 0.36327747 0.091406345
0.19633611 0.36822259 0.093032837
0.23322526 0.36730433 0.087212086
0.28048599 0.37766567 0.094026089
0.3263526 0.37649927 0.086811066
0.37209952 0.37553546 0.080848217
0.41769812 0.37463826 0.075299263
0.45413709 0.37403226 0.071550369
0.48156086 0.37372515 0.069651604
-0.60297132 0.41223729 0.07819128
-0.56576622 0.41219404 0.07794714
-0.52030677 0.41293249 0.082117558
-0.47520304 0.41408494 0.088626385
-0.42984849 0.41525251 0.095220566
-0.3814314 0.404286 0.085505009
-0.34520775 0.40540659 0.091967583
-0.29718792 0.39437771 0.082360744
-0.2515969 0.39564878 0.089866161
-0.20578434 0.39706862 0.098249435
-0.15973949 0.39862761 0.10745621
0.43253925 0.39901242 0.10972691
0.46017405 0.39845318 0.10642385
0.50649309 0.39788958 0.10309744
0.55279827 0.39741781 0.10031176
0.59047598 0.39756805 0.10119867
0.61997604 0.39855215 0.10700846
-0.5639593 0.51155329 0.10828733
-0.63004255 -0.43441138 0.14425468
-0.60029519 -0.43366012 0.13981915
-0.56056726 -0.43251228 0.13304186
-0.52226436 -0.43227178 0.13162088
-0.47519553 -0.43257901 0.13343573
-0.42784795 -0.43269441 0.13411617
-0.38116997 -0.43351749 0.13897657
-0.33429071 -0.43430227 0.14361048
-0.29669875 -0.43499213 0.14768362
-0.24941841 -0.4356977 0.15184975
-0.029064793 -0.41455129 0.13939428
0.0089164525 -0.41602492 0.14850998
0.09486486 -0.41591251 0.1478138
0.20022731 -0.43581516 0.15254354
0.23790361 -0.43455791 0.14512062
0.28437981 -0.43251091 0.1330328
0.33075705 -0.4309352 0.12372923
0.36764023 -0.42974484 0.1166997
0.41007265 -0.45416132 0.14807129
0.45623079 -0.45249322 0.13864851
0.50276041 -0.45150051 0.13304234
0.54918468 -0.45061326 0.1280303
0.59439397 -0.44892186 0.11847782
0.62602293 -0.45137769 0.13234806
-0.19798882 -0.41050303 0.11435223
-0.16063783 -0.41118178 0.11855173
-0.12322855 -0.41202655 0.12377596
-0.076197952 -0.41297874 0.12966681
0.056540787 -0.3942309 0.13105774
0.10382649 -0.40274125 0.12465286
0.15093453 -0.4116492 0.12144232
0.18841685 -0.41077587 0.11604071
0.018719181 0.38087341 0.11387014
0.04706338 0.38315082 0.12795639
0.11327757 0.38274348 0.12543678
0.14123802 0.38112521 0.11542654
-0.32030508 0.41842872 0.11316061
-0.29280543 0.41942739 0.11880064
-0.25595334 0.42077273 0.12639856
-0.20972513 0.42276895 0.13767338
-0.16314241 0.42488566 0.14962912
-0.12270059 0.40004009 0.11579514
-0.07609646 0.40205184 0.12767458
-0.029080149 0.40418217 0.14025259
-0.00067503005 0.40580568 0.14983797
0.075727344 0.38598543 0.14549065
0.094623096 0.38466871 0.13734531
0.1525252 0.40676492 0.15550184
0.1903459 0.405444 0.14770365
0.23761047 0.40439007 0.14148045
0.28446802 0.40308616 0.13378096
0.33098641 0.40170974 0.12565374
0.36815402 0.40083355 0.12048101
0.40508434 0.39987391 0.11481476
0.51621008 0.42558265 0.15356541
0.54527426 0.42588043 0.15524626
0.58340859 0.42573449 0.15442276
-0.6141336 0.43856338 0.12019396
-0.5652889 0.43736789 0.11372375
-0.52014184 0.43895656 0.12232256
-0.47476685 0.4406395 0.1314311
-0.4287459 0.44201979 0.13890314
-0.38276812 0.44378468 0.14845562
-0.59530538 -0.46264049 0.19596004
-0.55399388 -0.46086308 0.18592167
-0.51509768 -0.46078536 0.18548346
-0.47689831 -0.46128538 0.18830729
-0.42929062 -0.46219072 0.19342089
0.25143617 -0.46197224 0.19218588
0.27952406 -0.46000335 0.18106604
0.30795598 -0.45899847 0.17538977
0.4559553 -0.48182684 0.19441271
0.50366968 -0.4808946 0.18936777
0.55056733 -0.47939971 0.18127584
0.58519727 -0.47595796 0.16264629
0.61450565 -0.47633258 0.16467381
-0.20225301 -0.43685633 0.15869141
-0.16425844 -0.43764785 0.16336489
-0.1167247 -0.43911406 0.17202234
-0.069011137 -0.44109383 0.18371248
-0.040199626 -0.44245142 0.19173002
0.056847014 -0.4198184 0.17197561
0.11505689 -0.44101077 0.18322229
0.14360297 -0.43899408 0.17131329
0.17194553 -0.43713146 0.16031551
0.33583391 -0.45738271 0.16626549
0.37335548 -0.4561142 0.15910101
-0.11627626 0.4276002 0.16496038
0.018392939 0.40689149 0.15625
0.047261026 0.41016996 0.17561007
0.10518436 0.41051024 0.1776185
0.13359344 0.40777296 0.16145563
0.4134976 0.42864501 0.1708622
0.46069729 0.42760563 0.16499138
0.4977752 0.42626417 0.15741444
0.61382037 0.4270241 0.16170645
-0.59695697 0.46591878 0.164186
-0.55982202 0.46699959 0.16980267
-0.51507604 0.47000593 0.18542433
-0.4882322 0.47206834 0.19614172
-0.33686215 0.4460637 0.1607914
-0.30004317 0.44824001 0.17256975
-0.25369829 0.45129186 0.1890893
-0.068981946 0.43082583 0.1831789
-0.040318731 0.43302473 0.19559813
0.32902256 0.43218565 0.19085884
0.37605295 0.43012011 0.17919254
-0.53835106 0.52274084 0.16019058
0.51194876 -0.50893098 0.23413086
0.54955 -0.50707418 0.22448206
-0.62705475 -0.4643679 0.20571661
-0.38217092 -0.46379724 0.20249462
-0.34382293 -0.46461797 0.20713043
-0.29664987 -0.46699345 0.22054625
0.21398756 -0.46564689 0.21294212
0.23268674 -0.463568 0.20120001
0.41874588 -0.48394254 0.20586491
-0.021010034 -0.44428647 0.20256472
-0.0015626475 -0.44512072 0.20749044
0.096243367 -0.44512311 0.20750475
0.076620013 0.41488853 0.20347023
-0.46983701 0.47310588 0.20153046
-0.2071196 0.45504841 0.20942307
-0.16991904 0.45953405 0.23370075
-0.021104462 0.43498212 0.20665407
0.0079684947 0.43961862 0.23284006
0.19615802 0.44119465 0.24174166
0.23420876 0.43765861 0.22176838
0.28186706 0.43476558 0.20543051
-0.55620396 0.50066382 0.20921755
-0.52835399 0.50508475 0.2310214
-0.45254028 0.47532395 0.21305799
-0.42601132 0.47840694 0.22907591
-0.5303551 0.53355557 0.2103653
0.14730784 0.44434127 0.25951385
0.1766438 0.44221526 0.24750519
-0.40168276 0.48436314 0.26002693
0.64072758 0.35640454 0.68003273
0.084625036 0.10288776 0.72341204
0.09701965 -0.062347706 0.7563014
0.10888968 -0.014775732 0.75510597
0.13263421 -0.014775996 0.7540617
0.18029065 -0.038564131 0.75664186
0 0 0 1 0 0 0 1 0 0 0 1 0 0 0 0 0 881 1 0 0
