ply
format ascii 1.0
comment PCL generated
element vertex 842
property float x
property float y
property float z
element camera 1
property float view_px
property float view_py
property float view_pz
property float x_axisx
property float x_axisy
property float x_axisz
property float y_axisx
property float y_axisy
property float y_axisz
property float z_axisx
property float z_axisy
property float z_axisz
property float focal
property float scalex
property float scaley
property float centerx
property float centery
property int viewportx
property int viewporty
property float k1
property float k2
end_header
0.20550752 -0.3301723 -0.86219311
0.23401642 -0.26380581 -0.87815428
0.25644249 -0.1953938 -0.89299917
0.27600795 -0.15412304 -0.86136103
0.27337649 -0.11688638 -0.89934301
0.27256781 0.064762868 -0.91101551
0.2735883 0.099862613 -0.89628553
0.24851081 0.19670393 -0.8798275
0.21426293 0.28616941 -0.86283016
0.18792155 0.32153472 -0.86138964
0.17071909 -0.38617995 -0.84344435
0.23488139 -0.31132528 -0.80521679
0.25739235 -0.25752708 -0.80407286
0.28103745 -0.23185652 -0.78876734
0.29634267 -0.18443565 -0.80106354
0.31247401 -0.10927249 -0.80529356
0.31739029 -0.037164725 -0.80666208
0.3095037 0.038935166 -0.80521631
0.29602033 0.12341088 -0.79747057
0.26270613 0.21326427 -0.79128885
0.28094256 0.17702454 -0.79013586
0.24543944 0.26040134 -0.77477646
0.16215365 0.37095782 -0.82728338
0.090195879 0.44917679 -0.79192305
0.12640575 0.40801859 -0.81987047
-0.013719521 -0.54841596 -0.71539354
0.023299724 -0.52283311 -0.70369005
0.061464701 -0.49783495 -0.7336421
0.15997553 -0.4253912 -0.73731041
0.21755815 -0.39594418 -0.71208525
0.24526295 -0.34586009 -0.7411747
0.2857534 -0.32286039 -0.72069693
0.26400226 -0.28866592 -0.77024317
0.30635431 -0.26189113 -0.74148178
0.33297631 -0.19571985 -0.75047922
0.36121625 -0.18313292 -0.71407127
0.33719414 -0.13291928 -0.77113342
0.36910003 -0.11676236 -0.72904491
0.37529272 -0.028437499 -0.73221922
0.33741501 0.059451036 -0.76874256
0.3692956 0.05112477 -0.72727251
0.33088997 0.12829326 -0.75425577
0.36123645 0.11699379 -0.71386957
0.31127071 0.19641869 -0.7432785
0.25508118 0.28232834 -0.74391317
0.29044348 0.2616145 -0.72066975
0.19185217 0.36718166 -0.73373938
0.22570148 0.33655095 -0.72617245
0.16445136 0.4088937 -0.70628929
0.042440191 0.49202031 -0.71374464
-0.14505956 -0.57899779 -0.62357092
-0.071522899 -0.56613988 -0.64575958
-0.025644399 -0.54862565 -0.67250681
0.0033959001 -0.52132624 -0.68135357
0.079505578 -0.49770519 -0.67341709
0.14429088 -0.4817614 -0.66343212
0.18732275 -0.44651559 -0.67495537
0.237506 -0.41786554 -0.65623379
0.29196188 -0.38979313 -0.63129091
0.27129951 -0.38018292 -0.65175009
0.31920618 -0.34149018 -0.6540246
0.35613015 -0.34395704 -0.63587046
0.34152019 -0.28641048 -0.67278814
0.37915465 -0.26686272 -0.65518379
0.39377359 -0.1956549 -0.67491436
0.42581159 -0.18829283 -0.64633846
0.41207546 -0.11914153 -0.68096828
0.44435173 -0.10134035 -0.65193367
0.41530666 -0.04158796 -0.68781424
0.44299582 -0.043474231 -0.66229439
0.4115667 0.051915254 -0.68511295
0.4431797 0.033217397 -0.66088963
0.39865118 0.12832907 -0.6740427
0.3391223 0.22606377 -0.68213224
0.38165653 0.19832516 -0.65932178
0.42709434 0.15925083 -0.63592434
0.31989032 0.27789557 -0.66317701
0.36533275 0.26784849 -0.63413
0.24114759 0.36285985 -0.67799091
0.30128938 0.32843474 -0.63685131
0.16513096 0.42926168 -0.66991806
0.20414571 0.41878569 -0.64651012
-0.055538647 0.54263026 -0.65295601
-0.0063886046 0.5189628 -0.67408133
0.060732599 0.47710931 -0.69378042
0.1271888 0.46956006 -0.63230371
-0.12461869 0.56597924 -0.63446665
-0.085091971 0.55433708 -0.64303398
-0.1462183 -0.58148706 -0.61279154
0.15071373 -0.51673537 -0.57845259
0.22630286 -0.48045617 -0.57919025
0.24451059 -0.44503438 -0.61131525
0.29895139 -0.42245886 -0.60083008
0.38085449 -0.32728419 -0.61524296
0.43837783 -0.2362622 -0.54431343
0.44904003 -0.18121889 -0.56557465
0.46971703 -0.10174058 -0.56014967
0.47797251 -0.035616845 -0.54807234
0.45780626 0.0945419 -0.54912233
0.3905023 0.25797564 -0.61631775
0.30332944 0.35661784 -0.60835838
0.35231987 0.31758511 -0.60739279
0.1759039 0.45254645 -0.61893559
0.23267612 0.42948613 -0.58234835
0.27553052 0.3996219 -0.58304787
-0.040317409 0.53690934 -0.58800173
0.077765092 0.50829864 -0.58350277
0.13733146 0.49289849 -0.56009483
-0.30383581 0.56615061 -0.54383469
-0.22717479 0.57547104 -0.59194803
-0.15182999 0.56689769 -0.57665586
-0.099481694 0.55663067 -0.58800125
-0.38358626 -0.54746634 -0.49457312
0.097035393 -0.5672906 -0.49743319
0.13763668 -0.54918778 -0.51900816
-0.38434204 -0.50752604 -0.48943329
0.19771557 -0.51726943 -0.5433197
0.41432881 -0.3333284 -0.49049139
0.44739929 -0.30489305 -0.47106838
0.42024425 -0.28831851 -0.52764988
0.4546071 -0.26116827 -0.49584818
0.47721907 -0.19585012 -0.50494576
0.50939488 -0.16059704 -0.47017336
0.47998986 -0.12650082 -0.53351307
0.50611985 -0.10814419 -0.49256468
0.47859871 0.004430234 -0.5435524
0.50447184 -0.026125427 -0.50383282
0.48061049 0.044821233 -0.52903414
0.50569898 0.045324218 -0.49544239
0.4758001 0.12276014 -0.5152483
0.50807256 0.096964285 -0.47921467
0.41914371 0.22567013 -0.5371809
0.45915118 0.19824587 -0.5004406
0.40817624 0.27985215 -0.49976492
0.44674438 0.2513988 -0.47638607
0.34363031 0.37453753 -0.47887564
0.37523869 0.34467563 -0.47105074
0.21785375 0.46626934 -0.54142857
0.30105269 0.4115245 -0.50391626
-0.43948767 0.52011734 -0.47030306
-0.37586999 0.53890151 -0.47951365
0.086742625 0.53725296 -0.48775005
0.15797217 0.50464469 -0.51579285
0.19892278 0.49324325 -0.50411463
-0.3592464 0.55213696 -0.51473618
-0.29700822 0.55700445 -0.51064587
-0.2324107 0.56246054 -0.5203166
-0.18707111 0.56261003 -0.51262522
-0.43494263 -0.53755635 -0.44195938
-0.39552763 -0.55007792 -0.44842052
-0.31332564 -0.54216307 -0.41894341
0.023610443 -0.60015887 -0.44166565
0.065163538 -0.59305996 -0.42590666
-0.53326213 -0.48221985 -0.4010396
-0.46805474 -0.51797438 -0.41933489
-0.35966143 -0.51417327 -0.45514631
-0.33511648 -0.52185071 -0.41525173
0.34652731 -0.43289101 -0.44466352
0.37743589 -0.40116495 -0.44798231
0.40825433 -0.36945519 -0.45160007
0.45319393 -0.33106703 -0.42500544
0.48653287 -0.26714244 -0.43621445
0.51778018 -0.227337 -0.41284275
0.52645987 -0.18426101 -0.42572498
0.543378 -0.10376412 -0.42926931
0.54842931 -0.031435285 -0.42898035
0.54291785 0.035830084 -0.43227625
0.52930421 0.12659039 -0.42999649
0.49136239 0.20181525 -0.4514389
0.5171414 0.18330334 -0.41721058
0.4618924 0.27310491 -0.42250109
0.39481521 0.34997562 -0.43021011
0.4342843 0.32126111 -0.40605927
-0.53852791 0.44176233 -0.40095663
0.30462974 0.42037612 -0.44824123
0.34973174 0.40563729 -0.40682173
-0.51291025 0.4666979 -0.42033291
-0.4615176 0.48995495 -0.42039394
-0.39086995 0.51877517 -0.43027353
-0.33136559 0.5366872 -0.43793821
-0.28867453 0.54597688 -0.4441638
-0.25197637 0.55335993 -0.40727568
-0.1534172 0.5671761 -0.44237947
-0.091300227 0.56787193 -0.43903351
-0.26738515 -0.55144823 -0.37255192
-0.13194054 -0.58089638 -0.33341217
-0.081514783 -0.59269434 -0.35462379
-0.018251441 -0.57072634 -0.33053493
0.063741699 -0.58711171 -0.35524273
-0.51870137 -0.47135252 -0.37199736
-0.46789375 -0.49052328 -0.35401392
-0.30757976 -0.52686125 -0.38921547
0.35617876 -0.4730188 -0.33068466
-0.59421933 -0.40520591 -0.3481884
-0.54677188 -0.43567711 -0.34355545
0.39499834 -0.42263344 -0.3762145
-0.66377926 -0.32108298 -0.33085775
-0.63735408 -0.34848502 -0.32822418
0.46113348 -0.36055446 -0.36024618
0.50880009 -0.32169104 -0.32559299
-0.67764145 -0.28966197 -0.32009649
0.5017302 -0.29445064 -0.37661552
0.53793806 -0.25428686 -0.34919643
0.56213152 -0.18915434 -0.35509968
0.56578356 -0.13436465 -0.37656975
0.59428245 -0.10398313 -0.33435249
0.59142971 -0.027891289 -0.35119629
0.56375057 0.068187393 -0.38914585
0.59435409 0.047826596 -0.33392906
0.56961662 0.12302987 -0.35285902
-0.68872768 0.22231755 -0.31945562
0.54060042 0.19805001 -0.35511923
-0.6648857 0.26514497 -0.3268652
-0.63547164 0.30124965 -0.3284483
0.48407239 0.2956745 -0.34841156
0.51792997 0.25329119 -0.33818102
-0.60420483 0.35200736 -0.3466239
-0.56595874 0.37327072 -0.33143711
0.41885719 0.37042037 -0.35321712
0.45211372 0.33904779 -0.34532166
-0.53483266 0.41643605 -0.35908222
-0.47363076 0.44407582 -0.34060955
0.32167897 0.4454737 -0.35579729
0.38883153 0.40617213 -0.32922173
-0.44831678 0.47414765 -0.3763442
-0.39001074 0.49654648 -0.35276842
-0.31348738 0.53225601 -0.35095453
0.26718733 0.47502103 -0.37118578
-0.27206171 0.54542482 -0.33880234
-0.22789252 0.55461293 -0.34661961
-0.17466623 0.56712979 -0.33847713
-0.013176627 0.57049638 -0.32165384
-0.28897369 -0.54475915 -0.29621649
-0.23183927 -0.56644154 -0.26970053
-0.15428182 -0.57617748 -0.28544998
-0.086724721 -0.57456821 -0.28418779
-0.45838597 -0.4791232 -0.27253866
-0.39319649 -0.51566976 -0.26563454
-0.30572012 -0.52999377 -0.25723267
-0.2484341 -0.52776766 -0.26928186
-0.1491701 -0.52881104 -0.2636342
-0.10560402 -0.53090858 -0.25228119
0.31527853 -0.51196438 -0.29522038
0.40810648 -0.46508452 -0.2455163
-0.53050637 -0.41373441 -0.27171183
-0.49146077 -0.44945669 -0.27293825
0.44844091 -0.41492823 -0.28304338
-0.60844678 -0.33437386 -0.28420782
-0.56587297 -0.36694753 -0.25518274
0.49266958 -0.37078488 -0.2827177
0.53025973 -0.34136587 -0.2514987
-0.67189687 -0.25684136 -0.29139709
-0.63704383 -0.27508447 -0.26689053
0.5472225 -0.29299024 -0.28732347
0.58303905 -0.23944721 -0.26982927
-0.68934774 -0.1817489 -0.27004385
0.57706815 -0.21443284 -0.30676508
0.60502845 -0.18400376 -0.27090073
-0.70475906 -0.10667258 -0.26286888
0.62206823 -0.11745271 -0.2689395
-0.70674884 -0.028981689 -0.25586843
0.6266166 -0.028762601 -0.27414465
-0.70623326 0.048947714 -0.25766945
0.62985486 0.04904129 -0.25585413
-0.69778609 0.12116003 -0.27308846
0.60150057 0.11454497 -0.29173136
-0.67213058 0.19184506 -0.28452682
-0.6353265 0.21072219 -0.25239611
0.55721676 0.22431196 -0.29354715
0.59203893 0.18235816 -0.26033497
-0.62011564 0.27298895 -0.28554344
-0.57479042 0.29472652 -0.2490778
0.53881103 0.27032343 -0.27000809
-0.58576483 0.32304791 -0.29517746
-0.54387343 0.35600424 -0.27520609
0.47497118 0.36191624 -0.24734068
-0.50808549 0.39953914 -0.29844189
-0.45750794 0.43552178 -0.2773571
-0.42061153 0.45281845 -0.23752451
0.36193481 0.44894138 -0.26270914
-0.38109636 0.48085576 -0.27108812
-0.30983979 0.51979196 -0.28866959
-0.25098073 0.54040903 -0.2488203
-0.2035014 0.55787659 -0.27410221
-0.14431113 0.5677433 -0.26843643
-0.075524755 0.56746835 -0.27317142
-0.0036658272 0.56059277 -0.28838921
-0.31646121 -0.5436725 -0.18319321
-0.21195474 -0.56336862 -0.19882774
-0.15339458 -0.55973202 -0.21841431
-0.084592693 -0.55681032 -0.2335968
-0.43582979 -0.46984172 -0.21608973
-0.38640806 -0.49937847 -0.20147705
-0.51355749 -0.39088163 -0.18680096
-0.46904549 -0.43117172 -0.19083214
0.52021986 -0.39832664 -0.16015959
-0.58174235 -0.32257715 -0.21994591
-0.54892677 -0.34985995 -0.19376278
0.57007593 -0.31240478 -0.21002483
-0.60632861 -0.26521546 -0.19968605
-0.57180142 -0.29424658 -0.16532707
0.60342228 -0.26893023 -0.19096375
-0.63626075 -0.19308692 -0.20032692
0.62936199 -0.18374009 -0.21625566
-0.66300571 -0.10865407 -0.21099567
-0.64031774 -0.12184921 -0.16693735
0.6665628 -0.09854842 -0.17775106
-0.6657449 -0.02961684 -0.20066261
0.66476268 -0.029767901 -0.18749475
-0.66582775 0.049833715 -0.20031881
0.66752768 0.038825195 -0.17252874
-0.66178942 0.10606467 -0.21557522
-0.64218193 0.13351503 -0.18925858
0.63906002 0.11792868 -0.20386362
-0.62640387 0.18926752 -0.22161865
0.60522366 0.20860635 -0.20278549
-0.58915335 0.26000348 -0.22023869
-0.55700302 0.29239348 -0.19645452
0.54836941 0.29926741 -0.2037034
-0.52775377 0.33844841 -0.20104122
-0.48974594 0.37631333 -0.19167805
0.52215934 0.31920126 -0.22918081
-0.45110682 0.41375548 -0.19526005
-0.39983788 0.45323136 -0.18513727
0.43232286 0.40926188 -0.22827101
-0.35765266 0.4795371 -0.21092987
-0.30174467 0.50812227 -0.19450808
-0.22512111 0.52978343 -0.18270302
-0.18128291 0.53296506 -0.16473103
-0.21029148 0.54693758 -0.21348619
-0.15490925 0.54916626 -0.20142221
-0.076986797 0.55373925 -0.1766715
0.071426727 0.55675852 -0.16032982
-0.2120744 -0.53693753 -0.092247009
0.0011845902 -0.57691658 -0.1291213
0.094340011 -0.57341939 -0.14729261
-0.37504864 -0.4802489 -0.11917496
-0.30839661 -0.51168174 -0.13216972
-0.24821413 -0.52454084 -0.11794519
-0.45481768 -0.41609231 -0.11513519
-0.40091756 -0.44325399 -0.0890522
0.48748484 -0.43498069 -0.14561462
-0.52443606 -0.33586153 -0.1356616
-0.4933975 -0.35968199 -0.097892284
0.55800849 -0.3665626 -0.13780069
0.58542764 -0.34654954 -0.11031246
-0.5801425 -0.2397052 -0.12920856
-0.55556577 -0.27205223 -0.119946
0.63165462 -0.27604249 -0.11367989
0.65705174 -0.23017703 -0.10224676
-0.60078466 -0.18414944 -0.12888718
-0.56675816 -0.20791109 -0.085001469
0.64750922 -0.20298231 -0.15614223
0.67847705 -0.15920103 -0.11326313
-0.61667114 -0.11216345 -0.12182999
0.67237681 -0.13430004 -0.1462822
-0.62655169 -0.037498672 -0.11949205
0.70763034 -0.054582004 -0.083243847
-0.65303141 0.074474558 -0.11689091
-0.6353991 0.027786091 -0.12029743
0.67150795 0.073687486 -0.15098476
-0.64825702 0.097244084 -0.13568401
0.6771515 0.10943957 -0.12043858
0.63805938 0.18949834 -0.14426327
0.66046876 0.19330539 -0.082946777
-0.53404975 0.29532045 -0.12683058
0.5783093 0.28094393 -0.15654707
0.60801822 0.26139316 -0.11531115
-0.50681716 0.3281267 -0.14636421
-0.47287211 0.36050034 -0.10656786
0.54159725 0.35788324 -0.088899612
-0.43264672 0.40241027 -0.10876751
-0.38284072 0.43157116 -0.1090579
-0.31736627 0.45102417 -0.096513271
-0.35790667 0.46822718 -0.13744307
-0.30126369 0.48131683 -0.12766933
-0.23582476 0.50092012 -0.11912346
-0.15269762 0.53066677 -0.12477779
-0.093447931 0.54340243 -0.10578251
-0.070911415 0.54598171 -0.091217041
0.0021701977 0.55781811 -0.15459251
0.048332825 0.55740052 -0.15685511
-0.19104666 -0.54137832 -0.067165375
-0.14692244 -0.5485127 -0.026869774
-0.073144026 -0.56764334 -0.053449154
-0.025350027 -0.56678545 -0.05809164
0.045093678 -0.56236792 -0.016595364
-0.30499911 -0.47759485 -0.057549953
-0.23300007 -0.51414239 -0.031071663
-0.43525246 -0.40613768 -0.072770596
-0.38260052 -0.42413133 -0.056472778
-0.33215621 -0.44516188 -0.020857811
-0.50136793 -0.31684878 -0.058070183
-0.45926329 -0.34586686 -0.039784431
-0.41292873 -0.3692058 -0.018128872
0.61718434 -0.32872301 -0.058609962
-0.52469552 -0.26087278 -0.047071457
-0.48552766 -0.2850005 -0.016705513
0.67118168 -0.26039562 -0.022441387
-0.55277473 -0.187123 -0.039859772
0.6910271 -0.19882545 -0.045334339
-0.58713531 -0.098456487 -0.064360142
-0.5649057 -0.12046663 -0.028428555
0.71364504 -0.1149472 -0.051990032
-0.58689207 -0.043304358 -0.048012257
-0.56019825 -0.068175234 -0.0059757233
0.70913219 -0.0073901862 -0.07543993
-0.59550017 0.028311204 -0.045125961
0.71392441 0.052225918 -0.05053854
0.70574081 0.12427056 -0.031204224
-0.51524311 0.29094851 -0.048241138
-0.46069428 0.2935358 -0.020234585
0.63931417 0.24164017 -0.068452835
-0.500673 0.31349415 -0.061541557
-0.44946256 0.34078994 -0.052592754
-0.39140198 0.36132765 -0.034976006
0.54675758 0.36225253 -0.051386356
0.60060775 0.31848007 -0.011714458
-0.36831585 0.40727893 -0.071564198
-0.31575084 0.42386475 -0.048172474
-0.25439021 0.46031192 -0.033010006
-0.2108677 0.48800012 -0.04756403
-0.1406776 0.51588261 -0.044754028
-0.074394457 0.53218651 -0.033641338
-0.027544729 0.53609312 -0.010575294
-0.048025884 0.5481503 -0.078965187
-0.0012298897 0.55047059 -0.065862656
0.069851682 0.55177093 -0.058516979
-0.1283294 -0.53629279 0.042930126
-0.084146656 -0.55140656 0.02435112
-0.0056224912 -0.56196743 0.049122334
0.08072494 -0.57126343 0.032988071
0.11745401 -0.58258861 0.027444363
-0.28050804 -0.46660158 0.015300751
-0.22596043 -0.49018633 0.036689758
-0.16461572 -0.52290183 0.036819458
-0.36518058 -0.39537644 0.01713562
-0.30958605 -0.42258301 0.050851822
-0.43187836 -0.31299055 0.021973133
-0.38869664 -0.3471218 0.047057152
0.65571249 -0.31363094 0.028374672
-0.45762584 -0.264826 0.029989719
-0.52016211 -0.18380286 0.0055608749
-0.48006704 -0.19592384 0.046703815
0.7270813 -0.16626516 0.01782608
0.73575681 -0.19342636 0.062905788
-0.52129954 -0.11473893 0.026778221
-0.49757555 -0.14317635 0.045897484
0.76172698 -0.10708731 0.06909132
-0.52572447 -0.038440149 0.034023285
0.7603054 -0.045003787 0.061989307
-0.65804076 0.077133015 -0.0017738342
-0.6118561 0.071902856 0.034742355
-0.54597944 0.025915779 0.027713776
-0.65141916 0.10363982 0.072030544
0.7348932 0.12791876 0.058417797
0.68927211 0.19922231 0.011325836
-0.5915271 0.27335465 0.025949955
-0.54143924 0.26667044 0.020217419
-0.45581761 0.27283412 0.019804001
-0.39946756 0.29367757 0.048377037
0.63606691 0.30078027 0.058195114
-0.36504367 0.33971423 0.037538052
-0.32581767 0.37382391 0.049148083
-0.2901924 0.41200569 0.027620316
-0.23075244 0.44579202 0.035915852
-0.20014647 0.46861589 0.023764133
-0.15698999 0.48471567 0.033745289
-0.083690606 0.50973409 0.037015438
-0.00035881251 0.52952158 0.038158417
0.068686977 0.54101247 0.018474102
0.11745401 0.54115456 0.019313812
-0.069004498 -0.54257751 0.080039501
-0.0075755641 -0.54588288 0.099555969
0.066897571 -0.55222702 0.13701725
0.12998664 -0.57029569 0.096159935
-0.21880925 -0.46888331 0.08617878
-0.1585041 -0.49308091 0.10917568
-0.090234019 -0.51795155 0.12065411
-0.034600116 -0.52775848 0.14217854
-0.29147136 -0.40448388 0.10253763
-0.24312261 -0.43158361 0.11833382
-0.36606446 -0.32903597 0.099129677
-0.31983691 -0.35717532 0.12777185
-0.43075684 -0.2447561 0.087141037
-0.39217326 -0.27549428 0.11410379
0.71373445 -0.2440193 0.077571869
-0.44342473 -0.19087069 0.10303736
-0.4134756 -0.21044755 0.13438559
0.77570099 -0.19152655 0.11342335
-0.45919982 -0.12093048 0.1078763
0.78664351 -0.12686728 0.099647045
0.82702488 -0.12227263 0.14210844
-0.46134987 -0.033317316 0.11999607
0.78682005 -0.037572931 0.1104598
-0.58021998 0.079181604 0.086913586
-0.52971339 0.05970883 0.10848522
-0.47352275 0.029580835 0.11720896
0.76974642 0.042126238 0.10915852
-0.67880756 0.10396346 0.082529068
-0.60525411 0.12256525 0.10354805
-0.55140889 0.130633 0.12907457
-0.58888781 0.20620397 0.12712717
-0.54051131 0.20903601 0.1220293
-0.57748532 0.25262338 0.074226379
-0.51717299 0.25331095 0.083158016
-0.46158239 0.25622085 0.12095976
-0.38102868 0.27620137 0.1202054
-0.32999733 0.29991171 0.14039946
-0.30542618 0.35210273 0.10608292
-0.25348097 0.37534901 0.13562632
-0.2277799 0.41473639 0.10047245
-0.1637637 0.44637373 0.11240625
-0.11048081 0.46030033 0.14006567
-0.13128915 0.47704229 0.081377983
-0.07692381 0.4872317 0.10848188
-0.014694385 0.50151068 0.119946
0.062243164 0.52111083 0.1089077
0.12994865 0.52922374 0.096424103
0.078912959 -0.53535777 0.1891861
0.14309193 -0.54626304 0.17802811
0.19524366 -0.54009682 0.21849966
-0.13074896 -0.46634534 0.18639755
-0.074919172 -0.4958255 0.18298054
0.0018248484 -0.52234763 0.18878126
0.04055576 -0.53385717 0.17990208
-0.22095579 -0.40250811 0.18944597
-0.17003852 -0.44232103 0.18601513
-0.2940484 -0.32992733 0.19161463
-0.25567257 -0.36869588 0.19376135
-0.35676333 -0.25183809 0.18054295
-0.33258453 -0.27838641 0.19141722
0.75933838 -0.25232336 0.18544006
0.82873559 -0.22833915 0.20985413
-0.38320521 -0.18812588 0.18620777
0.77807212 -0.22424471 0.15075684
0.84830856 -0.18793584 0.18113422
0.89259696 -0.1635329 0.2065773
-0.40358165 -0.11295142 0.18739223
0.86109364 -0.11086652 0.18120003
0.89342314 -0.11193574 0.21015453
-0.41125825 -0.028583556 0.18915606
0.80837053 -0.021158431 0.17428303
0.82877898 -0.038217463 0.19032812
-0.52043337 0.080977023 0.16466999
-0.45684686 0.045482505 0.18117285
-0.40108356 0.030357692 0.21811104
-0.62048495 0.15710767 0.15566397
-0.51075315 0.1197547 0.18130398
-0.4800202 0.10833861 0.22463894
0.79013276 0.082047574 0.21101475
-0.5088321 0.17053987 0.17115021
-0.4868072 0.19717957 0.19078445
-0.46355805 0.23685886 0.20492315
-0.36735198 0.25959155 0.16474915
-0.30701151 0.28313762 0.19247675
-0.26919323 0.31374824 0.19857311
-0.23026317 0.35210848 0.19655132
-0.19062084 0.38952449 0.18511772
-0.15193895 0.41503909 0.18434572
-0.082793482 0.45118228 0.18586731
-0.037083365 0.46804249 0.19594193
0.009436734 0.48278621 0.19153309
0.083150461 0.50127703 0.18909693
0.137972 0.50795221 0.18801832
-0.058853932 -0.472352 0.2440238
0.012119345 -0.49133843 0.27043915
0.073597297 -0.51277548 0.26691103
0.14389496 -0.52348161 0.27900076
0.21001339 -0.52451479 0.28571177
-0.19573218 -0.38705218 0.24045038
-0.14512527 -0.41131389 0.26152897
-0.074342526 -0.43879083 0.2876296
-0.27388972 -0.30864432 0.23924637
-0.2243737 -0.33740607 0.26641798
-0.17391434 -0.3664017 0.29100657
-0.29462492 -0.25405821 0.25725508
-0.25343707 -0.2737056 0.29155111
0.74300271 -0.28227893 0.235991
-0.35195234 -0.16506067 0.23775816
-0.31750679 -0.18006811 0.27496099
0.91786528 -0.17825937 0.24058533
-0.36325976 -0.094861433 0.24427986
-0.33174127 -0.10123599 0.28259087
0.92041272 -0.10029238 0.2513814
-0.368671 -0.026959576 0.24561548
-0.33280993 -0.022053152 0.2907567
0.86173224 -0.034737997 0.24256945
-0.43299183 0.056854162 0.25511122
-0.37588933 0.030783705 0.26793003
0.83407861 0.030972153 0.29797125
-0.730474 0.13691947 0.29226875
-0.45313361 0.10955179 0.26422882
-0.44600222 0.18786632 0.25486517
-0.41260406 0.20318498 0.29293823
0.7739743 0.16199559 0.26148939
-0.43175539 0.23980597 0.24746227
-0.39871827 0.2426881 0.28906202
-0.28728703 0.26558194 0.24256563
-0.23077068 0.28409755 0.27778625
-0.20596403 0.3278394 0.25676537
-0.15499106 0.35595867 0.27563858
-0.13068619 0.3962923 0.24373245
-0.066392399 0.42019579 0.26194191
0.0053839758 0.44621626 0.27660179
0.064343259 0.45587215 0.29975557
0.039190054 0.47401428 0.23903894
0.078129262 0.47659126 0.25763512
0.15030676 0.48455253 0.26812029
0.19637471 0.49098924 0.26747751
0.037313439 -0.47641292 0.32029867
0.081701882 -0.48697752 0.3324666
0.13896888 -0.4958913 0.3449955
0.21156511 -0.50642169 0.3428297
-0.12209972 -0.39482558 0.30777073
-0.065196835 -0.40931568 0.3405323
0.0043501332 -0.44273052 0.34975719
0.063185312 -0.45685342 0.37496519
-0.20253259 -0.31555605 0.31406641
-0.15109921 -0.34469533 0.33936834
-0.085697345 -0.3748621 0.36950684
-0.22359407 -0.25997841 0.33539486
-0.1805059 -0.27995133 0.3688488
-0.28279781 -0.18229321 0.3163929
-0.24682713 -0.18442617 0.35588169
-0.29703304 -0.10252363 0.32432365
-0.26132441 -0.10376538 0.36473656
-0.29802504 -0.022373583 0.33265591
-0.26238102 -0.022692177 0.37454033
-0.37852561 0.058056921 0.33323717
-0.31219068 0.031293195 0.33968067
-0.71195471 0.13820647 0.32570267
-0.39304885 0.11192063 0.34144592
-0.74945611 0.19409384 0.36932611
-0.3840358 0.18821101 0.33178091
-0.34341407 0.20773652 0.37178659
-0.7482819 0.24791861 0.36455917
-0.36395684 0.2451362 0.3243928
-0.32829103 0.24759094 0.35982513
-0.22496441 0.25283098 0.33909464
-0.16115272 0.28300604 0.35310364
-0.13223031 0.33436841 0.32553482
-0.074649118 0.36179015 0.3450737
-0.017938413 0.38352907 0.36770821
-0.042338304 0.40391165 0.30971527
0.015449144 0.41793671 0.3386364
0.081630141 0.44303823 0.33903599
0.13760719 0.45489302 0.34408665
0.21188676 0.46303752 0.35450649
0.090178467 -0.45925367 0.39330769
0.15171862 -0.46846348 0.41173124
0.22752872 -0.47690398 0.423769
0.013302721 -0.40673763 0.41157341
0.071540944 -0.42710844 0.4286828
0.11745401 -0.43822837 0.44405317
-0.12761813 -0.32233211 0.38742065
-0.070763342 -0.34463602 0.41726494
-0.020584084 -0.36821446 0.43644476
-0.14875871 -0.26571393 0.41096735
-0.094687499 -0.29073757 0.44499254
-0.20997453 -0.18650828 0.39462709
-0.17452812 -0.19389093 0.4288249
-0.22459885 -0.10501653 0.40536213
-0.18700498 -0.1062559 0.44559956
-0.22557253 -0.023002431 0.41548443
-0.18766949 -0.037175417 0.45344734
-0.34471872 0.058803823 0.38175678
-0.30967328 0.059551071 0.43028307
-0.2534008 0.031906012 0.41926527
-0.34679741 0.11364451 0.39764166
-0.31066293 0.11489991 0.43854523
-0.73859859 0.19779186 0.4373517
-0.34511417 0.1676901 0.3847785
-0.29848015 0.20039119 0.42335129
-0.73753208 0.26640376 0.43288326
-0.29149863 0.24980193 0.39174414
-0.13790891 0.25977212 0.40446854
-0.084126078 0.28846934 0.42163134
-0.021376289 0.3098574 0.45702744
-0.060010187 0.33213481 0.39761019
0.0075882673 0.36143818 0.41851091
0.0621951 0.37736538 0.43928242
0.080965623 0.40637609 0.4108367
0.14487709 0.42099345 0.41906881
0.22049743 0.4372721 0.42060041
0.034090102 -0.384601 0.45987225
0.080223903 -0.39579344 0.47769451
0.14551184 -0.41636145 0.49525452
0.22291718 -0.43852383 0.50392818
0.28650117 -0.44636166 0.51008797
0.0052232966 -0.33229774 0.49600315
0.07514298 -0.36254472 0.51715088
-0.069157816 -0.26621374 0.48754025
-0.023814641 -0.27810669 0.52037811
-0.14020559 -0.18357642 0.46887302
-0.087887101 -0.19692045 0.51263428
-0.14826691 -0.10744454 0.48429108
-0.10874609 -0.10864366 0.52314186
-0.15481862 -0.019612979 0.49234676
-0.10933066 -0.03808701 0.53263378
-0.27340758 0.060268249 0.47685242
-0.22036371 0.046708249 0.50731277
-0.27371347 0.11615828 0.47969151
-0.23789811 0.12289064 0.51417065
-0.72507006 0.20108743 0.49834633
-0.2720983 0.17138192 0.46470451
-0.22292653 0.20445465 0.49790573
-0.16572914 0.23097718 0.52876759
-0.079706557 0.22982347 0.51003265
-0.72277349 0.28443828 0.48840141
-0.058941044 0.26438546 0.46853352
0.00025424361 0.28107855 0.50566864
0.033503309 0.32618609 0.48528194
0.07531254 0.34127691 0.49749374
0.13862388 0.36371931 0.51101112
0.15933952 0.3950932 0.47500515
0.2350862 0.40768236 0.48859406
0.28716883 0.40043217 0.52454281
0.17440134 -0.39420077 0.54894733
0.23758882 -0.40729445 0.56485844
0.29002205 -0.41252607 0.58631706
0.032207318 -0.30814049 0.54139996
0.074661002 -0.32388324 0.5593338
0.14211974 -0.34822315 0.57984543
0.20400505 -0.37062374 0.59787941
0.012633696 -0.25780255 0.56743431
0.069339499 -0.27471265 0.6015892
-0.053584419 -0.18083803 0.55320072
-0.011826508 -0.19666921 0.58342934
-0.068178959 -0.10980644 0.56100178
-0.02685494 -0.11098582 0.59936619
-0.074929334 -0.020125691 0.57403946
-0.027250312 -0.053451091 0.60963917
-0.19695374 0.061595645 0.56308842
-0.16011873 0.042747546 0.58068848
-0.20321804 0.11133655 0.55324078
-0.15908051 0.12542783 0.59264755
-0.71097857 0.21869172 0.56102562
-0.19529864 0.17502302 0.54354191
-0.14516541 0.20017804 0.57268333
0.0033235475 0.23287864 0.55963993
0.05980524 0.23502593 0.59450817
-0.70846581 0.27495861 0.5497694
0.031959891 0.26091275 0.55211449
0.074532628 0.27647382 0.57065868
0.13190924 0.29280326 0.59617901
0.089061551 0.31674778 0.5383997
0.15183263 0.33053777 0.56660461
0.22806627 0.35657647 0.57485962
0.28937238 0.37692031 0.57225132
0.1611526 -0.31577754 0.6315918
0.23422474 -0.34577444 0.64230728
0.30292922 -0.36648992 0.65460682
0.078611001 -0.23847169 0.63676071
0.13703635 -0.26911768 0.65816402
0.030259565 -0.18446547 0.62574005
0.073487818 -0.18626317 0.66167927
0.015487552 -0.11212462 0.63637638
0.058592491 -0.11325745 0.67327785
0.00058059394 -0.024771031 0.64819336
0.058438417 -0.054584987 0.68328571
-0.12495633 0.052925766 0.62938118
-0.07862369 0.043649614 0.67155552
-0.12255553 0.11353549 0.62968254
-0.073706113 0.1220673 0.67138481
-0.11467355 0.17852639 0.61939144
-0.072329931 0.19421417 0.64377499
-0.0075990334 0.20303154 0.67269897
0.073421896 0.20988852 0.66293049
0.13222213 0.21078531 0.67957401
0.088462748 0.23636067 0.61618614
0.15088138 0.25869703 0.64144516
0.22755527 0.29055893 0.66257286
0.24850649 0.32472476 0.63260078
0.30250224 0.33538675 0.64445496
0.2653566 -0.32095492 0.69273186
0.315299 -0.33187598 0.70537758
0.16690245 -0.24270099 0.70276642
0.23317239 -0.26783147 0.72743511
0.31203711 -0.27262059 0.73982143
0.35609758 -0.26415309 0.72519779
0.14734411 -0.18908782 0.71818542
0.20759721 -0.20590335 0.75342464
0.32663164 -0.1897677 0.73196411
0.35648748 -0.20472309 0.73152924
0.087838501 -0.11400121 0.69727802
0.138905 -0.11951959 0.73671627
0.028095908 0.0044304635 0.71942997
0.080267444 -0.025250964 0.71996403
0.12747495 -0.045507077 0.74153328
-0.060046338 0.063596949 0.69310474
-0.0021371245 0.049330544 0.73818207
0.057354741 0.0044309227 0.7536726
-0.010423563 0.1195633 0.72915745
0.012996063 0.18362515 0.72978401
0.1768306 0.21224882 0.7067337
0.22217351 0.21378244 0.73519993
0.2423166 0.25398475 0.7098465
0.31153327 0.27298632 0.72845554
0.35830966 0.24528654 0.76111889
0.26844111 -0.23714888 0.77287006
0.31414366 -0.25278449 0.78135777
0.24469727 -0.18936369 0.78382206
0.30033988 -0.19367391 0.80970478
0.36195982 -0.17894873 0.82038975
0.17784032 -0.10123752 0.77231503
0.23935628 -0.11734693 0.8062706
0.31671548 -0.11815742 0.83232117
0.37791467 -0.11811469 0.83074379
0.16806741 -0.036004066 0.79225922
0.23225525 -0.049100045 0.82534313
0.3325676 -0.05703067 0.84212017
0.37846509 -0.041627571 0.83920097
0.056637906 0.050038729 0.80023193
0.11745401 0.0044309227 0.80380058
0.38608801 0.042806692 0.83839798
0.026260771 0.12602167 0.79889297
0.056901272 0.09525954 0.78312588
0.32163283 0.14733221 0.8286705
0.36233705 0.12681356 0.82651424
0.25902319 0.19656323 0.79236507
0.31429502 0.20122436 0.78389645
0.3600361 0.20149183 0.78915215
0.16409954 0.0044305786 0.8900013
0.23095664 -0.0058375802 0.87257576
0.30231538 -0.021216158 0.85328007
0.169596 0.046158418 0.91473007
0.22648051 0.051178079 0.8973875
0.30291006 0.044193402 0.8666048
0.36346045 0.019805331 0.84475708
0.18008114 0.12968525 0.91786194
0.23541856 0.12240954 0.88651085
0.29657519 0.10946066 0.86314487
0.16940001 0.18109265 0.9004097
0.22059497 0.16940264 0.86959934
0.08596763 0.051701933 0.94031048
0.12792249 0.056800988 0.93025684
0.075190358 0.12060658 0.96549034
0.14257269 0.11143479 0.93795681
0.021933317 0.16363193 0.98627758
0.069938615 0.17852697 0.96244526
0.12791494 0.17207052 0.93352795
0 0 0 1 0 0 0 1 0 0 0 1 0 0 0 0 0 842 1 0 0
