ply
format ascii 1.0
comment PCL generated
element vertex 788
property float x
property float y
property float z
element camera 1
property float view_px
property float view_py
property float view_pz
property float x_axisx
property float x_axisy
property float x_axisz
property float y_axisx
property float y_axisy
property float y_axisz
property float z_axisx
property float z_axisy
property float z_axisz
property float focal
property float scalex
property float scaley
property float centerx
property float centery
property int viewportx
property int viewporty
property float k1
property float k2
end_header
0.1296308 -0.43474901 -0.33064795
0.16896123 -0.44273984 -0.34186554
0.2277959 -0.44111684 -0.35123587
0.27733338 -0.44181129 -0.347229
0.31470421 -0.44087911 -0.3334775
0.16908313 -0.39391008 -0.33793879
0.22794223 -0.39229393 -0.34843302
0.27730617 -0.39243484 -0.34754562
0.31781393 -0.39426735 -0.33571196
0.16634236 -0.34057921 -0.33485937
0.22804481 -0.34326586 -0.34651995
0.27742761 -0.34335241 -0.34586668
0.31981429 -0.33879572 -0.33548546
0.17160654 -0.29262218 -0.33639336
0.22803509 -0.29391769 -0.3466711
0.27746662 -0.29407492 -0.34535599
0.31577659 -0.291152 -0.33630657
0.1691643 -0.23577884 -0.33526373
0.22803548 -0.23473512 -0.34659863
0.2773743 -0.23472871 -0.34660673
0.31764367 -0.23555905 -0.33761406
0.16638921 -0.18211903 -0.33328724
0.22803766 -0.18540826 -0.34654427
0.27742103 -0.18545175 -0.34598255
0.31779242 -0.18618315 -0.33596849
0.17163536 -0.13418573 -0.33557701
0.22800478 -0.13605297 -0.34709454
0.27729604 -0.13602139 -0.3476696
0.31757939 -0.13652045 -0.33833361
0.16916692 -0.077231012 -0.33527231
0.22795373 -0.07683368 -0.34804726
0.27718958 -0.07680364 -0.34912491
0.31746274 -0.077095136 -0.33966589
0.16917169 -0.020254496 -0.33497334
0.22799253 -0.020147106 -0.34730625
0.27523971 -0.0216143 -0.34882402
0.31536692 -0.021691242 -0.34098673
0.16914034 0.027513662 -0.33624601
0.22798419 0.027403139 -0.34755421
0.2792629 0.025710206 -0.34773636
0.31951472 0.025787244 -0.33881044
0.1296626 0.061654806 -0.32858276
0.169129 0.081289932 -0.33651495
0.22797456 0.080935374 -0.34768581
0.27721566 0.08090423 -0.34876919
0.31735873 0.081145957 -0.34080982
0.17168421 0.13836025 -0.33395338
0.22799474 0.14012849 -0.34724236
0.27722499 0.14005359 -0.3486495
0.31740126 0.14050348 -0.3403182
0.16640653 0.18625139 -0.33266926
0.22796217 0.18940532 -0.34782076
0.2772606 0.18937768 -0.34818935
0.32771295 0.18363595 -0.33607101
0.16919428 0.23996417 -0.33422518
0.22796139 0.23870386 -0.34781694
0.27707744 0.23843622 -0.35077715
0.31448108 0.2265964 -0.3360219
0.17164516 0.29684117 -0.33525181
0.22782186 0.29759568 -0.35023403
0.26753277 0.29809114 -0.34620237
0.16635308 0.34473789 -0.33432388
0.22776204 0.34668884 -0.35144806
0.26830894 0.34891808 -0.33500004
0.18911073 0.37896013 -0.33279848
0.22835881 0.37783363 -0.34050083
-0.071286581 -0.61257619 -0.29208231
-0.070458405 -0.55929297 -0.30553007
-0.050940774 -0.55134887 -0.2956953
-0.070212208 -0.49837005 -0.30952787
-0.050377615 -0.49904281 -0.30614614
-0.049973406 -0.4576132 -0.31364727
0.069730505 -0.43208048 -0.28679419
0.10587759 -0.45076916 -0.3071332
0.34340766 -0.45152289 -0.31039286
0.38278282 -0.4422825 -0.28620625
0.069666363 -0.39294469 -0.27846146
0.10987259 -0.39820418 -0.30997467
0.3490496 -0.3966369 -0.32043362
0.37911794 -0.39557007 -0.30114794
0.41443396 -0.39345831 -0.27508307
0.069661431 -0.34239006 -0.27782011
0.10989852 -0.33863699 -0.30649471
0.34881935 -0.33650279 -0.32273388
0.38120177 -0.33941028 -0.30058432
0.069649868 -0.29190645 -0.27631855
0.1099014 -0.28855491 -0.30634928
0.34865546 -0.28654718 -0.32437181
0.3810789 -0.28907669 -0.30167866
0.069649681 -0.24122643 -0.27629423
0.1098993 -0.2384326 -0.30652189
0.34895918 -0.23704395 -0.32133722
0.38239682 -0.23994011 -0.28987074
0.069650263 -0.18040298 -0.27636957
0.1099045 -0.17837523 -0.30561972
0.34903675 -0.17733563 -0.32056189
0.38210493 -0.17931561 -0.29243326
0.4144626 -0.1602259 -0.27485037
0.069642559 -0.12977456 -0.27536869
0.1099023 -0.12824775 -0.30587864
0.34938821 -0.12768981 -0.3170495
0.38139901 -0.12861037 -0.29866743
0.41415095 -0.1296742 -0.27738047
0.069638774 -0.079090409 -0.27487755
0.10989349 -0.07811255 -0.30665398
0.34933543 -0.077780202 -0.31757736
0.38130695 -0.078332849 -0.29947329
0.41426575 -0.079048 -0.27644825
0.069628328 -0.038543638 -0.27352047
0.10989327 -0.028017756 -0.3062005
0.34889904 -0.027840827 -0.32193804
0.38328451 -0.022056777 -0.29975605
0.41400424 -0.018211938 -0.27857161
0.062900968 0.035795525 -0.27842903
0.10988892 0.022066349 -0.30713606
0.34892577 0.021972414 -0.32167053
0.3791374 0.026156217 -0.30088043
0.41374049 0.032400224 -0.28071308
0.019442022 0.072477914 -0.2955327
0.061894514 0.078287132 -0.30619049
0.1073973 0.084646396 -0.30912733
0.348768 0.081687152 -0.32324743
0.38120523 0.082394674 -0.30041695
0.41399226 0.083061166 -0.27866936
0.069633551 0.12377706 -0.27419901
0.10990793 0.13240521 -0.30449963
0.34858564 0.13137463 -0.3250699
0.38115585 0.13258369 -0.30083036
0.41367447 0.1335669 -0.28124905
0.10990854 0.18253739 -0.30458164
0.34854978 0.20098849 -0.32542801
0.38057244 0.18243001 -0.30614281
0.41377655 0.18422547 -0.28041983
0.10990741 0.24270053 -0.30459547
0.34978169 0.22192536 -0.31311798
0.38196582 0.22357912 -0.29358912
0.41456902 0.22523889 -0.27398586
0.10990001 0.29275703 -0.30533123
0.10991427 0.34312907 -0.30350113
0.12017677 0.39571923 -0.28740692
0.16747409 0.40500903 -0.30894613
0.2195006 0.41074494 -0.32001877
0.26976675 0.40732577 -0.31439781
0.32126006 0.41436943 -0.29677343
0.13036431 0.44690639 -0.28300571
0.17016947 0.45365956 -0.30239248
0.21968272 0.45123449 -0.31639576
0.26953328 0.45104861 -0.31746054
0.33381876 0.44954321 -0.30119753
0.13036214 0.50754517 -0.2831459
0.17018291 0.50391048 -0.30200338
0.21971226 0.50125468 -0.3158021
0.26955274 0.50099432 -0.31716919
0.33083647 0.50384289 -0.30238628
0.37401974 0.48906839 -0.27369404
0.12359579 0.56132984 -0.28376722
0.17247936 0.56014997 -0.30878258
0.21943015 0.55992991 -0.32143736
0.26931351 0.5601058 -0.32067251
0.32806519 0.56092221 -0.30521345
0.37344304 0.56908596 -0.27904463
0.13038351 0.58873123 -0.28175831
0.15026489 0.58535594 -0.29687929
0.35225332 0.58724427 -0.28841972
0.028186452 -0.69762903 -0.23654699
0.059069797 -0.69777173 -0.23600149
0.02840434 -0.65415388 -0.24598169
0.059079453 -0.65684974 -0.23498297
0.028417058 -0.60275608 -0.24653244
0.055661686 -0.60853118 -0.23629618
0.028284155 -0.55267805 -0.24077702
0.057032552 -0.54931056 -0.23724365
0.0279915 -0.51404589 -0.22810507
0.059171427 -0.50029421 -0.24635744
0.096811317 -0.50009573 -0.22918749
0.027858607 -0.43240166 -0.22235107
0.054257322 -0.45123911 -0.2633152
0.39610824 -0.46744087 -0.25814104
0.42438823 -0.43474266 -0.2500658
0.027947363 -0.3904607 -0.2261939
0.049055628 -0.3964054 -0.25541925
0.44016474 -0.38939953 -0.23344612
0.027898498 -0.33908355 -0.22407818
0.049037408 -0.34547454 -0.25423574
0.42528546 -0.34138596 -0.25389147
0.027858816 -0.28758296 -0.22235966
0.049013421 -0.28431785 -0.25267744
0.42789418 -0.28466648 -0.24944782
0.027861159 -0.23585759 -0.22246122
0.049028609 -0.23309653 -0.25366354
0.42804781 -0.23357883 -0.24813652
0.027872764 -0.18410477 -0.22296381
0.049022369 -0.18200062 -0.25325823
0.42966202 -0.18621252 -0.25155258
0.027821857 -0.14285687 -0.22075939
0.048993435 -0.13097502 -0.25137901
0.43849865 -0.13122737 -0.24617767
0.048971396 -0.079850994 -0.24994755
0.43834835 -0.079941235 -0.2473259
0.059277132 -0.018400218 -0.25990105
0.43833938 -0.028699951 -0.24739456
0.023217149 0.027599158 -0.24278498
0.049010307 0.01225665 -0.25247478
0.43825537 0.022532761 -0.24803686
0.00335861 0.088588335 -0.26429081
0.049283039 0.10364255 -0.27018929
0.43821219 0.08400096 -0.24836588
0.028113689 0.12566149 -0.23339605
0.055886302 0.13805184 -0.25947952
0.43812639 0.13517974 -0.24902201
0.059282519 0.18561503 -0.26015377
0.43813944 0.18639003 -0.24892235
0.061351802 0.24245882 -0.26288414
0.39627782 0.2471287 -0.25667238
0.4307074 0.24057207 -0.2538023
0.057207763 0.29195955 -0.25738335
0.42926639 0.29000396 -0.23810005
0.027902331 0.35349113 -0.22424412
0.059283424 0.34879407 -0.26020241
0.43021837 0.34235466 -0.23057508
0.062415361 0.40045297 -0.23288536
0.089922331 0.39947209 -0.26242638
0.35430354 0.40878484 -0.26793242
0.3912648 0.40603578 -0.24106646
0.42765486 0.38114274 -0.2236762
0.069257103 0.45667243 -0.22529697
0.10008858 0.4508467 -0.25974274
0.38566568 0.45069295 -0.2606225
0.42116579 0.43680125 -0.22042704
0.069264509 0.50816035 -0.22625828
0.10211946 0.5075621 -0.26176786
0.38555685 0.51164734 -0.26159811
0.069308192 0.55861121 -0.23193407
0.095000193 0.5528881 -0.25948048
0.39095017 0.55301952 -0.25884724
0.42045265 0.58047265 -0.22621727
0.11032902 0.59383851 -0.25888157
0.18277976 0.62124282 -0.22858143
0.22326958 0.61752582 -0.24467611
0.27456924 0.61746067 -0.24495745
0.31698921 0.62131745 -0.22825623
0.37481928 0.59218812 -0.26627493
0.1933704 0.65377134 -0.22212887
0.22382408 0.66131252 -0.2335043
0.27519858 0.66073829 -0.23584747
0.19332781 0.70520198 -0.22323561
0.22397953 0.71363771 -0.23049116
0.27143279 0.71157384 -0.23048687
0.0055194199 -0.69427973 -0.16872358
0.11093739 -0.69565511 -0.19060898
0.0068318471 -0.65232199 -0.21134615
0.1079333 -0.66137421 -0.19229317
-0.0064390302 -0.60910189 -0.19076109
0.069212258 -0.5985477 -0.21947098
0.11092216 -0.60496598 -0.19072819
0.0064830408 -0.56111252 -0.20001841
0.069213107 -0.57781386 -0.21958208
0.11092245 -0.5525282 -0.19128036
0.020169467 -0.49992055 -0.1931591
0.12467802 -0.51226252 -0.20138073
0.15985191 -0.5084191 -0.18479967
0.42444739 -0.47883543 -0.19378376
0.013042964 -0.45187643 -0.18821478
0.44290093 -0.45475152 -0.21253729
0.0061890185 -0.39568767 -0.19047022
0.467978 -0.397003 -0.18140745
0.0060970783 -0.34373313 -0.18748379
0.46832156 -0.34481519 -0.1789279
0.0060333759 -0.29156542 -0.18541479
0.46819562 -0.29217824 -0.17983627
0.0059876963 -0.23926516 -0.18393183
0.46810198 -0.23957576 -0.18051243
0.0059944093 -0.18679957 -0.18414974
0.46698019 -0.18650936 -0.18860769
0.013259426 -0.13029556 -0.19594812
0.46661296 -0.13397431 -0.19125795
0.016847484 -0.081383415 -0.20034552
0.46642956 -0.081627846 -0.19258165
0.016838923 -0.029246977 -0.19991732
0.46568573 -0.018850593 -0.19794989
0.0059181973 0.012547625 -0.18167448
0.46524134 0.033327069 -0.20115709
0.4664903 0.085750058 -0.19214344
0.013227284 0.14134717 -0.19485617
0.46761242 0.13843265 -0.18404531
0.016790248 0.18992399 -0.19800329
0.46824265 0.19119786 -0.17949724
0.016764179 0.242208 -0.19690943
0.46725306 0.24311301 -0.18663931
0.01679258 0.29427314 -0.19819689
0.40211326 0.2934632 -0.20613575
0.46722946 0.29549265 -0.18680954
0.013276398 0.34322813 -0.19642258
0.40304211 0.34647447 -0.19809198
0.46631554 0.34704989 -0.19340515
0.020032287 0.38631302 -0.18730068
0.048129085 0.4199768 -0.19523764
0.39284778 0.37816635 -0.19536114
0.43307278 0.4075034 -0.20847702
0.048038196 0.45230019 -0.18933439
0.42195401 0.45858794 -0.21402788
0.048095316 0.50397086 -0.19304371
0.4217231 0.49972859 -0.21590185
0.04813816 0.55567342 -0.19582748
0.42144415 0.55112201 -0.2181673
0.047997683 0.58898932 -0.18670321
0.13197987 0.63290739 -0.17807198
0.15242086 0.62702972 -0.20352268
0.33973783 0.6265831 -0.20545721
0.36418864 0.63496667 -0.16915512
0.13214262 0.65645891 -0.1675005
0.1697295 0.66868961 -0.20345497
0.32691273 0.66300952 -0.20968294
0.16659671 0.72065938 -0.1907897
0.29848963 0.73202991 -0.20042038
0.33326334 0.70412558 -0.20073318
-0.017083064 -0.70419127 -0.12970686
0.16409236 -0.69705862 -0.15778446
0.20756337 -0.70363432 -0.13189888
-0.027513497 -0.65948427 -0.13750935
0.16621473 -0.65895832 -0.15760946
0.21220198 -0.65799791 -0.13105488
-0.038183428 -0.60646182 -0.13621759
0.16188003 -0.60728431 -0.16133165
0.21849105 -0.60833961 -0.12764263
-0.027429476 -0.55252153 -0.13913441
-0.01567664 -0.56819004 -0.16624737
0.16405904 -0.55910385 -0.15903378
0.21215393 -0.55082119 -0.13221407
-0.017117858 -0.50102609 -0.12880278
0.0052858889 -0.49518365 -0.16113949
0.18505704 -0.51594889 -0.1633172
0.2285364 -0.50964022 -0.14021444
0.26196161 -0.51407349 -0.11621904
-0.031100012 -0.43924597 -0.13612986
0.4721185 -0.44385126 -0.1515255
-0.082017608 -0.39556891 -0.11783218
-0.037952088 -0.39206696 -0.14241314
-0.081845589 -0.34149122 -0.12062502
-0.03793665 -0.33877784 -0.14265013
-0.081955127 -0.28799623 -0.11884642
-0.037998356 -0.28567073 -0.14123726
-0.082107462 -0.23449764 -0.11637354
-0.038049869 -0.23248912 -0.14006424
-0.082151465 -0.18078107 -0.11565876
-0.038076095 -0.17922458 -0.13950634
-0.082156204 -0.12701441 -0.11558151
-0.038035251 -0.12587139 -0.14034939
-0.082207166 -0.062504247 -0.11475372
-0.038046934 -0.072579458 -0.14012384
-0.082200713 -0.019471169 -0.11485863
-0.038028441 -0.021942496 -0.1406436
-0.038002975 0.029447174 -0.14082956
-0.082075529 0.077294007 -0.11689138
-0.048812814 0.076742835 -0.1373167
-0.082210846 0.13114578 -0.11469412
-0.037965752 0.1298907 -0.14184523
-0.082116015 0.18483379 -0.11623383
-0.038005315 0.18322037 -0.14090633
-0.082157128 0.23865117 -0.11556625
-0.037994035 0.23648545 -0.14120102
-0.081875704 0.29195404 -0.12013578
-0.037961282 0.28970224 -0.14176273
-0.081852041 0.34560341 -0.12052059
-0.037750594 0.34238207 -0.14651251
-0.027677871 0.38682604 -0.13286591
0.44931945 0.57285154 -0.16349125
0.13219367 0.67838603 -0.16418409
0.3652795 0.66927195 -0.15825462
0.13224646 0.71098614 -0.16075516
0.36608711 0.70307773 -0.15018463
-0.039915524 -0.69042432 -0.098716736
0.24066877 -0.68708223 -0.11228371
0.27436626 -0.69223493 -0.091365814
0.30851662 -0.69745731 -0.070165634
-0.062392764 -0.66163474 -0.083173275
0.24057275 -0.6651215 -0.11406565
0.2742407 -0.65923268 -0.093326569
0.30847684 -0.66454893 -0.070683002
-0.061776437 -0.62642217 -0.094610214
0.27420747 -0.60491741 -0.093836784
0.30843267 -0.60978657 -0.071256638
-0.039365076 -0.5366531 -0.11063433
0.24058241 -0.56831056 -0.11388588
0.27409822 -0.55041099 -0.095458984
0.30818799 -0.5545395 -0.074435234
-0.040095977 -0.49635157 -0.094809532
0.28444144 -0.51667321 -0.10214758
0.31864199 -0.52066213 -0.080557346
-0.090961032 -0.4392758 -0.090527058
-0.060909741 -0.45045182 -0.11069441
-0.10572905 -0.40012625 -0.085804462
-0.10585491 -0.34599727 -0.08398819
-0.10599019 -0.29182217 -0.082035065
-0.10599869 -0.23741557 -0.081912518
-0.10598751 -0.18297918 -0.082073212
-0.10597216 -0.12855029 -0.082295418
-0.09805619 -0.077435218 -0.093003273
-0.096478261 -0.019626249 -0.095081329
-0.094141446 0.034513313 -0.097679615
-0.1060183 0.078244738 -0.081629276
-0.1001982 0.13238074 -0.087967873
-0.10610218 0.18717436 -0.080418587
-0.10600541 0.2415105 -0.081815243
-0.1060395 0.29598778 -0.08132267
-0.1057535 0.33903262 -0.085451126
-0.10640369 0.37288254 -0.076066971
-0.061237849 0.39074209 -0.10460567
-0.063602038 -0.69978118 -0.060731411
0.33152682 -0.70080489 -0.056576252
0.37840146 -0.69305789 -0.027840614
-0.1108271 -0.64481497 -0.012220383
0.33159676 -0.65706879 -0.055749416
0.37512943 -0.6568985 -0.028957367
-0.11041477 -0.61009681 -0.018172264
0.33146742 -0.60182059 -0.057277203
0.37849709 -0.60823351 -0.026979446
-0.11090844 -0.57813358 -0.011045933
0.33128288 -0.55747527 -0.059456348
0.38100216 -0.55504143 -0.029537678
0.42470163 -0.53360254 -0.010515213
-0.088287465 -0.49915928 -0.016022205
-0.063616268 -0.48050544 -0.060467243
0.35364357 -0.52539802 -0.054922581
-0.13170135 -0.44120291 -0.030813217
-0.13035396 -0.3944436 -0.048316002
-0.13056791 -0.33971375 -0.045536518
-0.13067624 -0.28473538 -0.044129372
-0.1306617 -0.22956763 -0.044318199
-0.13064051 -0.18543412 -0.044593334
-0.13062015 -0.13027838 -0.044857979
-0.13066292 -0.075163618 -0.044302464
-0.13064796 -0.020014437 -0.044496536
-0.13068226 0.03513385 -0.04405117
-0.13069922 0.079261757 -0.043830872
0.50956839 0.090391137 -0.040650368
-0.13082358 0.13449714 -0.04221487
-0.13079792 0.18965477 -0.04254818
-0.13089916 0.23390906 -0.041233063
-0.13074443 0.28890526 -0.043242931
-0.14300603 0.34577808 -0.028973579
-0.13250446 0.38017023 -0.020379543
-0.11321642 -0.69765586 0.022266865
0.4370313 -0.69214255 -0.00083637238
-0.13713992 -0.65643626 0.039836407
-0.11184017 -0.6704973 0.0024018288
0.43719107 -0.65887064 0.00056934357
-0.13624802 -0.60862142 0.028250217
0.43724412 -0.60296375 0.0010442734
0.47208223 -0.59368479 0.010448456
-0.13684663 -0.56487793 0.036026478
-0.11175182 -0.54694015 0.0011267662
0.44034818 -0.54969782 -0.004137516
0.4720414 -0.55989534 0.010136127
-0.11322143 -0.50578988 0.02233839
-0.15799227 -0.4375248 0.017943382
-0.1116985 -0.46840435 0.00035715103
-0.18245021 -0.39515755 0.038730621
-0.1560078 -0.38920286 -0.0054922104
-0.18278909 -0.33883992 0.04239893
-0.15610147 -0.34462717 -0.004386425
-0.18261319 -0.28185055 0.040494919
-0.15609735 -0.28870228 -0.0044341087
-0.18242243 -0.23625451 0.038430214
-0.15602827 -0.23272704 -0.0052504539
-0.18245396 -0.1795425 0.038770676
-0.15600023 -0.18798462 -0.0055818558
-0.18239704 -0.12276682 0.038155079
-0.15603259 -0.13211304 -0.0051994324
-0.18224648 -0.077338152 0.036525249
-0.15588883 -0.076171026 -0.0068969727
-0.18217126 -0.031969093 0.035710812
-0.15576455 -0.031458255 -0.0083646774
-0.18221784 0.024726536 0.036215305
-0.15596148 0.024401059 -0.0060391426
-0.18232173 0.081447653 0.037340164
-0.15595648 0.080277294 -0.0060982704
-0.18246704 0.12689389 0.038912773
-0.15602756 0.1362021 -0.0052585602
-0.18246675 0.18363622 0.038909912
-0.15605357 0.19211769 -0.0049514771
-0.18264553 0.24054131 0.040844917
-0.15615419 0.23693807 -0.0037636757
-0.18243551 0.28574529 0.038571358
-0.15616673 0.29287279 -0.0036153793
-0.1823191 0.34235114 0.037311554
0.40629429 0.43140638 0.025776863
-0.15491799 -0.66346639 0.071532726
-0.16252735 -0.60612833 0.071499825
-0.15724632 -0.54962558 0.076387882
-0.13917744 -0.50195706 0.066304684
-0.1831724 -0.43035561 0.046548367
-0.20960966 -0.40117183 0.083314419
-0.20987085 -0.34387526 0.085924625
-0.20971441 -0.28606921 0.084361553
-0.20948869 -0.23978736 0.082106113
-0.20936722 -0.182133 0.080892563
-0.20919138 -0.12450343 0.079134941
-0.20909384 -0.078459166 0.078160286
-0.20902318 -0.020948611 0.07745409
-0.20909727 0.036544651 0.078194618
-0.20909554 0.082548797 0.078177929
-0.20914429 0.12857281 0.07866478
-0.20934844 0.18621874 0.080704689
-0.20965859 0.24401383 0.083804131
-0.20976511 0.29020765 0.084867954
0.39073005 0.30285189 0.09606266
0.41052923 0.28830391 0.065072536
-0.20943713 0.34747246 0.081590652
0.39071795 0.32597813 0.09594202
0.41076955 0.3458252 0.06730175
-0.16115355 0.39007059 0.055276394
0.33165413 0.41646329 0.081021309
0.38004833 0.40667686 0.065704346
0.4086971 0.38912806 0.048072338
0.33147848 0.43917114 0.078866005
0.37523481 0.43577319 0.055633545
-0.1649814 -0.69314766 0.10048056
-0.19160613 -0.66663152 0.13784647
-0.18939912 -0.61479926 0.11395502
-0.19004822 -0.55784649 0.12098169
-0.16537827 -0.49693921 0.10516739
-0.20101592 -0.45194587 0.11424398
-0.23764935 -0.39571494 0.1296978
-0.23760897 -0.33718634 0.12932253
-0.2375423 -0.29034004 0.12870455
-0.23723969 -0.24333343 0.12589645
-0.23697013 -0.18475136 0.12339497
-0.23683128 -0.12632094 0.12210703
-0.23678955 -0.079636462 0.12171984
-0.23669001 -0.021281812 0.1207962
-0.23674592 0.037044533 0.121315
-0.23672703 0.083711118 0.12113905
-0.23688152 0.13043256 0.12257338
-0.23708472 0.18890333 0.12445831
-0.23735186 0.247503 0.12693739
-0.23759273 0.29446834 0.12917233
0.39123991 0.28018352 0.10115767
-0.23691598 0.3405444 0.12289286
0.39210403 0.35071525 0.10979271
-0.23858097 0.37747696 0.13834238
0.33445868 0.39804828 0.11623478
0.36775252 0.39563701 0.097810268
-0.2215741 -0.69283217 0.20287085
-0.21970385 -0.65295535 0.18418264
-0.21822709 -0.60240948 0.16942501
-0.21924427 -0.55681133 0.17958975
-0.20294973 -0.51235753 0.17430592
-0.25419569 -0.43691975 0.1727972
-0.2667132 -0.39025426 0.17876577
-0.2665984 -0.34259596 0.17777061
-0.2664603 -0.29494113 0.17657518
-0.26621592 -0.23539019 0.17445898
-0.26593351 -0.1758848 0.17201328
-0.26575407 -0.12837337 0.17045927
-0.26556963 -0.080906704 0.16886187
-0.26562721 -0.021656955 0.16936064
-0.26558319 0.037594397 0.16897917
-0.26565138 0.08501415 0.16956949
-0.26567647 0.13242988 0.16978741
-0.26570794 0.17985894 0.17005968
-0.26610717 0.23939776 0.1735177
-0.26619411 0.29880908 0.17427015
0.37708697 0.30117178 0.19885969
-0.265535 0.345651 0.16856194
0.37698361 0.33694953 0.19774008
0.38731253 0.38280097 0.18157005
-0.24886072 -0.66345787 0.23372602
-0.24664065 -0.61098611 0.21312666
-0.24827063 -0.55348009 0.2282505
-0.22231853 -0.49033934 0.21030951
-0.29798698 -0.43435371 0.23964262
-0.29627985 -0.39622739 0.22578239
-0.29645151 -0.34810531 0.22717619
-0.29621032 -0.28756014 0.22521782
-0.29595089 -0.2270702 0.22311115
-0.29566637 -0.17870034 0.22080135
-0.29536381 -0.13040105 0.21834564
-0.29514593 -0.082191609 0.21657562
-0.29513165 -0.022024002 0.21646023
-0.29518619 0.038148042 0.21690226
-0.29522079 0.086294644 0.21718359
-0.29522893 0.13444306 0.21724939
-0.29551274 0.1827191 0.21955395
-0.29569876 0.23101099 0.22106409
-0.29602265 0.2915031 0.22369432
0.35607874 0.31659302 0.2333684
-0.29558215 0.35141417 0.22011757
0.36380294 0.35654634 0.23016596
-0.26998141 0.38594192 0.20706892
0.35633525 0.38955376 0.23639822
-0.28074118 -0.68986094 0.30025148
-0.27825734 -0.64842564 0.27874041
-0.27679777 -0.59692997 0.26610088
-0.27854136 -0.55062658 0.28120041
-0.28111082 -0.50502467 0.30345249
-0.25182101 -0.49835908 0.26119423
-0.33125284 -0.4439058 0.30857944
-0.2767989 -0.46246916 0.26611042
-0.32650164 -0.40212926 0.27227354
-0.32690412 -0.34122676 0.27534962
-0.32687235 -0.27990359 0.27510691
-0.32678348 -0.23082313 0.27442694
-0.32661074 -0.18171997 0.27310753
-0.32621887 -0.13258961 0.27011299
-0.32583806 -0.0835611 0.26720333
-0.32580882 -0.022411602 0.26697922
-0.32583785 0.038727861 0.2672019
-0.32574823 0.087629214 0.26651716
-0.32587713 0.13656792 0.26750088
-0.32617834 0.18562064 0.26980352
-0.32632026 0.23465268 0.27088737
-0.32666925 0.28386298 0.27355385
-0.32645747 0.34493837 0.27193546
0.3356486 0.35837784 0.28228855
0.33390167 0.39241129 0.25959587
-0.30931723 -0.65922016 0.33163214
-0.3076649 -0.60676175 0.31821775
-0.30835333 -0.5580188 0.32380676
-0.31170928 -0.5125196 0.35105419
-0.35940874 -0.42232391 0.3329792
-0.31093162 -0.47396985 0.34473991
-0.35856512 -0.38414523 0.32689095
-0.3586804 -0.3344062 0.32772207
-0.35845521 -0.28441876 0.32609797
-0.35836914 -0.23455629 0.32547617
-0.35833582 -0.18473297 0.32523584
-0.35824695 -0.1348958 0.3245945
-0.35809308 -0.085075259 0.32348394
-0.35778534 -0.022829363 0.32126331
-0.35751405 0.039334171 0.31930494
-0.35762474 0.089071468 0.32010412
-0.35791272 0.13888365 0.32218266
-0.35795432 0.18865943 0.32248259
-0.35816789 0.23853807 0.32402372
-0.35866526 0.2886506 0.32761335
-0.35803717 0.33799469 0.32308102
-0.3593446 0.37643334 0.33251619
-0.34375748 -0.68674117 0.40413284
-0.31320512 -0.70342863 0.36319828
-0.3411344 -0.65721893 0.38408852
-0.33976051 -0.61720836 0.37358952
-0.34086621 -0.55540591 0.38203955
-0.34429315 -0.49600565 0.40822506
-0.39370459 -0.4306744 0.3967886
-0.39167562 -0.39082944 0.38291645
-0.39211756 -0.34045959 0.38593864
-0.39162374 -0.28941831 0.38256216
-0.3914569 -0.23864679 0.38142109
-0.39131126 -0.1879158 0.38042593
-0.39124763 -0.13724165 0.37999058
-0.39113861 -0.086577192 0.37924576
-0.39070016 -0.023255695 0.37624788
-0.39042461 0.039964914 0.37436342
-0.39052284 0.090546042 0.37503529
-0.39074501 0.14118575 0.37655449
-0.39077526 0.19179407 0.37676144
-0.39092505 0.24246728 0.37778568
-0.39130676 0.29331449 0.38039541
-0.3908965 0.34367123 0.37759018
-0.39425325 0.38428846 0.40054083
-0.35364884 0.40756142 0.38259983
-0.31573722 0.40770403 0.38375616
-0.34080589 0.44543397 0.38157749
-0.30358902 0.44634983 0.3883996
-0.26785359 0.4492577 0.40995789
-0.34014443 0.4953526 0.37652397
-0.30285215 0.49621153 0.38224077
-0.26742077 0.49977332 0.40594244
-0.35203037 0.55562019 0.38914967
-0.30505228 0.55402213 0.37947702
-0.26762393 0.55113548 0.4078269
-0.34989583 0.61082381 0.38588905
-0.30015033 0.61503845 0.38081598
-0.26737994 0.6017974 0.40556383
-0.34140626 0.67444003 0.38616562
-0.30250293 0.67300123 0.37925434
-0.26712611 0.65238005 0.40320778
-0.30370215 0.72580242 0.38901711
-0.26672792 0.71533704 0.39951277
-0.29251307 0.76691508 0.40219927
-0.25059041 0.77678305 0.40800762
-0.37339866 -0.64145696 0.43394279
-0.37178913 -0.60074681 0.42232561
-0.37351772 -0.55148315 0.43480158
-0.37343428 -0.4613122 0.43419933
-0.42597207 -0.39777276 0.44104385
-0.4262602 -0.34637886 0.44291496
-0.42614922 -0.29469737 0.44219446
-0.42604491 -0.24303867 0.44151688
-0.42591909 -0.19139645 0.44069958
-0.42585132 -0.13979308 0.44025946
-0.42554381 -0.088163473 0.43826151
-0.4254199 -0.036605045 0.43745804
-0.4251987 0.027795307 0.43602085
-0.42487219 0.092131622 0.43389988
-0.42468771 0.14356013 0.43270159
-0.42469761 0.19502901 0.43276596
-0.42513928 0.24669874 0.43563461
-0.42486724 0.29804683 0.43386745
-0.4248409 0.34951043 0.43369675
-0.41606632 0.40420192 0.46082973
-0.37121096 0.45037162 0.41815472
-0.24368066 0.4511207 0.42377329
-0.21116149 0.45801589 0.44292021
-0.37091589 0.501288 0.41602421
-0.24364558 0.50240052 0.42342186
-0.20721596 0.50594121 0.44701624
-0.40380764 0.5737316 0.4658637
-0.24396196 0.55423886 0.42658377
-0.20752072 0.55818933 0.45045614
-0.37113163 0.61678296 0.41758204
-0.24372435 0.60517085 0.42420912
-0.20743242 0.60973662 0.44944429
-0.37372574 0.6589216 0.43630314
-0.24339664 0.65585935 0.42093468
-0.20710772 0.66074485 0.44581699
-0.2431725 0.70666647 0.41869497
-0.20689282 0.71188545 0.44335699
-0.17006999 0.73002297 0.46761036
-0.2429381 0.74457926 0.41635275
-0.20653144 0.7625832 0.43927813
-0.16977113 0.76813203 0.4637289
-0.26867521 0.79608172 0.41758108
-0.20655644 0.81421185 0.43945599
-0.16923368 0.81838453 0.45674706
-0.38387004 -0.68232256 0.50951338
-0.38427895 -0.51165819 0.51246452
-0.43175587 -0.44138202 0.47861004
-0.46268383 -0.40584198 0.50857592
-0.46216139 -0.3528707 0.50534344
-0.46175548 -0.30006719 0.50283289
-0.46166179 -0.24748416 0.50225258
-0.4614816 -0.19488758 0.50113869
-0.4615573 -0.14239088 0.50160694
-0.46124771 -0.089819528 0.49969149
-0.46113262 -0.037312575 0.49897957
-0.46128497 0.028282339 0.49992228
-0.46046618 0.093777031 0.49485731
-0.45997682 0.14606316 0.49183035
-0.46005747 0.19846456 0.49232864
-0.46002343 0.25082979 0.49211836
-0.45984259 0.30310699 0.49099922
-0.46010461 0.35564697 0.49262094
-0.43783358 0.42424926 0.51808596
-0.4050009 0.45789999 0.47402287
-0.15805435 0.47197607 0.48164988
-0.12051015 0.47551742 0.5072093
-0.40444988 0.50942606 0.47025537
-0.1586073 0.51227963 0.489223
-0.12089983 0.51592731 0.51353645
-0.40415892 0.54813409 0.46826601
-0.15877622 0.56498468 0.49153614
-0.1210381 0.56900054 0.51578188
-0.40433156 0.60035157 0.46944666
-0.15855348 0.61680043 0.48849964
-0.12086117 0.62121552 0.51290846
-0.15826532 0.66834861 0.48456383
-0.10768125 0.67395592 0.51312304
-0.15387985 0.71616054 0.48402834
-0.10748693 0.72594273 0.50976133
-0.14519915 0.77270871 0.48389769
-0.1070982 0.77706361 0.50306606
-0.068394043 0.79362619 0.51786184
-0.1443913 0.82213527 0.47223663
-0.11087266 0.82276678 0.4928689
-0.06832654 0.81966329 0.51639986
-0.41274235 -0.65935671 0.52695131
-0.41247025 -0.60611111 0.52509117
-0.43984333 0.45234498 0.53114033
-0.086284421 0.51307768 0.52396536
-0.02990175 0.5080933 0.55008888
-0.081995018 0.55749714 0.52626467
-0.029855855 0.54783702 0.54878378
0.0094852671 0.55169737 0.57323885
-0.081994571 0.61040956 0.52635813
-0.029892452 0.60124862 0.54971266
0.0095273554 0.60500467 0.5714159
-0.068960272 0.65081292 0.53012037
-0.029889002 0.65448761 0.54960966
0.0095766187 0.65819782 0.56928253
-0.06882643 0.70318186 0.52722311
-0.037559293 0.71411365 0.54192495
0.0096402541 0.71119863 0.56652641
-0.037430681 0.76120251 0.53844738
0.0096509531 0.75124395 0.5660634
-0.0950168 0.84748024 0.52225351
-0.029732145 0.80005175 0.54568481
0 0 0 1 0 0 0 1 0 0 0 1 0 0 0 0 0 788 1 0 0
