ply
format ascii 1.0
comment PCL generated
element vertex 811
property float x
property float y
property float z
element camera 1
property float view_px
property float view_py
property float view_pz
property float x_axisx
property float x_axisy
property float x_axisz
property float y_axisx
property float y_axisy
property float y_axisz
property float z_axisx
property float z_axisy
property float z_axisz
property float focal
property float scalex
property float scaley
property float centerx
property float centery
property int viewportx
property int viewporty
property float k1
property float k2
end_header
0.28774515 -0.24725203 -0.35392475
0.28100127 -0.21148571 -0.35982037
0.31236923 -0.21382341 -0.35678291
0.27848423 -0.16356513 -0.36503363
0.31174257 -0.16368635 -0.36304426
0.27833197 -0.11393567 -0.36680412
0.31152669 -0.11399816 -0.36520147
0.28021613 -0.05847181 -0.36231661
0.31174433 -0.0562093 -0.3630271
0.28922874 -0.0015569348 -0.35591364
0.3124873 0.0017691068 -0.35560274
0.30105707 -0.35478786 -0.2997551
0.32581392 -0.36219224 -0.30723715
0.28478289 -0.31663206 -0.31540632
0.32394895 -0.31743696 -0.32530594
0.23687175 -0.26572466 -0.31443596
0.27821344 -0.27015722 -0.33992338
0.33233318 -0.26683354 -0.32641268
0.19871143 -0.20973089 -0.30474997
0.23117515 -0.21626021 -0.32803631
0.26322401 -0.23110011 -0.34905005
0.34093887 -0.21658428 -0.3241086
0.1942849 -0.16279301 -0.30846739
0.23069587 -0.165362 -0.33586264
0.34042364 -0.16579533 -0.32875824
0.19002698 -0.11617773 -0.30875063
0.23055133 -0.11503526 -0.3382802
0.34009308 -0.11529366 -0.33171463
0.19132006 -0.060496073 -0.30696201
0.23087063 -0.058829725 -0.33307552
0.26319841 -0.031423904 -0.3493824
0.33997574 -0.056576863 -0.33274126
0.19882202 -0.0059179887 -0.30235529
0.23157388 -0.00106645 -0.32180786
0.26784098 0.0061257035 -0.34316587
0.34022495 0.0021504126 -0.33046865
0.23718983 0.050888442 -0.30953932
0.28095689 0.052320339 -0.33559942
0.33177122 0.052469291 -0.33137703
0.24961543 0.087411396 -0.30529976
0.28445509 0.10144293 -0.31928253
0.33290178 0.1034635 -0.32069492
0.30014172 0.1380045 -0.30966377
0.32732671 0.15164611 -0.30901861
0.33014593 -0.41170791 -0.26513767
0.35691985 -0.41289327 -0.25813913
0.23557043 -0.34359607 -0.25769901
0.28157544 -0.37150687 -0.26970196
0.34358689 -0.38098225 -0.28469515
0.37453815 -0.35253736 -0.25587559
0.18349175 -0.29141745 -0.25899744
0.23223403 -0.31747973 -0.27554703
0.26788819 -0.33933368 -0.28846073
0.35276297 -0.32150051 -0.29413891
0.37324595 -0.31648755 -0.26636744
0.17719933 -0.2632665 -0.27028704
0.21631078 -0.27894461 -0.29326916
0.37223378 -0.27241629 -0.27458477
0.13839629 -0.20818995 -0.2594614
0.17755039 -0.22232841 -0.28510618
0.37091261 -0.21987879 -0.2853117
0.13138601 -0.16125691 -0.26141119
0.17198068 -0.17151752 -0.29119444
0.37020797 -0.16811594 -0.29103279
0.13131015 -0.11199737 -0.26715803
0.16519436 -0.11688698 -0.29031944
0.37014139 -0.11682915 -0.29157305
0.13286117 -0.05494066 -0.26848984
0.16858488 -0.051934861 -0.29089737
0.37041017 -0.05706241 -0.28939056
0.13714699 -0.0025982857 -0.26329136
0.17749584 0.0052664354 -0.28681898
0.37071717 0.0028189607 -0.28689814
0.13162532 0.029480778 -0.25040483
0.17772879 0.051300831 -0.27198601
0.21631834 0.062472105 -0.29312944
0.38191351 0.046245433 -0.2666564
0.18346322 0.089918837 -0.2589674
0.22972658 0.10584196 -0.28188944
0.26705727 0.12178338 -0.29925442
0.37699544 0.097783118 -0.27126169
0.23033249 0.1416968 -0.26164007
0.28314993 0.15926629 -0.28446007
0.34420496 0.16051361 -0.29448509
0.37262604 0.14957541 -0.27139997
0.27869123 0.1894891 -0.25968266
0.33271131 0.20207688 -0.27587318
0.37425685 0.19401716 -0.25815964
0.3310481 0.22884968 -0.25657225
0.35728878 0.23774403 -0.25494385
-0.64885503 -0.72384328 -0.20425177
-0.60579681 -0.72696108 -0.20563507
-0.62825364 -0.70345008 -0.21327209
0.27728468 -0.41019619 -0.21147203
0.32131374 -0.43207204 -0.22296476
0.18560028 -0.35100681 -0.204216
0.22012171 -0.36321807 -0.22246981
0.25592786 -0.38498092 -0.2141881
0.38915843 -0.3645947 -0.23239326
0.1264134 -0.30371326 -0.20393705
0.16713083 -0.3128168 -0.22629738
0.20156521 -0.32818148 -0.24296379
0.39440426 -0.31151441 -0.23670244
0.079040363 -0.25377554 -0.20002794
0.11437399 -0.26045457 -0.22241735
0.1492372 -0.27600408 -0.24118853
0.39469174 -0.26794517 -0.23450565
0.070214435 -0.20871028 -0.20785999
0.10556207 -0.20667304 -0.23437643
0.043455213 -0.15597214 -0.19953203
0.070343494 -0.1549181 -0.21912766
0.096827216 -0.15394267 -0.23718739
0.039115433 -0.097988635 -0.20442581
0.070417471 -0.10179034 -0.22550535
0.096827216 -0.10124785 -0.24316978
0.39317653 -0.083720975 -0.24608374
0.42502606 -0.084640458 -0.20626926
0.034626197 -0.049188163 -0.20279789
0.070439078 -0.049002588 -0.22717047
0.096827216 -0.048862085 -0.24457169
0.39338237 -0.048860587 -0.24451065
0.42256394 -0.052679874 -0.21111584
0.043437503 -0.0047174767 -0.19876528
0.070327573 -0.0049325228 -0.21728897
0.10264723 -0.0022488832 -0.23640919
0.39317212 -0.0052804686 -0.24611759
0.42687607 -0.010134652 -0.20571852
0.071984515 0.035962567 -0.20731974
0.1093274 0.041292906 -0.23075628
0.41587752 0.039483413 -0.20806026
0.079032138 0.075346597 -0.19895983
0.11665446 0.090050749 -0.21590614
0.15628389 0.094537616 -0.23849344
0.39327005 0.099365562 -0.24536943
0.41620699 0.09277638 -0.20568275
0.13231987 0.12829278 -0.2052927
0.16954015 0.14280076 -0.21937466
0.2076457 0.15524639 -0.23736238
0.39422089 0.14353539 -0.23810291
0.41668877 0.1462955 -0.20220613
0.18578613 0.18207751 -0.19938755
0.22620177 0.19212306 -0.21857929
0.26791731 0.20992692 -0.23052931
0.39597273 0.19736129 -0.22471714
0.28571722 0.24014133 -0.21014452
0.32553759 0.25306359 -0.22506857
0.38382682 0.25303546 -0.22179413
0.37218815 0.28835028 -0.20283604
-0.64456224 -0.74294811 -0.18046474
-0.59123152 -0.72846502 -0.17379665
-0.57394898 -0.7475127 -0.15557003
0.27783135 -0.44773361 -0.15929508
0.32998925 -0.4620164 -0.17995739
0.36791804 -0.47424808 -0.16289186
0.16956228 -0.39509913 -0.14846754
0.22281781 -0.4095796 -0.17137671
0.27594665 -0.43453425 -0.18309832
0.12396464 -0.35738161 -0.15821171
0.16871247 -0.36998788 -0.17559004
0.21329427 -0.38984111 -0.18261957
0.42168716 -0.36539066 -0.16613293
0.072682045 -0.30897948 -0.15927553
0.10879175 -0.32525969 -0.17391777
0.15037471 -0.33485958 -0.19193363
0.41781563 -0.33457956 -0.1940732
0.030396514 -0.26078513 -0.15852833
0.065437168 -0.26906425 -0.18107796
-0.012202799 -0.2040675 -0.15003872
0.024822392 -0.21128795 -0.17446804
-0.02107124 -0.15838574 -0.15485573
0.016071506 -0.15702341 -0.18009901
-0.027644955 -0.10154858 -0.15968561
0.01450336 -0.10656279 -0.18642712
0.45490968 -0.09410762 -0.18479395
0.48243356 -0.091651559 -0.16281033
-0.029878281 -0.049506649 -0.16032171
0.0073256716 -0.049323745 -0.18528938
0.45445293 -0.049292251 -0.18776083
0.48084021 -0.05403287 -0.16331339
-0.02109988 -0.0042056683 -0.15422773
0.015977614 -0.0044663269 -0.17750835
0.45563242 -0.0045086555 -0.18009949
0.4768557 -0.0042703785 -0.15979147
-0.012215115 0.041285828 -0.14977217
0.024797752 0.040556535 -0.17354393
0.061169926 0.057719462 -0.19459915
0.44674191 0.040366426 -0.17980862
0.4783127 0.032166235 -0.15077829
0.029556513 0.092743821 -0.15902328
0.068117246 0.097734898 -0.18084145
0.096827216 0.1113743 -0.19184971
0.44661978 0.091175847 -0.16860485
0.46118444 0.11431898 -0.1440382
0.042195503 0.13247123 -0.14498472
0.072691776 0.13748109 -0.15994263
0.1125151 0.15066861 -0.17510462
0.1504555 0.16521299 -0.18843412
0.44031885 0.14937286 -0.16214037
0.12403608 0.18648109 -0.15171623
0.16897242 0.20012143 -0.16731834
0.2102865 0.2134546 -0.18327093
0.43016136 0.2027836 -0.17047691
0.23220065 0.23939496 -0.16524649
0.27237806 0.25666162 -0.17218637
0.31159568 0.27283162 -0.18567085
0.42093694 0.25670722 -0.17154741
0.33963612 0.29238012 -0.17375374
0.38942707 0.30629012 -0.17108488
0.42374921 0.30460009 -0.15125132
-0.57958847 -0.72612125 -0.13577032
-0.56064892 -0.74421525 -0.11588383
0.2456409 -0.45926356 -0.094173908
0.28059483 -0.46357983 -0.1212759
0.35222968 -0.48749983 -0.14076853
0.39081201 -0.49077529 -0.1237483
0.13365749 -0.39972678 -0.11841154
0.17044137 -0.41793635 -0.11998796
0.2253091 -0.43533146 -0.12564754
0.041195896 -0.34666786 -0.10170078
0.066019669 -0.35790026 -0.11016989
0.11052615 -0.37534058 -0.12798309
0.44473276 -0.35183072 -0.13196278
0.46884248 -0.35693467 -0.094297409
-0.03350883 -0.29209593 -0.091872215
0.026741438 -0.31526938 -0.11649513
0.069411427 -0.3329553 -0.13663626
0.42978331 -0.32738501 -0.10770369
-0.029887058 -0.26628757 -0.11120939
0.011363 -0.28167644 -0.13201189
-0.077507712 -0.21317567 -0.10162687
-0.036818229 -0.21743314 -0.12849379
-0.085640393 -0.15842639 -0.11102104
-0.049438231 -0.15942657 -0.13555288
-0.12609926 -0.10575395 -0.09735775
-0.087148599 -0.1050063 -0.1214838
-0.048990928 -0.12256023 -0.14281607
0.49846625 -0.10444927 -0.1390419
0.52368861 -0.09640234 -0.099698067
-0.12589374 -0.049966935 -0.099582195
-0.086975418 -0.049779117 -0.12376547
0.49840283 -0.04054556 -0.13941669
0.52396876 -0.059271384 -0.098115921
-0.12656996 -0.012807475 -0.092262268
-0.087790273 -0.0037337784 -0.11316442
-0.049347706 -0.0040068198 -0.1370225
0.49962437 -0.0039502271 -0.13220406
-0.082950242 0.03995268 -0.10704041
-0.040496506 0.041826427 -0.13252258
0.49652636 0.046669781 -0.1235919
-0.070309363 0.089305088 -0.098198891
-0.032250427 0.097639903 -0.11646652
0.005472295 0.10562982 -0.13713741
0.48866367 0.093041226 -0.11550283
-0.023815259 0.13558662 -0.10001802
0.02308102 0.15293902 -0.11623812
0.066327654 0.16376941 -0.13371134
0.46437249 0.15238707 -0.12333107
0.072137997 0.19696824 -0.1053381
0.11056683 0.20286596 -0.12368107
0.16099504 0.22537175 -0.127841
0.46632615 0.19951987 -0.11064148
0.13390362 0.22811088 -0.10242367
0.1892488 0.24584067 -0.10942507
0.22506818 0.25250989 -0.13105869
0.44366595 0.25153622 -0.139256
0.46819073 0.24712253 -0.098530769
0.28046042 0.28075275 -0.12514257
0.33635452 0.31251615 -0.11734915
0.44685024 0.30022147 -0.11748552
0.38681233 0.35363108 -0.11277914
0.43095115 0.35794929 -0.1163373
0.3890647 0.40926996 -0.100142
0.42018574 0.41205707 -0.1103487
0.3942956 0.46126524 -0.095464706
0.4187369 0.45761773 -0.098144054
0.41460118 -0.49873865 -0.082368851
0.22808459 -0.46269825 -0.074774742
0.40022561 -0.48652169 -0.047319412
0.41967824 -0.48721364 -0.04357338
0.077893153 -0.41010523 -0.051001072
0.11558546 -0.41631529 -0.071862698
0.17183632 -0.4439739 -0.074615955
-0.01706019 -0.35410488 -0.044873238
0.025256701 -0.36676681 -0.06366539
0.068684749 -0.38746613 -0.076332569
0.45710492 -0.39170173 -0.047373295
0.48727679 -0.37156731 -0.056186199
-0.079919867 -0.30286467 -0.050723076
-0.034759127 -0.31650048 -0.069213867
0.0034571216 -0.33020815 -0.084781647
0.44565043 -0.31419358 -0.061282158
0.48395309 -0.33355564 -0.057603359
-0.1268369 -0.25506487 -0.048595905
-0.081310742 -0.26579958 -0.075136185
0.42003137 -0.25956818 -0.040875435
-0.16888964 -0.20224191 -0.045062542
-0.13893843 -0.21060243 -0.060727596
-0.10435934 -0.22326525 -0.079565048
-0.17562509 -0.16008557 -0.052956581
-0.13747713 -0.16264917 -0.075893879
-0.10807923 -0.18044686 -0.090777874
-0.18637404 -0.10694582 -0.05858326
-0.14593014 -0.10613634 -0.084830761
-0.18614981 -0.05566635 -0.060464859
-0.14582437 -0.050073057 -0.085886955
0.525298 -0.031423904 -0.090608597
-0.18386376 -0.012535179 -0.056923866
-0.14005616 -0.00026086532 -0.081401825
0.52692068 -0.0033700727 -0.08144331
-0.17603353 0.040589169 -0.04927063
-0.13783807 0.04369396 -0.072139263
-0.10832501 0.052516937 -0.087874889
0.53153342 0.034778088 -0.055390835
-0.13347793 0.10109422 -0.051798344
-0.093672596 0.099751189 -0.07674551
0.50961447 0.099917337 -0.073215008
0.51488239 0.12059616 -0.042109966
-0.11219002 0.13959017 -0.04223156
-0.079481371 0.14489269 -0.056811333
-0.034379058 0.15598294 -0.076280117
0.0035039783 0.17388716 -0.085999012
0.48945808 0.15558013 -0.081834316
-0.035677157 0.18307887 -0.051953793
0.025448553 0.20143017 -0.07157135
0.059411108 0.21178058 -0.080359936
0.49166465 0.20360762 -0.068184853
0.077905893 0.23347482 -0.052656174
0.10615823 0.2306942 -0.078453541
0.16279288 0.2514967 -0.060442924
0.22755453 0.26738137 -0.084611416
0.49390927 0.25223526 -0.054299355
0.30326226 0.30637866 -0.072725773
0.32175207 0.32470718 -0.075724602
0.47160664 0.30592409 -0.07634449
0.33424908 0.36057213 -0.062426567
0.35843003 0.36099815 -0.083236217
0.47370464 0.35488263 -0.062716961
0.33107165 0.40687633 -0.056343555
0.36772773 0.41697973 -0.08346653
0.45195058 0.40782052 -0.082614422
0.47580349 0.39493454 -0.049084663
0.33311817 0.46012661 -0.054750919
0.36657751 0.45940787 -0.07698822
0.447768 0.45728201 -0.068659306
0.33377537 0.50887442 -0.047943592
0.37859333 0.51349533 -0.069972038
0.42358172 0.50941128 -0.071356773
0.15490192 -0.45730522 0.0041012764
0.39357033 -0.47173911 -0.023711681
0.43608019 -0.47947124 -0.016021729
0.4640063 -0.47586495 -0.00018882751
0.019658342 -0.4045178 -0.0039253235
0.058503877 -0.41465756 -0.02143383
0.096827216 -0.43515855 -0.013146877
0.48691177 -0.42539686 -0.0020909309
0.52231628 -0.408593 0.0017857552
-0.077763326 -0.36120605 0.0093894005
-0.037774466 -0.36791512 -0.012956619
0.0016101599 -0.37420523 -0.036796093
0.49761927 -0.39404538 -0.031349659
0.51767749 -0.3662135 -0.025605202
-0.13045123 -0.30873945 -0.0091147423
-0.088845797 -0.33234903 -0.015639782
-0.055759497 -0.33659711 -0.03290844
0.45903689 -0.29831514 -0.034164429
0.48879007 -0.30864292 -0.026813984
0.5275923 -0.31594926 -0.012806892
-0.1858075 -0.25624329 -0.0075974464
-0.14564803 -0.27389723 -0.024023533
0.43571532 -0.25573796 -0.030514717
0.48244461 -0.26274526 -0.0061511993
0.53055829 -0.26761979 0.0046520233
-0.23865244 -0.21206424 0.0035223961
-0.19434324 -0.21529372 -0.022601604
0.4325496 -0.21363634 -0.018761158
0.47121412 -0.21860799 0.004904747
-0.27115902 -0.15732604 0.0053296089
-0.23993763 -0.1661509 -0.010975361
-0.20355767 -0.16970442 -0.033157349
0.43454182 -0.16647445 -0.0039877892
-0.28001562 -0.10873822 -0.00033855438
-0.23785231 -0.10793337 -0.026455879
0.42473632 -0.11822214 -0.0049228668
-0.27997699 -0.050738409 -0.00062465668
-0.2355777 -0.05435583 -0.029123306
-0.27066591 -0.0024028905 0.0019583702
-0.24045333 -0.0084199179 -0.021323204
-0.2076059 0.0066301674 -0.038918972
-0.27177057 0.036482677 0.009510994
-0.2403309 0.045663841 -0.008055687
-0.20396721 0.049755715 -0.029766083
0.54000807 0.064919747 -0.0075259209
-0.23896053 0.091268882 0.0058398247
-0.19131029 0.10306399 -0.015845776
-0.15140954 0.12133728 -0.030077457
0.54185605 0.10403068 0.0029115677
-0.18388954 0.14279702 0.0040574074
-0.13747907 0.15293857 -0.016162395
-0.093546115 0.15894942 -0.037585735
0.52491689 0.14741057 -0.02103138
-0.12567952 0.18138161 0.0025053024
-0.085752957 0.18960285 -0.01433897
-0.041362546 0.21037991 -0.018070221
0.0017012954 0.21590365 -0.039163589
0.51811731 0.19839434 -0.023008347
0.029345609 0.23836207 -0.0073041916
0.058736827 0.23520878 -0.03656435
0.52176535 0.25835156 -0.0014667511
0.49693033 0.30200988 -0.035611153
0.3084673 0.37261629 -0.011257172
0.49942756 0.35202828 -0.020164013
0.25216603 0.43459246 0.011780262
0.28175908 0.41551915 -0.0078492165
0.30653974 0.40704939 -0.034020901
0.49450845 0.41100949 -0.011316776
0.25161481 0.46195379 0.0028295517
0.28094769 0.46345392 -0.018833637
0.3063471 0.46381465 -0.036295891
0.45875767 0.48289818 -0.036074162
0.48140973 0.45895267 -0.012670994
0.25162199 0.51037383 0.0029459
0.27758852 0.5109219 -0.012306213
0.30684653 0.51272392 -0.030397415
0.46087068 0.50506109 -0.021626472
0.28031254 0.54806936 -0.0013289452
0.3261888 0.54210168 -0.027169228
0.42762288 -0.45952225 0.017191887
0.49655703 -0.46036997 0.022197723
-0.030451573 -0.403346 0.032239437
0.018244669 -0.42433664 0.041435242
0.077254832 -0.44244388 0.031919003
0.43387821 -0.43514186 0.035178185
0.46687448 -0.4404237 0.019421577
0.5384599 -0.42390406 0.038995266
-0.13922128 -0.35270265 0.044561863
-0.08479812 -0.37986338 0.03930521
0.54621655 -0.37337452 0.02753973
-0.21842507 -0.30726948 0.048922062
-0.18749726 -0.3157593 0.036353588
-0.13688955 -0.33327422 0.019245625
0.54370224 -0.34229365 0.013338566
0.57130033 -0.3081997 0.057552814
-0.28478125 -0.25513047 0.053395748
-0.24214968 -0.26958352 0.036585808
-0.20459217 -0.27450353 0.015552521
0.54415959 -0.24536538 0.015921593
0.56898695 -0.26754355 0.045031548
-0.32853806 -0.2095073 0.059524059
-0.29555944 -0.20798482 0.037730694
-0.25365514 -0.22613618 0.018780231
0.49832341 -0.20290703 0.021193981
0.53620172 -0.20713757 0.026109219
0.56784034 -0.20804486 0.038825512
-0.34722784 -0.15971121 0.05299902
-0.2972385 -0.16405939 0.023336887
0.48476931 -0.16255178 0.026959896
0.53798217 -0.15886877 0.036435127
0.56855828 -0.15918146 0.042712212
-0.37784696 -0.11055037 0.058641434
-0.34479585 -0.10994799 0.038954735
-0.31214306 -0.10934049 0.019239426
0.44658992 -0.11886144 0.013587475
0.48347104 -0.12441365 0.032263756
0.53737533 -0.1293288 0.033034801
0.56773251 -0.10993239 0.038241863
-0.37815899 -0.051208369 0.060330391
-0.34489825 -0.051047973 0.039544582
-0.31219774 -0.050896388 0.019578457
0.56705832 -0.051017664 0.034593105
-0.37843898 -0.011620881 0.061846256
-0.34573457 -0.0019151643 0.044374466
-0.30252442 -0.0021988619 0.019843102
0.56721246 -0.0020242911 0.035427094
-0.34541097 0.043608695 0.053941727
-0.2996875 0.049557872 0.028296947
0.56812483 0.047141075 0.040365696
-0.32877174 0.097231179 0.060811043
-0.2916398 0.094128907 0.037733555
-0.25374979 0.10491158 0.019464016
0.56936687 0.096564591 0.047088146
-0.28502432 0.1331787 0.055053711
-0.23660657 0.14513706 0.037158012
-0.18583196 0.16349378 0.021446228
0.54381776 0.16291974 0.013991356
0.57158369 0.13673502 0.059087276
-0.2197288 0.18620817 0.059505939
-0.18514115 0.19155335 0.044868469
-0.13830009 0.20703621 0.034732819
-0.08863347 0.22232944 0.02504921
0.54619324 0.20306316 0.027408123
-0.061262704 0.24523345 0.056452751
-0.030734397 0.24326971 0.038231373
-0.00048460811 0.24104929 0.017627239
0.55023283 0.25443885 0.050223351
0.52491254 0.29936904 0.01711607
0.23518118 0.42316779 0.056921959
0.26354483 0.40980121 0.036943436
0.187558 0.46565774 0.051985741
0.22372881 0.45673081 0.026117325
0.17838323 0.51458305 0.04873848
0.22353905 0.51452762 0.022233963
0.48621908 0.49425524 0.018567085
0.18575323 0.55146599 0.05610466
0.22425824 0.55679941 0.036474228
0.25249285 0.55232215 0.017086983
-0.072908707 -0.41073656 0.082769394
-0.023676798 -0.43310389 0.098381042
-0.002308026 -0.42796493 0.065001488
-0.23516291 -0.35332501 0.10290289
-0.18287465 -0.36111763 0.08477211
-0.1363515 -0.38457522 0.085765362
0.57594174 -0.35083377 0.082675934
-0.32587931 -0.29309931 0.10421085
-0.29519394 -0.31293473 0.10101271
-0.24618414 -0.32256877 0.079645634
0.57528734 -0.33046159 0.079133511
-0.3881087 -0.25368625 0.11418486
-0.34435013 -0.26202974 0.094000816
-0.29106498 -0.28007907 0.073451996
0.60154128 -0.25349805 0.11196327
-0.42808765 -0.19293626 0.11202478
-0.39282069 -0.20804027 0.096148968
-0.35308811 -0.21459667 0.075397491
0.59809661 -0.21191126 0.094064236
-0.43328774 -0.15891394 0.10438967
-0.39180478 -0.16106619 0.08007431
0.59590346 -0.16118231 0.082668304
-0.43481696 -0.11167775 0.09538126
-0.40042004 -0.11099915 0.07316494
0.59592319 -0.11128068 0.082770348
-0.43745941 -0.055504758 0.09849453
-0.40056914 -0.051318463 0.0739398
0.59606719 -0.051394846 0.083518982
-0.43398321 -0.0072628278 0.10113478
-0.3940005 0.0017344207 0.074162483
0.59662896 -0.0014309939 0.086438656
-0.4272334 0.039133802 0.10775661
-0.39277712 0.048541524 0.085206985
-0.36020613 0.067930922 0.070712566
0.5978806 0.048763357 0.092942238
-0.39628726 0.099410474 0.10383129
-0.3548319 0.10141385 0.077774048
0.60052723 0.099556446 0.10669422
-0.3878482 0.13013437 0.11277533
-0.34137008 0.14330445 0.093445778
-0.29554376 0.16145368 0.08107233
-0.2602562 0.16695562 0.066419601
0.57376176 0.16729873 0.070876122
-0.29270846 0.19694529 0.10672951
-0.24737537 0.2007176 0.088750839
-0.20093867 0.2067885 0.06812048
-0.1616326 0.22703591 0.072077751
0.57527089 0.19783561 0.079044819
-0.23603624 0.23081565 0.10984898
-0.18425301 0.23966545 0.097622395
-0.13341883 0.24885231 0.090032101
-0.09206862 0.24692762 0.072172642
0.19761708 0.43220952 0.10798979
0.22711852 0.41950625 0.0929389
0.27705261 0.39565605 0.090178967
0.12486737 0.47021848 0.096192837
0.16158524 0.46168146 0.077775955
0.076641865 0.51357073 0.11154699
0.11427729 0.51140183 0.089146614
0.11682037 0.55011958 0.09438324
0.16332626 0.56047601 0.081049919
-0.18918499 -0.39904144 0.1424427
-0.13908339 -0.42111817 0.15374756
-0.10562677 -0.41608658 0.11934662
-0.28629965 -0.36346632 0.14356852
-0.23934835 -0.37776062 0.13589048
-0.2064473 -0.37513515 0.11582661
-0.39083436 -0.30598712 0.15088797
-0.34319463 -0.3207649 0.13565159
-0.30961516 -0.3362557 0.12931252
0.60524458 -0.29580107 0.13120651
-0.44275296 -0.26365823 0.15111971
-0.40530932 -0.26892909 0.13377285
0.60350192 -0.27462792 0.1221509
-0.49114788 -0.20918143 0.1536355
-0.44400853 -0.21850258 0.13054085
-0.40864503 -0.23361292 0.1159029
-0.50755483 -0.16459505 0.15067959
-0.46455795 -0.16668995 0.1251812
-0.54143071 -0.11378746 0.16397762
-0.50572979 -0.11313275 0.14263678
-0.46999991 -0.11240846 0.11914253
0.63066161 -0.10329624 0.15658903
-0.54083472 -0.051992524 0.16147995
-0.50796133 -0.055922367 0.14347506
-0.47045809 -0.051673792 0.12126827
0.63070863 -0.06222558 0.15682411
-0.54139853 -0.00053687207 0.1638422
-0.50400329 -0.0068820454 0.14404249
-0.47130603 -0.00098335184 0.12520218
-0.54205048 0.030402884 0.16657448
-0.50384438 0.05355449 0.15363979
-0.45460182 0.049763784 0.1260457
-0.48513448 0.09866327 0.15752888
-0.4429267 0.10097852 0.13515425
-0.44289625 0.1393784 0.15180969
-0.39968371 0.15904415 0.1398778
-0.34825897 0.17088774 0.11750078
0.60285848 0.1305061 0.11880827
-0.3826426 0.20147474 0.15870857
-0.34139097 0.20299236 0.13696623
-0.30928588 0.21224383 0.1271739
-0.33493194 0.23585543 0.16020918
-0.28698435 0.24215344 0.14126205
-0.24040911 0.26496917 0.1443243
-0.19344386 0.26907721 0.1356287
-0.13705182 0.27363634 0.13129234
-0.086362354 0.2739116 0.13367462
-0.035753109 0.27452058 0.13894892
0.018714271 0.47403932 0.15864992
0.066241004 0.46780705 0.13658428
0.11727574 0.44808567 0.14039373
0.16802002 0.4365449 0.1324749
0.017840609 0.51517594 0.14744616
0.056262564 0.51618934 0.12414408
0.024881013 0.55456585 0.1602788
0.06629771 0.55823624 0.13073969
0.13732821 0.57609105 0.12000847
-0.28037733 -0.40862826 0.2116313
-0.2459369 -0.40530735 0.18766212
-0.17362392 -0.42669883 0.19190264
-0.43659782 -0.34518963 0.20668221
-0.39703789 -0.35838503 0.20017767
-0.34427661 -0.37683189 0.19204378
-0.29559639 -0.38253969 0.17240906
-0.49613285 -0.31048399 0.20800209
-0.45390981 -0.3120127 0.18900108
-0.39953443 -0.33129114 0.17594051
-0.55162913 -0.26153621 0.20659494
-0.49397057 -0.26983315 0.18215704
-0.46038818 -0.27907526 0.17029667
-0.60141635 -0.2059823 0.21046543
-0.55764288 -0.2080339 0.18828201
-0.5167504 -0.23135515 0.1760602
-0.6379171 -0.14688821 0.21642303
-0.60226619 -0.15664975 0.20019341
-0.55497181 -0.16592561 0.17726803
-0.63700175 -0.10480855 0.21302557
-0.60051399 -0.10427988 0.19340038
-0.56518257 -0.11417918 0.17681646
-0.64512688 -0.048185751 0.21200275
-0.5995602 -0.052214928 0.18970633
-0.56420875 -0.052087054 0.17286396
-0.64768678 3.6399812e-05 0.21370554
-0.59989357 -0.00022394955 0.19099998
-0.56459057 -0.00041510537 0.17441368
-0.63713545 0.04197783 0.21352243
-0.60127592 0.041516386 0.19635677
-0.55488449 0.051329918 0.17695713
-0.6383006 0.073594384 0.21784687
-0.60418957 0.094153494 0.20767117
-0.56028277 0.097520947 0.19065237
-0.51664633 0.10643768 0.17560959
-0.59592742 0.13651669 0.21640635
-0.55094564 0.14619717 0.20366144
-0.49361783 0.1446889 0.18057537
-0.45439076 0.16840316 0.1745429
-0.54315919 0.17840268 0.21512127
-0.49892569 0.18808408 0.20478106
-0.44937235 0.21041001 0.19739246
-0.41002649 0.20649841 0.17687178
-0.43769515 0.24106708 0.212286
-0.39336845 0.25019941 0.19898701
-0.35204974 0.25173876 0.18065643
-0.29559448 0.27149966 0.17236233
-0.0063146576 0.27800167 0.16909695
-0.38650629 0.2837933 0.21925592
-0.33783489 0.2903977 0.20385933
-0.2897577 0.31339297 0.20381784
-0.24037918 0.31415403 0.19343042
-0.18943667 0.30885178 0.18429136
-0.14242557 0.31194139 0.1921196
-0.09058293 0.30187503 0.19544363
-0.22842425 0.34628159 0.21524858
-0.19719714 0.34660739 0.21759796
-0.11314555 0.47251058 0.2170186
-0.081074886 0.46036527 0.20799923
-0.031455807 0.46082559 0.1915741
0.013814509 0.45296824 0.18630552
0.065694273 0.44586664 0.1851263
0.096827216 0.44311911 0.16960859
-0.078800477 0.50798798 0.20521498
-0.040044792 0.51181084 0.18283415
-0.028027922 0.55123341 0.19258547
-0.0064427704 0.54688787 0.17242527
-0.45945191 -0.39514476 0.26872969
-0.37307408 -0.41588867 0.26402712
-0.33759654 -0.41284379 0.24205303
-0.30302647 -0.41023263 0.22320843
-0.22231656 -0.43567267 0.25325775
-0.19764233 -0.43106115 0.22172928
-0.54258907 -0.35113221 0.25814581
-0.50326073 -0.36340985 0.2536068
-0.447604 -0.36979613 0.23614502
-0.40025255 -0.39099824 0.23704433
-0.63026386 -0.30942944 0.2673893
-0.59132844 -0.31521577 0.25413227
-0.54789549 -0.31681758 0.23526812
-0.51415968 -0.32638317 0.22627258
-0.64494425 -0.24335866 0.2425046
-0.60700715 -0.2670719 0.23612595
-0.64202058 -0.21086916 0.23165417
-0.61931473 -0.22099102 0.22555637
-0.65015417 -0.15766923 0.222785
-0.66043556 -0.10505023 0.22192907
-0.65985107 -0.073461428 0.21982002
-0.66003042 0.042162225 0.22046757
-0.64685357 0.094866037 0.22354841
-0.64272988 0.14819708 0.23428583
-0.61256665 0.15119785 0.22658873
-0.64592731 0.18079165 0.24615383
-0.60356712 0.20209593 0.24636841
-0.54794323 0.21170878 0.23549414
-0.50312459 0.22118157 0.22392845
-0.58750236 0.24658489 0.26742411
-0.55052382 0.25314337 0.26169968
-0.50184214 0.2573058 0.24707031
-0.45129502 0.25668707 0.22791958
-0.49051565 0.28893444 0.26377869
-0.44554871 0.298273 0.25229931
-0.40394843 0.31239304 0.24584246
-0.35192916 0.3223016 0.23258257
-0.11380147 0.32664493 0.22553921
-0.093768053 0.3285892 0.24039793
-0.051044174 0.30656746 0.2335434
-0.37309152 0.35305494 0.26413012
-0.33583495 0.35870352 0.25353909
-0.29509655 0.36051562 0.24129152
-0.24582437 0.36394951 0.22852755
-0.18408945 0.36186734 0.22629738
-0.13614669 0.36049208 0.24127007
-0.085072659 0.3430796 0.26938343
-0.27696308 0.40646973 0.2641511
-0.23879784 0.40189901 0.24862862
-0.18667686 0.40865242 0.2377615
-0.13589275 0.41285837 0.23786974
-0.08548189 0.41786996 0.24297237
-0.034462817 0.42583132 0.23981667
0.022801362 0.43394464 0.23726273
-0.22317865 0.43791813 0.26072454
-0.19034773 0.45784438 0.25269365
-0.13952959 0.46232074 0.23032761
-0.13197589 0.50655419 0.24068069
-0.094820537 0.54351926 0.25558949
-0.57887948 -0.40197256 0.32090473
-0.54295105 -0.4000971 0.30657148
-0.49379271 -0.40603378 0.29644251
-0.45618773 -0.42177466 0.30650568
-0.40883577 -0.41872412 0.28449059
-0.27117997 -0.44272593 0.30148268
-0.24635601 -0.438954 0.27569294
-0.60073704 -0.36225873 0.29196978
-0.56264609 -0.36835751 0.28291702
-0.61036545 -0.33144516 0.27324104
-0.60459781 0.26204872 0.27872896
-0.56791711 0.26878321 0.27496719
-0.59593892 0.30416542 0.30167294
-0.55507058 0.30533412 0.29344702
-0.50454628 0.30506217 0.27940083
-0.54503268 0.3384532 0.3157711
-0.49582022 0.34443721 0.30602169
-0.44730729 0.3530162 0.29447222
-0.39806741 0.36666647 0.28455305
-0.35329369 0.37582847 0.27379322
-0.083320297 0.37220159 0.29851532
-0.38085234 0.40283024 0.30995607
-0.34259823 0.40804416 0.29677773
-0.30446258 0.4128817 0.28198242
-0.075132243 0.3984749 0.28166628
-0.055152185 0.402803 0.30977821
-0.27897286 0.45282605 0.30581713
-0.23990369 0.45576638 0.28136873
-0.20395979 0.48421097 0.28034782
-0.22873053 0.48946869 0.30880499
-0.1837332 0.50811493 0.29292059
-0.48029929 -0.45317009 0.37288952
-0.44625866 -0.45258683 0.3689003
-0.40140811 -0.45215109 0.36592245
-0.34374338 -0.44992033 0.35066986
-0.55094033 -0.42666212 0.34177828
-0.5150578 -0.42477855 0.32818508
-0.5818125 0.35171673 0.33319569
-0.5501045 0.36330739 0.33812237
-0.51496118 0.36186859 0.32773638
-0.44870597 0.38318136 0.32406569
-0.55621421 0.38917542 0.36504745
-0.49919575 0.39541987 0.35720015
-0.45284468 0.40102372 0.34566832
-0.40223503 0.42365992 0.349545
-0.36237085 0.42777392 0.32994318
-0.058456339 0.39006004 0.37109613
-0.33130524 0.4515523 0.34123087
-0.23316574 0.51856422 0.34721518
-0.21068311 0.51770139 0.34273291
-0.21261668 0.54325759 0.36067343
-0.53884071 -0.45519775 0.38675213
-0.50361389 -0.45395666 0.37826633
-0.5400219 0.4154785 0.39210796
-0.50406593 0.41368216 0.38044071
-0.49022603 0.44273409 0.42248678
-0.45200819 0.43897623 0.39923763
-0.37182769 0.45954806 0.38844252
-0.30618489 0.48353618 0.39788151
-0.193795 0.54982078 0.39346409
-0.51439291 0.4439694 0.43012619
-0.40345663 0.46886003 0.44342709
0 0 0 1 0 0 0 1 0 0 0 1 0 0 0 0 0 811 1 0 0
