ply
format ascii 1.0
comment PCL generated
element vertex 696
property float x
property float y
property float z
element camera 1
property float view_px
property float view_py
property float view_pz
property float x_axisx
property float x_axisy
property float x_axisz
property float y_axisx
property float y_axisy
property float y_axisz
property float z_axisx
property float z_axisy
property float z_axisz
property float focal
property float scalex
property float scaley
property float centerx
property float centery
property int viewportx
property int viewporty
property float k1
property float k2
end_header
-0.33623379 -0.011723405 -0.4934929
-0.33623379 0.0079182182 -0.49349308
-0.35799366 -0.070937082 -0.48098516
-0.35732222 -0.05113814 -0.48495001
-0.33871213 -0.051242672 -0.47816217
-0.35720953 -0.0314257 -0.48561525
-0.33691299 -0.031397443 -0.48929155
-0.35714933 -0.011723405 -0.4859708
-0.35714933 0.0079761762 -0.48597097
-0.35720757 0.027680986 -0.48562694
-0.33692035 0.027625233 -0.48924565
-0.35732222 0.047398727 -0.48495001
-0.33871958 0.047556624 -0.47811592
-0.35800731 0.067230716 -0.48090452
-0.40177622 -0.091392905 -0.45767426
-0.37958345 -0.0909971 -0.47052604
-0.40147978 -0.071438387 -0.45927894
-0.37934729 -0.071147785 -0.47185981
-0.3417061 -0.07142999 -0.45964187
-0.4012031 -0.05151042 -0.46077639
-0.37913597 -0.051321402 -0.47305328
-0.40096775 -0.031607032 -0.46205032
-0.37897199 -0.031515162 -0.47397947
-0.32056454 -0.03156371 -0.46769148
-0.40081459 -0.011723379 -0.46287948
-0.37888184 -0.01172343 -0.47448844
-0.31992993 -0.01172343 -0.47181344
-0.40081242 0.0081538577 -0.4628911
-0.37888184 0.0080645476 -0.47448862
-0.31993172 0.0080852453 -0.471802
-0.40096775 0.02804403 -0.46205032
-0.37897199 0.027860362 -0.47397947
-0.32056993 0.027957663 -0.46765667
-0.4012031 0.047957007 -0.46077639
-0.37913597 0.047673505 -0.47305328
-0.40148196 0.067896992 -0.45926732
-0.37934729 0.067509219 -0.47185981
-0.34171554 0.067887351 -0.45958346
-0.37958547 0.087369159 -0.47051424
-0.42428973 -0.091808185 -0.4441846
-0.36307588 -0.091599047 -0.45097643
-0.42395261 -0.071746573 -0.44593608
-0.42361599 -0.051711868 -0.4476853
-0.32230717 -0.051578093 -0.4563728
-0.42327982 -0.03170418 -0.44943225
-0.30393744 -0.031732842 -0.44572312
-0.30334666 -0.011723455 -0.44976228
-0.42298716 -0.011723328 -0.45095295
-0.42298716 0.008245755 -0.45095295
-0.30334839 0.008254962 -0.4497506
-0.42328209 0.028238501 -0.44942045
-0.30394262 0.028295904 -0.44568777
-0.42361599 0.048259303 -0.4476853
-0.32231441 0.048059836 -0.45632577
-0.42395261 0.068307519 -0.44593608
-0.424292 0.088383198 -0.44417268
-0.4017784 0.087863922 -0.45766252
-0.36309779 0.088126242 -0.45084697
-0.44718292 -0.092250064 -0.42983508
-0.34649944 -0.092245191 -0.42999071
-0.44682851 -0.072077528 -0.43160605
-0.32514322 -0.0719309 -0.43795216
-0.44648412 -0.05193295 -0.43332678
-0.30562136 -0.051919378 -0.4342103
-0.44614246 -0.031815 -0.43503344
-0.44587293 -0.011723354 -0.43638033
-0.28647834 -0.011723379 -0.4273181
-0.44587055 0.0083577912 -0.43639231
-0.28648001 0.0084276963 -0.427306
-0.44614246 0.02845991 -0.43503338
-0.44648412 0.048590925 -0.43332672
-0.30563009 0.048571926 -0.43415046
-0.44682851 0.068748742 -0.43160588
-0.32515055 0.068554863 -0.43790454
-0.44718531 0.088935375 -0.4298231
-0.34652072 0.088934064 -0.42985904
-0.47046104 -0.092716217 -0.41469663
-0.32965264 -0.092901945 -0.4086628
-0.47013649 -0.072431922 -0.41625834
-0.30830187 -0.07244058 -0.41588324
-0.46982732 -0.052172825 -0.41774559
-0.28864899 -0.052266724 -0.4116528
-0.46957126 -0.031938627 -0.41897786
-0.28702274 -0.03190469 -0.4233892
-0.46941325 -0.011723405 -0.41973805
-0.46941325 0.0084860604 -0.41973817
-0.46957126 0.028707143 -0.41897774
-0.28702942 0.028639901 -0.42334098
-0.46982732 0.048950825 -0.41774559
-0.2886557 0.049092613 -0.41160417
-0.47013649 0.069221348 -0.41625834
-0.3083072 0.069233969 -0.41584682
-0.4704636 0.089518145 -0.41468471
-0.32967323 0.089754939 -0.40852886
-0.49384657 -0.072804153 -0.4001416
-0.29117128 -0.072958753 -0.3934499
-0.49359056 -0.05242556 -0.40132922
-0.49339548 -0.03206753 -0.40223432
-0.26981649 -0.03207963 -0.40065593
-0.49328479 -0.011723379 -0.40274769
-0.26931414 -0.011723328 -0.40449452
-0.49328479 0.008616766 -0.40274757
-0.26931572 0.0086034741 -0.40448225
-0.49339548 0.028964926 -0.40223432
-0.26982129 0.028989658 -0.40061909
-0.49358794 0.049329571 -0.4013412
-0.49384919 0.069717959 -0.40012932
-0.29117978 0.069925621 -0.39338839
-0.39400941 -0.11395167 -0.38904816
-0.37539932 -0.11436889 -0.37820977
-0.31252694 -0.09356913 -0.38699633
-0.2713792 -0.052619878 -0.38871455
-0.51746738 -0.011723379 -0.38553607
-0.25184953 -0.011723328 -0.38125694
-0.51746738 0.0087492708 -0.38553584
-0.25184953 0.0087822452 -0.381257
-0.27138567 0.049622357 -0.38866508
-0.31254867 0.090589494 -0.38684791
-0.39412975 0.11098184 -0.38836861
-0.37551534 0.1114828 -0.37752485
-0.35661641 -0.11478457 -0.36740822
-0.29511917 -0.094247699 -0.36495841
-0.27374417 -0.073485352 -0.37064284
-0.25450569 -0.053066704 -0.35969132
-0.25424159 -0.032378606 -0.36183596
-0.23387635 -0.011723328 -0.35932535
-0.23387781 0.0089511238 -0.35931271
-0.25424159 0.029586818 -0.36183596
-0.25450727 0.050291888 -0.35967886
-0.27375564 0.070628688 -0.37055516
-0.29513836 0.091437444 -0.36482
-0.35672802 0.11198193 -0.3667177
-0.33803952 -0.11529344 -0.35418838
-0.27718621 -0.094882652 -0.34434074
-0.25567293 -0.07395716 -0.35021466
-0.25568858 0.071258903 -0.35008758
-0.27718958 0.092226699 -0.34431517
-0.3380805 0.11257291 -0.35392219
-0.32269117 -0.1167054 -0.31750309
-0.30175433 -0.11672193 -0.31707323
-0.23906544 -0.032743759 -0.31438649
-0.23907295 0.030318342 -0.31432128
-0.32269499 0.11425622 -0.31747699
-0.30180308 0.11429115 -0.31672132
-0.24077347 -0.053991862 -0.29959452
-0.22061235 -0.032927196 -0.29056501
-0.21999946 -0.011723379 -0.29625165
-0.21999946 0.0094365552 -0.29625165
-0.22061804 0.030685015 -0.29051197
-0.24078262 0.051681194 -0.29951525
-0.24338368 -0.075648233 -0.27698922
-0.22191504 -0.054316938 -0.27847755
-0.20139009 -0.033079535 -0.27076459
-0.20090818 -0.011723379 -0.27558005
-0.20090818 0.0095957965 -0.27558017
-0.2013928 0.030989394 -0.27073753
-0.22192225 0.052168604 -0.27841055
-0.24339917 0.073513851 -0.27685511
-0.22403559 -0.076068282 -0.25880122
-0.20249757 -0.054606196 -0.25969791
-0.18139789 -0.011723328 -0.25599861
-0.18139917 0.0097465627 -0.25598502
-0.20250028 0.052601431 -0.25967085
-0.22404435 0.074072182 -0.25871968
-0.26769719 -0.097707808 -0.2525897
-0.24749419 -0.098052621 -0.24139142
-0.20439982 -0.076486588 -0.24068916
-0.18283626 -0.054902814 -0.24042773
-0.18180236 -0.033227008 -0.25162005
-0.16155481 -0.011723379 -0.23678744
-0.16155481 0.0098943412 -0.23678732
-0.18180615 0.031284384 -0.25157917
-0.18283883 0.053046484 -0.2404002
-0.20440808 0.074630007 -0.24060655
-0.2677241 0.095765546 -0.25237119
-0.24751645 0.096195623 -0.24119866
-0.22733942 -0.098460481 -0.22814536
-0.1844427 -0.076894149 -0.2230376
-0.16261289 -0.055151183 -0.22429192
-0.16182518 -0.033365753 -0.2335943
-0.14127064 -0.03347452 -0.21946383
-0.1410363 -0.01172348 -0.22250772
-0.1410363 0.010004271 -0.2225076
-0.16182753 0.031561673 -0.23356664
-0.14127171 0.031779099 -0.21944988
-0.16261524 0.05341899 -0.22426403
-0.18444785 0.075172707 -0.22298193
-0.22735441 0.096703276 -0.22800636
-0.20726869 -0.098957077 -0.21202195
-0.18632504 -0.09924528 -0.20266092
-0.16374236 -0.077173322 -0.21095371
-0.14195281 -0.055362016 -0.21060216
-0.12052209 -0.033585973 -0.20499289
-0.12030905 -0.01172343 -0.20806801
-0.12030905 0.010115471 -0.20806801
-0.12052309 0.032001805 -0.20497882
-0.14195603 0.053735543 -0.21055984
-0.16374832 0.075545222 -0.21088338
-0.20728272 0.097324014 -0.21188152
-0.18633416 0.097682774 -0.20256197
-0.16523165 -0.099531487 -0.19336593
-0.14286613 -0.077455372 -0.1987375
-0.12181018 -0.077740327 -0.18640113
-0.12109218 -0.055575032 -0.19676459
-0.099560834 -0.033698589 -0.19035876
-0.099368609 -0.011723379 -0.19347978
-0.099368609 0.010227738 -0.19347978
-0.099560834 0.032226942 -0.19035876
-0.12109611 0.054055441 -0.19670784
-0.14287162 0.075921431 -0.19866657
-0.12181415 0.076300889 -0.18634379
-0.16524011 0.098040506 -0.19326615
-0.2549412 -0.12211728 -0.17689848
-0.23214698 -0.12186176 -0.18353701
-0.21052444 -0.12201759 -0.17948866
-0.18883929 -0.12217323 -0.17544317
-0.14415774 -0.099882692 -0.18195903
-0.12298175 -0.10026661 -0.16949105
-0.10057177 -0.078028008 -0.17394304
-0.10002775 -0.05579038 -0.18277705
-0.078620471 -0.055969354 -0.17115498
-0.078285374 -0.033798426 -0.17737377
-0.078130357 -0.011723379 -0.18025029
-0.078130357 0.0103296 -0.18025029
-0.078285374 0.032426916 -0.17737389
-0.1000304 0.054378081 -0.18273377
-0.078622825 0.054646548 -0.17111158
-0.10057355 0.076683596 -0.17391407
-0.14416105 0.098477349 -0.18191612
-0.12298474 0.098957255 -0.16944766
-0.25496945 0.12076055 -0.17665362
-0.23216707 0.1204512 -0.18335056
-0.21054026 0.12063687 -0.17933035
-0.18885261 0.12082319 -0.17529905
-0.27983248 -0.12299617 -0.15406358
-0.16741282 -0.12247482 -0.16760802
-0.14599806 -0.12284267 -0.15805268
-0.10146681 -0.10057703 -0.15940893
-0.079097249 -0.078296721 -0.16230738
-0.057036646 -0.056149136 -0.159482
-0.056783281 -0.03389395 -0.16496742
-0.035094343 -0.033990435 -0.15245306
-0.056649946 -0.01172343 -0.16785443
-0.034982242 -0.011723379 -0.15536535
-0.056649275 0.010424921 -0.16786897
-0.034981683 0.010521054 -0.15537989
-0.056783281 0.032617863 -0.16496742
-0.035093769 0.032810282 -0.15246773
-0.057037987 0.054915715 -0.1594528
-0.079098813 0.077041954 -0.16227818
-0.10147042 0.099345833 -0.15935075
-0.27987215 0.12181886 -0.1537416
-0.16742262 0.12118372 -0.16749191
-0.1460048 0.12162375 -0.15796518
-0.1923942 -0.14604071 -0.13696003
-0.12428706 -0.12312756 -0.15065002
-0.10243361 -0.12339465 -0.14371073
-0.079793401 -0.10088557 -0.14938831
-0.057968237 -0.10119587 -0.13931227
-0.057448633 -0.078567877 -0.15056217
-0.035622321 -0.078841001 -0.13873577
-0.035276182 -0.056329988 -0.14772856
-0.01335188 -0.056519564 -0.13541937
-0.013216086 -0.034087483 -0.13982964
-0.013125628 -0.011723379 -0.14276731
-0.013125174 0.01061805 -0.14278197
-0.013215624 0.033004727 -0.13984442
-0.035277322 0.055187274 -0.14769912
-0.013352796 0.055471506 -0.13538992
-0.057449989 0.077403501 -0.15053284
-0.035623454 0.077767745 -0.13870609
-0.07979656 0.099731535 -0.14932954
-0.057971649 0.10012002 -0.13923848
-0.12429214 0.12196502 -0.15057695
-0.10243904 0.12228623 -0.14362228
-0.19240925 0.14498895 -0.13679719
-0.23889145 -0.14677989 -0.12095594
-0.2152687 -0.1462661 -0.13208067
-0.17028663 -0.1461927 -0.13366938
-0.14799738 -0.1462661 -0.13208067
-0.12591794 -0.14649555 -0.12711048
-0.10389119 -0.14682209 -0.12004268
-0.080637239 -0.12377892 -0.13372886
-0.058696575 -0.12417097 -0.12354326
-0.035991229 -0.10150868 -0.12915123
-0.013665147 -0.079152644 -0.12524593
0.0086969659 -0.056752414 -0.12029719
0.0087836608 -0.034208983 -0.12405157
0.0088601634 -0.01172343 -0.1273638
0.0088598207 0.010736806 -0.1273489
0.0087833181 0.033247977 -0.12403655
0.008696273 0.055820834 -0.12026727
-0.013666071 0.078183115 -0.12521613
-0.035993524 0.10051058 -0.12909174
-0.080640428 0.12274595 -0.1336695
-0.058700033 0.12321708 -0.12346864
-0.23892212 0.14585781 -0.12067163
-0.21529102 0.14525503 -0.13185775
-0.17029795 0.14516458 -0.13353586
-0.14800769 0.14525032 -0.13194704
-0.12592414 0.14551578 -0.12702096
-0.10389578 0.1458959 -0.1199677
-0.081756614 -0.14714946 -0.11295545
-0.059553675 -0.14751755 -0.10498667
-0.036665604 -0.12462936 -0.11163032
-0.01398015 -0.10194388 -0.1150161
0.0084599108 -0.079503894 -0.11003256
0.030971311 -0.05699262 -0.10469902
0.031022985 -0.034332052 -0.10805559
0.031074774 -0.01172343 -0.11141944
0.031074543 0.010859624 -0.1114043
0.031022985 0.033494014 -0.10805559
0.030971076 0.056180608 -0.10468388
0.0084592178 0.078651607 -0.11000252
-0.013981074 0.10105349 -0.11498594
-0.036668509 0.12376729 -0.11155486
-0.081761487 0.14627856 -0.11286509
-0.059559263 0.14670961 -0.10486567
-0.19698343 -0.17110394 -0.087280512
-0.17349187 -0.17064387 -0.095817566
-0.15062493 -0.17052917 -0.097947955
-0.12805223 -0.17061774 -0.096304774
-0.10545529 -0.17070718 -0.094644427
-0.08312612 -0.17108999 -0.087540746
-0.037366927 -0.14805219 -0.093409657
-0.014504768 -0.12515493 -0.097978354
0.0078533813 -0.12570189 -0.083768845
0.008220844 -0.10241617 -0.099680543
0.030805245 -0.079876244 -0.093912721
0.053461641 -0.057281069 -0.085962653
0.05349005 -0.03447384 -0.089652658
0.053518616 -0.01172343 -0.093363762
0.053518616 0.010998368 -0.093363881
0.053490169 0.033777189 -0.089667916
0.053461526 0.05661333 -0.085947394
0.030804776 0.079147935 -0.093882322
0.0082201362 0.10164385 -0.099649906
-0.014507115 0.12439796 -0.097902298
0.0078519657 0.12505358 -0.083707571
-0.037369862 0.147331 -0.093333244
-0.19700181 0.17043819 -0.087081313
-0.17350733 0.16991141 -0.095634818
-0.15063548 0.16977744 -0.097810984
-0.12806174 0.16987847 -0.096167803
-0.10546278 0.1699798 -0.094522715
-0.083131902 0.17041637 -0.087433577
-0.22173333 -0.17217077 -0.067482591
-0.060850672 -0.17166308 -0.076905489
-0.2675145 -0.14922537 -0.068010449
-0.015071072 -0.14869063 -0.079587102
0.030388765 -0.12635255 -0.066861749
0.030628968 -0.10294636 -0.082463384
0.05338135 -0.080300748 -0.075532317
0.076240443 -0.05757672 -0.066753149
0.076240443 -0.034621157 -0.070506454
0.076240443 -0.011723328 -0.074234962
0.076240443 0.011145586 -0.07425046
0.076240443 0.034072179 -0.070506454
0.076240443 0.057056915 -0.066737413
0.053380877 0.07971479 -0.075470567
0.030628495 0.10230647 -0.082432628
0.030387808 0.12583452 -0.066799641
-0.2675826 0.14872733 -0.067420602
-0.015073448 0.14807586 -0.079509974
-0.22176594 0.17166509 -0.067156672
-0.060855664 0.1710715 -0.076797843
-0.15399271 -0.19590996 -0.05419898
-0.13056117 -0.19554706 -0.060091496
-0.10789018 -0.19585395 -0.055107117
-0.085140787 -0.19615905 -0.050153136
-0.038416855 -0.17224358 -0.066131711
-0.015892863 -0.17295669 -0.052898526
0.007378906 -0.1494464 -0.0632236
0.053182837 -0.12701142 -0.049744725
0.053291988 -0.10351726 -0.063923955
0.076240443 -0.080730885 -0.056905866
0.09929394 -0.01172343 -0.050278544
0.09929394 0.01133004 -0.050278664
0.076240443 0.080288395 -0.056843162
0.053291507 0.10302125 -0.063861489
0.053182229 0.12662575 -0.049666047
0.0073778331 0.14895606 -0.06317699
-0.038421638 0.17173602 -0.066007376
-0.015896723 0.17255087 -0.052773118
-0.15400839 0.19550055 -0.05399549
-0.13057306 0.19509004 -0.059919834
-0.10789982 0.1954343 -0.054950476
-0.0851501 0.19577874 -0.049980283
-0.17776084 -0.19645154 -0.045403242
-0.062315173 -0.19646414 -0.045198441
-0.039634578 -0.19712351 -0.034493923
0.0068134964 -0.1737196 -0.038740635
0.030069057 -0.15023758 -0.046095967
0.076240443 -0.10416959 -0.042738438
0.099363044 -0.034845993 -0.041301727
0.099362314 0.034520376 -0.041396499
0.076240443 0.10383616 -0.042691231
0.030068088 0.14987975 -0.046033263
0.0068105683 0.17342296 -0.038614035
-0.17777818 0.19611001 -0.045198321
-0.06232246 0.19612098 -0.045040846
-0.039640084 0.19686162 -0.03435123
-0.20334947 -0.1981166 -0.018365741
-0.016902894 -0.19801012 -0.020096898
-0.25023153 -0.17495933 -0.015733242
0.029735763 -0.17448978 -0.024448037
0.052987613 -0.15124029 -0.024384141
0.099478036 -0.058198616 -0.026363611
0.099478647 0.057991151 -0.02628386
0.052986257 0.15105587 -0.024208426
-0.25029734 0.17486958 -0.015122533
0.029733796 0.17430317 -0.024320245
-0.20339394 0.19800241 -0.017884493
-0.01690685 0.19785805 -0.019968629
-0.11135169 -0.22276455 0.001101017
-0.087686725 -0.22248696 -0.0029064417
0.006042026 -0.19891925 -0.0053348541
0.076240443 -0.12887345 -0.0013664961
0.099627592 -0.081884891 -0.006935358
0.099628218 0.081827685 -0.0068547726
0.076240443 0.12886342 -0.0012203455
0.0060356706 0.19889081 -0.0050598383
-0.11137269 0.22279309 0.001442194
-0.08769808 0.22247456 -0.0026957989
-0.13517389 -0.22313765 0.006487608
-0.064661793 -0.22307684 0.0056074858
-0.041508265 -0.22367111 0.014185667
0.09977632 -0.10586691 0.012384415
0.12335405 -0.058837049 0.01510334
0.1232601 -0.035233214 0.0090001822
0.12316625 -0.011723379 0.0029051304
0.12316625 0.01173958 0.0029051304
0.1232601 0.035296287 0.0090001822
0.12335432 0.058947455 0.015119791
0.099776946 0.10595915 0.012466073
-0.13519761 0.2232077 0.006829977
-0.064670824 0.22312862 0.005802989
-0.041515842 0.22378911 0.014382124
-0.16034418 -0.2246495 0.028308868
0.076240443 -0.15402028 0.035801768
0.12362953 -0.082807094 0.032995939
0.12363081 0.083057314 0.033078909
0.076240443 0.15429769 0.035951495
-0.16040403 0.22492109 0.029086471
0.052476488 -0.17807104 0.042012572
0.099987842 -0.13046038 0.039861917
0.12393487 -0.10711227 0.05282855
0.14769101 -0.035540279 0.048885226
0.14754695 -0.01172343 0.042646766
0.14754695 0.01204543 0.042646766
0.1476914 0.035910521 0.048902035
0.12393616 0.10751595 0.052912593
0.099988997 0.13076797 0.040011644
0.052474432 0.17840466 0.042279601
0.028345212 -0.20330431 0.065871119
0.14783567 -0.059453566 0.055149078
0.14783645 0.059872556 0.055182695
0.028341036 0.20382401 0.066142201
0.10028181 -0.15597169 0.078050137
0.12438742 -0.13209078 0.082222223
0.14827043 -0.083753407 0.073974133
0.17257132 -0.011723379 0.08342135
0.17257132 0.012359343 0.08342123
0.14827278 0.084319621 0.074076295
0.12438953 0.13272381 0.082359314
0.100283 0.15657453 0.078203797
-0.020647109 -0.22972034 0.10149992
0.076240443 -0.18050586 0.087195635
0.14874116 -0.10839102 0.094357371
0.17296654 -0.060086466 0.096256614
0.17276852 -0.035855412 0.089825749
0.17276905 0.036540888 0.089843154
0.1729676 0.060821962 0.096291065
0.14874354 0.10911514 0.094460726
0.076240443 0.18118668 0.087453127
-0.020665795 0.23054235 0.10210669
0.051939569 -0.20613037 0.11176026
0.1735768 -0.084725693 0.11607552
0.17358057 0.085616827 0.11619806
0.05193729 0.20700501 0.11205673
0.1007105 -0.18301381 0.13373852
0.12499173 -0.15797728 0.12147307
0.14946643 -0.13376664 0.1257621
0.17422211 -0.10970512 0.13703251
0.19851929 -0.03617917 0.13188195
0.19826612 -0.011723328 0.12530458
0.19826612 0.01268173 0.12530458
0.19851997 0.037188452 0.1318996
0.17422484 0.11075701 0.13712096
0.14946967 0.13473508 0.12590301
0.12499389 0.15891369 0.1216135
0.10071241 0.18405229 0.13398623
0.1987735 -0.060736619 0.13848662
0.19877487 0.061797287 0.13852203
0.076240443 -0.2095582 0.1674211
0.15039805 -0.16003859 0.16610253
0.17525418 -0.13549052 0.17054987
0.19957572 -0.085724562 0.1593293
0.22465745 -0.011723379 0.16830671
0.22465745 0.013012791 0.16830683
0.19958058 0.086948738 0.15945494
0.17525809 0.13680308 0.17067659
0.1504018 0.16131964 0.16626525
0.076240443 0.21088198 0.16801751
0.12591875 -0.1855976 0.18168545
0.20040466 -0.11105478 0.18086541
0.225288 -0.061405893 0.18195879
0.22496954 -0.036511496 0.17506385
0.22497037 0.037853315 0.17508185
0.22529307 0.062802851 0.18206835
0.20040886 0.11244494 0.1809746
0.12592213 0.18700333 0.18190408
0.22629601 -0.086751178 0.20378292
0.226302 0.088317528 0.20391238
0.17653134 -0.1621598 0.21202683
0.20178017 -0.13726312 0.21660233
0.25214875 -0.036853112 0.21943569
0.25177553 -0.011723531 0.21250987
0.25177553 0.013352985 0.21250999
0.25215074 0.03853659 0.219473
0.20178521 0.13893022 0.2167325
0.17653592 0.16379365 0.21217549
0.10142173 -0.21317366 0.22612894
0.15189868 -0.18825932 0.23108208
0.22731948 -0.11244279 0.22594154
0.25255889 -0.062100079 0.22704709
0.25256494 0.063844174 0.2271595
0.2273238 0.11417933 0.22603512
0.15190606 0.19005159 0.23140168
0.10142634 0.21494952 0.22672856
0.25376913 -0.087807059 0.24950635
0.25377527 0.089725062 0.24962032
0.20342225 -0.16434157 0.25926471
0.22907612 -0.13908654 0.26397383
0.25499609 -0.11386946 0.27227592
0.28060263 -0.062813893 0.27341318
0.28008866 -0.037204415 0.26506686
0.27964896 -0.01172348 0.25792694
0.27964896 0.013702715 0.25792706
0.28008983 0.039238892 0.26508594
0.28060979 0.064915136 0.27352881
0.25500128 0.11596289 0.27237236
0.22908321 0.1411193 0.26412714
0.20342886 0.16634035 0.25943649
0.12754083 -0.21692491 0.2870419
0.17868641 -0.1910039 0.28201485
0.17869715 0.19319002 0.28236365
0.12755069 0.21917282 0.28768337
0.23110464 -0.16658764 0.30789268
0.28202537 -0.088892773 0.29651558
0.3083106 -0.01172343 0.30462861
0.30831197 0.014062388 0.30464816
0.28203261 0.091172636 0.29663289
0.23111284 0.16896114 0.30807006
0.25717664 -0.14096354 0.31274164
0.28346932 -0.11533792 0.31996191
0.30946359 -0.06355074 0.32127082
0.30882072 -0.03756566 0.31199157
0.30882481 0.039961994 0.31205082
0.3094691 0.06601952 0.32135022
0.2834754 0.11779843 0.32006085
0.2571862 0.14337282 0.31291926
0.20632023 -0.19383512 0.33455634
0.31054902 -0.089826256 0.33693755
0.31055456 0.092416272 0.33701754
0.20633483 0.19642758 0.33493614
0.15465112 -0.22081861 0.35026634
0.2595332 -0.16883139 0.35647368
0.28552717 -0.14252764 0.35337722
0.33824638 -0.037924115 0.35854113
0.33746493 -0.011723379 0.3483901
0.33746031 0.014398623 0.3483299
0.33823857 0.040676214 0.3584398
0.28553838 0.14524992 0.35355926
0.2595419 0.17157812 0.35663593
0.15466698 0.22355627 0.35095263
0.31245682 -0.11670844 0.36447382
0.33928087 -0.064331517 0.37198007
0.33929032 0.067191675 0.37210262
0.31246668 0.11951335 0.36461616
0.23435131 -0.19618605 0.37818503
0.234357 0.19909865 0.37830818
0.18249592 -0.22423439 0.40573263
0.34187114 -0.091412514 0.40562832
0.34188077 0.094532818 0.40575337
0.18250299 0.22736722 0.40596199
0.36964309 -0.011723328 0.41990447
0.36964664 0.014949853 0.41994667
0.29023692 -0.17222069 0.42985415
0.31708613 -0.14552666 0.43129253
0.370525 -0.03847646 0.43031943
0.3705304 0.041783795 0.43038285
0.31710225 0.14885111 0.43152499
0.29027468 0.1755565 0.43046737
0.34503612 -0.11924173 0.4467423
0.37201151 -0.065499976 0.44787419
0.37202418 0.068944842 0.44802368
0.34505421 0.12268339 0.44697726
0.37499681 -0.093202457 0.48312902
0.40319863 -0.011723379 0.49441028
0.40320268 0.01552335 0.49445415
0.37501159 0.096920609 0.48330355
0.40420869 -0.039054066 0.50534475
0.4042148 0.042939011 0.50541115
0.268123 -0.20360599 0.5158807
0.35067147 -0.14893904 0.51994801
0.40623736 -0.06672281 0.52730584
0.40624976 0.070778877 0.52743995
0.35069031 0.15294656 0.52019274
0.2684333 0.20792565 0.5216397
0.37950391 -0.12200101 0.53635514
0.37952101 0.12613145 0.53655744
0.32529423 -0.17775936 0.54976642
0.32534128 0.18202153 0.55044544
0.40968677 -0.09508498 0.56464684
0.43887883 -0.039618738 0.57868516
0.43803418 -0.01172343 0.57024455
0.43803644 0.016107095 0.57026756
0.43888345 0.044067845 0.57873118
0.40969732 0.099428877 0.56476092
0.44050813 -0.067764655 0.59496593
0.44051975 0.07234098 0.59508204
0.41395101 -0.12429364 0.61080861
0.44242638 -0.096227825 0.61413419
0.47023359 -0.01172343 0.61078501
0.47023359 0.016419033 0.61078525
0.44244048 0.10095356 0.6142751
0.41395965 0.12899294 0.61090231
0.38619533 -0.15261203 0.61537707
0.47182876 -0.068236031 0.62558639
0.47076893 -0.039903939 0.61575246
0.47077146 0.044638097 0.61577606
0.47183383 0.073046684 0.62563336
0.38622713 0.15736014 0.61575246
0.36039406 -0.18221559 0.64624786
0.41727987 -0.15382309 0.64684451
0.44501808 -0.12519352 0.64003205
0.47346249 -0.096842363 0.64074552
0.50180799 -0.04009448 0.6405077
0.50123763 -0.011723328 0.6355679
0.50123489 0.016609471 0.63554418
0.50180525 0.045018669 0.64048398
0.47347018 0.10177082 0.64081705
0.44502997 0.13011879 0.64015126
0.41729528 0.158804 0.64701152
0.36042345 0.18720469 0.64662981
0.475687 -0.12585114 0.66138649
0.50459689 -0.097394809 0.66466022
0.50282371 -0.068601176 0.64930403
0.53326678 -0.040287554 0.66557598
0.53265005 -0.01172343 0.66056871
0.53265005 0.016802244 0.66056871
0.53326678 0.045404926 0.66557598
0.50282925 0.073594466 0.64935172
0.50460243 0.10250649 0.66470814
0.47569734 0.13093974 0.66148257
0.39086917 -0.18333901 0.67057252
0.44769502 -0.15459053 0.66678166
0.53482491 -0.069046482 0.67822623
0.53483987 0.074264094 0.67834759
0.44770709 0.15972261 0.6669023
0.39088351 0.18850392 0.6707418
0.42104414 -0.18412521 0.68759394
0.47860345 -0.15542452 0.68844795
0.50671059 -0.12651543 0.68296528
0.50672179 0.13177039 0.68306231
0.47861397 0.16072239 0.68854547
0.42105991 0.18942116 0.68776464
0.33666766 -0.21427794 0.71392727
0.45149684 -0.18491873 0.704772
0.53867435 -0.098429799 0.70947981
0.53868645 0.10388806 0.70957851
0.4515141 0.19034716 0.70494413
0.33669165 0.21978873 0.71427369
0.3081663 -0.2146586 0.7209909
0.36583078 -0.21443658 0.71687341
0.39555746 -0.21492511 0.7259388
0.56987375 -0.040760763 0.72703433
0.56858295 -0.01172343 0.71717072
0.56858623 0.017238215 0.71719551
0.56987703 0.04635144 0.72705936
0.30818617 0.22022226 0.72131348
0.36584798 0.21996263 0.71709657
0.39557853 0.22052258 0.72618771
0.42542544 -0.21541475 0.73502302
0.51348561 -0.15747187 0.74163866
0.54363304 -0.12857161 0.74973965
0.57210386 -0.070060268 0.74407554
0.57212031 0.075784862 0.74420118
0.5436641 0.13434654 0.74999213
0.5135175 0.16318735 0.74191499
0.42549941 0.22111581 0.73582363
0.48616493 -0.18740544 0.75860953
0.48621407 0.19326332 0.75906563
0.58033711 -0.10068159 0.80698895
0.58037788 0.10689715 0.80730081
0 0 0 1 0 0 0 1 0 0 0 1 0 0 0 0 0 696 1 0 0
