ply
format ascii 1.0
comment PCL generated
element vertex 1231
property float x
property float y
property float z
element camera 1
property float view_px
property float view_py
property float view_pz
property float x_axisx
property float x_axisy
property float x_axisz
property float y_axisx
property float y_axisy
property float y_axisz
property float z_axisx
property float z_axisy
property float z_axisz
property float focal
property float scalex
property float scaley
property float centerx
property float centery
property int viewportx
property int viewporty
property float k1
property float k2
end_header
0.057416074 -0.076389879 -0.22075188
0.057418499 -0.062149167 -0.22106689
0.071647048 -0.0052350466 -0.21911448
0.057426639 0.065867066 -0.22212452
0.043040104 -0.10535931 -0.21133429
0.057317059 -0.09121491 -0.20788974
0.057395842 -0.047988623 -0.2181235
0.071647048 -0.048237488 -0.20734847
0.057375006 -0.033779122 -0.21541733
0.071647048 -0.033830762 -0.21205866
0.057354182 -0.019527901 -0.21271193
0.071647048 -0.01949678 -0.21674514
0.057348609 -0.0052349772 -0.21198803
0.057353504 0.0090585705 -0.21262372
0.071647048 0.0090282131 -0.2165693
0.057365246 0.02332863 -0.21414936
0.071647048 0.023330782 -0.21400839
0.057376973 0.037575237 -0.21567249
0.071647048 0.037673175 -0.2114315
0.057392668 0.051782571 -0.21771115
0.071647048 0.052055441 -0.20884734
0.057366334 0.080449291 -0.21429032
0.043051258 0.10914817 -0.2120586
0.013946541 -0.16391134 -0.19553077
0.028482031 -0.13473001 -0.20030987
0.042957403 -0.11999359 -0.20596284
0.042941932 -0.091350287 -0.20495772
0.042842947 -0.07724525 -0.19852841
0.071647048 -0.077315331 -0.19670767
0.071647048 -0.062717117 -0.20262331
0.086071275 -0.0052350122 -0.19564754
0.042799007 0.066885114 -0.19567454
0.071647048 0.066685349 -0.20086408
0.042883582 0.081055343 -0.20116794
0.042967666 0.095142804 -0.20662916
0.057286333 0.095289998 -0.20389813
0.028370421 0.12459486 -0.19547683
0.042920955 0.12403242 -0.20359522
0.028562229 0.13838109 -0.20378238
-0.00090388209 -0.17935726 -0.18448114
0.013695788 -0.15011318 -0.18738729
0.028330106 -0.14962481 -0.19373119
0.042755216 -0.13524823 -0.19283015
0.028315753 -0.12078506 -0.19310957
0.028150491 -0.106727 -0.1859535
0.057216175 -0.10625114 -0.19478434
0.042772003 -0.062985078 -0.19392031
0.042717554 -0.048629284 -0.19038379
0.086164728 -0.048788063 -0.18350744
0.042674627 -0.034207389 -0.18759584
0.086127609 -0.034196112 -0.18832982
0.042631716 -0.01974266 -0.18480849
0.086090602 -0.019678578 -0.19313663
0.042614065 -0.0052350122 -0.18366218
0.042624995 0.0092760688 -0.18437213
0.086091504 0.0092094904 -0.19301945
0.042649064 0.023762967 -0.18593532
0.086111724 0.023694308 -0.19039291
0.042673092 0.038225926 -0.18749607
0.086132005 0.038219891 -0.18775904
0.042726178 0.052606732 -0.19094402
0.086152405 0.05278638 -0.18510854
0.071647048 0.081556417 -0.19032067
0.028190508 0.11064915 -0.18768644
0.057205502 0.11029734 -0.19339782
0.013757702 0.15396072 -0.18939811
0.028169569 0.15418246 -0.18677956
0.013807252 0.16828442 -0.19100732
-0.00089163333 0.18336558 -0.18479955
-0.015828155 -0.1947646 -0.17551601
-0.0012726411 -0.1656583 -0.17490059
0.013414945 -0.13625723 -0.1782667
0.057113789 -0.1215011 -0.18148404
0.027998962 -0.092531212 -0.17939216
0.071647048 -0.092342749 -0.18347102
0.02784659 -0.078235805 -0.1727941
0.086253226 -0.078265935 -0.17201114
0.08620204 -0.063454956 -0.17866033
0.086218409 0.067621812 -0.17653477
0.027887169 0.082284749 -0.17455143
0.028016903 0.096568689 -0.18016917
0.071647048 0.096596271 -0.1796574
0.013232253 0.12619825 -0.17233366
0.057089023 0.12578718 -0.1782667
0.013496026 0.14014256 -0.18089986
0.042596675 0.14001688 -0.18253279
-0.0011719912 0.16953072 -0.17751569
-0.015741296 0.19867115 -0.17739654
-0.030822188 -0.21017346 -0.16781777
-0.01631432 -0.18115777 -0.16499001
0.013128236 -0.18079147 -0.16895556
0.027741492 -0.16622202 -0.16824341
-0.0016383752 -0.15180588 -0.16539854
0.042365845 -0.15164095 -0.16753989
0.057001099 -0.13704853 -0.1668452
0.013131656 -0.12226576 -0.16906655
0.012875762 -0.10808475 -0.16075623
0.071647048 -0.10758618 -0.17000902
0.027694646 -0.063838243 -0.16621488
0.027600005 -0.049282044 -0.16211677
0.10098281 -0.034570776 -0.16399604
0.10090688 -0.019864887 -0.16892791
0.10086594 -0.0052350122 -0.17158705
0.10090759 0.0093952436 -0.1688816
0.10094922 0.024067167 -0.16617775
0.10099097 0.038780861 -0.1634661
0.027629446 0.053455107 -0.16339183
0.10103284 0.053536534 -0.16074687
0.027756657 0.067915678 -0.16890007
0.086301632 0.082692549 -0.16572332
0.012965508 0.11212816 -0.16367084
0.071647048 0.11180777 -0.1688723
-0.001554884 0.15580919 -0.16756767
0.04226514 0.15636554 -0.16099864
0.027674507 0.17065518 -0.16534287
-0.016152956 0.18499832 -0.16848397
-0.031192146 0.21513474 -0.16095191
-0.046485446 -0.21196689 -0.15117729
-0.031362258 -0.19653797 -0.15779537
-0.001951918 -0.19659232 -0.15725255
-0.016807236 -0.16740113 -0.15431833
-0.0019976944 -0.13779555 -0.15606308
0.071647048 -0.12304642 -0.15639096
0.012644548 -0.093738712 -0.15324742
0.086358055 -0.093501069 -0.1583938
0.10113557 -0.064212024 -0.15407413
0.10105899 -0.049352922 -0.15904802
0.027526326 -0.034648836 -0.15892655
0.027459767 -0.019964077 -0.15604442
0.027422942 -0.0052350122 -0.15444976
0.02744136 0.0095002977 -0.15524739
0.027478371 0.024210766 -0.15684992
0.02752072 0.038891293 -0.1586836
0.10117422 0.068582915 -0.15156335
0.012709022 0.097906567 -0.15534121
0.086385891 0.097936891 -0.15477818
-0.0022823289 0.1278379 -0.14866835
0.071647048 0.12759039 -0.15224105
-0.001940757 0.14194064 -0.15754271
0.05692257 0.14200978 -0.15664399
-0.016632386 0.17132384 -0.15810394
-0.031818457 0.18691525 -0.14932913
0.012737598 0.18622075 -0.15626913
-0.031253487 0.20056605 -0.15981388
-0.046289675 0.21589643 -0.15435582
-0.061377421 0.23125292 -0.14936692
-0.061553538 -0.2272359 -0.1468249
-0.047345571 -0.22834614 -0.13721049
-0.01760757 -0.21349578 -0.13699055
-0.047157526 -0.19829243 -0.14026397
-0.031940147 -0.18281309 -0.14707088
0.027135998 -0.18327919 -0.14202482
0.041962177 -0.16850175 -0.14132094
-0.017286405 -0.1534574 -0.14394397
0.056799188 -0.15371358 -0.14061642
0.071647048 -0.13891587 -0.13989228
-0.00236056 -0.12364721 -0.14663559
-0.0027270243 -0.10935865 -0.13711488
0.086464249 -0.10895544 -0.14459854
0.012431633 -0.079254255 -0.14633274
0.10125009 -0.079242565 -0.14663559
0.012222167 -0.064659856 -0.13953006
0.11622739 -0.034955256 -0.13902462
0.11611071 -0.020056225 -0.14407676
0.1160455 -0.0052350466 -0.14690059
0.11610961 0.0095858891 -0.14412427
0.11617391 0.024449566 -0.14133996
0.1162384 0.039356336 -0.13854748
0.012278188 0.068976067 -0.14134943
0.012457278 0.083549604 -0.14716542
0.10134526 0.08385963 -0.14045453
-0.0026237816 0.11359833 -0.13979691
0.086471118 0.11335758 -0.14370662
-0.017606683 0.1435212 -0.13700968
-0.017117076 0.15749927 -0.14760995
-0.032389164 0.17311279 -0.13873839
0.041925795 0.17309253 -0.1389578
-0.046964221 0.20233469 -0.14340287
-0.0024583191 0.20226002 -0.14409584
-0.062072814 0.21763143 -0.13932991
-0.092661068 -0.24422866 -0.12902331
-0.077415198 -0.22882837 -0.13303429
-0.062317729 -0.21362461 -0.13579488
0.011810362 -0.19970423 -0.12615645
-0.047837302 -0.18446158 -0.12922567
-0.032524563 -0.16893324 -0.13622546
-0.01774776 -0.13932724 -0.1339553
0.086571842 -0.12463337 -0.13062203
-0.0030978695 -0.094928928 -0.12747985
0.10146511 -0.094689228 -0.13266945
0.11646258 -0.06498903 -0.12884021
0.012027171 -0.049949907 -0.13319749
0.11634468 -0.049932592 -0.13394582
0.011909325 -0.035103921 -0.12937027
0.011817805 -0.020192295 -0.12639809
0.011831492 0.024672721 -0.12684262
0.011933938 0.039549857 -0.13016963
0.012098309 0.054313689 -0.13550752
0.11630286 0.05430606 -0.13575649
0.11653863 0.069584258 -0.12554717
-0.0029684082 0.099226654 -0.13084334
0.10151814 0.09931384 -0.12922573
-0.018088333 0.12936805 -0.12658167
0.086611353 0.12944379 -0.12548912
0.071647048 0.14405961 -0.13001561
-0.032966189 0.15915725 -0.12803012
0.056752194 0.15860841 -0.13451141
-0.047646508 0.18861701 -0.13232374
0.026785605 0.1891645 -0.12685215
-0.062847659 0.20397893 -0.12814587
-0.077230707 0.23296943 -0.13543111
-0.10861717 -0.2455873 -0.11799228
-0.093473896 -0.23039989 -0.11942428
-0.078276545 -0.21512806 -0.12184495
-0.063090727 -0.19985625 -0.12463748
0.041546471 -0.18583848 -0.11431992
-0.048524916 -0.17047141 -0.11806053
-0.033115618 -0.15489595 -0.1252569
-0.033713937 -0.14069915 -0.1141535
-0.01821392 -0.12504958 -0.12386262
-0.018673219 -0.11060864 -0.1139186
-0.0034053102 -0.080287397 -0.11949235
0.11665083 -0.080241293 -0.12068886
0.13177538 -0.035299182 -0.11668509
0.13165179 -0.020236149 -0.12069857
0.011754051 -0.0052350122 -0.12432766
0.13167605 -0.0052350122 -0.11991084
0.011781182 0.009731466 -0.12520856
0.13170153 0.0097786151 -0.1190834
0.13172612 0.024804594 -0.1182847
0.13175073 0.039842822 -0.11748523
-0.0033143759 0.084718727 -0.12185472
0.11674803 0.084966965 -0.11647999
-0.0185716 0.11505652 -0.11611867
0.1017004 0.1149784 -0.11738759
-0.03355018 0.14504674 -0.11719251
-0.048336707 0.17474069 -0.12111652
-0.06363222 0.19016843 -0.11682171
0.01144499 0.20547223 -0.11429048
-0.078095138 0.21937832 -0.12420171
-0.018224664 0.2194443 -0.12363005
-0.093217954 0.23456866 -0.12244684
-0.12466501 -0.24684985 -0.10774165
-0.10960595 -0.23180126 -0.10728836
-0.094422281 -0.21659601 -0.10822427
-0.0039544031 -0.21691903 -0.10522652
-0.079147905 -0.20126845 -0.11052561
-0.063872695 -0.18592799 -0.11335069
0.056591183 -0.17084946 -0.11359549
-0.049220465 -0.15631938 -0.10676599
0.071647048 -0.15584944 -0.11287051
0.086714 -0.14083758 -0.1121549
-0.034319662 -0.12633985 -0.10291255
0.10192112 -0.1263313 -0.10305119
-0.019128099 -0.096010141 -0.10407013
0.11688463 -0.095710173 -0.11056489
-0.0036899894 -0.065504588 -0.11209613
-0.0039601102 -0.050599277 -0.10507828
0.13200104 -0.050500505 -0.10935599
-0.0038871765 0.055192359 -0.10697299
0.13202529 0.055143192 -0.10856885
-0.0036398172 0.070051901 -0.11339968
-0.019032739 0.10055804 -0.10613465
0.11695939 0.10049379 -0.10732788
-0.034140199 0.1307772 -0.10624319
0.086765893 0.14595348 -0.10541403
-0.049034916 0.16070266 -0.10977882
0.071647048 0.1609153 -0.10726881
-0.064425305 0.17619486 -0.10537463
0.056558926 0.17582245 -0.1094051
-0.078969672 0.20562832 -0.11284125
-0.094155923 0.22085993 -0.11137015
-0.10927606 0.23599578 -0.11085957
-0.12438641 0.25111642 -0.11052567
-0.14088339 -0.24812688 -0.097373068
-0.12574749 -0.23299795 -0.096924901
-0.1106047 -0.21786205 -0.096476555
-0.095382482 -0.20263352 -0.096885026
0.026027888 -0.20291801 -0.094042242
-0.080028713 -0.18724589 -0.099083781
-0.064663127 -0.17183627 -0.10194194
-0.065464199 -0.15758087 -0.090379357
-0.049924128 -0.1420026 -0.095339954
-0.034930773 -0.11181282 -0.091571689
0.11728652 -0.11172713 -0.093162775
-0.0195885 -0.081264667 -0.094102025
0.13245998 -0.081251167 -0.094451666
0.13222966 -0.065817639 -0.10193205
-0.0041835606 -0.035567261 -0.099272668
-0.0043165013 -0.020427696 -0.095818698
0.14765592 -0.020436753 -0.094641387
-0.0044175759 -0.0052350466 -0.093192697
0.14768629 -0.0052349772 -0.093852401
-0.0043783486 0.0099700931 -0.094211996
0.14771898 0.0099793905 -0.093002796
-0.0043138266 0.025149316 -0.095888495
0.14775056 0.025206387 -0.092182398
-0.0041212738 0.040225983 -0.10089093
0.14778294 0.040446497 -0.091341317
0.13230908 0.070592545 -0.099352121
-0.019460887 0.085872903 -0.096865058
-0.034736335 0.11634601 -0.095180333
0.10200241 0.13136412 -0.097771168
-0.049741313 0.14650039 -0.098308384
-0.065227747 0.1620564 -0.093792439
-0.079854473 0.191717 -0.10134709
0.041272521 0.19219942 -0.096526325
-0.095104605 0.20699437 -0.1001665
-0.11029686 0.22219494 -0.099809051
-0.12549365 0.23739965 -0.099461436
-0.049581647 0.23722237 -0.10090101
-0.14063478 0.25253582 -0.099680066
-0.17341238 -0.25029442 -0.079775035
-0.15717892 -0.24931604 -0.087718725
-0.14204417 -0.23418985 -0.086602271
-0.035242513 -0.23428409 -0.085786641
-0.12684198 -0.21899244 -0.085988104
-0.11161548 -0.20376946 -0.085534751
-0.096353829 -0.18850864 -0.085413992
0.056346886 -0.18883692 -0.081860423
-0.080920622 -0.17305946 -0.087497473
0.071647048 -0.17325211 -0.085222363
0.086895153 -0.15771595 -0.088623166
0.10218941 -0.14267556 -0.085625529
-0.050632916 -0.12751497 -0.083830595
-0.035518967 -0.097091526 -0.080656409
0.13280568 -0.096972942 -0.083224833
-0.020030774 -0.066353522 -0.084526777
0.14811167 -0.051113792 -0.082800508
0.14782228 -0.035705138 -0.090319157
0.14814591 0.05596406 -0.081911147
-0.019894943 0.071049988 -0.087467372
0.13259588 0.086188234 -0.090038419
-0.035339758 0.10175184 -0.083981991
0.1328854 0.10193211 -0.080636084
0.11735891 0.11666325 -0.090028286
-0.050456643 0.13213171 -0.08669287
-0.066039681 0.14775021 -0.082072854
0.086931966 0.16289912 -0.083840728
-0.080727354 0.1776143 -0.090008318
-0.096053153 0.1929561 -0.088964641
-0.11133018 0.20823844 -0.088623106
0.025785536 0.20878543 -0.08354789
-0.14288485 0.22462068 -0.078801751
-0.12661247 0.22352599 -0.088281572
-0.0048160255 0.22415422 -0.082840979
-0.14175388 0.23865171 -0.089295924
-0.1579909 0.2397121 -0.080686688
-0.1746279 -0.23611774 -0.069906473
-0.15839027 -0.23527227 -0.077228129
-0.15953153 -0.22100171 -0.067344427
-0.14320126 -0.2200833 -0.075865805
0.010154802 -0.2204579 -0.072390437
-0.12794766 -0.20482968 -0.074939609
-0.11263749 -0.18951957 -0.074470937
-0.097322747 -0.17420477 -0.073971748
-0.081823081 -0.15870512 -0.075774193
-0.066274047 -0.14315614 -0.078690112
0.1176942 -0.12802744 -0.075509608
-0.05134625 -0.1128541 -0.072247505
-0.036092721 -0.082191974 -0.070008755
0.14870065 -0.08228863 -0.067498326
0.148406 -0.066642217 -0.075153291
-0.020395108 -0.051256076 -0.076638699
-0.020731114 -0.036027692 -0.069363832
0.16409338 -0.020642698 -0.06788826
0.16413033 -0.0052349772 -0.067087889
-0.020641811 0.040909424 -0.071297407
-0.020312063 0.056071095 -0.078436494
0.1485104 0.071628377 -0.072441518
-0.035940178 0.086982667 -0.072839618
-0.051179819 0.11759188 -0.074949741
-0.066861331 0.13327335 -0.070213377
0.11782454 0.13329753 -0.069865465
0.10231118 0.14808571 -0.077715635
-0.081609562 0.16334723 -0.078548074
-0.097009987 0.17875446 -0.077664852
0.071647048 0.17885303 -0.076598108
-0.11237529 0.19412249 -0.077309489
0.05624982 0.19492899 -0.06925112
-0.14401464 0.21042667 -0.068318784
-0.12771557 0.20946318 -0.077258646
-0.15917546 0.22558752 -0.070428193
-0.17430434 0.24071635 -0.072533429
-0.20739478 -0.23776986 -0.055598795
-0.19098395 -0.23696828 -0.062540948
-0.17585424 -0.22179866 -0.059949696
-0.16068541 -0.20658973 -0.057351887
-0.14437096 -0.20582317 -0.065012455
0.040806007 -0.20570181 -0.06622535
-0.12905438 -0.19049788 -0.063880444
-0.11367005 -0.17510903 -0.063293338
-0.098269701 -0.15970482 -0.062788367
0.10260493 -0.16002445 -0.058636129
-0.082729161 -0.14417361 -0.064003944
0.11810803 -0.14461799 -0.057590067
-0.067093506 -0.12855993 -0.066862106
0.13335699 -0.11322737 -0.065320909
-0.05206731 -0.098020814 -0.060538769
-0.036656491 -0.067122698 -0.05954653
-0.036803804 -0.051713936 -0.056812763
0.16466483 -0.05174391 -0.055515707
-0.036803246 -0.0362208 -0.056823075
0.16430798 -0.036121957 -0.063241839
-0.036804363 -0.020728044 -0.056802392
-0.020857103 -0.020652343 -0.066636205
-0.036804363 -0.0052350466 -0.056802392
-0.020857573 -0.0052349772 -0.066625893
-0.036803804 0.010257985 -0.056812704
-0.020856626 0.010182283 -0.066646397
0.16417065 0.010185649 -0.066215098
-0.036804363 0.025751088 -0.056802213
-0.020857103 0.025599647 -0.066636145
0.16420957 0.02561911 -0.065372348
-0.036804922 0.041244328 -0.056791961
0.16426279 0.041072905 -0.06422025
-0.036804363 0.056737259 -0.056802392
-0.036537372 0.072039537 -0.061757088
0.14887875 0.087443061 -0.062870979
-0.05191163 0.10287888 -0.063066781
-0.067693561 0.11862327 -0.058201253
0.13346227 0.11839543 -0.06190145
-0.082501233 0.14891334 -0.066964746
-0.097978666 0.16439076 -0.06622529
-0.12985201 0.18076406 -0.05591017
-0.11343147 0.17984354 -0.065876067
-0.14513403 0.19606176 -0.05793196
-0.12877758 0.19518958 -0.066646397
-0.16037229 0.2113163 -0.060063422
-0.17557952 0.22653987 -0.062180102
-0.20703131 0.24247907 -0.058221936
-0.19074669 0.24172388 -0.064354002
-0.036687709 0.24238726 -0.058967173
-0.22388285 -0.2385481 -0.048859179
-0.20873183 -0.22330752 -0.045949519
-0.19227615 -0.22258352 -0.052666843
-0.17709285 -0.20733617 -0.049893439
-0.16184962 -0.19203234 -0.047269285
0.071647048 -0.19162992 -0.051625192
-0.14547615 -0.19134063 -0.054757416
-0.14656669 -0.17668863 -0.044638574
-0.13015366 -0.17598943 -0.052895784
0.087152809 -0.17579837 -0.055152297
-0.11471517 -0.1605368 -0.051979363
-0.099227354 -0.14504136 -0.051479101
-0.083641976 -0.12946622 -0.052146137
0.13391508 -0.12977111 -0.047196031
-0.067922786 -0.11378932 -0.0548926
0.14917785 -0.098271996 -0.055100322
-0.052796245 -0.083012074 -0.048702538
-0.052908361 -0.067512728 -0.046881914
0.1650283 -0.06748917 -0.047646224
-0.052908361 -0.051943332 -0.046881974
-0.05290772 -0.036373697 -0.046892464
-0.052909002 -0.02080451 -0.046871543
-0.052909002 -0.0052349772 -0.046871483
-0.052908361 0.010334417 -0.046882033
-0.052909002 0.02590402 -0.046871483
-0.052909002 0.041473486 -0.046871483
-0.052909002 0.057043053 -0.046871543
0.1647104 0.056807235 -0.054528892
-0.052909002 0.072612584 -0.046871483
0.16516045 0.072692834 -0.04478538
-0.052623317 0.087967739 -0.051510394
-0.068534404 0.10379498 -0.046064794
0.14925069 0.10341009 -0.053208172
-0.083403364 0.13431042 -0.055245697
-0.098957673 0.14986014 -0.054663956
0.11830097 0.15027811 -0.049235344
-0.13091595 0.1661644 -0.04527849
-0.1144979 0.16539784 -0.054331303
0.10268834 0.16549221 -0.053218544
-0.14626512 0.1815469 -0.047436893
0.087225504 0.18170649 -0.045708418
-0.161584 0.19689849 -0.049569666
-0.19319087 0.21286686 -0.045676887
-0.17684747 0.21219775 -0.051885605
0.040595494 0.21212587 -0.052552223
-0.19196311 0.22736223 -0.055058718
-0.20830113 0.22805524 -0.049057782
0.0093454756 0.22839598 -0.046106756
-0.022182941 -0.23981002 -0.037930906
-0.24138492 -0.22435737 -0.036207378
-0.22501993 -0.2238317 -0.041084886
0.024616364 -0.22471149 -0.032921433
-0.22627452 -0.20907606 -0.032507241
-0.20991614 -0.20858617 -0.037402451
-0.19354948 -0.20803228 -0.042936862
-0.19475737 -0.19328512 -0.033706844
-0.17831665 -0.19270776 -0.039957404
-0.16302678 -0.17732909 -0.037074804
-0.14766711 -0.16188799 -0.034427941
-0.13124292 -0.16130421 -0.042011261
-0.11576244 -0.14579214 -0.04064244
-0.10019585 -0.13021167 -0.040041745
-0.084565669 -0.11458389 -0.040147126
0.14988631 -0.11477002 -0.03669405
-0.068762764 -0.098841541 -0.042768717
-0.069171906 -0.083467752 -0.036863327
0.16539074 -0.083354749 -0.039799213
-0.069172636 -0.06782151 -0.036852777
-0.069172636 -0.052174881 -0.036852717
-0.069171906 -0.036528155 -0.036863327
0.18125102 -0.036550462 -0.035413384
-0.069173366 -0.02088167 -0.036842167
0.18098176 -0.020854298 -0.040410578
0.18102606 -0.0052350466 -0.039588273
-0.069173366 -0.0052349423 -0.036842167
-0.069172636 0.010411613 -0.036852777
0.18107438 0.010397492 -0.038691282
-0.069173366 0.026058408 -0.036842167
0.18112162 0.026043458 -0.037814796
-0.069173366 0.041705139 -0.036842167
0.1812014 0.041716866 -0.036334455
-0.069173366 0.057351828 -0.036842108
-0.069173366 0.072998554 -0.036842167
-0.069172636 0.088644832 -0.036852777
0.16561484 0.088732786 -0.034947217
-0.08431612 0.11953548 -0.043388724
0.15002988 0.12017754 -0.032963932
-0.11651492 0.13588645 -0.032496691
-0.099948928 0.13516168 -0.042957902
0.13410099 0.13528641 -0.041158617
-0.1319806 0.15140168 -0.034639955
-0.11550099 0.15072164 -0.043472826
-0.14741035 0.16688153 -0.036810458
-0.17916757 0.18287596 -0.033048868
-0.16277553 0.18230303 -0.039250672
-0.19438583 0.19820188 -0.036545932
-0.17800796 0.19760968 -0.04246366
0.071647048 0.19804214 -0.038142145
-0.2259905 0.21407686 -0.03444916
-0.20955044 0.21347421 -0.040041625
-0.24111795 0.22933877 -0.037941396
-0.22466451 0.22869514 -0.043514907
-0.25914395 -0.21001039 -0.023171008
-0.24271193 -0.20956832 -0.027588308
0.055945925 -0.20934956 -0.029773951
-0.22754133 -0.19419611 -0.02384603
-0.21110901 -0.193739 -0.028793693
-0.1958881 -0.17834601 -0.025066495
-0.17952895 -0.17791851 -0.030114591
0.10313578 -0.17842299 -0.02415669
-0.18061149 -0.16289659 -0.021325707
-0.16417888 -0.1624523 -0.027097344
0.11879744 -0.16240302 -0.027737737
-0.14877984 -0.14693794 -0.024103165
-0.13226846 -0.14640729 -0.031763375
0.1344837 -0.14661749 -0.028729737
-0.13330442 -0.13135897 -0.021411657
-0.11680187 -0.13086759 -0.029390514
-0.1011754 -0.11521289 -0.028473854
-0.085501224 -0.099523939 -0.027993917
0.16602033 -0.09960828 -0.026167929
-0.085598186 -0.083857648 -0.026734114
-0.08559902 -0.068133481 -0.026723504
-0.085599825 -0.052409142 -0.026712716
0.18167958 -0.05239179 -0.027460217
-0.085598186 -0.036684036 -0.026734233
-0.085599825 -0.020959662 -0.026712894
-0.08559902 -0.0052349772 -0.026723504
-0.085599825 0.010489674 -0.026712894
-0.085599825 0.026214393 -0.026712835
-0.085599825 0.04193908 -0.026712894
-0.085599825 0.057663761 -0.026712835
0.18173771 0.057673968 -0.026381671
-0.08559902 0.073388033 -0.026723504
-0.08559902 0.089112617 -0.026723564
-0.085230663 0.10457942 -0.031508327
0.16608703 0.10494503 -0.024724066
-0.11751115 0.12087049 -0.021712184
-0.10095085 0.12029067 -0.031125605
-0.13305649 0.13648291 -0.023888886
-0.14852506 0.15203087 -0.026467085
-0.18029708 0.16797662 -0.023878217
-0.16387595 0.16748185 -0.029720724
0.11893833 0.16816629 -0.021637142
-0.21208578 0.18392023 -0.02174437
-0.19558042 0.18339618 -0.0274176
-0.24364638 0.19970571 -0.021518946
-0.22730181 0.19930883 -0.025483668
-0.21081242 0.19876347 -0.030934036
-0.25878221 0.21505117 -0.025408804
-0.24243939 0.21462551 -0.029358506
-0.27670243 -0.19524388 -0.012503922
-0.26039106 -0.1949711 -0.015456557
-0.24398392 -0.19461361 -0.019326389
0.087419659 -0.19450632 -0.020487785
-0.24518615 -0.17949322 -0.011517823
-0.22876525 -0.17915787 -0.015478194
-0.21231353 -0.17876641 -0.020100832
-0.21349081 -0.16364492 -0.011604548
-0.19702986 -0.16328022 -0.016341805
-0.18169004 -0.14773712 -0.012568951
-0.16527887 -0.14739053 -0.017571211
-0.14985844 -0.13180958 -0.014094889
0.15060368 -0.13156559 -0.018056095
-0.13434336 -0.1161529 -0.01102984
-0.11778721 -0.11573834 -0.018723726
-0.10215887 -0.10003822 -0.016859591
-0.102189 -0.084251389 -0.016503572
0.18255034 -0.084451608 -0.011300981
-0.10218993 -0.068448402 -0.016492844
0.18211557 -0.068359897 -0.019369483
-0.10219085 -0.052645266 -0.016482115
-0.10218993 -0.03684172 -0.016492844
-0.10218993 -0.021038385 -0.016492903
0.19834027 -0.021071656 -0.012168109
-0.10218993 -0.0052350122 -0.016492784
0.19839367 -0.0052350122 -0.011300981
-0.10219085 0.010568464 -0.016481936
0.19844912 0.010615302 -0.010400593
-0.10218993 0.026371663 -0.016492784
0.19850463 0.026479388 -0.0094993711
-0.10218993 0.042175069 -0.016492784
-0.10218993 0.057978407 -0.016492784
-0.10218993 0.073781811 -0.016492844
0.18227814 0.07378716 -0.016352475
-0.10219085 0.089585602 -0.016481936
-0.11851899 0.10569515 -0.010802031
-0.10191356 0.10521262 -0.019756734
-0.134094 0.12137479 -0.013521492
-0.16603418 0.13737369 -0.01102984
-0.14956515 0.13697286 -0.016816497
0.15085199 0.13733388 -0.011604667
-0.19788978 0.15331605 -0.0097709894
-0.18143818 0.15294333 -0.014613867
-0.16495946 0.15250267 -0.020337284
0.13475469 0.15253411 -0.019928753
-0.2295714 0.16915457 -0.0099663734
-0.2132012 0.16883887 -0.013694644
-0.19678861 0.16845863 -0.018185318
-0.26119962 0.18496314 -0.010454893
-0.2448127 0.18464079 -0.013943434
-0.2284528 0.18430176 -0.017614245
0.10329469 0.18465079 -0.013835371
-0.27637625 0.20041509 -0.014430165
-0.25999522 0.20006736 -0.017905116
0.055819899 0.21634513 -0.013402522
-0.29429001 -0.18024841 -0.0026003122
-0.27787483 -0.17999594 -0.0055814385
-0.26150694 -0.17974429 -0.0085539222
-0.27904394 -0.16464005 0.0013220906
-0.26263034 -0.16441469 -0.0016047955
-0.24625295 -0.16418502 -0.0045886636
-0.22992277 -0.16395594 -0.0075640678
-0.24732697 -0.14877337 0.0023873448
-0.23094016 -0.14856575 -0.00060814619
-0.21459913 -0.14835808 -0.0036059618
-0.19815722 -0.1480725 -0.0077272654
0.15133604 -0.14867514 0.00097078085
-0.19921798 -0.13270091 0.00037842989
-0.18276575 -0.1324414 -0.0038352609
-0.16629373 -0.1321367 -0.008782208
-0.16731732 -0.11675172 8.2314014e-05
-0.15084061 -0.11647888 -0.0049815178
0.1668942 -0.11635666 -0.007248342
-0.13533038 -0.10076302 -0.0011668205
-0.11875579 -0.10043643 -0.008238554
-0.11894788 -0.084649578 -0.0061591864
-0.11894788 -0.068766654 -0.0061591864
-0.11894889 -0.052884035 -0.0061482191
0.19917512 -0.053058058 0.0013879538
-0.11894788 -0.037000798 -0.0061591864
0.19867073 -0.036990941 -0.0068019032
-0.11894788 -0.021117903 -0.0061591864
-0.11894688 -0.0052350122 -0.0061699748
-0.11894889 0.010648018 -0.0061483383
-0.11894788 0.026530771 -0.0061591268
-0.11894788 0.042413771 -0.0061591268
0.19861779 0.042379007 -0.0076619387
-0.11894788 0.058296621 -0.0061591268
0.19924748 0.058565229 0.0025632381
-0.11894788 0.074179582 -0.0061591268
-0.11894889 0.090062894 -0.0061482191
0.1828233 0.0900589 -0.0062354803
-0.1515874 0.10638224 0.0019478798
-0.13506335 0.10607054 -0.0038353801
-0.18349293 0.12233492 0.0020686984
-0.16709344 0.12209325 -0.0018563867
-0.15057635 0.12174981 -0.0074334741
0.16708264 0.12201244 -0.0031688213
-0.21531543 0.13824618 0.0015634894
-0.19891119 0.1380017 -0.0019658804
-0.18252113 0.13773455 -0.005821228
-0.2471258 0.15415138 0.0010805726
-0.23066959 0.15387903 -0.0024582148
-0.21427101 0.15360834 -0.0059739947
-0.29513222 0.17018113 0.0021565557
-0.27880061 0.16998883 -0.00011497736
-0.26241282 0.16974866 -0.0029502511
-0.2459642 0.16945119 -0.0064643025
-0.29406166 0.18556955 -0.0038899779
-0.27764231 0.18528649 -0.0069543719
0.087530799 0.20125368 -0.0060502291
0.024009388 0.23295331 -0.0066385269
0.039712384 -0.22877769 0.004807651
0.071647048 -0.21313156 0.0080176592
0.10368634 -0.19747077 0.011603355
0.11961833 -0.18112969 0.0078077912
-0.31183976 -0.16502114 0.0062734485
-0.29544178 -0.16483885 0.0039049387
0.13549536 -0.16485575 0.0041249394
-0.31276098 -0.14938797 0.011259794
-0.29646948 -0.14928059 0.0097094178
-0.28014237 -0.14914882 0.007807672
-0.26373282 -0.14896928 0.0052152872
-0.28105012 -0.13348851 0.013167739
-0.26476735 -0.13339284 0.011614561
0.16777977 -0.13341197 0.011924922
-0.248364 -0.13323946 0.0091230273
-0.23196444 -0.13307141 0.0063948035
-0.21556669 -0.13288555 0.0033768415
-0.23293719 -0.11745019 0.013045609
-0.21654078 -0.11730811 0.010406792
-0.20013529 -0.1171454 0.0073881149
-0.18377736 -0.11698323 0.0043782592
-0.20104867 -0.10148052 0.014367521
-0.1846441 -0.10134414 0.011415005
-0.16827698 -0.10120463 0.0083933473
-0.1517995 -0.10099779 0.0039158463
0.18335313 -0.10098311 0.0035967827
-0.15271527 -0.085364416 0.012413085
-0.13587537 -0.085051298 0.0042790174
-0.13587537 -0.069088057 0.0042790174
0.19968623 -0.069254555 0.0096872449
-0.13587649 -0.053125054 0.0042901039
-0.13587537 -0.037161537 0.0042790771
-0.13587537 -0.021198325 0.0042790771
-0.13587429 -0.0052349772 0.0042679906
-0.13587649 0.01072837 0.0042900443
-0.13587537 0.026691547 0.0042790174
-0.13587537 0.042654753 0.0042790174
-0.13587537 0.058618098 0.0042790174
-0.13587429 0.074580893 0.0042681098
0.19988348 0.074912705 0.012890279
-0.16889369 0.090981215 0.013734221
-0.15247518 0.090817459 0.010185301
-0.13587649 0.090545036 0.0042900443
-0.20084953 0.10696954 0.012845874
-0.18442991 0.10679871 0.0096760988
-0.16801311 0.10660633 0.0061081052
0.1834445 0.10656247 0.005292356
-0.2163491 0.1227633 0.0090236068
-0.19990429 0.12255392 0.005622983
-0.24900895 0.12302736 0.013312221
-0.23268247 0.12290371 0.01130414
-0.29713488 0.13907093 0.013467669
-0.28077579 0.13893799 0.011548102
-0.26444682 0.13880517 0.0096319318
-0.24811217 0.13865668 0.0074874759
-0.23177737 0.13849229 0.0051161051
-0.31248683 0.1548208 0.0097758174
-0.29614258 0.15467356 0.0078629851
-0.27982837 0.15452653 0.0059537888
-0.26348543 0.15435188 0.0036848187
0.15169325 0.15485734 0.01025176
0.1357072 0.17093039 0.011004925
-0.33004466 -0.1337764 0.017841578
-0.3136887 -0.13368028 0.016281307
-0.2973572 -0.13358425 0.014723361
-0.33093953 -0.11795925 0.022491455
-0.31459612 -0.11788928 0.021192729
-0.29824927 -0.11781212 0.019761443
-0.2819021 -0.11772788 0.018198431
-0.26557934 -0.11764389 0.016637743
-0.24928102 -0.11755986 0.01507926
0.18440208 -0.11799003 0.023062944
-0.31542888 -0.10200403 0.02570045
-0.29907209 -0.10194432 0.024408817
-0.28273541 -0.10188475 0.023118973
-0.26639351 -0.101818 0.021673918
-0.25005522 -0.10174569 0.020107985
-0.23374143 -0.10167346 0.018544376
-0.21745202 -0.10160133 0.016983151
-0.2508142 -0.085850343 0.025037527
-0.23448107 -0.08579497 0.023601055
-0.21815166 -0.085734643 0.022032261
-0.20184672 -0.085674413 0.020465732
-0.18549198 -0.085591003 0.018298864
-0.1690914 -0.085481167 0.015446305
0.20019799 -0.085579351 0.017997622
-0.2025097 -0.069742493 0.025531828
-0.18618923 -0.069694094 0.023959994
-0.16987644 -0.069641292 0.022245109
-0.15297623 -0.069413073 0.014834583
-0.17025077 -0.053614624 0.025486827
-0.15297623 -0.053368501 0.014834523
-0.17024948 -0.037487902 0.025475621
-0.15297504 -0.037323937 0.014823496
0.2165883 -0.037444152 0.022637069
-0.17024948 -0.021361457 0.025475621
-0.15297504 -0.021279439 0.014823377
0.21618964 -0.021295225 0.016882718
-0.17024687 -0.0052350122 0.02545321
-0.15297383 -0.0052350466 0.01481235
0.21625219 -0.0052350466 0.017785847
-0.17025077 0.010891538 0.025486767
-0.15297623 0.010809556 0.014834523
0.21631481 0.010839218 0.018689454
-0.17024818 0.027017741 0.025464356
-0.15297383 0.026853705 0.01481241
0.21637902 0.026927641 0.019616306
-0.17024818 0.043144047 0.025464416
-0.15297383 0.042897992 0.01481241
0.21653242 0.043060087 0.021830738
-0.17024948 0.059270702 0.025475681
-0.15297504 0.058942765 0.014823377
-0.21869573 0.075415738 0.025958776
-0.20237008 0.075358324 0.024464965
-0.18601251 0.075283624 0.022525072
-0.16967872 0.075206913 0.020532787
-0.15297383 0.074986711 0.01481241
-0.26695359 0.091508083 0.025138676
-0.25066215 0.091457807 0.024049819
-0.23434663 0.091394491 0.022681892
-0.21797177 0.091304563 0.020734131
-0.20162886 0.091215335 0.018801153
-0.18529287 0.091117457 0.016682148
0.20052443 0.091423012 0.023298383
-0.33144033 0.10762946 0.025093734
-0.3151592 0.10758349 0.024240494
-0.29886356 0.10752902 0.023231149
-0.28257033 0.10747049 0.022144258
-0.26626688 0.10740291 0.020890713
-0.24987638 0.1072982 0.01894629
-0.23351797 0.10719422 0.01701647
-0.21718976 0.10709041 0.015090346
-0.33071756 0.12352169 0.021338165
-0.31442049 0.12345418 0.020242095
-0.2981326 0.12338402 0.019102633
-0.28172645 0.12326442 0.01716131
-0.26535261 0.12314574 0.015234947
-0.32993308 0.13933392 0.017261684
-0.31352419 0.13920419 0.015390694
0.16809788 0.13944122 0.018812358
0.11987789 0.18768838 0.019046783
0.15272272 -0.16738635 0.036997974
0.16876137 -0.15090647 0.033177018
-0.34818965 -0.10212039 0.028220475
-0.33170202 -0.10203879 0.026453435
0.20119907 -0.10239902 0.034252703
-0.34855291 -0.086042657 0.030035555
-0.33226764 -0.086017884 0.02939254
-0.31599441 -0.0859937 0.028761268
-0.29972899 -0.085968927 0.028119147
-0.28347352 -0.085944191 0.027477264
-0.26714617 -0.085900061 0.026329756
-0.34914547 -0.069972277 0.032995999
-0.33283705 -0.069952503 0.032351255
-0.31653863 -0.069932655 0.03170681
-0.3002502 -0.069912739 0.031062841
-0.28397176 -0.069893003 0.03041923
-0.26770511 -0.069873504 0.029787362
-0.25144652 -0.06985376 0.029144526
-0.23516491 -0.069827043 0.028276801
-0.21883598 -0.069786832 0.026970923
-0.34963521 -0.053844474 0.035443008
-0.33333385 -0.053832717 0.034932792
-0.31704038 -0.053820953 0.034422696
-0.30075684 -0.053809397 0.033924282
-0.28447333 -0.053796843 0.033380747
-0.26818174 -0.053781994 0.032735765
-0.25190017 -0.05376707 0.032091081
-0.2356286 -0.053752221 0.031446874
-0.21936855 -0.053737618 0.030814469
-0.2031168 -0.053722732 0.030170918
-0.18679863 -0.053693593 0.028907835
0.21717283 -0.053743586 0.031074107
-0.34991005 -0.037662484 0.036816239
-0.33365262 -0.037658982 0.036589205
-0.31740078 -0.037655681 0.036373496
-0.30115026 -0.037652142 0.036146402
-0.28488594 -0.037647083 0.035817325
-0.26859921 -0.037639409 0.035318136
-0.25231847 -0.037631534 0.03480804
-0.23604727 -0.037623905 0.034309447
-0.21977749 -0.037615545 0.033765733
-0.20350429 -0.037605792 0.033131778
-0.18723947 -0.037595801 0.032486916
-0.35006469 -0.021454681 0.037588775
-0.33380345 -0.021453016 0.037372828
-0.31754345 -0.021451281 0.037145615
-0.30128896 -0.021449685 0.036929846
-0.28503591 -0.02144788 0.036702752
-0.26878816 -0.021446181 0.036486924
-0.25254375 -0.02144455 0.036271214
-0.236301 -0.02144278 0.0360443
-0.22006333 -0.021441184 0.03582865
-0.20382753 -0.021439414 0.035601795
-0.18757424 -0.021436326 0.035204828
-0.28516865 -0.0052350466 0.037486553
-0.26891482 -0.0052350466 0.037270665
-0.23641557 -0.0052350122 0.036827564
-0.22017187 -0.0052350466 0.036611915
-0.20392999 -0.0052350122 0.036384881
-0.25266439 -0.0052349772 0.037054658
-0.187693 -0.0052349772 0.036169231
-0.26895893 0.010984344 0.037543237
-0.25269586 0.010982124 0.037259221
-0.23643553 0.010979939 0.03696382
-0.22017974 0.010977648 0.036668658
-0.20392999 0.010975359 0.036384881
-0.18768322 0.010973103 0.036089599
-0.3500624 0.027204221 0.037577391
-0.33378816 0.027199781 0.037293375
-0.31751618 0.027195269 0.036997914
-0.30125079 0.027190899 0.036713958
-0.28498781 0.027186321 0.036418796
-0.26873127 0.027182052 0.036135077
-0.25247735 0.027177403 0.035840034
-0.23622966 0.027173067 0.035556376
-0.21998474 0.027168522 0.035261512
-0.2037459 0.027164148 0.034978092
-0.18749884 0.027158218 0.034592628
-0.34978056 0.04339128 0.036169052
-0.33351719 0.043384686 0.035885394
-0.31725612 0.043377884 0.035590529
-0.30100164 0.043371297 0.035306931
-0.28474957 0.043364562 0.035012066
-0.26849112 0.043356135 0.034649372
-0.25223121 0.043346733 0.034241438
-0.23597771 0.04333733 0.033833563
-0.2197226 0.043326676 0.033369362
-0.20342284 0.043306731 0.032509565
-0.18713781 0.043287158 0.03166157
-0.34948772 0.059554987 0.034705997
-0.33321172 0.059542388 0.034298062
-0.31694409 0.059530176 0.033901572
-0.30068064 0.059517615 0.033493996
-0.28442347 0.05950509 0.033086538
-0.26812139 0.05948282 0.032362461
-0.25181141 0.059456691 0.031514764
-0.23551297 0.059430256 0.030656278
-0.21922624 0.059403509 0.029787421
-0.20295593 0.059377417 0.028941691
-0.18666959 0.05934418 0.027859986
0.21726054 0.059482023 0.032339931
-0.34909335 0.075676672 0.032735884
-0.33281094 0.075656585 0.032215536
-0.31647599 0.075623974 0.031367958
-0.30015224 0.075590946 0.030509591
-0.28384182 0.075557984 0.02965194
-0.26754472 0.075524889 0.028795123
-0.25126091 0.075492032 0.027938843
-0.23498544 0.075457752 0.027049601
-0.34844679 0.091709755 0.029505432
-0.33212447 0.09167017 0.028648555
-0.31581542 0.091630623 0.027792513
-0.29952171 0.091591656 0.026948333
-0.28323919 0.091552109 0.026093721
0.20131989 0.1082287 0.03621453
0.18464117 0.12390114 0.027499795
0.1039245 0.20456842 0.027072072
0.071647048 0.22072771 0.027263403
0.039256778 0.23769206 0.034400105
-0.0098469779 -0.24971709 0.04786706
0.08794108 -0.21705748 0.047247589
0.13662636 -0.18392816 0.040855587
0.18546723 -0.13531519 0.042829573
0.21835537 -0.086739659 0.048142612
0.21776211 -0.070175096 0.03957957
0.23454945 -0.021525249 0.046754479
-0.35021943 -0.0052350815 0.038361907
-0.33395436 -0.0052350122 0.038157165
-0.30142778 -0.0052350122 0.037713766
0.23462096 -0.0052350466 0.047683537
-0.31768832 -0.0052349772 0.037929773
-0.36653253 0.01099392 0.038782656
-0.35026264 0.01099229 0.038577974
-0.33399597 0.010990765 0.038373291
-0.31773242 0.010989133 0.03816849
-0.30147004 0.010987435 0.037952542
-0.2852129 0.010985941 0.03774786
0.23469253 0.011069553 0.048613191
-0.36651596 0.027221465 0.038703144
0.21799757 0.076070838 0.042978108
0.16913763 0.15724933 0.041323125
0.15301889 0.17378309 0.044693053
0.055316377 -0.23386438 0.052006602
0.1206098 -0.20108601 0.050739944
0.20243162 -0.11967152 0.054267049
0.23502384 -0.037910342 0.052917004
0.23476595 0.027388761 0.049566865
0.23496616 0.043760702 0.052167833
0.21873972 0.092826813 0.053689957
0.20272879 0.12584674 0.059092522
0.18586126 0.14161183 0.050141811
0.13700025 0.19082457 0.052997887
0.17050457 -0.16999751 0.070918441
0.18676889 -0.15324879 0.06698519
0.21958074 -0.10385743 0.065829039
0.23636626 -0.071122669 0.070355535
0.2356932 -0.054448783 0.061612248
0.23579976 0.060426019 0.062996745
0.21973614 0.10994548 0.068072379
0.12087862 0.20810181 0.062379897
0.088112928 0.22528727 0.069570482
0.15418252 -0.18681306 0.074924827
0.20368786 -0.13727583 0.074665964
0.23704578 -0.087934397 0.079182684
0.2540009 -0.038390264 0.084086537
0.25344366 -0.021761969 0.077505887
0.25352463 -0.0052350466 0.078462064
0.25360465 0.011306586 0.079407275
0.25368878 0.027863482 0.080400646
0.25394362 0.044482276 0.083410025
0.23664282 0.077262901 0.073948324
0.20416647 0.14384934 0.082437694
0.18711178 0.15971461 0.073348522
0.17090046 0.17672963 0.079490006
0.10486235 -0.22113448 0.087987661
0.13818902 -0.2048609 0.091603875
0.22100785 -0.12140457 0.086427867
0.25476104 -0.05517517 0.093063474
0.25488782 0.061397977 0.094560862
0.23749183 0.094271898 0.084977269
0.22136979 0.12785189 0.091651857
0.15468852 0.19406445 0.088071108
0.18886849 -0.17269422 0.1059491
0.20536494 -0.15566763 0.10189825
0.22246616 -0.13929638 0.10747641
0.23852263 -0.10536031 0.098367751
0.25552142 -0.072098374 0.10204309
0.25584292 0.078490376 0.10584003
0.23871826 0.11171484 0.10090894
0.20566665 0.16228954 0.1067974
0.13863894 0.21248859 0.10621566
0.17231373 -0.18979058 0.11008793
0.25629124 -0.089164235 0.11113423
0.27354366 -0.038884483 0.11618525
0.27289397 -0.022005556 0.1091519
0.27298492 -0.0052349772 0.11013657
0.27307481 0.011550659 0.11110991
0.27316931 0.02835208 0.11213285
0.27348834 0.045225285 0.11558622
0.2568039 0.095759623 0.11718839
0.2230373 0.14615533 0.11572057
0.18938056 0.17977479 0.11545175
0.10525775 0.23003982 0.11366886
0.12244865 -0.22537524 0.13036388
0.24015538 -0.12319081 0.11957771
0.27439559 -0.055922106 0.12540752
0.27454948 0.062399082 0.12707359
0.24058993 0.12991932 0.12522262
0.17297065 0.19741224 0.12431055
0.15645966 -0.20878527 0.13408655
0.20784816 -0.17548639 0.1422208
0.2245789 -0.15816684 0.13797158
0.2418281 -0.14137982 0.14130694
0.25804868 -0.10690858 0.13188869
0.27525359 -0.073103882 0.13469571
0.2929275 -0.022256603 0.14175755
0.27562305 0.079754986 0.13869518
0.25829268 0.11353952 0.13477045
0.071647048 -0.24408726 0.1468634
0.19105017 -0.19286852 0.14643604
0.2599031 -0.12503432 0.15378839
0.27613628 -0.090438835 0.14425093
0.29367781 -0.039393626 0.1492551
0.29302901 -0.0052350122 0.14277178
0.29313061 0.011802124 0.14378709
0.29323357 0.028855184 0.14481562
0.29362613 0.045990951 0.14873856
0.27670336 0.097293071 0.15038973
0.24250108 0.14853366 0.15004927
0.2249714 0.16512538 0.14363664
0.20848967 0.18292364 0.15263754
0.15714255 0.21705328 0.15182883
0.29462895 -0.056692354 0.15875942
0.2948097 0.063430473 0.16056556
0.26041663 0.13205193 0.15985304
0.19187745 0.20087424 0.1617884
0.12312584 0.23499933 0.15968758
0.14074004 -0.22978726 0.17445129
0.24444208 -0.16075052 0.17526358
0.26180136 -0.14352909 0.17620558
0.27818808 -0.10850549 0.1664626
0.29558697 -0.074139677 0.16833264
0.31356841 -0.022515075 0.17534095
0.31368107 -0.0052350466 0.1763863
0.29600853 0.081057891 0.17254514
0.27848762 0.11542207 0.16970509
0.17546245 -0.21286577 0.17825991
0.21042134 -0.19604963 0.18400413
0.22746612 -0.17836733 0.17964476
0.29667759 -0.091785215 0.17923039
0.31443346 -0.039918788 0.18336719
0.31379524 0.012061324 0.17744547
0.3139081 0.029373689 0.17849284
0.31438303 0.046779796 0.18289965
0.29721645 0.098873883 0.18461519
0.26258725 0.15098876 0.18548697
0.24494398 0.1680619 0.18178338
0.28027788 -0.12693636 0.18908519
0.31548813 -0.057486676 0.19315344
0.31569874 0.064493991 0.19510788
0.28087911 0.13425301 0.19559377
0.22826052 0.1861815 0.19111103
0.21144149 0.20445673 0.20056909
0.17643929 0.22181489 0.19940883
0.2824153 -0.1457472 0.21222359
0.29896888 -0.11015277 0.20212656
0.31655061 -0.075207531 0.20301205
0.33484754 -0.022781666 0.20997351
0.33497202 -0.0052349772 0.2110514
0.3350966 0.012328297 0.21213025
0.31702882 0.082401328 0.20744926
0.29933298 0.11736516 0.20576507
0.24776046 -0.18134835 0.21837038
0.26498792 -0.16342294 0.21383721
0.31787989 -0.093175277 0.2153464
0.3358357 -0.040460125 0.21853131
0.33522129 0.029908294 0.21321028
0.33579084 0.047593758 0.21814269
0.31837201 0.1005042 0.21991235
0.28332406 0.15352276 0.2220611
0.26561832 0.17110254 0.22128183
0.14210024 0.24135116 0.21862501
0.19524348 -0.2171146 0.22425419
0.23084092 -0.19980529 0.22835571
0.30131006 -0.12889969 0.22552091
0.3369998 -0.058305599 0.2286126
0.33724514 0.065591194 0.23073715
0.30200839 0.13652587 0.23249918
0.24872808 0.18955415 0.23094028
0.32042778 -0.11185528 0.23898786
0.33817419 -0.076308936 0.23878318
0.35679188 -0.023056583 0.24567789
0.35692883 -0.0052350122 0.24678987
0.33871549 0.083787777 0.24347085
0.32086077 0.1193718 0.24300534
0.23169763 0.20816575 0.24072152
0.16109249 -0.23779313 0.25445098
0.26876473 -0.18443285 0.25843924
0.28625482 -0.16619086 0.25378746
0.30370128 -0.14803764 0.24941581
0.3397744 -0.09461078 0.25264126
0.35791332 -0.041018322 0.25478286
0.35706592 0.012603665 0.24790269
0.35720313 0.030459514 0.2490167
0.35787925 0.048433498 0.25450629
0.34020063 0.10218642 0.2563327
0.1965808 0.22678491 0.24907178
0.32303196 -0.13092747 0.26315147
0.35919648 -0.059150547 0.26520079
0.35948032 0.066723235 0.26750535
0.30474603 0.15614124 0.25985509
0.28703108 0.17425171 0.26219088
0.21585098 -0.22154082 0.27217013
0.25222993 -0.20387624 0.2764309
0.34259462 -0.11361405 0.27706498
0.36049122 -0.077446043 0.27571279
0.36109769 0.085218392 0.28063661
0.34310502 0.12144541 0.28148502
0.32383761 0.13887393 0.2706272
0.26992983 0.19304776 0.27219826
0.32595825 -0.15055577 0.29030424
0.36239383 -0.096093409 0.29115981
0.38070557 -0.041594908 0.29223019
0.37943462 -0.02334021 0.28251845
0.37958664 -0.0052350122 0.28368014
0.37973696 0.012887949 0.28482896
0.37988743 0.031028533 0.28597885
0.38068128 0.049300477 0.29204458
0.25343627 0.21291204 0.29210168
0.2905179 -0.18762743 0.29993683
0.30827487 -0.16905431 0.2951178
0.34547812 -0.1330228 0.30203682
0.3821114 -0.060022794 0.30297285
0.36273506 0.10392297 0.29393047
0.3268849 0.15884648 0.29890257
0.30922258 0.17751543 0.3045879
0.21762292 0.23197584 0.30094332
0.36550501 -0.11543174 0.31641954
0.38353205 -0.078619786 0.31382865
0.38243607 0.067891769 0.30545384
0.3464022 0.14130114 0.31003958
0.291906 0.19666909 0.31496328
0.23733683 -0.22615471 0.3221162
0.27453437 -0.2081223 0.32657534
0.40281168 -0.023633065 0.32056528
0.40297589 -0.0052350466 0.3217501
0.40314025 0.01318129 0.32293636
0.40330678 0.031616114 0.32413834
0.38421285 0.086696059 0.31903082
0.3661021 0.12358909 0.32126719
0.33109424 -0.17202251 0.33796006
0.34905005 -0.15318333 0.33297068
0.38577437 -0.097625472 0.33096296
0.40424222 -0.042189978 0.33088917
0.40422997 0.050195515 0.33080059
0.38601005 0.10571656 0.33276385
0.34978044 0.16164503 0.33929616
0.31306219 -0.19093893 0.34295541
0.36868533 -0.13518925 0.34224051
0.40578213 -0.060924113 0.34200245
0.40615171 0.069099337 0.34466988
0.36973986 0.14381135 0.35080224
0.33223608 0.1809001 0.34855515
0.27617401 0.21788539 0.34593862
0.38919699 -0.11731151 0.35711664
0.40733424 -0.079832144 0.35320395
0.42695531 -0.02393546 0.35984808
0.42713657 -0.0052350466 0.36108726
0.42731583 0.013484413 0.36231285
0.42749524 0.032222673 0.36353964
0.40809584 0.088223055 0.35870034
0.38989088 0.12580658 0.36241883
0.3146998 0.20042491 0.35931927
0.23962711 0.23740286 0.35517377
0.18424389 -0.24919474 0.36838311
0.25976396 -0.23097533 0.37430042
0.40996116 -0.099211171 0.37216204
0.42856231 -0.042805076 0.37083501
0.42856675 0.051120676 0.37086552
0.41023839 0.1076287 0.37416285
0.29781178 -0.21255265 0.37889522
0.35475397 -0.17509916 0.38236815
0.37299228 -0.15590765 0.37720865
0.39269298 -0.1374305 0.38383108
0.37372068 0.16468143 0.3831225
0.33644027 -0.19437297 0.38756496
0.3938911 0.14640926 0.39298588
0.35611987 0.18441355 0.39419729
0.33835772 0.20432334 0.40535694
0.29997414 0.22309206 0.4023034
0.32213008 -0.21718222 0.43356711
0.11326739 -0.15090623 0.63391095
0.52134633 -0.005235116 0.85147327
0.52158523 0.017261889 0.85302466
0 0 0 1 0 0 0 1 0 0 0 1 0 0 0 0 0 1231 1 0 0
