ply
format ascii 1.0
comment PCL generated
element vertex 751
property float x
property float y
property float z
element camera 1
property float view_px
property float view_py
property float view_pz
property float x_axisx
property float x_axisy
property float x_axisz
property float y_axisx
property float y_axisy
property float y_axisz
property float z_axisx
property float z_axisy
property float z_axisz
property float focal
property float scalex
property float scaley
property float centerx
property float centery
property int viewportx
property int viewporty
property float k1
property float k2
end_header
-0.035946026 0.82933402 -0.45020354
-0.010698459 0.82751608 -0.45658565
0.014450849 0.82752055 -0.45656955
0.039649662 0.82934791 -0.4501549
-0.061341137 0.85702348 -0.44168723
-0.035883702 0.8533482 -0.45425165
-0.010672235 0.85166878 -0.45999217
0.014450849 0.85167354 -0.45997632
0.039618373 0.85335749 -0.45421934
0.064979844 0.85704261 -0.44162214
-0.010942512 0.81115276 -0.42488194
0.014450849 0.81114829 -0.42489839
-0.061504938 0.83377981 -0.43459439
0.065089293 0.83380288 -0.43451309
-0.036223266 0.88513696 -0.43219614
-0.010886206 0.88513696 -0.43219614
0.014450849 0.88513696 -0.43219614
0.039787903 0.88513696 -0.43219614
-0.061777741 0.88796347 -0.42278171
0.065271176 0.88798809 -0.42269969
-0.03668594 0.76631713 -0.40214467
-0.011066196 0.76457125 -0.40881491
0.014450849 0.76457125 -0.40881491
0.040019628 0.76633006 -0.40209484
-0.036573302 0.78991443 -0.40946054
-0.011006934 0.78801411 -0.41651368
0.014450849 0.78801841 -0.41649735
0.039963178 0.78992337 -0.40942764
-0.036457356 0.81333953 -0.41699159
0.039905332 0.81335294 -0.41694224
-0.087299645 0.86362135 -0.41913235
0.090765998 0.86365014 -0.41903365
-0.036832776 0.74317145 -0.39260721
-0.011132785 0.74125147 -0.40016508
0.014450849 0.74125147 -0.40016508
0.040093049 0.74318439 -0.39255726
-0.062601075 0.77024686 -0.38713026
0.06581983 0.77026445 -0.38706315
-0.06245143 0.79418498 -0.39361036
0.06572032 0.79420751 -0.39352667
-0.06233082 0.81837165 -0.39883292
0.065640427 0.81840396 -0.39871621
-0.087891884 0.8436619 -0.39989889
0.091214046 0.84373778 -0.39963233
-0.088091694 0.89678162 -0.39340973
0.09136162 0.89683169 -0.39324272
-0.011387213 0.69797152 -0.36711383
0.014450849 0.69797575 -0.36709678
-0.03715349 0.72266108 -0.37177634
-0.011294487 0.72084236 -0.37915933
0.014450849 0.72084236 -0.37915933
0.040253278 0.72266948 -0.37174261
-0.063035898 0.74934584 -0.36830187
0.066110507 0.74937624 -0.36818314
-0.011574683 0.65173221 -0.34276092
0.014450849 0.65173596 -0.34274364
-0.037523944 0.67661357 -0.34771466
-0.011480608 0.67493552 -0.35498142
0.014450849 0.67493933 -0.35496426
0.040438645 0.67662561 -0.34766316
-0.063617788 0.70370102 -0.34310544
-0.037338186 0.69972181 -0.35977995
0.040345628 0.6997298 -0.35974598
0.066497669 0.70371741 -0.34303641
-0.06334392 0.72680265 -0.35496426
0.066315345 0.72682363 -0.35487878
-0.089274451 0.77865672 -0.35499847
0.092249565 0.77871054 -0.35479331
-0.08927761 0.8046158 -0.35489583
0.092251942 0.80467117 -0.35469067
-0.037467156 0.93535179 -0.35140324
-0.011508153 0.93535179 -0.35140324
0.014450849 0.93535179 -0.35140324
0.040409852 0.93535179 -0.35140324
-0.011669441 0.62835979 -0.33045149
0.014450849 0.62836355 -0.33043396
-0.037900027 0.62990397 -0.32328761
0.040626556 0.62991148 -0.32325268
-0.037711311 0.65334296 -0.33554518
0.040532194 0.65335059 -0.33551061
-0.063893594 0.68043607 -0.33116269
0.066681549 0.68045223 -0.33109331
-0.089724526 0.83457017 -0.3403821
-0.011861042 0.581101 -0.30556166
0.014450849 0.581101 -0.30556166
-0.038090117 0.60629481 -0.31094086
-0.011764892 0.60481668 -0.31805193
0.014450849 0.60482031 -0.31803429
0.040721603 0.6063019 -0.31090581
-0.064450689 0.63340592 -0.30703998
0.067053229 0.63342506 -0.306952
-0.064170949 0.65700245 -0.31915283
0.066866726 0.65702188 -0.31906533
-0.090595961 0.73736608 -0.31208122
0.093242437 0.7374354 -0.3118006
-0.090363167 0.76170737 -0.31964183
0.093081519 0.76192909 -0.3187685
-0.038474191 0.55855471 -0.28599441
-0.011957902 0.55721045 -0.29297936
0.014450849 0.55721045 -0.29297936
0.040913779 0.55856496 -0.285941
-0.038281322 0.58250976 -0.298522
0.040817339 0.58252048 -0.29846883
-0.064732417 0.60964102 -0.29484069
0.067241058 0.60965943 -0.29475188
-0.091218576 0.68951237 -0.2918613
0.093710706 0.68959028 -0.29152417
-0.090906344 0.71350986 -0.30200124
0.09347567 0.71358168 -0.30170131
-0.012149618 0.50880241 -0.26807427
0.014450849 0.50880241 -0.26807427
-0.038664892 0.53438061 -0.27360821
-0.012054239 0.53311378 -0.28046477
0.014450849 0.53311378 -0.28046477
0.041009132 0.53439057 -0.27355433
-0.065301955 0.56159848 -0.27017868
0.067620493 0.56161225 -0.27010679
-0.065016173 0.58570594 -0.28255379
0.06742996 0.58572006 -0.2824825
-0.091850817 0.64110351 -0.27132845
0.09418498 0.64117694 -0.27098739
-0.091533199 0.66537607 -0.28164327
0.093947135 0.66545588 -0.28128612
-0.039044835 0.48544419 -0.24892986
-0.012245688 0.48431557 -0.25559485
0.014450849 0.48431557 -0.25559485
0.041198973 0.48545051 -0.2488935
-0.038854189 0.50999969 -0.26131296
-0.065859541 0.51270485 -0.2460345
0.041103784 0.51000917 -0.26125884
0.067992516 0.51272088 -0.24594343
-0.065581031 0.5372467 -0.25809431
0.067806832 0.53726351 -0.25800383
-0.092492364 0.59212267 -0.250494
0.094664551 0.59217709 -0.25022113
-0.092170909 0.61668849 -0.26093352
0.094424255 0.61675251 -0.26062632
-0.039430261 0.43580282 -0.22389591
-0.012439922 0.43480706 -0.23036289
0.014450849 0.43480706 -0.23036289
0.041391686 0.4358086 -0.22385907
-0.039236858 0.46071255 -0.23645782
-0.012342312 0.45964819 -0.24304295
0.014450849 0.45965099 -0.24302459
0.041294985 0.46071851 -0.23642111
-0.066140004 0.48799139 -0.23389041
0.068179496 0.48800665 -0.2337985
-0.093178533 0.542768 -0.22820997
0.095176712 0.54279858 -0.22804427
-0.092827588 0.56748199 -0.2396071
0.094913058 0.56751019 -0.23946071
-0.012637003 0.3845731 -0.20476127
0.014450849 0.3845731 -0.20476127
-0.03962506 0.41071278 -0.21124327
-0.012538104 0.40978175 -0.21760881
0.014450849 0.40978175 -0.21760881
0.041489091 0.41071826 -0.21120608
-0.066706836 0.43804288 -0.20934582
0.068557404 0.4380573 -0.20925272
-0.066422425 0.46310449 -0.22166109
0.068367504 0.46311647 -0.2215873
-0.093887925 0.49285489 -0.2051717
0.095709667 0.4928897 -0.20496655
-0.09353178 0.51789188 -0.21673787
0.095442526 0.51792794 -0.21653414
-0.04001892 0.35998464 -0.18566144
-0.012736487 0.35917634 -0.19183803
0.014450849 0.3591789 -0.19181931
0.041686025 0.35998964 -0.18562365
-0.067282133 0.38738954 -0.18443465
-0.039821275 0.38544089 -0.19849873
0.0415872 0.38544589 -0.19846129
0.068940662 0.38740003 -0.18435919
-0.066993684 0.41280687 -0.19692504
0.068748355 0.4128179 -0.19685006
-0.094246425 0.4676525 -0.19352913
0.095978573 0.4676857 -0.19332242
-0.012937956 0.30782366 -0.16566646
0.014450849 0.30782366 -0.16566646
-0.040218007 0.33434254 -0.17273033
-0.012836848 0.33359486 -0.17880046
0.014450849 0.33359486 -0.17880046
0.041785572 0.33434731 -0.17269218
-0.067572623 0.36179131 -0.17185581
0.06913463 0.36180395 -0.1717608
-0.094972946 0.41675466 -0.16993463
0.096522205 0.41677713 -0.16978252
-0.094608471 0.44228834 -0.18177116
0.096249267 0.44231468 -0.18160093
-0.04061316 0.28243989 -0.14706421
-0.013038038 0.28183627 -0.15266538
0.014450849 0.28183824 -0.15264606
0.04198315 0.282444 -0.14702547
-0.068160303 0.31004751 -0.14640856
-0.040418558 0.30851221 -0.15970409
0.041885845 0.30851662 -0.15966594
0.069526143 0.31005651 -0.14633155
-0.06786564 0.33601284 -0.159168
0.069329686 0.33602238 -0.15909171
-0.095710419 0.36517704 -0.14598441
0.097074032 0.36518973 -0.14588785
-0.095340438 0.39105237 -0.15799975
0.096796975 0.39106846 -0.15788496
-0.040922973 0.22923453 -0.1269412
-0.013198894 0.22878854 -0.13176966
0.014450849 0.22878854 -0.13176966
0.042138059 0.2292382 -0.12690234
-0.068656281 0.25712246 -0.12493205
-0.040773604 0.25595063 -0.13664317
-0.013120241 0.25541592 -0.14198685
0.014450849 0.25541592 -0.14198685
0.042063374 0.2559545 -0.13660431
0.069856204 0.25712657 -0.12489295
-0.068429291 0.28376555 -0.13476133
0.069705471 0.2837739 -0.13468385
-0.096081704 0.33912182 -0.13392651
0.097352952 0.3391363 -0.13381004
-0.013380283 0.03614752 -0.10820663
0.014450849 0.03614752 -0.10820663
-0.041192312 0.063921154 -0.10944736
-0.013344842 0.063765809 -0.11281049
0.014450849 0.063765809 -0.11281049
0.042272583 0.063922048 -0.10942757
-0.069100812 0.091945559 -0.10568345
-0.041144162 0.091574103 -0.11257458
-0.013323079 0.091409266 -0.11563742
0.014450849 0.091410279 -0.11561799
0.042248353 0.091574103 -0.11257458
0.070152566 0.091947734 -0.10564399
-0.041161418 0.11944069 -0.11145413
-0.013331841 0.11925322 -0.11449933
0.014450849 0.11925322 -0.11449933
0.042256981 0.11944069 -0.11145413
-0.041149009 0.14719106 -0.11226022
-0.013324286 0.14696799 -0.11548066
0.014450849 0.14696799 -0.11548066
0.042250928 0.14719246 -0.11224055
-0.041116949 0.17483075 -0.11434233
-0.013306626 0.17456631 -0.11777449
0.014450849 0.17456631 -0.11777449
0.04223505 0.17483361 -0.11430299
-0.069041185 0.20312907 -0.10826588
-0.041045107 0.20221956 -0.11900878
-0.013265808 0.20187484 -0.12307703
0.014450849 0.20187484 -0.12307703
0.042199127 0.20222284 -0.11896968
0.07011281 0.20313235 -0.10822618
-0.068874106 0.23029156 -0.11550021
0.070001423 0.23029517 -0.11546087
-0.096736155 0.28614634 -0.11267281
0.097844273 0.28616101 -0.11253512
-0.096456103 0.31289274 -0.12176764
0.097634226 0.31290859 -0.12163091
-0.041567612 -0.018980518 -0.085070848
-0.013529229 -0.019067973 -0.08885777
0.014450849 -0.019067973 -0.08885777
0.04246008 -0.018980518 -0.085070848
-0.069505028 0.0089329705 -0.088180542
-0.041417804 0.008729063 -0.094801188
-0.013454483 0.0086130276 -0.098567724
0.014450849 0.0086130276 -0.098567724
0.042385325 0.0087295324 -0.09478128
0.070422351 0.0089347363 -0.088120937
-0.097570717 0.037018657 -0.08556962
-0.069291219 0.036561757 -0.097438693
-0.041269097 0.036291555 -0.10446
0.042310823 0.036291555 -0.10446
0.070279501 0.036563411 -0.097399116
0.098467939 0.037020251 -0.085529566
-0.097374514 0.06472972 -0.091941237
-0.069173768 0.064240873 -0.10252452
0.070201203 0.064242691 -0.10248482
0.09832079 0.064731434 -0.091901422
-0.097274236 0.092510432 -0.095197916
0.098245576 0.092512786 -0.095158339
-0.09731824 0.12052983 -0.093768835
-0.069149129 0.11992481 -0.10359108
0.070184775 0.11992729 -0.10355163
0.098279499 0.12053484 -0.09368968
-0.097427793 0.14871858 -0.090211153
-0.069163278 0.14783414 -0.10297883
0.070194207 0.14783691 -0.10293949
0.098361209 0.14872272 -0.090151548
-0.097449854 0.1767434 -0.089494824
-0.069136366 0.17561577 -0.1041441
0.070175961 0.1756172 -0.10412431
0.098377749 0.17674805 -0.089435101
-0.097406358 0.20459895 -0.090907335
0.098345585 0.20460574 -0.090827703
-0.097265072 0.23213939 -0.095495582
0.098240077 0.23214866 -0.095396519
-0.097021878 0.25927818 -0.10339379
0.098057218 0.25928587 -0.10331464
-0.12555154 0.37299991 -0.086207747
0.12647794 0.37310684 -0.085389972
-0.12555999 0.40103066 -0.085988283
0.12648347 0.40113842 -0.085210323
-0.041806694 -0.046750743 -0.06954217
-0.013644812 -0.046817042 -0.073843122
0.014450849 -0.046817042 -0.073843122
0.04257993 -0.046750154 -0.069501758
-0.098170288 -0.018542409 -0.066097975
-0.069720387 -0.018837132 -0.078855038
0.070565626 -0.018836074 -0.078815222
0.098917633 -0.01854153 -0.066057444
-0.097857662 0.009300299 -0.076250672
0.098683156 0.009301357 -0.076210618
-0.12620308 0.037645712 -0.069280505
0.12697648 0.037648603 -0.06919992
-0.12593248 0.065451652 -0.076310992
0.12675937 0.065454528 -0.076250672
-0.12587307 0.093445107 -0.077853918
0.12671247 0.093449637 -0.07777369
-0.12591782 0.12158166 -0.076691747
0.12674764 0.12158519 -0.076631665
-0.12608388 0.14995424 -0.072377086
0.1268805 0.1499583 -0.072316766
-0.12622477 0.17834289 -0.068716884
0.12699507 0.17835222 -0.068596125
-0.12627281 0.26287323 -0.067468286
0.12703724 0.26289737 -0.06722641
-0.12620153 0.29081839 -0.069320679
0.12698081 0.29084659 -0.069059134
-0.12604523 0.31848007 -0.073381543
0.12685575 0.31851012 -0.073120356
-0.12576908 0.3456955 -0.080556035
0.12663665 0.34573495 -0.080235958
-0.042074397 -0.074745618 -0.052154303
-0.013778034 -0.074779332 -0.056537151
0.014450849 -0.074779332 -0.056537151
0.042713627 -0.074745499 -0.052134037
-0.098709211 -0.046428379 -0.048595786
-0.070100754 -0.046640657 -0.062384486
0.070819207 -0.046640009 -0.062344193
0.099321835 -0.04642773 -0.048555255
-0.12697808 -0.018150978 -0.049145341
0.12759712 -0.018148504 -0.049043655
-0.12652528 0.0097726434 -0.060909271
0.12723488 0.0097757727 -0.060808182
-0.15535694 0.038498178 -0.047129869
0.15596049 0.038501292 -0.04704833
-0.15496646 0.066409126 -0.055584311
0.15563506 0.066412657 -0.05550313
-0.15489532 0.094562292 -0.057124615
0.15557732 0.094568655 -0.05700326
-0.15498707 0.12290899 -0.055138111
0.1556538 0.12291636 -0.055016518
-0.15538143 0.15174021 -0.046599865
0.15598243 0.15174867 -0.046477795
-0.12638535 0.20683141 -0.064544678
0.12712416 0.2068433 -0.064403534
-0.12638457 0.23499669 -0.064565182
0.12712291 0.23500802 -0.064443946
-0.042381942 -0.10300829 -0.032178402
-0.01393002 -0.1030084 -0.036793351
0.014450849 -0.1030084 -0.036793351
0.042867403 -0.1030084 -0.032157898
-0.099272937 -0.074577361 -0.030288219
-0.070505776 -0.074689455 -0.044846892
0.07108923 -0.074689217 -0.044806004
0.09974464 -0.074577011 -0.030247211
-0.12766592 -0.046161648 -0.031274796
0.12814805 -0.046159644 -0.031151652
-0.15574925 0.010458387 -0.038636327
0.15628742 0.010460921 -0.038554311
-0.15577479 0.18070121 -0.038083434
0.15631342 0.18071677 -0.037878752
-0.04266474 -0.13156615 -0.013810515
-0.014072497 -0.13153167 -0.018285275
0.014450849 -0.13153179 -0.018264532
0.043008644 -0.13156615 -0.013810515
-0.09990564 -0.10300834 -0.0097407103
-0.070984177 -0.10300834 -0.024131536
0.071408488 -0.1030084 -0.024069548
0.10021965 -0.10300834 -0.0096783638
-0.12843078 -0.074431978 -0.011402726
0.12875935 -0.074431211 -0.011299014
-0.15647256 -0.017546624 -0.022975922
0.15689179 -0.017543614 -0.022852302
-0.18544477 0.039774239 -0.013976336
0.18579665 0.039779961 -0.013831258
-0.18510003 0.0680352 -0.020373583
0.18550114 0.06804198 -0.020228863
-0.18483199 0.09627448 -0.025348067
0.18527041 0.096281126 -0.025224209
-0.18500541 0.12494166 -0.022129536
0.1854229 0.12495445 -0.021923065
-0.18560469 0.15420587 -0.011008263
0.18593471 0.15421738 -0.010842085
-0.15635824 0.21014176 -0.025451064
0.1567997 0.21015929 -0.025244951
-0.15721937 0.24033208 -0.0068073273
0.15752378 0.24036677 -0.0064326525
-0.071822576 -0.16052392 0.012172222
-0.042940367 -0.16039953 0.0040919781
-0.014209979 -0.16032998 -0.00042581558
0.014450849 -0.16032998 -0.00042581558
0.043146458 -0.16039953 0.0040919781
0.071967438 -0.16052493 0.012235284
-0.10046069 -0.13173616 0.008285284
-0.071404934 -0.13162696 -0.0059119463
0.071689002 -0.13162738 -0.0058494806
0.10063595 -0.1317367 0.0083481073
0.1293902 -0.10300829 0.0091879368
-0.12921928 -0.10300823 0.0090829134
-0.15731172 -0.045754068 -0.0048078299
0.15759033 -0.045752477 -0.0047036409
-0.1860006 0.011535443 -0.0036609173
0.1862741 0.011540398 -0.0034940243
-0.18661834 0.18423335 0.0078026056
0.18680944 0.18425597 0.0080963373
-0.07224381 -0.18970294 0.030412078
-0.043218344 -0.18951206 0.022147179
-0.014348791 -0.18940721 0.017606497
0.014450849 -0.18940681 0.017585397
0.043285444 -0.18951206 0.022147179
0.072248265 -0.18970442 0.030475616
-0.10102181 -0.16074464 0.026508093
0.10105681 -0.16074564 0.026571751
-0.12992997 -0.1318845 0.027546883
0.12995876 -0.13188532 0.02765286
-0.15831485 -0.074213982 0.016910553
0.15842633 -0.074213222 0.017015934
-0.18701941 -0.016663983 0.015245438
0.18714744 -0.016660035 0.015414
-0.21690375 0.070507556 0.033153772
0.21689986 0.070519343 0.033408999
-0.21683171 0.099363983 0.03198421
0.21683799 0.099378839 0.032260656
-0.21691947 0.128362 0.03340888
-0.072669171 -0.21916837 0.048830748
-0.043499354 -0.21890876 0.040399313
-0.014488793 -0.21876681 0.035793066
0.014450849 -0.21876681 0.035793066
0.043425951 -0.21890876 0.040399313
0.072531849 -0.2191703 0.048895121
-0.10158778 -0.19003733 0.044888496
0.1014813 -0.1900388 0.04495275
-0.13064772 -0.16104773 0.046194553
0.13053299 -0.16104937 0.046301603
-0.15920372 -0.10300834 0.036155105
0.15916628 -0.10300829 0.03624022
-0.18818174 -0.045113292 0.036815524
0.18814971 -0.045108814 0.037114143
-0.21721986 0.041785926 0.038286686
0.2171834 0.041800529 0.038670659
0.21692394 0.12838954 0.033855677
-0.18899344 0.21668981 0.05187881
0.18886243 0.2167462 0.052544713
-0.014773249 -0.27835298 0.072745204
0.014450849 -0.27835187 0.072723389
-0.073098727 -0.24892421 0.067431211
-0.043782782 -0.24859242 0.058808684
-0.014630324 -0.24841416 0.054178715
0.014450849 -0.24841338 0.054157376
0.043567665 -0.24859242 0.058808684
0.072818562 -0.24892764 0.067517757
-0.10215933 -0.2196185 0.06344986
0.10191047 -0.21962103 0.063536406
-0.13137263 -0.19050236 0.06502831
0.13111229 -0.19050437 0.065114856
-0.16006899 -0.13209489 0.054888606
0.15988736 -0.13209561 0.054974675
-0.18938197 -0.073889501 0.059089065
0.18917365 -0.073887847 0.059283257
-0.21850757 0.013470739 0.05919683
0.21831271 0.013484061 0.059628248
-0.21897735 0.15959848 0.066824675
0.21871801 0.15962099 0.06714952
-0.014917417 -0.30858612 0.091472983
0.014450849 -0.30858612 0.091472983
-0.073532544 -0.27897507 0.086215854
-0.044069335 -0.27856892 0.077420712
0.04371094 -0.27856892 0.077420712
0.073107786 -0.27897915 0.086303353
-0.10273653 -0.24949257 0.082195282
0.1023434 -0.24949598 0.082282424
-0.13210566 -0.2202535 0.084073305
0.13169809 -0.22025549 0.08413887
-0.16094291 -0.1614728 0.073809743
0.16061567 -0.16147421 0.073896766
-0.19043551 -0.10300829 0.07864058
0.19007577 -0.10300823 0.078814864
-0.2200813 -0.01505883 0.084750772
0.21968412 -0.01505129 0.085078835
-0.015063182 -0.3391206 0.11040878
0.014450849 -0.3391192 0.11038661
-0.07397119 -0.30932644 0.10520983
-0.044358719 -0.30884185 0.096216917
0.043855462 -0.30884066 0.096194863
0.073399894 -0.30932999 0.10527611
-0.10332016 -0.27966481 0.10114872
0.10278114 -0.2796689 0.10123718
-0.13284527 -0.2503044 0.10328877
0.13228978 -0.25030696 0.10335469
-0.1627173 -0.22112046 0.11222613
0.16209438 -0.22112316 0.11231494
-0.16182564 -0.19114655 0.092921257
0.16135129 -0.19114856 0.093008995
-0.19150001 -0.13242999 0.098395228
0.19098727 -0.1324311 0.098549366
-0.22171737 -0.043966282 0.11131728
0.22111952 -0.043960094 0.11171639
-0.015210235 -0.3699581 0.129511
0.014450849 -0.3699581 0.129511
-0.074413717 -0.33998054 0.12437177
-0.04465064 -0.33941433 0.11517763
0.044001594 -0.33941433 0.11517763
0.073695265 -0.33998591 0.12446082
-0.10390893 -0.3101379 0.12027013
0.10322274 -0.31014279 0.12035918
-0.13359237 -0.28066015 0.12269878
0.13288817 -0.28066427 0.12278783
-0.16361801 -0.25139904 0.13172734
0.16284503 -0.25140256 0.13181698
-0.19257444 -0.16215837 0.11833382
0.19190829 -0.16216078 0.1184895
-0.01535893 -0.40110612 0.14882708
0.014450849 -0.40110612 0.14882708
-0.074860692 -0.37094295 0.14372635
-0.044945475 -0.37029171 0.13432765
0.044149011 -0.37029171 0.13432765
0.073993266 -0.37094921 0.14381659
-0.10450432 -0.3409186 0.139606
0.10366879 -0.34092277 0.13967359
-0.13434708 -0.31132537 0.1423068
0.13349196 -0.31133023 0.14239705
-0.16452795 -0.28198713 0.15142787
0.16360332 -0.28199124 0.15151846
-0.19366132 -0.19219922 0.13850403
0.19283895 -0.19220234 0.13863909
-0.22305711 -0.073319852 0.13307202
0.22229324 -0.0733165 0.13349795
-0.015509122 -0.43256795 0.16833818
0.014450849 -0.43256599 0.16831529
-0.075312182 -0.4022184 0.16327679
-0.04524361 -0.40148056 0.15369236
0.044298079 -0.40148056 0.15369236
0.074294277 -0.40222532 0.16336787
-0.10510504 -0.37200898 0.15911472
0.10411986 -0.3720153 0.15920556
-0.13511041 -0.34230646 0.16213882
0.13410196 -0.34231046 0.16220701
-0.16544722 -0.31288946 0.17133081
0.16436942 -0.31289434 0.17142236
-0.19475847 -0.22255653 0.15886474
0.19377942 -0.22256078 0.15900099
-0.22441213 -0.1030084 0.15507472
0.22347917 -0.1030084 0.15550566
-0.015660662 -0.46434641 0.18802333
0.014450849 -0.46434641 0.18802333
-0.07576827 -0.43381172 0.18302608
-0.045544405 -0.43298215 0.17322934
0.044448476 -0.43298215 0.17322934
0.07459835 -0.43381953 0.18311799
-0.10571255 -0.40341681 0.17884433
0.10457499 -0.40342206 0.178913
-0.13588071 -0.37360519 0.18215215
0.13471822 -0.3736099 0.18222106
-0.16637492 -0.34410945 0.19141614
0.16514343 -0.34411639 0.19153154
-0.19586851 -0.25323635 0.17946398
0.19473094 -0.25324175 0.17960167
-0.22578271 -0.13303746 0.17733026
0.2246787 -0.13304093 0.17776597
-0.015813921 -0.49645042 0.20793223
0.014450849 -0.4964481 0.20790899
-0.076229557 -0.46572989 0.20299983
-0.045848601 -0.46480507 0.19298732
0.044600572 -0.46480507 0.19298732
0.074905522 -0.46573633 0.20306945
-0.10632556 -0.43514347 0.19875228
0.10503529 -0.43515128 0.19884503
-0.13665901 -0.40522808 0.20237267
0.13534088 -0.40523338 0.20244217
-0.1969891 -0.28424263 0.20026004
0.1956926 -0.28425005 0.20042264
-0.2271691 -0.16341329 0.19984245
0.2258908 -0.16341971 0.20025992
-0.015968747 -0.52888262 0.22804475
0.014450849 -0.52888006 0.22802103
-0.076695025 -0.49797374 0.22315598
-0.046155538 -0.49694985 0.21292365
0.044754043 -0.49694985 0.21292365
0.075216211 -0.49798316 0.22324955
-0.10694557 -0.46719754 0.21888793
0.10549979 -0.46720409 0.21895814
-0.13744541 -0.43718004 0.22280359
0.13597001 -0.43718594 0.22287405
-0.16731331 -0.37565464 0.21173298
0.16592547 -0.37566274 0.21184957
-0.19812298 -0.31558204 0.22130203
0.19666457 -0.31559101 0.2214663
-0.22857158 -0.1941417 0.22261572
0.22711696 -0.19415095 0.22301507
-0.016124979 -0.56164575 0.24834013
0.014450849 -0.56164575 0.24834013
-0.077165313 -0.53055036 0.24351943
-0.046465978 -0.52942616 0.23308742
0.044909261 -0.52942616 0.23308742
0.075529754 -0.53056073 0.24361444
-0.10757126 -0.4995802 0.23920751
0.10596962 -0.49958962 0.23930228
-0.13824093 -0.46946865 0.2434721
0.13660645 -0.46947521 0.24354327
-0.16826476 -0.40753436 0.23233235
0.16672203 -0.40755075 0.23254478
-0.19926907 -0.34725958 0.24257112
0.19764593 -0.3472684 0.24271333
-0.016283013 -0.59475017 0.26886952
0.014450849 -0.59474713 0.2688452
-0.077640474 -0.56346494 0.26409447
-0.046779249 -0.5622341 0.25343454
0.045065898 -0.5622341 0.25343454
0.075846545 -0.56347597 0.26419055
-0.10820416 -0.53230095 0.25976169
0.10644376 -0.53230852 0.25983346
-0.13904299 -0.50209242 0.26431048
0.13724887 -0.50210202 0.26440632
-0.16925155 -0.43979603 0.25369716
0.16754445 -0.43981415 0.25391161
-0.20042633 -0.3792789 0.26404679
0.19863904 -0.37929058 0.26421463
-0.23038149 -0.22542444 0.2520051
0.22881271 -0.22550082 0.25448406
-0.016442504 -0.62819529 0.28958762
0.014450849 -0.62819529 0.28958762
-0.078121148 -0.59672564 0.28490841
-0.04709613 -0.595384 0.27401674
0.045224339 -0.595384 0.27401674
0.07616663 -0.5967347 0.28498113
-0.10884292 -0.56536007 0.28050601
0.10692284 -0.56536835 0.28057849
-0.13985446 -0.53506321 0.28539288
0.13789807 -0.53507364 0.28548992
-0.17025016 -0.47241038 0.27531803
0.16837579 -0.4724282 0.27551067
-0.20159745 -0.41164875 0.28578055
0.19964296 -0.4116618 0.28595006
-0.0786063 -0.63033205 0.30591643
-0.047415931 -0.62887597 0.29478848
0.045384239 -0.62887597 0.29478848
0.076490454 -0.63034499 0.30601418
-0.10948837 -0.59876519 0.30146778
0.10740752 -0.59877729 0.30156529
-0.14067455 -0.56838453 0.3066994
0.13855419 -0.56839573 0.30679739
-0.17125858 -0.50537878 0.29715049
0.16921622 -0.50539839 0.29734552
-0.20278011 -0.44437134 0.30772769
0.20065787 -0.44438791 0.30792391
-0.2329099 -0.25760892 0.29306161
0.23105016 -0.25772214 0.29600585
-0.079097137 -0.66429621 0.32717025
-0.04773945 -0.66272092 0.31580198
-0.016603842 -0.66199273 0.31054652
0.014450849 -0.66199273 0.31054652
0.045545999 -0.66272092 0.31580198
0.076817311 -0.6643064 0.32724416
-0.11014136 -0.63252532 0.32267463
0.10789672 -0.63253486 0.3227483
-0.14150339 -0.60206187 0.3282336
0.1392173 -0.60207421 0.32833278
-0.17227806 -0.53870922 0.31922305
0.17006586 -0.53873044 0.31941998
-0.20397714 -0.47745627 0.32994139
0.20168398 -0.47747457 0.33013976
-0.0795926 -0.69861692 0.34862435
-0.04806599 -0.69691837 0.33701146
0.045709457 -0.69692194 0.33703625
0.07714764 -0.69862789 0.34869921
-0.01676669 -0.69614148 0.33170068
0.014450849 -0.69614148 0.33170068
-0.11080052 -0.66663951 0.34408081
0.1083911 -0.66664982 0.34415567
-0.17330995 -0.57241035 0.34156406
0.1709249 -0.57243043 0.34173834
-0.23551096 -0.29047972 0.33529747
0.23331739 -0.29060826 0.33808005
-0.017044645 -0.76441371 0.36780798
0.014450849 -0.76441371 0.36780798
-0.079962865 -0.73243308 0.36465681
-0.048349619 -0.73101288 0.35543334
-0.016916025 -0.73034585 0.35110009
0.014450849 -0.73034585 0.35110009
0.045851272 -0.73101681 0.35545838
0.077394098 -0.73244071 0.36470735
-0.11146745 -0.7011202 0.36574042
0.10889132 -0.70113134 0.365816
-0.14234115 -0.63610131 0.34999931
0.1398883 -0.63611752 0.35012424
-0.17435214 -0.60648298 0.36412799
0.17179346 -0.60650468 0.36430418
-0.20518607 -0.51090544 0.35237682
0.20272148 -0.51092803 0.35260189
-0.080428191 -0.76716155 0.38480604
-0.048624143 -0.76529568 0.37326443
0.045988344 -0.76529568 0.37326443
0.077704713 -0.76717377 0.38488233
-0.11191057 -0.73481536 0.38013113
0.10922367 -0.73482716 0.38020718
-0.14318798 -0.67050803 0.37199986
0.1405658 -0.67052549 0.37212622
-0.17540596 -0.64093596 0.38694394
0.1726727 -0.6409626 0.38714778
-0.20641801 -0.54474604 0.37523854
0.20378689 -0.54479241 0.37566912
-0.080939077 -0.80253452 0.40692818
-0.048960857 -0.80053699 0.39513433
-0.017212946 -0.79961169 0.38967049
0.014450849 -0.79960746 0.38964498
0.046156701 -0.80053699 0.39513433
0.078044921 -0.8025431 0.40697992
-0.11259019 -0.76997387 0.40220273
0.10973341 -0.76998627 0.40227973
-0.14456701 -0.73907983 0.40782845
0.14166909 -0.73909956 0.40795696
-0.14394763 -0.7049225 0.39173687
0.14117199 -0.70493382 0.39181364
-0.2077577 -0.57916945 0.40010011
0.20493662 -0.57922274 0.40056145
-0.049396805 -0.83725637 0.42345011
-0.017422978 -0.83610636 0.41695487
0.014450849 -0.83611089 0.41698086
0.046375077 -0.83726555 0.42350209
-0.11330356 -0.80565751 0.42536914
0.11026844 -0.80567068 0.42544687
-0.176994 -0.70925033 0.42132604
0.17399719 -0.70928437 0.42155921
-0.17647162 -0.67577565 0.41001618
0.17356183 -0.67580783 0.41024792
-0.20911235 -0.61400992 0.42523921
0.20609923 -0.61407065 0.42573225
-0.081710078 -0.84024203 0.4403137
0.078560948 -0.84027439 0.44049656
-0.1454401 -0.77455026 0.43051207
0.1423676 -0.77457136 0.43064225
-0.17808124 -0.74478185 0.44486535
0.17490232 -0.74481416 0.44507492
-0.14660977 -0.81167501 0.4609009
0.14330421 -0.81170177 0.46105897
-0.21077834 -0.68216902 0.45615637
0.20751537 -0.68220192 0.45639312
-0.21048504 -0.64928126 0.45071328
0.20727487 -0.64934319 0.45118582
-0.17930208 -0.78114355 0.47129738
0.17592183 -0.7811864 0.47156274
-0.21213715 -0.71803296 0.48137271
0.20869006 -0.71809918 0.48182571
-0.2137773 -0.75508869 0.51180995
0.21011619 -0.75522619 0.51270235
0 0 0 1 0 0 0 1 0 0 0 1 0 0 0 0 0 751 1 0 0
