ply
format ascii 1.0
comment PCL generated
element vertex 1338
property float x
property float y
property float z
element camera 0
property float view_px
property float view_py
property float view_pz
property float x_axisx
property float x_axisy
property float x_axisz
property float y_axisx
property float y_axisy
property float y_axisz
property float z_axisx
property float z_axisy
property float z_axisz
property float focal
property float scalex
property float scaley
property float centerx
property float centery
property int viewportx
property int viewporty
property float k1
property float k2
end_header
0.064275436 -0.35212776 -0.22262025
0.082117863 -0.35278174 -0.21892661
-0.13096975 -0.33503029 -0.21889299
-0.11294752 -0.33419794 -0.22380775
0.099575639 -0.3337073 -0.22670436
0.11749725 -0.33453012 -0.22184664
0.13556948 -0.33559096 -0.21558207
-0.14874817 -0.31732199 -0.21858919
-0.13052447 -0.31610408 -0.22612339
0.13511959 -0.31645846 -0.22393107
0.15341489 -0.31797233 -0.21456653
-0.16691492 -0.30037639 -0.21330172
-0.14835638 -0.29869157 -0.22424442
0.15308547 -0.29935798 -0.21991563
-0.16674808 -0.28225887 -0.21546918
-0.14822155 -0.28069076 -0.22619045
0.1529258 -0.28122932 -0.22250813
-0.16691928 -0.26478332 -0.21324515
-0.14834629 -0.26323903 -0.22439003
0.15299487 -0.26365522 -0.22138661
-0.14883161 -0.24644071 -0.21738505
-0.13057335 -0.24540097 -0.22532976
0.13521621 -0.24581867 -0.22213811
0.15343922 -0.24686122 -0.21417147
-0.13118476 -0.22891596 -0.21540147
-0.11295777 -0.22790411 -0.22361737
0.11756828 -0.22831157 -0.22030878
-0.11352035 -0.21138856 -0.21317738
-0.095338762 -0.21043807 -0.22140902
0.081891105 -0.20987436 -0.22629094
0.099906601 -0.21081951 -0.21810538
-0.077734821 -0.19307548 -0.21792543
-0.059890367 -0.19279678 -0.2205109
-0.04208586 -0.19251879 -0.22309089
-0.024321157 -0.19224131 -0.22566509
0.028802618 -0.19235337 -0.22462493
0.046555545 -0.19263113 -0.22204852
0.06434828 -0.19290943 -0.21946621
0.082211137 -0.193294 -0.21589774
-0.024479695 -0.17556657 -0.21536767
-0.006675222 -0.17530724 -0.21795911
0.011089356 -0.17541093 -0.21692318
0.028881874 -0.17567044 -0.21432954
-0.042623762 -0.3740727 -0.19979906
-0.024710942 -0.37397137 -0.20034772
-0.0068066595 -0.37387216 -0.20088458
0.011089356 -0.37391222 -0.20066768
0.028991174 -0.3740114 -0.20013052
0.046901446 -0.37411284 -0.19958174
-0.13172653 -0.35496339 -0.20660412
-0.11355446 -0.35391173 -0.21254432
0.11800478 -0.35421023 -0.21085835
0.13622192 -0.3555176 -0.2034744
-0.1678752 -0.33808976 -0.20082742
-0.14933322 -0.33651191 -0.2101447
0.15391365 -0.33713451 -0.20646781
-0.16728365 -0.31895107 -0.20851201
0.1719133 -0.31962368 -0.20435148
-0.18566917 -0.30211055 -0.20203763
0.17160147 -0.30106142 -0.20885229
-0.18556488 -0.28404328 -0.2032693
0.17147583 -0.2829614 -0.21066588
-0.1859275 -0.26675904 -0.19898707
0.17168561 -0.26556027 -0.20763797
-0.16754606 -0.24804795 -0.20510286
-0.1495423 -0.22993523 -0.20712668
0.13575816 -0.22932506 -0.21208072
0.15408184 -0.2303527 -0.20373654
-0.1318323 -0.21234584 -0.20488667
0.13632517 -0.2127302 -0.20155829
0.11805082 -0.2117714 -0.2098614
-0.11408743 -0.19472131 -0.20265359
-0.095821366 -0.19382609 -0.21096021
0.10030993 -0.19418544 -0.20762658
0.11853829 -0.19508192 -0.19930732
-0.096308894 -0.17706396 -0.20040482
-0.078134291 -0.17634921 -0.20754713
-0.060209222 -0.17608812 -0.21015596
-0.0423242 -0.17582649 -0.21277046
0.04671441 -0.17593059 -0.21172988
0.064587109 -0.17619134 -0.20912457
0.082534418 -0.17656419 -0.2053988
-0.060530595 -0.15922759 -0.19971901
-0.042564951 -0.15898502 -0.20234573
-0.024639659 -0.15874189 -0.20497769
-0.0067550214 -0.15850036 -0.20759243
0.011089356 -0.15859677 -0.20654738
0.028961927 -0.15883857 -0.20393032
0.046874881 -0.15908091 -0.20130712
-0.13287945 -0.37627411 -0.18788314
-0.1146318 -0.37541169 -0.19255143
-0.096547976 -0.37491712 -0.19522864
-0.078540437 -0.37459072 -0.19699484
-0.06056124 -0.37427142 -0.19872391
0.064843163 -0.37439826 -0.19803709
0.082814723 -0.37472001 -0.1962955
0.10081895 -0.37506977 -0.19440204
0.1189317 -0.37573719 -0.19079
0.13718104 -0.37668213 -0.18567514
-0.16869578 -0.35787365 -0.19016773
-0.15013477 -0.35638505 -0.19857514
0.15460368 -0.35697141 -0.19526315
0.17313512 -0.35848475 -0.18671614
-0.18659137 -0.33972919 -0.19114715
0.19110017 -0.34039152 -0.18723607
0.1724214 -0.33873498 -0.19701773
-0.2049311 -0.32240349 -0.18715531
-0.18601082 -0.32064992 -0.19800282
0.1906016 -0.32134354 -0.19371271
-0.20463471 -0.30390787 -0.19036365
0.19031455 -0.30281812 -0.1974417
0.2092393 -0.30464038 -0.18560565
-0.2046624 -0.28597468 -0.19006395
0.1902643 -0.28480014 -0.19809443
0.19065912 -0.26759329 -0.19296545
-0.18676023 -0.2501353 -0.18915296
0.17230161 -0.24887979 -0.19874686
-0.16838574 -0.23152792 -0.19419527
0.17305908 -0.2323139 -0.18781388
-0.15027605 -0.21331012 -0.19653624
0.15475225 -0.21373573 -0.19285041
-0.15101571 -0.19653118 -0.18586022
-0.13248508 -0.19562301 -0.19428718
0.13689797 -0.19598508 -0.19092822
-0.11466031 -0.17790294 -0.19202203
0.10071651 -0.17739838 -0.19706357
0.1190297 -0.17823845 -0.18866831
-0.096800894 -0.16014832 -0.18975258
-0.07853692 -0.15947086 -0.19708645
0.064828359 -0.1593238 -0.19867808
0.082860306 -0.1596806 -0.19481534
0.1011268 -0.16045764 -0.18640381
-0.078943193 -0.14243938 -0.18653095
-0.060854889 -0.1422144 -0.18918747
-0.042807613 -0.14199001 -0.19183803
0.029042706 -0.14185458 -0.19343692
0.047036804 -0.14207874 -0.19079
0.065071791 -0.14230338 -0.18813717
-0.024801243 -0.14176606 -0.19448239
-0.0068355454 -0.14154166 -0.19713235
0.011089356 -0.14162999 -0.19608909
-0.0069168871 -0.12443021 -0.18656576
0.011089356 -0.12451035 -0.18552458
-0.16985051 -0.37862343 -0.17516756
-0.15128146 -0.37735665 -0.18202436
0.15557569 -0.37782675 -0.17947954
0.1742294 -0.37940794 -0.17092156
-0.18747993 -0.35955805 -0.18065393
0.1920355 -0.36054391 -0.17508578
-0.20572722 -0.34186482 -0.17853683
0.21039051 -0.3429701 -0.17201084
0.20964877 -0.32343581 -0.18076998
-0.22420728 -0.30636257 -0.17442
-0.2242716 -0.28835684 -0.17377734
0.20932166 -0.28676903 -0.1846332
-0.20525505 -0.26888439 -0.18364835
0.20992567 -0.26973623 -0.17750031
-0.20624034 -0.25225148 -0.1729821
0.19144508 -0.2509726 -0.18275535
-0.18769665 -0.23351109 -0.17809439
0.19229835 -0.23430216 -0.17167127
-0.16923246 -0.21485046 -0.18319613
0.17382367 -0.21559164 -0.1767776
-0.17008811 -0.19801626 -0.17208099
0.15542898 -0.19696212 -0.18186188
-0.15176301 -0.179599 -0.17507404
-0.13314453 -0.17874782 -0.18357867
0.13747542 -0.17908475 -0.18021214
0.1561121 -0.18002975 -0.17076921
-0.13381009 -0.16171688 -0.17277163
-0.11523847 -0.16092977 -0.18129271
0.11952561 -0.16124026 -0.17793143
-0.097296886 -0.14307587 -0.17901415
0.083189167 -0.14264224 -0.18413508
0.10154131 -0.14336209 -0.17563438
-0.079353176 -0.12525284 -0.17587948
-0.061182126 -0.12504645 -0.17856014
-0.043052483 -0.12484053 -0.18123472
-0.02496412 -0.12463509 -0.18390328
0.029124126 -0.12471551 -0.18285984
0.047200195 -0.12492201 -0.18017715
0.065317437 -0.12512808 -0.17750031
0.083521426 -0.12544797 -0.17334461
-0.02512848 -0.10734807 -0.17322767
-0.0069988789 -0.10716191 -0.17591447
0.011089356 -0.10723464 -0.17486387
0.02920638 -0.10742098 -0.17217475
-0.13473822 -0.40007901 -0.15770024
-0.11636245 -0.39955279 -0.16043442
-0.098033957 -0.39904821 -0.16305608
-0.07976418 -0.39863542 -0.16520119
-0.061548181 -0.39835238 -0.16667199
-0.043357041 -0.39808774 -0.16804719
-0.025200285 -0.39798829 -0.16856396
-0.0070521208 -0.39790466 -0.16899818
0.011089356 -0.39793858 -0.16882217
0.029235531 -0.39802215 -0.16838777
0.047395092 -0.39818946 -0.16751856
0.065580823 -0.39846328 -0.16609573
0.083790682 -0.39875105 -0.16460055
0.10206406 -0.39924133 -0.16205299
0.12038183 -0.39975306 -0.15939379
0.13874982 -0.40029803 -0.15656215
0.19328268 -0.38163176 -0.15888464
-0.18890615 -0.38072157 -0.16381097
-0.20686127 -0.3621065 -0.1662603
0.21138178 -0.36316106 -0.16030431
-0.22548507 -0.34472448 -0.16165161
-0.22469346 -0.32524776 -0.16956151
0.22943193 -0.32646722 -0.16201764
0.22904433 -0.30762613 -0.16621321
0.22927172 -0.2898232 -0.1637519
-0.22510627 -0.2714079 -0.16543657
0.21085355 -0.2530942 -0.16654265
-0.20727612 -0.23552173 -0.16176957
-0.18864197 -0.21672872 -0.16693062
0.19315971 -0.21747327 -0.16048175
0.17459555 -0.19871071 -0.16563672
-0.17095189 -0.18102138 -0.16086006
-0.1525172 -0.16250984 -0.16418803
0.1380582 -0.16202866 -0.16939718
0.15680175 -0.16293634 -0.15957111
-0.1344811 -0.14452711 -0.16187596
-0.11582135 -0.14379889 -0.1704762
0.12002666 -0.14408615 -0.16708362
0.138647 -0.14481549 -0.15847027
-0.11641026 -0.12651004 -0.15954751
-0.097798005 -0.12584665 -0.16816467
0.10195921 -0.12610741 -0.16477716
-0.09830378 -0.10845745 -0.15721434
-0.079766899 -0.10790905 -0.16513038
-0.061512351 -0.10772154 -0.16783571
-0.043299589 -0.10753462 -0.17053479
0.047364902 -0.10760771 -0.16947937
0.065565065 -0.10779491 -0.16677797
0.083856396 -0.10809354 -0.16246629
-0.061845973 -0.090238437 -0.1570009
-0.043548964 -0.090069979 -0.15973663
-0.025294349 -0.089902639 -0.16245431
-0.0070816232 -0.089735582 -0.16516572
0.011089356 -0.089800879 -0.16410559
0.029289387 -0.08996807 -0.16139162
0.047531296 -0.09013547 -0.15867168
-0.17185336 -0.40172461 -0.14914942
-0.15321745 -0.40077561 -0.15408057
0.15724021 -0.40108916 -0.1524511
0.1759249 -0.40224433 -0.14644903
-0.20827666 -0.38309979 -0.15093851
0.21263304 -0.38409948 -0.14552748
-0.22657385 -0.36484885 -0.15077168
0.23105256 -0.365964 -0.14447355
-0.24562225 -0.3477717 -0.1436584
0.23010473 -0.34589598 -0.15473413
-0.24493787 -0.3284086 -0.15000856
0.24954244 -0.31121865 -0.14287877
-0.24468619 -0.30976146 -0.15234393
-0.24526608 -0.29227868 -0.1469633
0.23019257 -0.27302262 -0.15378332
-0.22630696 -0.25480911 -0.15343857
0.21180518 -0.23631802 -0.15530419
-0.20832179 -0.21863171 -0.15044975
0.21276593 -0.2193813 -0.14395809
-0.18959531 -0.19978455 -0.15567225
0.19402932 -0.20048368 -0.14918542
-0.19055882 -0.1826793 -0.14429373
0.17537476 -0.18166891 -0.15438944
-0.17182307 -0.16386266 -0.1495434
0.17616145 -0.16446388 -0.1430347
-0.15327761 -0.14526065 -0.15321261
0.15749794 -0.14567956 -0.14826596
-0.13515906 -0.12717824 -0.1508671
0.12053179 -0.12677187 -0.15614694
0.13924065 -0.12744102 -0.14745349
-0.11700465 -0.10906008 -0.14851677
0.10238144 -0.10869345 -0.15380728
0.12104219 -0.10929701 -0.14509648
-0.098813727 -0.090905219 -0.14617383
-0.080184437 -0.090405867 -0.15428251
0.065815233 -0.090303406 -0.1559453
0.084194846 -0.090578735 -0.15147471
0.10280716 -0.09111625 -0.14274681
-0.08060582 -0.072740987 -0.14333463
-0.062182315 -0.072593182 -0.14607811
-0.043800905 -0.07244499 -0.14882725
-0.025461741 -0.072296634 -0.15158188
-0.0071651274 -0.072149143 -0.15431833
0.011089356 -0.072206825 -0.15324825
0.029373068 -0.07235378 -0.1505214
0.047699228 -0.072502255 -0.14776427
0.066067711 -0.072650596 -0.14501268
-0.0072494922 -0.054400921 -0.14335865
-0.081143543 -0.42397892 -0.12936407
0.084898107 -0.4241246 -0.12863576
-0.062640965 -0.42361477 -0.13118309
-0.044186842 -0.42342812 -0.13211566
-0.025749892 -0.42327791 -0.13286608
-0.0073278463 -0.423215 -0.13318056
0.011089356 -0.4232392 -0.13305962
0.029510561 -0.42331916 -0.13266033
0.047945373 -0.42349601 -0.13177663
0.066403329 -0.42375547 -0.13048017
-0.21016429 -0.40531284 -0.13050431
-0.19079249 -0.4031902 -0.14153415
0.19489799 -0.40388933 -0.13790101
-0.22797889 -0.38572451 -0.13673174
-0.24678665 -0.36802128 -0.13285393
0.25019503 -0.34900814 -0.13635778
-0.26566401 -0.33182248 -0.12889069
0.24963133 -0.32970479 -0.1419906
0.25024936 -0.29390934 -0.13581473
-0.24650401 -0.27555922 -0.13547677
0.23130634 -0.25634187 -0.14172632
-0.22751993 -0.23804069 -0.14131796
0.23243152 -0.23949066 -0.12954605
-0.22874534 -0.22110012 -0.12907284
-0.20937644 -0.20157781 -0.13903314
0.21373594 -0.20228159 -0.13250297
0.19490726 -0.18333106 -0.13778055
-0.19153059 -0.16540775 -0.13281751
-0.1727035 -0.14653996 -0.13810575
0.1769557 -0.14709331 -0.1315707
-0.15404594 -0.12785138 -0.14212263
0.15820085 -0.12825714 -0.1368522
-0.15482149 -0.11027862 -0.13092858
-0.13584337 -0.10966706 -0.13975501
0.13984051 -0.10990496 -0.13632149
-0.13653339 -0.091990501 -0.12855089
-0.11760396 -0.091445804 -0.13739485
0.12155681 -0.091657668 -0.13395452
-0.099328995 -0.073189199 -0.13501781
0.08453609 -0.07289964 -0.14039248
0.10323686 -0.073374331 -0.13158268
-0.081031121 -0.054912306 -0.13228512
-0.062521763 -0.054784499 -0.13505405
-0.044054903 -0.054656319 -0.13782865
-0.025630865 -0.05452843 -0.14059669
0.011089356 -0.054449633 -0.14230275
0.029457614 -0.054577306 -0.13953847
0.047868527 -0.054705277 -0.13676786
0.066322252 -0.054833591 -0.13399065
0.084880538 -0.055054568 -0.1292063
-0.025801376 -0.03659457 -0.12952197
-0.0073345536 -0.036487319 -0.13230932
0.011089356 -0.036528341 -0.13124365
0.029542945 -0.036635719 -0.12845373
-0.15572311 -0.42627037 -0.11791486
-0.13697217 -0.42556763 -0.12142587
-0.11829224 -0.42492795 -0.12462211
-0.099678755 -0.42436284 -0.12744534
0.10343403 -0.42456004 -0.12646031
0.12204304 -0.42516708 -0.12342745
0.14071299 -0.42582697 -0.1201303
0.15946373 -0.42658457 -0.11634564
0.21444455 -0.40653872 -0.12413466
0.23256944 -0.38732797 -0.12805277
0.25162822 -0.36993656 -0.12203634
-0.26693848 -0.35214198 -0.11785358
-0.26585761 -0.31363034 -0.12721425
-0.26700923 -0.29662597 -0.11724073
0.25146583 -0.27719676 -0.12365919
-0.24783018 -0.25877011 -0.12317133
0.23356822 -0.22246638 -0.11724073
-0.22998218 -0.20398331 -0.11671358
-0.21044239 -0.18436047 -0.12749374
0.21471533 -0.1850166 -0.12093711
-0.21151754 -0.16697463 -0.11585486
0.19579367 -0.16601293 -0.12626576
-0.19251281 -0.14796998 -0.12121809
0.19668868 -0.148527 -0.11463928
-0.17359251 -0.12904967 -0.12655765
0.17775764 -0.12955478 -0.11999571
-0.17448917 -0.11138843 -0.11490941
0.15891051 -0.11066656 -0.12532848
-0.1556035 -0.092539221 -0.11964107
0.14044535 -0.0922032 -0.1250971
-0.13723065 -0.074147686 -0.11722857
-0.11820957 -0.073666692 -0.12615609
0.12207627 -0.073852494 -0.12270778
-0.11882091 -0.055719391 -0.1148113
-0.09984912 -0.055306263 -0.12375671
0.10367107 -0.055465885 -0.12030149
-0.081460372 -0.036917426 -0.12113261
-0.062864371 -0.036810003 -0.12392741
-0.04431127 -0.036702201 -0.12672794
0.048039589 -0.036743388 -0.12565708
0.066579439 -0.03685119 -0.12285429
0.0852286 -0.03704191 -0.11790252
-0.044570025 -0.018580273 -0.11552328
-0.02597348 -0.018493406 -0.11834353
-0.007420403 -0.018406749 -0.12115705
0.011089356 -0.018439904 -0.12008137
0.029629074 -0.018526688 -0.11726528
0.048212245 -0.01861348 -0.11444283
-0.19362378 -0.42823511 -0.10809851
-0.17460743 -0.42717937 -0.11337328
0.17835118 -0.42756858 -0.11142874
0.19740066 -0.4287771 -0.10539043
0.23472583 -0.41027701 -0.10470939
-0.23039894 -0.40876833 -0.11254907
-0.24889672 -0.39005819 -0.11327493
0.25349244 -0.39188117 -0.10340822
-0.26857927 -0.37319306 -0.10364366
0.27204528 -0.35444143 -0.1042757
0.27114439 -0.33445033 -0.11263514
0.27135676 -0.31617835 -0.11066461
-0.26845196 -0.27981728 -0.10474658
0.25270334 -0.26032445 -0.1112932
-0.24917006 -0.2418071 -0.11073864
0.23471782 -0.20526761 -0.10479593
-0.23123309 -0.18669018 -0.10421371
0.2157042 -0.16758402 -0.10925877
-0.21260433 -0.14942026 -0.10408998
-0.19350462 -0.1303623 -0.10950553
0.19759335 -0.13087173 -0.10288727
0.17856823 -0.11184663 -0.10829604
-0.17539555 -0.093555674 -0.10313523
0.15962709 -0.092905506 -0.11369288
-0.1563938 -0.074632481 -0.10823417
0.1410559 -0.074334294 -0.11376667
0.16035064 -0.074971423 -0.10194409
-0.13793454 -0.056135625 -0.10579884
0.12260123 -0.055879682 -0.11134243
0.14167291 -0.056296542 -0.10231638
-0.11943738 -0.037601121 -0.1033709
-0.1003736 -0.037253596 -0.11240137
0.10410894 -0.037387408 -0.1089257
-0.10090364 -0.019029751 -0.10092568
-0.08189366 -0.01875414 -0.10987556
-0.063210189 -0.018667355 -0.11269665
0.066839032 -0.018700644 -0.11161351
0.085579589 -0.018857993 -0.10650396
-0.063559256 -0.00035420433 -0.10136044
-0.044831209 -0.00028834864 -0.10421371
-0.026147194 -0.00022257492 -0.10706043
-0.0075070569 -0.00015701354 -0.10990036
0.011089356 -0.00018206239 -0.10881448
0.029715914 -0.00024741516 -0.10598457
0.048386335 -0.00031318516 -0.10313535
0.067100778 -0.0003792122 -0.10027933
-0.10154545 -0.45122442 -0.087029934
-0.082693234 -0.45079377 -0.089101911
-0.063909687 -0.45061138 -0.089979768
-0.045159929 -0.45061138 -0.089979768
-0.026410166 -0.45061138 -0.089979768
-0.0076604048 -0.45061138 -0.089979768
0.011089356 -0.45061138 -0.089979768
0.029839117 -0.45061138 -0.089979768
0.048588876 -0.45061138 -0.089979768
0.067338638 -0.45061138 -0.089979768
0.086136684 -0.45093724 -0.088411808
0.10499041 -0.45143351 -0.086024284
-0.2130563 -0.43001664 -0.099197388
0.21695946 -0.43096995 -0.094434977
-0.25128573 -0.41289479 -0.091107726
-0.27056879 -0.39502078 -0.086414218
0.27344689 -0.3753837 -0.091270566
0.27277511 -0.29951277 -0.09750402
-0.26990971 -0.26283339 -0.092121959
0.25395367 -0.2432777 -0.098799109
-0.25052392 -0.22466773 -0.098176718
0.25521702 -0.22605354 -0.086175203
0.2358782 -0.18788902 -0.092234492
-0.23249705 -0.16921666 -0.09158361
0.21670276 -0.14998117 -0.097466588
-0.2137018 -0.13169378 -0.092209458
-0.19450507 -0.11258136 -0.09769094
0.19850592 -0.1130427 -0.091032505
0.17938587 -0.093964651 -0.096494317
-0.17630985 -0.075547278 -0.09125793
-0.1571916 -0.056555055 -0.096718788
0.16108204 -0.056862272 -0.090067625
-0.13864437 -0.037951328 -0.094272614
0.12313058 -0.037735432 -0.09988153
0.14229512 -0.038086191 -0.090769529
-0.12006041 -0.019310497 -0.091809034
0.10455143 -0.019137345 -0.097429276
0.12366556 -0.0194185 -0.088298798
-0.10143875 -0.00063179433 -0.089340329
-0.082332455 -0.00042086095 -0.098475456
0.085933909 -0.00050117448 -0.094997048
-0.082779273 0.018084776 -0.086866617
-0.063911617 0.018131759 -0.089917064
-0.045095146 0.018175889 -0.092785001
-0.026322737 0.018220186 -0.095658541
-0.0075945267 0.018264439 -0.098537683
0.011089356 0.018247798 -0.097454071
0.029803667 0.018203627 -0.094584823
0.048562258 0.018159289 -0.091708779
0.067365289 0.018114906 -0.088825703
-0.0076829186 0.036860012 -0.087055206
-0.17778686 -0.45433357 -0.072071195
-0.15855178 -0.45329121 -0.077086329
-0.13946204 -0.45247868 -0.080995321
0.1428981 -0.45277283 -0.079579949
0.16198766 -0.45364949 -0.075361967
-0.12046573 -0.45179448 -0.084287167
0.12390382 -0.45203289 -0.083140492
-0.23316169 -0.43286985 -0.084942102
0.23746613 -0.43485078 -0.075044751
0.25566337 -0.41470236 -0.081714869
0.27537489 -0.39742872 -0.073381066
-0.29010212 -0.35850605 -0.080275178
-0.28995278 -0.33948559 -0.081487656
0.27438971 -0.28289682 -0.082522511
-0.27145579 -0.24574929 -0.078732491
-0.25189054 -0.20734769 -0.08549583
0.25649482 -0.20865056 -0.073406458
-0.25327292 -0.18984707 -0.072669148
0.2370507 -0.17032914 -0.079541922
-0.23377424 -0.1515601 -0.078820944
0.21771215 -0.13220666 -0.085546255
-0.21480893 -0.11379145 -0.080224514
0.21878533 -0.11430085 -0.072872519
-0.19551639 -0.094626471 -0.08574748
0.19942747 -0.095038235 -0.07906127
-0.19653666 -0.076493427 -0.07369864
0.18021154 -0.07590723 -0.084576964
-0.17723416 -0.057361931 -0.079251051
0.18104534 -0.057671711 -0.072541952
-0.15801799 -0.038316332 -0.084790945
0.16181985 -0.038574375 -0.078086734
-0.15885429 -0.019898281 -0.072719812
-0.13936177 -0.019593291 -0.082623482
0.14292398 -0.019701846 -0.079099298
-0.12068941 -0.0008444488 -0.080136061
0.1242051 -0.00092564523 -0.07661736
0.10499768 -0.00071277842 -0.085835576
-0.10197899 0.017942723 -0.077643633
0.086292014 0.018030938 -0.083367467
0.10544819 0.017888635 -0.074130535
-0.083229907 0.03676831 -0.075158954
-0.064267322 0.036793105 -0.078365445
-0.045361295 0.036815379 -0.081260443
-0.026499748 0.036837697 -0.084161162
0.011089356 0.036851648 -0.085973859
0.029892251 0.036829416 -0.083077431
0.048739847 0.03680693 -0.080173969
0.067632303 0.036784574 -0.077263594
-0.026678447 0.055632222 -0.072554708
-0.0077720536 0.055632178 -0.07547617
0.011089356 0.055632304 -0.074384689
-0.21679334 -0.45710382 -0.058742762
-0.19717339 -0.45555815 -0.066179514
0.18122704 -0.45478085 -0.069919348
0.20059937 -0.45604482 -0.063837767
-0.29153782 -0.37939432 -0.068618774
0.2954905 -0.36148947 -0.062658906
-0.29142001 -0.32250446 -0.069575191
0.27602431 -0.26607454 -0.067354918
-0.27323189 -0.22868901 -0.063350916
0.25778481 -0.19106323 -0.060516119
-0.25466987 -0.17216145 -0.059706807
0.23823547 -0.15258506 -0.066716194
-0.23506491 -0.13371725 -0.06592381
-0.21592818 -0.095712796 -0.068108201
0.21987733 -0.096213594 -0.059976578
0.20035811 -0.076855823 -0.066971898
-0.19756815 -0.058180951 -0.061517477
-0.17816761 -0.038996324 -0.067125082
0.1818874 -0.039255634 -0.060387611
0.16256499 -0.020105556 -0.065987706
-0.1596989 -0.0012972057 -0.060528994
-0.14008607 -0.0010585338 -0.070862055
0.14355822 -0.0011401102 -0.067329526
-0.14081661 0.017655764 -0.058999777
-0.12132379 0.017799873 -0.068363547
0.12474983 0.017745405 -0.064823627
-0.10252385 0.036696736 -0.065847158
0.086653158 0.036741242 -0.071638584
0.10590356 0.036669377 -0.062299848
-0.083685376 0.055632222 -0.063325524
-0.045629974 0.055632178 -0.069626093
0.048918933 0.055632222 -0.068542123
0.067901872 0.055632178 -0.065591216
0.087017797 0.055632222 -0.059796691
-0.064626805 0.055632304 -0.066690803
0.02998158 0.055632263 -0.071473122
-0.045901228 0.074629106 -0.05788064
-0.026858848 0.074606247 -0.06083715
-0.0078620398 0.074583635 -0.063786626
0.011089356 0.074592084 -0.062684536
0.030071862 0.074614689 -0.059745431
0.22041069 -0.45815656 -0.053677917
-0.25515413 -0.43881989 -0.05521369
-0.27428174 -0.41998625 -0.054258943
0.29605266 -0.34331641 -0.057790518
-0.29332876 -0.3058643 -0.054078102
0.27767938 -0.24904206 -0.051998019
-0.27503043 -0.21141294 -0.047775149
0.25908843 -0.17329 -0.047489524
-0.2560817 -0.15428792 -0.046606898
0.23943396 -0.13465494 -0.053742528
-0.23636928 -0.11568525 -0.052889824
-0.21705741 -0.07745336 -0.055884242
0.22098088 -0.07793507 -0.04694438
0.20129803 -0.058492996 -0.054762125
-0.19860993 -0.039685614 -0.049214721
-0.17910938 -0.020447277 -0.054891229
0.18273786 -0.020655982 -0.048112392
0.16331749 -0.0014532916 -0.053768277
-0.16055106 0.017489925 -0.048229218
0.14419858 0.017600961 -0.05544591
-0.14155503 0.036551617 -0.047009349
-0.12196499 0.036624491 -0.056464195
0.12530044 0.036597051 -0.052902818
-0.1030746 0.055632178 -0.053923249
0.10636284 0.055632222 -0.050367475
-0.12261245 0.055632263 -0.044448972
-0.084145263 0.074679166 -0.051377177
-0.064989343 0.074651882 -0.054916978
0.049099926 0.074637517 -0.05678618
0.068173714 0.074660376 -0.053819895
0.08738637 0.074706435 -0.047827005
-0.046175085 0.093808435 -0.046022177
-0.027040981 0.093762539 -0.049007297
-0.0079528904 0.093716726 -0.051985025
0.011089356 0.093733877 -0.050872445
0.030163009 0.093779519 -0.047904849
0.049282663 0.093825497 -0.044917226
-0.16180021 -0.48224643 -0.030199289
-0.14229661 -0.48121873 -0.034967303
-0.12292305 -0.48041734 -0.038684964
0.1260127 -0.48067668 -0.037482023
0.14539328 -0.48158351 -0.033275008
-0.10364334 -0.47978702 -0.041609526
-0.084469557 -0.47949764 -0.042951941
-0.065357774 -0.47949764 -0.042951941
-0.046245996 -0.47949764 -0.042951941
-0.02713421 -0.47949764 -0.042951941
-0.0080224266 -0.47949764 -0.042951941
0.011089356 -0.47949764 -0.042951941
0.030201137 -0.47949764 -0.042951941
0.049312919 -0.47949764 -0.042951941
0.068424709 -0.47949764 -0.042951941
0.087536484 -0.47949764 -0.042951941
0.1067386 -0.48000351 -0.040604949
-0.23746033 -0.46058634 -0.041987538
0.24138772 -0.46253911 -0.032592177
0.25971863 -0.44162628 -0.041192174
0.27957276 -0.42380247 -0.034429669
-0.29612893 -0.40519518 -0.031343699
0.29901844 -0.38585898 -0.032106161
0.29777962 -0.32662144 -0.04283452
-0.29526174 -0.28901267 -0.038384318
0.27935526 -0.23179555 -0.036447883
-0.27685037 -0.19391549 -0.032014132
0.2604059 -0.1553279 -0.034324765
-0.25750861 -0.13622341 -0.033366919
0.24064393 -0.11653374 -0.04064405
-0.23768751 -0.097461253 -0.039717197
-0.2181991 -0.059011944 -0.043524981
0.22209726 -0.059462979 -0.033760667
-0.21935107 -0.040384643 -0.031054378
0.20224729 -0.039946683 -0.042430758
-0.19966108 -0.021004304 -0.036801338
0.20320609 -0.02121444 -0.029975533
-0.18006156 -0.0017130598 -0.042521954
0.18359682 -0.0018702857 -0.035714269
-0.18102232 0.017209858 -0.030041337
0.16407752 0.017385192 -0.041426897
-0.16141267 0.036465377 -0.035792947
0.14484587 0.036524087 -0.043433785
0.12585579 0.055632178 -0.040878892
-0.14230067 0.055632263 -0.034901738
0.14549877 0.055632263 -0.031317353
-0.12326553 0.074825838 -0.032329321
-0.10363069 0.074752249 -0.04188323
0.10682658 0.074779645 -0.038318992
-0.10419164 0.094059251 -0.029738545
-0.084609151 0.093911611 -0.039325237
-0.065355368 0.093854576 -0.043029904
0.068448476 0.093871683 -0.041922331
0.087758131 0.093966581 -0.035753608
-0.065724932 0.11324295 -0.031028152
-0.046451591 0.11317319 -0.034049153
-0.027224872 0.1131035 -0.037063122
-0.0080446145 0.11303407 -0.040069699
0.011089356 0.11305971 -0.038959503
0.030255038 0.1131293 -0.035950184
0.049467161 0.11319894 -0.032933474
0.068725899 0.11326871 -0.029909611
-0.20126724 -0.48491177 -0.017833591
-0.18144475 -0.4834632 -0.024554014
0.16488738 -0.48266086 -0.028276443
0.18453047 -0.48396239 -0.022238255
-0.29721943 -0.27194583 -0.022490025
0.28105232 -0.2143307 -0.02070117
-0.27869514 -0.1761954 -0.016037822
0.26173741 -0.13717395 -0.02101922
-0.2589508 -0.11796501 -0.019984603
0.24186678 -0.09821941 -0.027406096
-0.2390199 -0.079042062 -0.026403308
0.22322446 -0.040792808 -0.020449042
-0.22051591 -0.021569483 -0.018444777
-0.20072392 -0.0021350123 -0.024249911
0.20417456 -0.0022933707 -0.017394781
0.18446442 0.017104369 -0.023191452
-0.18199381 0.036323875 -0.017421365
0.1648452 0.036412716 -0.02896142
-0.16228297 0.055632222 -0.023231268
0.1656206 0.055632263 -0.016370535
-0.14305361 0.074900098 -0.022675157
0.12641719 0.074853487 -0.028724432
0.14615878 0.074927837 -0.019068837
-0.12392573 0.094207987 -0.020077705
0.10729539 0.094114602 -0.026139259
0.12698349 0.094263583 -0.016463757
-0.10475869 0.11355626 -0.017461181
-0.085078061 0.11333272 -0.027142286
0.088133536 0.11341538 -0.023562193
-0.066098087 0.13281968 -0.018909454
-0.046731081 0.13272609 -0.021946788
-0.027410749 0.1326324 -0.024990082
-0.0081372252 0.13253853 -0.028038979
0.011089356 0.1325731 -0.026918054
0.030347958 0.13266665 -0.023879647
0.049653247 0.13275996 -0.020846844
0.069005705 0.13285397 -0.017793655
-0.0082308399 0.15223321 -0.015878201
-0.22156124 -0.48721924 -0.0071284771
0.20434974 -0.48549685 -0.015119076
-0.29920226 -0.25465935 -0.0063911676
0.28277102 -0.19664359 -0.0047537088
0.26308325 -0.11882509 -0.0075708628
-0.26040861 -0.099509478 -0.0064581633
0.24310276 -0.079708904 -0.014026523
-0.24036661 -0.060424343 -0.012946248
0.22436374 -0.021922089 -0.0069944859
-0.22169134 -0.0025629736 -0.0057201385
-0.20179638 0.016925797 -0.01158452
0.20515387 0.016819343 -0.0046732426
0.18534173 0.036270879 -0.010528803
-0.18297516 0.055632263 -0.0046731234
-0.16316117 0.074993402 -0.010555506
0.16640386 0.075046562 -0.0036519766
-0.14381318 0.094357848 -0.010341644
0.1468246 0.094413742 -0.0067129135
-0.12459244 0.11378153 -0.0077047348
0.10776828 0.11363956 -0.013853073
0.12755537 0.11386529 -0.0040820837
-0.10533076 0.13324559 -0.0050759315
-0.085551605 0.13294505 -0.014839411
0.088513047 0.13305587 -0.011237025
0.10824584 0.13335747 -0.0014455318
-0.086029314 0.15275091 -0.002428174
-0.066474885 0.1525875 -0.00667274
-0.047012992 0.15246955 -0.0097398758
-0.027598232 0.1523512 -0.012812614
0.011089356 0.15227631 -0.014759421
0.030441679 0.15239389 -0.011704683
0.049841356 0.15251224 -0.0086290836
0.069288559 0.15263088 -0.0055457354
-0.0083252685 0.1721199 -0.0036115646
0.011089356 0.17217214 -0.0024819374
-0.10603011 -0.51044524 0.010065675
-0.086407281 -0.50984824 0.007391572
-0.066859961 -0.50950027 0.005833149
-0.047372635 -0.50950027 0.005833149
-0.027885303 -0.50950027 0.005833149
-0.0083979731 -0.50950027 0.005833149
0.011089356 -0.50950027 0.005833149
0.030576684 -0.50950027 0.005833149
0.050064012 -0.50950027 0.005833149
0.069556974 -0.50955474 0.0060770512
0.089114644 -0.51005113 0.0083003044
0.10873862 -0.5107336 0.011357188
0.22506765 -0.48903975 0.0013178587
-0.26170117 -0.47046372 0.0055352449
-0.28082702 -0.45035616 0.0024248362
-0.30121082 -0.23714915 0.0099161863
0.28451172 -0.17872983 0.011398077
-0.28056371 -0.15824676 0.00014436245
0.26444361 -0.10027802 0.0060226917
-0.26188222 -0.080853596 0.0072153807
0.24435326 -0.060999736 -0.00048911572
-0.24172792 -0.041605189 0.00065684319
0.22551537 -0.0028475784 0.0066052675
-0.22294015 0.016627323 0.0077984333
-0.20288092 0.036180392 0.0012234449
0.20614213 0.036126934 0.0081646442
0.18622702 0.055632178 0.0022493601
-0.1839655 0.075137764 0.008191824
-0.16404925 0.094551891 0.0022629499
0.16719511 0.09465868 0.0091962814
-0.14458109 0.11400864 0.0021277666
0.14749701 0.11409265 0.0057655573
-0.12526505 0.13354909 0.0047771931
0.12813357 0.13366178 0.0084359646
-0.10590911 0.15313092 0.007445693
0.088895902 0.15289035 0.0011965036
0.10872868 0.15327159 0.011098862
-0.086512297 0.17275421 0.010119915
-0.066855378 0.17254934 0.0056841373
-0.047297664 0.17240627 0.0025869608
-0.027787551 0.17226292 -0.00051629543
0.030536424 0.17231457 0.00060284138
0.050031304 0.17245808 0.003708601
0.069574185 0.17260191 0.0068221092
-0.027978733 0.19237049 0.011901498
-0.0084206229 0.19220205 0.0087753534
0.011089356 0.19226353 0.0099163055
-0.16558871 -0.51366377 0.024482965
-0.14559218 -0.5123384 0.018545866
-0.12575608 -0.51129889 0.01388979
0.1284623 -0.51167035 0.015553594
0.14829636 -0.51279688 0.020599484
-0.28245652 -0.14006504 0.016536713
0.26582012 -0.081530526 0.019777656
-0.26337191 -0.061993964 0.021037936
0.24561609 -0.042087242 0.01318121
-0.24310404 -0.022581071 0.014407754
0.22668064 0.016433787 0.020366549
-0.22421762 0.036023341 0.021627545
0.20714051 0.055632222 0.021134019
-0.20397541 0.055632304 0.014148712
0.18712136 0.075191349 0.015157938
-0.18496707 0.094843552 0.021202445
-0.16494548 0.11431052 0.015198827
0.16799445 0.11447164 0.022176147
-0.14535666 0.13385518 0.014721394
0.14817686 0.13396794 0.018381715
-0.12594511 0.15351386 0.017397285
0.12871689 0.15365516 0.021065474
-0.10649324 0.17321482 0.020092726
0.08928255 0.17292199 0.013753414
0.1092158 0.17338386 0.023754716
-0.087000102 0.1929574 0.022793531
-0.06723962 0.19270788 0.018162966
-0.047585145 0.19253939 0.015035272
0.030632097 0.19243143 0.013031363
0.050222918 0.19259974 0.016154289
0.069862634 0.19276996 0.019312143
0.089673497 0.19315438 0.02644968
-0.028172012 0.2126777 0.024455428
-0.0085169198 0.21248239 0.021284819
0.011089356 0.21255253 0.022423267
0.03072872 0.2127471 0.02558279
-0.18577127 -0.51526356 0.03164947
0.16828731 -0.51421046 0.026931524
0.18845659 -0.5158844 0.034430504
-0.24539226 -0.49678972 0.037273049
0.28627336 -0.16058376 0.027744174
-0.28437406 -0.12164578 0.033142924
0.26729342 -0.06261576 0.034499764
-0.26487795 -0.042927526 0.035012364
0.24689266 -0.022968851 0.027000427
-0.24449521 -0.0033488348 0.028309345
0.22785747 0.03592613 0.034264326
-0.22550912 0.055632263 0.035608292
-0.20508234 0.075284228 0.027220726
0.20814915 0.07533823 0.03423667
-0.20620069 0.095139474 0.040428042
0.18802488 0.094951227 0.028199077
-0.18597791 0.11475247 0.034333587
-0.16585189 0.13427275 0.028281569
0.16880289 0.13448903 0.035303473
-0.14613913 0.15389997 0.027427316
0.14886276 0.15404189 0.031110644
-0.14693035 0.17414702 0.040274858
-0.12663198 0.1736791 0.030143857
0.12930669 0.17384952 0.033835053
-0.10708322 0.19350027 0.03286624
0.10970782 0.193698 0.036537647
-0.08749228 0.21336281 0.035580635
-0.067627676 0.21306618 0.030765176
-0.047875468 0.21287173 0.027606487
0.050416637 0.21294138 0.028736711
0.070153616 0.21313684 0.031912088
0.090067945 0.2135893 0.039259672
-0.048168678 0.23340626 0.040302873
-0.028367002 0.23318578 0.037120461
-0.0086142784 0.23296493 0.03393209
0.011089356 0.23304361 0.035067797
0.030826192 0.23326375 0.038245201
-0.20658553 -0.51823795 0.044972658
0.28805938 -0.14220354 0.04431653
-0.28631681 -0.10298443 0.049967885
0.26896068 -0.043549061 0.051160097
-0.26640064 -0.023650616 0.04914093
0.24818319 -0.0036412142 0.040970922
-0.2459017 0.016095176 0.042363882
0.22904722 0.055632263 0.048314571
-0.22681487 0.075457588 0.049743533
0.20916823 0.095248029 0.047474861
-0.20732951 0.11520106 0.053758621
0.18893772 0.11491498 0.041374683
-0.18700029 0.1348682 0.047614694
0.18986002 0.1350859 0.054686904
-0.16676769 0.15444161 0.041500092
0.16961882 0.15471315 0.048552632
-0.16769202 0.1748198 0.054841876
0.14955632 0.17431819 0.043981552
-0.14772956 0.19459884 0.053252578
-0.12732574 0.19404733 0.043018937
0.12990178 0.19424669 0.046719551
-0.10767853 0.21398932 0.04575491
0.11020533 0.21421781 0.049463153
-0.087989949 0.23397505 0.048510671
-0.068019591 0.23362736 0.043493152
0.050612282 0.23348536 0.041444302
0.07044781 0.23370771 0.044651389
0.090466365 0.23423058 0.052198768
-0.048464816 0.25414616 0.053126216
-0.028563939 0.25389862 0.049911737
-0.0087125013 0.25365078 0.046691537
0.011089356 0.253739 0.047838688
0.030924749 0.25398618 0.051047802
0.050809886 0.25423485 0.05427897
-0.088759646 -0.5434618 0.068507791
-0.068690993 -0.54272044 0.065297723
-0.048698764 -0.54224896 0.063256383
-0.02874738 -0.54191875 0.061826468
-0.0088247648 -0.54179132 0.061274767
0.011089356 -0.5418371 0.061472774
0.031009682 -0.54197752 0.062081099
0.050959006 -0.54241264 0.063964844
0.070944607 -0.54292023 0.066163301
0.21021858 -0.52184248 0.061119199
0.28986874 -0.12358309 0.061105013
-0.28828529 -0.084075972 0.067015529
0.27064979 -0.024232522 0.068038583
-0.26794019 -0.0041597858 0.063426375
0.24948794 0.015899036 0.055095077
-0.24732375 0.035754323 0.056573749
0.2302513 0.075556099 0.062534094
-0.22813511 0.095503002 0.064035654
0.2101979 0.11536476 0.06085062
-0.2084713 0.13547242 0.067242742
-0.18803333 0.15519364 0.061034441
0.19079192 0.15546703 0.068138123
0.17044327 0.17514774 0.061939836
-0.16862702 0.19541152 0.068337202
0.15025614 0.19479907 0.05696857
-0.14853603 0.2152576 0.066347837
-0.1280258 0.21462086 0.056010246
0.13050292 0.21485032 0.059734225
-0.10828051 0.23468708 0.058788061
0.11070733 0.23494461 0.06250596
-0.088492677 0.25479633 0.061571956
-0.068415858 0.25439525 0.05636251
0.070744962 0.2544843 0.057518363
0.09086927 0.25508213 0.065283418
-0.048763931 0.27509427 0.066078067
-0.028762851 0.27481946 0.062831402
-0.0088117095 0.274544 0.059578896
0.011089356 0.27464208 0.060737491
0.031024292 0.27491653 0.06397891
0.051009256 0.27519166 0.067228436
-0.12919375 -0.5455811 0.077684879
-0.10892353 -0.54443216 0.072709918
0.091010615 -0.54377723 0.06987381
0.11116935 -0.54484773 0.074509025
0.13142537 -0.54604781 0.079705954
0.29170191 -0.10471784 0.078114748
-0.26949692 0.015548449 0.077871084
0.25080842 0.035655648 0.069389939
-0.24876162 0.055632222 0.070941925
0.23146756 0.095700994 0.076897383
-0.2294701 0.11577208 0.078487277
0.21123832 0.13569185 0.074366212
-0.20962389 0.15595648 0.080854058
-0.18907613 0.17573145 0.07458055
0.19173363 0.17606181 0.081730247
0.17127632 0.19579577 0.075466752
-0.16957083 0.21621913 0.081959963
0.15096307 0.21548785 0.070087433
-0.1493516 0.23612821 0.079591274
-0.12873374 0.2354048 0.069148064
0.13111082 0.23566437 0.072895527
-0.12944891 0.25640121 0.082419991
-0.10888862 0.25559559 0.071954131
0.11121446 0.25588235 0.07568121
-0.088999987 0.27582878 0.074751973
-0.068815693 0.27537113 0.069347143
0.071044773 0.27546874 0.070500493
0.091275841 0.27614513 0.078487277
-0.069219552 0.29655895 0.082463026
-0.04906607 0.29625398 0.079161048
-0.028963771 0.29595107 0.075881481
-0.0089119142 0.2956475 0.072595954
0.011089356 0.29575431 0.073752284
0.031124838 0.29605803 0.077040553
0.051210858 0.2963613 0.080322981
-0.14963299 -0.54707658 0.084160447
0.15188526 -0.54777884 0.087201238
0.29355776 -0.085602 0.095334888
-0.29028001 -0.064915508 0.084290028
0.27236116 -0.0046612918 0.085139632
-0.27107114 0.035477914 0.092477918
0.25214231 0.055632178 0.083829522
-0.25021562 0.075732648 0.085471034
0.23269737 0.11607073 0.091420889
-0.23082004 0.13626862 0.093101144
0.21228969 0.15623246 0.088023901
-0.21078986 0.17665721 0.094623566
-0.19013098 0.19648644 0.088283658
0.19268523 0.19687347 0.095465422
0.17211811 0.21666096 0.089135885
-0.17052563 0.23724714 0.095741391
0.15167798 0.236389 0.083354712
-0.15017554 0.25721338 0.09297061
0.13172427 0.25669044 0.086177349
0.15239948 0.25750387 0.096743703
-0.13017067 0.27761224 0.095814109
-0.10950229 0.27671689 0.085240483
0.11172733 0.27703565 0.089005947
-0.089513041 0.29707795 0.088081598
0.071347944 0.29666662 0.083628058
0.091686569 0.29742396 0.0918262
-0.069627523 0.31796214 0.095712304
-0.049371269 0.31762823 0.09237659
-0.029166725 0.31729677 0.089063644
-0.0090131341 0.31696457 0.085744858
0.011089356 0.31708154 0.086912751
0.031226408 0.31741384 0.090234518
0.051414508 0.31774569 0.093550324
0.071654193 0.31807977 0.096889138
-0.17145704 -0.55285573 0.10918474
-0.29230148 -0.045498058 0.10179651
0.27409527 0.015169829 0.10246766
-0.27284953 0.055632304 0.10897934
0.2534911 0.075832382 0.098430634
-0.25168595 0.096059233 0.10016346
0.23394102 0.1366691 0.10610735
-0.23218524 0.15699664 0.10787976
0.21335217 0.17698985 0.10182571
-0.21196699 0.19757712 0.10852492
-0.19119592 0.2174605 0.10211754
0.19364792 0.21790639 0.10936093
0.17296879 0.23774667 0.1029495
-0.17149056 0.25849873 0.10966909
-0.15100712 0.27851489 0.10647333
0.13234402 0.27793247 0.099595547
0.15313949 0.27885371 0.11047661
-0.13090065 0.29904363 0.10936093
-0.11012295 0.2980569 0.098678112
0.1122449 0.29840559 0.10245311
-0.090031378 0.31854606 0.10154855
0.092101991 0.31892323 0.10531735
-0.07003966 0.33958372 0.10909665
-0.04967992 0.33922213 0.10574162
-0.029371742 0.33885995 0.10238016
-0.0091154957 0.33850017 0.099042058
0.011089356 0.33862576 0.10020733
0.031328898 0.33898586 0.10354853
0.051620238 0.33934838 0.10691285
0.071963228 0.33971024 0.11027098
0.29543987 -0.066232257 0.11279893
-0.29435027 -0.025818318 0.11953926
0.27585253 0.035265759 0.12002742
0.2548551 0.096259862 0.11319613
-0.25317293 0.11661582 0.11502218
0.23519993 0.15750062 0.12097454
-0.23356596 0.17795989 0.12282622
0.21442705 0.1979686 0.11578894
-0.21315794 0.21872123 0.12258899
-0.1922733 0.23865853 0.11611331
0.19461986 0.23916282 0.1233896
0.17382854 0.2590563 0.11690998
-0.17246479 0.27997619 0.12373078
-0.1518482 0.30003852 0.12013113
0.13297087 0.29939517 0.11316681
0.15389608 0.30044365 0.12451708
-0.13163821 0.3206977 0.12304866
-0.11075003 0.3196176 0.11225474
0.11276785 0.31999639 0.11603951
-0.09055452 0.34023517 0.1151402
0.09252125 0.34064385 0.1189332
-0.070456028 0.36142743 0.12261868
-0.049991399 0.361036 0.11922884
-0.029578861 0.3606438 0.11583316
-0.0092187924 0.3602545 0.11246049
0.011089356 0.36039037 0.1136378
0.03143255 0.36078009 0.1170131
0.051828071 0.36117262 0.12041223
0.072275788 0.36156437 0.12380493
-0.0094183059 -0.5801053 0.13837814
0.011089356 -0.58023775 0.13893318
0.29734731 -0.046602741 0.13049746
-0.29642689 -0.0058710799 0.13752353
0.27763343 0.055632222 0.13782334
-0.27477065 0.076050751 0.12680483
0.2562345 0.11691858 0.12812889
-0.25467682 0.13740641 0.13005018
0.23647188 0.17856809 0.13599563
-0.2349624 0.19916251 0.13794327
0.21551228 0.2191706 0.12988639
-0.21436039 0.24009106 0.13678944
-0.19336109 0.26008269 0.13024402
0.19560222 0.26064646 0.13756847
0.17469744 0.28059334 0.13101935
-0.17345051 0.30168533 0.13795829
-0.15269807 0.32178676 0.13393104
0.13360353 0.32107964 0.12686455
0.15466076 0.32226485 0.13870823
-0.13238269 0.3425763 0.13686419
-0.11138294 0.34140098 0.12595773
0.1132968 0.34181306 0.12978184
-0.091083683 0.36215138 0.12888825
0.092944883 0.36259052 0.13269091
-0.070876688 0.38349631 0.13628006
-0.050306085 0.38307452 0.13285518
-0.029788114 0.38265198 0.12942433
-0.0093231509 0.38223231 0.12601709
0.011089356 0.38237882 0.12720656
0.031537268 0.38279879 0.13061666
0.05203782 0.38321999 0.13403583
0.072591566 0.38364395 0.13747859
-0.05053737 -0.58117723 0.14287019
-0.029952772 -0.58052075 0.14011908
0.031615391 -0.58067489 0.14076495
0.052202124 -0.58161581 0.14470744
-0.27671954 0.096747711 0.1448884
0.25762963 0.13781239 0.14323151
-0.25619796 0.15843514 0.14525008
0.23775834 0.1998761 0.15118814
-0.2363749 0.22060847 0.153234
0.21660914 0.24060009 0.14413512
-0.21557707 0.26169258 0.15115774
-0.19446173 0.28173834 0.14454174
0.19659513 0.28236151 0.15190005
0.1755757 0.30236179 0.14528024
-0.17444582 0.32362741 0.1523242
-0.15355591 0.34376135 0.14786088
0.13424279 0.34299022 0.14070499
0.1554337 0.34432086 0.15305209
-0.13313578 0.36468616 0.15083992
-0.11202315 0.36341357 0.13981867
0.11383069 0.3638562 0.14365315
-0.091618374 0.38429701 0.14278007
0.093373403 0.3847684 0.14660776
-0.071301706 0.40579429 0.15008318
-0.050624028 0.40534136 0.14662278
-0.029999532 0.40488777 0.14315617
-0.0094285859 0.40443724 0.13971364
0.011089356 0.40459257 0.14090037
0.03164307 0.40504533 0.14436102
0.052249976 0.4054974 0.14781559
0.072910272 0.40595073 0.15127897
-0.009535118 0.42687273 0.15355253
-0.29853195 0.014349338 0.15575385
0.27943695 0.076274291 0.15584517
-0.27869517 0.11772894 0.16322005
0.25904071 0.15894526 0.15850687
-0.25773656 0.17970568 0.16062498
0.2390596 0.22142875 0.16655529
0.21776707 0.26230994 0.15917695
-0.21680699 0.28352851 0.1656822
-0.19557311 0.30362713 0.15897906
0.1975988 0.30431151 0.1663866
0.17646343 0.32436505 0.15969527
-0.17545298 0.34580925 0.16686153
0.13488947 0.36513257 0.15470588
-0.15442374 0.36596927 0.1619525
0.156215 0.36661577 0.16755116
-0.13389681 0.38702917 0.16496289
-0.11267009 0.38565737 0.15382552
0.1143702 0.3861309 0.15766978
-0.092158116 0.40667361 0.15680277
0.093805961 0.40717778 0.1606555
-0.071731165 0.42832458 0.16403019
-0.050945289 0.42784005 0.16053367
-0.030213378 0.42735681 0.15704608
0.011089356 0.42703888 0.15475142
0.031749975 0.42752331 0.15824807
0.052464336 0.42800713 0.16173863
0.073232658 0.42849198 0.1652385
-0.30066603 0.034848519 0.17423546
0.28126654 0.09719795 0.1741277
-0.28069645 0.13899961 0.18178964
0.26046807 0.18032146 0.17395842
-0.25929302 0.20122275 0.17617786
-0.2378037 0.24230202 0.16870117
0.21895711 0.2842868 0.17463601
-0.21804899 0.3056013 0.18034971
-0.19669777 0.32575539 0.17358875
0.19861336 0.32650027 0.18103087
0.17736174 0.34660885 0.1742816
-0.17647007 0.36823127 0.18154168
-0.15530075 0.38841251 0.17619336
0.13554226 0.38750666 0.16883934
-0.11332317 0.40813434 0.16796505
-0.13466512 0.40960732 0.17922044
0.11491599 0.40864283 0.17184997
-0.09270414 0.42928877 0.17098904
0.094243102 0.42982414 0.17485189
-0.030438222 0.45014435 0.17165005
-0.0096460646 0.44960532 0.16796505
0.011089356 0.44978923 0.16922295
0.031863328 0.45033762 0.17297316
-0.072202243 0.4512673 0.17932892
-0.051290907 0.45070729 0.17549944
0.052696384 0.45089903 0.17681062
0.073588781 0.45146188 0.18065917
-0.30282971 0.055632178 0.19297385
0.28312132 0.1184089 0.19266152
0.2619119 0.20194544 0.18958867
-0.2608676 0.22299044 0.19191206
0.24037586 0.24323022 0.18209946
-0.23924768 0.26424637 0.18433261
0.22016093 0.30651808 0.19027436
-0.21930593 0.32791761 0.19519353
-0.19783473 0.34812596 0.18835831
0.19963905 0.34893173 0.19583511
0.17826889 0.36909387 0.18901229
0.15700479 0.38915327 0.18220794
-0.15618616 0.41109267 0.19057059
0.13620198 0.41011795 0.18312263
-0.13546599 0.43248883 0.19408321
-0.11398891 0.43086702 0.18237841
0.11547536 0.43142182 0.18638289
-0.093330763 0.45242864 0.18726909
0.094758324 0.45305988 0.19158435
-0.051758371 0.47461712 0.1957413
-0.03074177 0.47394353 0.19136596
-0.0097926324 0.47327203 0.18700469
0.011089356 0.47350198 0.18849838
0.032016333 0.47417176 0.19284892
-0.28272724 0.16056678 0.20063329
0.2633726 0.22382097 0.20540094
-0.26246062 0.24501297 0.20783055
0.24170743 0.26528499 0.19782448
-0.24070993 0.28644818 0.20016217
0.22138001 0.32901004 0.20611048
-0.19898298 0.37074071 0.20327473
-0.17749938 0.39090112 0.19639874
0.179186 0.39182544 0.20390427
0.15780324 0.41193733 0.1970253
-0.15715675 0.4341861 0.20633125
0.13689406 0.43304637 0.19810677
-0.11481754 0.45433742 0.20031917
0.11618675 0.45500228 0.2048651
-0.072842292 0.47529045 0.20011497
0.053010743 0.47484612 0.19722891
0.074072555 0.47552019 0.20160747
0.28500009 0.13991243 0.21143544
-0.28478652 0.18243626 0.21974087
0.26485038 0.24595293 0.22139847
-0.26407242 0.26729512 0.22393644
0.24305454 0.28759736 0.21373308
-0.24218938 0.30891097 0.21617758
-0.22057542 0.35047832 0.21018541
0.22261213 0.35176417 0.22211635
0.20067601 0.37160996 0.21080244
-0.20014518 0.3936075 0.21837175
-0.17855433 0.41384807 0.21162558
0.18013775 0.41486013 0.21935868
0.1587292 0.43527767 0.21420896
-0.13653682 0.45633194 0.21395528
0.13785212 0.45704761 0.21884918
-0.094240829 0.47695285 0.21091318
0.095515601 0.47776344 0.21617758
-0.031194579 0.49961352 0.22077668
-0.010009258 0.49870315 0.21514523
0.011089356 0.49901134 0.21705174
0.03224618 0.49992552 0.22270679
0.28690663 0.16171575 0.23048675
0.24441749 0.31017202 0.22982872
-0.24368632 0.33163911 0.23238254
-0.2218603 0.37329087 0.2253592
0.2238588 0.37478638 0.23831093
0.20172442 0.39453897 0.2259351
-0.2014405 0.41693303 0.2351985
-0.17993118 0.43767327 0.2314986
-0.1586414 0.4587428 0.23043859
-0.11605245 0.47943825 0.22705555
0.11726384 0.48033005 0.23284864
-0.073838346 0.50150275 0.23246276
-0.052467868 0.50053275 0.22646308
0.05349043 0.50084352 0.22838545
0.074877337 0.50214803 0.23645544
0.28883988 0.18382473 0.24980509
-0.28687489 0.20461445 0.23911834
0.26641864 0.26840657 0.23837554
-0.26570332 0.28984147 0.24023354
0.24579653 0.33301336 0.24611461
-0.24520105 0.35463774 0.24877989
-0.22320612 0.39642566 0.24125218
0.20294607 0.41802824 0.24356794
0.18145716 0.43895972 0.24078333
0.16018996 0.46033385 0.24131715
-0.13820243 0.48218012 0.24486506
0.13935263 0.48317647 0.25133622
-0.095794208 0.50454319 0.25127089
-0.28899115 0.22710671 0.25875497
0.26821348 0.29132926 0.25780499
-0.26735365 0.31265655 0.25672472
0.247192 0.35612646 0.26259422
-0.24674305 0.37792262 0.26547241
0.22518943 0.39819229 0.25559628
-0.22527094 0.42091644 0.26563692
-0.203399 0.44171122 0.26064038
-0.18223704 0.46376574 0.26478088
0.09685491 0.5059014 0.25967276
0.29079881 0.20624505 0.26937973
-0.29113948 0.24992213 0.27868903
0.27003217 0.31457511 0.27749288
-0.26902381 0.33574539 0.2734139
0.24866049 0.3795929 0.27993608
0.20489234 0.44323811 0.27165985
0.18377519 0.46576113 0.27842319
-0.16167428 0.48754129 0.27968657
0.29278719 0.22898486 0.28924906
-0.2707141 0.35911283 0.29030442
-0.24893478 0.40233102 0.28919876
0.22752509 0.42357296 0.28593731
-0.1185787 0.50947034 0.28175044
-0.29331881 0.2730667 0.29891062
0.27187833 0.33815363 0.2974782
0.25110677 0.40474841 0.30882549
0.16361575 0.49142185 0.30489194
0.11999704 0.51304448 0.30385947
0.2948041 0.25205007 0.30940294
-0.29552794 0.2965458 0.31940889
0.27406862 0.36244145 0.32118893
-0.2739009 0.3844671 0.32214832
-0.23130789 0.45228225 0.33693004
-0.29777125 0.32036993 0.34022403
-0.25440729 0.43175247 0.34844029
0.30178115 0.27924129 0.37912178
-0.30108947 0.34551242 0.3710134
-0.011711472 0.58005118 0.43626928
0.011089356 0.58027124 0.43751192
-0.080594301 0.55989242 0.45186901
-0.057673827 0.55989552 0.45188785
-0.034752764 0.55989552 0.45188785
-0.011831704 0.55989552 0.45188785
0.011089356 0.55989552 0.45188785
0.034010414 0.55989552 0.45188785
0.056931473 0.55989552 0.45188785
0.079908833 0.56030822 0.45432544
-0.058035716 0.5855912 0.46755838
-0.034994029 0.5855912 0.46755838
0.034131046 0.5855912 0.46755838
0.057178859 0.58566165 0.46795607
-0.081466161 0.58782649 0.4801836
-0.035231661 0.61148441 0.48299313
-0.012071152 0.61148441 0.48299313
