ply
format ascii 1.0
comment PCL generated
element vertex 792
property float x
property float y
property float z
element camera 1
property float view_px
property float view_py
property float view_pz
property float x_axisx
property float x_axisy
property float x_axisz
property float y_axisx
property float y_axisy
property float y_axisz
property float z_axisx
property float z_axisy
property float z_axisz
property float focal
property float scalex
property float scaley
property float centerx
property float centery
property int viewportx
property int viewporty
property float k1
property float k2
end_header
-0.036177281 -0.87525487 -0.44680047
-0.010876383 -0.87385911 -0.45170081
0.014349072 -0.87386829 -0.45166838
0.039612498 -0.87526411 -0.44676816
-0.0615656 -0.85149348 -0.44138169
-0.036075495 -0.84815961 -0.4534117
-0.0108327 -0.84706122 -0.45737529
0.014349072 -0.84707016 -0.45734298
0.03956173 -0.84817302 -0.4533633
0.064959101 -0.85149789 -0.44136548
-0.036173541 -0.82466316 -0.44704318
-0.010879491 -0.82351708 -0.45129704
0.014349072 -0.82352138 -0.45128083
0.039610505 -0.82466751 -0.44702709
-0.06167911 -0.87819821 -0.43646669
0.065034777 -0.87820286 -0.43645036
-0.06174466 -0.82827759 -0.4336282
0.065078482 -0.828282 -0.43361175
-0.036540717 -0.80564374 -0.42319465
-0.011060833 -0.80445415 -0.42773986
0.014349072 -0.80445844 -0.42772341
0.039794348 -0.80565667 -0.42314553
-0.062528268 -0.91429687 -0.39969707
-0.036902484 -0.91429687 -0.39969707
-0.011276706 -0.91429687 -0.39969707
0.014349072 -0.91429687 -0.39969707
0.03997485 -0.91429687 -0.39969707
0.065600626 -0.91429687 -0.39969707
-0.087754831 -0.88497841 -0.41266203
0.09093082 -0.88502562 -0.41249657
-0.08757744 -0.85785586 -0.41842294
0.09079548 -0.85787421 -0.41835701
-0.062324822 -0.80948818 -0.40850627
0.065466024 -0.80950552 -0.40844011
-0.036768388 -0.78395551 -0.40840697
-0.011166089 -0.78251761 -0.41406703
0.014349072 -0.78252596 -0.41403401
0.039908316 -0.78397226 -0.40834057
-0.088750705 -0.84264052 -0.38031983
0.091674685 -0.8426494 -0.38028634
-0.062764525 -0.78876692 -0.38946664
0.065759428 -0.78878826 -0.38938272
-0.011384538 -0.76399291 -0.38568962
0.014349072 -0.76400107 -0.385656
-0.08918079 -0.92405105 -0.36635256
0.091998048 -0.92407095 -0.36628461
-0.088804722 -0.81732458 -0.37856555
0.091715589 -0.81733793 -0.37851489
-0.063435197 -0.77021629 -0.36042583
-0.037231725 -0.76581013 -0.37831235
0.040139861 -0.76582259 -0.37826169
0.066206567 -0.77023727 -0.36034048
-0.037370879 -0.74217653 -0.36927402
-0.011457969 -0.74053562 -0.37615049
0.014349072 -0.74053562 -0.37615049
0.040209439 -0.74218869 -0.36922312
-0.037510786 -0.7184152 -0.36018693
-0.011531561 -0.71693641 -0.36659038
0.014349072 -0.71694034 -0.36657345
0.040279396 -0.718427 -0.36013567
-0.063610531 -0.74609989 -0.35283375
0.06632372 -0.74612445 -0.35273099
-0.063786253 -0.7218706 -0.3452245
0.066441141 -0.7218985 -0.3451041
-0.037651449 -0.694525 -0.35105026
0.040349729 -0.69453657 -0.35099888
-0.011605575 -0.69320214 -0.35697591
0.014349072 -0.69320977 -0.3569417
-0.037809085 -0.6707316 -0.34081173
-0.011686764 -0.66952068 -0.34642911
0.014349072 -0.66953558 -0.34636033
0.040428683 -0.67074633 -0.34074271
-0.063991137 -0.69780612 -0.33635259
0.066576943 -0.69782156 -0.33628356
-0.064233676 -0.67395633 -0.32585061
0.066738114 -0.67396384 -0.3258158
-0.037969548 -0.64681882 -0.33038926
-0.011770061 -0.64573395 -0.33560836
0.014349072 -0.64574838 -0.33553922
0.040508918 -0.64683324 -0.33031976
-0.011853895 -0.62179446 -0.32471836
0.014349072 -0.62180138 -0.32468355
-0.090768434 -0.78145736 -0.31479239
0.093193278 -0.7815221 -0.31452942
-0.090853229 -0.75583524 -0.31203854
0.093255661 -0.75588536 -0.3118279
-0.090937622 -0.73016745 -0.3092978
0.093319781 -0.73022437 -0.30905163
-0.091069348 -0.70480084 -0.30501974
0.093418591 -0.70485598 -0.30477309
-0.064477727 -0.64995855 -0.31528306
0.066900536 -0.64996207 -0.31526542
-0.064722888 -0.6258077 -0.30466735
-0.038131006 -0.62275839 -0.3199023
0.040589649 -0.6227724 -0.31983244
0.06706398 -0.62581122 -0.30464971
-0.038307 -0.59871829 -0.30847108
-0.011942723 -0.59781224 -0.31317902
0.014349072 -0.59781897 -0.31314409
0.040677246 -0.59872174 -0.30845356
-0.012036235 -0.5737648 -0.30103147
0.014349072 -0.57377118 -0.30099618
-0.091321789 -0.68021345 -0.29682136
0.093603447 -0.68022478 -0.29676843
-0.091615468 -0.65577799 -0.28728414
0.093822889 -0.65578169 -0.28726614
-0.064992934 -0.60170078 -0.29297376
0.067244016 -0.60170406 -0.29295599
-0.0652702 -0.57747144 -0.28096795
0.06742914 -0.57747817 -0.28093195
-0.038494542 -0.57464081 -0.29629004
0.040771015 -0.57464391 -0.29627216
-0.038683422 -0.55039102 -0.28402197
-0.012130414 -0.54954559 -0.28879714
0.014349072 -0.54955184 -0.28876173
0.040865459 -0.5503943 -0.28400385
-0.091919601 -0.63126373 -0.27740693
0.094050579 -0.63126373 -0.27740693
-0.092268772 -0.60687882 -0.26606727
0.094313711 -0.60688931 -0.26601303
-0.065549411 -0.55307233 -0.26887763
0.067615561 -0.55308199 -0.26882362
-0.038882792 -0.52606785 -0.27107251
-0.012229132 -0.52523792 -0.27597344
0.014349072 -0.5252409 -0.27595556
0.040965144 -0.52607101 -0.27105439
-0.012336238 -0.50090879 -0.26205993
0.014349072 -0.50091183 -0.26204181
-0.092621371 -0.58234006 -0.25461626
0.094578162 -0.58235002 -0.25456202
-0.092975743 -0.55763507 -0.24310803
0.094844371 -0.55764788 -0.24303484
-0.065855294 -0.52868265 -0.25563252
0.067819484 -0.52869195 -0.25557816
-0.066179149 -0.50421488 -0.24160922
-0.039097894 -0.50171041 -0.2571013
0.041072696 -0.5017134 -0.25708306
0.068035685 -0.5042268 -0.24153602
-0.039314739 -0.47715548 -0.24301648
-0.012444212 -0.476383 -0.24803376
0.014349072 -0.4763858 -0.24801564
0.041181117 -0.47715828 -0.24299824
-0.093401603 -0.53314608 -0.22927773
0.095163777 -0.53315854 -0.22920394
-0.066505209 -0.47954598 -0.22749031
0.068252772 -0.4795545 -0.22743511
-0.039533067 -0.45239767 -0.2288357
-0.012553061 -0.45165786 -0.23389375
0.014349072 -0.45166066 -0.23387551
0.041290283 -0.45240048 -0.22881711
-0.093833707 -0.50847703 -0.21524441
0.095487878 -0.50848901 -0.21517003
-0.066833913 -0.4546763 -0.21325707
0.068471923 -0.45468447 -0.21320117
-0.039753471 -0.4274402 -0.21452022
-0.012662799 -0.42673114 -0.21963847
0.014349072 -0.4267363 -0.21960139
0.041400485 -0.42744288 -0.21450162
-0.039949171 -0.40205249 -0.20180905
-0.012761657 -0.4013997 -0.20679641
0.014349072 -0.40140471 -0.20675898
0.041498337 -0.40205494 -0.20179033
-0.094268724 -0.48360649 -0.2011168
0.095814586 -0.48362085 -0.2010231
-0.094706677 -0.45853212 -0.18689418
0.096143931 -0.45855144 -0.18676198
-0.067162715 -0.42958817 -0.19901967
0.06869141 -0.42959854 -0.19894481
-0.06744317 -0.40400672 -0.18687522
0.068877816 -0.40401179 -0.18683755
-0.040124543 -0.37630635 -0.19041812
-0.012851409 -0.37572503 -0.19513738
0.014349072 -0.37572739 -0.19511855
0.041585881 -0.37630635 -0.19041812
-0.040257335 -0.35006538 -0.18179345
-0.012917769 -0.34951997 -0.18651676
0.014349072 -0.34952217 -0.18649781
0.041652419 -0.35006756 -0.18177462
-0.095110126 -0.4330838 -0.17379177
0.096446536 -0.43310213 -0.17365897
-0.095459409 -0.4072035 -0.16244841
0.096708521 -0.40722093 -0.16231441
-0.067676038 -0.3779847 -0.17679191
0.069033355 -0.37799165 -0.17673504
-0.067858271 -0.35155407 -0.16890109
0.069154844 -0.35156071 -0.16884375
-0.067956522 -0.3246102 -0.16464663
-0.040352158 -0.32342592 -0.17563426
-0.012967098 -0.32294372 -0.18010902
0.014349072 -0.32294577 -0.18009007
0.041699689 -0.32342592 -0.17563426
0.069220357 -0.3246164 -0.16458905
-0.040428255 -0.29656991 -0.17069149
-0.013005343 -0.29612488 -0.17514062
0.014349072 -0.29612666 -0.17512167
0.041737884 -0.29657185 -0.17067242
-0.040494282 -0.2695775 -0.16640294
-0.01303842 -0.26916733 -0.17084384
0.014349072 -0.26916906 -0.17082489
0.041770898 -0.26957926 -0.16638398
-0.040560763 -0.24252144 -0.16208506
-0.01307143 -0.24214292 -0.16655564
0.014349072 -0.24214616 -0.1665175
0.041804139 -0.2425231 -0.16206586
-0.013104667 -0.21505475 -0.16223812
0.014349072 -0.21505776 -0.16219974
-0.095660001 -0.38055369 -0.15593398
0.096858092 -0.3805654 -0.15583801
-0.095803224 -0.35358846 -0.15128255
0.096965969 -0.35360175 -0.15116727
-0.095842354 -0.32618743 -0.15001202
0.096993975 -0.3261936 -0.14995408
-0.095948011 -0.29898289 -0.14658058
-0.068039984 -0.29753658 -0.16103256
0.0692757 -0.29754058 -0.16099429
0.09707322 -0.29898864 -0.14652264
-0.09604197 -0.27169055 -0.1435293
-0.068109885 -0.27035317 -0.15800583
0.069322594 -0.2703585 -0.15794849
0.097143695 -0.27169585 -0.14347124
-0.068180345 -0.24312526 -0.15495467
0.069369569 -0.24313012 -0.15489721
-0.068250924 -0.21585074 -0.15189826
-0.040627405 -0.21539971 -0.15775669
0.041837458 -0.21540123 -0.15773737
0.069416627 -0.21585521 -0.15184057
-0.068355478 -0.18863103 -0.14737153
-0.040711377 -0.1882894 -0.15230238
-0.013145071 -0.18796474 -0.15698934
0.014349072 -0.18796736 -0.15695095
0.041879594 -0.18829206 -0.15226364
0.069486327 -0.18863499 -0.14731359
-0.040814325 -0.16117099 -0.14561558
-0.013196561 -0.1608825 -0.15030074
0.014349072 -0.1608848 -0.15026224
0.041931219 -0.1611746 -0.14555752
-0.013248242 -0.13369852 -0.14358711
0.014349072 -0.13370067 -0.14354849
-0.12428176 -0.46731457 -0.12684846
0.12526156 -0.46735165 -0.12659478
-0.12446448 -0.35695803 -0.12210131
0.12540352 -0.35697171 -0.12198412
-0.12446675 -0.30143851 -0.12204278
-0.12444942 -0.27363372 -0.12249267
0.12539089 -0.27364281 -0.12239504
-0.12443136 -0.24583429 -0.12296212
-0.096136086 -0.24435151 -0.14047277
0.097214282 -0.2443566 -0.14041448
0.12537703 -0.24584427 -0.1228447
-0.12444867 -0.2181128 -0.12251234
0.12538907 -0.21811739 -0.12245345
-0.096230365 -0.21696606 -0.13741076
0.097284995 -0.21697041 -0.13735271
-0.096392445 -0.1896857 -0.13214719
0.097406559 -0.18968996 -0.13208878
-0.096567616 -0.16235068 -0.12645817
-0.068504959 -0.16146147 -0.14089859
0.06958539 -0.16146255 -0.14087927
0.097537942 -0.16235441 -0.12639964
-0.068660371 -0.13420603 -0.13416898
-0.040917959 -0.13395202 -0.13888419
0.041982889 -0.13395414 -0.13884544
0.069688998 -0.13420713 -0.13414955
-0.068819523 -0.10685458 -0.12727773
-0.041021988 -0.10663057 -0.13212764
-0.013300118 -0.10641252 -0.13684845
0.014349072 -0.10641436 -0.13680959
0.042034753 -0.10663151 -0.13210833
0.069795102 -0.10685552 -0.12725806
-0.0411628 -0.079297073 -0.12298131
0.042105157 -0.079297893 -0.122962
-0.013368689 -0.079106249 -0.12794054
0.014349072 -0.079107679 -0.12790167
-0.12460165 -0.44074002 -0.11853802
0.12551266 -0.44075349 -0.11844003
-0.12467863 -0.41321152 -0.11653769
0.12557667 -0.41323477 -0.11636102
-0.12461448 -0.38520077 -0.11820471
0.12552775 -0.38523221 -0.11794984
-0.12448406 -0.3292501 -0.12159288
0.1254192 -0.32926279 -0.12147546
0.12540534 -0.30145034 -0.12192535
-0.12466958 -0.1907509 -0.11677313
0.1255658 -0.19075501 -0.11671436
-0.12489042 -0.16330057 -0.11103535
0.12574248 -0.16330418 -0.11097658
-0.12511273 -0.13576385 -0.10525978
-0.096743345 -0.13492912 -0.12075126
0.097669743 -0.13493225 -0.12069249
0.12592033 -0.1357671 -0.10520041
-0.096942611 -0.10745496 -0.11427975
0.097819656 -0.10745857 -0.11420131
-0.097203948 -0.0799587 -0.10579276
-0.069033124 -0.079487778 -0.11802828
0.069937505 -0.079488419 -0.11800873
0.098015659 -0.07996165 -0.10571384
-0.069248281 -0.051980585 -0.1087116
-0.041305546 -0.051826626 -0.11371017
-0.013439865 -0.05167307 -0.1186949
0.014349072 -0.051674314 -0.11865568
0.042176533 -0.051827095 -0.1136905
0.070080951 -0.051981121 -0.10869181
-0.041449022 -0.024214551 -0.10439086
-0.013511405 -0.024098858 -0.10940111
0.014349072 -0.024099745 -0.10936201
0.042248424 -0.024215378 -0.10435128
-0.15385103 -0.30495098 -0.086944222
0.15452121 -0.30496493 -0.086804509
-0.1535577 -0.27633095 -0.093295097
0.15427291 -0.27633455 -0.093255401
-0.15353659 -0.2483077 -0.093752265
0.15425533 -0.24831125 -0.093712449
-0.15361555 -0.22045842 -0.092042685
0.15432036 -0.22045994 -0.092022896
-0.15374333 -0.19265592 -0.089276314
0.15442762 -0.19265878 -0.089236259
-0.1538713 -0.16481122 -0.086505294
0.15453503 -0.16481501 -0.086445451
-0.15399763 -0.13692182 -0.083770394
0.15464261 -0.13692832 -0.083650589
-0.1253937 -0.10820872 -0.097959638
0.12614574 -0.10821227 -0.097880363
-0.12572409 -0.080590509 -0.089375734
0.12640944 -0.080592819 -0.08931601
-0.097467124 -0.052333519 -0.097245932
0.0982126 -0.052335531 -0.097186327
-0.097730935 -0.024577409 -0.088678479
-0.069464095 -0.024330601 -0.099366546
0.070224829 -0.024330959 -0.099346876
0.098410457 -0.024578705 -0.088618755
-0.069797993 0.0033845268 -0.084908724
-0.041660272 0.0034732893 -0.09066987
-0.013611545 0.0035614036 -0.096392751
0.014349072 0.003560815 -0.096353292
0.042354051 0.0034726411 -0.090630054
0.070447423 0.0033842884 -0.084888935
-0.15434253 -0.33413103 -0.076303005
0.15492927 -0.33414203 -0.076202631
-0.15427864 -0.1091451 -0.077686667
0.15487833 -0.10915241 -0.077526331
-0.15457077 -0.08128386 -0.071361542
0.15512103 -0.081289403 -0.071220517
-0.1549059 -0.053354047 -0.064105868
-0.12605606 -0.052841596 -0.080751061
0.12667502 -0.05284331 -0.080691099
0.155398 -0.053356588 -0.064024925
-0.12643526 -0.024987981 -0.07089889
0.12697902 -0.024989814 -0.070818424
-0.098223917 0.0031960718 -0.072668552
0.098780669 0.0031948313 -0.072588205
-0.070196874 0.031300567 -0.06763649
-0.041925661 0.031345218 -0.073432088
-0.013743666 0.031389866 -0.079229474
0.014349072 0.031389572 -0.079189301
0.042486593 0.031345099 -0.073411942
0.070713349 0.031300452 -0.067616224
-0.1550263 -0.36395591 -0.061498761
0.15549834 -0.36396521 -0.061417818
-0.18407297 -0.25232357 -0.04632926
0.18443358 -0.25233904 -0.046145916
-0.18372963 -0.22348693 -0.052700758
0.18413834 -0.22349945 -0.052538157
-0.18345517 -0.19483718 -0.057794213
0.18389931 -0.1948427 -0.057713151
-0.18360597 -0.16675171 -0.054995537
0.18402952 -0.16675797 -0.054894209
-0.18386003 -0.13872647 -0.050281048
0.18424916 -0.13873413 -0.050138593
-0.18420601 -0.11070742 -0.043860435
0.18454669 -0.11071492 -0.043697119
-0.15548712 -0.025435463 -0.051521659
0.15588237 -0.025437415 -0.051440477
-0.12711304 0.0028978251 -0.05328989
0.12752126 0.0028965846 -0.053208709
-0.098765597 0.031204009 -0.055076838
0.099186949 0.031203359 -0.054995537
-0.070600033 0.059482612 -0.050179243
-0.042193267 0.059482612 -0.056050539
-0.013877201 0.059482612 -0.061882973
0.014349072 0.059482552 -0.061842442
0.042620555 0.059482671 -0.056010008
0.070982121 0.059482731 -0.050158858
-0.014011853 0.087843545 -0.044391155
0.014349072 0.087843895 -0.044350386
-0.18450464 -0.2814095 -0.038318515
0.18480362 -0.28142652 -0.038134336
-0.18455319 -0.082590513 -0.037417293
0.1848443 -0.082596727 -0.03725338
-0.18490936 -0.054379299 -0.030807614
0.18514962 -0.0543845 -0.030643225
-0.15630911 0.0025965683 -0.0337255
0.15656738 0.0025952719 -0.033643246
-0.12779737 0.031053234 -0.035510659
0.12806875 0.031052761 -0.035428643
-0.099312522 0.059482552 -0.037314653
0.099597163 0.059482612 -0.037232637
-0.071006581 0.087934554 -0.032575369
-0.042463433 0.087888896 -0.038502932
0.042755641 0.087889135 -0.038461924
0.071253158 0.087934613 -0.032554746
-0.014147795 0.11647643 -0.02673173
0.014349072 0.11647733 -0.026669741
-0.18591052 -0.026342899 -0.012228251
0.18600784 -0.026346795 -0.012061954
-0.15713909 0.030901274 -0.015755892
0.15725906 0.030900627 -0.015673041
0.12862155 0.059482552 -0.017475724
-0.12848833 0.059482671 -0.017558694
-0.099864759 0.088036016 -0.019380331
0.10001136 0.088036723 -0.0192976
-0.071417041 0.11665999 -0.014802098
-0.042736508 0.11656827 -0.02076602
0.042892184 0.1165688 -0.020724654
0.071527116 0.11666064 -0.014760494
-0.014285211 0.14538537 -0.0088810921
0.014349072 0.14538637 -0.008839488
-0.18675803 -0.31400201 0.0034989119
0.18676141 -0.31407744 0.0042533875
-0.21575624 -0.19938588 0.0078610182
0.21570593 -0.19940478 0.0081340075
-0.21557923 -0.17044574 0.0049868822
0.21554875 -0.17045999 0.0052175522
-0.21550696 -0.14164141 0.003813386
0.215481 -0.14164919 0.003959775
-0.21543603 -0.1128562 0.0026613474
0.21542232 -0.11286595 0.0028707981
-0.21536383 -0.084087946 0.0014890432
0.21536252 -0.084098332 0.001761198
-0.21620579 -0.055794872 0.015160918
0.21610843 -0.055808455 0.015603542
-0.18692294 0.0019763373 0.0065598488
0.18687473 0.0019740351 0.0067067146
-0.15797718 0.059482612 0.0023893118
0.15795749 0.059482552 0.0024729967
-0.12918526 0.088189445 0.00054788589
0.12917911 0.088189974 0.00063157082
-0.1004224 0.11686835 -0.001270771
0.1004296 0.1168697 -0.0011872053
-0.071831942 0.14566353 0.0031639338
-0.043011904 0.14552416 -0.0028786659
0.043029882 0.1455251 -0.0028369427
0.071803406 0.14566407 0.0031847954
-0.043290287 0.17476121 0.015203118
-0.014423792 0.174574 0.0091212988
0.014349072 0.17457619 0.0091842413
0.043169077 0.17476264 0.015245199
-0.18794452 0.030583601 0.025517464
0.18775043 0.030582421 0.025665879
-0.15882349 0.088344768 0.020712614
0.1586628 0.088345304 0.020797133
-0.12988983 0.11717823 0.018853188
0.12974279 0.11717953 0.018937707
-0.1009855 0.14598358 0.017016649
0.10085195 0.14598563 0.017101049
-0.10155416 0.17538588 0.035484433
-0.072250396 0.17494848 0.021283269
0.072082698 0.17494991 0.021325707
0.10127846 0.17538849 0.035569668
-0.043571066 0.20428294 0.033439875
-0.014563886 0.20404735 0.027320027
0.014349072 0.20404902 0.027362466
0.043309469 0.20428458 0.033482432
-0.21849336 -0.23157048 0.052306652
0.21815805 -0.23167306 0.053640127
-0.21752696 -0.027470969 0.036613822
0.21726473 -0.027481243 0.037061691
-0.1889765 0.059482552 0.044668794
0.18863603 0.059482612 0.044840217
-0.15969394 0.11749703 0.039558291
0.15939149 0.11749944 0.039729357
-0.13060135 0.1464529 0.037339091
0.13031204 0.14645498 0.037424207
-0.13131993 0.17601773 0.056007981
0.13088691 0.17602058 0.05609417
-0.10212845 0.20507959 0.054134846
-0.072673425 0.20452023 0.039601088
0.072364397 0.20452094 0.039622307
0.10170919 0.20508271 0.054221034
-0.043854918 0.23409459 0.051876903
-0.014705186 0.23380819 0.045675278
0.014349072 0.23381022 0.045718312
0.043451402 0.23409653 0.051919818
-0.21886201 0.0011798777 0.058292627
0.21843551 0.0011721402 0.058788896
-0.19002023 0.088678151 0.064037919
0.18952976 0.088679515 0.064189553
-0.16058515 0.14694971 0.058853626
0.16013423 0.14695367 0.059026003
-0.13204566 0.20587733 0.074863076
0.13146754 0.2058807 0.074950337
-0.10270846 0.23506886 0.072971106
-0.073100105 0.2343809 0.058077097
0.072648853 0.234382 0.058098555
0.10214423 0.23507282 0.073058248
-0.044141237 0.26419866 0.070473671
-0.014848041 0.2638624 0.064232588
0.014349072 0.26386482 0.064276099
0.043594562 0.26420105 0.070517182
-0.22021389 0.030162338 0.080244303
0.21961871 0.030158442 0.080746174
-0.19107355 0.11817472 0.083585262
0.19043267 0.11817703 0.083738327
-0.16148652 0.17670625 0.078368783
0.1608846 0.17671108 0.078521371
-0.13277866 0.23603576 0.093907118
0.13205396 0.23604009 0.093994975
-0.10329427 0.26535833 0.091996312
-0.073530994 0.26453614 0.076735139
0.072936453 0.26453844 0.076778531
0.10258361 0.26536328 0.09208405
-0.07396666 0.29499111 0.09559989
-0.044430383 0.29460022 0.089254379
-0.014992137 0.29421222 0.082951546
0.014349072 0.29421487 0.082995415
0.04373914 0.29460326 0.089298129
0.073226564 0.29499251 0.095621824
-0.22158153 0.059482493 0.10245192
0.22081572 0.059482552 0.10295963
-0.19213781 0.14797708 0.10333526
0.19134495 0.14798039 0.10348976
-0.16239622 0.20677042 0.098064542
0.16164361 0.20677704 0.098240733
-0.13351904 0.26649788 0.11314273
0.13264629 0.26650265 0.11323166
-0.10388599 0.2959528 0.11121285
0.10302742 0.29595822 0.11130142
-0.074406147 0.32574829 0.11463034
-0.044722743 0.32530561 0.1082437
-0.015137835 0.32486469 0.10187829
0.014349072 0.32486764 0.10192251
0.04388532 0.3253088 0.10828805
0.0735199 0.32575127 0.11467493
-0.22296384 0.089146666 0.12489784
0.22202794 0.08915098 0.12545598
-0.19321431 0.17809016 0.12331295
0.19226673 0.17809436 0.12344682
-0.1633154 0.23714712 0.1179651
0.16240965 0.23715535 0.1181432
-0.13426691 0.29726818 0.13257277
0.13324462 0.29727367 0.13266253
-0.10448368 0.32685643 0.1306231
0.1034757 0.32686245 0.13071263
-0.045017686 0.35631648 0.12740064
-0.015284817 0.35582152 0.12097156
0.014349072 0.35582489 0.12101603
0.044032793 0.35631967 0.12744534
-0.074850559 0.35681477 0.1338737
0.073815838 0.35681641 0.13389611
-0.2243638 0.11916082 0.14763105
0.22325329 0.11916944 0.14819586
-0.1943009 0.20851818 0.14347768
0.1931992 0.2085245 0.14363539
-0.1642452 0.26784271 0.13809621
0.1631837 0.26785114 0.13825369
-0.13502237 0.32835126 0.1522007
0.13384901 0.32835752 0.15229118
-0.10508674 0.3580721 0.15020847
0.10392855 0.35808086 0.15032148
-0.075298913 0.38819197 0.15328813
-0.045315932 0.38764003 0.14677227
-0.015433268 0.38708824 0.14025593
0.014349072 0.38709402 0.14032352
0.044181924 0.38764402 0.14681768
0.07411474 0.38819388 0.15331066
-0.22578043 0.14953116 0.17063379
0.22449318 0.14954443 0.1712054
-0.19539894 0.2392666 0.1638546
0.19414045 0.23927405 0.16401398
-0.16518377 0.29885972 0.15841651
0.16396676 0.29887086 0.1585983
-0.13578467 0.35975006 0.17200601
0.1344596 0.35975882 0.17212033
-0.10569667 0.3896085 0.17001629
0.10438602 0.38961813 0.17013061
-0.075751796 0.41988611 0.17289877
-0.045616839 0.41927803 0.16631699
-0.015583389 0.41867208 0.15975761
0.014349072 0.41867647 0.15980291
0.044332381 0.41928241 0.16636264
0.074417025 0.41989034 0.17294431
-0.22721252 0.18026339 0.19388783
0.22574914 0.18028264 0.19451272
-0.1965086 0.2703402 0.18444705
0.19509165 0.27034894 0.1846081
-0.16613223 0.33020449 0.17895126
0.16475722 0.3302173 0.17913496
-0.1365557 0.39147303 0.1920377
0.13507645 0.39148307 0.19215322
-0.10631286 0.4214685 0.19002759
0.10484818 0.42147908 0.19014311
-0.076209813 0.45190451 0.19273126
-0.045920797 0.45123678 0.18605959
-0.015734859 0.45057368 0.17943347
0.014349072 0.45058054 0.17950237
0.044484541 0.45124376 0.18612897
0.074722014 0.45190677 0.19275427
-0.19763003 0.30174446 0.20525873
0.19605298 0.30175439 0.20542133
-0.16709183 0.36188415 0.19972754
0.16555607 0.36189643 0.19988978
-0.13733467 0.42352366 0.2122761
0.13569967 0.42353436 0.21239316
-0.1069354 0.45365718 0.21024537
0.10531512 0.45366871 0.21036196
-0.076671973 0.48424757 0.21274352
-0.046228215 0.4835237 0.20602679
-0.015888043 0.48280224 0.19933307
0.014349072 0.48280719 0.19937932
0.044638075 0.48352852 0.20607352
0.075030483 0.48425254 0.21279013
-0.22866322 0.21136534 0.21744466
0.22701892 0.21138966 0.21807706
-0.19876474 0.33348596 0.22631633
0.19702458 0.333496 0.22645736
-0.16806063 0.39390042 0.22070217
0.16636348 0.39391419 0.22086656
-0.13812175 0.45590684 0.23272467
0.13632864 0.45591623 0.23281908
-0.1075644 0.48617977 0.23067272
0.1057869 0.48619235 0.23079073
-0.077139415 0.51692498 0.23298442
-0.04653842 0.51613873 0.22617507
-0.016042616 0.51535785 0.21941257
0.014349072 0.51536602 0.21948302
0.044793181 0.51614416 0.22622204
0.075341761 0.51692778 0.23300779
-0.23013003 0.24284178 0.24126256
0.22830404 0.24287266 0.24192584
-0.1999104 0.36556756 0.24757683
0.19800773 0.36558032 0.24774313
-0.16903982 0.42626032 0.24190223
0.16718045 0.42627782 0.24209201
-0.13891703 0.4886277 0.25338662
0.13696489 0.48863789 0.25348198
-0.10819996 0.51904148 0.25131309
0.1062636 0.51905525 0.25143242
-0.077611133 0.54993695 0.25341046
-0.046852179 0.54909259 0.24655461
-0.016198959 0.54825115 0.23972225
0.014349072 0.54825705 0.23976982
0.044950064 0.54909843 0.24660242
0.075656243 0.54993993 0.2534343
-0.23161611 0.27470207 0.26539314
0.22960611 0.27473959 0.26608932
-0.20106842 0.39799589 0.26906717
0.1990004 0.39800984 0.26923549
-0.17003067 0.45897204 0.26335537
0.16800532 0.4589889 0.26352298
-0.13972063 0.5216918 0.27426517
0.1376078 0.52170283 0.27436149
-0.10884218 0.55224764 0.27216995
0.1067453 0.55226249 0.27229011
-0.078088306 0.58329439 0.27407253
-0.047168825 0.58238477 0.2671212
-0.016356736 0.58148152 0.26021826
0.014349072 0.58148772 0.26026618
0.045108389 0.58239114 0.26716936
0.07597436 0.58329743 0.27409661
-0.23312187 0.30695355 0.28984368
0.23092277 0.30699536 0.29052389
-0.20223904 0.43077651 0.29079092
0.20000388 0.43079221 0.29096138
-0.17103119 0.49203652 0.28501666
0.16883914 0.49205467 0.28518641
-0.10949116 0.58580369 0.29324639
0.10723206 0.58581954 0.29336798
-0.047489136 0.61602646 0.28792608
-0.016516339 0.61506003 0.28095114
0.014349072 0.61506677 0.2809993
0.045268551 0.6160332 0.28797472
-0.20342244 0.46391526 0.31275213
0.20101832 0.46393251 0.3129245
-0.17204261 0.52546191 0.30691516
0.16968301 0.5254845 0.30711067
-0.14053273 0.55510432 0.29536378
0.13825752 0.5551163 0.29546106
-0.078569889 0.61699641 0.29492557
0.076295413 0.61699986 0.29494989
-0.047812421 0.65001678 0.30892432
-0.016677421 0.6489861 0.30187595
0.014349072 0.64899307 0.30192482
0.045430198 0.65002388 0.30897319
-0.23464614 0.33960232 0.31459534
0.23225567 0.33964834 0.3152591
-0.17306627 0.55925679 0.32907808
0.17053521 0.55927825 0.32925141
-0.14135341 0.58887112 0.31668603
0.13891409 0.58888394 0.3167845
-0.11014703 0.61971503 0.31454623
0.10772342 0.61972868 0.31464446
-0.079056509 0.65105128 0.315997
0.076620221 0.6510585 0.31604612
-0.048139494 0.68436819 0.33016765
-0.01684038 0.68327177 0.32304537
0.014349072 0.68327928 0.32309473
0.045593545 0.68437207 0.33019269
-0.23619089 0.37265751 0.33967841
0.23360641 0.37270731 0.34032571
-0.20461884 0.49741852 0.3349551
0.20204389 0.49743718 0.33512866
-0.1741001 0.59342182 0.35146081
0.17139679 0.59344488 0.35163629
-0.14218286 0.62299752 0.33823526
0.13957767 0.62301141 0.33833492
-0.11080988 0.65398765 0.33607256
0.10822058 0.65400201 0.33617222
-0.079548836 0.68546867 0.33731544
0.076948062 0.68547261 0.33734024
-0.048469633 0.71907896 0.35161102
-0.01700487 0.71791548 0.3444134
0.014349072 0.71792352 0.34446323
0.045758814 0.71908706 0.35166132
-0.23775336 0.40612349 0.36504972
0.23497266 0.40617672 0.3656801
-0.2058285 0.53129178 0.35740292
0.20308198 0.53131491 0.35760367
-0.14302118 0.65748966 0.36001551
0.14024837 0.65750432 0.36011636
-0.11147982 0.68862695 0.35782969
0.10872306 0.68864256 0.35793006
-0.080045797 0.72024679 0.35883439
0.077279374 0.72025079 0.35885942
-0.017171297 0.75293082 0.36603272
0.014349072 0.75293922 0.36608326
-0.048803672 0.75416273 0.37330759
0.045925636 0.75416714 0.37333286
-0.23933545 0.44000933 0.39073956
0.23635602 0.44006592 0.3913523
-0.20705155 0.56554133 0.38010013
0.20413043 0.56556624 0.38030326
-0.17514539 0.62796605 0.37409174
0.17226796 0.6279906 0.37426937
-0.14386852 0.69235295 0.38203037
0.14092629 0.69236869 0.38213193
-0.11215696 0.72363931 0.37982094
0.10923095 0.72365576 0.37992251
-0.080548637 0.75539923 0.38060796
0.077614605 0.75540352 0.38063323
-0.017339308 0.78831536 0.38785779
0.014349072 0.7883243 0.38790882
-0.20828828 0.60017335 0.40305102
0.20519058 0.6002003 0.4032563
-0.17620234 0.6628955 0.3969754
0.17314979 0.6629253 0.3971802
-0.14472504 0.72759396 0.4042834
0.14161074 0.72760636 0.40436065
-0.11284144 0.75903064 0.40205014
0.10974433 0.75904793 0.40215266
-0.081056267 0.7909236 0.4025892
-0.049140885 0.78961712 0.39521015
0.046094444 0.7896263 0.39526141
0.077953033 0.79092813 0.40261471
-0.017509114 0.82407916 0.40991652
0.014349072 0.82408863 0.40996826
-0.24093908 0.47432572 0.41677964
0.23775823 0.47438517 0.41737401
-0.20954031 0.63519824 0.42628562
0.20626265 0.63522339 0.4264673
-0.17727114 0.69821674 0.42011583
0.17404056 0.69824868 0.42032325
-0.1455909 0.76321858 0.42677891
0.14230345 0.76323181 0.42685688
-0.11353338 0.79480678 0.42452109
0.11026331 0.79482508 0.42462504
-0.081569359 0.82683003 0.42480624
-0.04948172 0.82545209 0.41734827
0.046264868 0.82546163 0.4174
0.078295484 0.82683951 0.42485821
-0.24256152 0.50907624 0.44312465
0.23917687 0.50913829 0.44370043
-0.21080507 0.67061538 0.44975698
0.20734683 0.6706422 0.44994056
-0.178352 0.73393631 0.44351733
0.17494136 0.73397022 0.44372666
-0.14646521 0.79922825 0.44949448
0.14300373 0.79924691 0.44959962
-0.11437111 0.83180368 0.45172703
0.11089224 0.83182794 0.4518584
-0.2442047 0.54427099 0.46980679
0.24061362 0.54433519 0.4703635
-0.17944635 0.77006572 0.46721065
0.17585239 0.77009732 0.4673959
-0.017894823 0.86558014 0.46002162
0.014349072 0.86562586 0.46025908
-0.2120842 0.70643491 0.47349489
0.20844455 0.70646757 0.47370732
-0.21337797 0.74266374 0.49750388
0.20955361 0.74269843 0.49771893
-0.18097216 0.80821395 0.50024521
0.17713541 0.80829978 0.50072944
-0.21486096 0.7798568 0.52502453
0.21083115 0.77991682 0.52537811
0 0 0 1 0 0 0 1 0 0 0 1 0 0 0 0 0 792 1 0 0
