ply
format ascii 1.0
comment PCL generated
element vertex 1022
property float x
property float y
property float z
element camera 1
property float view_px
property float view_py
property float view_pz
property float x_axisx
property float x_axisy
property float x_axisz
property float y_axisx
property float y_axisy
property float y_axisz
property float z_axisx
property float z_axisy
property float z_axisz
property float focal
property float scalex
property float scaley
property float centerx
property float centery
property int viewportx
property int viewporty
property float k1
property float k2
end_header
-0.010873483 0.70281404 -0.34984696
0.012572354 0.70291936 -0.34942043
-0.034214742 0.72453457 -0.35663962
-0.010782043 0.72324246 -0.36172533
0.012572354 0.72335011 -0.36130238
0.035971858 0.72473097 -0.35586619
-0.034582943 0.68345457 -0.33272421
-0.010965643 0.68222523 -0.33787513
0.012572354 0.68233162 -0.33742988
0.036156051 0.68364203 -0.33193862
-0.058154546 0.70696771 -0.33298612
-0.034398004 0.70407325 -0.34473646
0.036063649 0.70426899 -0.34394145
0.059733815 0.70713091 -0.33232367
-0.057877541 0.72749621 -0.34498096
0.059549533 0.72767097 -0.34429312
-0.058160238 0.75418335 -0.33273947
-0.034582704 0.75418335 -0.33273947
-0.011005176 0.75418335 -0.33273947
0.012572354 0.75418335 -0.33273947
0.036149882 0.75418335 -0.33273947
0.059727415 0.75418335 -0.33273947
-0.034919679 0.64118195 -0.31085277
-0.01113488 0.64005721 -0.31589067
0.012572354 0.64016843 -0.31539226
0.036323778 0.64133877 -0.31014967
-0.03476911 0.66266936 -0.32063258
-0.011058412 0.66147023 -0.32582426
0.012572354 0.66158104 -0.32534444
0.036249299 0.66285592 -0.31982529
-0.058433376 0.6862734 -0.32091188
0.059919551 0.68642902 -0.32025993
-0.082364097 0.71203911 -0.31239879
0.08380463 0.71235824 -0.31110287
-0.081991218 0.73269683 -0.32450879
0.083525799 0.73303533 -0.32317638
-0.081929751 0.75581527 -0.32650471
0.083445005 0.75577092 -0.32667506
-0.011308879 0.38240951 -0.29328763
0.012572354 0.38257596 -0.29208636
-0.035121851 0.40564227 -0.29772139
-0.011248335 0.40514046 -0.30115223
0.012572354 0.40531525 -0.29995692
0.03641133 0.40548798 -0.29877651
-0.05908557 0.40638083 -0.29267132
0.060346738 0.40640393 -0.29251325
-0.058978416 0.42955253 -0.29731154
-0.035065398 0.42892501 -0.30138791
-0.011223916 0.42847297 -0.30432463
0.012572354 0.42862508 -0.30333602
0.036383726 0.42877498 -0.30236232
0.060277961 0.42960349 -0.29698074
-0.059055649 0.45394352 -0.29396677
-0.035116754 0.45328298 -0.29805219
-0.01124749 0.45276406 -0.30126238
0.012572354 0.4529216 -0.30028737
0.036407333 0.45308205 -0.29929602
0.060334578 0.45405069 -0.29330337
-0.035167985 0.47769114 -0.2947247
-0.01127111 0.47710362 -0.29819369
0.012572354 0.47726896 -0.29721713
0.036434747 0.47751996 -0.29573488
-0.011294777 0.50149143 -0.2951194
0.012572354 0.50166476 -0.29414058
0.036463201 0.50203693 -0.2920388
-0.011210518 0.61846769 -0.30606508
0.012572354 0.61859292 -0.30548501
-0.058925308 0.64369154 -0.29961085
0.06024377 0.64378285 -0.29920173
-0.058706485 0.66533571 -0.30908656
0.060100973 0.66547662 -0.30847657
-0.082739457 0.69121391 -0.30020881
0.084085658 0.69151813 -0.29893398
-0.035483338 0.33699289 -0.27424192
-0.011431014 0.33660123 -0.27742171
0.012572354 0.33675069 -0.27620816
0.036594413 0.33690032 -0.27499366
-0.059446961 0.3606568 -0.27702272
-0.035362229 0.3599914 -0.28210807
-0.011369728 0.35956284 -0.28538287
0.012572354 0.35972086 -0.28417552
0.036533155 0.35988098 -0.28295112
0.060584001 0.36064631 -0.27710259
-0.083424404 0.38453281 -0.27796435
-0.059265628 0.38357535 -0.28487456
-0.035241738 0.38287413 -0.28993416
0.03647209 0.38274252 -0.2908839
0.060465075 0.38358194 -0.28482676
0.084588729 0.38464561 -0.27715039
-0.083197437 0.40745395 -0.28533518
0.08441034 0.40752128 -0.28487456
0.10869507 0.40913022 -0.27387404
-0.10732049 0.43211883 -0.28064311
-0.083027072 0.43054444 -0.29086816
0.084271923 0.43054444 -0.29086816
0.10847634 0.43206748 -0.28097761
-0.10747337 0.4567394 -0.27667129
-0.08316762 0.45518228 -0.28630376
0.084357545 0.45504376 -0.28716052
0.10862516 0.45682457 -0.27614427
-0.059132695 0.47838458 -0.29063082
0.060391568 0.47855881 -0.28960156
-0.083309069 0.47989526 -0.28170991
0.084458806 0.47971472 -0.28277612
-0.083450451 0.50467861 -0.27711856
-0.059222363 0.50297356 -0.28674805
-0.035219565 0.50215441 -0.29137444
0.060448699 0.50312537 -0.28589106
0.084583931 0.50463617 -0.27735806
-0.059350118 0.52792728 -0.28121638
-0.03529153 0.52691406 -0.28670049
-0.011330793 0.52622306 -0.2904408
0.012572354 0.52638972 -0.28953838
0.036502216 0.52686405 -0.28697026
0.060519688 0.52791548 -0.28128016
-0.011386 0.55150634 -0.28326929
-0.035402693 0.55223548 -0.27947986
0.012572354 0.55163175 -0.28261709
0.036560982 0.55226326 -0.27933621
-0.011441708 0.57691306 -0.27603257
0.012572354 0.57698333 -0.2756809
-0.035447411 0.62482399 -0.27657545
0.036583219 0.62485164 -0.27644777
-0.083352715 0.64800429 -0.28029263
0.084529042 0.64812875 -0.27973485
-0.083075829 0.66990888 -0.28928483
0.084331915 0.67014313 -0.28827059
-0.10732233 0.76783127 -0.28059506
0.10855585 0.76840717 -0.2783953
-0.035772704 0.29096285 -0.25544691
-0.011574032 0.29059684 -0.25884271
0.012572354 0.29074311 -0.25748527
0.036739774 0.29089141 -0.25611055
-0.084112786 0.31511676 -0.2556088
-0.059812382 0.31447113 -0.26119947
-0.035605051 0.31387794 -0.2663362
-0.011492487 0.31352004 -0.269436
0.012572354 0.3136608 -0.26821613
0.036656108 0.31380385 -0.26697934
0.06082388 0.31443396 -0.26152217
-0.083882056 0.33836511 -0.26310158
-0.059629209 0.33762234 -0.26913106
0.060703516 0.33759665 -0.26933992
0.084948532 0.33855364 -0.26157057
-0.10817948 0.3631036 -0.25832593
-0.083652936 0.36150491 -0.27054262
0.08476799 0.36165592 -0.26938796
0.10913503 0.36293876 -0.25958574
-0.10789158 0.38621756 -0.26580584
0.10891479 0.38608843 -0.2667383
-0.13225453 0.41116589 -0.25995708
-0.10760566 0.40922391 -0.27323401
0.13332108 0.41139263 -0.25840664
-0.13195689 0.4343116 -0.26640046
0.13304496 0.43443775 -0.26558053
-0.13210258 0.4589096 -0.26324654
0.13310504 0.45878473 -0.26401937
-0.13243815 0.48425266 -0.25598097
-0.10765066 0.48152867 -0.27206516
0.10879271 0.48175934 -0.27070308
0.1333833 0.48411563 -0.25678992
-0.10791449 0.50678688 -0.26521051
0.10896134 0.50678402 -0.2652266
-0.10819441 0.53222787 -0.25793791
-0.083597668 0.52956766 -0.27233732
0.084712081 0.52966529 -0.27180862
0.1091594 0.53206962 -0.25879455
-0.083903894 0.55552399 -0.26239276
-0.059550725 0.55357307 -0.2725296
0.060643069 0.55343133 -0.27326608
0.084935494 0.55557358 -0.26213455
-0.059752092 0.57935917 -0.26381028
-0.035514884 0.57768142 -0.27219319
0.036620039 0.57778722 -0.2716645
0.060791872 0.57940125 -0.26360083
-0.03564097 0.60342723 -0.26400363
-0.011488166 0.60218143 -0.26999748
0.012572354 0.60220146 -0.26990116
0.036679633 0.6034441 -0.26392305
-0.059814617 0.62815911 -0.26110268
0.060819909 0.62801319 -0.2617799
-0.10811111 0.7249217 -0.26010227
0.10926696 0.72610426 -0.255301
-0.1076488 0.74600714 -0.2721132
0.10891034 0.74733585 -0.26688278
-0.083798796 0.79579496 -0.26580584
-0.059706375 0.79579926 -0.26578975
-0.03561347 0.79579926 -0.26578975
-0.011520557 0.79579926 -0.26578975
0.012572354 0.79580379 -0.26577342
0.036665387 0.79580379 -0.26577342
0.060758419 0.79580379 -0.26577342
0.084851459 0.79580379 -0.26577342
-0.035989515 0.2681995 -0.24136472
-0.011681953 0.2678535 -0.24482369
0.012572354 0.26799205 -0.24343777
0.036848009 0.26813087 -0.24205053
-0.08448454 0.29224658 -0.24353552
-0.060077824 0.29158145 -0.24970555
0.060999803 0.29153958 -0.25009549
0.085415162 0.2924805 -0.24136472
0.085129596 0.3153336 -0.25373006
-0.10876007 0.31654468 -0.24324214
0.10957955 0.31632426 -0.24514985
-0.13324995 0.34140694 -0.23840547
-0.10846877 0.33987892 -0.25081015
0.10935678 0.33968514 -0.25238407
-0.13290006 0.36471921 -0.2459805
0.13387652 0.36498165 -0.24397588
-0.13255261 0.3879222 -0.25350308
0.13359785 0.38823912 -0.25121593
-0.15756336 0.41434443 -0.23822534
0.15836592 0.4142271 -0.23902714
-0.15721218 0.43764621 -0.24474227
0.15809669 0.43762863 -0.24485624
-0.15710774 0.46158782 -0.2466805
0.15804927 0.46171662 -0.24588299
-0.15758277 0.48732069 -0.23786533
-0.13277607 0.50971615 -0.24866533
0.13372606 0.5098545 -0.24788475
-0.13321821 0.53570956 -0.23909271
0.13406952 0.5357337 -0.23896182
-0.10860202 0.55841917 -0.24734795
0.10953842 0.55858541 -0.24648535
-0.084264539 0.58198726 -0.25068021
0.085195526 0.58194828 -0.250875
-0.059978902 0.60550857 -0.25398922
0.060940854 0.60552216 -0.25392437
0.085509211 0.60897905 -0.23729229
-0.10869478 0.68015033 -0.24493778
0.10955849 0.6799432 -0.24583399
-0.10854318 0.70346367 -0.24887669
0.109565 0.70424044 -0.24562204
-0.060733967 0.24577269 -0.22129393
-0.036208279 0.24523124 -0.22715557
-0.011790968 0.24490735 -0.23066223
0.012572354 0.24503636 -0.22926378
0.036957089 0.24516422 -0.22788048
0.061437882 0.24574056 -0.22164118
-0.084912844 0.26937434 -0.22962594
-0.060404234 0.26877937 -0.23557186
0.061217859 0.26874334 -0.23593247
0.085684739 0.26936772 -0.22969174
-0.10928604 0.29375091 -0.22957659
0.10999376 0.29352224 -0.23169804
-0.13364178 0.31808266 -0.22992218
0.13447954 0.31826901 -0.2283088
0.13415584 0.34161466 -0.23671889
0.15920334 0.34356341 -0.2208966
-0.15827096 0.36745262 -0.22509396
0.1589074 0.36716348 -0.22730386
-0.15791598 0.39094585 -0.23168159
0.15863617 0.39073884 -0.23317647
-0.18294173 0.46577194 -0.2207973
0.18348327 0.46528021 -0.2238394
0.15846421 0.48748419 -0.23689914
-0.15826029 0.51385462 -0.22529209
0.15893784 0.51361519 -0.22664452
-0.13386019 0.56268305 -0.22519314
0.13460456 0.56270844 -0.22506094
-0.10922653 0.58590162 -0.23112261
0.10999173 0.58577329 -0.23176372
-0.084685363 0.60903692 -0.23701382
-0.084923491 0.63501823 -0.22928035
0.085732274 0.63537335 -0.2276336
-0.012011835 0.1983892 -0.20197082
-0.061066315 0.22255591 -0.20690274
-0.036429279 0.2220563 -0.21280122
-0.01190084 0.22175255 -0.21638954
0.012572354 0.221872 -0.21497846
0.037067283 0.2219916 -0.21356595
0.061659917 0.22252896 -0.20722008
-0.085370004 0.24637452 -0.21477902
0.086076342 0.24656332 -0.21273482
0.11089107 0.24750343 -0.20255685
-0.13498153 0.27224743 -0.20091569
-0.10984217 0.27082515 -0.21512794
0.11044061 0.27061927 -0.21718574
-0.13430898 0.29527056 -0.21547651
0.13503931 0.29545492 -0.21376562
-0.15919366 0.32061747 -0.20797074
0.15969104 0.320344 -0.21033788
-0.15862651 0.34385911 -0.21849573
-0.18404652 0.37036252 -0.20285797
-0.18373269 0.39423367 -0.20795417
0.18444179 0.39449745 -0.20605123
-0.18346798 0.41814318 -0.21225226
0.18412109 0.41817975 -0.21200275
-0.18320401 0.44198826 -0.21653891
0.18380159 0.4417738 -0.21793199
-0.18352331 0.49181053 -0.21135378
0.18418388 0.49189803 -0.2108376
-0.15894233 0.54059774 -0.21263492
0.1596718 0.54094511 -0.21075428
-0.13496374 0.59187025 -0.20130086
0.13548943 0.59171629 -0.20207119
-0.11007786 0.61485869 -0.20900476
0.11066173 0.61465073 -0.21000481
-0.03687682 0.17506877 -0.18373275
-0.012123844 0.17481315 -0.18742061
0.012572354 0.17491144 -0.18600059
0.037290551 0.17501122 -0.18456244
-0.086271785 0.1996578 -0.18549311
-0.06140168 0.19912758 -0.19238091
-0.036652029 0.19866922 -0.19833314
0.012572354 0.19849893 -0.20054686
0.037178475 0.1986087 -0.19912159
0.061884232 0.19910693 -0.19265044
0.086749241 0.1998038 -0.18359733
-0.11096915 0.22433877 -0.18584836
-0.085818574 0.22312257 -0.20021164
0.086411253 0.22329 -0.19823241
0.11134622 0.22417551 -0.18777549
-0.13566105 0.24901414 -0.1862036
-0.11040276 0.24768767 -0.20056343
0.13617377 0.24919087 -0.1842916
0.13560361 0.27242869 -0.19910491
0.16036963 0.29740778 -0.19564533
-0.15999743 0.2976869 -0.19305456
-0.18445861 0.34660918 -0.19616663
0.1850868 0.3468661 -0.19408143
0.1847637 0.37072647 -0.20007753
-0.18458289 0.51936883 -0.19414854
0.18504873 0.51925564 -0.19478786
-0.16017456 0.56950074 -0.1897676
0.16064814 0.56952995 -0.18961573
-0.012058457 0.83925653 -0.19591439
0.012572354 0.83926123 -0.19589782
-0.037103668 0.15125144 -0.16899848
-0.012236744 0.15102023 -0.17275441
0.012572354 0.15110949 -0.17130423
0.037403785 0.15119895 -0.16985285
-0.086728662 0.17597464 -0.17065549
-0.061740123 0.17548493 -0.17772603
0.062110342 0.17546839 -0.17796385
0.087090336 0.17610139 -0.16882741
-0.11154012 0.20077229 -0.17101407
0.11180507 0.20062914 -0.17287374
-0.13634606 0.22556433 -0.17137241
0.1367486 0.22573507 -0.16935742
0.16174661 0.25089595 -0.16583312
-0.16080879 0.27454093 -0.17799807
0.16105531 0.27426055 -0.18080008
-0.18625498 0.3004953 -0.16699731
-0.18532139 0.32359812 -0.1821568
0.18586467 0.32388809 -0.17964578
-0.21122582 0.37527728 -0.16530228
0.21148296 0.3752324 -0.16564488
-0.21092239 0.39953685 -0.16968191
0.21131749 0.39972404 -0.16833174
-0.2106186 0.42372826 -0.17406678
0.21115126 0.42417225 -0.17103112
-0.21044168 0.44813406 -0.17662048
0.21098739 0.448585 -0.17369187
-0.21060088 0.47328499 -0.17432249
0.21082275 0.47295478 -0.17636549
-0.2107615 0.49847469 -0.17200387
0.21084788 0.49780509 -0.17595708
-0.18606649 0.54846394 -0.17005789
0.18654163 0.5490135 -0.16708291
-0.062426381 0.12754446 -0.14801025
-0.037332609 0.12721479 -0.15412843
-0.012350814 0.12700957 -0.15793598
0.012572354 0.12708849 -0.15647256
0.037518062 0.1271674 -0.15500784
0.062568843 0.12753522 -0.14818347
-0.087190315 0.15207279 -0.15566278
-0.062081672 0.15162477 -0.16293633
0.062338538 0.15161216 -0.16314232
0.087434977 0.15218109 -0.15390396
-0.11211706 0.17698833 -0.15602469
0.11226874 0.17686424 -0.15781569
-0.13703823 0.20189828 -0.15638649
0.13732944 0.20206153 -0.15426648
-0.1624555 0.22759113 -0.14743888
0.16245314 0.22732872 -0.15053642
-0.16162871 0.25117776 -0.16278195
-0.18719742 0.27717325 -0.1516943
0.18753022 0.27746916 -0.14873743
0.18669394 0.30079058 -0.16425681
-0.2119498 0.35169777 -0.15485263
0.21207434 0.35155126 -0.15604198
-0.13746992 0.62773764 -0.14704025
0.13750097 0.62716198 -0.14980996
-0.062774681 0.10324141 -0.13292825
-0.037563935 0.10295621 -0.13910317
-0.012465939 0.10277721 -0.14298093
0.012572354 0.1028446 -0.14152145
0.037633263 0.10291282 -0.14004302
0.062801562 0.10323497 -0.13306797
-0.087655753 0.12794659 -0.14054763
0.08778242 0.12803745 -0.13885939
-0.11269871 0.15298113 -0.14091289
0.11273623 0.15287507 -0.14263368
-0.13773607 0.17801014 -0.14127791
0.13791509 0.17816436 -0.13905096
-0.16329016 0.20377955 -0.13194907
0.16317607 0.20355374 -0.13488424
-0.1881499 0.25363073 -0.13622797
0.18837552 0.25392437 -0.13305044
-0.21306509 0.32860982 -0.13875484
0.21309821 0.32853329 -0.13941646
-0.21272054 0.52829599 -0.14372778
0.21280169 0.52820683 -0.14423108
-0.16256009 0.60303938 -0.14549756
0.16299489 0.6043784 -0.13880706
-0.012699272 0.053633884 -0.11267018
0.012572354 0.053680137 -0.11116529
-0.063125834 0.078711025 -0.11772299
-0.037797146 0.078471057 -0.12395549
-0.012581997 0.078319095 -0.12790453
0.012572354 0.078376539 -0.1264137
0.037749663 0.078433938 -0.12492168
0.063036181 0.078706972 -0.11782873
-0.11387915 0.10428917 -0.11024427
-0.088126086 0.1035951 -0.12527299
0.088133104 0.10366888 -0.12367451
0.11368502 0.1042164 -0.11182058
-0.13915227 0.12955955 -0.11061645
-0.1132865 0.12874982 -0.12564158
0.11320866 0.12866089 -0.12729096
-0.13844045 0.15389788 -0.12602782
0.13850693 0.15404263 -0.12367427
-0.16413285 0.17973968 -0.11631107
0.16390683 0.17954916 -0.1190629
-0.1891104 0.22986126 -0.12063098
0.18922809 0.23014933 -0.11722887
-0.21419272 0.30529311 -0.1224786
0.21413372 0.30527988 -0.12260187
-0.038270146 0.028811112 -0.093233585
-0.012817508 0.028716929 -0.097310781
0.012572354 0.028751984 -0.095791817
0.037985612 0.028787144 -0.094271779
-0.089079574 0.05419936 -0.094307542
-0.063480273 0.053950951 -0.10237527
-0.038032539 0.053757228 -0.1086663
0.037867155 0.053726554 -0.10965919
0.063273005 0.053948626 -0.10244644
0.088844784 0.054244049 -0.092857599
-0.11447809 0.079597838 -0.094683051
-0.088600308 0.079013161 -0.10987198
0.088487066 0.079071961 -0.10834718
0.11416647 0.079539903 -0.096185088
-0.13987002 0.10498982 -0.09507668
0.13970685 0.10510883 -0.092499256
0.13910371 0.12969121 -0.10816967
-0.16498363 0.15546852 -0.10052264
0.16464388 0.15530944 -0.10310519
-0.19008015 0.20586294 -0.10488391
0.1900899 0.20614386 -0.10123527
-0.21533045 0.2817404 -0.10605693
0.21517998 0.28178474 -0.10561264
-0.2416746 0.3847672 -0.092785954
-0.24078301 0.40858686 -0.10436821
0.24091667 0.40923598 -0.099684596
-0.038509987 0.0036297254 -0.077655315
-0.012936994 0.0035661049 -0.081789017
0.012572354 0.0035896935 -0.080255747
0.038105316 0.0036132783 -0.078721166
-0.089562841 0.029148787 -0.078612804
-0.063838042 0.028957769 -0.086883307
0.063512065 0.028956905 -0.086919188
0.089205466 0.029180482 -0.077239513
-0.11508205 0.05467087 -0.078992128
0.11465196 0.054627001 -0.08041811
-0.14059457 0.080186464 -0.079389572
0.14031509 0.080290176 -0.07669723
-0.16584264 0.13096228 -0.084581017
0.165389 0.13083351 -0.08697319
-0.19108583 0.18166283 -0.088554025
0.19096018 0.18190324 -0.085084915
-0.21648091 0.25795168 -0.089451432
0.21623605 0.25804293 -0.08846426
-0.24242267 0.36053929 -0.08306849
0.2420691 0.36054167 -0.083050489
0.24182844 0.3855868 -0.08652389
-0.24231452 0.43683249 -0.084473014
0.24158585 0.43602031 -0.090025663
-0.038752101 -0.021790445 -0.061929107
-0.013057612 -0.021822687 -0.066120386
0.012572354 -0.021810731 -0.064572811
0.038226016 -0.021798939 -0.063041687
-0.090051293 0.0038592033 -0.06275022
-0.064199202 0.0037284531 -0.071244717
0.063753672 0.0037287213 -0.071226597
0.089569584 0.003878843 -0.061473131
-0.11569246 0.029506259 -0.063132882
0.11514268 0.029475152 -0.064481497
-0.1413269 0.055146925 -0.063534141
0.14092986 0.055233486 -0.060724735
-0.16671099 0.10621891 -0.068466544
0.1661406 0.10611575 -0.070700288
-0.19211827 0.1572381 -0.071789026
0.19183807 0.15742251 -0.068793774
-0.21881449 0.20964378 -0.055769086
-0.2176418 0.23392034 -0.072695613
0.2173043 0.23405385 -0.071117878
-0.064932279 -0.047452647 -0.039501667
-0.038996525 -0.047452647 -0.04605341
-0.013179233 -0.047452535 -0.050321341
0.012572354 -0.047452535 -0.048758864
0.038348008 -0.047452591 -0.047195077
0.06424325 -0.047452591 -0.039427757
-0.090543866 -0.021673651 -0.046753287
-0.064563781 -0.021740567 -0.055457711
0.063997291 -0.021740135 -0.055402756
0.089937173 -0.0216644 -0.045555949
-0.11630803 0.004099559 -0.047140002
0.11563758 0.0040799193 -0.048409462
-0.14206542 0.029866382 -0.047544837
0.14154989 0.029933892 -0.044616103
0.16766706 0.055943884 -0.0376513
-0.16758685 0.081232496 -0.052212715
0.16690049 0.081154265 -0.054248571
-0.19421604 0.1076388 -0.037725568
-0.19316237 0.13256532 -0.054834962
0.19272561 0.13270068 -0.052322626
-0.22000049 0.18512028 -0.038650751
0.21838272 0.20981029 -0.053606749
-0.24464685 0.33837613 -0.054175258
0.24503887 0.33999154 -0.04018569
-0.06530387 -0.073411465 -0.023411036
-0.039243579 -0.073360555 -0.030007243
-0.013302157 -0.073327012 -0.034353137
0.012572354 -0.073339298 -0.03277564
0.038471162 -0.073351413 -0.031196833
0.064491563 -0.073412165 -0.023299098
-0.091041759 -0.047452535 -0.030583382
0.090308279 -0.047452591 -0.029486299
-0.11693027 -0.021552039 -0.030973911
0.11613784 -0.021561179 -0.032163024
-0.14281793 0.0043441318 -0.031252503
0.14217663 0.0043890849 -0.028332591
0.16844216 0.030482441 -0.02087009
-0.16847129 0.056000851 -0.035799146
-0.19528171 0.082456224 -0.020421386
0.19362099 0.10773195 -0.035706401
-0.22119743 0.16034266 -0.021374941
0.21947366 0.18531135 -0.035891891
-0.24615991 0.31477252 -0.03452003
-0.013551414 -0.12582397 -0.001973629
-0.065679051 -0.099620208 -0.0071651936
-0.039492719 -0.099517792 -0.013825059
-0.013426261 -0.099449798 -0.018231511
0.012572354 -0.099474087 -0.01665771
0.038595352 -0.099498704 -0.015063643
0.064742573 -0.099622741 -0.0069956779
-0.091544494 -0.073481783 -0.014256835
0.090683408 -0.073489629 -0.01324296
0.11664241 -0.047452647 -0.015776634
-0.11755782 -0.047452591 -0.014669776
-0.14358646 -0.021426156 -0.014613509
0.14280878 -0.021405328 -0.01190877
-0.17026652 0.0047870763 -0.0024840832
0.16922507 0.0047650598 -0.0039200783
-0.16936447 0.030520469 -0.019223928
-0.19635727 0.057012193 -0.0029566288
0.19543974 0.057042979 -0.0019547939
0.19452633 0.082514592 -0.01890564
-0.22240803 0.13530999 -0.0039012432
0.22057511 0.16055003 -0.018006921
0.24667671 0.31670973 -0.016545296
-0.013677927 -0.15245365 0.014460564
0.012572354 -0.15250379 0.016084194
-0.066057861 -0.12608287 0.0092376471
-0.039744265 -0.12592757 0.0025134087
0.012572354 -0.12586114 -0.00036585331
0.038720891 -0.12589818 0.0012437105
0.064995721 -0.12608764 0.0094470978
-0.092051543 -0.099764533 0.0022099018
0.091061734 -0.099778816 0.0031388998
-0.11819219 -0.073605612 0.0018121004
0.1171525 -0.07359761 0.00078904629
-0.14436175 -0.047452647 0.0021721125
0.14344786 -0.047452647 0.0046949387
-0.17117858 -0.021202518 0.014441609
0.17001498 -0.021212148 0.013181925
-0.19744399 0.031303577 0.014689684
0.1963634 0.031314991 0.015186191
-0.22363125 0.11001637 0.013754487
0.22168949 0.13552481 8.8572502e-05
0.24833912 0.29309946 0.0074493885
-0.01380552 -0.17934206 0.031035662
0.012572354 -0.17940509 0.032674909
0.038975477 -0.17946815 0.034315705
-0.066440359 -0.15280288 0.025800228
-0.039998256 -0.15259376 0.019010305
0.03884764 -0.15255383 0.017709255
0.065251343 -0.15281057 0.02605021
-0.092563555 -0.12630451 0.018838048
0.09144374 -0.126324 0.0196805
0.11818723 -0.12666371 0.034393072
-0.1188328 -0.10001473 0.018455505
0.11766702 -0.099999964 0.01749897
-0.14514478 -0.073738798 0.019125342
0.1440925 -0.073756546 0.021443129
-0.17209874 -0.047452647 0.031517625
0.17081377 -0.047452647 0.030476689
-0.19854328 0.0053262115 0.032539845
0.19729541 0.0053253435 0.032482028
-0.22486591 0.084457435 0.031575441
0.22281589 0.11022999 0.018378735
-0.040513702 -0.2067107 0.052489758
-0.01393451 -0.20649377 0.047791958
0.012572354 -0.20657027 0.049447417
0.039104715 -0.20664686 0.051104426
-0.093603961 -0.18017304 0.052626491
-0.066826597 -0.17978415 0.042524695
-0.04025472 -0.17952031 0.035668373
0.065509468 -0.17979544 0.042815924
0.092219025 -0.180197 0.053251028
-0.12013151 -0.15361576 0.05219698
-0.093081191 -0.15310615 0.03564918
0.091829486 -0.15312877 0.036383748
0.11871202 -0.15359223 0.051435947
-0.11947896 -0.12668335 0.035243154
-0.14593567 -0.10028863 0.036248326
0.14474428 -0.10032141 0.038376689
-0.17302816 -0.07396698 0.04876554
0.17161983 -0.073960491 0.047928333
-0.19965293 -0.020924296 0.050558448
0.19823794 -0.020928949 0.049973488
-0.22611493 0.058630563 0.049603224
0.22395328 0.084660403 0.036848068
-0.040775537 -0.23417023 0.069496632
-0.014064768 -0.23391256 0.064712882
0.012572354 -0.23400262 0.066384792
0.039235227 -0.23409271 0.068058252
-0.094131321 -0.20750821 0.069752812
-0.067217074 -0.20703143 0.059432983
0.06577044 -0.20704687 0.059766412
0.092612863 -0.20753357 0.07030499
-0.12079129 -0.1808162 0.069338799
0.11924265 -0.18079051 0.068668962
-0.14754146 -0.15419513 0.071015
-0.14673452 -0.12710597 0.053544044
0.14540178 -0.12715039 0.05545938
-0.17396699 -0.10074954 0.066187978
0.17243505 -0.10074007 0.065578103
-0.2007755 -0.047452647 0.068787098
0.1991891 -0.047452591 0.067624807
-0.22743309 0.032549165 0.068629384
0.22510426 0.058813304 0.055537462
-0.041039661 -0.2619006 0.08665204
-0.014196161 -0.2616007 0.081781268
0.012572354 -0.26170474 0.083469629
0.039366871 -0.26180881 0.08515954
-0.094664559 -0.23511726 0.087070227
-0.067610964 -0.23454702 0.076488972
0.066033691 -0.2345672 0.076864839
0.093010157 -0.23514077 0.087508202
-0.12145693 -0.20828781 0.086632252
0.11977801 -0.20826119 0.086054921
-0.14835756 -0.18156084 0.088683844
0.14606662 -0.15424815 0.072732449
-0.17491537 -0.12780458 0.08378768
0.17325774 -0.12779532 0.083390236
-0.20190883 -0.074262783 0.087189555
0.20015115 -0.07424964 0.085477948
0.22626662 0.03268268 0.074411869
-0.041306414 -0.28990704 0.10397816
-0.014329011 -0.28956488 0.099038959
0.012572354 -0.28968304 0.10074413
0.039499979 -0.28980136 0.10245085
-0.09520252 -0.2630024 0.1045413
-0.068008751 -0.26233566 0.09371388
0.066299558 -0.26236147 0.094133615
0.093411416 -0.26302344 0.10488319
-0.12212998 -0.23603591 0.10411894
0.12031937 -0.23600996 0.1036365
-0.14918107 -0.2092061 0.1065135
0.14673738 -0.18161771 0.090159416
-0.17587452 -0.15513653 0.10158718
0.17408988 -0.15513091 0.10140646
-0.20305425 -0.10135926 0.10578871
0.20112205 -0.10132389 0.10349572
-0.22889571 0.0062068552 0.089740634
0.22744299 0.0062651187 0.093513966
-0.041575842 -0.31819355 0.1214776
-0.014463184 -0.317808 0.11646855
0.012572354 -0.31793898 0.11817062
0.039634261 -0.31807172 0.11989439
-0.095746554 -0.29117006 0.12220883
-0.068410516 -0.29040128 0.11111045
0.066568084 -0.29043341 0.11157501
0.093816698 -0.29118568 0.12243247
-0.12280907 -0.26406297 0.12176216
0.12086562 -0.26403919 0.12137616
-0.15001306 -0.23713565 0.12452662
0.14810014 -0.23719144 0.12556434
0.14741571 -0.20926467 0.1077826
-0.17684244 -0.18274882 0.11954939
0.17492975 -0.18275046 0.11959004
-0.2042132 -0.12874722 0.12460792
0.20210417 -0.12868056 0.12172151
-0.23037767 -0.020458249 0.1111306
0.22863115 -0.020445267 0.11280715
-0.041847967 -0.34676442 0.13915312
-0.014598547 -0.34633249 0.13405287
0.012572354 -0.3464798 0.13579226
0.039770048 -0.34662715 0.13753319
-0.096295461 -0.31962222 0.14003539
-0.068816304 -0.31874812 0.12868166
0.06683962 -0.31878906 0.1292119
0.094226062 -0.31963164 0.14015853
-0.12349503 -0.29237384 0.13958395
0.12141806 -0.29235542 0.13931727
-0.15085365 -0.26535395 0.14272594
0.14879233 -0.26540461 0.14354825
-0.17782035 -0.21064636 0.13769734
0.17577933 -0.21065956 0.13798428
-0.20538341 -0.15643042 0.14361
0.20309545 -0.15632299 0.14011729
0.2298338 -0.047452699 0.13233542
-0.23187792 -0.047452535 0.13278508
-0.042122848 -0.37562391 0.1570071
-0.014735429 -0.37514594 0.15183437
0.012572354 -0.37530842 0.15359139
0.039907202 -0.37547076 0.15535009
-0.096850596 -0.34836584 0.15806413
-0.069226645 -0.34738237 0.1464504
0.067113586 -0.34742951 0.14700651
0.094640054 -0.34836751 0.15808475
-0.12418879 -0.32097498 0.15760815
0.12197553 -0.32096046 0.15742147
-0.15170299 -0.29386562 0.16111445
0.14949085 -0.29390585 0.16169608
-0.17880952 -0.23883447 0.15605414
0.1766369 -0.2388612 0.15655112
0.20409828 -0.18425682 0.15872777
-0.23339683 -0.074782446 0.1547085
0.23104988 -0.074762262 0.15208232
-0.042400524 -0.40477628 0.17504215
-0.014873538 -0.40424916 0.16977513
0.012572354 -0.40442675 0.17155004
0.040045585 -0.40460464 0.17332673
-0.097410791 -0.37740207 0.17625678
-0.069640681 -0.37630484 0.16437817
0.067390338 -0.37636054 0.16498172
0.095057778 -0.37739435 0.17617309
-0.12488884 -0.34986725 0.17579603
0.12253938 -0.34986195 0.17573309
-0.15256117 -0.3226752 0.17969525
0.15019654 -0.32270104 0.18003106
-0.1798079 -0.26731578 0.17458177
0.17750451 -0.26736215 0.17533541
0.20511059 -0.2124854 0.17751384
-0.20656633 -0.18441427 0.16281819
-0.23493327 -0.10245386 0.17688513
0.23227838 -0.10237921 0.17203069
-0.042681351 -0.43422854 0.19328272
-0.015013212 -0.43365061 0.18791962
0.012572354 -0.43384385 0.18971252
0.040185541 -0.43403724 0.19150722
-0.097977392 -0.40673926 0.19465756
-0.070058919 -0.40552148 0.18248856
0.067669906 -0.40558666 0.18314016
0.095479779 -0.40671811 0.19444597
-0.12559611 -0.37905696 0.19417095
0.12310842 -0.37906086 0.19421339
-0.15342939 -0.35178912 0.19849217
-0.18081675 -0.29609588 0.19330382
0.17838036 -0.29616457 0.19429791
0.20618391 -0.24106413 0.19743204
-0.20776348 -0.21270439 0.18225729
0.23352206 -0.13030867 0.19222569
-0.042964734 -0.46398079 0.211689
-0.015154317 -0.46335274 0.20624948
0.012572354 -0.46356192 0.20806086
0.040326927 -0.46377122 0.20987415
-0.09854921 -0.43637812 0.21322799
-0.070481434 -0.43503696 0.20078397
0.06795267 -0.4351148 0.20150614
0.095906124 -0.43634346 0.2129072
-0.1263115 -0.40855071 0.21275747
0.12368404 -0.40856564 0.2129072
0.15091038 -0.35179642 0.19857705
-0.18183741 -0.32518086 0.21224463
0.17926654 -0.32527635 0.21348453
-0.20897245 -0.2413044 0.20188868
0.23477861 -0.15855569 0.2126292
-0.2364905 -0.13047351 0.19936192
-0.043251045 -0.4940398 0.23028505
-0.015296707 -0.49335769 0.22474647
0.012572354 -0.49358293 0.22657645
0.040469602 -0.49380869 0.22840834
-0.099127628 -0.46632758 0.23201275
0.096336871 -0.4662751 0.23155892
-0.070908301 -0.46485597 0.21926761
0.068238012 -0.46494502 0.2200402
-0.1270335 -0.43834901 0.23151588
0.12426502 -0.43837696 0.23177516
-0.15430577 -0.38120878 0.21746635
0.15163085 -0.38119304 0.21729505
-0.18286771 -0.35457268 0.23136473
0.18016125 -0.35469893 0.23285544
-0.21019609 -0.27022102 0.22175789
0.20728773 -0.26998445 0.21791649
-0.23806745 -0.15884802 0.22212315
-0.043540314 -0.52441025 0.2490741
-0.015440734 -0.52367496 0.24345601
0.012572354 -0.52391714 0.2453053
0.040613919 -0.52415919 0.24715579
-0.099711433 -0.49658775 0.25097251
-0.071340069 -0.49498552 0.2379638
0.06852632 -0.4950844 0.23876619
0.096772596 -0.49652052 0.25042677
-0.12776308 -0.46845889 0.25047016
0.12485278 -0.46850422 0.25086319
-0.15519145 -0.41094086 0.23664188
0.15235966 -0.41089964 0.23623061
-0.183909 -0.38427782 0.25068855
0.18106663 -0.3844412 0.2524575
-0.21143198 -0.29945746 0.24182618
0.20840421 -0.29923648 0.2386359
-0.23966298 -0.18758333 0.24515295
0.23638421 -0.18733507 0.23870111
-0.0438326 -0.55509716 0.26805854
-0.015586257 -0.55430758 0.2623601
0.012572354 -0.55456638 0.26422846
0.040759742 -0.55482566 0.26609862
-0.10030206 -0.52716881 0.27015328
-0.071775824 -0.52542555 0.25683272
0.068817623 -0.52553737 0.25768673
0.097212367 -0.5270794 0.26946938
-0.12850113 -0.49888769 0.26964593
0.12544608 -0.49894741 0.27013123
-0.15608659 -0.44099006 0.25602257
0.15309535 -0.44091699 0.25534391
-0.18496262 -0.41430327 0.27024162
-0.21268301 -0.32902184 0.26214051
0.20953357 -0.3288258 0.2595942
-0.24128047 -0.21668777 0.26849949
0.23809449 -0.21659428 0.26647282
-0.044128291 -0.58610868 0.28726423
-0.015733128 -0.58525676 0.28143954
0.012572354 -0.58553284 0.2833271
0.040906914 -0.58580935 0.28521681
-0.072216131 -0.55618334 0.27589822
0.06911198 -0.55630928 0.276806
0.097656764 -0.55795908 0.28871226
-0.12924616 -0.52963555 0.28900206
-0.15699132 -0.47136185 0.27561069
0.15383966 -0.47125447 0.27468145
0.18198185 -0.41450655 0.27227247
-0.2139481 -0.35891813 0.2826829
0.21067485 -0.35875666 0.28077364
-0.044426754 -0.61744368 0.30665004
-0.015881713 -0.61653399 0.30074096
0.012572354 -0.61682755 0.30264878
0.041055806 -0.61712158 0.30455828
-0.07266105 -0.58726418 0.29516411
0.06940978 -0.58740819 0.29614854
-0.10089823 -0.5580703 0.2895149
0.12604637 -0.52971715 0.28962636
-0.15790583 -0.50206119 0.29541016
0.15459102 -0.50191242 0.29420269
-0.18602642 -0.44465017 0.28998315
0.18290603 -0.44489771 0.29228139
-0.21522745 -0.38915229 0.30345726
0.21183063 -0.38903815 0.30222213
-0.24291733 -0.24616674 0.29212523
0.23982978 -0.2463029 0.29464996
-0.016031694 -0.64813763 0.32022393
0.012572354 -0.6484493 0.32215166
0.041206099 -0.64876115 0.32408166
-0.07311067 -0.61867285 0.31463325
0.069710381 -0.61883301 0.31567323
-0.10150144 -0.58930302 0.30910432
0.098105848 -0.58916473 0.30815828
-0.12999909 -0.56070977 0.30856383
0.12665239 -0.56081271 0.30930734
-0.15883128 -0.53309631 0.31544685
0.15535131 -0.53290099 0.31395531
-0.18710172 -0.47532561 0.30993831
0.18384138 -0.47562519 0.31253254
-0.21651997 -0.41972753 0.32444501
0.21299998 -0.41967526 0.3239224
-0.24457541 -0.27602845 0.3160578
0.24159333 -0.27647373 0.32328689
-0.016183436 -0.68008 0.33993626
0.012572354 -0.68040991 0.34188437
-0.073565587 -0.6504181 0.33433151
-0.044728376 -0.6491102 0.32624078
0.070014179 -0.65059185 0.33540547
-0.10211039 -0.62086642 0.32888067
0.0985597 -0.62070161 0.32781065
-0.13076092 -0.59211904 0.32835686
0.12726562 -0.59224558 0.3292222
-0.15976581 -0.56446707 0.33567989
0.15611888 -0.56422013 0.33389771
-0.18818997 -0.50633788 0.33013356
0.18478601 -0.50668901 0.33298457
-0.24625516 -0.30628014 0.34030282
-0.016336802 -0.71236318 0.35985863
0.012572354 -0.71271181 0.36182773
-0.074024826 -0.68249857 0.35421741
-0.045033209 -0.68111366 0.34603989
0.041358158 -0.6807403 0.34383464
0.070321232 -0.68269026 0.35534894
-0.10272587 -0.65276831 0.3488692
0.099018931 -0.65257865 0.34769571
-0.13153006 -0.62386239 0.34833992
0.12788476 -0.62401462 0.34932959
-0.16071057 -0.59618175 0.35613418
0.15689476 -0.59587777 0.35405552
-0.18928891 -0.53768706 0.35052729
0.18574218 -0.53810054 0.35368633
-0.21782866 -0.45065436 0.34569538
0.2141819 -0.45067173 0.34585619
0.24338306 -0.30711475 0.35234845
-0.016491627 -0.74498808 0.37997127
-0.07448899 -0.7149229 0.37431598
-0.045341298 -0.71345961 0.36605108
0.041511841 -0.71306086 0.3637991
0.070631579 -0.71513373 0.37550652
-0.10334872 -0.68501842 0.36909676
0.099482551 -0.68479407 0.36777091
-0.13230751 -0.65594792 0.36853826
0.12851135 -0.65613216 0.36967838
-0.16166681 -0.62824976 0.37683773
0.15767999 -0.62788314 0.37445605
-0.19039994 -0.5693813 0.37114549
0.18670797 -0.5698595 0.374596
-0.21915236 -0.48193648 0.36718965
0.21537907 -0.48203847 0.36807323
-0.2479586 -0.33693144 0.36488986
-0.074958153 -0.7476967 0.39463162
-0.04565306 -0.74615753 0.38630068
0.012572354 -0.7453559 0.38196158
0.041666992 -0.74572396 0.38395393
0.070945643 -0.74793202 0.39590549
-0.10397761 -0.71761495 0.38952053
0.099951163 -0.71735674 0.38806272
-0.13309428 -0.68838584 0.38897932
0.12914406 -0.6885969 0.39022613
-0.16263258 -0.66066986 0.3977474
0.15847287 -0.66023481 0.39505601
-0.19152454 -0.60142994 0.39201522
0.18768567 -0.601978 0.39576399
-0.2204899 -0.51357722 0.38890898
0.21659057 -0.51377994 0.39055574
0.24520245 -0.33824018 0.38189113
-0.075432405 -0.78082556 0.41516709
-0.045967825 -0.77920491 0.40674567
-0.016648306 -0.77796894 0.40032411
0.012572354 -0.77835625 0.40233588
0.041824002 -0.77874386 0.40435004
-0.10461336 -0.75056678 0.41016698
0.10042486 -0.75027275 0.40857434
-0.13388874 -0.72117352 0.40961993
0.12978444 -0.7214222 0.41102326
0.1592754 -0.69294596 0.41590631
-0.19266039 -0.63383186 0.41309404
-0.22184448 -0.54558843 0.41090429
0.21781534 -0.54589987 0.41328478
0.24704924 -0.36985844 0.41187966
-0.046286024 -0.81261146 0.42741323
-0.016806679 -0.81130743 0.42089748
0.012572354 -0.81171447 0.42293143
0.041982718 -0.81212199 0.42496729
-0.10525682 -0.78388482 0.43106389
0.071262754 -0.78108269 0.41650259
0.10090373 -0.78354734 0.42930961
-0.13469191 -0.75432098 0.43048692
0.13043115 -0.75460535 0.43202591
-0.16360912 -0.69345129 0.41888988
-0.19380893 -0.66659653 0.43440866
0.18867332 -0.63445574 0.41714704
-0.22321489 -0.5779739 0.43315673
-0.046607703 -0.84638321 0.44830656
-0.016966596 -0.84500432 0.44167137
0.012572354 -0.84543157 0.44372725
0.042142972 -0.84585935 0.44578552
-0.10590664 -0.81756604 0.45216727
-0.075912371 -0.81432033 0.43595076
0.071583338 -0.81459534 0.43732476
0.10138839 -0.81719154 0.45029664
-0.13550489 -0.7878387 0.45160866
-0.16459773 -0.72660446 0.44029379
0.16008587 -0.72601479 0.43696308
0.18967327 -0.66730577 0.43879676
0.2190562 -0.57841104 0.4363122
-0.046932906 -0.88052636 0.46942949
-0.017128449 -0.87907493 0.46269655
0.012572354 -0.8795231 0.46477509
0.042305175 -0.87997168 0.46685624
-0.076397046 -0.84817731 0.45693755
0.071907431 -0.84847611 0.45837569
0.13108504 -0.78815699 0.45326185
-0.16559635 -0.76012731 0.46191478
0.1609063 -0.75945544 0.45827818
-0.19501503 -0.69987011 0.4567914
0.19068353 -0.70052695 0.46066928
-0.2246014 -0.61074018 0.45567083
0.22031216 -0.61131787 0.45961976
-0.10656366 -0.85162055 0.47350502
0.10187785 -0.85120207 0.47149086
-0.13632593 -0.8217237 0.47293997
0.13174698 -0.82208771 0.4747591
-0.16660629 -0.79403019 0.48378086
0.16175202 -0.79335099 0.48025084
-0.19624332 -0.73356116 0.47958493
0.19170649 -0.73413348 0.48281741
-0.22600278 -0.6438905 0.47842669
0.22158216 -0.64462346 0.48318791
-0.13715613 -0.85598618 0.49450898
0.13241559 -0.85639441 0.49647284
-0.16762893 -0.82832468 0.50592113
0.1626132 -0.82766497 0.50262523
-0.19748487 -0.7676487 0.50262523
0.19274014 -0.76812398 0.50519681
-0.22742237 -0.67743868 0.50147772
0.22286913 -0.67834294 0.50707126
-0.22885898 -0.71138877 0.52480555
-0.19874263 -0.802149 0.52596641
0.19378696 -0.80251366 0.52786088
0.22417204 -0.71248031 0.53125048
-0.23031129 -0.74574298 0.548388
0.2254912 -0.74704307 0.55573058
-0.2319883 -0.78113455 0.57561898
0.22682552 -0.78203493 0.5804925
0 0 0 1 0 0 0 1 0 0 0 1 0 0 0 0 0 1022 1 0 0
