ply
format ascii 1.0
comment PCL generated
element vertex 910
property float x
property float y
property float z
element camera 1
property float view_px
property float view_py
property float view_pz
property float x_axisx
property float x_axisy
property float x_axisz
property float y_axisx
property float y_axisy
property float y_axisz
property float z_axisx
property float z_axisy
property float z_axisz
property float focal
property float scalex
property float scaley
property float centerx
property float centery
property int viewportx
property int viewporty
property float k1
property float k2
end_header
0.052969955 -0.068642586 -0.19926101
0.068030693 -0.06863144 -0.19962305
0.037795246 -0.053513732 -0.20124584
0.052774705 -0.053475901 -0.2028845
0.067865744 -0.053489324 -0.2023015
0.083122514 -0.053555064 -0.19945604
0.037706323 -0.038416341 -0.20317119
0.052664168 -0.038389146 -0.20493573
0.067739338 -0.038398128 -0.20435411
0.082992084 -0.03844453 -0.20133847
0.022754602 -0.023383614 -0.2005415
0.03764528 -0.023353204 -0.20449263
0.052604511 -0.023341268 -0.20604289
0.067684755 -0.023347437 -0.20524031
0.08295808 -0.023373734 -0.20182943
0.052545913 -0.0083104847 -0.20713007
0.022695407 -0.0083104484 -0.20207936
0.037584759 -0.0083104121 -0.20580304
0.067630231 -0.0083104121 -0.20612586
0.082929216 -0.0083104484 -0.20224607
0.02269505 0.0067508174 -0.20208871
0.037584759 0.0067222081 -0.2058031
0.052545913 0.006711998 -0.20713025
0.067630798 0.0067198211 -0.20611656
0.082928576 0.0067495322 -0.20225531
0.022754602 0.021835919 -0.20054144
0.03764528 0.021775063 -0.20449263
0.052605011 0.021751376 -0.20603359
0.067685328 0.021763679 -0.20523107
0.08295808 0.021816088 -0.20182937
0.037706323 0.03684834 -0.20317119
0.052664168 0.036807612 -0.20493579
0.067739338 0.036821052 -0.20435411
0.082992084 0.036890686 -0.20133859
0.037795678 0.05196093 -0.20123667
0.052775197 0.051910359 -0.20287514
0.06786631 0.051928319 -0.20229226
0.083123155 0.052016001 -0.19944686
0.052970953 0.067105457 -0.19924253
0.06803184 0.06709145 -0.19960445
0.053437278 -0.099209249 -0.19058853
0.068527684 -0.09916465 -0.19155294
0.083745949 -0.099215299 -0.1904574
0.099129312 -0.099354774 -0.18743646
0.038226098 -0.084008276 -0.19191778
0.053186014 -0.083879918 -0.19525146
0.068236224 -0.083840147 -0.19628567
0.083437718 -0.08389321 -0.19490647
0.098876573 -0.084054351 -0.19071978
0.023102373 -0.068881437 -0.19150609
0.038008437 -0.068723604 -0.19663018
0.083260275 -0.068697825 -0.19746751
0.098710217 -0.068838999 -0.19288081
0.0080231018 -0.053786255 -0.18944526
0.022891894 -0.05361234 -0.19697452
0.09861245 -0.05367751 -0.19415081
0.0079593547 -0.038595825 -0.19151539
0.022815317 -0.038481109 -0.19896388
0.09855213 -0.038543157 -0.19493437
0.0078957416 -0.023437234 -0.19358134
0.09853489 -0.023425005 -0.19515824
0.0078322627 -0.0083104847 -0.19564283
0.0985227 -0.0083104484 -0.19531661
0.0078322627 0.0068003982 -0.19564289
0.0985227 0.0068029305 -0.19531661
0.0078957416 0.021943087 -0.19358134
0.09853489 0.021918774 -0.19515818
0.0079593547 0.037117541 -0.19151551
0.022815675 0.036945738 -0.1989547
0.09855213 0.03703858 -0.19493449
0.0080231018 0.052323986 -0.18944526
0.022892609 0.052092686 -0.19695592
0.09861245 0.052179065 -0.19415081
0.023103453 0.06740427 -0.19147801
0.038009301 0.06720674 -0.19661158
0.083260275 0.067173764 -0.19746763
0.098710217 0.067350283 -0.19288069
0.038226955 0.082527816 -0.19189906
0.053186521 0.082373366 -0.19524211
0.068237372 0.082326069 -0.19626701
0.083439015 0.082389697 -0.19488776
0.098877288 0.082582667 -0.19071031
0.05343879 0.097739637 -0.19056046
0.068528265 0.097686633 -0.19154352
0.083747245 0.097746193 -0.19043881
0.099130057 0.097908482 -0.18742698
0.06941057 -0.13033229 -0.17721671
0.084553547 -0.13023475 -0.178801
0.099936508 -0.13034865 -0.17695081
0.038880125 -0.11505044 -0.17775756
0.053874649 -0.11479633 -0.18247205
0.068945765 -0.11467285 -0.18476421
0.084127344 -0.11466272 -0.1849525
0.099457704 -0.11475873 -0.18317056
0.1150282 -0.11499012 -0.1788767
0.023568057 -0.099725664 -0.1794073
0.038463466 -0.099385202 -0.18677849
0.11472935 -0.099587113 -0.18240595
0.13062432 -0.099928275 -0.17502105
0.008440014 -0.084624559 -0.17590564
0.023320556 -0.084242254 -0.18583775
0.1145528 -0.084294125 -0.18449098
0.1305514 -0.084628254 -0.17581052
0.0082099177 -0.069131657 -0.18337822
0.11447462 -0.069068998 -0.18541408
0.1305514 -0.069364682 -0.17581046
-0.0068699643 -0.054051749 -0.17794746
0.11444274 -0.053870652 -0.1857906
0.1305514 -0.054101165 -0.17581052
-0.0069292635 -0.038765132 -0.18051511
0.11444274 -0.038683854 -0.18579072
0.1305514 -0.038837519 -0.17581052
-0.0069853589 -0.023519095 -0.18294406
0.11444274 -0.023497172 -0.18579072
0.1305514 -0.023574002 -0.17581052
-0.0070406571 -0.0083104847 -0.18533874
0.1305505 -0.0083104847 -0.17582005
0.11444274 -0.0083104121 -0.18579072
-0.0070402287 0.0068798736 -0.18531984
0.11444274 0.006876274 -0.1857906
0.1305505 0.0069530318 -0.17582005
-0.0069847032 0.022107216 -0.18291569
0.11444274 0.022062959 -0.1857906
0.1305514 0.022216659 -0.17581052
-0.0069290437 0.037371796 -0.18050575
0.11444353 0.037250012 -0.1857813
0.13055226 0.037480433 -0.17580098
-0.0068697445 0.052678246 -0.17793798
0.11444353 0.052436735 -0.18578124
0.13055226 0.052744098 -0.17580098
0.0082104988 0.067716748 -0.18335927
0.11447462 0.067637667 -0.18541408
0.13055226 0.068007767 -0.17580104
0.0084408931 0.083267823 -0.17587709
0.023321636 0.082809061 -0.18580949
0.11455359 0.082870454 -0.1844815
0.13055226 0.08327131 -0.17580098
0.023569144 0.09834215 -0.17937905
0.038464338 0.097944379 -0.18675959
0.11473016 0.098179549 -0.18239629
0.13062519 0.098577455 -0.17501152
0.038881876 0.11368041 -0.17771971
0.053876184 0.11338946 -0.18244362
0.068947501 0.11324833 -0.18473583
0.084128641 0.11323608 -0.18493372
0.099458434 0.11334532 -0.1831612
0.115029 0.11360975 -0.17886722
0.069412328 0.12896611 -0.17718816
0.084555514 0.12885635 -0.17877257
0.099938698 0.1289845 -0.17692226
0.054932885 -0.14658149 -0.16283369
0.070021696 -0.14627258 -0.16729313
0.085253216 -0.146175 -0.16870183
0.10060763 -0.14620751 -0.16823244
0.11610087 -0.14634766 -0.16620892
0.13176972 -0.14659619 -0.16262174
0.039402895 -0.13099599 -0.16643941
0.054370582 -0.13057546 -0.17326868
0.11549338 -0.13056837 -0.17338306
0.13122752 -0.13086966 -0.16849113
0.02395469 -0.11550273 -0.16936243
0.13085049 -0.11532988 -0.17257261
0.14691138 -0.11574574 -0.16485447
0.0086777583 -0.10024399 -0.16818464
0.14682385 -0.10035741 -0.16572893
0.14682385 -0.08501628 -0.16572893
-0.0066891536 -0.069539957 -0.17011809
0.14682385 -0.069675125 -0.16572875
0.14682385 -0.054333951 -0.16572875
-0.021885714 -0.039035987 -0.16292042
0.14682385 -0.038992796 -0.16572881
-0.021938119 -0.023647014 -0.16632426
0.14682385 -0.023651641 -0.16572893
-0.021990493 -0.0083104847 -0.16972595
0.1468229 -0.0083103748 -0.16573852
-0.021990346 0.0070000039 -0.16971648
0.1468229 0.0070306342 -0.16573846
-0.021937972 0.022362828 -0.16631454
0.14682385 0.022371937 -0.16572893
-0.021885566 0.037778098 -0.1629107
0.14682484 0.037713274 -0.16571927
0.14682484 0.053054467 -0.16571927
-0.0066882707 0.068227857 -0.17007977
0.14682484 0.068395704 -0.16571927
0.14682484 0.083736971 -0.16571927
0.0086789355 0.098947406 -0.16814631
0.14682484 0.099078193 -0.16571921
0.023956895 0.11419864 -0.16930491
0.13085139 0.11399795 -0.17256308
0.14691138 0.11447272 -0.16485441
0.039405107 0.12971418 -0.16639137
0.054372638 0.12924029 -0.17323053
0.11549499 0.12923108 -0.17336398
0.13122842 0.12956929 -0.16848159
0.05493547 0.14532778 -0.16278553
0.070024654 0.14498451 -0.16724527
0.085256539 0.14487605 -0.16865402
0.10061059 0.14491142 -0.16819417
0.11610331 0.14506651 -0.16618019
0.1317724 0.14534256 -0.16259277
0.070985936 -0.16280696 -0.151636
0.086148016 -0.16248746 -0.15578669
0.10143662 -0.16235834 -0.15746355
0.11687259 -0.16238673 -0.15709549
0.13267213 -0.16271332 -0.15285271
0.040012002 -0.14724536 -0.15325165
0.14777127 -0.14703678 -0.15626192
0.024508588 -0.13170221 -0.15497154
0.16349399 -0.13179925 -0.15339744
0.1472033 -0.13127327 -0.16193748
0.0090535432 -0.11622389 -0.15598065
0.16328773 -0.11625999 -0.15531135
0.16326267 -0.10082784 -0.15554416
-0.0064668097 -0.085217848 -0.16049027
0.16326368 -0.085408643 -0.15553445
0.16326267 -0.069988698 -0.15554422
-0.021832982 -0.054477882 -0.15949517
0.16326267 -0.054569185 -0.15554416
0.16326267 -0.039149508 -0.15554416
0.16326162 -0.023730014 -0.15555388
0.16326162 -0.0083104484 -0.15555394
0.16326162 0.0071090814 -0.15555388
0.16326162 0.022528537 -0.15555388
0.16326368 0.037948396 -0.15553439
-0.021832684 0.053246729 -0.15947592
0.16326368 0.053368073 -0.15553445
0.16326368 0.068787754 -0.15553445
-0.0064659119 0.083980232 -0.16045153
0.16326368 0.084207386 -0.15553457
0.16326368 0.099626988 -0.15553439
0.0090553351 0.11502279 -0.15592259
0.16328773 0.11506043 -0.15531135
0.024511211 0.13051003 -0.15490359
0.1472033 0.13002272 -0.16193748
0.16349503 0.1306151 -0.15338784
0.040014252 0.14606537 -0.15320295
0.14777416 0.1458322 -0.15623283
0.07099013 0.16164148 -0.15156776
0.086151369 0.16128831 -0.15573823
0.10143962 0.16114552 -0.15742475
0.11687752 0.16117835 -0.15703732
0.13267574 0.16153596 -0.15281385
0.087267928 -0.17927396 -0.13962203
0.10258351 -0.17902474 -0.14256531
0.11817876 -0.17910047 -0.14167035
0.13392806 -0.17930484 -0.13925719
0.055950969 -0.16339935 -0.14394051
0.14863467 -0.16311505 -0.14763415
0.16475257 -0.1635703 -0.14171958
0.16398031 -0.14754786 -0.14888519
0.18043882 -0.1481405 -0.14033163
0.17997339 -0.13235563 -0.14436233
0.17987034 -0.11680186 -0.14525491
-0.0062154867 -0.10110204 -0.14960778
0.17987034 -0.10130304 -0.14525485
0.17987144 -0.085804716 -0.14524502
-0.021670682 -0.070191622 -0.14895362
0.17987034 -0.070305601 -0.14525485
0.17987034 -0.054806802 -0.14525479
-0.037062392 -0.039408207 -0.13874424
0.17987034 -0.039308056 -0.14525485
-0.037092034 -0.023829762 -0.1425947
0.1798692 -0.023809124 -0.14526463
-0.037121486 -0.0083104121 -0.14642066
0.1798692 -0.0083104484 -0.14526469
-0.037121259 0.0071796319 -0.14639145
0.1798692 0.007188336 -0.14526469
-0.037091807 0.022728547 -0.14256525
0.1798692 0.022686901 -0.14526469
-0.037062239 0.038336739 -0.13872451
0.17987144 0.038186088 -0.14524508
0.17987144 0.053684946 -0.14524502
-0.021670081 0.069042549 -0.14891452
0.17987144 0.069183767 -0.14524502
0.17987144 0.084682584 -0.14524502
-0.0062145889 0.099948496 -0.14956868
0.17987144 0.10018155 -0.14524508
0.17987144 0.11568038 -0.14524508
0.17997226 0.13123964 -0.14437217
0.16398239 0.14639932 -0.1488657
0.18044224 0.14705858 -0.14030194
0.055955723 0.16229482 -0.14385206
0.14863956 0.16197869 -0.14758515
0.16475573 0.1624779 -0.14168996
0.087272711 0.17820153 -0.13955295
0.1025903 0.17793147 -0.14247674
0.11818459 0.17801231 -0.14160144
0.13393351 0.17823434 -0.13919795
0.072233558 -0.17997211 -0.13137686
0.14982593 -0.17960347 -0.1357305
0.16614497 -0.1801904 -0.12879944
0.041133583 -0.1645519 -0.12896889
0.18134323 -0.16428007 -0.13249928
0.025212243 -0.14839283 -0.13668996
0.19716048 -0.14880705 -0.13071072
0.0097008646 -0.13293479 -0.13495833
0.19673982 -0.13298601 -0.13412607
-0.0058180913 -0.11749454 -0.13240004
0.19665074 -0.11736262 -0.13484931
0.19664949 -0.1017832 -0.13485926
-0.021482632 -0.086132079 -0.13673943
0.19665074 -0.086204812 -0.13484931
0.19664949 -0.070625693 -0.13485926
-0.037032712 -0.055046182 -0.13488895
0.19664949 -0.055046879 -0.13485938
0.19664949 -0.039467998 -0.13485926
0.1966483 -0.023889149 -0.13486922
0.19664705 -0.0083104847 -0.13487905
0.19664705 0.0072682155 -0.13487911
0.1966483 0.022847025 -0.13486922
0.19665074 0.038426168 -0.13484937
-0.03703256 0.054004464 -0.13486916
0.19665074 0.054005012 -0.13484931
0.19665074 0.069583967 -0.13484937
-0.021482022 0.08507736 -0.13669986
0.19665074 0.085162848 -0.13484943
0.19665074 0.1007417 -0.13484931
-0.0058160275 0.11647692 -0.13231063
0.19665074 0.1163206 -0.13484937
0.0097036101 0.131898 -0.13486916
0.19674101 0.13195018 -0.13411611
0.02521567 0.14734349 -0.13660097
0.19716415 0.14779919 -0.13068092
0.04114002 0.16356699 -0.12882936
0.18134895 0.16326042 -0.13244963
0.072239086 0.17896512 -0.1312874
0.14983186 0.17856021 -0.13567108
0.16615251 0.17920136 -0.1287297
0.10470734 -0.19709283 -0.11497563
0.12009268 -0.19671473 -0.11906809
0.13568529 -0.19660705 -0.12023431
0.15187162 -0.19706389 -0.11528873
0.057541154 -0.18140715 -0.11443013
0.18275481 -0.18091227 -0.12027448
0.19808996 -0.16499871 -0.12316418
0.21418694 -0.1495565 -0.11989266
0.21369979 -0.13363324 -0.12361491
0.21360415 -0.11792855 -0.12434584
0.2307345 -0.11850047 -0.11373258
-0.02129228 -0.10226749 -0.12437576
0.21360284 -0.10226837 -0.12435579
0.23073307 -0.10275859 -0.11374271
0.21360415 -0.08660917 -0.12434578
0.2307345 -0.087017596 -0.11373258
-0.036946617 -0.07096912 -0.12370515
0.21360415 -0.070949391 -0.12434572
0.2307345 -0.071276188 -0.11373252
0.21360284 -0.055289384 -0.12435579
0.23073307 -0.055534456 -0.11374271
-0.052611284 -0.039795078 -0.11362129
0.21360284 -0.039629739 -0.12435585
0.23073307 -0.039793096 -0.11374271
-0.052611284 -0.024022391 -0.11756808
0.21360153 -0.023970019 -0.12436581
0.2307317 -0.024051698 -0.1137529
-0.052611284 -0.0083104847 -0.12148952
0.2307303 -0.0083104847 -0.11376292
0.21360022 -0.0083104484 -0.12437582
-0.052611284 0.0073714163 -0.12145948
0.21360022 0.0073490497 -0.12437576
0.2307303 0.0074307658 -0.11376303
-0.052611284 0.023113839 -0.11753792
0.21360153 0.023008693 -0.12436581
0.2307317 0.023172051 -0.11375278
-0.052611284 0.038916901 -0.11360115
0.21360415 0.038668778 -0.12434578
0.2307345 0.038913853 -0.11373252
0.21360415 0.054328497 -0.12434578
0.2307345 0.054655287 -0.1137327
-0.036946312 0.070014402 -0.12366509
0.21360415 0.069988251 -0.12434578
0.2307345 0.070396721 -0.11373258
0.21360415 0.08564797 -0.12434578
0.2307345 0.086138159 -0.11373252
-0.021291666 0.1013082 -0.12433577
0.21360415 0.10130772 -0.12434578
0.2307345 0.10187958 -0.1137327
0.21360284 0.11696674 -0.12435579
0.23073307 0.11762032 -0.11374265
0.21369979 0.13267776 -0.12361491
0.21419087 0.14863199 -0.1198625
0.19809613 0.16405094 -0.12311411
0.057548784 0.18053545 -0.11428857
0.18276292 0.17998892 -0.12020427
0.10471823 0.19621795 -0.11483419
0.12010118 0.19580427 -0.11896747
0.13569272 0.19568555 -0.12015402
0.15188372 0.19618462 -0.11516756
0.08965116 -0.19799373 -0.10522306
0.16838953 -0.19773975 -0.10797262
0.19961086 -0.18171315 -0.11081612
0.02656889 -0.1666708 -0.10144341
0.21532562 -0.16592039 -0.11119115
0.010438628 -0.1501728 -0.11099857
0.23157772 -0.15040495 -0.10764724
-0.0052633584 -0.13457155 -0.1083793
0.23087609 -0.13430484 -0.11271083
-0.021005571 -0.11893043 -0.10575324
0.24808937 -0.11909495 -0.10270154
0.24804452 -0.10325441 -0.10300797
-0.03685021 -0.087115824 -0.11118114
0.24804452 -0.087430418 -0.10300809
0.24804452 -0.071606383 -0.10300809
-0.052611284 -0.05562862 -0.10966945
0.248043 -0.055782136 -0.10301834
0.248043 -0.039958291 -0.10301828
0.24804154 -0.024134332 -0.10302848
0.24803853 -0.0083104121 -0.10304898
0.24803853 0.0075131785 -0.10304892
0.24804154 0.023337208 -0.10302854
0.24804452 0.039161496 -0.10300809
-0.052611284 0.054781038 -0.10964924
0.24804452 0.054985527 -0.10300809
0.24804452 0.070809528 -0.10300809
-0.036849897 0.086257845 -0.11114049
0.24804452 0.086633474 -0.10300815
0.24804452 0.10245743 -0.10300809
-0.021004155 0.11811806 -0.10566145
0.24809086 0.118301 -0.10269117
-0.0052612461 0.13373967 -0.10828781
0.23087889 0.13343462 -0.11269045
0.010441437 0.14932133 -0.11090726
0.23158053 0.14957391 -0.10762674
0.026575185 0.1658998 -0.10127974
0.21533227 0.16506475 -0.11114055
0.19961709 0.18086083 -0.11076534
0.089665286 0.19720018 -0.10501921
0.1684027 0.19691676 -0.10785061
0.18508297 -0.19846585 -0.10011214
0.21738976 -0.183017 -0.095418334
0.23291603 -0.16693671 -0.097988784
0.24941832 -0.15137713 -0.093615294
0.24846059 -0.13507757 -0.10016328
0.2657041 -0.11972083 -0.091085613
-0.036752529 -0.10346298 -0.098491788
0.26553705 -0.10375494 -0.092170477
0.26553705 -0.087847516 -0.092170477
-0.052611284 -0.071766332 -0.097814083
0.26553705 -0.071940124 -0.092170537
0.26553705 -0.056032717 -0.092170477
0.26553547 -0.040125098 -0.092180848
-0.068520688 -0.024219904 -0.09191221
0.26553389 -0.024217738 -0.092191219
-0.068489738 -0.0083104484 -0.095932841
0.26553071 -0.0083104484 -0.092211783
-0.068489976 0.0075682309 -0.095902085
0.26553071 0.0075966194 -0.092211783
-0.068520926 0.023508865 -0.091881275
0.26553389 0.023504093 -0.0921911
0.26553705 0.039411783 -0.092170477
0.26553705 0.055319224 -0.092170477
-0.052611284 0.07101059 -0.097783267
0.26553705 0.071226656 -0.092170537
0.26553705 0.087134048 -0.092170477
-0.036752291 0.10270251 -0.098460913
0.26553705 0.10304146 -0.092170477
0.26570728 0.11901698 -0.091065049
0.24846208 0.13430326 -0.10015315
0.24942589 0.15065648 -0.093563735
0.23292315 0.16618285 -0.097937346
0.21740055 0.18228614 -0.09533596
0.18509242 0.1976994 -0.10003018
0.20303676 -0.20004649 -0.083001077
0.04313466 -0.1838447 -0.085644007
0.23547721 -0.1843645 -0.079505146
0.25154939 -0.16839503 -0.079044938
-0.0046953112 -0.15205835 -0.083782256
-0.020625737 -0.13625264 -0.081082284
0.26649708 -0.13595381 -0.085934997
-0.036597751 -0.12040521 -0.07838583
0.28341255 -0.10431731 -0.079996228
-0.052611284 -0.088125095 -0.084958017
0.28321502 -0.088269129 -0.081218004
0.28321502 -0.072277367 -0.081218004
-0.068583116 -0.056225933 -0.083803117
0.28321502 -0.05628565 -0.081217945
-0.068551838 -0.040191501 -0.087865651
0.28321502 -0.040293965 -0.081218004
0.28321168 -0.024302024 -0.081238985
0.28320831 -0.0083104847 -0.081259727
0.28320831 0.0076809432 -0.081259727
0.28321168 0.023672666 -0.081238806
-0.068552002 0.039511718 -0.087844908
0.28321502 0.039664753 -0.081218004
-0.06858319 0.055577185 -0.083792567
0.28321671 0.055656735 -0.081207514
0.28321502 0.071648195 -0.081218004
-0.052611284 0.087468117 -0.084937215
0.28321502 0.087639883 -0.081218004
0.28341591 0.10369867 -0.079975367
-0.036597107 0.11980292 -0.078302145
-0.020624287 0.13563095 -0.080988348
0.26650187 0.13529046 -0.085903883
-0.0046929084 0.15141752 -0.083678186
0.25156012 0.1677888 -0.078971684
0.043142341 0.1831968 -0.08547771
0.23548734 0.18375537 -0.079431832
0.20305857 0.19942133 -0.082824051
0.0758278 -0.20096906 -0.073014021
0.011654928 -0.16897596 -0.071498096
0.26809981 -0.15263042 -0.075525045
0.2856999 -0.13719094 -0.06584698
0.28415573 -0.12056613 -0.075399041
-0.052611284 -0.10468838 -0.071961522
0.30153751 -0.088798791 -0.06745559
-0.068679705 -0.072584152 -0.071255744
0.30118862 -0.072637692 -0.069515765
0.30108139 -0.056541301 -0.070148766
0.30108139 -0.040464375 -0.070148766
-0.084835149 -0.024422411 -0.065603256
0.30107781 -0.024387227 -0.070169926
-0.084771663 -0.0083104484 -0.069726884
0.30107427 -0.0083103748 -0.070191085
-0.084772155 0.0077699665 -0.069695115
0.30107427 0.0077661481 -0.070190907
-0.084835634 0.02391392 -0.065571547
0.30107781 0.023843076 -0.070169866
0.30108139 0.03992033 -0.070148766
0.30108318 0.055997629 -0.070138216
-0.068679944 0.072032824 -0.071224213
0.30118862 0.072098643 -0.069515765
0.3015393 0.088276058 -0.06744498
-0.052611284 0.10413212 -0.071929872
0.28415909 0.11998309 -0.07537806
0.28570673 0.13668297 -0.065804541
0.26811111 0.15205072 -0.075451612
0.011659801 0.16843504 -0.071340024
0.075853713 0.20044515 -0.072593093
0.22211617 -0.20223568 -0.059302211
0.028347507 -0.18641973 -0.055233657
-0.020236827 -0.15399548 -0.055821896
-0.036402792 -0.13797839 -0.053059518
0.30380136 -0.12171444 -0.054088235
0.30230212 -0.10510497 -0.062940776
-0.068781242 -0.089160249 -0.058065057
0.3202942 -0.073163643 -0.052437305
-0.084963202 -0.056838308 -0.057285845
0.31973284 -0.056877051 -0.055608034
-0.084899053 -0.040598206 -0.061452866
0.31937906 -0.040657446 -0.057606161
0.31928271 -0.024479814 -0.05815053
0.31924683 -0.008310522 -0.058353066
0.31924492 0.0078571923 -0.058363855
0.31928083 0.024028026 -0.05816108
-0.084899381 0.040121663 -0.061431468
0.31938094 0.040210247 -0.057595551
-0.084963366 0.056393716 -0.057275176
0.31973472 0.056445319 -0.055597305
0.32029611 0.072756365 -0.052426577
-0.068781406 0.088710308 -0.058043778
0.30230752 0.10461825 -0.062908947
0.30381042 0.12129745 -0.054034531
-0.036402047 0.13757266 -0.05296284
-0.020235345 0.15356919 -0.055725574
0.028353684 0.1860054 -0.055073142
0.22215521 0.20180511 -0.059003711
-0.0036998875 -0.17134847 -0.040679038
0.27201319 -0.17062269 -0.050106883
-0.052611284 -0.12191917 -0.050289631
-0.068883911 -0.10594629 -0.044728279
0.32152146 -0.089643613 -0.04550606
-0.085167855 -0.07342352 -0.043993175
-0.10147263 -0.0083104484 -0.042846382
-0.10147338 0.0079769548 -0.042813838
-0.08516819 0.073081762 -0.043971419
0.32152909 0.089291349 -0.045462787
-0.068884164 0.10559972 -0.044695795
-0.052611284 0.12153403 -0.050193012
-0.0036963746 0.17104425 -0.040526986
0.27203968 0.17024758 -0.049934804
0.061920665 -0.20465095 -0.033156395
0.29012838 -0.15519892 -0.038452744
-0.085376129 -0.090222523 -0.030465543
-0.10177525 -0.057474401 -0.02974236
-0.10166867 -0.041015375 -0.034357548
0.3399224 -0.041021582 -0.033953667
-0.10157033 -0.024630135 -0.038615882
0.33944497 -0.024646111 -0.036537826
0.33904502 -0.0083104847 -0.038702786
0.33904701 0.0080087241 -0.038691998
-0.10157108 0.024329476 -0.038583219
0.33944497 0.024360914 -0.036537826
-0.10166918 0.040747441 -0.034335673
0.33992442 0.040756512 -0.033942699
-0.10177652 0.057243194 -0.029687524
-0.085376471 0.089985102 -0.030443609
0.29017058 0.15491906 -0.038191795
0.061943628 0.20443437 -0.032730222
0.013120033 -0.18907161 -0.023917675
-0.036194135 -0.15606473 -0.025954485
-0.052611284 -0.13975142 -0.024270058
-0.069063306 -0.12347467 -0.021424115
-0.085586742 -0.10723677 -0.01678586
0.32485852 -0.10678089 -0.026658058
-0.10209216 -0.074284926 -0.016020179
0.34166259 -0.057594717 -0.024534643
-0.11860903 -0.0083104121 -0.015264988
-0.11861005 0.0081892684 -0.015231669
0.34167278 0.057403501 -0.024479508
-0.10209267 0.074158534 -0.015997827
-0.085587427 0.10710604 -0.016741455
0.32488188 0.10657884 -0.026526213
-0.069064073 0.12331188 -0.021324813
-0.052611284 0.13956748 -0.024171054
-0.036192693 0.15587547 -0.025767326
0.013125457 0.18889974 -0.023741245
-0.019514799 -0.17379296 -0.0089247227
-0.10241291 -0.091313213 -0.0021309257
-0.11887729 -0.041443456 -0.0065529943
-0.11874272 -0.02484333 -0.010923326
-0.11874375 0.024755754 -0.010889888
-0.11887833 0.041389778 -0.0065193176
-0.10241343 0.091293842 -0.0021084547
-0.01951256 0.17373244 -0.0087794662
0.047471635 -0.20847631 0.0082541704
-0.052611284 -0.15829572 0.0062462091
-0.069269165 -0.14157347 0.0053171515
-0.085972257 -0.12507387 0.0082541108
-0.11903667 -0.058129448 -0.0013772249
-0.11903805 0.058116358 -0.0013322234
-0.085973829 0.12513977 0.0083563924
-0.06927003 0.14161822 0.00543046
-0.052611284 0.15835387 0.0064275265
0.047492094 0.20858027 0.0086970329
-0.0024088211 -0.19238609 0.015225708
-0.10273732 -0.10856254 0.011916578
-0.11947022 -0.075169414 0.012703061
-0.13654238 -0.041882884 0.021989167
-0.13636968 -0.025062107 0.017502189
-0.13619812 -0.0083104847 0.013045192
-0.13619944 0.0084072016 0.013079345
-0.13637143 0.025193602 0.017548025
-0.13654371 0.04204905 0.022023678
-0.11947057 0.075263619 0.012714446
-0.10273838 0.10865273 0.011962116
-0.0023987927 0.19253956 0.015660107
-0.035811156 -0.1763117 0.023796082
-0.11990947 -0.09243314 0.0269683
-0.13676383 -0.058801942 0.027742445
-0.1367656 0.059012983 0.027788758
-0.11990983 0.092637345 0.026979864
-0.035810091 0.17650266 0.023934424
-0.069531791 -0.16059503 0.039434075
-0.086395554 -0.14344747 0.035748065
-0.10335717 -0.12671751 0.038756609
-0.12036535 -0.10994157 0.041773379
-0.13732055 -0.076077908 0.042206645
-0.15446949 -0.025286835 0.046690285
-0.15425807 -0.0083104121 0.042113006
-0.1542597 0.0086309742 0.042148113
-0.15447167 0.025642984 0.046737432
-0.137321 0.076399311 0.042218328
-0.1203686 0.11026478 0.0418787
-0.10335959 0.12701838 0.038861811
-0.086397171 0.14372605 0.035852909
-0.069533139 0.16090813 0.039609253
-0.018475585 -0.19605684 0.0585742
-0.052611284 -0.17890748 0.057516515
-0.13788469 -0.093583882 0.056863606
-0.15497613 -0.059492867 0.05765909
-0.15468234 -0.042334102 0.051298559
-0.15468398 0.042725801 0.051334083
-0.15497832 0.059934262 0.057706535
-0.13788515 0.094018176 0.056875348
-0.052611284 0.17935845 0.05765909
-0.018468812 0.19654439 0.059014022
-0.10401023 -0.14537439 0.067035198
-0.12123851 -0.12840804 0.07013005
-0.12124185 0.12895072 0.070238233
-0.104013 0.14589475 0.067154884
-0.086979181 -0.162966 0.073655427
-0.13851479 -0.1113946 0.073233664
-0.15566266 -0.077011436 0.072523177
-0.17331725 -0.042797878 0.081418812
-0.17306146 -0.02551762 0.076672256
-0.17280807 -0.0083104484 0.071969569
-0.17281002 0.0088607334 0.07200563
-0.17306405 0.026104558 0.076720417
-0.17331855 0.043421175 0.081443131
-0.15566322 0.077566206 0.072535217
-0.13851896 0.11196035 0.073342085
-0.086981587 0.16354103 0.073812068
-0.069938816 -0.18158576 0.092307746
-0.15635791 -0.094766051 0.087575853
-0.17369375 -0.06020293 0.088405788
-0.17369637 0.06088106 0.088454664
-0.15635905 0.095437273 0.087600172
-0.069940045 0.1823059 0.092466891
-0.035196155 -0.19987687 0.10368663
-0.12213448 -0.14735685 0.09922725
-0.13963835 -0.13014835 0.1024248
-0.15719131 -0.1128905 0.10561901
-0.17451783 -0.077971309 0.10369891
-0.19216591 -0.025754798 0.10748047
-0.19186828 -0.0083104484 0.10264736
-0.19187057 0.0090969913 0.10268444
-0.19216898 0.026578985 0.10753006
-0.17451783 0.078765675 0.10369891
-0.15719588 0.11370488 0.10571831
-0.13964263 0.13093963 0.10253602
-0.12213827 0.14812517 0.099350631
-0.035192825 0.20071107 0.10411984
-0.10497843 -0.16541182 0.10895902
-0.17535052 -0.095981389 0.11915153
-0.1929388 -0.060933303 0.12003022
-0.19246638 -0.043274216 0.11235887
-0.1924679 0.044135753 0.11238378
-0.1929411 0.061854411 0.12006778
-0.17535186 0.096895784 0.11917657
-0.10498187 0.16625814 0.10910827
-0.087819077 -0.18434945 0.12820858
-0.14079121 -0.14939839 0.13237709
-0.1407956 0.15042129 0.13249117
-0.087821804 0.18534738 0.12838572
-0.12355615 -0.1679364 0.14539737
-0.15857866 -0.13193908 0.13565654
-0.17641711 -0.11442973 0.1389454
-0.19390661 -0.078958109 0.13574558
-0.21215189 -0.043763921 0.14416558
-0.21180439 -0.02599855 0.13914961
-0.21146011 -0.0083104484 0.13418072
-0.21146277 0.0093397144 0.13421899
-0.21180791 0.027066562 0.13920063
-0.21215367 0.044870313 0.14419132
-0.19390741 0.079999611 0.13575822
-0.17642331 0.11550158 0.1390602
-0.15858397 0.13298649 0.13577098
-0.1235601 0.16906162 0.14552575
-0.052611284 -0.20385559 0.15067297
-0.19488549 -0.09723188 0.15164059
-0.21273237 -0.061684132 0.15254444
-0.21273598 0.062856004 0.15259606
-0.19488707 0.098396331 0.15166646
-0.052611284 0.20505431 0.15113729
-0.10627894 -0.18720262 0.16527325
-0.16000333 -0.15149985 0.16650158
-0.17808405 -0.13378322 0.1698795
-0.21385169 -0.079972923 0.16870004
-0.2316061 -0.008310522 0.16660625
-0.23160911 0.0095893051 0.16664535
-0.21385348 0.081268534 0.16872627
-0.17809111 0.135095 0.17001075
-0.16000938 0.15278675 0.16663235
-0.10628377 0.18848859 0.16548222
-0.19621736 -0.11601505 0.17326742
-0.23239666 -0.044267546 0.17687601
-0.23200053 -0.026249388 0.17172986
-0.23200354 0.027568057 0.1717692
-0.2323997 0.045626137 0.17691559
-0.19622466 0.11735119 0.1733858
-0.14274019 -0.17054245 0.18301278
-0.21498489 -0.098517999 0.18505651
-0.23309904 -0.062456775 0.18600005
-0.23310313 0.063886285 0.18605345
-0.21498767 0.099940419 0.18509644
-0.14274579 0.17195846 0.18315858
-0.070765048 -0.2080019 0.19963902
-0.17979646 -0.15366496 0.20165807
-0.19818014 -0.13568319 0.2051391
-0.23437911 -0.081017524 0.20262855
-0.25277647 -0.026507316 0.20523375
-0.25233006 -0.0083104847 0.19996184
-0.25233349 0.0098460931 0.20000213
-0.2527799 0.028083839 0.20527428
-0.23438117 0.082574517 0.20265549
-0.19818845 0.1372667 0.20527428
-0.17980373 0.15522267 0.20179278
-0.070769086 0.20958327 0.20016378
-0.12547776 -0.19047669 0.20780391
-0.21661907 -0.11764896 0.20864385
-0.23567533 -0.099842519 0.2194671
-0.25322488 -0.044785641 0.21052915
-0.25322834 0.046403334 0.21056992
-0.23567849 0.10152988 0.21950811
-0.21662658 0.11925702 0.20875233
-0.12549445 0.1921182 0.20834571
-0.16256163 -0.17323604 0.22189039
-0.25406399 -0.063252121 0.22043866
-0.25406864 0.064946756 0.22049338
-0.16256987 0.17495392 0.22206849
-0.20035401 -0.15605326 0.24043852
-0.2188952 -0.13764235 0.24149686
-0.25551271 -0.082092836 0.23754698
-0.27415857 -0.026772736 0.23971492
-0.27365726 -0.008310522 0.23428828
-0.27366111 0.010110375 0.23432988
-0.27416241 0.028614786 0.23975676
-0.25551623 0.083919168 0.23758858
-0.21890387 0.13950512 0.24162215
-0.20036861 0.1579165 0.24067515
-0.23764828 -0.11933266 0.24509639
-0.25698119 -0.10120587 0.25488907
-0.27565402 -0.064071149 0.25590378
-0.27466342 -0.045319125 0.24518031
-0.27466601 0.047203191 0.24520832
-0.27565923 0.066038877 0.25596005
-0.25698477 0.103166 0.25493127
-0.23765796 0.1212222 0.24522215
-0.14567563 -0.19443917 0.25927812
-0.18305239 -0.17602047 0.26208073
-0.18306309 0.17804924 0.26227909
-0.14569578 0.19647546 0.25980133
-0.22164926 -0.15856646 0.28124863
-0.24025634 -0.139662 0.27897614
-0.27728206 -0.083200753 0.27352792
-0.29673696 -0.045868218 0.28084558
-0.29617369 -0.027046051 0.27521724
-0.29561442 -0.0083104121 0.26962894
-0.29561871 0.010382442 0.26967174
-0.29617798 0.029161308 0.27526027
-0.29673982 0.048026923 0.28087431
-0.27728602 0.085304067 0.27357084
-0.2402674 0.1418145 0.27911991
-0.25933525 -0.12106903 0.28268915
-0.27893272 -0.10261108 0.2913968
-0.29789749 -0.064915001 0.29244238
-0.2979033 0.067163944 0.29250056
-0.27893674 0.10485223 0.29144043
-0.25934622 0.12324804 0.28281873
-0.22166523 0.16074356 0.28147906
-0.20424694 -0.17890064 0.30365139
-0.31822991 -0.0083105583 0.3060289
-0.20426047 0.18125105 0.30387133
-0.16677172 -0.19857791 0.31304127
-0.26229522 -0.14174569 0.31764454
-0.2997137 -0.084341943 0.31059116
-0.31947535 -0.046433911 0.31758517
-0.31885198 -0.027327593 0.31180102
-0.31823465 0.010662699 0.30607289
-0.31885514 0.029724319 0.31183034
-0.31947854 0.048875295 0.31761485
-0.29971963 0.08673124 0.31065017
-0.26230776 0.14419603 0.31779271
-0.16679834 0.20103247 0.31361777
-0.24368271 -0.16116767 0.32348603
-0.28171271 -0.12286119 0.32149118
-0.30155703 -0.10405882 0.32901102
-0.32082289 -0.06578435 0.33008891
-0.32083097 0.068323672 0.33016378
-0.30156302 0.10659038 0.32907075
-0.28172511 0.12533927 0.32162505
-0.2437022 0.16367137 0.32373935
-0.22618216 -0.18188134 0.34667486
-0.3231234 -0.085599586 0.35143489
-0.34202406 -0.0083104484 0.34778351
-0.34202757 0.010983979 0.3478139
-0.3231349 0.088305146 0.35154158
-0.22619897 0.18456471 0.34691793
-0.26649246 -0.16386046 0.36721176
-0.28504598 -0.14389744 0.35757488
-0.30519018 -0.12488535 0.36531526
-0.34408939 -0.047174234 0.36566967
-0.3429921 -0.027669219 0.35616702
-0.34299564 0.030407462 0.35619754
-0.3440876 0.049984828 0.36565441
-0.30520868 0.12770355 0.36550039
-0.28505874 0.14665447 0.35771269
-0.26651597 0.16670245 0.36748952
-0.18882731 -0.20290479 0.36924988
-0.18886063 0.20579563 0.36986798
-0.32641926 -0.10609904 0.38201672
-0.32645461 0.10905094 0.38234442
-0.24919453 -0.18523543 0.39508671
-0.34824935 -0.067438081 0.40169591
-0.34827864 0.070534185 0.4019497
-0.2492249 0.18830313 0.39548093
-0.39534903 -0.0083104484 0.62407881
-0.39535362 0.013110934 0.62411612
-0.39659441 -0.029809397 0.63419002
-0.39660367 0.034688551 0.63426548
-0.39991826 -0.051723793 0.66117638
-0.39993009 0.056811769 0.66127247
-0.42424792 -0.008310522 0.68121964
-0.42425558 0.013550987 0.68127829
-0.42586285 -0.030266417 0.69356006
-0.42587572 0.035602883 0.69365841
-0.40630996 -0.074628979 0.71307045
-0.42978078 -0.052683372 0.72349876
-0.42980972 0.058254007 0.72371954
-0.4063566 0.080125868 0.71344942
-0.45435575 -0.008310522 0.74073631
-0.45436701 0.014009256 0.74081761
-0.45640558 -0.030743489 0.75552958
-0.45641983 0.03655703 0.75563246
-0.43908209 -0.076511189 0.79457325
-0.46144193 -0.053736087 0.79187626
-0.461474 0.059833225 0.79210788
-0.43914279 0.082638085 0.79503769
-0.48576188 -0.0083105955 0.80286461
-0.48576498 0.014487062 0.80288571
-0.48830187 -0.031241568 0.82023054
-0.48831755 0.037553333 0.82033771
-0.51362079 -0.0083104484 0.83574003
-0.51362079 0.014740031 0.83574003
-0.4920181 -0.05456382 0.84563845
-0.51415884 -0.031387884 0.83923513
-0.51416558 0.037844867 0.83927852
-0.49202132 0.061070088 0.84566015
-0.49364585 -0.077947557 0.85676759
-0.47068048 -0.07798861 0.85854977
-0.51614499 -0.054663938 0.85213512
-0.51616859 0.061223086 0.85228854
-0.49366194 0.08454226 0.85687751
-0.47068352 0.084594414 0.85857195
-0.45011115 -0.1018398 0.878851
-0.45012283 0.10860461 0.87894052
-0.42800829 -0.10215968 0.88923925
-0.42801937 0.10900456 0.88932902
-0.40657842 -0.10270175 0.90684062
-0.40659678 0.10968466 0.90699965
0 0 0 1 0 0 0 1 0 0 0 1 0 0 0 0 0 910 1 0 0
