ply
format ascii 1.0
comment PCL generated
element vertex 698
property float x
property float y
property float z
element camera 1
property float view_px
property float view_py
property float view_pz
property float x_axisx
property float x_axisy
property float x_axisz
property float y_axisx
property float y_axisy
property float y_axisz
property float z_axisx
property float z_axisy
property float z_axisz
property float focal
property float scalex
property float scaley
property float centerx
property float centery
property int viewportx
property int viewporty
property float k1
property float k2
end_header
-0.079764336 -0.039887242 -0.26208639
-0.079665586 -0.024327714 -0.26325268
-0.079665586 -0.0087861922 -0.26325268
-0.079665586 0.0067553287 -0.26325274
-0.079665586 0.022296831 -0.26325268
-0.079765126 0.037865579 -0.26207709
-0.11279343 -0.10297916 -0.24281985
-0.11279246 -0.087279983 -0.24282956
-0.096382335 -0.086983539 -0.25053042
-0.11279246 -0.07158123 -0.24282956
-0.096146107 -0.071265317 -0.2530877
-0.08150956 -0.071622841 -0.24147642
-0.11279246 -0.055882432 -0.24282956
-0.096146107 -0.055645533 -0.25308782
-0.080563322 -0.055655606 -0.25265086
-0.11279246 -0.040183678 -0.24282956
-0.096146107 -0.040025793 -0.25308776
-0.11279246 -0.024484927 -0.24282956
-0.096146107 -0.024406049 -0.2530877
-0.065681458 -0.024483502 -0.24302137
-0.065412492 -0.0087862695 -0.24651521
-0.11279246 -0.0087861922 -0.24282956
-0.096146107 -0.0087861922 -0.25308776
-0.11279246 0.0069124848 -0.24282938
-0.096146107 0.006833531 -0.2530877
-0.065413222 0.0068842154 -0.24650568
-0.11279246 0.022611236 -0.24282938
-0.096146107 0.02245339 -0.25308776
-0.065682948 0.022608617 -0.24300218
-0.11279246 0.038309991 -0.24282938
-0.096146107 0.03807313 -0.2530877
-0.11279246 0.054008745 -0.24282938
-0.096146107 0.053692892 -0.25308776
-0.080565721 0.053707242 -0.25262237
-0.11279246 0.069707498 -0.24282938
-0.096146107 0.069312632 -0.25308776
-0.081512004 0.06976074 -0.24144745
-0.11279246 0.085406251 -0.24282938
-0.096390247 0.085054561 -0.25044489
-0.11279343 0.10110554 -0.24281991
-0.12961008 -0.11923686 -0.23244762
-0.11423166 -0.11945238 -0.22844809
-0.12961008 -0.10345821 -0.23244756
-0.098352164 -0.10360792 -0.2292065
-0.12960905 -0.087679192 -0.23245728
-0.12960905 -0.071900584 -0.23245728
-0.12960905 -0.05612193 -0.23245734
-0.066697061 -0.056182683 -0.22982836
-0.12960905 -0.040343434 -0.23245728
-0.065951347 -0.040234767 -0.23951524
-0.12960905 -0.024564784 -0.23245734
-0.12960905 -0.0087861922 -0.23245728
-0.12960905 0.0069923624 -0.23245728
-0.12960905 0.022770954 -0.23245734
-0.12960905 0.038549505 -0.23245728
-0.065952837 0.038387038 -0.23949605
-0.12960905 0.054328196 -0.23245728
-0.066700786 0.05441054 -0.22977972
-0.12960905 0.070106708 -0.23245728
-0.12960905 0.085885361 -0.23245734
-0.12961008 0.10166443 -0.23244756
-0.09836024 0.10184385 -0.22911906
-0.12961008 0.11744311 -0.23244756
-0.11424628 0.11769836 -0.22830212
-0.14659756 -0.13566031 -0.22197902
-0.13150147 -0.13609633 -0.21489781
-0.1465987 -0.11980153 -0.22196925
-0.14659756 -0.10394175 -0.22197908
-0.14659756 -0.088082492 -0.22197902
-0.082743824 -0.087893121 -0.2269004
-0.14659643 -0.072222941 -0.2219888
-0.067561671 -0.07232739 -0.2185967
-0.14659643 -0.056363702 -0.22198898
-0.14659643 -0.040504575 -0.22198886
-0.051788732 -0.040581755 -0.21697509
-0.14659643 -0.024645433 -0.2219888
-0.051544517 -0.024656871 -0.22049999
-0.051301122 -0.0087862303 -0.22401285
-0.14659643 -0.008786154 -0.22198886
-0.14659643 0.007072933 -0.2219888
-0.051301122 0.0070574116 -0.22401303
-0.14659643 0.022932133 -0.22198886
-0.051545173 0.022955241 -0.22049034
-0.14659643 0.038791336 -0.2219888
-0.051790088 0.03890761 -0.21695542
-0.14659643 0.054650493 -0.22198898
-0.14659643 0.07050968 -0.2219888
-0.067565456 0.070642091 -0.21854752
-0.14659756 0.086369261 -0.22197908
-0.082751244 0.086146042 -0.22681266
-0.14659756 0.10222856 -0.22197908
-0.1465987 0.11808848 -0.22196931
-0.14659756 0.13394704 -0.22197902
-0.13151635 0.13444726 -0.21475977
-0.16462225 -0.15273757 -0.20439804
-0.16376066 -0.13631219 -0.21139324
-0.16376188 -0.12037201 -0.21138322
-0.10074048 -0.12080467 -0.20335221
-0.16376066 -0.10443074 -0.21139312
-0.084549844 -0.10469951 -0.20557219
-0.16375944 -0.0884896 -0.21140307
-0.068729058 -0.088796414 -0.20343184
-0.16375944 -0.072548866 -0.21140307
-0.16375944 -0.056608222 -0.21140301
-0.05248785 -0.056712575 -0.20688397
-0.16375944 -0.040667549 -0.21140307
-0.16375944 -0.024726888 -0.21140301
-0.16375944 -0.0087862303 -0.21140307
-0.16375944 0.0071544275 -0.21140301
-0.16375944 0.023095163 -0.21140307
-0.16375944 0.039035745 -0.21140301
-0.16375944 0.054976478 -0.21140307
-0.052491292 0.055117168 -0.20683438
-0.16375944 0.070917055 -0.21140301
-0.16375944 0.086857773 -0.21140301
-0.068735182 0.087229639 -0.20335221
-0.16376066 0.10279901 -0.21139324
-0.084557429 0.10311746 -0.2054826
-0.16376066 0.11873975 -0.21139324
-0.10075521 0.11924478 -0.20319265
-0.16376066 0.13468048 -0.21139306
-0.16465902 0.15118271 -0.20409936
-0.19862008 -0.15374191 -0.18990165
-0.18110105 -0.15299389 -0.2006979
-0.19862008 -0.13763566 -0.18990165
-0.18110105 -0.13697079 -0.20069796
-0.11811949 -0.13765441 -0.18959874
-0.19862148 -0.12153012 -0.18989158
-0.18110105 -0.12094779 -0.20069784
-0.19862008 -0.10542333 -0.18990165
-0.18110105 -0.10492468 -0.2006979
-0.19861871 -0.089316696 -0.18991184
-0.18109974 -0.088901274 -0.20070785
-0.19861871 -0.073210664 -0.18991178
-0.18109843 -0.072877944 -0.20071787
-0.053283542 -0.073041685 -0.19539911
-0.19861871 -0.057104528 -0.18991178
-0.18109974 -0.056855254 -0.20070785
-0.19861871 -0.040998414 -0.18991178
-0.18109843 -0.040832035 -0.20071793
-0.037309423 -0.04093641 -0.19394207
-0.19861871 -0.024892382 -0.18991166
-0.18109843 -0.024809154 -0.20071793
-0.03708747 -0.024833532 -0.19754601
-0.19861871 -0.0087862695 -0.18991166
-0.18109843 -0.0087862303 -0.20071787
-0.036866292 -0.0087861922 -0.20113748
-0.19861871 0.0073199198 -0.18991184
-0.18109974 0.0072367303 -0.20070785
-0.036866903 0.007233534 -0.20112747
-0.19861871 0.023426032 -0.18991184
-0.18109974 0.023259768 -0.20070791
-0.037088707 0.023308797 -0.19752592
-0.19861871 0.039532147 -0.18991178
-0.18109843 0.039282575 -0.20071793
-0.037311286 0.039439753 -0.19391185
-0.19861871 0.055638179 -0.18991178
-0.18109843 0.055305459 -0.20071793
-0.19861871 0.07174433 -0.18991178
-0.18109843 0.071328342 -0.20071787
-0.053287029 0.071535043 -0.19534886
-0.19862008 0.087850943 -0.18990165
-0.18109974 0.087351769 -0.20070791
-0.19862008 0.10395706 -0.18990159
-0.18110105 0.10337529 -0.2006979
-0.19862148 0.12006385 -0.18989158
-0.18110105 0.11939841 -0.20069796
-0.19862008 0.13616946 -0.18990165
-0.18110105 0.13542153 -0.20069796
-0.11813465 0.13620095 -0.18944734
-0.19862008 0.1522757 -0.18990165
-0.18109974 0.15144381 -0.20070785
-0.21632332 -0.15449834 -0.17898273
-0.21632332 -0.13830811 -0.17898273
-0.21632332 -0.12211795 -0.17898273
-0.086863622 -0.12215747 -0.17824787
-0.21632332 -0.10592769 -0.17898268
-0.070409596 -0.10580672 -0.18160105
-0.21632183 -0.089736998 -0.17899281
-0.054390535 -0.089720517 -0.17942125
-0.21632183 -0.073546924 -0.17899293
-0.21632183 -0.057356752 -0.17899293
-0.037956715 -0.057254232 -0.18343097
-0.21632034 -0.041166417 -0.17900306
-0.21632034 -0.024976304 -0.17900306
-0.21632183 -0.0087862303 -0.17899293
-0.022107534 -0.0087861922 -0.17773741
-0.21632183 0.0074039567 -0.17899293
-0.022108085 0.0074137393 -0.17772728
-0.21632183 0.023594106 -0.17899293
-0.21632034 0.039784066 -0.17900312
-0.21632034 0.055974059 -0.17900306
-0.037960485 0.055839606 -0.18336999
-0.21632183 0.07216455 -0.17899293
-0.21632183 0.088354744 -0.17899293
-0.054396182 0.088338755 -0.17933965
-0.21632332 0.10454543 -0.17898256
-0.070415869 0.10440875 -0.18151957
-0.21632332 0.12073577 -0.17898273
-0.086877435 0.12079107 -0.17808467
-0.21632332 0.13692594 -0.17898273
-0.21632332 0.15311615 -0.17898268
-0.23421228 -0.15526281 -0.16794908
-0.15206635 -0.15480073 -0.17461795
-0.23421228 -0.13898757 -0.1679492
-0.10436095 -0.13922098 -0.16415936
-0.23421228 -0.12271243 -0.1679492
-0.2342107 -0.10643684 -0.16795933
-0.23420912 -0.090161324 -0.16796964
-0.23420912 -0.07388629 -0.16796976
-0.038680136 -0.073771901 -0.17168421
-0.23420912 -0.057611294 -0.16796964
-0.23420912 -0.041336261 -0.16796976
-0.022504054 -0.041299172 -0.17037898
-0.23420912 -0.025061186 -0.16796982
-0.022305444 -0.025014317 -0.17406452
-0.23420912 -0.0087862303 -0.16796964
-0.23420912 0.0074888412 -0.16796976
-0.23420912 0.023763796 -0.16796964
-0.022306554 0.023670247 -0.17404413
-0.23420912 0.040038869 -0.16796976
-0.022505157 0.039983645 -0.17035836
-0.23420912 0.056313828 -0.16796964
-0.23420912 0.072588935 -0.16796976
-0.038683921 0.072448321 -0.17162269
-0.2342107 0.088864319 -0.16795939
-0.23421228 0.10514005 -0.16794908
-0.23421228 0.12141519 -0.1679492
-0.23421228 0.13769035 -0.16794908
-0.1043753 0.13796364 -0.16400409
-0.23421228 0.15396558 -0.16794908
-0.15209356 0.15347037 -0.17438233
-0.25228825 -0.15603456 -0.15680957
-0.25228825 -0.13967362 -0.15680963
-0.25228825 -0.12331278 -0.15680951
-0.072647482 -0.12354331 -0.15253007
-0.25228825 -0.1069518 -0.15680957
-0.055938348 -0.10693931 -0.15708029
-0.25228658 -0.090590484 -0.15682006
-0.039716899 -0.090666316 -0.15484947
-0.25228658 -0.074229643 -0.15681994
-0.25228488 -0.057868563 -0.15683043
-0.023093976 -0.057808481 -0.1594314
-0.25228488 -0.041507803 -0.15683043
-0.25228488 -0.025147034 -0.15683037
-0.007186614 -0.025199182 -0.15004838
-0.25228488 -0.0087861922 -0.15683043
-0.00701309 -0.0087861922 -0.15380532
-0.25228658 0.0075746495 -0.15682012
-0.00701309 0.0075978357 -0.15380526
-0.25228488 0.023935301 -0.15683043
-0.0071870908 0.024039863 -0.15003783
-0.25228488 0.040296026 -0.15683043
-0.25228488 0.05665683 -0.15683037
-0.023096777 0.056578413 -0.15937942
-0.25228658 0.073018014 -0.15681994
-0.25228825 0.089379363 -0.15680963
-0.03972204 0.08947368 -0.15476584
-0.25228825 0.10574032 -0.15680963
-0.055944115 0.10573023 -0.15699714
-0.25228825 0.12210117 -0.15680957
-0.072660372 0.12237502 -0.15236259
-0.25228995 0.13846286 -0.15679914
-0.25228995 0.15482388 -0.15679914
-0.13898976 -0.15682396 -0.14541513
-0.27055752 -0.14036755 -0.14554143
-0.090263799 -0.14082621 -0.13809371
-0.27055752 -0.12391993 -0.14554155
-0.27055752 -0.10747222 -0.14554155
-0.2705557 -0.091024183 -0.14555198
-0.27055395 -0.074576221 -0.14556259
-0.023741551 -0.074519262 -0.14741373
-0.27055395 -0.058128685 -0.14556259
-0.27055395 -0.041681267 -0.14556259
-0.0073607489 -0.041670211 -0.14627814
-0.27055395 -0.025233768 -0.14556259
-0.27055395 -0.0087861922 -0.14556265
-0.27055395 0.0076613054 -0.14556265
-0.27055395 0.024108803 -0.14556259
-0.27055395 0.040556304 -0.14556259
-0.007361725 0.040540278 -0.14625722
-0.27055395 0.057003796 -0.14556259
-0.27055395 0.073451295 -0.14556247
-0.023744382 0.073382124 -0.14736122
-0.2705557 0.089899294 -0.14555198
-0.27055752 0.10634749 -0.14554143
-0.27055752 0.1227951 -0.14554143
-0.27055928 0.13924351 -0.145531
-0.090277269 0.13976982 -0.13793457
-0.13901472 0.15571803 -0.1451835
-0.28902152 -0.12453362 -0.13415325
-0.058079496 -0.12496348 -0.12617564
-0.28901961 -0.10799772 -0.13416404
-0.041125253 -0.10809859 -0.13198048
-0.28901774 -0.09146212 -0.13417453
-0.024696268 -0.09163443 -0.12969649
-0.28901774 -0.07492689 -0.1341747
-0.28901586 -0.058391467 -0.13418531
-0.0078868791 -0.058375292 -0.13488716
-0.28901586 -0.041856386 -0.13418531
-0.28901586 -0.025321309 -0.13418531
0.0082806721 -0.02538836 -0.12547863
-0.28901774 -0.0087861922 -0.13417453
0.0084286258 -0.0087861922 -0.12932247
-0.28901774 0.0077489242 -0.13417453
0.0084286258 0.0077862833 -0.12932259
-0.28901586 0.024283925 -0.13418525
0.0082802624 0.024418185 -0.12546784
-0.28901586 0.040819079 -0.13418514
-0.28901586 0.05735416 -0.13418525
-0.0078898221 0.057334512 -0.13482338
-0.28901774 0.073889658 -0.13417459
-0.28901961 0.090425313 -0.13416398
-0.02470088 0.090635598 -0.12961102
-0.28901961 0.10696059 -0.13416398
-0.041130513 0.1070829 -0.1318953
-0.28902152 0.12349651 -0.13415337
-0.058091387 0.12399831 -0.12600398
-0.12567468 -0.15899336 -0.11410266
-0.075815335 -0.14247152 -0.11137837
-0.30768138 -0.10852944 -0.12265384
-0.30767938 -0.091905147 -0.12266463
-0.30767742 -0.075280987 -0.12267524
-0.0084548891 -0.075283647 -0.12258929
-0.30767742 -0.058657289 -0.12267542
-0.30767742 -0.042033665 -0.12267536
0.008132197 -0.04204984 -0.12162101
-0.30767742 -0.02540989 -0.12267542
-0.30767742 -0.0087862695 -0.12267536
-0.30767742 0.007837506 -0.12267542
-0.30767742 0.024461126 -0.12267542
-0.30767742 0.0410849 -0.12267542
0.0081313699 0.041109666 -0.12159944
-0.30767742 0.057708524 -0.12267536
-0.30767938 0.074332602 -0.12266457
-0.0084578693 0.074338071 -0.12252474
-0.30767938 0.090956457 -0.12266457
-0.30768138 0.10758085 -0.12265396
-0.075827882 0.14162105 -0.11121547
-0.043146446 -0.12641911 -0.099160671
-0.025958054 -0.10928564 -0.10628068
-0.32654005 -0.092352562 -0.11104143
-0.0093166977 -0.092626199 -0.10393083
-0.32654005 -0.075639278 -0.11104143
-0.32653797 -0.058925763 -0.11105227
0.0076755881 -0.058955692 -0.10975796
-0.34560484 -0.042393573 -0.099292517
-0.32653797 -0.042212561 -0.11105227
-0.34560484 -0.025589904 -0.099292457
-0.32653797 -0.025499357 -0.11105227
0.024108596 -0.025581893 -0.10033596
-0.34560484 -0.0087862303 -0.099292517
-0.32654005 -0.0087862303 -0.11104155
0.024229728 -0.0087862303 -0.10426986
-0.34560484 0.0080174785 -0.099292517
-0.32654005 0.0079270508 -0.11104155
0.024229728 0.0079791974 -0.10426986
-0.34560484 0.024821231 -0.099292636
-0.32653797 0.0246401 -0.11105222
0.024108253 0.024805283 -0.10032493
-0.34560484 0.041624822 -0.099292457
-0.32653797 0.041353263 -0.11105227
-0.32654005 0.058066778 -0.11104143
0.0076730698 0.058108255 -0.10969269
-0.32654005 0.074780054 -0.11104137
-0.32654217 0.0914938 -0.11103058
-0.0093202293 0.091825321 -0.10385418
-0.025962763 0.10846785 -0.10619336
-0.04315725 0.1256623 -0.098984718
-0.12604307 0.15839404 -0.11042166
0.007191062 -0.076066434 -0.097169638
0.02398736 -0.042438135 -0.096398771
0.023986347 0.041692458 -0.09636575
0.0071885213 0.075316511 -0.097103715
-0.061202481 -0.14433618 -0.081099212
-0.010423899 -0.11050132 -0.079959035
0.0064359754 -0.093641534 -0.077551901
0.023606956 -0.059549458 -0.084044755
0.040310178 -0.025779853 -0.074611366
0.040403176 -0.0087861922 -0.078638494
0.040402923 0.008176541 -0.078627408
0.040309656 0.025201513 -0.074588776
0.023604557 0.058900483 -0.083966732
0.0064333826 0.093043201 -0.077484548
-0.01042752 0.10988566 -0.079880714
-0.061227247 0.14373229 -0.080741584
-0.027834393 -0.12791181 -0.071460247
0.023210078 -0.076867327 -0.071155846
0.04021683 -0.042835787 -0.070569396
0.040216308 0.042288765 -0.070546925
0.023208 0.076317832 -0.071088135
-0.027844116 0.12736848 -0.071279764
-0.04622151 -0.14629903 -0.049227655
0.0054906979 -0.11174693 -0.052992761
0.022574857 -0.09468171 -0.050526202
0.039919719 -0.060157701 -0.057704151
0.05689818 -0.02598278 -0.048261464
0.056961674 -0.0087862303 -0.052385271
0.056961495 0.0083786231 -0.052373767
0.056897826 0.025607178 -0.048238397
0.039918136 0.05971127 -0.057635665
0.022572733 0.094291627 -0.050457358
0.0054871589 0.11133951 -0.052901208
-0.046243459 0.14594029 -0.048871219
-0.012128763 -0.12944289 -0.043047607
0.039614864 -0.077688091 -0.04450351
0.056833744 -0.043243691 -0.044076085
0.056832857 0.042901359 -0.044018388
0.03961353 0.077343337 -0.044445693
-0.012137316 0.12911862 -0.042862594
0.02179987 -0.11302324 -0.025357902
0.03911433 -0.095747769 -0.022829771
0.056628365 -0.06078051 -0.030736208
0.073886976 -0.026190523 -0.021274865
0.07391949 -0.0087861922 -0.025498807
0.073919401 0.0085856728 -0.025487065
0.073886886 0.026022511 -0.021263182
0.056627102 0.060542047 -0.030654311
0.039112698 0.095570855 -0.02275908
0.021796979 0.11282868 -0.025263846
-0.030799679 -0.14831871 -0.016431451
0.0039858297 -0.13101378 -0.013895214
0.056420155 -0.078528456 -0.01721251
0.073852241 -0.043664254 -0.016762972
0.073851787 0.043532178 -0.016703725
0.056419063 0.078394294 -0.017141521
0.0039785206 0.13091415 -0.013705432
-0.030820087 0.1482141 -0.016052604
0.038518216 -0.11433224 0.0029827952
0.073747024 -0.061418906 -0.0030943751
0.091291249 -0.0087861922 0.0020439625
0.091291249 0.0087975767 0.0020439029
0.073746376 0.061393321 -0.0030105114
0.038515989 0.11435602 0.0030792356
-0.014918625 -0.1503994 0.017354786
0.020525195 -0.13262682 0.016038477
0.056069504 -0.09684056 0.0055626631
0.073640332 -0.07938993 0.01076442
0.091291249 -0.044095106 0.011225283
0.091291249 -0.026403274 0.0063716769
0.091291249 0.026448162 0.0063838363
0.091291249 0.04417859 0.011285841
0.07363987 0.079470672 0.010824978
0.056068391 0.096882366 0.0056350827
0.02051957 0.13275713 0.016221344
-0.014936097 0.15055481 0.01773268
0.091291249 -0.06207291 0.025222361
0.1090923 -0.0087862303 0.030267298
0.1090923 0.0090147927 0.030267298
0.091291249 0.062265612 0.02532059
0.055661984 -0.11567398 0.032031953
0.073456243 -0.097961269 0.034678042
0.091291249 -0.080272511 0.039428771
0.10916646 -0.044536628 0.039901078
0.10912644 -0.026621377 0.034702718
0.10912654 0.026884293 0.034715235
0.10916694 0.044840835 0.039963424
0.091291249 0.080574095 0.039490879
0.073455676 0.098227181 0.03475219
0.055660464 0.11592145 0.032130778
0.0014432147 -0.15254302 0.05216378
0.037507217 -0.13428225 0.046760261
0.10927702 -0.062743552 0.054264247
0.1092777 0.063159592 0.054352224
0.037502885 0.13464938 0.046947896
0.0014287084 0.15296631 0.052540839
0.073247239 -0.11705027 0.061829269
0.091291249 -0.099111207 0.064556539
0.10938916 -0.081177972 0.068831623
0.12749454 -0.044989474 0.06931597
0.12740856 -0.026844949 0.063731372
0.12733874 -0.0087862303 0.05919677
0.12733874 0.0092375167 0.05919677
0.12740895 0.027331514 0.063756764
0.12749553 0.045520179 0.069379866
0.10938966 0.081705779 0.068895161
0.091291249 0.099606164 0.064607561
0.07324636 0.11752797 0.061943352
0.054949418 -0.13598266 0.078314602
0.054946449 0.13659306 0.078507245
0.018308036 -0.15475269 0.088042915
0.091291249 -0.11847927 0.092767894
0.10959217 -0.10029084 0.095202982
0.12772113 -0.063431054 0.08403331
0.14615491 -0.027074143 0.093509734
0.14604722 -0.0087862303 0.088846385
0.14604752 0.0094658248 0.08885926
0.14615551 0.027789978 0.093535721
0.12772271 0.064076759 0.084136903
0.10959257 0.10102177 0.095254958
0.091291249 0.11920027 0.092976034
0.018296465 0.15545201 0.088418543
0.12795117 -0.082106069 0.098975599
0.14629292 -0.045453951 0.099485576
0.14629443 0.046216965 0.099551022
0.12795219 0.082866043 0.099041045
0.072870754 -0.13772967 0.11073571
0.14664161 -0.064136587 0.11458451
0.165236 -0.0087862303 0.11926979
0.16523641 0.0097000655 0.11928302
0.14664406 0.065017454 0.11469036
0.072869226 0.13858987 0.11093372
0.035699375 -0.15703124 0.12504214
0.10982609 -0.11999521 0.12559003
0.12837741 -0.10150164 0.12666017
0.14699568 -0.083058827 0.12991613
0.16557953 -0.045930363 0.13042599
0.16538331 -0.027309192 0.12405366
0.16538373 0.028260039 0.12406701
0.165582 0.046931855 0.13050658
0.14699692 0.084056579 0.12996966
0.12837823 0.10247467 0.12671357
0.10982774 0.12096917 0.12580401
0.035690736 0.15801533 0.12541622
0.091291249 -0.13952541 0.14405972
0.16605665 -0.064860262 0.14592093
0.16606 0.065982454 0.14602965
0.091291249 0.14064254 0.14426333
0.12888043 -0.12155382 0.15933222
0.14766645 -0.1027449 0.15896112
0.18511258 -0.02755044 0.1553933
0.18492363 -0.0087863076 0.15048403
0.18492416 0.0099403914 0.15049773
0.18511312 0.028742539 0.15540701
0.14766772 0.10396672 0.15901607
0.12888381 0.12278771 0.15955216
0.053642292 -0.15938199 0.16321474
0.16654673 -0.084041692 0.16183656
0.18537438 -0.046419449 0.16219467
0.18537703 0.047665156 0.16226369
0.16655055 0.085287899 0.16196066
0.053636558 0.16065998 0.16358715
0.11023205 -0.14137183 0.17832512
0.18598664 -0.065603457 0.17810172
0.2051298 -0.0087862695 0.18252057
0.2051298 0.010186879 0.18252057
0.18599039 0.066972986 0.17819947
0.11023366 0.14275312 0.17853457
0.14847673 -0.12315723 0.19404751
0.16747983 -0.10402194 0.19214004
0.18664068 -0.08506573 0.19509429
0.20569749 -0.04692167 0.19481128
0.20536257 -0.027798124 0.18756002
0.20536321 0.029237749 0.18757421
0.20570076 0.048418522 0.19488198
0.18664503 0.086567551 0.19520754
0.16748199 0.10549983 0.19221061
0.14848164 0.12465806 0.19425946
0.072163448 -0.16180858 0.2026177
0.20645136 -0.066366263 0.21113271
0.20645665 0.06799075 0.21124738
0.07216049 0.16339061 0.20300227
0.1297155 -0.14327113 0.2135722
0.22615339 -0.028052276 0.22057277
0.2258753 -0.0087862303 0.2154122
0.2258753 0.010440068 0.2154122
0.22615494 0.029746206 0.22060162
0.12971883 0.14492406 0.21378762
0.1686379 -0.12480619 0.22974974
0.18783922 -0.10533417 0.22623342
0.20728907 -0.08611808 0.22926968
0.22656955 -0.047437131 0.22829539
0.22657424 0.049192108 0.22838265
0.20729443 0.0878831 0.22938615
0.18784201 0.10707477 0.2263059
0.16864464 0.12658212 0.22996801
0.1497653 -0.14522563 0.24984378
0.22747384 -0.067150168 0.24507743
0.24718198 -0.0087862303 0.24919361
0.24718198 0.010700036 0.24919349
0.2274794 0.06903559 0.24518055
0.14977041 0.14715828 0.25006562
0.20876753 -0.10668311 0.26127928
0.24801454 -0.047967084 0.2627123
0.24750847 -0.028313436 0.25449473
0.24751028 0.030268604 0.25452429
0.24801913 0.049986802 0.26278692
0.20877166 0.10869424 0.26136881
0.18938896 -0.12650353 0.2664966
0.22851512 -0.087199852 0.26440114
0.22852157 0.089235432 0.26452082
0.1893976 0.12856267 0.26672119
0.24907666 -0.067955799 0.27995902
0.26945037 -0.028581683 0.2893489
0.26907188 -0.0087863076 0.28388602
0.26907295 0.01096732 0.28390104
0.26945144 0.030804986 0.28936416
0.24908225 0.070109271 0.28004998
0.17049515 -0.14739306 0.29006594
0.23028891 -0.10807026 0.29731852
0.25034344 -0.088312395 0.30052954
0.27005568 -0.048511587 0.29808587
0.27006102 0.050803714 0.29816276
0.25035104 0.090626121 0.30065256
0.23029386 0.11035892 0.29741067
0.1705102 0.14965166 0.29055434
0.21075615 -0.12825108 0.30433458
0.21076685 0.13060191 0.30456573
0.27128309 -0.068783492 0.31580156
0.29200369 -0.028857442 0.32517427
0.29157135 -0.0087863076 0.3195582
0.29157257 0.011241961 0.31957382
0.29200488 0.031356424 0.32519001
0.27129063 0.071213573 0.31591064
0.19197559 -0.14974433 0.33369917
0.25242895 -0.10949735 0.33439368
0.27280009 -0.089456871 0.33769768
0.29271704 -0.049071305 0.33444113
0.29272431 0.051643737 0.33453566
0.27280885 0.09205687 0.33782417
0.25243577 0.11207224 0.33450431
0.19199502 0.15233994 0.33420414
0.23276736 -0.13005148 0.3433128
0.29412085 -0.069635145 0.35267717
0.29412824 0.072348647 0.35277337
0.23278022 0.13270275 0.34355146
0.31519425 -0.029141057 0.36201197
0.31470519 -0.008786154 0.35623616
0.31470519 0.011524074 0.35623628
0.31519562 0.031923652 0.36202818
0.21419659 -0.15217581 0.37882215
0.27521473 -0.11096595 0.37255007
0.2959125 -0.090634733 0.37595135
0.31602746 -0.049647398 0.37185162
0.31603569 0.052507676 0.37194902
0.29592127 0.09352871 0.37606531
0.2752226 0.1138347 0.37266415
0.21422073 0.15511972 0.37934464
0.25545213 -0.13190703 0.38348395
0.31761628 -0.070511259 0.39061469
0.31762326 0.073516347 0.39069718
0.2554673 0.13486776 0.38372988
0.339048 -0.029432567 0.39988881
0.33850062 -0.0087861922 0.39396328
0.33850062 0.011814583 0.39396304
0.33905107 0.032507017 0.39992207
0.29867488 -0.11247804 0.41183585
0.31970984 -0.091847569 0.41533846
0.3400141 -0.050240047 0.41034728
0.34002182 0.053396337 0.41043073
0.31972122 0.095045649 0.41547281
0.29868519 0.11565024 0.41196972
0.23719767 -0.15469263 0.42552894
0.27884185 -0.13381997 0.42490345
0.34179819 -0.071412981 0.42966062
0.34180602 0.074718587 0.4297455
0.27885944 0.13710016 0.42515701
0.23722681 0.15799727 0.42607027
0.36359677 -0.029732859 0.43888372
0.36298642 -0.0087863076 0.43278474
0.36298642 0.012113409 0.43278486
0.3635985 0.033107139 0.43890089
0.32283986 -0.11403561 0.45230204
0.34422305 -0.093096837 0.4559105
0.36470684 -0.05085022 0.44997603
0.3647137 0.054311268 0.45004505
0.34423584 0.096607372 0.45604903
0.32285154 0.1175193 0.45243996
0.30296996 -0.1357934 0.46763068
0.36669537 -0.072341003 0.46984679
0.36670411 0.075956225 0.46993428
0.30299011 0.13940299 0.46789223
0.26102167 -0.15730037 0.47392231
0.38886994 -0.030041777 0.47902936
0.3881931 -0.0087862695 0.47274917
0.3881931 0.012421057 0.47274917
0.38887182 0.033725172 0.47904688
0.26105621 0.16097872 0.47448319
0.34774181 -0.11564063 0.4940024
0.39013538 -0.051478222 0.49077123
0.39014491 0.055253893 0.49085981
0.34775659 0.1194464 0.49416214
0.36948493 -0.094384313 0.49772173
0.36950096 0.098217554 0.49788219
0.32787192 -0.13783024 0.51172811
0.39247349 -0.073325299 0.51246613
0.41468471 -0.0087863458 0.5185129
0.41469097 0.012773689 0.51856714
0.39248127 0.077268079 0.51253825
0.32789478 0.14177965 0.511998
0.28571156 -0.16000202 0.52405888
0.41581863 -0.030421406 0.52833301
0.41581231 0.034483157 0.52827853
0.28575182 0.1640676 0.52464014
0.37397557 -0.11751093 0.54259509
0.37399769 0.1216936 0.54281598
0.41868326 -0.052438676 0.55314142
0.41870466 0.056696303 0.55332667
0.39800623 -0.096419103 0.56380385
0.39805254 0.10077143 0.56423348
0.35609108 -0.14118621 0.58438581
0.35625923 0.14577845 0.58620614
0.47272995 -0.0087861922 0.81473988
0.47272995 0.015053699 0.81473988
0.47548476 -0.032798316 0.83710617
0.47550687 0.039240599 0.83728546
0.5030303 -0.0087863458 0.86410636
0.50303328 0.015433751 0.86412913
0 0 0 1 0 0 0 1 0 0 0 1 0 0 0 0 0 698 1 0 0
