ply
format ascii 1.0
comment PCL generated
element vertex 1316
property float x
property float y
property float z
element camera 0
property float view_px
property float view_py
property float view_pz
property float x_axisx
property float x_axisy
property float x_axisz
property float y_axisx
property float y_axisy
property float y_axisz
property float z_axisx
property float z_axisy
property float z_axisz
property float focal
property float scalex
property float scaley
property float centerx
property float centery
property int viewportx
property int viewporty
property float k1
property float k2
end_header
0.21238172 -0.061117157 -0.15023774
0.17195852 -0.047636643 -0.15142941
0.18507755 -0.047514878 -0.15670317
0.19841546 -0.047493123 -0.15764612
0.21219373 -0.047607828 -0.15267968
0.17195852 -0.03419289 -0.15142936
0.18504694 -0.034103956 -0.15720046
0.1983413 -0.034080666 -0.15871638
0.21204266 -0.034143418 -0.15464211
0.17195852 -0.02074901 -0.15142941
0.1850158 -0.020700667 -0.15770614
0.19827139 -0.02068519 -0.15972561
0.21189192 -0.020709237 -0.15660018
0.18498626 -0.0073052254 -0.15818572
0.21176726 -0.0073052254 -0.15821993
0.17195852 -0.0073051625 -0.15142941
0.17195852 0.0061385916 -0.15142941
0.18498626 0.006086607 -0.15818572
0.21176726 0.0060863555 -0.15821993
0.17195852 0.019582503 -0.15142941
0.1850158 0.019485753 -0.15770608
0.19827139 0.019454738 -0.15972567
0.21189192 0.01950283 -0.15660018
0.17195852 0.033026256 -0.15142936
0.1850464 0.032892779 -0.15720916
0.1983413 0.032857962 -0.15871644
0.21204332 0.032952234 -0.15463358
0.17195806 0.046469789 -0.15143806
0.18507755 0.046307713 -0.15670317
0.19841546 0.046278644 -0.15764606
0.21219438 0.046431836 -0.15267116
0.17195991 0.059914891 -0.15140349
0.18511456 0.059734013 -0.15610248
0.1984897 0.059715834 -0.15657443
0.21238238 0.059960064 -0.1502291
0.17196828 0.073366091 -0.1512481
0.18515685 0.073173627 -0.15541565
0.19857654 0.073177956 -0.15532112
0.17201528 0.08685828 -0.15037608
0.18526965 0.086685471 -0.15358406
0.19876492 0.086738393 -0.15260214
0.18543956 0.10028259 -0.15082508
0.15901923 -0.14258435 -0.14050591
0.17247704 -0.14248416 -0.1418069
0.15894987 -0.12895235 -0.14200747
0.17231652 -0.12875988 -0.14478558
0.18591547 -0.12887688 -0.14309722
0.15890396 -0.11537482 -0.14300132
0.17218831 -0.11511842 -0.14716482
0.18565002 -0.11510347 -0.14740759
0.19960538 -0.11553064 -0.14047098
0.15888707 -0.1018464 -0.14336717
0.17208889 -0.10154234 -0.14900988
0.19912121 -0.10162586 -0.14745963
0.15888707 -0.088340491 -0.14336723
0.21310866 -0.088459373 -0.14079428
0.15888707 -0.074834615 -0.14336717
0.21258423 -0.074671425 -0.14760703
0.15888707 -0.061328769 -0.14336711
0.15888707 -0.047822859 -0.14336717
0.15888707 -0.034317013 -0.14336717
0.15888707 -0.02081104 -0.14336717
0.15888707 -0.0073052254 -0.14336717
0.22648808 -0.0073052254 -0.14252198
0.15888667 0.006200558 -0.14337593
0.2264888 0.0062072133 -0.14251328
0.15888667 0.019706437 -0.14337587
0.15888667 0.033212218 -0.14337587
0.15888667 0.046718094 -0.14337599
0.15888667 0.060223941 -0.14337593
0.15888667 0.073729731 -0.14337593
0.21258557 0.07353507 -0.14758968
0.15888707 0.087236017 -0.14336717
0.21311206 0.087376997 -0.14075059
0.15888707 0.10074186 -0.14336711
0.17208889 0.10039439 -0.14900988
0.1991224 0.10049092 -0.14744228
0.15890396 0.11427306 -0.14300126
0.17218879 0.11398527 -0.14715618
0.18565056 0.11396842 -0.14739889
0.19960719 0.11445028 -0.14044482
0.15894987 0.12785831 -0.14200747
0.172317 0.12764513 -0.14477694
0.18591708 0.12777644 -0.143071
0.15902004 0.14150324 -0.14048845
0.17247751 0.14139235 -0.14179808
0.14585242 -0.17050676 -0.1311245
0.15937918 -0.17036006 -0.13271266
0.17317179 -0.17071092 -0.128914
0.14574449 -0.15666921 -0.13392824
0.15914938 -0.15635084 -0.13768792
0.17268293 -0.15632559 -0.137986
0.18678403 -0.15708706 -0.12899363
0.1456954 -0.14299248 -0.13520384
0.18626046 -0.14281608 -0.13749504
0.14569438 -0.12942187 -0.13523024
0.20043184 -0.1298853 -0.12854207
0.14569438 -0.11585338 -0.1352303
0.14569438 -0.10228491 -0.13523024
0.14569438 -0.088716358 -0.13523024
0.14569438 -0.075147808 -0.1352303
0.14569438 -0.061579335 -0.13523018
0.14569438 -0.0480108 -0.13523024
0.22749805 -0.048117846 -0.13059443
0.14569438 -0.034442235 -0.13523024
0.22715986 -0.034452122 -0.1345883
0.14569405 -0.020873666 -0.13523895
0.22682321 -0.020848053 -0.13856405
0.14569405 -0.0073051937 -0.13523901
0.14569405 0.0062632472 -0.13523901
0.14569405 0.019831657 -0.13523895
0.2268247 0.019780708 -0.13854659
0.14569405 0.033400159 -0.13523901
0.22716212 0.033415794 -0.1345619
0.14569405 0.046968568 -0.13523901
0.22750106 0.047112752 -0.13055915
0.14569405 0.060537014 -0.13523895
0.14569405 0.074105516 -0.13523901
0.14569405 0.087673932 -0.13523895
0.14569438 0.10124297 -0.13523018
0.14569438 0.11481149 -0.13523024
0.14569438 0.12838003 -0.13523024
0.20043245 0.12889552 -0.12853318
0.1456954 0.14195077 -0.13520384
0.186261 0.14175752 -0.1374864
0.14574483 0.15563822 -0.13391954
0.15914938 0.15529005 -0.13768804
0.17268293 0.15526251 -0.13798589
0.18678457 0.15609403 -0.12898481
0.14585274 0.16949737 -0.13111567
0.15937959 0.16933843 -0.13270378
0.17317322 0.16972032 -0.12888741
0.13257341 -0.19883095 -0.12069571
0.14625554 -0.19883575 -0.12065095
0.11894072 -0.18535733 -0.11862922
0.1324622 -0.18478914 -0.12430733
0.14601357 -0.18452592 -0.12693757
0.15972428 -0.18469566 -0.12524116
0.11893845 -0.17165191 -0.11872762
0.13239761 -0.17094274 -0.12640494
0.11893845 -0.15795641 -0.11872762
0.13237874 -0.15725444 -0.12701732
0.11893845 -0.14426081 -0.11872768
0.13237874 -0.14362261 -0.12701744
0.11893845 -0.1305652 -0.11872768
0.13237874 -0.12999092 -0.12701744
0.11893845 -0.11686969 -0.11872762
0.13237874 -0.11635918 -0.12701726
0.11893824 -0.10317367 -0.11873662
0.13237874 -0.10272741 -0.12701744
0.21410435 -0.10268199 -0.12785983
0.11893824 -0.08947812 -0.11873668
0.13237874 -0.089095674 -0.12701732
0.11893824 -0.075782642 -0.11873662
0.13237847 -0.075463578 -0.12702626
0.22817907 -0.075635821 -0.12255228
0.11893824 -0.062087189 -0.11873657
0.13237847 -0.061831947 -0.12702626
0.2278378 -0.061845537 -0.12658256
0.11893824 -0.048391707 -0.11873662
0.13237847 -0.04820025 -0.12702626
0.11893824 -0.034696128 -0.11873668
0.13237847 -0.034568522 -0.1270262
0.11893824 -0.021000678 -0.11873662
0.13237847 -0.020936921 -0.1270262
0.11893824 -0.0073052254 -0.11873662
0.13237847 -0.0073052254 -0.1270262
0.11893824 0.0063902265 -0.11873657
0.13237847 0.0063264384 -0.1270262
0.11893824 0.020085772 -0.11873668
0.13237847 0.019958135 -0.1270262
0.11893824 0.033781286 -0.11873662
0.13237847 0.033589859 -0.12702626
0.11893803 0.047476485 -0.11874557
0.13237847 0.047221523 -0.12702626
0.11893803 0.061171908 -0.11874557
0.13237847 0.060853217 -0.12702626
0.22784004 0.060871299 -0.1265558
0.11893824 0.07486774 -0.11873668
0.13237847 0.074484825 -0.12702626
0.22818133 0.074692696 -0.12252551
0.11893824 0.088563256 -0.11873657
0.13237847 0.088116549 -0.12702626
0.11893824 0.1022587 -0.11873657
0.13237847 0.10174826 -0.1270262
0.21410641 0.10169853 -0.12783325
0.11893824 0.11595425 -0.11873668
0.13237874 0.11538054 -0.12701744
0.13237874 0.12901223 -0.12701744
0.11893845 0.12965043 -0.11872762
0.11893845 0.14334597 -0.11872768
0.13237874 0.14264399 -0.12701732
0.11893845 0.15704152 -0.11872762
0.13237874 0.15627575 -0.12701744
0.11893845 0.17073713 -0.11872762
0.13239761 0.16996881 -0.12640494
0.11894072 0.18444319 -0.1186291
0.13246247 0.18383224 -0.12429833
0.14601459 0.18355066 -0.12691092
0.15972552 0.18373349 -0.12521452
0.13257396 0.19790298 -0.12067783
0.14625622 0.19790816 -0.12063313
0.10539414 -0.213873 -0.10890329
0.11904836 -0.21328816 -0.11396855
0.13273734 -0.21312606 -0.115372
0.14665094 -0.21370275 -0.11037803
0.10537186 -0.19994581 -0.11035097
0.1189757 -0.19921692 -0.11711431
0.16039407 -0.19990394 -0.11073959
0.17430671 -0.18643583 -0.1078524
0.10537171 -0.1861849 -0.11035997
0.10537171 -0.17242488 -0.11036003
0.10537171 -0.15866491 -0.11036003
0.10537171 -0.14490494 -0.11036003
0.20134118 -0.14451566 -0.115417
0.10537157 -0.13114433 -0.11036891
0.10537157 -0.11738443 -0.11036897
0.21511483 -0.11711565 -0.11473346
0.10537157 -0.10362452 -0.11036897
0.10537157 -0.089864679 -0.11036897
0.22889829 -0.089694224 -0.11405861
0.10537157 -0.076104745 -0.11036903
0.10537157 -0.062344823 -0.11036903
0.10537157 -0.048584953 -0.11036897
0.10537157 -0.034825023 -0.11036903
0.24318132 -0.034860149 -0.10808814
0.10537157 -0.021065123 -0.11036903
0.24278128 -0.021049334 -0.11241865
0.10537143 -0.0073051937 -0.11037803
0.24239808 -0.0073051625 -0.11656684
0.10537143 0.0064546741 -0.11037809
0.24239808 0.0064069894 -0.11656684
0.10537143 0.020214448 -0.11037797
0.24278045 0.020182962 -0.11242771
0.10537143 0.033974312 -0.11037803
0.24318132 0.034027208 -0.10808808
0.10537143 0.047734149 -0.11037809
0.10537143 0.061493952 -0.11037803
0.10537143 0.075253822 -0.11037803
0.10537157 0.089014098 -0.11036891
0.2289021 0.088817775 -0.11401367
0.10537157 0.10277404 -0.11036891
0.10537157 0.1165339 -0.11036891
0.2151162 0.11623278 -0.11471552
0.10537171 0.13029455 -0.11036003
0.10537157 0.14405373 -0.11036897
0.20134179 0.14362705 -0.11540788
0.10537171 0.15781447 -0.11035985
0.10537171 0.1715745 -0.11036003
0.10537171 0.18533446 -0.11035997
0.17430866 0.18560864 -0.10781616
0.10537186 0.19909546 -0.11035085
0.1189757 0.19831453 -0.11711425
0.16039449 0.19905157 -0.11073053
0.10539427 0.21303485 -0.10889429
0.11904877 0.21241216 -0.11395067
0.13273734 0.21223706 -0.115372
0.14665303 0.21285878 -0.11032379
0.091692939 -0.22876397 -0.099811852
0.10546093 -0.22817852 -0.10456479
0.11921223 -0.22789432 -0.10687286
0.13306507 -0.22815843 -0.10472846
0.09167669 -0.21467912 -0.10192239
0.091676764 -0.2008552 -0.10191321
0.091676764 -0.18703021 -0.10191315
0.091676764 -0.1732052 -0.10191321
0.18826437 -0.17292412 -0.10495597
0.09167669 -0.15937944 -0.10192233
0.20226789 -0.15936935 -0.10204089
0.09167669 -0.14555447 -0.10192239
0.09167669 -0.13172956 -0.10192233
0.21614107 -0.13176557 -0.10140198
0.09167669 -0.11790461 -0.10192233
0.09167669 -0.10407972 -0.10192233
0.23005667 -0.10416292 -0.10037875
0.09167669 -0.090254784 -0.10192233
0.09167669 -0.076429844 -0.10192239
0.09167669 -0.062604897 -0.10192233
0.24413958 -0.062734485 -0.097714841
0.09167669 -0.048779961 -0.10192233
0.24362791 -0.048749257 -0.10325366
0.091676623 -0.034954891 -0.10193145
0.091676623 -0.021130042 -0.10193145
0.091676623 -0.0073052566 -0.10193133
0.091676623 0.0065195919 -0.10193139
0.091676623 0.020344472 -0.10193139
0.091676623 0.034169316 -0.10193139
0.091676623 0.047994196 -0.10193139
0.24362791 0.047953513 -0.1032536
0.091676623 0.06181908 -0.10193145
0.24414125 0.061982092 -0.097696483
0.091676623 0.075643927 -0.10193145
0.091676623 0.089468807 -0.10193145
0.09167669 0.10329419 -0.10192233
0.2300621 0.10339326 -0.1003148
0.09167669 0.1171191 -0.10192221
0.09167669 0.1309441 -0.10192233
0.21614391 0.13098693 -0.10136557
0.09167669 0.14476904 -0.10192233
0.09167669 0.158594 -0.10192221
0.20227295 0.15858969 -0.10196787
0.091676764 0.17241976 -0.10191315
0.18826774 0.17212075 -0.10490137
0.091676764 0.18624476 -0.10191327
0.091676764 0.20006979 -0.10191315
0.091676764 0.21389474 -0.10191321
0.091693006 0.22799592 -0.099802732
0.10546136 0.22737642 -0.10453749
0.11921243 0.22707182 -0.10686374
0.13306703 0.22735961 -0.10466492
0.077851765 -0.24380586 -0.090636849
0.091730855 -0.24324965 -0.094886601
0.10558519 -0.24303931 -0.096494555
0.11955647 -0.24363184 -0.091966391
0.077851765 -0.22957246 -0.093248069
0.077851765 -0.21566369 -0.093395472
0.077851765 -0.20177415 -0.093386173
0.077851765 -0.18788348 -0.093386233
0.077851765 -0.17399202 -0.093395472
0.077851765 -0.16010146 -0.093395472
0.077851765 -0.14621086 -0.093395412
0.21727705 -0.1467305 -0.086645305
0.077851765 -0.1323203 -0.093395472
0.077851765 -0.11842976 -0.093395472
0.077851765 -0.10453873 -0.093404531
0.077851765 -0.090648182 -0.093404531
0.077851765 -0.076757662 -0.093404651
0.24473369 -0.076839343 -0.091283262
0.077851765 -0.06286718 -0.09340471
0.077851765 -0.04897669 -0.093404472
0.077851765 -0.035086203 -0.093404651
0.077851765 -0.021195713 -0.093404651
0.077851765 -0.0073051625 -0.093404651
0.077851765 0.0065852632 -0.093404651
0.077851765 0.020475751 -0.093404651
0.077851765 0.034366332 -0.093404651
0.077851765 0.048256759 -0.093404531
0.077851765 0.062147249 -0.093404651
0.077851765 0.076037772 -0.093404651
0.24473709 0.076137468 -0.091246307
0.077851765 0.089928292 -0.093404651
0.077851765 0.10381877 -0.093404531
0.077851765 0.11770989 -0.093395352
0.077851765 0.1316005 -0.093395352
0.077851765 0.14549102 -0.093395352
0.21728063 0.14606656 -0.086598933
0.077851765 0.15938161 -0.093395352
0.077851765 0.1732721 -0.093395352
0.077851765 0.18716268 -0.093395352
0.077851765 0.20105445 -0.093386173
0.077851765 0.21494381 -0.093395352
0.077851765 0.22885495 -0.093238771
0.077851765 0.24310856 -0.090627491
0.091731064 0.24252218 -0.094858944
0.1055856 0.24229936 -0.096466959
0.1195586 0.24293576 -0.091874063
0.06386508 -0.25906548 -0.080909848
0.077851765 -0.25848955 -0.085066199
0.091801085 -0.25839302 -0.085763156
0.10590603 -0.25979361 -0.075655043
0.049804583 -0.2457063 -0.076115131
0.063891783 -0.24462496 -0.084377766
0.049804438 -0.23168379 -0.076105773
0.063895002 -0.23061338 -0.084796488
0.14789823 -0.23145393 -0.077972353
0.049804293 -0.2176612 -0.076096356
0.063894928 -0.21665773 -0.08478713
0.16163832 -0.21677165 -0.083800733
0.049804293 -0.2036375 -0.076096416
0.063894928 -0.20270088 -0.08478713
0.17576307 -0.20312777 -0.080825865
0.049804293 -0.18961377 -0.076096356
0.063894928 -0.18874407 -0.08478713
0.18994805 -0.18946165 -0.077616215
0.049804293 -0.17559001 -0.076096416
0.063894928 -0.17478722 -0.08478719
0.049804438 -0.16156551 -0.076105714
0.063894928 -0.16083042 -0.08478713
0.049804438 -0.14754187 -0.076105714
0.063894928 -0.14687352 -0.08478719
0.049804438 -0.13351819 -0.076105833
0.063895002 -0.13291606 -0.084796488
0.049804438 -0.11949453 -0.076105773
0.063895002 -0.11895929 -0.084796429
0.23173451 -0.1192199 -0.08056426
0.049804438 -0.10547084 -0.076105714
0.063895002 -0.10500257 -0.084796429
0.049804438 -0.09144716 -0.076105773
0.063895002 -0.091045789 -0.084796429
0.049804438 -0.077423513 -0.076105773
0.063895002 -0.077089004 -0.084796548
0.049804438 -0.063399859 -0.076105714
0.063895002 -0.063132219 -0.084796429
0.049804438 -0.049376212 -0.076105714
0.063895002 -0.049175464 -0.084796429
0.049804438 -0.035352498 -0.076105833
0.063895002 -0.035218738 -0.084796429
0.049804438 -0.021328907 -0.076105773
0.063895002 -0.021261981 -0.084796429
0.049804583 -0.0073052254 -0.076115131
0.063895002 -0.0073052566 -0.084796429
0.049804583 0.0067183948 -0.076115131
0.063895002 0.0066516246 -0.084796488
0.049804583 0.020741984 -0.076115131
0.063895002 0.020608351 -0.084796429
0.049804583 0.034765571 -0.076115131
0.063895002 0.034565073 -0.084796429
0.049804583 0.048789158 -0.076115131
0.063895077 0.048521545 -0.084805787
0.049804583 0.062812783 -0.076115131
0.063895077 0.0624783 -0.084805667
0.049804583 0.07683634 -0.076115191
0.063895002 0.076435313 -0.084796429
0.049804438 0.090860397 -0.076105773
0.063895002 0.090392165 -0.084796488
0.049804438 0.10488412 -0.076105833
0.063895002 0.10434892 -0.084796488
0.049804438 0.11890776 -0.076105833
0.063894928 0.11830637 -0.08478713
0.23174641 0.11860858 -0.08042407
0.049804438 0.13293146 -0.076105714
0.063894928 0.13226309 -0.08478713
0.049804438 0.14695507 -0.076105714
0.063895002 0.14621922 -0.084796429
0.049804438 0.16097875 -0.076105833
0.063895002 0.16017601 -0.084796488
0.049804438 0.17500247 -0.076105714
0.063894928 0.17413367 -0.08478719
0.049804293 0.18902709 -0.076096416
0.063894928 0.18809049 -0.08478713
0.18995035 0.1888673 -0.077578723
0.049804293 0.20305081 -0.076096296
0.063894928 0.2020473 -0.08478725
0.17576507 0.20250902 -0.080788493
0.049804293 0.21707459 -0.076096356
0.063894928 0.21600416 -0.08478713
0.16163877 0.21612671 -0.083791494
0.049804438 0.2310971 -0.076105714
0.063894928 0.22996089 -0.08478713
0.14789896 0.23085526 -0.077953577
0.049804438 0.24512069 -0.076105714
0.063891709 0.24397586 -0.084368467
0.063865013 0.25844306 -0.08090055
0.077851765 0.25783929 -0.085028827
0.091801517 0.25774005 -0.085707366
0.049674015 -0.27499384 -0.067634583
0.063793831 -0.27440605 -0.071653545
0.077851765 -0.27416614 -0.073293865
0.035564121 -0.26103106 -0.06672442
0.049774915 -0.25999686 -0.074188292
0.035578359 -0.24685453 -0.067340851
0.035578359 -0.23276338 -0.067340851
0.035578139 -0.2186733 -0.067331374
0.035578139 -0.20458215 -0.067331374
0.035577919 -0.19049183 -0.067321897
0.035578139 -0.17639971 -0.067331314
0.20448771 -0.17615314 -0.070000827
0.035578139 -0.16230853 -0.067331374
0.035578139 -0.14821729 -0.067331314
0.035578139 -0.13412608 -0.067331254
0.035578139 -0.1200349 -0.067331314
0.035578359 -0.1059431 -0.067340791
0.035578359 -0.091852024 -0.06734091
0.035578139 -0.077761188 -0.067331374
0.035578139 -0.063669987 -0.067331374
0.035578359 -0.049578596 -0.067340791
0.035578359 -0.035487451 -0.067340791
0.035578359 -0.021396337 -0.067340732
0.035578359 -0.0073052254 -0.067340851
0.035578359 0.0067859176 -0.067340791
0.035578359 0.020877093 -0.067340791
0.035578359 0.034968235 -0.067340851
0.035578359 0.049059317 -0.067340732
0.035578359 0.063150465 -0.067340851
0.035578359 0.077241607 -0.067340791
0.035578139 0.091333285 -0.067331374
0.035578139 0.10542446 -0.067331374
0.035578139 0.1195157 -0.067331374
0.035578139 0.1336069 -0.067331374
0.035578139 0.1476981 -0.067331314
0.035578139 0.16178934 -0.067331314
0.035578139 0.17588055 -0.067331314
0.20450929 0.17564465 -0.069688857
0.035578139 0.18997176 -0.067331254
0.035577919 0.20406413 -0.067321837
0.035578139 0.21815407 -0.067331314
0.035578139 0.23224528 -0.067331314
0.035578139 0.24633653 -0.067331254
0.035563901 0.26051795 -0.066714823
0.049774915 0.2594249 -0.074188232
0.1059082 0.25923088 -0.075514019
0.049673431 0.27447817 -0.067596793
0.06379354 0.27385926 -0.071615815
0.077851765 0.27361545 -0.073199689
0.021127932 -0.27674341 -0.055672646
0.035458919 -0.27579325 -0.062169015
0.021214131 -0.26217455 -0.058471978
0.02121472 -0.24801263 -0.05849117
0.13449706 -0.24804775 -0.058223069
0.021214426 -0.23385458 -0.058481514
0.021214131 -0.21969633 -0.058471978
0.021214131 -0.20553689 -0.058472037
0.021214131 -0.19137754 -0.058471918
0.021214131 -0.17721808 -0.058471978
0.021214131 -0.16305876 -0.058471918
0.021214131 -0.1488993 -0.058471978
0.021214426 -0.13473925 -0.058481455
0.021214426 -0.12057986 -0.058481514
0.021214426 -0.10642051 -0.058481514
0.021214426 -0.092261277 -0.058481514
0.021214426 -0.078101888 -0.058481634
0.021214426 -0.063942559 -0.058481514
0.021214426 -0.049783204 -0.058481514
0.021214426 -0.035623848 -0.058481514
0.021214426 -0.021464521 -0.058481514
0.021214426 -0.0073051937 -0.058481514
0.021214426 0.0068540699 -0.058481514
0.021214426 0.021013459 -0.058481514
0.021214426 0.035172783 -0.058481514
0.021214426 0.049332108 -0.058481455
0.021214426 0.063491501 -0.058481514
0.021214426 0.07765083 -0.058481514
0.021214426 0.091810092 -0.058481514
0.021214131 0.10597002 -0.058471918
0.021214131 0.12012948 -0.058471978
0.021214131 0.13428892 -0.058471978
0.021214426 0.14844745 -0.058481514
0.021214426 0.16260682 -0.058481514
0.021214426 0.17676611 -0.058481514
0.021214131 0.19092654 -0.058471918
0.021214131 0.20508599 -0.058471978
0.021214131 0.21924534 -0.058471859
0.021214131 0.2334047 -0.058471978
0.021214426 0.24756281 -0.058481514
0.13449794 0.24760254 -0.058194399
0.021214131 0.26172346 -0.058471978
0.021127339 0.27631688 -0.055653334
0.035458475 0.27531669 -0.062149823
0.020879991 -0.29216412 -0.047620356
0.049381822 -0.29200464 -0.048656166
0.03519439 -0.29168767 -0.050714552
0.0066661164 -0.27781066 -0.048375487
0.092103511 -0.27808842 -0.046476662
0.0067107826 -0.26341274 -0.049536109
0.0067111552 -0.24918331 -0.049545705
0.0067107826 -0.23495635 -0.049536049
0.0067104101 -0.22072928 -0.049526513
0.0067107826 -0.20650001 -0.049536049
0.0067104101 -0.19227271 -0.049526513
0.0067104101 -0.17804442 -0.049526513
0.0067107826 -0.16381539 -0.049536049
0.0067107826 -0.14958714 -0.049536049
0.0067107826 -0.13535893 -0.049536109
0.0067107826 -0.12113081 -0.049536109
0.0067107826 -0.10690258 -0.049536109
0.0067107826 -0.09267436 -0.049536109
0.0067107826 -0.078446217 -0.049536109
0.0067107826 -0.064217962 -0.049536169
0.0067107826 -0.049989823 -0.049536049
0.0067107826 -0.035761561 -0.049536109
0.0067107826 -0.021533424 -0.049536169
0.0067107826 -0.0073052566 -0.049536049
0.0067107826 0.0069230055 -0.049536109
0.0067107826 0.021151206 -0.049536169
0.0067111552 0.035379183 -0.049545825
0.0067111552 0.049607288 -0.049545705
0.0067111552 0.063835397 -0.049545705
0.0067107826 0.078063942 -0.049536049
0.0067107826 0.092292234 -0.049536049
0.0067107826 0.10652036 -0.049536049
0.0067104101 0.12074913 -0.049526393
0.0067107826 0.13497674 -0.049536169
0.0067107826 0.14920491 -0.049536049
0.0067107826 0.16343313 -0.049536109
0.0067107826 0.17766137 -0.049536169
0.0067107826 0.19188954 -0.049536049
0.0067104101 0.20611887 -0.049526393
0.0067104101 0.22034706 -0.049526453
0.0067107826 0.23457417 -0.049536049
0.0067107826 0.24880235 -0.049536109
0.0067104101 0.26303196 -0.049526453
0.0066657364 0.27743888 -0.048365772
0.092106871 0.27779701 -0.046040237
0.020879388 0.29179975 -0.047600925
0.035192605 0.29130888 -0.050637245
0.04938063 0.29164162 -0.048578739
-0.0082331896 -0.29425508 -0.034039021
0.006440036 -0.29295218 -0.042501867
-0.0079625845 -0.27905068 -0.039897859
-0.0079346299 -0.26466438 -0.040503263
0.12080387 -0.2650179 -0.037952363
-0.007934168 -0.25036535 -0.040513039
-0.007934168 -0.23606771 -0.040513039
-0.0079346299 -0.22177118 -0.040503323
-0.0079346299 -0.2074735 -0.040503144
-0.0079346299 -0.19317573 -0.040503263
-0.0079346299 -0.17887801 -0.040503263
-0.0079346299 -0.16458027 -0.040503323
-0.0079346299 -0.15028256 -0.040503144
-0.0079346299 -0.13598485 -0.040503144
-0.0079346299 -0.12168708 -0.040503263
-0.007934168 -0.10738878 -0.040512979
-0.007934168 -0.093091115 -0.040513039
-0.0079346299 -0.078793913 -0.040503263
-0.0079346299 -0.064496152 -0.040503263
-0.0079346299 -0.050198421 -0.040503323
-0.0079346299 -0.03590066 -0.040503323
-0.007934168 -0.021602863 -0.040513039
-0.007934168 -0.0073052566 -0.040512979
-0.007934168 0.0069924439 -0.040513098
-0.007934168 0.021290082 -0.040512979
-0.007934168 0.03558778 -0.040513098
-0.007934168 0.049885388 -0.040512979
-0.007934168 0.064183094 -0.040513039
-0.007934168 0.078480728 -0.040512979
-0.0079346299 0.092778996 -0.040503323
-0.0079346299 0.1070767 -0.040503144
-0.0079346299 0.12137429 -0.040503323
-0.0079346299 0.13567206 -0.040503323
-0.0079346299 0.14996983 -0.040503323
-0.007934168 0.16426665 -0.040513098
-0.0079346299 0.17856526 -0.040503323
-0.0079346299 0.19286299 -0.040503323
-0.0079346299 0.20716073 -0.040503323
-0.0079346299 0.22145842 -0.040503144
-0.0079346299 0.23575616 -0.040503263
-0.0079346299 0.25005388 -0.040503263
-0.007935077 0.26435316 -0.040493488
0.12080455 0.26472905 -0.037923038
-0.007963039 0.2787441 -0.039888144
-0.0082350075 0.29399851 -0.033999681
0.006438911 0.29262882 -0.042472601
-0.023040362 -0.29556841 -0.025508642
-0.022745132 -0.2803539 -0.030987382
-0.022723883 -0.26592836 -0.031381667
-0.022723354 -0.25155908 -0.031391501
-0.022723354 -0.23719116 -0.031391561
-0.022723883 -0.22282439 -0.031381726
-0.022723883 -0.20845653 -0.031381667
-0.022723354 -0.19408758 -0.031391501
-0.022723883 -0.17972055 -0.031381726
-0.022723883 -0.16535263 -0.031381726
-0.022723883 -0.15098475 -0.031381667
-0.022723354 -0.13661607 -0.031391561
-0.022723354 -0.1222482 -0.031391442
-0.022723354 -0.10788031 -0.031391561
-0.022723354 -0.093512483 -0.031391561
-0.022723354 -0.07914453 -0.031391561
-0.022723883 -0.06477695 -0.031381667
-0.022723354 -0.050408874 -0.031391501
-0.022723354 -0.036040917 -0.031391501
-0.022723354 -0.021673117 -0.031391501
-0.022723354 -0.0073052254 -0.031391561
-0.022723354 0.0070626359 -0.031391442
-0.022723354 0.021430559 -0.031391561
-0.022723354 0.035798386 -0.031391501
-0.022723354 0.050166313 -0.031391561
-0.022723354 0.064534172 -0.031391561
-0.022723354 0.078901976 -0.031391442
-0.022723883 0.093270399 -0.031381667
-0.022723883 0.10763838 -0.031381667
-0.022723883 0.1220064 -0.031381667
-0.022723883 0.13637426 -0.031381726
-0.022723354 0.1507414 -0.031391561
-0.022723354 0.16510926 -0.031391561
-0.022723354 0.17947707 -0.031391442
-0.022723354 0.19384508 -0.031391442
-0.022723883 0.20821404 -0.031381607
-0.022723883 0.22258194 -0.031381667
-0.022723883 0.23694992 -0.031381667
-0.022723883 0.25131792 -0.031381667
-0.022723883 0.26568574 -0.031381667
-0.02274619 0.28011754 -0.030967534
-0.023043029 0.29537916 -0.025458932
-0.037988625 -0.2969062 -0.016819537
-0.052751563 -0.2830233 -0.01273638
-0.037672617 -0.28167561 -0.021951079
-0.052741818 -0.26849237 -0.012877166
-0.037658513 -0.26720333 -0.022180021
-0.052741133 -0.25398073 -0.01288712
-0.037657902 -0.25276327 -0.022189915
-0.052741818 -0.23947157 -0.012877166
-0.037658513 -0.23832573 -0.022180021
-0.052741818 -0.22496115 -0.012877107
-0.037659124 -0.22388808 -0.022170007
-0.052741818 -0.21045078 -0.012877047
-0.037658513 -0.20944816 -0.022180021
-0.052741133 -0.19593935 -0.01288712
-0.037658513 -0.1950094 -0.022180021
-0.052741818 -0.18142992 -0.012877166
-0.037659124 -0.18057154 -0.022170067
-0.052741818 -0.16691956 -0.012877107
-0.037658513 -0.16613181 -0.022180021
-0.052741818 -0.15240914 -0.012877047
-0.037658513 -0.15169305 -0.022180021
-0.052741818 -0.13789882 -0.012877107
-0.037658513 -0.13725425 -0.022180021
-0.052741818 -0.12338844 -0.012877107
-0.037658513 -0.12281543 -0.022180021
-0.052741133 -0.10887744 -0.01288718
-0.037658513 -0.10837667 -0.022180021
-0.052741818 -0.094367556 -0.012877166
-0.037658513 -0.093937933 -0.022180021
-0.052741818 -0.079857148 -0.012877107
-0.037658513 -0.079499096 -0.022180021
-0.052741818 -0.0653468 -0.012877107
-0.037658513 -0.065060325 -0.022180021
-0.052741818 -0.050836459 -0.012877047
-0.037658513 -0.05062158 -0.022180021
-0.052741818 -0.036326047 -0.012877047
-0.037658513 -0.036182743 -0.022180021
-0.052741818 -0.021815572 -0.012877166
-0.037658513 -0.021744 -0.022180021
-0.037658513 -0.0073052566 -0.022180021
-0.052741818 -0.0073051625 -0.012877166
-0.052741818 0.007205185 -0.012877107
-0.037658513 0.0071336119 -0.022180021
-0.052741818 0.021715565 -0.012877107
-0.037658513 0.021572387 -0.022180021
-0.052741133 0.036225691 -0.012887061
-0.037658513 0.03601113 -0.022179961
-0.052741133 0.05073607 -0.012887061
-0.037658513 0.050449967 -0.022180021
-0.052741818 0.065246828 -0.012877107
-0.037658513 0.064888746 -0.022180021
-0.052741818 0.079757176 -0.012877107
-0.037658513 0.079327486 -0.022179961
-0.052741818 0.094267614 -0.012877047
-0.037658513 0.093766354 -0.022180021
-0.037659124 0.10820566 -0.022170007
-0.052741818 0.1087779 -0.012877166
-0.052741818 0.12328833 -0.012877047
-0.037659124 0.12264456 -0.022170067
-0.052741818 0.13779876 -0.012877047
-0.037658513 0.13708262 -0.02218008
-0.052741818 0.15230913 -0.012877166
-0.037658513 0.15152146 -0.022180021
-0.052741133 0.16681866 -0.01288712
-0.037658513 0.16596016 -0.022180021
-0.052741133 0.18132898 -0.01288712
-0.037658513 0.18039903 -0.022180021
-0.052741818 0.19584039 -0.012877047
-0.037658513 0.19483775 -0.022180021
-0.052741818 0.21035068 -0.012877047
-0.037658513 0.20927656 -0.022179961
-0.037659124 0.22371662 -0.022169948
-0.052741818 0.22486112 -0.012877047
-0.052741818 0.23937163 -0.012877107
-0.037658513 0.23815413 -0.022180021
-0.052741818 0.25388193 -0.012877166
-0.037658513 0.25259289 -0.022179961
-0.052742518 0.26839381 -0.012866974
-0.037659124 0.2670331 -0.022169948
-0.052752279 0.28292593 -0.012726367
-0.037672617 0.28150567 -0.02195096
-0.037990473 0.29678065 -0.016789496
-0.053083278 -0.29827198 -0.0079483986
-0.06799113 -0.28440672 -0.0032783747
-0.067974709 -0.26979282 -0.0034916997
-0.067974709 -0.25521025 -0.0034915209
-0.067974709 -0.2406276 -0.0034915805
-0.067975499 -0.22604607 -0.0034814477
-0.067974709 -0.21146232 -0.0034915209
-0.067974709 -0.19687963 -0.0034915209
-0.067975499 -0.18229792 -0.0034814477
-0.067975499 -0.16771522 -0.0034815073
-0.067975499 -0.15313244 -0.0034814477
-0.067974709 -0.138549 -0.0034915209
-0.067974709 -0.1239664 -0.0034915209
-0.067974709 -0.10938375 -0.0034915805
-0.067974709 -0.094801076 -0.0034916997
-0.067975499 -0.080218874 -0.0034815073
-0.067975499 -0.065636076 -0.0034814477
-0.067975499 -0.051053375 -0.0034814477
-0.067975499 -0.036470637 -0.0034814477
-0.067974709 -0.021887869 -0.0034915805
-0.067974709 -0.0073052254 -0.0034915805
-0.067974709 0.0072774175 -0.0034915209
-0.067974709 0.021860091 -0.0034915209
-0.067974709 0.036442764 -0.0034916997
-0.067974709 0.051025376 -0.0034915209
-0.067974709 0.065607987 -0.0034915209
-0.067975499 0.080191135 -0.0034814477
-0.067975499 0.094773874 -0.0034814477
-0.067975499 0.10935666 -0.0034813881
-0.067975499 0.12393932 -0.0034814477
-0.067975499 0.13852204 -0.0034814477
-0.067974709 0.15310387 -0.0034915209
-0.067974709 0.16768652 -0.0034916997
-0.067974709 0.18226923 -0.0034915209
-0.067974709 0.19685186 -0.0034915209
-0.067975499 0.21143568 -0.0034815073
-0.067975499 0.22601841 -0.0034814477
-0.067975499 0.24060114 -0.0034814477
-0.067975499 0.25518382 -0.0034815073
-0.067975499 0.26976654 -0.0034814477
-0.06799113 0.28438056 -0.0032783151
-0.05308608 0.29821643 -0.0079080462
-0.039262615 -0.31473044 0.0038674474
-0.068434961 -0.29987863 0.002487123
-0.083447807 -0.28591362 0.0070242286
-0.083360933 -0.27110779 0.0059981346
-0.083360933 -0.25645211 0.005998075
-0.083360933 -0.24179642 0.005998075
-0.083361797 -0.2271419 0.0060084462
-0.083360933 -0.21248503 0.005998075
-0.083360069 -0.19782828 0.0059877634
-0.083360933 -0.18317366 0.0059981346
-0.083361797 -0.16851877 0.0060083866
-0.083360933 -0.15386216 0.0059980154
-0.083360933 -0.1392065 0.0059981346
-0.083360933 -0.12455075 0.0059980154
-0.083360933 -0.10989513 0.0059981346
-0.083360933 -0.095239371 0.0059980154
-0.083360933 -0.080583736 0.0059981346
-0.083360933 -0.06592799 0.005998075
-0.083360933 -0.051272329 0.0059981346
-0.083360933 -0.036616609 0.005998075
-0.083360933 -0.021960948 0.0059981346
-0.083360933 -0.0073051937 0.005998075
-0.083360933 0.0073504341 0.005998075
-0.083360933 0.022006219 0.005998075
-0.083360933 0.036661878 0.0059981942
-0.083360933 0.051317599 0.005998075
-0.083360933 0.065973356 0.0059980154
-0.083360933 0.080628984 0.005998075
-0.083361797 0.095285244 0.0060084462
-0.083361797 0.10994095 0.0060083866
-0.083360933 0.12459609 0.0059980154
-0.083360933 0.13925178 0.0059981346
-0.083360933 0.15390746 0.0059980154
-0.083360933 0.16856316 0.0059981346
-0.083360933 0.18321885 0.005998075
-0.083360933 0.19787455 0.0059981346
-0.083360933 0.2125303 0.005998075
-0.083361797 0.22718728 0.0060083866
-0.083360933 0.24184164 0.0059980154
-0.083361797 0.25649878 0.006008327
-0.083360933 0.27115297 0.0059980154
-0.08344955 0.28596988 0.007044673
-0.06843888 0.29990512 0.0025382042
-0.039286561 0.31482524 0.0042564273
-0.084166445 -0.30188385 0.015510798
-0.099111877 -0.28749758 0.017854512
-0.098901115 -0.27243453 0.015573025
-0.098901115 -0.25770512 0.015572906
-0.098902069 -0.24297696 0.015583396
-0.098902069 -0.22824751 0.015583277
-0.098901115 -0.21351688 0.015572965
-0.098901115 -0.19878753 0.015572965
-0.098901115 -0.1840581 0.015572965
-0.098902069 -0.16932948 0.015583277
-0.098902069 -0.15460008 0.015583277
-0.098902069 -0.13987066 0.015583396
-0.098902069 -0.1251411 0.015583336
-0.098902069 -0.11041164 0.015583396
-0.098902069 -0.095682085 0.015583336
-0.098902069 -0.080952652 0.015583336
-0.098902069 -0.066223167 0.015583277
-0.098902069 -0.051493704 0.015583336
-0.098902069 -0.036764178 0.015583277
-0.098902069 -0.022034686 0.015583396
-0.098902069 -0.0073051625 0.015583336
-0.098902069 0.0074242675 0.015583396
-0.098902069 0.022153761 0.015583277
-0.098902069 0.03688322 0.015583277
-0.098902069 0.051612712 0.015583217
-0.098902069 0.066342175 0.015583277
-0.098902069 0.081071734 0.015583277
-0.098902069 0.09580116 0.015583277
-0.098902069 0.11053062 0.015583396
-0.098902069 0.12526017 0.015583336
-0.098902069 0.13998964 0.015583336
-0.098901115 0.15471828 0.015573025
-0.098901115 0.16944765 0.015573025
-0.098901115 0.18417706 0.015572906
-0.098901115 0.19890654 0.015572965
-0.098902069 0.21363713 0.015583336
-0.098902069 0.22836654 0.015583277
-0.098902069 0.24309604 0.015583277
-0.098903023 0.25782695 0.015593708
-0.098902069 0.27255502 0.015583277
-0.099113785 0.28763735 0.017875373
-0.084170826 0.30201069 0.015562654
-0.11501185 -0.28918281 0.029376149
-0.11459944 -0.27377608 0.025255024
-0.11459944 -0.25897217 0.025255084
-0.11459944 -0.24416828 0.025255084
-0.1146005 -0.22936554 0.025265574
-0.11459944 -0.21456037 0.025255024
-0.1145984 -0.19975533 0.025244594
-0.11459944 -0.18495247 0.025255084
-0.1146005 -0.17014946 0.025265574
-0.1146005 -0.15534543 0.025265574
-0.11459944 -0.1405407 0.025255144
-0.11459944 -0.12573673 0.025255024
-0.11459944 -0.11093274 0.025255084
-0.1146005 -0.09612935 0.025265574
-0.1146005 -0.081325307 0.025265515
-0.1146005 -0.066521287 0.025265574
-0.1146005 -0.051717274 0.025265515
-0.1146005 -0.036913257 0.025265574
-0.1146005 -0.022109179 0.025265515
-0.1146005 -0.0073052566 0.025265574
-0.1146005 0.0074988226 0.025265574
-0.1146005 0.022302808 0.025265634
-0.1146005 0.037106853 0.025265574
-0.1146005 0.051910903 0.025265694
-0.1146005 0.06671486 0.025265574
-0.1146005 0.081518903 0.025265455
-0.1146005 0.096322924 0.025265574
-0.1146005 0.11112698 0.025265515
-0.1146005 0.12593098 0.025265574
-0.11459944 0.14073412 0.025255024
-0.11459944 0.15553817 0.025255144
-0.11459944 0.17034209 0.025255084
-0.11459944 0.18514599 0.025255084
-0.11459944 0.19994988 0.025255024
-0.11459944 0.21475393 0.025255144
-0.1146005 0.22955917 0.025265574
-0.1146005 0.24436308 0.025265574
-0.1146005 0.2591671 0.025265574
-0.11459944 0.27396965 0.025255144
-0.11501291 0.28940964 0.029386699
-0.10030831 -0.30423874 0.030806363
-0.13052925 -0.2752237 0.035701931
-0.13045746 -0.26025215 0.035035729
-0.13045746 -0.24537285 0.03503567
-0.13045746 -0.23049368 0.03503567
-0.13045746 -0.21561445 0.035035729
-0.13045633 -0.20073414 0.03502512
-0.13045633 -0.18585502 0.03502512
-0.13045746 -0.17097676 0.03503567
-0.13045746 -0.15609753 0.035035729
-0.13045746 -0.14121823 0.03503567
-0.13045746 -0.12633908 0.03503567
-0.13045746 -0.11145987 0.035035789
-0.13045746 -0.096580572 0.03503567
-0.13045862 -0.081701815 0.035046279
-0.13045862 -0.066822462 0.035046279
-0.13045862 -0.051943138 0.03504622
-0.13045862 -0.037063874 0.035046339
-0.13045746 -0.022184456 0.03503567
-0.13045746 -0.0073052254 0.035035789
-0.13045746 0.0075740679 0.03503567
-0.13045746 0.022453237 0.035035729
-0.13045746 0.037332561 0.035035729
-0.13045746 0.052211694 0.035035789
-0.13045746 0.067090929 0.03503567
-0.13045862 0.081970602 0.035046339
-0.13045862 0.096849956 0.035046339
-0.13045862 0.11172928 0.035046339
-0.13045746 0.12660788 0.035035789
-0.13045746 0.14148712 0.03503567
-0.13045746 0.15636629 0.035035729
-0.13045633 0.17124461 0.03502512
-0.13045633 0.18612374 0.035025179
-0.13045746 0.20100404 0.035035789
-0.13045746 0.2158833 0.03503567
-0.13045746 0.23076244 0.035035789
-0.13045746 0.24564175 0.035035729
-0.13045746 0.26052094 0.035035789
-0.13053042 0.27549911 0.035712481
-0.10031707 0.30449021 0.030901134
-0.13134179 -0.29121083 0.043241203
-0.1469323 -0.27704605 0.048853993
-0.14647761 -0.26154521 0.044916332
-0.14647761 -0.24658985 0.044916332
-0.14647761 -0.23163456 0.044916391
-0.14647639 -0.21667816 0.044905663
-0.14647514 -0.20172191 0.044895053
-0.14647639 -0.1867677 0.044905663
-0.14647761 -0.17181344 0.044916391
-0.14647761 -0.15685815 0.044916391
-0.14647761 -0.14190286 0.044916391
-0.14647761 -0.12694754 0.044916332
-0.14647761 -0.11199227 0.044916391
-0.14647761 -0.09703695 0.044916332
-0.14647761 -0.082081653 0.044916272
-0.14647761 -0.067126364 0.044916332
-0.14647761 -0.052171074 0.044916332
-0.14647761 -0.037215844 0.044916391
-0.14647761 -0.022260487 0.044916391
-0.14647761 -0.0073052254 0.044916391
-0.14647761 0.0076500676 0.044916391
-0.14647761 0.022605361 0.044916332
-0.14647761 0.037560619 0.044916272
-0.14647761 0.052515976 0.044916391
-0.14647761 0.067471333 0.044916391
-0.14647761 0.082426563 0.044916272
-0.14647886 0.097382329 0.044927061
-0.14647761 0.11233706 0.044916391
-0.14647761 0.12729241 0.044916391
-0.14647761 0.14224774 0.044916391
-0.14647639 0.15720218 0.044905663
-0.14647639 0.17215735 0.044905722
-0.14647639 0.18711261 0.044905603
-0.14647639 0.20206772 0.044905722
-0.14647761 0.21702419 0.044916332
-0.14647761 0.23197952 0.044916451
-0.14647761 0.2469347 0.044916391
-0.14647761 0.26189005 0.044916391
-0.14693603 0.27742594 0.04888624
-0.13134637 0.29154927 0.04328382
-0.16283923 -0.26303941 0.056334376
-0.16266239 -0.24781939 0.0548985
-0.16266105 -0.232786 0.054887652
-0.16266105 -0.21775399 0.054887652
-0.16265973 -0.20272084 0.054876924
-0.16265973 -0.18768886 0.054876924
-0.16266105 -0.17265782 0.054887652
-0.16266239 -0.15762652 0.05489856
-0.16266105 -0.14259364 0.054887652
-0.16266105 -0.12756166 0.054887652
-0.16266105 -0.11252961 0.054887652
-0.16266239 -0.097498059 0.05489856
-0.16266239 -0.082465857 0.0548985
-0.16266239 -0.067433722 0.054898441
-0.16266239 -0.052401584 0.05489856
-0.16266239 -0.037369475 0.0548985
-0.16266239 -0.022337332 0.054898441
-0.16266239 -0.0073051937 0.0548985
-0.16266239 0.0077269454 0.0548985
-0.16266239 0.022759054 0.05489856
-0.16266239 0.037791222 0.054898441
-0.16266239 0.052823331 0.054898441
-0.16266239 0.06785541 0.0548985
-0.16266239 0.082887642 0.05489856
-0.16266239 0.097919725 0.05489856
-0.16266239 0.11295185 0.0548985
-0.16266239 0.127984 0.054898441
-0.16266105 0.14301535 0.054887772
-0.16266105 0.1580473 0.054887772
-0.16266105 0.17307942 0.054887772
-0.16266105 0.18811156 0.054887772
-0.16266105 0.20314351 0.054887772
-0.16266105 0.21817555 0.054887772
-0.16266239 0.23320897 0.05489856
-0.16266239 0.24824111 0.0548985
-0.16284192 0.26347518 0.056356013
-0.16430801 -0.27973497 0.068259239
-0.17984867 -0.26500565 0.071359277
-0.17904001 -0.24908572 0.065180004
-0.17901289 -0.2339505 0.064972758
-0.17901146 -0.21883965 0.06496191
-0.17901146 -0.20373002 0.06496191
-0.17901146 -0.18862043 0.06496191
-0.17901289 -0.17351176 0.064972878
-0.17901289 -0.15840212 0.064972878
-0.17901289 -0.14329247 0.064972878
-0.17901289 -0.12818268 0.064972878
-0.17901289 -0.113073 0.064972878
-0.17901289 -0.097963348 0.064972878
-0.17901433 -0.082854047 0.064983785
-0.17901433 -0.067744277 0.064983726
-0.17901433 -0.052634507 0.064983666
-0.17901433 -0.037524767 0.064983785
-0.17901433 -0.022414966 0.064983726
-0.17901433 -0.0073051937 0.064983726
-0.17901433 0.0078045144 0.064983785
-0.17901433 0.022914317 0.064983666
-0.17901433 0.03802418 0.064983726
-0.17901433 0.05313389 0.064983785
-0.17901433 0.06824366 0.064983785
-0.17901433 0.083353467 0.064983666
-0.17901433 0.09846317 0.064983785
-0.17901433 0.11357291 0.064983666
-0.17901289 0.12868199 0.064972937
-0.17901289 0.14379168 0.064972758
-0.17901289 0.15890138 0.064972818
-0.17901146 0.17401008 0.06496197
-0.17901146 0.18911967 0.06496197
-0.17901146 0.20422925 0.06496197
-0.17901289 0.21934006 0.064972878
-0.17901289 0.23444979 0.064972937
-0.17904145 0.24958794 0.065190852
-0.17985296 0.2655586 0.071392238
-0.1643188 0.28027231 0.068346798
-0.1961908 -0.25089863 0.079898953
-0.19555134 -0.23514108 0.075283825
-0.19553304 -0.21993786 0.075151682
-0.19553149 -0.20474868 0.075140655
-0.19553149 -0.18956071 0.075140715
-0.19553304 -0.17437372 0.075151742
-0.19553453 -0.1591865 0.075162649
-0.19553453 -0.1439984 0.075162709
-0.19553453 -0.12881029 0.075162709
-0.19553453 -0.11362213 0.075162709
-0.19553453 -0.098434001 0.07516259
-0.19553453 -0.083245911 0.075162768
-0.19553608 -0.068058066 0.075173736
-0.19553453 -0.052869633 0.075162709
-0.19553608 -0.037681662 0.075173795
-0.19553453 -0.022493349 0.075162709
-0.19553453 -0.0073052254 0.075162709
-0.19553453 0.0078829303 0.075162709
-0.19553453 0.023071086 0.075162649
-0.19553453 0.038259149 0.075162709
-0.19553453 0.053447302 0.075162709
-0.19553453 0.068635464 0.075162649
-0.19553608 0.083824091 0.075173795
-0.19553608 0.099012271 0.075173795
-0.19553453 0.11419981 0.075162709
-0.19553453 0.12938796 0.075162709
-0.19553453 0.14457612 0.075162709
-0.19553304 0.1597632 0.075151682
-0.19553304 0.17495127 0.075151742
-0.19553304 0.19013935 0.075151682
-0.19553304 0.20532739 0.075151742
-0.19553304 0.22051549 0.075151682
-0.19555286 0.2357211 0.075294793
-0.19619542 0.25151718 0.079932034
-0.21301368 -0.23693581 0.090826452
-0.21225467 -0.22106788 0.085637033
-0.21222538 -0.20577902 0.085436702
-0.21222538 -0.19051181 0.085436583
-0.21222538 -0.17524455 0.085436583
-0.21222699 -0.15997826 0.085447907
-0.21222699 -0.14471093 0.085447729
-0.21222699 -0.12944365 0.085447729
-0.2122286 -0.11417694 0.085458934
-0.2122286 -0.09890952 0.085458934
-0.2122286 -0.083642162 0.085458934
-0.2122286 -0.068374746 0.085458934
-0.2122286 -0.053107362 0.085458875
-0.2122286 -0.037840035 0.085458934
-0.2122286 -0.022572614 0.085458934
-0.2122286 -0.0073052566 0.085458934
-0.2122286 0.0079621952 0.085458934
-0.2122286 0.023229614 0.085458934
-0.2122286 0.038496971 0.085458934
-0.2122286 0.053764358 0.085458934
-0.2122286 0.069031715 0.085458994
-0.21223024 0.084299676 0.085470021
-0.2122286 0.099566586 0.085458934
-0.2122286 0.11483382 0.085458934
-0.2122286 0.13010123 0.085458934
-0.21222699 0.14536782 0.085447729
-0.21222699 0.16063504 0.085447907
-0.21222699 0.17590247 0.085447848
-0.21222538 0.1911687 0.085436642
-0.21222699 0.20643702 0.085447729
-0.21225792 0.22172883 0.085659325
-0.21301857 0.23763821 0.09085995
-0.23003566 -0.22282644 0.10195458
-0.22913942 -0.2068495 0.096133113
-0.22909263 -0.19147186 0.095829487
-0.22909439 -0.17612556 0.095840693
-0.22909611 -0.16077915 0.095851958
-0.22909611 -0.14543171 0.095851958
-0.22909611 -0.13008438 0.095851839
-0.22909611 -0.114737 0.095851898
-0.22909784 -0.099390127 0.095863104
-0.22909784 -0.084042661 0.095863163
-0.22909784 -0.068695158 0.095863163
-0.22909784 -0.053347662 0.095863163
-0.22909784 -0.038000192 0.095863104
-0.22909784 -0.022652725 0.095863104
-0.22909784 -0.0073052254 0.095863104
-0.22909784 0.0080423057 0.095863163
-0.22909784 0.023389712 0.095863104
-0.22909784 0.038737275 0.095863104
-0.22909784 0.054084711 0.095863104
-0.22909784 0.069432244 0.095863104
-0.22909784 0.08477959 0.095863163
-0.22909784 0.10012715 0.095863283
-0.22909784 0.11547459 0.095863163
-0.22909611 0.13082127 0.095851898
-0.22909611 0.14616871 0.095851839
-0.22909611 0.16151606 0.095851958
-0.22909439 0.17686245 0.095840633
-0.22909439 0.19220982 0.095840633
-0.22914287 0.20759101 0.096155584
-0.23004264 0.22361563 0.10199982
-0.24643001 -0.19260912 0.10814029
-0.2461395 -0.17701495 0.10634309
-0.24614131 -0.16158761 0.10635448
-0.24614316 -0.14616016 0.10636574
-0.24614316 -0.13073188 0.10636586
-0.24614316 -0.11530352 0.10636574
-0.24614316 -0.099875227 0.10636574
-0.24614498 -0.084447265 0.10637718
-0.24614498 -0.069018871 0.10637712
-0.24614498 -0.053590447 0.10637707
-0.24614498 -0.038162082 0.10637718
-0.24614498 -0.022733653 0.10637718
-0.24614498 -0.0073051937 0.10637718
-0.24614498 0.0081232656 0.10637718
-0.24614498 0.023551693 0.10637718
-0.24614498 0.038979992 0.10637712
-0.24614498 0.05440842 0.10637712
-0.24614498 0.069836885 0.10637707
-0.24614498 0.085265346 0.10637707
-0.24614316 0.10069311 0.10636586
-0.24614316 0.11612139 0.10636574
-0.24614316 0.13154972 0.10636574
-0.24614316 0.14697808 0.10636586
-0.24614131 0.16240554 0.10635442
-0.24614131 0.17783365 0.10635442
-0.24643186 0.19344179 0.10815156
-0.24781257 -0.20890693 0.11669248
-0.26454011 -0.17850108 0.12389457
-0.26354221 -0.16248429 0.11800241
-0.26336902 -0.14689551 0.1169796
-0.26336902 -0.13138554 0.11697966
-0.26337096 -0.11587608 0.11699116
-0.26337096 -0.100366 0.11699116
-0.26337096 -0.084855862 0.1169911
-0.2633729 -0.069346033 0.11700255
-0.26337096 -0.053835582 0.1169911
-0.26337096 -0.038325444 0.1169911
-0.26337096 -0.022815334 0.1169911
-0.26337096 -0.0073052254 0.1169911
-0.26337096 0.0082049146 0.11699122
-0.26337096 0.023715023 0.11699116
-0.26337096 0.039225131 0.1169911
-0.26337096 0.054735303 0.11699116
-0.26337096 0.070245415 0.11699116
-0.26337096 0.08575549 0.1169911
-0.26337096 0.10126568 0.11699116
-0.26337096 0.1167758 0.1169911
-0.26337096 0.13228588 0.1169911
-0.26336902 0.1477952 0.11697966
-0.26354414 0.16339271 0.11801398
-0.26454598 0.17945725 0.12392938
-0.24782556 0.20981303 0.11677283
-0.28166837 -0.14798699 0.1327337
-0.28102303 -0.13213123 0.12908888
-0.28079474 -0.11645853 0.12779939
-0.2807824 -0.10086196 0.12772965
-0.2807824 -0.085269161 0.12772965
-0.2807824 -0.06967634 0.12772971
-0.2807824 -0.054083578 0.12772965
-0.2807824 -0.038490783 0.12772965
-0.2807824 -0.02289802 0.12772965
-0.2807824 -0.0073052254 0.12772965
-0.2807824 0.0082876012 0.12772977
-0.2807824 0.023880333 0.12772965
-0.2807824 0.039473124 0.12772965
-0.2807824 0.055065949 0.12772971
-0.2807824 0.070658714 0.12772971
-0.2807824 0.086251572 0.12772971
-0.2807824 0.10184433 0.12772977
-0.28079474 0.11744137 0.12779939
-0.28102303 0.13312407 0.12908882
-0.28167045 0.14900874 0.13274539
-0.29955247 -0.10165633 0.14492726
-0.29874495 -0.085762858 0.14055645
-0.29844111 -0.070020668 0.13891202
-0.2983956 -0.054336157 0.1386655
-0.29838043 -0.038657911 0.13858336
-0.29838043 -0.022981552 0.13858336
-0.29838043 -0.0073052254 0.1385833
-0.29838043 0.0083711967 0.1385833
-0.29838043 0.024047462 0.13858336
-0.29838043 0.039723754 0.13858336
-0.2983956 0.055402655 0.1386655
-0.29844111 0.071089193 0.13891202
-0.29874712 0.086844496 0.14056826
-0.29955682 0.1027723 0.14495087
-0.31788737 -0.0073052882 0.15848786
-0.31788737 0.0085243881 0.15848786
0.31598195 -0.0073052882 0.48170656
0.31598195 0.011012489 0.48170656
0.31718558 -0.025715481 0.4937343
0.31719205 0.029516293 0.49379891
0.31998727 -0.044556875 0.52173036
0.33820316 -0.0073052254 0.51792675
0.33820316 0.01129131 0.51792663
0.31999391 0.048573781 0.52179664
0.33955723 -0.025998445 0.53049093
0.33956444 0.030082224 0.53055781
0.36111131 -0.0073052254 0.55526656
0.36111131 0.011578731 0.55526644
0.34272 -0.045143645 0.559838
0.34272555 0.049453437 0.55988914
0.36262727 -0.026290262 0.56839508
0.36263722 0.030666234 0.56848127
0.38473874 -0.0073052254 0.59377855
0.38473874 0.011875195 0.59377855
0.36617824 -0.045748752 0.5991475
0.38642895 -0.026591245 0.60750145
0.38643992 0.031268258 0.60759038
0.36618435 0.050361346 0.59920031
0.3905158 -0.046388198 0.6406824
0.40911987 -0.0073052882 0.63351935
0.40911987 0.012181075 0.63351923
0.41099766 -0.026902024 0.64786798
0.41100723 0.031889625 0.64794141
0.39052477 0.051320989 0.64075536
0.43429136 -0.0073052254 0.67454821
0.43429136 0.012497 0.67454821
0.41569895 -0.047052007 0.68379241
0.436371 -0.027222971 0.68955666
0.43638149 0.032531459 0.68963224
0.41570386 0.052315727 0.6838302
0.46029228 -0.0073051625 0.7169289
0.46029228 0.012823159 0.7169289
0.44174677 -0.047737915 0.72835273
0.46258923 -0.027554655 0.73263329
0.46260068 0.033194639 0.73271149
0.44174948 0.053344369 0.7283724
0.48716733 -0.0073052254 0.76074964
0.48716426 0.013160368 0.76072973
0.46870369 -0.048447553 0.77443808
0.4894211 -0.048462119 0.77538818
0.48817354 -0.027821358 0.76728493
0.48817354 0.033727042 0.76728493
0.46871257 0.054409552 0.774499
0.48943356 0.05443209 0.77546901
0.45060131 -0.069430165 0.79225534
0.45060986 0.075529918 0.79231662
0.43131348 -0.069680735 0.80310935
0.43131888 0.075863548 0.80315048
0.41256532 -0.070063964 0.81970221
0.41258073 0.076377109 0.8198275
