ply
format ascii 1.0
comment PCL generated
element vertex 1002
property float x
property float y
property float z
element camera 1
property float view_px
property float view_py
property float view_pz
property float x_axisx
property float x_axisy
property float x_axisz
property float y_axisx
property float y_axisy
property float y_axisz
property float z_axisx
property float z_axisy
property float z_axisz
property float focal
property float scalex
property float scaley
property float centerx
property float centery
property int viewportx
property int viewporty
property float k1
property float k2
end_header
-0.024414845 -0.2687504 -0.06447351
-0.00032712368 -0.26859346 -0.066513181
0.023732636 -0.26847091 -0.068105578
-0.048481453 -0.24456768 -0.065845132
-0.024388991 -0.24443014 -0.067831755
-0.00032712368 -0.24429265 -0.069815993
0.023708029 -0.24418968 -0.071302533
0.047832742 -0.24459268 -0.065485001
-0.04848066 -0.22048743 -0.065896511
-0.024388466 -0.22036403 -0.0679003
-0.00032712368 -0.2202418 -0.069884419
0.023711711 -0.22018398 -0.070824265
0.047827993 -0.22049382 -0.065793633
-0.048479605 -0.19640698 -0.065965176
-0.024388069 -0.19629994 -0.06795156
-0.00032712368 -0.19621964 -0.069439769
0.023715524 -0.19617178 -0.070328712
0.047824562 -0.19640413 -0.066016436
-0.048481978 -0.17233786 -0.06581068
-0.024388991 -0.17224447 -0.067831874
-0.00032712368 -0.17219155 -0.06897831
0.023719208 -0.17215125 -0.069850326
0.047832213 -0.17235135 -0.065519452
-0.04848884 -0.1482776 -0.065365195
-0.024392288 -0.14819911 -0.067403913
-0.00032712368 -0.14815566 -0.068533421
0.023723025 -0.14812407 -0.069354296
0.047839869 -0.14829077 -0.065022111
-0.048489105 -0.12419719 -0.065348029
-0.024392419 -0.12413447 -0.067386627
-0.00032712368 -0.12409964 -0.068516374
0.023727633 -0.12409234 -0.068755746
0.047848847 -0.12422522 -0.064439178
-0.048489369 -0.10011668 -0.065330863
-0.024392551 -0.10006958 -0.067369461
-0.00032712368 -0.10004347 -0.068499088
0.023732111 -0.10005097 -0.068174124
0.047857828 -0.1001507 -0.063855886
-0.04848963 -0.076035708 -0.065313816
-0.024392815 -0.076004677 -0.067335367
-0.00032712368 -0.075987034 -0.068481922
0.023736723 -0.076001033 -0.067574978
-0.048489898 -0.05195459 -0.06529665
-0.024392946 -0.051939126 -0.067318201
-0.00032712368 -0.051930305 -0.068464875
0.023741204 -0.051941611 -0.066992879
-0.048490159 -0.027873319 -0.065279365
-0.024393078 -0.027873218 -0.067301273
-0.00032712368 -0.027873268 -0.068430662
0.023745818 -0.027873268 -0.066393495
-0.048490424 -0.0037916433 -0.065262318
-0.02439321 -0.003807107 -0.067283988
-0.00032712368 -0.003815826 -0.068413734
0.023750303 -0.0037958007 -0.0658108
-0.048490688 0.020290287 -0.065245271
-0.024393341 0.020259107 -0.067266941
-0.00032712368 0.020241769 -0.068396688
0.023754923 0.020290794 -0.0652107
-0.048490953 0.044372469 -0.065227866
-0.024393475 0.044325821 -0.067249775
-0.00032712368 0.044299766 -0.068379402
0.02375941 0.044386357 -0.064627886
-0.048490953 0.068454295 -0.065227985
-0.024393737 0.068393201 -0.067215562
-0.00032712368 0.068358324 -0.068345308
0.023764031 0.068491355 -0.064027429
-0.048491213 0.092536986 -0.0652107
-0.024393868 0.092460379 -0.067198515
-0.00032712368 0.09243878 -0.067763329
0.023768524 0.092605025 -0.063444018
-0.048491482 0.11661983 -0.065193534
-0.024394 0.11652797 -0.06718111
-0.00032712368 0.11652888 -0.067164063
-0.048491742 0.14070278 -0.065176487
-0.024394132 0.1405957 -0.067164183
-0.00032712368 0.14062724 -0.066581845
-0.048492007 0.16478622 -0.06515944
-0.024394264 0.16466384 -0.067147017
-0.00032712368 0.16473453 -0.065999269
-0.048492271 0.18886988 -0.065142393
-0.024394527 0.18873335 -0.067112803
-0.00032712368 0.18885209 -0.065399408
-0.048492536 0.21295373 -0.065125227
-0.024394657 0.21280214 -0.067095518
-0.00032712368 0.21297751 -0.064816475
-0.0484928 0.23703806 -0.065107942
-0.024394792 0.23687105 -0.06707859
-0.00032712368 0.23711334 -0.064216137
-0.048493061 0.26112235 -0.065090775
-0.024394924 0.26094034 -0.067061305
-0.00032712368 0.26121426 -0.064096093
-0.048493329 0.28520691 -0.065073729
-0.024395054 0.28500968 -0.067044377
-0.00032712368 0.28530663 -0.064078808
-0.048493855 0.30929387 -0.065039396
-0.024397165 0.3091073 -0.066770196
-0.00032712368 0.30939922 -0.064061642
-0.048495967 0.33339304 -0.064902067
-0.02440178 0.33324656 -0.066170573
-0.00032712368 0.33349407 -0.064027429
-0.048498344 0.35749644 -0.06474793
-0.024406265 0.35739288 -0.065587997
-0.00032712368 0.3575874 -0.064010262
-0.04850072 0.3816022 -0.064593434
-0.024409829 0.3815327 -0.065125227
-0.00032712368 0.38168079 -0.063993096
-0.048503097 0.40571055 -0.064439178
-0.024409961 0.40561777 -0.065108061
-0.00032712368 0.40577692 -0.063958764
-0.048505474 0.42982107 -0.064284682
-0.024410089 0.42970309 -0.065090895
-0.00032712368 0.42987123 -0.063941598
-0.048507586 0.45393133 -0.064147472
-0.024410225 0.45378879 -0.065073609
-0.00032712368 0.45396557 -0.063924313
-0.048509963 0.4780466 -0.063993216
-0.024410488 0.47787738 -0.065039396
-0.00032712368 0.47806054 -0.063907266
-0.048502039 0.50205076 -0.064507723
-0.024406662 0.50187653 -0.065536618
-0.00032712368 0.5020681 -0.064404845
-0.048490688 0.52600777 -0.065245152
-0.024401385 0.52583474 -0.066221833
-0.00032712368 0.52603805 -0.065073609
0.023764692 0.52623838 -0.063941479
-0.048483562 0.55000395 -0.065707922
-0.024398087 0.5498299 -0.066650391
-0.00032712368 0.55004209 -0.065502167
0.023761524 0.55025429 -0.064353347
-0.048480131 0.5740394 -0.065930724
-0.024396637 0.57386464 -0.066838741
-0.00032712368 0.57408547 -0.065690756
0.023759937 0.57430321 -0.064559221
-0.048479076 0.59810209 -0.065999269
-0.02439611 0.59792042 -0.066907167
-0.00032712368 0.59815693 -0.065725088
0.023759937 0.59839022 -0.064559221
-0.02442026 0.62264132 -0.063769937
-0.04872676 -0.31827101 -0.049911976
-0.024511224 -0.31808251 -0.051953316
-0.00032712368 -0.31789255 -0.054009795
0.023831716 -0.3177793 -0.055235267
0.048087973 -0.31836385 -0.048907399
-0.072948575 -0.29415187 -0.048959494
-0.048629928 -0.29353869 -0.056200981
-0.024462873 -0.29336655 -0.058234572
-0.00032712368 -0.29319465 -0.060265303
0.02378214 -0.29307514 -0.061675072
0.047988161 -0.29360732 -0.055390477
0.072291926 -0.29414317 -0.049063206
-0.072789304 -0.2694138 -0.055856228
-0.048533753 -0.26890635 -0.062448144
0.047889024 -0.26895401 -0.061829567
0.072142221 -0.26943779 -0.055545688
0.096493468 -0.26992479 -0.049219251
-0.097161062 -0.24574962 -0.048786044
-0.072705746 -0.24500911 -0.059473991
0.072055072 -0.24501991 -0.059319139
0.096373089 -0.24544877 -0.053128839
-0.097176529 -0.22157212 -0.048283696
-0.072717667 -0.22091481 -0.058957696
0.072047919 -0.2208734 -0.059628963
0.096374154 -0.2212759 -0.053094268
-0.097192541 -0.19738773 -0.047763586
-0.0727292 -0.1968115 -0.058458328
0.072040372 -0.19673084 -0.059955716
0.096389584 -0.19712749 -0.052592993
-0.097208023 -0.17319468 -0.047260761
-0.072741129 -0.17270137 -0.057941675
0.072033219 -0.172594 -0.060265303
0.096405551 -0.17297235 -0.052074432
-0.097223513 -0.14899376 -0.046757817
-0.072752275 -0.14858188 -0.057459354
0.072032034 -0.14847176 -0.06031692
0.096420459 -0.14880779 -0.051590443
-0.097226724 -0.12477291 -0.046653748
-0.072754659 -0.12444332 -0.057356
0.072032824 -0.12435319 -0.060282588
0.096421532 -0.12462194 -0.051555753
-0.097229928 -0.1005504 -0.046549559
-0.07275705 -0.10030325 -0.057252645
0.072033621 -0.10023399 -0.060248137
0.09642259 -0.10043552 -0.051521182
-0.097233132 -0.076326206 -0.04644537
-0.072759442 -0.076161489 -0.057149291
0.047867075 -0.076067492 -0.063255072
0.072034016 -0.076114088 -0.06023097
0.096423656 -0.076248638 -0.051486731
-0.072762623 -0.052018367 -0.057011366
0.047876064 -0.05197487 -0.062671304
0.072034813 -0.051993981 -0.060196519
0.096424192 -0.052061059 -0.051469207
-0.0727662 -0.027873319 -0.056856275
0.047885057 -0.027873268 -0.062087417
0.072035603 -0.027873218 -0.060162067
0.096425258 -0.027873268 -0.051434517
-0.072769389 -0.0037258361 -0.056718349
0.047885317 -0.0037670545 -0.062070251
0.0720364 -0.0037520472 -0.060127854
0.096434847 -0.0036826916 -0.051123261
-0.072772972 0.020423928 -0.056563139
0.047885846 0.020339666 -0.062035918
0.072036795 0.020369327 -0.060110688
0.096447095 0.020513868 -0.050725341
-0.072776556 0.044576272 -0.056408048
0.047886115 0.044446588 -0.062018633
0.072037585 0.044491507 -0.060076237
0.09645988 0.044717014 -0.050310016
-0.07278014 0.068730704 -0.056252718
0.047886375 0.068553813 -0.062001586
0.07203839 0.068614043 -0.060041785
0.096472144 0.068926044 -0.049911737
-0.072783723 0.092887819 -0.056097746
0.047886904 0.092661805 -0.061967015
0.07203918 0.092737243 -0.060007215
0.096484937 0.093141817 -0.049496293
-0.072786905 0.1170463 -0.055959821
0.023771167 0.11671636 -0.063100457
0.047887169 0.11676954 -0.061949849
0.072039977 0.11686099 -0.059972763
0.0964972 0.11736312 -0.049097896
-0.072790489 0.14120783 -0.05580461
0.023771429 0.14081654 -0.063066244
0.047887433 0.14087769 -0.061932683
0.072040372 0.14098421 -0.059955716
0.096510008 0.14159162 -0.048682213
-0.07279408 0.16537204 -0.055649281
0.023771564 0.16491617 -0.063049078
0.047887966 0.16498715 -0.061898351
0.072041169 0.16510892 -0.059921384
0.096522279 0.1658255 -0.048283577
-0.072797664 0.18953834 -0.055493832
0.023771696 0.18901604 -0.06303215
0.047888227 0.1890958 -0.061881065
0.072041959 0.18923405 -0.059886932
0.096535087 0.19006673 -0.047867656
-0.072801247 0.21370712 -0.055338621
0.02377196 0.21311754 -0.06299758
0.047888495 0.2132048 -0.061864138
0.072042756 0.21335968 -0.059852481
0.096547365 0.21431287 -0.047468901
-0.072804436 0.23787697 -0.055200696
0.023772091 0.23721807 -0.062980413
0.047889024 0.23731561 -0.061829686
0.072043553 0.23748593 -0.059818029
0.09656018 0.2385668 -0.047052622
0.023772225 0.26131889 -0.062963247
-0.07280802 0.26205048 -0.055045366
0.047889285 0.26142517 -0.06181252
0.072043948 0.26161093 -0.059800982
0.096572474 0.2628254 -0.046653748
-0.072811611 0.28622621 -0.054889917
0.023772489 0.28542161 -0.062928796
0.047889553 0.28553504 -0.061795354
0.072044745 0.28573814 -0.059766293
-0.072815195 0.31040445 -0.054734707
0.02377262 0.30952328 -0.062911749
0.047890082 0.30964708 -0.061761022
0.072045535 0.3098658 -0.059732199
-0.072818778 0.33458504 -0.054579377
0.023772754 0.33362487 -0.062894583
0.047890343 0.33375764 -0.061743736
0.072046332 0.333994 -0.059697628
-0.072821975 0.35876578 -0.054441333
0.023773016 0.35772902 -0.06286037
0.047890611 0.35786864 -0.06172657
0.072046727 0.35812059 -0.059680581
-0.072825566 0.38295108 -0.054285884
0.023773149 0.38183138 -0.062842965
0.04789114 0.38198188 -0.061692238
0.072047524 0.38224977 -0.05964613
-0.07282915 0.40713876 -0.054130435
0.023773281 0.40593404 -0.062825918
0.047891401 0.40609339 -0.061675072
0.072048321 0.40637943 -0.059611559
-0.072832741 0.43132889 -0.053975105
0.023773413 0.43003696 -0.062808633
0.047891669 0.43020517 -0.061657786
0.072049908 0.43051454 -0.059542656
-0.072836332 0.45552146 -0.053819776
0.023773678 0.45414266 -0.06277442
0.04789193 0.4543173 -0.06164062
0.07205905 0.4547013 -0.059147
-0.072839521 0.4797135 -0.053681374
0.02377381 0.47824621 -0.062757134
0.047892459 0.4784323 -0.061606288
0.072063416 0.47886056 -0.058957577
-0.072826363 0.50378788 -0.054251313
0.023769977 0.50226307 -0.063255191
0.047884528 0.50245494 -0.062121749
0.072049908 0.50289166 -0.059542894
-0.072809219 0.52782273 -0.054993629
0.047874212 0.52644211 -0.062791586
0.072032429 0.52688318 -0.060299754
0.096559651 0.52922571 -0.047070026
0.047867607 0.55046344 -0.063220978
-0.072799258 0.55190384 -0.055424929
0.072021708 0.55091733 -0.060764074
0.096547365 0.55337369 -0.047468781
-0.07279408 0.57601798 -0.055649281
0.047864698 0.57452452 -0.063409567
0.07201694 0.57499391 -0.060970426
0.096540965 0.5775522 -0.047676802
-0.072799653 0.60022187 -0.055407643
0.047864962 0.59862387 -0.063392282
0.072019324 0.59912914 -0.060867071
0.096556447 0.60186988 -0.047174096
-0.072879031 0.6250937 -0.05197072
-0.048531633 0.62288767 -0.062585354
-0.00032712368 0.62288404 -0.062602758
0.023784125 0.62313044 -0.061417222
0.047913369 0.62337339 -0.060248137
0.072103202 0.6239996 -0.05723536
-0.072958179 0.65001655 -0.048543572
-0.048584044 0.64772362 -0.059181452
-0.024444459 0.64741206 -0.060626507
-0.00032712368 0.64766425 -0.059456825
0.023808228 0.6479165 -0.05828619
0.04796188 0.6481728 -0.057097435
0.072187662 0.64893138 -0.0535779
-0.024549352 0.67457134 -0.047000647
-0.048990741 -0.34418684 -0.032765508
-0.024642373 -0.34397155 -0.034916878
-0.00032712368 -0.34375477 -0.037082791
0.023965944 -0.34368315 -0.037798285
0.048362374 -0.34435502 -0.031084657
-0.097708821 -0.32001844 -0.030996799
-0.073108546 -0.31899899 -0.042032242
0.072441846 -0.31894916 -0.042571306
0.096894599 -0.31953838 -0.036192417
-0.097494565 -0.29508376 -0.037955403
0.096693352 -0.29467958 -0.042727947
-0.12194373 -0.27110657 -0.033867955
-0.097280703 -0.27025717 -0.044900537
0.12123834 -0.27100426 -0.035196662
-0.12178373 -0.24649525 -0.038025022
0.12106171 -0.24637316 -0.039785981
-0.12180387 -0.22223613 -0.037501574
0.12108384 -0.22213086 -0.039210796
-0.12182336 -0.19796793 -0.036995649
0.12110665 -0.19788057 -0.038617969
-0.12184285 -0.17369208 -0.036489248
0.12112814 -0.17361967 -0.03805995
-0.12186234 -0.14940847 -0.035982728
0.12114023 -0.14934063 -0.037745953
-0.12186638 -0.12510468 -0.035878062
0.12115567 -0.12505946 -0.037344694
-0.12187041 -0.10079913 -0.035773277
0.12117179 -0.10077266 -0.036925673
-0.12187444 -0.076492295 -0.035668373
0.12118725 -0.076479062 -0.036524177
-0.12187847 -0.052183595 -0.035563469
-0.097236335 -0.052100599 -0.046341419
0.12120339 -0.052179337 -0.036105156
-0.12188251 -0.027873268 -0.035458803
-0.097240075 -0.027873268 -0.046219826
0.12121885 -0.027873218 -0.035703421
-0.12188722 -0.0035613198 -0.035336375
-0.097243279 -0.0036442634 -0.046115875
0.12123431 -0.003561018 -0.035301447
-0.12189125 0.020752454 -0.03523159
-0.09724649 0.020586414 -0.046011567
0.12125047 0.020757677 -0.034882069
-0.1218953 0.045067646 -0.035126686
-0.097249694 0.044818662 -0.045907378
0.12126594 0.045082547 -0.034479976
-0.12189933 0.069384359 -0.035021901
-0.097252898 0.069052435 -0.045803428
0.12128209 0.069413967 -0.03406024
-0.12190337 0.09370295 -0.034916997
-0.097256109 0.09328793 -0.04569912
0.12129758 0.093751363 -0.033657908
-0.1219074 0.11802302 -0.034812212
-0.097259849 0.11752576 -0.045577765
0.12131374 0.11809581 -0.033238053
-0.097264133 0.14176658 -0.045438886
-0.12191144 0.14234465 -0.034707069
0.12132923 0.14244549 -0.032835603
-0.12191547 0.166668 -0.034602284
-0.097268939 0.16601044 -0.045282364
0.12133597 0.1667878 -0.032660723
-0.12192019 0.19099414 -0.034479976
-0.097273752 0.19025669 -0.045126081
0.12133731 0.19112267 -0.032625675
-0.12192422 0.2153208 -0.034375072
-0.097278565 0.21450536 -0.044969916
0.12133865 0.21545839 -0.032590628
-0.12192826 0.23964916 -0.034270048
-0.097283378 0.23875646 -0.044813514
0.12134 0.23979448 -0.032555699
-0.12193229 0.26397917 -0.034165263
-0.097287662 0.26300848 -0.044674754
0.12134136 0.26413104 -0.032520533
-0.12193634 0.28831062 -0.034060359
-0.097292468 0.28726417 -0.044518232
0.096585289 0.28709212 -0.046237111
0.1213427 0.2884683 -0.032485485
-0.097297288 0.31152236 -0.044361949
0.096596517 0.31135952 -0.045872688
-0.12194172 0.31264755 -0.033920527
0.12134472 0.31280792 -0.032433152
-0.12194778 0.33698866 -0.033762813
-0.097302102 0.33578295 -0.044205546
0.096597582 0.33559442 -0.045838118
0.12134606 0.33714628 -0.032398105
-0.12195384 0.36133221 -0.033605456
-0.097306922 0.36004588 -0.044049263
0.096598648 0.3598299 -0.045803308
0.12134741 0.36148536 -0.032363057
-0.12195989 0.3856782 -0.033447981
-0.097311199 0.38430905 -0.043910146
0.09659972 0.38406575 -0.045768738
0.12134877 0.38582474 -0.03232789
-0.12196528 0.41002414 -0.033308268
-0.097316012 0.4085767 -0.043753743
0.096600793 0.40830237 -0.045733929
0.12135011 0.41016471 -0.032292962
-0.12197135 0.43437481 -0.033150673
-0.097320832 0.43284687 -0.043597341
0.096601859 0.43253928 -0.04569912
0.12135145 0.43450537 -0.032258034
-0.12197741 0.45872784 -0.032993197
-0.097325645 0.45711923 -0.043440819
0.096602932 0.45677707 -0.04566431
0.12135281 0.45884642 -0.032223105
-0.097330466 0.48139423 -0.043284297
0.096603997 0.48101509 -0.04562974
-0.12198348 0.48308349 -0.032835722
0.12135416 0.48318809 -0.032188058
-0.12195654 0.50729603 -0.0335356
-0.097310662 0.50553614 -0.04392767
0.096583687 0.50513613 -0.046289206
0.12132585 0.50739992 -0.032923222
-0.12192826 0.53149194 -0.034270048
-0.097287662 0.52964985 -0.044674635
0.12129555 0.531591 -0.033710361
-0.12191413 0.55574435 -0.034637332
-0.097275361 0.55381614 -0.045074105
0.12128142 0.55584776 -0.034077883
-0.12190539 0.58001792 -0.034864545
-0.09726841 0.57800961 -0.045299888
0.12127334 0.58012903 -0.034287572
-0.12193903 0.60450858 -0.033990383
-0.097286053 0.60235965 -0.04472661
0.12130902 0.6046347 -0.0333606
-0.12207246 0.62955159 -0.030523777
-0.097392067 0.62731498 -0.041283727
0.096669257 0.62685227 -0.043510437
0.12145195 0.62973356 -0.029647231
-0.097524114 0.65250576 -0.03699553
0.096800037 0.65201682 -0.039263129
-0.073341556 0.67793286 -0.031942844
-0.048818626 0.67525345 -0.043944955
-0.00032712368 0.67486191 -0.04569912
0.023915149 0.67515266 -0.044396639
0.048177492 0.67544371 -0.043093204
0.072578683 0.67688286 -0.036646366
-0.00032712368 -0.37051067 -0.014280915
0.024147663 -0.37052032 -0.014192224
-0.07355652 -0.34520072 -0.022634506
0.072862834 -0.34502983 -0.02434206
0.097567111 -0.34602955 -0.014351726
-0.12248265 -0.32104656 -0.019866705
0.12183928 -0.32107261 -0.019584298
-0.12221226 -0.29602063 -0.02689147
0.1215357 -0.29597148 -0.027471066
-0.14703612 -0.27238828 -0.017217517
0.14632882 -0.27229998 -0.018365979
-0.14676802 -0.24753462 -0.023022056
0.14609507 -0.24750657 -0.02342689
-0.14679812 -0.22316796 -0.0223701
0.1461219 -0.22313865 -0.022845864
-0.14682743 -0.19879025 -0.021735907
0.14614142 -0.19875324 -0.022423148
-0.14685673 -0.17440282 -0.021101236
0.14615607 -0.17435643 -0.022106051
-0.14678347 -0.14992017 -0.022687435
0.14617074 -0.1499548 -0.021788836
-0.14678347 -0.12551078 -0.022687435
0.14619026 -0.12555154 -0.021365643
-0.14678347 -0.1011015 -0.022687316
0.14620899 -0.10114139 -0.020960212
-0.14678347 -0.076692097 -0.022687316
0.14622855 -0.076725207 -0.0205369
-0.14678429 -0.05228281 -0.022669792
0.14624728 -0.052302331 -0.020131111
-0.14678429 -0.027873319 -0.022669673
0.14626683 -0.027873218 -0.019707799
-0.14678429 -0.0034637246 -0.022669911
0.14628233 -0.0034384262 -0.019372463
-0.14678429 0.020945819 -0.022669673
0.14628397 0.020997176 -0.019337177
-0.14678429 0.04535526 -0.022669792
0.14628641 0.045433484 -0.019284248
-0.14678429 0.0697648 -0.022669673
0.14628805 0.069870099 -0.019248962
-0.14678429 0.094174393 -0.022669673
0.14628966 0.094307326 -0.019213676
-0.14678511 0.11858464 -0.022652149
0.1462913 0.11874511 -0.019178271
-0.14678511 0.14299434 -0.022652268
0.14629294 0.14318351 -0.019142985
-0.14678511 0.16740394 -0.022652268
0.14629456 0.1676223 -0.01910758
-0.14678511 0.19181374 -0.022652268
0.14629619 0.19206165 -0.019072413
-0.14678511 0.21622333 -0.02265203
0.14629783 0.21650167 -0.019037008
-0.14678511 0.24063303 -0.022652149
0.14629945 0.24094208 -0.019001603
-0.14678591 0.26504442 -0.022634506
0.14630109 0.26538309 -0.018966436
-0.14678591 0.28945407 -0.022634625
0.14630271 0.28982478 -0.018930912
-0.14678591 0.31386393 -0.022634625
0.14630517 0.31426871 -0.018878222
-0.14678591 0.33827376 -0.022634506
0.1463068 0.3387115 -0.018842816
-0.14678591 0.36268342 -0.022634625
0.14630842 0.36315492 -0.018807411
-0.14678591 0.38709325 -0.022634625
0.14631006 0.38759872 -0.018772125
-0.14678591 0.41150317 -0.022634625
0.14631169 0.41204315 -0.018736839
-0.14678998 0.43592572 -0.022546411
0.14631332 0.43648797 -0.018701553
-0.14679487 0.46035257 -0.022440672
0.14631495 0.46093357 -0.018666267
-0.14679894 0.48477805 -0.022352457
0.14631495 0.48537391 -0.018666267
-0.14676557 0.50906783 -0.023074746
0.14627826 0.50967968 -0.019460797
-0.14673142 0.5333432 -0.023814082
0.14624158 0.53397334 -0.020254731
-0.14671598 0.5576821 -0.024148583
0.14622773 0.55834609 -0.020554662
-0.14670542 0.58203626 -0.024377346
0.14621714 0.58272773 -0.02078402
-0.14676069 0.60667217 -0.023180485
0.14627989 0.60742372 -0.019425392
-0.14693414 0.63185835 -0.019425392
0.14645374 0.6326406 -0.015661478
-0.12228736 0.65510416 -0.024940372
0.12168255 0.65538085 -0.023655772
-0.098052636 0.6806367 -0.019831419
0.097361453 0.68036884 -0.021030664
-0.074165635 -0.37245294 0.0037407875
-0.049359448 -0.37109947 -0.0088176727
-0.024818961 -0.37075901 -0.011977196
0.048733667 -0.37129882 -0.0069684982
0.073431231 -0.37207901 0.00027024746
-0.12338234 -0.34781688 0.0035079718
-0.098328345 -0.34637719 -0.010877371
0.12273842 -0.34784371 0.0037764311
-0.14793468 -0.32308844 0.0022370815
0.14710462 -0.32273683 -0.0015692711
-0.14745364 -0.29760525 -0.0081777573
0.14669028 -0.29740524 -0.010540128
0.17170063 -0.27362716 -0.0011230707
-0.17244151 -0.24916315 0.00048458576
0.17138755 -0.24864937 -0.0069329739
-0.17247716 -0.22461611 0.0011460781
0.17140481 -0.22413833 -0.0066126585
-0.17251183 -0.20005801 0.0017899275
0.17142206 -0.19962244 -0.0062925816
-0.1725475 -0.17549081 0.0024517775
0.17145948 -0.17511903 -0.0055981874
-0.17258225 -0.1509126 0.0030961037
0.17149787 -0.15060546 -0.0048859119
-0.17254654 -0.12628444 0.0024338961
0.17150171 -0.12606116 -0.0048146248
-0.17257547 -0.10169396 0.0029708147
0.17150459 -0.10151545 -0.0047610998
-0.17260346 -0.077095106 0.0034900904
0.17150649 -0.076968558 -0.0047255754
-0.17263241 -0.052488342 0.0040273666
0.1715094 -0.052421369 -0.0046721697
-0.17266041 -0.027873319 0.0045467615
0.17151226 -0.027873268 -0.0046185255
0.17151418 -0.0033245068 -0.0045831203
0.17151706 0.021225115 -0.0045295954
0.17151994 0.045775443 -0.0044759512
0.17152572 0.070328414 -0.0043692589
0.17153242 0.094883561 -0.0042444468
0.17154013 0.1194414 -0.0041018724
0.17154682 0.1440006 -0.0039771795
0.17155355 0.16856179 -0.0038523674
0.17156126 0.19312607 -0.0037099123
0.17156796 0.21769115 -0.0035851002
0.17157468 0.24225833 -0.0034601688
0.17158142 0.26682705 -0.0033354759
0.17158909 0.29139963 -0.0031927824
0.17159583 0.31597254 -0.0030680895
0.17160255 0.34054744 -0.0029431581
0.17160927 0.36512426 -0.002818346
0.17161699 0.38970524 -0.0026755333
0.17162369 0.41428596 -0.0025508404
0.17163043 0.43886873 -0.002425909
0.17166215 0.46352473 -0.0018368959
0.17165445 0.4880715 -0.0019798279
0.17158718 0.51242888 -0.003228426
-0.17262663 0.53825366 0.0039199591
0.171519 0.53676379 -0.0044938326
-0.17260925 0.56280822 0.0035973787
0.17149691 0.56123769 -0.0049036741
-0.17258899 0.58734775 0.0032215118
0.17147675 0.58571208 -0.0052776337
0.17163908 0.61085832 -0.0022650957
0.17196947 0.63669926 0.0038660765
-0.14742491 0.65858299 -0.0087997913
0.14681171 0.65877467 -0.0079110861
-0.12295308 0.6833573 -0.0076444149
0.12238993 0.68388563 -0.0052776337
-0.025055893 -0.3988049 0.018801212
-0.00032712368 -0.39854196 0.016524792
0.02439302 -0.39867538 0.017680645
-0.099167667 -0.37381524 0.016380548
0.098504528 -0.3737841 0.016091704
-0.17328931 -0.29967105 0.016217947
0.17231084 -0.29916155 0.010200977
-0.1727957 -0.27425697 0.0070575476
-0.17268939 -0.0032500308 0.0050845146
-0.17271739 0.021381116 0.0056045055
-0.17274639 0.046020627 0.0061424971
-0.17276764 0.070664242 0.0065369606
-0.1727667 0.095297769 0.0065190792
-0.1727667 0.11993196 0.0065190792
-0.17276572 0.14456528 0.0065011978
-0.17276572 0.16919933 0.0065010786
-0.17276475 0.19383214 0.0064831972
-0.17276475 0.21846613 0.0064831972
-0.17276378 0.24309863 0.0064650774
-0.17276378 0.26773241 0.0064653158
-0.1727628 0.29236442 0.0064474344
-0.1727628 0.31699815 0.0064473152
-0.17276186 0.34162959 0.0064293146
-0.17276089 0.36626107 0.0064115524
-0.17276089 0.39089438 0.0064114332
-0.17275991 0.41552526 0.0063935518
-0.17275991 0.44015861 0.0063934326
-0.17275895 0.46478903 0.0063755512
-0.17274541 0.48938155 0.0061243773
-0.17268455 0.51382148 0.0049948692
-0.17275025 0.6125555 0.0062140226
-0.17302808 0.63825893 0.011370063
0.14766821 0.68743747 0.010632634
-0.074949756 -0.40098646 0.037694573
-0.049883109 -0.39954314 0.02519536
0.049223833 -0.39950541 0.024868727
0.074230514 -0.40066147 0.034880161
0.12397075 -0.37590733 0.035793424
-0.14920412 -0.35044006 0.029721022
0.14819594 -0.34967321 0.022058368
-0.1739493 -0.32551131 0.028465629
0.17313056 -0.32522938 0.025413156
-0.19913064 -0.27637768 0.034606338
0.19848087 -0.27638337 0.034679294
-0.19849855 -0.25081614 0.024342537
0.19790463 -0.25088397 0.025322318
-0.19853988 -0.22608607 0.025013924
0.19795831 -0.22615871 0.026193976
-0.19858012 -0.2013447 0.02566731
0.19801311 -0.2014211 0.027084112
-0.19862151 -0.17659411 0.026339173
0.19806574 -0.17666793 0.027938247
-0.19866289 -0.15183307 0.027011395
0.19811837 -0.15190177 0.028793097
-0.19869538 -0.12705733 0.0275383
0.1981307 -0.12710221 0.028993249
-0.19872783 -0.10227349 0.028065562
0.19813855 -0.10229787 0.029120445
-0.19876142 -0.077481881 0.028611183
0.19814752 -0.077491917 0.029266
-0.1987939 -0.052681554 0.029138565
0.19815536 -0.052683633 0.029393435
-0.19882753 -0.027873268 0.029684544
0.1981632 -0.027873268 0.029520869
-0.19886005 -0.0030566677 0.030212522
0.19817105 -0.0030609258 0.029648304
-0.19889367 0.021768453 0.030758858
0.19818 0.021753544 0.029793978
-0.19892623 0.046601377 0.031287074
0.19818786 0.046569787 0.029921293
-0.19895989 0.07144317 0.031833768
0.19819571 0.071388215 0.030048728
-0.19899243 0.096292526 0.032362342
0.19820355 0.096208312 0.030176163
-0.19902614 0.12115095 0.032909513
0.19821252 0.12103146 0.030321836
-0.19905871 0.1460169 0.033438325
0.19823271 0.14586656 0.030649781
-0.19909129 0.17089099 0.033967495
0.19836852 0.17082229 0.032854676
-0.19912502 0.19577441 0.034515023
0.19849212 0.19579838 0.034861922
-0.19915764 0.22066472 0.035044432
0.19849661 0.22065645 0.034934998
-0.19919136 0.24556513 0.035592437
0.19849999 0.24551396 0.034989715
-0.19922398 0.27047205 0.036122322
0.19850449 0.27037415 0.035062671
0.19850788 0.29523361 0.035117626
-0.19924763 0.29537261 0.036506057
-0.1992465 0.32023555 0.036487699
0.19851238 0.32009578 0.035190701
-0.19924538 0.34509841 0.036469698
0.19851574 0.3449572 0.035245419
-0.19924538 0.36996317 0.03646946
0.19852024 0.3698214 0.035318494
-0.19924425 0.39482558 0.036451221
0.1985236 0.39468464 0.03537333
-0.19924425 0.41969031 0.03645134
0.19852699 0.41954845 0.035428166
-0.19924313 0.44455233 0.036432981
0.19853148 0.4444159 0.035501122
-0.19924313 0.4694168 0.036432981
0.19853486 0.46928158 0.035555959
-0.19921274 0.49420142 0.035939574
0.19850674 0.49406564 0.035099387
-0.19913849 0.51885808 0.034734249
0.19842805 0.51870346 0.033821464
-0.1990823 0.54354781 0.033821464
0.19836064 0.54335403 0.032727003
-0.19906095 0.56832814 0.033474684
0.19833595 0.56811583 0.032325864
-0.19903961 0.59310317 0.033128381
0.19831237 0.59287518 0.031943202
-0.19930843 0.61881596 0.037493467
0.19862153 0.61870974 0.036963105
-0.17391206 0.66646659 0.027774692
0.17293127 0.66516018 0.021714449
-0.050341681 -0.42798969 0.054980278
-0.025264436 -0.42687017 0.045891523
-0.00032712368 -0.42658746 0.043595195
0.024608772 -0.42684773 0.045707703
0.049654149 -0.42772353 0.052818775
0.099676378 -0.40288633 0.054148436
-0.12482222 -0.37645963 0.040917158
-0.20009202 -0.30255002 0.050217628
0.19919401 -0.30221492 0.046259165
-0.19963335 0.64478511 0.042769313
0.1990096 0.64488822 0.043264747
-0.00032712368 -0.98218513 0.068774819
-0.025469618 -0.4804382 0.07254529
-0.00032712368 -0.4801251 0.070285797
-0.050564397 -0.45489007 0.069446206
-0.025367891 -0.45356625 0.059330702
-0.00032712368 -0.45327792 0.057126284
0.024715213 -0.45359308 0.059534669
0.049863096 -0.45449021 0.066390038
-0.075632237 -0.42950061 0.067246675
0.074979275 -0.42950746 0.067302465
-0.10042004 -0.40322161 0.057052255
0.15052697 -0.37986621 0.072526813
-0.17588061 -0.35390121 0.064306259
0.1750402 -0.35355544 0.060851574
0.20034665 -0.32888398 0.064975858
0.22511302 -0.25331342 0.060387611
0.22517341 -0.22831817 0.061259627
0.22524416 -0.20331763 0.062280774
0.22533685 -0.17831588 0.063618302
0.22542958 -0.15329364 0.064957023
-0.22621794 -0.12826918 0.066892743
0.22557659 -0.12827486 0.067079067
-0.22621277 -0.10316852 0.066818476
0.22573285 -0.10322657 0.069334269
-0.22620633 -0.078068562 0.066725254
0.22588931 -0.078143649 0.071592689
-0.22619988 -0.052970283 0.066632152
0.22595273 -0.053015508 0.072508097
-0.22619472 -0.027873369 0.066557646
0.2259566 -0.027873218 0.072564125
-0.22618826 -0.0027775224 0.066464424
0.22596049 -0.0027301181 0.072620153
-0.22618182 0.022316704 0.066371322
-0.22617665 0.047409967 0.066297054
-0.22617021 0.072501451 0.066203952
-0.22616377 0.097591527 0.066110849
-0.2261586 0.12268113 0.066036463
-0.22615217 0.14776842 0.065943122
-0.2261457 0.17285439 0.065850258
-0.22614056 0.1979401 0.065775871
-0.22613412 0.22302331 0.06568265
-0.22612765 0.24810518 0.065589786
-0.22612251 0.27318716 0.065515161
-0.22611606 0.29826617 0.065422177
-0.22610961 0.32334399 0.065329075
-0.22610445 0.34842223 0.065254807
-0.22609802 0.37349716 0.065161824
-0.22609158 0.3985706 0.065068722
-0.22608641 0.42364541 0.064994335
-0.22607997 0.4487161 0.064901352
-0.22607353 0.47378534 0.064808369
-0.22660051 0.52523953 0.072414756
0.22589836 0.52512246 0.071723342
-0.22643232 0.54995102 0.069987297
0.22583757 0.55010301 0.070845723
-0.22635995 0.57488096 0.068942666
0.22581039 0.57516009 0.070453882
-0.22641811 0.60015714 0.069781899
0.22583111 0.600344 0.070752501
-0.20101467 0.67453307 0.065198898
0.20066331 0.67559308 0.070117831
-0.050750021 -0.98590833 0.081502676
-0.025486028 -0.98391163 0.074677229
0.024825444 -0.98367083 0.07385397
0.050059922 -0.98522717 0.079174399
-0.050847702 -0.96250409 0.087847471
-0.025584508 -0.9623965 0.087470293
-0.00032712368 -0.96039176 0.080432057
0.024921987 -0.96209049 0.086395621
0.050189387 -0.96242875 0.087583303
-0.025592349 -0.93742144 0.088488936
-0.00032712368 -0.93546468 0.081427693
0.024929682 -0.93711823 0.087394834
-0.025600052 -0.91242588 0.08948946
-0.00032712368 -0.91052204 0.082423687
0.024937378 -0.91213077 0.088394523
-0.00032712368 -0.88556451 0.083420515
0.024945078 -0.88712811 0.089395046
-0.025592063 -0.86161631 0.088451266
-0.00032712368 -0.85981762 0.081371307
0.024929825 -0.8613525 0.087413549
-0.025592204 -0.83635598 0.088469982
-0.00032712368 -0.83461648 0.081408739
0.024929971 -0.83610028 0.087432504
-0.025592349 -0.81109542 0.088488936
0.024930261 -0.81085217 0.087470293
-0.00032712368 -0.80941015 0.081427455
-0.025592497 -0.78583449 0.088507891
-0.00032712368 -0.784208 0.081465364
0.024930406 -0.78559923 0.087489247
-0.02559264 -0.76057327 0.088526845
0.024930697 -0.76035017 0.087526798
-0.00032712368 -0.75900108 0.08148396
-0.025592785 -0.73531181 0.088545561
-0.00032712368 -0.73379785 0.081521749
0.024930842 -0.73509634 0.087545633
-0.025592785 -0.71004617 0.088545442
-0.00032712368 -0.70859021 0.081540346
0.024931133 -0.70984626 0.087583423
-0.025592932 -0.68478429 0.088564515
-0.00032712368 -0.68338603 0.081578016
0.024931423 -0.68459547 0.087621093
-0.025593078 -0.65952218 0.088583231
-0.00032712368 -0.6581775 0.081596851
0.024931569 -0.65934056 0.087639928
-0.025593221 -0.6342597 0.088602185
-0.00032712368 -0.63297242 0.081634283
0.024931857 -0.63408887 0.087677717
-0.025593368 -0.60899687 0.08862114
-0.00032712368 -0.60776317 0.081653118
0.024932005 -0.60883325 0.087696671
-0.025593368 -0.58373076 0.08862114
-0.00032712368 -0.5825569 0.081690669
0.024932293 -0.58358049 0.087734342
-0.025572754 -0.5580315 0.085943341
-0.00032712368 -0.55748391 0.082555294
0.024919668 -0.55805594 0.086094141
-0.025539439 -0.53211963 0.081615448
-0.00032712368 -0.5317235 0.07904315
0.024888374 -0.53218329 0.082029223
-0.050859906 -0.50793475 0.088639975
-0.025506066 -0.50627315 0.077280283
-0.00032712368 -0.50595546 0.075107574
0.02485716 -0.50637466 0.077973962
0.050173711 -0.50763124 0.086565256
-0.050789684 -0.48203638 0.084079146
0.024820119 -0.48052368 0.073162198
0.050096639 -0.48168722 0.081559181
-0.076065324 -0.45705637 0.085999846
0.075353242 -0.45672867 0.083495855
-0.1265872 -0.40665346 0.08677268
0.12589958 -0.40655339 0.085905671
-0.15126672 -0.38006571 0.074377775
-0.20169982 -0.32993239 0.076324821
-0.22778349 -0.28060266 0.089489579
0.22670616 -0.28013253 0.083382964
-0.22672875 -0.25427482 0.074265599
-0.22680137 -0.22918379 0.075313807
-0.22687531 -0.20407736 0.076380968
-0.2269493 -0.17895468 0.077448964
-0.22702596 -0.15381716 0.078555346
0.22596568 0.022414045 0.072695017
0.22596957 0.047558971 0.072751164
0.22597474 0.072705314 0.072825909
0.22597864 0.097852118 0.072881699
0.22598381 0.12300069 0.0729568
0.22598769 0.14814927 0.07301271
0.22599289 0.17330007 0.073087573
0.22599676 0.19845058 0.073143721
0.22600064 0.22360204 0.073199749
0.22600584 0.24875595 0.073274612
0.22600971 0.27390915 0.073330522
0.22601488 0.29906523 0.073405266
0.22601879 0.32422036 0.073461294
0.22602396 0.34937862 0.073536396
0.22602785 0.3745355 0.073592305
0.22603303 0.39969587 0.073667169
0.22603692 0.42485467 0.073723197
0.2260408 0.45001444 0.073779345
0.226046 0.47517812 0.073854208
-0.22685583 0.50069362 0.076100111
0.22599028 0.50020063 0.073050022
-0.22762007 0.62875062 0.087130904
0.22627687 0.62676048 0.077186704
0.22685744 0.6536805 0.085566759
-0.076431297 -0.9918595 0.10184717
0.075691029 -0.99076992 0.098122358
-0.050972309 -0.93948656 0.095940948
0.050282769 -0.9388513 0.093648672
-0.050988659 -0.91445017 0.097002864
0.050303761 -0.91391385 0.095012307
-0.051009987 -0.88948196 0.098388195
-0.025607612 -0.88740993 0.090471506
0.050324775 -0.88895547 0.096376896
-0.050973188 -0.86353326 0.095997691
0.05028452 -0.8629654 0.093762398
-0.050973479 -0.83821493 0.096016645
0.050285395 -0.8376736 0.093819261
-0.050973769 -0.81289637 0.096035719
0.050285976 -0.81237638 0.09385705
-0.050974064 -0.78757727 0.096054554
0.050286852 -0.78708297 0.093913913
-0.050974064 -0.76225394 0.096054673
0.050287433 -0.76178437 0.093951583
-0.050974354 -0.73693448 0.096073627
0.050288308 -0.73648947 0.094008565
-0.050974645 -0.71161485 0.096092582
0.050288893 -0.71118939 0.094046354
-0.050974935 -0.68629479 0.096111655
0.050289765 -0.68589288 0.094103217
-0.05097523 -0.6609745 0.09613049
0.05029035 -0.66059172 0.094141006
-0.05097552 -0.63565403 0.096149564
0.050291225 -0.63529354 0.094197989
-0.050975814 -0.6103332 0.096168637
0.050291806 -0.60999095 0.094235897
-0.050976105 -0.58501208 0.096187592
0.050292682 -0.58469123 0.094292641
-0.050988078 -0.55981326 0.096964955
0.050309014 -0.55955279 0.095353484
-0.05092391 -0.53384107 0.09279716
0.050241418 -0.53355867 0.090963006
0.075843006 -0.51028419 0.10470319
-0.076476581 -0.48477009 0.10380769
0.075714715 -0.4841243 0.099147797
-0.10153235 -0.43269411 0.09317565
0.10077738 -0.4322913 0.089904904
-0.076671503 -0.96945393 0.11224818
0.075900264 -0.96801108 0.10718262
-0.076907009 -0.94683176 0.1224457
0.07614702 -0.94556296 0.11786735
0.076178975 -0.92044443 0.11925101
0.076211408 -0.89530993 0.12065518
0.076243855 -0.87015414 0.12206042
-0.076917686 -0.84483922 0.122908
0.076159887 -0.8437348 0.11842453
-0.076917686 -0.819309 0.122908
0.076160774 -0.81824833 0.11846292
-0.076917686 -0.79377884 0.122908
0.076162107 -0.79276556 0.1185205
-0.076917231 -0.76824439 0.1228888
0.076162994 -0.76727784 0.118559
-0.076917231 -0.74271423 0.12288868
0.076164328 -0.74179345 0.11861658
-0.076917231 -0.71718425 0.12288868
0.076165214 -0.7163043 0.11865497
-0.076917231 -0.69165415 0.12288868
0.076166101 -0.69081461 0.11869347
-0.076917231 -0.66612417 0.12288868
0.076167434 -0.66532797 0.11875105
-0.076916791 -0.64059073 0.12286949
0.076168321 -0.63983685 0.11878967
-0.076916791 -0.61506075 0.12286949
0.076169208 -0.61434525 0.11882806
-0.076916791 -0.58953089 0.12286949
0.076170541 -0.58885622 0.11888576
-0.07686343 -0.56362736 0.12055886
0.07614702 -0.56319231 0.11786723
-0.076733895 -0.53725171 0.11494982
0.075994715 -0.53668553 0.11127222
-0.076604798 -0.51096517 0.10935998
-0.10231691 -0.46132985 0.11865497
0.10150903 -0.46067685 0.1136657
-0.22937751 -0.30782369 0.11249709
0.22859728 -0.30766976 0.11067915
-0.076939493 -0.92168421 0.12385249
-0.076972008 -0.89651525 0.12526047
-0.077004999 -0.8713299 0.12668896
0.10229565 -0.48967579 0.13921213
-0.23096982 0.66405469 0.13548017
-0.1033173 -0.98053247 0.15114379
0.10243004 -0.97837716 0.1435765
0.10274096 -0.5174467 0.15367389
-0.10310952 -0.49039409 0.14439607
0.12823357 -0.43926755 0.14654458
0.20528215 -0.36198837 0.14511836
-0.10394876 -0.5200761 0.17165101
-0.1298939 -0.44248691 0.17268288
-0.10415381 -0.96231347 0.17831028
0.1034738 -0.96208179 0.17747378
0 0 0 1 0 0 0 1 0 0 0 1 0 0 0 0 0 1002 1 0 0
