ply
format ascii 1.0
comment PCL generated
element vertex 576
property float x
property float y
property float z
element camera 1
property float view_px
property float view_py
property float view_pz
property float x_axisx
property float x_axisy
property float x_axisz
property float y_axisx
property float y_axisy
property float y_axisz
property float z_axisx
property float z_axisy
property float z_axisz
property float focal
property float scalex
property float scaley
property float centerx
property float centery
property int viewportx
property int viewporty
property float k1
property float k2
end_header
-0.088698454 -0.024879999 -0.24256283
-0.088690065 -0.0089167915 -0.24266154
-0.072670512 -0.0089168306 -0.24340278
-0.088690065 0.0070456816 -0.2426616
-0.072671272 0.0070401197 -0.243393
-0.088698454 0.023009736 -0.24256283
-0.10562102 -0.073089615 -0.23217815
-0.089428239 -0.073035248 -0.2339443
-0.073525362 -0.073085926 -0.2322979
-0.10559057 -0.057038866 -0.23250765
-0.089083605 -0.056911614 -0.23801428
-0.073211573 -0.056949448 -0.23637426
-0.057440184 -0.057029326 -0.23291689
-0.10556752 -0.040994313 -0.23275715
-0.088740326 -0.040850855 -0.24206823
-0.072899766 -0.040876273 -0.24042475
-0.057051264 -0.040905394 -0.23853058
-0.10555 -0.024954047 -0.23294687
-0.072774 -0.024883941 -0.24205828
-0.056957804 -0.024900705 -0.23987961
-0.1055417 -0.0089167533 -0.23303664
-0.056864463 -0.0089167533 -0.24122703
-0.1055417 0.0071198056 -0.23303664
-0.056865133 0.0070568444 -0.24121714
-0.10555 0.02315779 -0.23294681
-0.072774 0.023017541 -0.24205828
-0.056957804 0.023051068 -0.23987961
-0.10556752 0.039199449 -0.23275721
-0.08874201 0.038984921 -0.24204844
-0.072900511 0.039022617 -0.2404148
-0.057051264 0.039066225 -0.23853052
-0.10558965 0.055245627 -0.23251766
-0.089084439 0.055076715 -0.23800433
-0.073212348 0.055127155 -0.23636425
-0.057443656 0.055234808 -0.23286694
-0.10562102 0.071299255 -0.23217809
-0.089429088 0.071231663 -0.23393446
-0.073526151 0.071295045 -0.232288
-0.12298582 -0.10578598 -0.21897185
-0.10670932 -0.10572016 -0.22039694
-0.090598501 -0.10573283 -0.22012413
-0.12269675 -0.089529946 -0.22186041
-0.10604817 -0.089310803 -0.22755384
-0.090011872 -0.0893301 -0.22705209
-0.073967062 -0.089349084 -0.22656018
-0.12265436 -0.073394261 -0.22228396
-0.058249541 -0.073426649 -0.22123486
-0.12261301 -0.05726533 -0.22269732
-0.12258377 -0.041144606 -0.22298956
-0.042221002 -0.041196328 -0.21962905
-0.12255957 -0.025028862 -0.2232312
-0.041991718 -0.025027938 -0.22335219
-0.12255048 -0.0089167915 -0.22332191
-0.041763239 -0.0089167915 -0.22706205
-0.12255048 0.0071945442 -0.22332191
-0.041764475 0.007166001 -0.22704214
-0.12255957 0.02330735 -0.2232312
-0.041992344 0.023305688 -0.22334218
-0.12258377 0.039425101 -0.22298956
-0.042221628 0.039502855 -0.21961892
-0.12261301 0.055547986 -0.22269732
-0.12265436 0.071680069 -0.22228396
-0.058253027 0.071722403 -0.22118443
-0.12269675 0.08781895 -0.22186047
-0.10605096 0.087557375 -0.22752374
-0.09001442 0.087580629 -0.22702199
-0.073969372 0.087603375 -0.22653013
-0.12298987 0.10409947 -0.21893132
-0.10671305 0.10402268 -0.22035646
-0.090601064 0.10403682 -0.22009379
-0.14041325 -0.12257209 -0.20707113
-0.12398349 -0.12246808 -0.20900261
-0.10762896 -0.12239053 -0.21044135
-0.13996875 -0.10614518 -0.21119553
-0.075483076 -0.10634509 -0.2068665
-0.13991055 -0.089919686 -0.21173543
-0.059415348 -0.090201728 -0.20440811
-0.1398524 -0.073702432 -0.21227515
-0.13980526 -0.057495967 -0.21271276
-0.04289303 -0.057588279 -0.20871669
-0.13976139 -0.041296639 -0.21311963
-0.139734 -0.025104724 -0.2133739
-0.13971865 -0.0089167533 -0.21351635
-0.13971865 0.0072700987 -0.21351624
-0.139734 0.023459151 -0.2133739
-0.13976032 0.039652724 -0.21312976
-0.13980526 0.055855449 -0.21271276
-0.0428968 0.055980366 -0.20865548
-0.1398524 0.072065286 -0.21227515
-0.13991055 0.088286668 -0.21173561
-0.05942174 0.08862932 -0.20431578
-0.13996875 0.10451636 -0.21119559
-0.075490184 0.10475464 -0.20677441
-0.14041877 0.12097827 -0.20701993
-0.12398756 0.12085864 -0.20896173
-0.10763273 0.12077008 -0.21040052
-0.1418421 -0.13962509 -0.19381297
-0.12506288 -0.13935396 -0.19821644
-0.15744489 -0.12294321 -0.20018476
-0.092075326 -0.12280856 -0.20268375
-0.15737003 -0.10662378 -0.20083338
-0.17487437 -0.090720437 -0.19092953
-0.1572952 -0.090314329 -0.20148134
-0.17479378 -0.074339643 -0.19158363
-0.1572299 -0.074017368 -0.20204675
-0.043629937 -0.074180506 -0.1967507
-0.17471325 -0.057968747 -0.19223732
-0.15716702 -0.05772965 -0.20259148
-0.17464301 -0.041609354 -0.19280779
-0.15711364 -0.041451603 -0.20305359
-0.027388096 -0.041569799 -0.19537598
-0.17458045 -0.025259189 -0.19331568
-0.15707096 -0.025181361 -0.2034232
-0.027183913 -0.025214113 -0.19916493
-0.17454088 -0.0089167533 -0.19363689
-0.15704843 -0.0089167533 -0.20361811
-0.026979357 -0.0089167533 -0.20296121
-0.17454088 0.0074231727 -0.19363689
-0.15704843 0.0073462678 -0.20361811
-0.026979908 0.0073513677 -0.20295089
-0.17458045 0.023767963 -0.19331568
-0.15707096 0.023612302 -0.20342308
-0.027183913 0.023677852 -0.19916493
-0.17464301 0.040122066 -0.19280773
-0.15711364 0.039885443 -0.20305347
-0.027388647 0.040063046 -0.19536561
-0.17471325 0.056485903 -0.19223732
-0.15716702 0.056167085 -0.2025913
-0.17479378 0.072861791 -0.19158363
-0.15723109 0.07245943 -0.2020365
-0.043633126 0.072664879 -0.19669908
-0.17487437 0.089247681 -0.19092953
-0.1572952 0.088760339 -0.20148134
-0.15737003 0.10507473 -0.20083326
-0.15744489 0.12139913 -0.20018482
-0.092089228 0.12125541 -0.20251954
-0.1418477 0.1381337 -0.19376117
-0.12506807 0.13782853 -0.19816482
-0.17598048 -0.14035577 -0.1819489
-0.15869245 -0.13989808 -0.18938076
-0.10966385 -0.13995767 -0.18841302
-0.19283593 -0.12410112 -0.17869681
-0.17504075 -0.12351478 -0.18957829
-0.19274244 -0.10761322 -0.17941117
-0.17495498 -0.10711143 -0.19027489
-0.061008386 -0.10752073 -0.18141454
-0.19265041 -0.091136791 -0.18011433
-0.044729464 -0.091183625 -0.17889655
-0.19255707 -0.074670747 -0.1808275
-0.19246516 -0.058216106 -0.18152982
-0.02800335 -0.058160022 -0.18395805
-0.19237196 -0.041772082 -0.18224216
-0.19228566 -0.025339339 -0.18290168
-0.19221035 -0.0089167915 -0.18347704
-0.011850394 -0.0089167152 -0.1782977
-0.19221035 0.0075012734 -0.1834771
-0.011850394 0.007541175 -0.17829758
-0.19228566 0.023928262 -0.18290168
-0.19237196 0.040366028 -0.18224216
-0.19246516 0.056815613 -0.18152988
-0.028007299 0.056743037 -0.18388498
-0.19255707 0.073275782 -0.1808275
-0.19265041 0.08974719 -0.18011433
-0.04473529 0.089807875 -0.17880207
-0.19274244 0.10622903 -0.17941117
-0.17495498 0.1056437 -0.19027495
-0.061014928 0.10612617 -0.18132025
-0.19283593 0.12272245 -0.17869693
-0.17504075 0.12205233 -0.18957847
-0.1759882 0.13895643 -0.18188602
-0.15869844 0.13844085 -0.18932879
-0.10967924 0.13851567 -0.18824631
-0.17807803 -0.1579655 -0.1649189
-0.16048056 -0.15734364 -0.17389524
-0.14478531 -0.15785572 -0.16650349
-0.19357619 -0.14090443 -0.17304015
-0.21083468 -0.12470152 -0.16755497
-0.077884026 -0.12426383 -0.17567736
-0.2107347 -0.1081275 -0.16827673
-0.21063477 -0.091564588 -0.16899776
-0.2105349 -0.075012818 -0.16971856
-0.028664581 -0.074952215 -0.1716873
-0.21043509 -0.058472235 -0.17043871
-0.21033391 -0.041942425 -0.17116904
-0.012208492 -0.041952159 -0.17054462
-0.21024159 -0.025424547 -0.17183524
-0.012029365 -0.025404617 -0.17442286
-0.21015662 -0.0089167533 -0.17244846
-0.21015662 0.007586251 -0.17244846
-0.21024159 0.024098601 -0.1718353
-0.012029365 0.024058893 -0.17442286
-0.2103354 0.040622003 -0.17115837
-0.012208983 0.040636525 -0.17053401
-0.21043366 0.057156797 -0.17044926
-0.21053344 0.073702909 -0.16972911
-0.028667428 0.073629521 -0.17163438
-0.21063477 0.090260647 -0.1689977
-0.2107347 0.10682905 -0.16827655
-0.21083468 0.1234086 -0.16755503
-0.077897809 0.12291946 -0.17549813
-0.19358447 0.13957366 -0.17297673
-0.17808717 0.1566986 -0.16484433
-0.16048786 0.1560068 -0.173832
-0.14482313 0.15659794 -0.16615278
-0.19610474 -0.15874152 -0.15371859
-0.21202359 -0.1417706 -0.15897483
-0.095600881 -0.14164285 -0.16104889
-0.22903621 -0.1253134 -0.15619963
-0.22893739 -0.10865409 -0.15687537
-0.046180107 -0.108725 -0.15534097
-0.22883704 -0.092004791 -0.15756142
-0.029683858 -0.092189148 -0.15277183
-0.22873834 -0.075366437 -0.15823632
-0.22863814 -0.058738176 -0.15892136
-0.012760669 -0.058745861 -0.15858948
-0.22855207 -0.042121958 -0.15950978
-0.22847387 -0.025515281 -0.16004437
-0.22842073 -0.0089167915 -0.16040784
-0.22842073 0.0076789157 -0.16040784
-0.22847387 0.024280183 -0.16004443
-0.22855207 0.04089107 -0.15950972
-0.22863814 0.05751181 -0.15892136
-0.012763143 0.057523627 -0.15853602
-0.22873834 0.074145332 -0.15823632
-0.22883704 0.090788856 -0.1575613
-0.029689081 0.091014512 -0.15267491
-0.22893739 0.10744339 -0.15687537
-0.046186067 0.10753138 -0.15524447
-0.22903621 0.12410788 -0.15619963
-0.21203396 0.14054894 -0.1588999
-0.09561535 0.14041188 -0.16087794
-0.19611457 0.15756091 -0.15364319
-0.23121983 -0.14286089 -0.14127016
-0.24810189 -0.12616661 -0.14036703
-0.063325368 -0.1257568 -0.14797175
-0.24736437 -0.10919531 -0.1451574
-0.24726263 -0.092456833 -0.14581835
-0.24717093 -0.07573045 -0.14641392
-0.013341047 -0.075742505 -0.14602411
-0.24707928 -0.059013307 -0.14700913
-0.24700433 -0.042306975 -0.14749599
-0.24694273 -0.025608793 -0.14789611
0.0033174083 -0.02563278 -0.14477801
-0.24690777 -0.0089167533 -0.14812309
0.0035836473 -0.0089167152 -0.15169507
-0.24690777 0.0077735102 -0.14812309
0.0035836473 0.0077459691 -0.15169501
-0.24694106 0.024467096 -0.1479069
0.0033174083 0.02451526 -0.14477795
-0.24700433 0.041168481 -0.14749604
-0.24707928 0.057878595 -0.14700913
-0.24717093 0.074600309 -0.14641392
-0.013343543 0.074617416 -0.14597005
-0.24726263 0.091331281 -0.14581823
-0.24736437 0.10807485 -0.1451574
-0.248117 0.12508899 -0.14026898
-0.063338108 0.12462598 -0.14778799
-0.23123255 0.1417764 -0.14118326
-0.081521548 -0.14365202 -0.12842464
-0.26601902 -0.1097501 -0.13314712
-0.26592162 -0.092921384 -0.1337496
-0.26582602 -0.076102264 -0.13434088
-0.26575175 -0.059295315 -0.13480061
-0.26567921 -0.042495586 -0.13524914
0.0030208975 -0.042467467 -0.13707423
-0.26562971 -0.025703736 -0.13555545
-0.26560497 -0.0089167533 -0.13570857
-0.26560497 0.0078690322 -0.13570851
-0.26562971 0.024657249 -0.13555545
-0.26567921 0.041451301 -0.13524926
0.0030175373 0.041411169 -0.13698697
-0.26575175 0.058254506 -0.13480073
-0.26582602 0.075065017 -0.13434088
-0.26592162 0.091888733 -0.13374972
-0.26601902 0.10872202 -0.13314712
-0.081547804 0.142684 -0.12808329
-0.031320557 -0.1102465 -0.12239861
-0.2853491 -0.093518309 -0.11824054
-0.28471988 -0.07648354 -0.12195587
-0.28463927 -0.059580915 -0.12243176
0.0021009892 -0.059794631 -0.11317438
-0.28458306 -0.042687789 -0.12276381
-0.28453249 -0.025799915 -0.12306243
-0.28451937 -0.0089167915 -0.12313992
-0.28451937 0.0079657892 -0.12313986
-0.28453249 0.02484953 -0.12306237
-0.28458306 0.041739643 -0.12276381
-0.28463927 0.058635358 -0.12243181
0.0020945445 0.058925513 -0.11300689
-0.28471804 0.07554131 -0.12196696
-0.28536791 0.092610188 -0.11812955
-0.031331286 0.109312 -0.12219942
-0.27035901 -0.12800232 -0.10630047
-0.049034439 -0.12785716 -0.10899252
-0.015328526 -0.094105154 -0.10299397
-0.30437747 -0.059952576 -0.10633415
-0.30370462 -0.042882193 -0.11013448
-0.30366695 -0.025897831 -0.11034709
-0.30365112 -0.0089167152 -0.11043674
-0.30365112 0.0080636675 -0.11043662
-0.30366695 0.025045287 -0.11034715
-0.30370462 0.042031385 -0.11013448
-0.30439138 0.059133437 -0.10625553
-0.015336327 0.093317077 -0.10282493
-0.27037352 0.12718642 -0.10621065
-0.049078606 0.12705937 -0.10827529
0.018371217 -0.026048318 -0.090796113
0.018593512 -0.0089168306 -0.098015368
0.01859317 0.008159305 -0.098004162
0.018370867 0.025346566 -0.090784669
-0.30853894 -0.077688284 -0.082830131
0.00094936788 -0.077675305 -0.083254397
0.017977625 -0.043376721 -0.078013778
0.017975852 0.042774394 -0.0779562
-0.30855927 0.077052124 -0.082715452
0.00094186515 0.077038802 -0.08305949
0.017445393 -0.061005864 -0.060729027
0.03456277 -0.026361689 -0.05009234
0.034686286 -0.0089168306 -0.055440784
0.034686018 0.0084870858 -0.055429041
0.034562226 0.02597335 -0.050068736
0.01744467 0.060536023 -0.060705602
-0.0006262213 -0.096440472 -0.042319417
0.034307092 -0.043976966 -0.039021134
0.03430599 0.043674648 -0.038973391
-0.00063216686 0.096118852 -0.042164743
-0.018823601 -0.11463784 -0.027323306
0.016633473 -0.079180829 -0.034361184
0.033934917 -0.061879274 -0.022905588
0.051586129 -0.0089168306 -0.022711992
0.051585756 0.0087390812 -0.022687793
0.03393352 0.06170183 -0.022845149
0.016627572 0.07892058 -0.034169614
-0.018836953 0.11444005 -0.027034163
0.051391009 -0.044423211 -0.010038853
0.051524006 -0.026603565 -0.018676996
0.051523447 0.026457217 -0.018640637
0.051390067 0.044344306 -0.0099774599
0.015642323 -0.097985707 -0.0021728277
0.033461232 -0.080165133 -0.0023944378
0.051190104 -0.062477861 0.0030103922
0.069042936 -0.0089167533 0.0031216145
0.069042653 0.0089380434 0.0031588078
0.051188961 0.062500231 0.0030846596
0.033460099 0.080145486 -0.0023452044
0.015637398 0.097973354 -0.0020126104
-0.0027841851 -0.11653476 0.013746381
0.068942584 -0.044826582 0.016158104
0.069010697 -0.026803572 0.0073102713
0.069010504 0.026857227 0.0073349476
0.068942294 0.044948801 0.016195536
-0.0027904287 0.11664633 0.013908505
0.032843769 -0.099006355 0.024342537
0.050866719 -0.080978364 0.024015069
0.068852969 -0.063050292 0.027799249
0.086897485 -0.0089167152 0.026637435
0.086897485 0.0091189286 0.026662827
0.068852484 0.063263208 0.02786243
0.050865166 0.081164084 0.02411592
0.032839987 0.099198185 0.02450633
0.014323957 -0.11777709 0.040642619
0.086897485 -0.045163866 0.038065195
0.086897485 -0.026981365 0.030404925
0.086897485 0.027212549 0.030417442
0.086897485 0.045454994 0.038116097
0.014319234 0.11809511 0.040795803
0.05051272 -0.099878766 0.047007918
0.068713695 -0.081651963 0.045891166
0.086897485 -0.063561626 0.049939513
0.10513506 -0.027154371 0.052878618
0.1051056 -0.0089168306 0.049051642
0.1051057 0.0092914319 0.049064398
0.10513516 0.027558599 0.052891374
0.086897485 0.06394469 0.049991131
0.068712905 0.082006097 0.045993805
0.050510544 0.10024402 0.047149181
0.0319582 -0.11879535 0.062688828
0.068545133 -0.10067851 0.067788005
0.086897485 -0.082322896 0.067683339
0.10519297 -0.045507751 0.060400724
0.10519337 0.045970764 0.0604527
0.086897485 0.082844973 0.067788005
0.068544537 0.10120086 0.067866445
0.031954896 0.11928266 0.062831879
0.10528612 -0.064082727 0.072502136
0.12372553 -0.027330816 0.075800061
0.12366547 -0.0089168306 0.071898699
0.12366547 0.009467219 0.07189858
0.12372573 0.027911447 0.075813174
0.10528652 0.064639375 0.072554588
0.049952388 -0.11975211 0.083402514
0.086897485 -0.10153353 0.090001225
0.10542001 -0.083006918 0.089894772
0.12383892 -0.045858167 0.083164215
0.12383973 0.04649666 0.083217144
0.10542072 0.083699338 0.089987993
0.086897485 0.10222758 0.090094447
0.049950145 0.12039888 0.083548307
-0.024622068 -0.13902298 0.098217249
-0.0062734187 -0.13935602 0.1043992
0.068262681 -0.12072564 0.10448015
0.12402882 -0.064613797 0.095499039
0.14285329 -0.046220671 0.10670531
0.14267895 -0.02751058 0.099155903
0.14258708 -0.0089167533 0.095178008
0.14258739 0.0096465191 0.095191479
0.14267924 0.028271053 0.099169254
0.14285454 0.047040239 0.10675931
0.12402944 0.065347038 0.095539212
0.068261541 0.12153478 0.10462832
-0.024648078 0.13981068 0.098780394
-0.0062957257 0.1401923 0.10497868
0.012169845 -0.13969016 0.1105994
0.10559515 -0.10240509 0.1126461
0.12429261 -0.083707012 0.11263251
0.14315671 -0.065175995 0.11984348
0.1619228 -0.0089168306 0.12026656
0.1619228 0.0098395338 0.12026656
0.14315796 0.066097155 0.11989808
0.12429407 0.084574677 0.1127274
0.10559577 0.10327295 0.1127274
0.012151904 0.14057435 0.11118174
0.030571066 -0.1403451 0.12275338
0.086897485 -0.12171636 0.12593114
0.16228306 -0.046609558 0.13196659
0.1620529 -0.02770564 0.12449193
0.1620529 0.028660942 0.12449193
0.16228476 0.047623724 0.13202167
0.086897485 0.12269013 0.12606823
0.030565381 0.14130218 0.12299967
0.049063701 -0.14133509 0.14112449
0.12466831 -0.1033439 0.13703501
0.14356524 -0.084473819 0.13753343
0.16269654 -0.065766081 0.14539468
0.18167152 -0.0089167915 0.14604974
0.18167099 0.010037917 0.14603579
0.16269827 0.066883929 0.14545047
0.14356714 0.085532717 0.13761652
0.12466959 0.10439947 0.1371181
0.049059853 0.14243376 0.14137435
0.10587862 -0.1228036 0.14947009
0.1821228 -0.047006939 0.15777397
0.18183708 -0.027904719 0.15035117
0.18183708 0.029058982 0.15035117
0.18212496 0.048219722 0.15783036
0.10587981 0.1239595 0.14962387
0.067825191 -0.1424229 0.16131186
0.1441398 -0.10432067 0.16241324
0.16323668 -0.085255988 0.16293609
0.18265063 -0.066368721 0.17148769
0.18265226 0.067687035 0.17153037
0.16323929 0.086510457 0.16302097
0.14414176 0.10557169 0.162498
0.067822799 0.14368074 0.16162229
0.086897485 -0.14361849 0.18349922
0.12523712 -0.12393565 0.17398047
0.20238459 -0.047412474 0.18411708
0.20204496 -0.028108045 0.17676425
0.20184201 -0.0089168688 0.17237031
0.20184201 0.010240548 0.17237031
0.20204496 0.029465713 0.17676413
0.20238724 0.04882808 0.18417454
0.12523976 0.12528111 0.17415154
0.086897485 0.14505002 0.18385839
0.16401836 -0.10531791 0.18832195
0.18331912 -0.086054116 0.18885577
0.2030316 -0.066983879 0.19812512
0.18332356 0.087509282 0.18897104
0.16402146 0.10676917 0.18842292
0.1063148 -0.14483804 0.20613146
0.14498502 -0.12509181 0.19901216
0.22244918 -0.0089168306 0.19927406
0.22244918 0.010447814 0.19927406
0.2030336 0.068507299 0.19816875
0.14498872 0.1266294 0.19917214
0.10631716 0.14644074 0.20643866
0.1843197 -0.10633902 0.21485162
0.22347221 -0.028427444 0.2182591
0.22347379 0.030104935 0.21828866
0.18432423 0.1079954 0.2149694
0.12608486 -0.14607263 0.22904313
0.16513532 -0.12627356 0.22459674
0.2047113 -0.08745937 0.23449206
0.22404289 -0.04810125 0.22884953
0.22404608 0.049861129 0.22890902
0.20471752 0.089266531 0.23462665
0.16514036 0.12800831 0.22476006
0.12608945 0.14785105 0.22934103
0.22502911 -0.068116046 0.24715149
0.22503236 0.07001742 0.24721205
0.24529624 -0.028716676 0.25582337
0.24493921 -0.0089167152 0.25002551
0.24493921 0.010838439 0.25002551
0.24529624 0.030682817 0.25582349
0.20634437 -0.10845588 0.26984882
0.22650039 -0.088689871 0.27445507
0.24600199 -0.048692923 0.26728308
0.24600577 0.050748792 0.26734459
0.22650787 0.090804964 0.27459407
0.20635074 0.1105364 0.26998723
0.24716064 -0.069015451 0.28609753
0.2673631 -0.0089168306 0.28854465
0.2673631 0.011135009 0.28854454
0.24716449 0.071216673 0.28615975
0.18716936 -0.12924305 0.28888786
0.26777476 -0.029014327 0.29448664
0.26777583 0.031278353 0.29450238
0.18717897 0.1314773 0.28913748
0.14751011 -0.15034623 0.30835187
0.22848931 -0.11005384 0.31136477
0.26867613 -0.049312018 0.30749679
0.26868382 0.051678672 0.30760765
0.22850385 0.1124602 0.31163478
0.14752439 0.15275501 0.30896974
0.24900663 -0.089971326 0.31607258
0.24901646 0.092407629 0.31623173
0.20930547 -0.13132475 0.33395863
0.27016211 -0.070005044 0.32894528
0.29127571 -0.029354699 0.3386991
0.29076046 -0.0089167533 0.33200586
0.29076046 0.011469471 0.33200562
0.29127693 0.031959094 0.3387152
0.27016881 0.072537139 0.32904184
0.20931813 0.13390729 0.33423316
0.25208312 -0.1121579 0.36602867
0.27271986 -0.091504626 0.36586332
0.292449 -0.050027102 0.35394037
0.29245657 0.052750967 0.35403883
0.27273133 0.094324209 0.36602867
0.25210351 0.11498773 0.36635959
0.29454884 -0.071212143 0.38121819
0.3158024 -0.0089167533 0.38698614
0.31580666 0.011893158 0.38703668
0.29455784 0.074147299 0.3813355
0.31657761 -0.02979685 0.39614105
0.3165819 0.032843977 0.39619172
0.31866202 -0.051055785 0.42075682
0.31866932 0.054293688 0.42084289
0.32062429 -0.072660461 0.44393003
0.34122166 -0.030110452 0.4368881
0.34099165 -0.0089168306 0.43439794
0.34099326 0.012257825 0.43441534
0.34122166 0.033470642 0.4368881
0.32062873 0.076076433 0.4439826
0.29941821 -0.093925118 0.44447327
0.29944247 0.097355649 0.44478869
0.27965036 -0.11600176 0.46589613
0.3442454 -0.051808104 0.46962094
0.34426683 0.055425543 0.46985292
0.27965653 0.11958927 0.46598506
0.23855302 -0.13890716 0.498124
0.2385599 0.14274563 0.49825156
0.37143627 -0.0089169079 0.52703059
0.37143815 0.012970936 0.52704918
0.37344268 -0.030958638 0.5470798
0.37346345 0.035170339 0.54728711
0.41203433 -0.0089169079 0.70064211
0.41203433 0.014307317 0.70064199
0.4159191 -0.032418389 0.73668802
0.41593754 0.038088992 0.73685932
0.44331631 -0.0089168306 0.77042544
0.44331881 0.014844605 0.77044749
0.44722664 -0.03293876 0.80428994
0.4472551 0.039130963 0.80453646
0.47294387 -0.033044748 0.81805396
0.47202235 -0.0089168306 0.81057227
0.47202235 0.015153534 0.81057227
0.47294942 0.039339621 0.81809902
0.42720196 -0.057531811 0.84138012
0.42721432 0.064008154 0.84149492
0.50133103 -0.0089167533 0.8506006
0.50133103 0.015461537 0.8506006
0.50297314 -0.033391919 0.86314905
0.50300056 0.040036432 0.86335826
0.45581666 -0.058106024 0.87868166
0.45582208 0.064868115 0.87872863
0 0 0 1 0 0 0 1 0 0 0 1 0 0 0 0 0 576 1 0 0
