ply
format ascii 1.0
comment PCL generated
element vertex 586
property float x
property float y
property float z
element camera 1
property float view_px
property float view_py
property float view_pz
property float x_axisx
property float x_axisy
property float x_axisz
property float y_axisx
property float y_axisy
property float y_axisz
property float z_axisx
property float z_axisy
property float z_axisz
property float focal
property float scalex
property float scaley
property float centerx
property float centery
property int viewportx
property int viewporty
property float k1
property float k2
end_header
-0.067912184 -0.0088512599 -0.25162894
-0.067912184 0.006909987 -0.25162899
-0.10070608 -0.088186882 -0.23786402
-0.10048843 -0.072247274 -0.24022001
-0.084389053 -0.072156198 -0.243177
-0.10048934 -0.056398466 -0.24021018
-0.08402551 -0.056230776 -0.24747026
-0.068978615 -0.056454636 -0.23777562
-0.10050564 -0.040552057 -0.24003369
-0.083800726 -0.040396772 -0.25012475
-0.068242826 -0.04043968 -0.24733394
-0.083766185 -0.024620838 -0.25053251
-0.068065368 -0.024627673 -0.24963915
-0.083767019 -0.0088512218 -0.25052291
-0.083766185 0.0069183558 -0.25053263
-0.083765365 0.022687858 -0.25054234
-0.068065368 0.022701794 -0.24963915
-0.10050564 0.038700014 -0.24003369
-0.083800726 0.03846696 -0.25012475
-0.068243571 0.038531691 -0.24732405
-0.10048934 0.054545112 -0.24021035
-0.084026329 0.054321773 -0.24746042
-0.10048843 0.070393704 -0.24022007
-0.084390692 0.070280671 -0.24315751
-0.10070788 0.086352438 -0.23784435
-0.11742251 -0.10444603 -0.22937709
-0.1014379 -0.1044199 -0.22994179
-0.11738086 -0.088497512 -0.22979331
-0.085336365 -0.08841297 -0.23198986
-0.11753365 -0.072615266 -0.22826678
-0.069859646 -0.072674856 -0.22633064
-0.053951256 -0.040773593 -0.22564471
-0.10109087 -0.024750382 -0.23369843
-0.053701587 -0.024784707 -0.22924829
-0.053452782 -0.0088512218 -0.23283958
-0.10154407 -0.0088511836 -0.22879231
-0.10154407 0.007085681 -0.22879231
-0.053452782 0.0070545804 -0.23283952
-0.10109179 0.022947369 -0.23368859
-0.053702272 0.023015825 -0.22923851
-0.053952642 0.03903278 -0.22562468
-0.06898164 0.054621175 -0.23773623
-0.11753067 0.070852682 -0.22829646
-0.069862716 0.070929855 -0.22629094
-0.11738086 0.086724274 -0.22979319
-0.085343041 0.086626537 -0.23191077
-0.11742251 0.10267596 -0.22937709
-0.10144155 0.10264776 -0.22990227
-0.1345208 -0.12096135 -0.21855974
-0.11835987 -0.12088326 -0.22001046
-0.13444206 -0.10491192 -0.21929032
-0.11908888 -0.057033129 -0.21272588
-0.054750793 -0.057001375 -0.21410435
-0.11908587 0.055390447 -0.2127561
-0.054753594 0.055350058 -0.21406412
-0.13444206 0.10321951 -0.21929038
-0.13452405 0.11927651 -0.21852958
-0.11836689 0.11918968 -0.2199406
-0.15221426 -0.13787183 -0.20403033
-0.13609543 -0.13787688 -0.20394915
-0.15167964 -0.12149489 -0.20866013
-0.10410012 -0.12190097 -0.20112246
-0.15212986 -0.10558302 -0.20476097
-0.087183572 -0.1053329 -0.21017528
-0.13528308 -0.089202173 -0.21148658
-0.071289219 -0.089345597 -0.20775998
-0.055562101 -0.073411994 -0.20239431
-0.11996823 -0.041107744 -0.20393896
-0.039462633 -0.041141801 -0.20173305
-0.039223693 -0.024966622 -0.20561302
-0.038997464 -0.0088512599 -0.20928657
-0.038997464 0.0072359201 -0.20928663
-0.039224334 0.023379693 -0.20560277
-0.1199662 0.039533183 -0.20395923
-0.039465152 0.039585553 -0.2016924
-0.055564918 0.071851209 -0.20235372
-0.13527548 0.087566689 -0.21155715
-0.071295448 0.087745763 -0.20767903
-0.15211934 0.10399751 -0.20485234
-0.087191276 0.10371557 -0.21008432
-0.15167964 0.11988434 -0.20866013
-0.10411423 0.1203579 -0.20096964
-0.15221894 0.13629982 -0.20398968
-0.13610965 0.13631186 -0.20381707
-0.18669027 -0.13891698 -0.18705982
-0.16913712 -0.13826953 -0.19757324
-0.18672541 -0.1226733 -0.18679142
-0.1690931 -0.12207298 -0.19793075
-0.15396073 -0.090071276 -0.18890524
-0.13679796 -0.073564768 -0.19743025
-0.040192388 -0.057560712 -0.18988323
-0.12069323 -0.025035311 -0.19669437
-0.1210612 -0.0088512599 -0.19301724
-0.12106427 0.0073614325 -0.19298661
-0.12069117 0.02351653 -0.19671476
-0.040194936 0.056095995 -0.18984205
-0.13679245 0.07203877 -0.19748133
-0.153956 0.088610955 -0.18894631
-0.18672404 0.12123042 -0.18680173
-0.16909435 0.12054566 -0.1979205
-0.18668893 0.13747211 -0.18707013
-0.16913965 0.13674577 -0.1975528
-0.20446616 -0.13959154 -0.17610693
-0.122742 -0.13958444 -0.17622173
-0.20453987 -0.12327765 -0.1755752
-0.090190329 -0.12332656 -0.17466724
-0.17072469 -0.10651027 -0.18468386
-0.073019452 -0.1064826 -0.18528354
-0.056918912 -0.090305947 -0.18281031
-0.1554217 -0.074216902 -0.17625302
-0.040930457 -0.074166223 -0.17789876
-0.13811818 -0.057669334 -0.18518019
-0.13928044 -0.041562647 -0.1743958
-0.02463761 -0.041518994 -0.17723238
-0.024411902 -0.025152799 -0.18142122
-0.024209335 -0.0088511836 -0.18518025
-0.024209335 0.0074214805 -0.18518007
-0.024411902 0.023752084 -0.18142122
-0.13927594 0.040214919 -0.17443764
-0.024640426 0.040151604 -0.17718029
-0.1381126 0.056237973 -0.18523186
-0.15541688 0.072854199 -0.17629468
-0.04093302 0.072794072 -0.17785704
-0.056924649 0.088898219 -0.18272752
-0.17071703 0.10508104 -0.18474603
-0.073026605 0.10505708 -0.18519044
-0.20453694 0.1219206 -0.17559606
-0.090203576 0.12198737 -0.17451066
-0.20446616 0.13823161 -0.17610705
-0.1227754 0.13824672 -0.175888
-0.22252446 -0.14031395 -0.1643762
-0.22242892 -0.12384589 -0.16502953
-0.20641184 -0.10755501 -0.16206515
-0.18866631 -0.10709798 -0.17195994
-0.17223257 -0.090705059 -0.17244124
-0.15689906 -0.058170922 -0.1634587
-0.025291771 -0.058133177 -0.16509277
-0.14044324 -0.025289943 -0.16360641
-0.0090755746 -0.0088511836 -0.16052169
-0.0090755746 0.0076112282 -0.16052169
-0.14043984 0.024025725 -0.16363794
-0.15689418 0.05690708 -0.16350085
-0.025294051 0.056859322 -0.16505057
-0.17222613 0.089370862 -0.17249364
-0.20640454 0.10630035 -0.16211796
-0.18865949 0.1057672 -0.17201233
-0.22242892 0.12257127 -0.16502953
-0.22252908 0.13904648 -0.16434455
-0.24058008 -0.12444911 -0.15383583
-0.24110541 -0.10809275 -0.15042371
-0.22399139 -0.1079115 -0.1543467
-0.058513708 -0.10766008 -0.15979141
-0.20794207 -0.091529533 -0.15102166
-0.19023383 -0.091184556 -0.15998197
-0.042201586 -0.091289431 -0.15725821
-0.19166228 -0.075054064 -0.14906657
-0.17372546 -0.074707434 -0.16032064
-0.025952883 -0.074938267 -0.15282404
-0.17523676 -0.058526762 -0.14805037
-0.15839556 -0.041930623 -0.15049851
-0.0094626248 -0.041905247 -0.15214187
-0.0092532784 -0.02534339 -0.1566745
-0.14098909 -0.0088512218 -0.15854144
-0.1409868 0.0076263174 -0.1585626
-0.0092537701 0.024133189 -0.15666384
-0.15838942 0.040766537 -0.15055186
-0.0094650909 0.040731058 -0.15208846
-0.17523018 0.057381183 -0.14810389
-0.19165668 0.073900573 -0.14910942
-0.17372024 0.073467478 -0.16036302
-0.025955185 0.073759243 -0.15278131
-0.20793617 0.090360641 -0.1510644
-0.19022691 0.089946322 -0.16003484
-0.042206816 0.090078481 -0.1571734
-0.24109885 0.10692818 -0.15046638
-0.22398517 0.10671674 -0.15438926
-0.05852031 0.10643078 -0.1596961
-0.24058008 0.12326069 -0.15383583
-0.24211806 -0.1415783 -0.14384645
-0.10929877 -0.14151679 -0.14484531
-0.25900275 -0.12508532 -0.14202905
-0.075925224 -0.12478852 -0.14753646
-0.25892097 -0.1084571 -0.14253479
-0.25980669 -0.092067055 -0.13705575
-0.24285254 -0.091989234 -0.13907605
-0.2254329 -0.091780864 -0.14449096
-0.22676095 -0.075474449 -0.13541108
-0.20929855 -0.075295262 -0.14123231
-0.19310257 -0.058757477 -0.13806093
-0.010036714 -0.058719315 -0.13971245
-0.17662024 -0.042141221 -0.13681781
-0.15910289 -0.02543807 -0.14437282
-0.15938595 -0.0088512599 -0.1419214
0.0064154267 -0.0088512599 -0.13528109
-0.15938473 0.0077543631 -0.14193213
0.0064154267 0.0078056604 -0.13528109
-0.15910041 0.024322053 -0.14439434
-0.1766189 0.041083522 -0.13682878
-0.19309691 0.057689071 -0.13810414
-0.010038704 0.057640925 -0.13966942
-0.22675622 0.074426576 -0.13544351
-0.20929405 0.074202508 -0.14126456
-0.25980148 0.09100613 -0.13708824
-0.24284753 0.090912953 -0.1391083
-0.22542819 0.09066277 -0.14452326
-0.25892097 0.10735559 -0.14253479
-0.2590062 0.123989 -0.14200747
-0.075938411 0.12365903 -0.14736503
-0.24218592 0.14049722 -0.14340591
-0.1093315 0.14042197 -0.14449102
-0.27753165 -0.1090052 -0.13066828
-0.043653809 -0.10886625 -0.13367689
-0.27745795 -0.092296086 -0.13110328
-0.027124509 -0.092296965 -0.1310814
-0.27792069 -0.075691305 -0.12837082
-0.2612389 -0.075696714 -0.12819636
-0.24400303 -0.075591706 -0.13160324
-0.01061698 -0.075728893 -0.1271494
-0.26212582 -0.059112012 -0.12270987
-0.24503016 -0.059060685 -0.12493193
-0.22784808 -0.058990344 -0.12797838
-0.21059361 -0.058900155 -0.13188577
-0.2116375 -0.042333156 -0.12435228
-0.19434357 -0.042268038 -0.12857783
0.0060755461 -0.042300828 -0.12645078
-0.19502404 -0.025599673 -0.1233781
-0.17719162 -0.025531985 -0.13217902
0.0062634051 -0.025538396 -0.1313315
-0.17744336 -0.0088512599 -0.13013518
-0.1774447 0.0078453217 -0.13012421
-0.19502118 0.024645301 -0.12339997
-0.17719027 0.024510035 -0.13218993
0.0062634051 0.024523204 -0.13133156
-0.21163145 0.041370638 -0.12439603
-0.19433641 0.04127273 -0.12863237
0.0060734451 0.041324377 -0.12639618
-0.26212052 0.05816213 -0.12274289
-0.24502677 0.058094054 -0.12495381
-0.22784328 0.057999872 -0.12801099
-0.21058762 0.057879202 -0.13192916
-0.27791518 0.074697495 -0.12840354
-0.2612336 0.074704252 -0.12822908
-0.24399799 0.074573129 -0.1316359
-0.010619 0.074747518 -0.12710571
-0.27745795 0.091282614 -0.13110328
-0.027129196 0.091287568 -0.1309945
-0.27753532 0.10799624 -0.13064653
-0.043659814 0.10783813 -0.13357931
-0.095453136 -0.14350776 -0.11251646
-0.061291061 -0.12628831 -0.11970359
-0.2961925 -0.075962946 -0.11954981
-0.29619059 -0.0591847 -0.1195609
-0.2791301 -0.059146188 -0.12122983
0.005585596 -0.059319615 -0.11372137
-0.29642418 -0.042427219 -0.11824143
-0.27983379 -0.042445153 -0.11707461
-0.26286423 -0.042428799 -0.11814231
-0.24586049 -0.042407177 -0.11953884
-0.22875813 -0.042373084 -0.12175632
-0.29696059 -0.025662489 -0.11521167
-0.2803643 -0.025672318 -0.11394227
-0.26339325 -0.025665177 -0.11486965
-0.24639595 -0.025656076 -0.11606085
-0.22941712 -0.025646824 -0.11725086
-0.21243852 -0.025636725 -0.1185714
-0.29722056 -0.0088512218 -0.11374331
-0.28054956 -0.0088512218 -0.11284816
-0.2466796 -0.0088512599 -0.11421835
-0.22976056 -0.0088512218 -0.11490273
-0.21285209 -0.0088512599 -0.11558676
-0.19529369 -0.0088512991 -0.12131751
0.022276118 -0.0088512599 -0.10942638
-0.26360929 -0.0088511836 -0.11353356
-0.29722056 0.0079713333 -0.11374331
-0.28054956 0.0079783201 -0.11284828
-0.26360929 0.0079729464 -0.11353344
-0.2466796 0.0079676472 -0.11421824
-0.22976056 0.0079623871 -0.11490268
-0.21285057 0.0079571661 -0.11559778
-0.19529369 0.0079130884 -0.12131751
0.022276469 0.0080045052 -0.10943753
-0.29696059 0.024771387 -0.11521167
-0.28036243 0.02479074 -0.11395323
-0.26339149 0.024776494 -0.11488074
-0.24639425 0.024758143 -0.11607188
-0.22941551 0.024739867 -0.11726183
-0.21243548 0.024719285 -0.11859334
-0.29642221 0.041512512 -0.1182524
-0.27983007 0.041539155 -0.11709654
-0.26286241 0.041514732 -0.11815333
-0.24585706 0.041482218 -0.11956072
-0.22875333 0.041430801 -0.12178916
-0.29618862 0.05825977 -0.11957181
-0.27912453 0.058207631 -0.12126273
0.0055843145 0.058440916 -0.11368829
-0.2961925 0.075038359 -0.11954993
-0.06130325 0.12537345 -0.11952788
-0.095484041 0.14266257 -0.11215138
-0.028453588 -0.11012535 -0.1064167
-0.011673816 -0.093328938 -0.10426819
0.0050902888 -0.0765386 -0.10085291
-0.31516066 -0.04258959 -0.10769498
0.021990098 -0.042705968 -0.10013729
-0.31512782 -0.025719045 -0.10787261
0.022151925 -0.025738126 -0.10539305
-0.31512782 -0.0088512599 -0.10787261
-0.31512576 0.0080164857 -0.10788363
-0.31512576 0.02488423 -0.10788381
0.022151925 0.024922548 -0.10539299
-0.31516272 0.041756503 -0.10768378
0.02198872 0.041931853 -0.10009259
0.0050885603 0.075759605 -0.10080826
-0.011678442 0.092526682 -0.10416782
-0.028462589 0.10931084 -0.10624987
-0.046273328 -0.12782745 -0.091141343
0.021588549 -0.05993443 -0.087096751
0.021587498 0.059260719 -0.087062776
-0.04628513 0.1271334 -0.090949655
-0.081185572 -0.14555931 -0.079202473
-0.012910061 -0.1114608 -0.077502668
0.0041633993 -0.09438733 -0.076771855
0.021182559 -0.077368155 -0.073912144
0.038294863 -0.043121018 -0.073178768
0.038425285 -0.025942655 -0.078826189
0.038520701 -0.0088512991 -0.082957864
0.038520701 0.0082083046 -0.082957864
0.038425285 0.025331607 -0.078826249
0.038293801 0.042554468 -0.073132873
0.021181151 0.076796725 -0.073866367
0.0041594505 0.093796819 -0.076668918
-0.012918502 0.11086974 -0.077320039
-0.081214555 0.14497139 -0.078826368
-0.030857332 -0.12940808 -0.061808765
0.037986252 -0.060564451 -0.059815526
0.037985448 0.060100839 -0.059780777
-0.030867316 0.12893943 -0.061623514
-0.066476546 -0.14767444 -0.044857621
0.0030488893 -0.11283199 -0.047815979
0.020402469 -0.095472597 -0.048577726
0.037661985 -0.078234576 -0.045774221
0.055004384 -0.043546349 -0.045551002
0.055097461 -0.026152251 -0.051596403
0.055162817 -0.0088512599 -0.055841625
0.055162817 0.0084171351 -0.055841565
0.055097461 0.025750799 -0.051596284
0.055003662 0.043192551 -0.045504034
0.037659809 0.077881575 -0.045680165
0.02039922 0.095099129 -0.048472285
0.0030412152 0.11247035 -0.047616601
-0.015026219 -0.13103122 -0.031686485
0.054793488 -0.061210215 -0.03185302
0.054792941 0.06096188 -0.031817257
-0.066503443 0.14735173 -0.044469655
0.037058882 -0.096585587 -0.019659221
0.072183751 -0.026366994 -0.023702323
0.072217152 -0.0088512599 -0.028041482
0.072217241 0.008631032 -0.028053403
0.072183751 0.026180284 -0.023702323
0.037056103 0.096435539 -0.019538999
-0.015035011 0.13079472 -0.031496167
0.019440137 -0.11424031 -0.017325163
0.05456147 -0.079127289 -0.016782999
0.072133914 -0.043982364 -0.017228782
0.072133549 0.043846644 -0.017180562
0.054559987 0.078997515 -0.016686559
0.019433834 0.11411376 -0.017120242
0.0012370124 -0.13269874 -0.00074183941
0.072025791 -0.061872408 -0.0031830072
0.089699499 -0.026587151 0.0048929453
0.089699499 -0.0088512599 0.00044393539
0.089699499 0.0088502653 0.00043177605
0.089699499 0.026620442 0.0048928261
0.072025508 0.061844692 -0.0031465292
0.0012299567 0.13270015 -0.00055849552
0.036281485 -0.1156873 0.014003038
0.054148931 -0.097727679 0.010012269
0.071901493 -0.080043271 0.01296401
0.089699499 -0.044429585 0.011814475
0.089699499 0.044517323 0.011863947
0.071900636 0.080143139 0.013075233
0.054147031 0.097806081 0.01013577
0.03627634 0.11580271 0.01422596
-0.053874768 -0.15242553 0.032290578
0.089699499 -0.062551379 0.026221037
0.10762598 -0.0088511836 0.029653192
0.10762598 0.0090752207 0.029653311
0.089699499 0.06275019 0.026258588
0.017887197 -0.13452281 0.033108234
0.071689777 -0.098899834 0.040466428
0.089699499 -0.080983408 0.04349637
0.1077179 -0.044888057 0.041593909
0.1076612 -0.02681295 0.034228444
0.1076612 0.027072156 0.034228444
0.10771839 0.045205429 0.041657209
0.089699499 0.081318364 0.043610811
0.071688905 0.099212289 0.040580511
0.017874412 0.1347989 0.033523321
-0.054159485 0.15299012 0.036913991
0.053591732 -0.11717455 0.046203494
0.10783178 -0.06324809 0.056388259
0.10783208 0.063679077 0.056426644
0.05358801 0.11753899 0.046445251
0.034964141 -0.13656706 0.071045756
0.126086 -0.027044509 0.064307809
0.12601373 -0.0088512991 0.059613943
0.12601373 0.0093058962 0.059613943
0.126086 0.027535236 0.064307809
0.071390636 -0.11870443 0.079326153
0.089699499 -0.10010339 0.071734667
0.10797387 -0.081948765 0.074846387
0.12620695 -0.045358665 0.07216382
0.12620775 0.045911089 0.072215796
0.10797478 0.082525231 0.07496357
0.089699499 0.1006567 0.071851611
0.071388826 0.11932339 0.07956183
0.034953933 0.13713692 0.071487665
0.12644073 -0.063963078 0.087348342
0.14499235 -0.02728221 0.095186114
0.14488111 -0.0088512599 0.090369105
0.1448808 0.0095425621 0.090355873
0.14499235 0.028010601 0.095186234
0.12644134 0.064632498 0.087388039
0.10819705 -0.10133894 0.10383666
0.126744 -0.082940273 0.10704648
0.14518535 -0.045841858 0.10354304
0.14518657 0.046635903 0.10359633
0.12674586 0.083764687 0.10716701
0.10819808 0.10214016 0.10397041
0.052605852 -0.13867895 0.11023808
0.089699499 -0.12027754 0.11338437
0.14554539 -0.064697191 0.11913323
0.16424659 -0.0088512599 0.12192309
0.16424617 0.0097854473 0.12190962
0.14554633 0.065611139 0.11917377
0.089699499 0.12115985 0.11364019
0.052598823 0.13955137 0.11069477
0.16467276 -0.04633788 0.13576353
0.16439888 -0.027526094 0.12686849
0.16439888 0.028498484 0.12686849
0.16467446 0.047380038 0.13581836
0.10854034 -0.1218963 0.14843225
0.1272026 -0.10260903 0.13683367
0.14603034 -0.08395908 0.14013243
0.1460332 0.085038282 0.14025629
0.12720451 0.10366382 0.13695729
0.10854247 0.12304957 0.1487093
0.070840828 -0.14086194 0.15074849
0.16516584 -0.065451033 0.15177631
0.18432587 -0.027776543 0.15940034
0.18413039 -0.0088512599 0.15432155
0.18413039 0.010034975 0.15432167
0.18432641 0.028999498 0.15941441
0.16516712 0.066616394 0.1518178
0.070837192 0.14204726 0.15122056
0.14673741 -0.10391449 0.17074955
0.16585448 -0.085006222 0.17414081
0.18468997 -0.046847455 0.16886008
0.18469214 0.048144363 0.16891658
0.1658584 0.086347349 0.17426813
0.14674035 0.10523047 0.17087662
0.12793712 -0.12356413 0.18454182
0.18532324 -0.066225529 0.18531263
0.18532488 0.067649059 0.18535531
0.12794107 0.12499431 0.18479872
0.089699499 -0.14311959 0.19264436
0.20479524 -0.028033866 0.19283116
0.20455359 -0.0088511836 0.18759918
0.20455359 0.010291144 0.18759918
0.20479524 0.029514028 0.19283116
0.089699499 0.14462924 0.19314718
0.16682389 -0.10525674 0.20562315
0.18623924 -0.08608304 0.20911098
0.20525888 -0.047371082 0.20286894
0.20526153 0.048929766 0.20292675
0.18624428 0.08769343 0.20924199
0.16682792 0.10684137 0.2057538
0.1479145 -0.12528121 0.22171843
0.20603994 -0.067021415 0.21977949
0.22553924 -0.0088512991 0.22180653
0.22553846 0.010554342 0.22179186
0.20604265 0.068710938 0.21983814
0.14792061 0.12699805 0.22198284
0.10921454 -0.14545652 0.23601305
0.22640258 -0.04790923 0.23782814
0.2258282 -0.028298251 0.2271688
0.22582898 0.030042836 0.22718358
0.22640577 0.04973717 0.23788774
0.10921843 0.14730021 0.23651874
0.18748572 -0.10663741 0.24149573
0.20720802 -0.087190308 0.24506915
0.20721492 0.089078292 0.24521911
0.18749088 0.10849841 0.24163008
0.16849902 -0.12705056 0.26002455
0.22733954 -0.067839876 0.25521612
0.24744889 -0.028569894 0.26246607
0.24710938 -0.0088512991 0.256953
0.24710843 0.010824909 0.25693798
0.24744982 0.030586315 0.26248121
0.22734281 0.069802083 0.25527656
0.16850695 0.12906188 0.26028216
0.24814552 -0.048462726 0.27377808
0.24814931 0.050567418 0.27383924
0.12942094 -0.14787632 0.28091824
0.208748 -0.10805833 0.27841079
0.22878763 -0.088330172 0.28208888
0.22879508 0.090502776 0.28222764
0.20875368 0.11020291 0.27853358
0.12942876 0.15006573 0.28142643
0.18971881 -0.12887444 0.2995131
0.24924704 -0.068681493 0.29166412
0.26968342 -0.028849524 0.29877925
0.26928949 -0.0088512599 0.29309344
0.26928949 0.011103118 0.29309344
0.26968449 0.031145459 0.29879475
0.24925086 0.070924364 0.29172635
0.18972903 0.13118999 0.2997787
0.27051249 -0.049031965 0.31074572
0.27051795 0.051421583 0.31082451
0.23074138 -0.1095955 0.31834638
0.25100452 -0.089503787 0.32020199
0.25101331 0.091969877 0.32034481
0.23075506 0.11205357 0.31859994
0.21160373 -0.13075544 0.34023941
0.27178878 -0.069547713 0.32916737
0.29255617 -0.02913687 0.33612072
0.29210582 -0.0088512991 0.33027053
0.29210582 0.01138939 0.33027053
0.29255739 0.031720266 0.33613682
0.27179322 0.072079279 0.3292315
0.21161565 0.13338417 0.34049737
0.29353279 -0.049617909 0.34880757
0.29353905 0.052300632 0.34888864
0.25343409 -0.11118539 0.35965335
0.27388731 -0.09071245 0.35945737
0.2738975 0.093481064 0.35960448
0.2534512 0.11396252 0.35993147
0.29499272 -0.070439167 0.36777246
0.31609607 -0.029432703 0.37455142
0.31558615 -0.0088512599 0.36852944
0.31558755 0.01168403 0.36854589
0.31609887 0.032312274 0.37458444
0.29499778 0.073268056 0.36783814
0.23425373 -0.132755 0.38352716
0.31723455 -0.050221242 0.38799608
0.31724161 0.053205714 0.38807964
0.23428333 0.13573262 0.38407671
0.27685568 -0.11282692 0.40230227
0.29746646 -0.091958091 0.39990735
0.29747814 0.095038123 0.4000591
0.27687439 0.11593206 0.40257227
0.31888849 -0.071357302 0.40752852
0.34033275 -0.029737365 0.4141196
0.33976147 -0.0088512599 0.40793538
0.33976147 0.011987234 0.40793526
0.34033588 0.032921486 0.41415346
0.31889424 0.074492231 0.40759611
0.34168178 -0.050848268 0.42872322
0.34169608 0.054147922 0.42887819
0.25800309 -0.13507903 0.43384492
0.32182425 -0.093260288 0.44219816
0.32183164 0.096663453 0.44228482
0.25803822 0.13844518 0.43441522
0.30104232 -0.11452263 0.44635892
0.34396973 -0.072418764 0.45349121
0.34398106 0.07590919 0.453614
0.30106243 0.11796656 0.44662046
0.3658905 -0.0088511836 0.4608016
0.36589226 0.012394333 0.46081924
0.36735114 -0.030209044 0.47539699
0.36735469 0.033864923 0.47543263
0.41421881 -0.0088512599 0.71209908
0.41421428 0.014328433 0.71205711
0.41707382 -0.03223506 0.73859024
0.41709456 0.037919484 0.73878241
0.44306493 -0.0088511836 0.76116931
0.44306991 0.014706774 0.76121294
0.44625026 -0.032621309 0.78875542
0.44627064 0.038691603 0.78893173
0.47266829 -0.0088512599 0.8102541
0.47267658 0.015084887 0.81032133
0.47616237 -0.033005103 0.83862257
0.47618201 0.039459117 0.83878207
0.50173384 -0.0088511836 0.84945488
0.50173086 0.015385825 0.84943211
0.45721278 -0.057853207 0.88369346
0.457573 0.064723417 0.88681328
0 0 0 1 0 0 0 1 0 0 0 1 0 0 0 0 0 586 1 0 0
