ply
format ascii 1.0
comment PCL generated
element vertex 1140
property float x
property float y
property float z
element camera 1
property float view_px
property float view_py
property float view_pz
property float x_axisx
property float x_axisy
property float x_axisz
property float y_axisx
property float y_axisy
property float y_axisz
property float z_axisx
property float z_axisy
property float z_axisz
property float focal
property float scalex
property float scaley
property float centerx
property float centery
property int viewportx
property int viewporty
property float k1
property float k2
end_header
0.040107556 -0.12413245 -0.20656437
0.040088274 -0.10964534 -0.20692211
0.040088274 -0.095180184 -0.20692217
0.040088274 -0.080715045 -0.20692217
0.040087804 -0.066249691 -0.20693088
0.040087804 -0.051784612 -0.20693094
0.040087804 -0.037319601 -0.20693088
0.040087804 -0.022854589 -0.20693088
0.040087804 -0.008389473 -0.20693094
0.040087804 0.0060755378 -0.20693088
0.040087804 0.020540692 -0.20693088
0.040087804 0.035005704 -0.20693088
0.040087804 0.049470805 -0.20693094
0.040087804 0.063935809 -0.20693088
0.040087804 0.07840082 -0.20693088
0.040087804 0.092865907 -0.20693088
0.040087804 0.10733095 -0.20693088
0.040104732 0.12181778 -0.2066167
0.055288389 -0.16851637 -0.19498748
0.069934219 -0.16862497 -0.19370508
0.040588722 -0.15375558 -0.19763511
0.054790877 -0.15333757 -0.20306581
0.069935441 -0.1540595 -0.19368738
0.026217684 -0.13946734 -0.19405019
0.040252656 -0.13878693 -0.20387167
0.05479034 -0.13884206 -0.20307463
0.026122585 -0.12477639 -0.19610912
0.054789804 -0.12434692 -0.20308334
0.02611687 -0.11022135 -0.19623268
0.054789804 -0.10985219 -0.20308334
0.02611687 -0.095673904 -0.19623274
0.054789804 -0.095357478 -0.2030834
0.02611687 -0.081126541 -0.19623268
0.054789804 -0.080862835 -0.20308346
0.02611687 -0.066579089 -0.19623268
0.054789804 -0.0663682 -0.20308334
0.02611687 -0.052031711 -0.19623274
0.054789804 -0.051873505 -0.20308334
0.02611687 -0.037484337 -0.19623268
0.054789804 -0.037378825 -0.2030834
0.02611687 -0.022936851 -0.19623274
0.054789804 -0.022884114 -0.2030834
0.054789804 -0.0083894907 -0.20308334
0.02611687 -0.0083894189 -0.19623274
0.02611687 0.0061579589 -0.19623268
0.054789804 0.0061051855 -0.20308334
0.02611687 0.020705355 -0.19623274
0.054789804 0.020599879 -0.2030834
0.02611687 0.035252698 -0.19623268
0.054789804 0.035094589 -0.2030834
0.02611687 0.049800165 -0.19623268
0.054789804 0.049589254 -0.20308346
0.02611687 0.06434761 -0.19623274
0.054789804 0.064083874 -0.20308334
0.02611687 0.078894988 -0.19623268
0.054789804 0.078578621 -0.20308334
0.026116468 0.093441956 -0.19624168
0.054789804 0.093073241 -0.2030834
0.026116468 0.10798926 -0.19624162
0.054789804 0.10756795 -0.2030834
0.026120134 0.12254209 -0.1961621
0.054789804 0.12206262 -0.20308334
0.026211143 0.13724174 -0.19419169
0.040238976 0.1364771 -0.20412552
0.05479034 0.13655797 -0.20307463
0.04056973 0.1514834 -0.1979875
0.054790877 0.1510535 -0.20306587
0.069935441 0.15184757 -0.19368738
0.055253021 0.16624144 -0.19556165
0.069934219 0.16641295 -0.19370502
0.07077466 -0.18431239 -0.18157446
0.085294977 -0.18414456 -0.18339223
0.04112868 -0.16914073 -0.1876145
0.085230947 -0.16942787 -0.18422389
0.026461892 -0.15443861 -0.1887629
0.012041666 -0.14016613 -0.18396473
0.070091993 -0.13964905 -0.19142795
0.01198595 -0.1254351 -0.18541205
0.01198595 -0.11080443 -0.18541199
0.01198595 -0.096173711 -0.18541211
0.01198595 -0.081542976 -0.18541211
0.01198595 -0.066912301 -0.18541205
0.01198595 -0.052281618 -0.18541205
0.01198595 -0.037650868 -0.18541211
0.01198595 -0.023020133 -0.18541205
0.011985615 -0.0083894907 -0.18542093
0.011985615 0.0062411875 -0.18542093
0.011985615 0.020871831 -0.18542093
0.011985615 0.035502419 -0.18542093
0.011985615 0.050133049 -0.18542093
0.011985615 0.06476371 -0.18542093
0.011985615 0.079394348 -0.18542093
0.011985615 0.094024979 -0.18542093
0.011985615 0.10865564 -0.18542093
0.011985615 0.1232863 -0.18542093
0.01203616 0.13801806 -0.18410772
0.070131332 0.13749823 -0.19086003
0.026445873 0.1522352 -0.1891098
0.04109893 0.1669246 -0.18816668
0.085230261 0.16728792 -0.18423289
0.070702657 0.18208982 -0.18261361
0.085231647 0.18192954 -0.18421489
0.041939944 -0.1851452 -0.17255944
0.056346163 -0.18466006 -0.17781126
0.10068096 -0.18495156 -0.17465627
0.01251933 -0.17050064 -0.17155445
0.026871406 -0.16979432 -0.17989671
0.10068174 -0.17023878 -0.17464727
-0.0021658465 -0.15589383 -0.16985905
0.012212411 -0.15514946 -0.17952853
0.08551085 -0.15506789 -0.18058801
-0.0022851899 -0.14087485 -0.17373502
-0.0023077242 -0.12610923 -0.17446673
0.070867881 -0.12575428 -0.18022901
-0.0023080036 -0.11139372 -0.17447579
0.071473256 -0.11155452 -0.17149109
-0.0023080036 -0.096678838 -0.17447579
-0.0023080036 -0.081963964 -0.17447573
-0.0023080036 -0.067249082 -0.17447573
-0.0023080036 -0.052534185 -0.17447573
-0.0023080036 -0.037819229 -0.17447579
-0.0023080036 -0.023104334 -0.17447579
-0.0023080036 -0.0083894907 -0.17447579
-0.0023080036 0.0063253883 -0.17447573
-0.0023080036 0.021040268 -0.17447573
-0.0023080036 0.03575515 -0.17447573
-0.0023080036 0.050470188 -0.17447579
-0.0023080036 0.065185033 -0.17447573
-0.0023080036 0.079899907 -0.17447573
-0.0023080036 0.094614789 -0.17447573
-0.0023080036 0.10932969 -0.17447573
0.071495235 0.10953303 -0.17117399
-0.0023080036 0.12404463 -0.17447579
0.070900843 0.123679 -0.17975312
-0.0022865832 0.13881305 -0.17378014
-0.0021736696 0.15384376 -0.17011315
0.012202382 0.15302448 -0.17978895
0.085564047 0.15301535 -0.17989683
0.01250156 0.16841651 -0.17201638
0.026850253 0.16764623 -0.1803546
0.10068096 0.16817257 -0.17465645
0.041894622 0.18301176 -0.17340058
0.056291878 0.18248223 -0.17869276
0.10068096 0.18288611 -0.17465645
0.012972906 -0.18632667 -0.15977007
0.027495421 -0.18571547 -0.16638649
0.11628807 -0.18584509 -0.16498291
-0.0019549765 -0.17122409 -0.1630109
0.1162889 -0.17105788 -0.16497391
-0.016691122 -0.15664433 -0.16010946
0.10135119 -0.1561338 -0.16674155
0.1169638 -0.15683232 -0.15766788
-0.016755808 -0.14162479 -0.16291034
0.086656675 -0.1414313 -0.16570318
-0.0167672 -0.12679046 -0.16340375
-0.0167672 -0.11199033 -0.16340375
-0.0167672 -0.097190261 -0.16340381
0.071681321 -0.096955411 -0.16848791
-0.0167672 -0.082390115 -0.16340381
0.071681321 -0.082194351 -0.16848791
-0.0167672 -0.067589939 -0.16340381
0.071681321 -0.067433469 -0.16848785
-0.0167672 -0.0527898 -0.16340381
0.071681321 -0.052672468 -0.16848785
-0.0167672 -0.037989661 -0.16340381
0.071681321 -0.037911464 -0.16848791
-0.0167672 -0.023189649 -0.16340375
0.071681321 -0.02315044 -0.16848791
-0.0167672 -0.008389527 -0.16340375
0.071681321 -0.0083894189 -0.16848791
-0.0167672 0.0064106304 -0.16340375
0.071681321 0.0063714599 -0.16848785
-0.0167672 0.021210788 -0.16340375
0.071681321 0.021132518 -0.16848785
-0.0167672 0.036010943 -0.16340375
0.071681947 0.035893723 -0.16847879
-0.016767412 0.050810777 -0.16341293
0.071681947 0.050654776 -0.16847879
-0.016767412 0.065610811 -0.16341293
0.071681947 0.065415837 -0.16847879
-0.016767412 0.080410838 -0.16341287
0.071681947 0.08017695 -0.16847879
-0.016767412 0.095210925 -0.16341293
0.071681947 0.09493795 -0.16847879
-0.016767412 0.11001101 -0.16341293
-0.016767412 0.12481105 -0.16341287
-0.016757075 0.13964553 -0.16296518
0.086707905 0.13948599 -0.16503763
-0.016696204 0.15467232 -0.16032934
0.10141055 0.15418865 -0.16604036
0.11702664 0.15495525 -0.15698767
-0.0019653849 0.16921711 -0.16334891
0.11628807 0.16906619 -0.16498303
0.012951031 0.18431894 -0.16033852
0.027462617 0.18364267 -0.16709644
0.11628722 0.18385327 -0.16499209
0.028432734 -0.20252344 -0.14609289
0.043230973 -0.2022725 -0.14860082
0.058175914 -0.20232266 -0.14809972
-0.0016184747 -0.1870368 -0.15208268
0.13210836 -0.18679805 -0.15466726
-0.01654521 -0.1720048 -0.15379113
0.13205487 -0.17188536 -0.15520185
0.14798005 -0.17271972 -0.14534861
0.13270338 -0.15752096 -0.1487214
0.10268722 -0.14245249 -0.1509636
0.087792754 -0.12755769 -0.15094501
0.087841928 0.12571909 -0.15030617
0.10274681 0.14062363 -0.15025991
0.13277303 0.15571412 -0.14802551
-0.016553305 0.17006765 -0.15414166
0.13205303 0.16996805 -0.15522033
0.14798005 0.17087989 -0.14534855
-0.0016366839 0.185086 -0.15267402
0.13205303 0.18483114 -0.15522027
0.028382502 0.20056069 -0.1471805
0.043158546 0.20026276 -0.14994496
0.058067411 0.20027183 -0.14986163
0.013659351 -0.20293953 -0.14193588
0.07366538 -0.20314813 -0.1398508
0.1485433 -0.18814161 -0.14012218
0.16407077 -0.17356429 -0.13537538
-0.031158805 -0.15843333 -0.13686943
0.14859071 -0.15821682 -0.13968217
-0.031212917 -0.14318551 -0.14038408
0.1184369 -0.14309281 -0.14172107
0.13431416 -0.14372298 -0.13262564
-0.031222567 -0.12816946 -0.14101076
0.10404544 -0.12854438 -0.13492393
-0.031222567 -0.11319699 -0.14101076
0.088929087 -0.11345712 -0.13618374
-0.031222567 -0.098224506 -0.1410107
-0.031222567 -0.083251953 -0.14101076
-0.031222567 -0.068279482 -0.1410107
-0.031222567 -0.053307004 -0.1410107
-0.031222567 -0.03833444 -0.14101076
-0.031222567 -0.023361966 -0.1410107
-0.031222567 -0.0083894189 -0.14101076
-0.031222567 0.0065830555 -0.14101076
-0.031222567 0.02155553 -0.1410107
-0.031222567 0.036528148 -0.14101076
-0.031222567 0.051500626 -0.14101076
-0.031222567 0.066473097 -0.1410107
-0.031222567 0.081445642 -0.14101076
-0.031222567 0.09641812 -0.1410107
-0.031222567 0.11139059 -0.1410107
0.088978276 0.11172723 -0.13554466
-0.031222567 0.12636314 -0.14101076
0.1041052 0.12683378 -0.13421804
-0.031213637 0.14138024 -0.14043087
0.11849993 0.14133349 -0.14103872
-0.031162852 0.15663654 -0.13713223
0.14866643 0.15648012 -0.13897979
0.16407077 0.17180122 -0.13537544
0.14820299 0.18602604 -0.14327997
0.013625927 0.20103243 -0.14280415
0.073446527 0.20101029 -0.14300948
0.089783072 -0.20462528 -0.12509012
-0.015946817 -0.18927252 -0.1278801
0.16522768 -0.18950565 -0.12535626
-0.031036593 -0.17410991 -0.1289314
0.18032655 -0.17441669 -0.12530869
0.164627 -0.15891922 -0.13055819
0.18081436 -0.15962818 -0.12134826
-0.04604511 -0.14449175 -0.12152946
0.15034066 -0.14435908 -0.12344468
-0.046051934 -0.12931462 -0.1224162
0.11993371 -0.1291237 -0.12551767
-0.046051934 -0.11419904 -0.12241602
-0.046051934 -0.099083394 -0.12241602
0.089414552 -0.09873876 -0.12987751
-0.046051934 -0.08396773 -0.12241614
0.089414552 -0.083680518 -0.12987763
-0.046051934 -0.068852082 -0.12241614
0.089414552 -0.068622261 -0.12987751
-0.046051934 -0.053736433 -0.12241614
0.089414552 -0.053564079 -0.12987763
-0.046051934 -0.03862071 -0.12241614
0.089414552 -0.03850593 -0.12987751
-0.046051934 -0.023505066 -0.12241614
0.089414552 -0.023447674 -0.12987751
0.089415267 -0.0083894553 -0.12986815
-0.046051934 -0.0083894189 -0.1224162
-0.046051934 0.006726156 -0.12241602
0.089415267 0.0066688014 -0.12986815
-0.046051934 0.021841839 -0.12241602
0.089415267 0.021727057 -0.12986815
-0.046051934 0.036957487 -0.12241602
0.089415267 0.036785424 -0.12986803
0.089415267 0.051843673 -0.12986803
-0.046051934 0.052073136 -0.12241614
-0.046051934 0.067188777 -0.1224162
0.089415267 0.06690193 -0.12986803
-0.046051934 0.0823045 -0.12241614
0.089415267 0.081960224 -0.12986803
-0.046051934 0.097420141 -0.1224162
0.089414552 0.097018048 -0.12987763
-0.046051934 0.11253579 -0.1224162
-0.046051934 0.12765136 -0.12241602
0.11999866 0.12748526 -0.12481451
-0.046045769 0.14282869 -0.12161535
0.13438402 0.14203487 -0.13192749
0.15041764 0.14274284 -0.12273049
0.16470778 0.15725252 -0.12985873
0.18090132 0.15803286 -0.12064207
-0.031046644 0.17233618 -0.12958437
0.18032771 0.17273198 -0.12529916
-0.015961472 0.18750365 -0.12851483
0.16485748 0.18749894 -0.12856215
0.089536935 0.20259695 -0.12828755
-0.00051276758 -0.20551758 -0.1161738
0.10614796 -0.20612597 -0.11009431
0.18216719 -0.19089048 -0.11036456
0.19675098 -0.1752779 -0.11513764
-0.046000704 -0.16005819 -0.1157614
0.19715489 -0.16034386 -0.11205113
0.16651964 -0.14500175 -0.11416751
0.13595194 -0.12969375 -0.11626011
0.10530734 -0.11432809 -0.12002134
0.12136024 -0.114864 -0.11007506
0.10530654 -0.099193484 -0.120031
0.12135847 -0.099652432 -0.11009437
0.10530654 -0.084059514 -0.120031
0.12135935 -0.084442347 -0.11008465
0.10530654 -0.0689255 -0.120031
0.12135935 -0.069231786 -0.11008477
0.10530654 -0.053791486 -0.120031
0.12135935 -0.054021195 -0.11008465
0.10530654 -0.038657442 -0.120031
0.12135935 -0.038810566 -0.11008465
0.10530654 -0.023523465 -0.120031
0.12135935 -0.023600083 -0.11008465
0.12135935 -0.0083894553 -0.11008465
0.10530654 -0.0083894189 -0.120031
0.10530654 0.0067445561 -0.120031
0.12135935 0.0068210652 -0.11008465
0.10530654 0.021878567 -0.120031
0.12135935 0.022031657 -0.11008465
0.10530734 0.037012756 -0.12002134
0.12135935 0.037242249 -0.11008465
0.10530734 0.052146874 -0.12002134
0.12135935 0.052452803 -0.11008465
0.10530734 0.067280993 -0.1200214
0.12135935 0.067663357 -0.11008465
0.10530734 0.082415037 -0.12002134
0.12136024 0.082874455 -0.11007506
0.10530573 0.09754815 -0.12004054
0.12135847 0.098084114 -0.11009431
0.10530654 0.11268263 -0.12003094
0.12135935 0.11329521 -0.11008477
0.13602296 0.12812707 -0.11555022
0.16660289 0.14345752 -0.11344647
-0.046004321 0.15840639 -0.11623132
0.19724818 0.15882078 -0.11133832
0.19675349 0.17367253 -0.11511832
0.18176627 0.18899435 -0.11361963
-0.00055054203 0.20377018 -0.11740053
0.10587306 0.2042077 -0.11334085
-0.030689571 -0.19125749 -0.10639185
-0.045901388 -0.17631757 -0.10286009
0.21334808 -0.17614903 -0.10485059
0.21365081 -0.16106637 -0.1026656
-0.061167583 -0.14619182 -0.09699142
0.1828523 -0.14565061 -0.10480219
-0.061167583 -0.13081244 -0.098095655
0.1521211 -0.13026872 -0.10692441
0.16844428 -0.13084914 -0.097499669
-0.061167583 -0.11550951 -0.098095715
0.13757639 -0.1154054 -0.10002762
-0.061167583 -0.1002067 -0.098095655
0.13757445 -0.10011651 -0.10004705
-0.061167583 -0.084903777 -0.098095715
0.13757542 -0.084829099 -0.10003728
-0.061167583 -0.06960097 -0.098095596
0.13757445 -0.069540881 -0.10004705
-0.061167583 -0.054298088 -0.098095655
0.13757542 -0.054253243 -0.10003728
-0.061167583 -0.03899521 -0.098095596
0.13757542 -0.038965311 -0.10003728
-0.061167583 -0.023692332 -0.098095655
0.13757542 -0.023677383 -0.10003728
0.13757542 -0.0083894907 -0.10003728
-0.061167583 -0.0083894189 -0.098095655
-0.061167583 0.0069133872 -0.098095596
0.13757542 0.006898473 -0.10003728
-0.061167583 0.022216337 -0.098095655
0.13757542 0.022186402 -0.10003728
-0.061167583 0.037519142 -0.098095596
0.13757542 0.037474327 -0.1000374
-0.061167583 0.052821949 -0.098095655
0.13757542 0.052762255 -0.10003728
-0.061167583 0.068124898 -0.098095715
0.13757542 0.068050079 -0.10003722
-0.061167583 0.083427705 -0.098095655
0.13757542 0.083338007 -0.10003722
-0.061167583 0.098730616 -0.098095715
0.13757445 0.098625466 -0.10004699
-0.061167583 0.11403342 -0.098095596
0.13757542 0.11391386 -0.10003728
-0.061167583 0.12933634 -0.098095655
0.15219937 0.12877505 -0.10619813
0.16852893 0.12942842 -0.096766472
-0.061167583 0.14471753 -0.097079337
0.18294194 0.14417894 -0.1040743
0.21375053 0.15961604 -0.101946
-0.045906402 0.1747447 -0.1035111
0.21334942 0.17462194 -0.10484099
-0.030708199 0.18959644 -0.1076017
0.1989352 0.19051266 -0.098447144
0.12245964 0.20584235 -0.098173738
-0.015017271 -0.20837411 -0.087629616
0.12276506 -0.20764983 -0.094867408
0.19936778 -0.19229674 -0.095141709
0.2301193 -0.17702925 -0.094455719
-0.061167583 -0.16203481 -0.090084076
0.23030294 -0.16179502 -0.093200207
0.19933955 -0.14630508 -0.09535718
0.21598615 -0.14696629 -0.085811973
0.18492489 -0.13143572 -0.087974906
0.15393177 -0.11593916 -0.090123475
0.15395616 -0.10058533 -0.089897096
0.15395722 -0.085219748 -0.089887142
0.15395616 -0.069853425 -0.089897037
0.15395616 -0.05448737 -0.089897096
0.15395616 -0.039121419 -0.089897037
0.15395722 -0.023755509 -0.089887142
0.15395722 -0.0083894189 -0.089887142
0.15395722 0.0069765281 -0.089887142
0.15395722 0.022342656 -0.089887142
0.15395722 0.037708707 -0.089887142
0.15395722 0.053074799 -0.089887261
0.15395722 0.068440817 -0.089887142
0.15395722 0.083806872 -0.089887261
0.1539551 0.099171847 -0.089906871
0.15395722 0.11453898 -0.089887142
0.18501605 0.13008887 -0.087234735
0.19943573 0.1449066 -0.094622314
0.21608897 0.14564197 -0.085070014
0.23040922 0.16041823 -0.092473745
-0.061167583 0.16058217 -0.090536892
0.2301193 0.17558122 -0.094455719
-0.015108943 0.20655084 -0.091599166
0.13963529 -0.20919235 -0.079453707
0.21683408 -0.19372389 -0.079692483
0.24706747 -0.17791873 -0.083951235
0.26419371 -0.1788168 -0.073345304
0.24711631 -0.16253142 -0.083634138
0.2641921 -0.1633227 -0.073355377
0.23279314 -0.14763403 -0.076174617
0.20156281 -0.13202727 -0.078368545
0.17040287 -0.11645573 -0.080537677
0.17050621 -0.10105898 -0.079642773
0.17050736 -0.085614391 -0.079632878
0.17050621 -0.070169128 -0.079642713
0.17050621 -0.054724194 -0.079642713
0.17050621 -0.03927929 -0.079642713
0.17050621 -0.023834392 -0.079642713
0.17050621 -0.0083894907 -0.079642713
0.17050621 0.0070554819 -0.079642773
0.17050736 0.022500489 -0.079632699
0.17050736 0.037945531 -0.079632819
0.17050736 0.053390473 -0.079632819
0.17050736 0.068835512 -0.079632819
0.17050736 0.084280483 -0.079632819
0.17050621 0.099724956 -0.079642713
0.17048784 0.11516004 -0.079801857
0.20166062 0.13075484 -0.077621043
0.23290269 0.14638436 -0.075425506
0.2472292 0.16122875 -0.082900584
0.26421154 0.16204718 -0.073235154
0.24706747 0.17655157 -0.083951354
0.26419538 0.17753221 -0.07333535
-0.045716535 0.19247422 -0.078846514
0.2163703 0.19205467 -0.083039463
0.13930425 0.20750317 -0.082761765
0.15676984 -0.21075988 -0.063789487
0.23457359 -0.19517341 -0.06400156
-0.061167583 -0.17943715 -0.066020429
0.28150421 -0.17972538 -0.062616289
-0.076735705 -0.16407077 -0.063637793
0.28150076 -0.16414778 -0.062636554
-0.076693803 -0.14812544 -0.069081426
0.24976291 -0.14830814 -0.06644398
-0.076683983 -0.13252066 -0.070357502
0.21836291 -0.13262528 -0.068659127
-0.076683983 -0.11700427 -0.070357561
0.18703295 -0.11697723 -0.070859492
0.20382564 -0.11750433 -0.061077178
-0.076683901 -0.10148742 -0.070367515
0.18722717 -0.10153752 -0.069282532
-0.076683901 -0.085971065 -0.070367575
0.18722841 -0.08601325 -0.069272399
-0.076683901 -0.070454754 -0.070367575
0.18722717 -0.07048814 -0.069282532
-0.076683901 -0.05493845 -0.070367575
0.18722717 -0.054963462 -0.069282651
-0.076683901 -0.03942214 -0.070367575
0.18722717 -0.039438777 -0.069282532
-0.076683901 -0.023905728 -0.070367575
0.18722717 -0.023914207 -0.069282472
-0.076683901 -0.0083894553 -0.070367575
0.18722717 -0.008389527 -0.069282532
-0.076683901 0.0071268156 -0.070367575
0.18722717 0.0071351537 -0.069282532
-0.076683901 0.022643123 -0.070367575
0.18722717 0.02265987 -0.069282651
-0.076683901 0.038159505 -0.070367634
0.18722717 0.038184553 -0.069282651
-0.076683901 0.053675808 -0.070367575
0.18722841 0.053709552 -0.069272518
-0.076683901 0.069192111 -0.070367575
0.18722841 0.069234267 -0.069272518
-0.076683901 0.084708422 -0.070367515
0.18722841 0.084759019 -0.069272399
-0.076683901 0.1002248 -0.070367575
0.18722717 0.10028327 -0.069282532
-0.076683901 0.11574108 -0.070367575
0.18712446 0.11575659 -0.07011652
0.20392384 0.11635946 -0.060326993
-0.076683901 0.13125743 -0.070367575
0.21846746 0.13142808 -0.067904532
-0.076692492 0.14685954 -0.069252372
0.2498778 0.14713325 -0.065697789
-0.076732129 0.16282053 -0.06410259
0.28150249 0.1629456 -0.062626481
-0.061167583 0.17816237 -0.066514552
0.28150421 0.17852242 -0.062616289
0.23407786 0.19362061 -0.067391157
0.15641208 0.20919028 -0.067108929
-0.04556952 -0.19556618 -0.059748828
0.29900014 -0.18064357 -0.051772416
0.29899651 -0.16498254 -0.0517928
0.2668978 -0.14898892 -0.056618631
0.23532628 -0.13322899 -0.058855474
0.2524538 -0.13383801 -0.048966169
0.22078077 -0.11803609 -0.051209629
0.20412172 -0.10202099 -0.058814704
0.22119255 -0.10250948 -0.04823786
0.20412172 -0.086415783 -0.058814883
0.22119255 -0.086822838 -0.04823786
0.20412172 -0.070810527 -0.058814704
0.22119115 -0.071135864 -0.048248053
0.20412172 -0.055205204 -0.058814824
0.22119115 -0.055449255 -0.048248053
0.20412172 -0.039599992 -0.058814704
0.22119255 -0.039762825 -0.04823786
0.20412172 -0.02399474 -0.058814883
0.22119255 -0.024076102 -0.04823786
0.22119255 -0.0083894907 -0.048237801
0.20412172 -0.0083894189 -0.058814883
0.20412172 0.0072157942 -0.058814824
0.22119255 0.007297229 -0.04823786
0.20412172 0.022821082 -0.058814883
0.22119255 0.022983877 -0.048237801
0.20412172 0.038426258 -0.058814883
0.22119255 0.038670488 -0.048237801
0.20412172 0.054031581 -0.058814883
0.22119255 0.054357275 -0.04823786
0.20412172 0.069636799 -0.058814824
0.22119255 0.070043892 -0.04823786
0.20412304 0.085242517 -0.058804572
0.22119255 0.085730538 -0.04823786
0.20412172 0.10084726 -0.058814883
0.22119255 0.10141722 -0.048237801
0.22088714 0.11696818 -0.050441861
0.23543774 0.13210779 -0.058093429
0.25257224 0.13279352 -0.048196852
0.26701957 0.14789014 -0.055865169
0.29899651 0.16386299 -0.0517928
0.29900014 0.17952423 -0.051772356
0.25206268 0.19521016 -0.0515064
0.17378938 0.21090378 -0.051209688
-0.029616263 -0.21347299 -0.036678433
0.17417401 -0.2123522 -0.047878623
-0.061167583 -0.19684787 -0.045874655
0.25258803 -0.19664285 -0.048094213
-0.076864064 -0.18105072 -0.046964467
0.31668276 -0.18157084 -0.04082185
-0.092720978 -0.16615638 -0.036543489
0.31668085 -0.16582629 -0.040832162
-0.092586026 -0.14977245 -0.045308828
0.2841984 -0.14967559 -0.046707511
0.30122471 -0.15019517 -0.039207876
-0.092550099 -0.13391955 -0.04764241
0.26974916 -0.13445304 -0.038980007
-0.092550099 -0.1182282 -0.047642469
0.23790194 -0.11857297 -0.04124552
-0.092550099 -0.10253701 -0.047642529
0.23844247 -0.10300322 -0.037549913
-0.092550099 -0.086845733 -0.047642469
0.23844247 -0.087234206 -0.037549973
-0.092550099 -0.071154483 -0.047642469
0.23844095 -0.071464941 -0.037560225
-0.092550099 -0.055463232 -0.047642529
0.23844095 -0.055696107 -0.037560225
-0.092550099 -0.039771952 -0.047642469
0.23844095 -0.039927267 -0.037560344
-0.092550099 -0.024080703 -0.04764241
0.23844095 -0.024158398 -0.037560225
-0.092550099 -0.0083894907 -0.047642469
0.23844095 -0.0083894553 -0.037560344
-0.092550099 0.0073017925 -0.04764241
0.23844247 0.0073795244 -0.037549913
-0.092550099 0.022993075 -0.04764241
0.23844247 0.023148431 -0.037549913
-0.092550099 0.038684286 -0.047642469
0.23844247 0.03891737 -0.037549913
-0.092550099 0.054375567 -0.04764241
0.23844247 0.054686353 -0.037550032
-0.092550099 0.070066817 -0.04764241
0.23844247 0.070455261 -0.037549973
-0.092550099 0.08575806 -0.04764241
0.23844247 0.086224198 -0.037549973
-0.092550099 0.10144931 -0.04764241
0.23844399 0.10199375 -0.037539542
-0.092550099 0.1171406 -0.04764241
0.23801534 0.11758225 -0.040470243
-0.092550099 0.13283183 -0.04764241
0.26986307 0.13348085 -0.038275599
-0.092581749 0.14868136 -0.045586646
0.284329 0.14865448 -0.045936406
0.30131453 0.14921144 -0.038700461
-0.092713788 0.16511467 -0.03701055
0.31668085 0.16479109 -0.040832222
-0.076856866 0.17988187 -0.047899127
0.31668276 0.18053567 -0.04082185
-0.061167583 0.19558972 -0.047714353
-0.029641494 0.21229321 -0.038317084
0.19185297 -0.21396869 -0.031725824
0.27088648 -0.19813465 -0.031944871
0.33455473 -0.16667835 -0.029763222
0.31766123 -0.15045024 -0.035525739
0.33455473 -0.15084948 -0.029763222
0.28663146 -0.13486187 -0.032341063
0.30296171 -0.13504311 -0.029397488
0.31899828 -0.13511141 -0.028288841
0.33479822 -0.1350985 -0.028498054
0.25516272 -0.11910506 -0.031371176
0.27189249 -0.11940947 -0.025721788
0.33527797 -0.11939427 -0.02600491
0.25587428 -0.10350206 -0.026749313
0.33532041 -0.10354659 -0.025784612
0.25587428 -0.087649927 -0.026749372
0.33532041 -0.087687083 -0.025784612
0.25587267 -0.071797535 -0.026759803
0.33532041 -0.071827546 -0.025784671
0.25587267 -0.055945538 -0.026759803
0.33532041 -0.055968039 -0.025784612
0.25587267 -0.040093511 -0.026759803
0.33532041 -0.040108502 -0.025784671
0.25587267 -0.02424152 -0.026759803
0.33532041 -0.02424903 -0.025784671
0.25587267 -0.0083894553 -0.026759803
0.33532041 -0.0083894553 -0.025784731
0.25587267 0.0074625388 -0.026759803
0.33532041 0.0074700136 -0.025784671
0.25587267 0.02331453 -0.026759803
0.33532041 0.023329588 -0.025784731
0.25587267 0.039166525 -0.026759803
0.33532041 0.03918913 -0.025784612
0.25587428 0.055018872 -0.026749313
0.33532041 0.055048592 -0.025784612
0.25587428 0.07087101 -0.026749372
0.33532041 0.070908166 -0.025784671
0.25587428 0.086723149 -0.026749313
0.33532041 0.086767636 -0.025784612
0.25587589 0.10257575 -0.026738822
0.33532041 0.10262718 -0.025784671
0.25527197 0.11818633 -0.030661464
0.27196544 0.11851842 -0.025270581
0.33528405 0.11847504 -0.025973499
0.28670388 0.13392164 -0.031913579
0.30302095 0.13411906 -0.029062808
0.31904078 0.13418861 -0.028058469
0.33483243 0.13417053 -0.028320074
0.31773227 0.14948541 -0.03514111
0.33455676 0.1499003 -0.029752731
0.33455473 0.16572833 -0.029763222
0.27033448 0.19682613 -0.035359323
0.19144253 0.21264446 -0.035057902
0.20981576 -0.21561201 -0.015304565
-0.07712239 -0.19984724 -0.013405859
0.28947902 -0.19965126 -0.01552695
-0.093010977 -0.18352817 -0.017707169
-0.10886612 -0.13558553 -0.02058959
0.35262108 -0.13570906 -0.018584311
-0.10886612 -0.11968611 -0.020589471
0.28812957 -0.11952943 -0.023495257
0.3040849 -0.11955325 -0.023053646
0.31979448 -0.11950341 -0.02397877
0.35262316 -0.11979464 -0.018573821
-0.10886612 -0.1037865 -0.020589471
0.27315903 -0.10391135 -0.017886996
0.28901672 -0.10389431 -0.018256843
0.30463511 -0.10381629 -0.019946098
0.32002372 -0.10368739 -0.022738039
0.35262108 -0.10387918 -0.01858443
-0.10886612 -0.087886997 -0.020589471
0.27349091 -0.088070095 -0.015834212
0.2892943 -0.088039912 -0.016617775
0.30468178 -0.08792197 -0.019682407
0.32002372 -0.08780431 -0.022738099
0.35262108 -0.087964155 -0.018584371
-0.10886612 -0.071987495 -0.020589411
0.27348918 -0.072133653 -0.015844762
0.2892943 -0.072109826 -0.016617596
0.30468178 -0.072015457 -0.019682407
0.32002372 -0.071921341 -0.022738039
0.35262108 -0.072049238 -0.018584371
-0.10886612 -0.056087993 -0.020589471
0.27348918 -0.056197532 -0.015844762
0.2892943 -0.056179702 -0.016617715
0.30468178 -0.056108944 -0.019682467
0.32002372 -0.056038402 -0.022738039
0.35262108 -0.056134284 -0.018584371
-0.10886612 -0.040188491 -0.02058959
0.27348918 -0.040261552 -0.015844762
0.2892943 -0.040249698 -0.016617596
0.30468178 -0.040202476 -0.019682407
0.32002372 -0.040155433 -0.022738039
0.35262108 -0.040219367 -0.018584371
-0.10886612 -0.024288921 -0.020589471
0.27348918 -0.02432554 -0.015844762
0.2892943 -0.024319574 -0.016617715
0.30468178 -0.024295963 -0.019682407
0.32002372 -0.02427246 -0.022738039
0.35262108 -0.024304446 -0.018584311
-0.10886612 -0.0083894907 -0.020589411
0.27348918 -0.0083894553 -0.015844822
0.2892943 -0.0083894553 -0.016617596
0.30468178 -0.008389527 -0.019682407
0.32002372 -0.0083894907 -0.022738039
0.35262108 -0.0083894553 -0.018584371
-0.10886612 0.0075100828 -0.020589471
0.27348918 0.0075465944 -0.015844762
0.2892943 0.0075406283 -0.016617715
0.30468178 0.0075170174 -0.019682467
0.32002372 0.0074935164 -0.022738039
0.35262108 0.0075254627 -0.018584371
-0.10886612 0.023409585 -0.02058959
0.27348918 0.023482608 -0.015844762
0.28929615 0.023470858 -0.016607046
0.30468178 0.023423528 -0.019682467
0.32002372 0.023376485 -0.022738039
0.35262108 0.023440419 -0.018584371
-0.10886612 0.03930901 -0.020589411
0.27348918 0.039418586 -0.015844762
0.28929615 0.039401047 -0.016607046
0.30468178 0.039330035 -0.019682407
0.32002372 0.039259419 -0.022738039
0.35262108 0.039355338 -0.018584371
-0.10886612 0.055208586 -0.020589471
0.27348918 0.055354707 -0.015844822
0.28929615 0.055331163 -0.016607046
0.30468178 0.055236511 -0.019682407
0.32002372 0.055142462 -0.022738099
0.35262108 0.055270292 -0.018584371
-0.10886612 0.071108088 -0.020589471
0.27349091 0.071291111 -0.015834212
0.28929615 0.071261354 -0.016607106
0.30468178 0.071143053 -0.019682467
0.32002372 0.071025394 -0.022738039
0.35262108 0.071185276 -0.018584311
-0.10886612 0.087007657 -0.02058959
0.27349091 0.087227233 -0.015834093
0.28929615 0.087191582 -0.016607046
0.30468369 0.087049991 -0.019671738
0.32002372 0.086908333 -0.022738039
0.35262108 0.087100267 -0.01858443
-0.10886612 0.10290709 -0.020589471
0.27319837 0.10306589 -0.01764375
0.28904176 0.10304081 -0.018108904
0.30464256 0.10294407 -0.019904017
0.32002372 0.10279134 -0.022738039
0.35262108 0.10301518 -0.01858443
-0.10886612 0.11880667 -0.020589471
0.28817761 0.11864512 -0.02321136
0.30411655 0.1186659 -0.022874773
0.31981975 0.11860638 -0.023842156
0.35262316 0.11893079 -0.018573821
-0.10886612 0.13470617 -0.020589471
0.35262108 0.13484499 -0.01858443
-0.1090563 0.15123971 -0.012354314
-0.092995852 0.18258011 -0.01869005
-0.077107698 0.19883209 -0.015315056
0.28889865 0.19846791 -0.018954039
0.20937823 0.21441297 -0.018647671
-0.10932606 -0.16891773 -0.00067323446
-0.10907398 -0.15210864 -0.011588812
-0.10931713 0.16815884 -0.0010600686
0.22760324 0.21621007 -0.0019728541
-0.12568948 -0.15356372 0.0094134808
-0.12557042 -0.13719514 0.0055465698
-0.12556741 -0.12108916 0.0054491758
-0.12556741 -0.10498927 0.0054492354
-0.12556741 -0.088889278 0.0054493546
-0.12556741 -0.072789289 0.0054492354
-0.12556741 -0.056689359 0.0054492354
-0.12556741 -0.04058937 0.0054491758
-0.12556741 -0.024489377 0.0054492354
-0.12556741 -0.0083894907 0.0054493546
-0.12556741 0.0077104662 0.0054492354
-0.12556741 0.023810422 0.0054492354
-0.12556741 0.039910451 0.0054491758
-0.12556741 0.05601041 0.0054492354
-0.12556741 0.072110295 0.0054492354
-0.12556741 0.088210247 0.0054492354
-0.12556741 0.10431024 0.0054492354
-0.12556741 0.12041017 0.0054492354
-0.12556775 0.13651092 0.0054602027
-0.12568179 0.15289603 0.0091639757
-0.10960667 0.18536694 0.011477292
-0.093638562 -0.20321535 0.023055375
-0.10963883 -0.18611735 0.012869954
-0.12604731 -0.17058881 0.02103442
-0.12602705 0.16997409 0.020376444
-0.093596637 0.2023994 0.020332456
-0.14274132 -0.13890746 0.033351123
-0.14272851 -0.12257478 0.033018231
-0.14272851 -0.10626259 0.033018231
-0.14272851 -0.08995042 0.033018231
-0.14272851 -0.073638223 0.033018231
-0.14272851 -0.057326093 0.033018112
-0.14272851 -0.041013852 0.033018291
-0.14272851 -0.02470169 0.033018291
-0.14272851 -0.0083894553 0.033018291
-0.14272851 0.0079226736 0.033018231
-0.14272851 0.024234874 0.033018291
-0.14272851 0.040547036 0.033018231
-0.14272851 0.056859232 0.033018231
-0.14272851 0.073171437 0.033018231
-0.14272851 0.089483634 0.033018231
-0.14272851 0.10579584 0.033018291
-0.14272851 0.122108 0.033018231
-0.1427379 0.13843706 0.033262372
-0.1267899 -0.18885076 0.045150101
-0.14291602 -0.15553662 0.037890017
-0.14290658 0.1550885 0.037644804
-0.12674636 0.18834686 0.043736815
-0.14359051 -0.17323537 0.05541414
-0.14340815 0.17253976 0.050675929
-0.11069579 0.20623282 0.0586375
-0.11080049 -0.20692112 0.063171387
-0.1607025 -0.15769184 0.068997622
-0.16053791 -0.14088319 0.065433979
-0.16051415 -0.12429379 0.064919412
-0.16051415 -0.10773596 0.064919293
-0.16051415 -0.091178238 0.064919353
-0.16051415 -0.074620485 0.064919353
-0.16051415 -0.058062725 0.064919353
-0.16051415 -0.041504972 0.064919353
-0.16051415 -0.024947211 0.064919412
-0.16051415 -0.0083894907 0.064919412
-0.16051415 0.0081683379 0.064919353
-0.16051415 0.024726095 0.064919353
-0.16051415 0.041283853 0.064919353
-0.16051415 0.057841606 0.064919353
-0.16051415 0.07439933 0.064919412
-0.16051415 0.090957046 0.064919412
-0.16051415 0.10751477 0.064919353
-0.16051415 0.12407256 0.064919412
-0.1605342 0.14066043 0.06535399
-0.16069031 0.15748179 0.068733633
-0.1445334 -0.19179425 0.079910398
-0.16132073 -0.17531142 0.082382619
-0.16128799 0.17516473 0.081674039
-0.14450839 0.19162852 0.079261243
-0.17849645 -0.14247961 0.09135586
-0.17844722 -0.12566905 0.09044224
-0.17844722 -0.10891494 0.090442359
-0.17844722 -0.092160642 0.090442359
-0.17844722 -0.075406387 0.090442359
-0.17844722 -0.05865223 0.090442419
-0.17844722 -0.041897975 0.090442359
-0.17844722 -0.025143715 0.090442359
-0.17844722 -0.0083894189 0.090442359
-0.17844722 0.0083647687 0.090442419
-0.17844722 0.025118994 0.090442359
-0.17844722 0.041873254 0.090442359
-0.17844722 0.058627434 0.090442359
-0.17844722 0.075381733 0.090442359
-0.17844722 0.092135958 0.090442359
-0.17844722 0.10889021 0.090442359
-0.17844722 0.12564434 0.090442359
-0.17848888 0.14245218 0.091215253
-0.17886381 -0.15971316 0.098172903
-0.17883649 0.15970898 0.097666085
-0.12864293 0.21090546 0.10532951
-0.12891701 -0.21163775 0.11423075
-0.16279283 -0.19470246 0.11425471
-0.17978457 -0.1778423 0.11526018
-0.17972781 0.17791948 0.11420691
-0.16270229 0.19467995 0.11229426
-0.19761021 -0.14483215 0.12955546
-0.19754152 -0.12771669 0.1284399
-0.19754152 -0.11066996 0.1284399
-0.19754152 -0.093623206 0.1284399
-0.19754152 -0.076576419 0.1284399
-0.19754152 -0.059529737 0.1284399
-0.19754152 -0.04248295 0.1284399
-0.19754152 -0.025436204 0.1284399
-0.19754152 -0.0083894553 0.1284399
-0.19754152 0.008657258 0.1284399
-0.19754152 0.025704043 0.1284399
-0.19754152 0.042750724 0.1284399
-0.19754152 0.059797466 0.1284399
-0.19754152 0.076844178 0.1284399
-0.19754152 0.093890928 0.1284399
-0.19754152 0.11093765 0.1284399
-0.19754152 0.12798451 0.1284399
-0.19759975 0.1450967 0.12938571
-0.19795325 -0.16227332 0.13512576
-0.19793673 0.162572 0.13485765
-0.1817733 -0.19791278 0.15216684
-0.19882452 -0.18046066 0.14927351
-0.21625611 -0.14624594 0.1525135
-0.2161558 -0.12893586 0.15106547
-0.2161558 -0.11171496 0.15106547
-0.2161558 -0.094493985 0.15106547
-0.2161558 -0.07727316 0.15106547
-0.21615493 -0.06005194 0.15105307
-0.21615493 -0.042831071 0.15105319
-0.21615493 -0.025610318 0.15105307
-0.21615493 -0.0083894553 0.15105319
-0.21615493 0.0088312998 0.15105319
-0.21615493 0.026052201 0.15105307
-0.21615493 0.043272994 0.15105307
-0.21615493 0.060493745 0.15105307
-0.21615493 0.077714644 0.15105307
-0.21615493 0.094935432 0.15105319
-0.21615493 0.11215619 0.15105319
-0.21615493 0.12937707 0.15105295
-0.21624839 0.14669132 0.15240204
-0.19875991 0.18080002 0.14822435
-0.18172798 0.19828556 0.15132535
-0.21693778 -0.1641597 0.16235256
-0.21690318 0.16465001 0.16185296
-0.21846741 -0.1831671 0.18443096
-0.23599227 -0.14824916 0.1850425
-0.23580995 -0.13063915 0.18267417
-0.23580995 -0.11317482 0.18267405
-0.23580995 -0.095710665 0.18267429
-0.23580995 -0.07824637 0.18267405
-0.23580995 -0.060782172 0.18267417
-0.23580995 -0.043318018 0.18267417
-0.23580895 -0.025853647 0.18266141
-0.23580895 -0.008389527 0.18266141
-0.23580895 0.0090746656 0.18266141
-0.23580895 0.026538892 0.18266141
-0.23580895 0.04400301 0.18266141
-0.23580895 0.061467133 0.18266141
-0.23580895 0.07893125 0.18266141
-0.23580895 0.096395336 0.18266141
-0.23580895 0.11385946 0.18266141
-0.23580895 0.1313237 0.18266141
-0.23596774 0.1489307 0.18472409
-0.21839508 0.18377747 0.18338668
-0.20135544 0.20189233 0.19037044
-0.2015347 -0.20139426 0.19328141
-0.2368353 -0.16649039 0.19599378
-0.23678873 0.16723178 0.19538903
-0.25602746 -0.13239121 0.21518874
-0.25602746 -0.11467666 0.21518886
-0.25602746 -0.096962169 0.21518886
-0.25602746 -0.079247639 0.21518886
-0.25602746 -0.061533071 0.21518886
-0.25602746 -0.043818548 0.21518886
-0.25602746 -0.026104018 0.21518886
-0.25602633 -0.0083894553 0.21517587
-0.25602633 0.0093249641 0.21517575
-0.25602633 0.027039347 0.21517587
-0.25602633 0.044753909 0.21517587
-0.25602633 0.062468261 0.21517575
-0.25602633 0.080182679 0.21517563
-0.25602633 0.097897135 0.21517587
-0.25602633 0.11561152 0.21517587
-0.25602633 0.13332595 0.21517575
-0.23881505 -0.18603694 0.22171187
-0.25631046 -0.15031159 0.21853113
-0.25628379 0.15125114 0.21821618
-0.23869963 0.18689577 0.22021246
-0.22219743 -0.20520371 0.23826897
-0.25740808 -0.16894984 0.23149288
-0.25734174 0.16995069 0.23070991
-0.22193791 0.20597091 0.23452318
-0.2772381 -0.15243654 0.25303543
-0.27683291 -0.13419421 0.248649
-0.27683291 -0.1162222 0.24864924
-0.27683291 -0.098250069 0.24864912
-0.27683291 -0.08027795 0.24864924
-0.27683291 -0.062305823 0.24864912
-0.27683291 -0.044333667 0.24864912
-0.27683291 -0.02636165 0.248649
-0.27683169 -0.0083895624 0.24863565
-0.27683169 0.0095825605 0.24863565
-0.27683169 0.027554573 0.24863565
-0.27683169 0.045526519 0.24863565
-0.27683169 0.063498564 0.24863577
-0.27683169 0.081470512 0.24863565
-0.27683169 0.099442564 0.24863577
-0.27683169 0.11741454 0.24863565
-0.27683169 0.13538653 0.24863565
-0.27720815 0.1536409 0.25271094
-0.25990087 -0.1890561 0.26093161
-0.25976956 0.19021246 0.2593807
-0.27863228 -0.17148799 0.26812756
-0.27855766 0.17276897 0.2673198
-0.29880053 -0.15462516 0.2885747
-0.29826206 -0.13605574 0.28319371
-0.29825234 -0.11781323 0.28309679
-0.29825234 -0.099575892 0.28309679
-0.29825234 -0.081338592 0.28309679
-0.29825234 -0.063101396 0.28309679
-0.29825234 -0.044864096 0.28309679
-0.29825234 -0.026626719 0.28309679
-0.29825234 -0.0083894553 0.28309679
-0.29825097 0.0098477025 0.28308296
-0.29825097 0.028084895 0.28308296
-0.29825097 0.046322159 0.28308284
-0.29825097 0.064559206 0.28308284
-0.29825097 0.082796402 0.28308296
-0.29825097 0.10103367 0.28308284
-0.29825097 0.11927082 0.28308296
-0.29825097 0.13750802 0.28308296
-0.29876846 0.15610348 0.28825426
-0.24384746 0.21082641 0.28708458
-0.24443434 -0.20998292 0.29470837
-0.2815688 0.19364497 0.29991651
-0.28173786 -0.19219802 0.30174685
-0.30053687 -0.17410673 0.30592501
-0.30045623 0.1756787 0.30511928
-0.32106549 -0.15690254 0.32555556
-0.32035643 -0.13798396 0.3189764
-0.32031333 -0.11945195 0.31857622
-0.32031333 -0.10094152 0.31857622
-0.32031333 -0.082431175 0.31857622
-0.32031333 -0.063920684 0.31857622
-0.32031333 -0.045410261 0.31857634
-0.32031333 -0.026899911 0.31857622
-0.32031333 -0.0083894189 0.31857622
-0.32031333 0.010120966 0.31857622
-0.32031178 0.028631208 0.31856191
-0.32031178 0.047141485 0.31856191
-0.32031178 0.065651722 0.31856191
-0.32031178 0.084162034 0.31856191
-0.32031178 0.10267238 0.31856191
-0.32031178 0.12118266 0.31856191
-0.3203457 0.13971224 0.31887627
-0.32100666 0.15864995 0.32500958
-0.30456275 -0.19561656 0.34615421
-0.32323819 -0.17686349 0.34571576
-0.32312173 0.17872068 0.34463465
-0.30435517 0.19738473 0.34407997
-0.34313017 -0.13997202 0.35587108
-0.34304345 -0.12113986 0.35511959
-0.34304345 -0.10234813 0.35511982
-0.34304345 -0.083556361 0.35511959
-0.34304345 -0.064764731 0.35511982
-0.34304345 -0.045972891 0.35511959
-0.34304345 -0.027181225 0.35511982
-0.34304345 -0.008389527 0.35511959
-0.34304345 0.010402208 0.35511982
-0.34304345 0.029193943 0.35511959
-0.34304345 0.04798571 0.35511982
-0.34304345 0.066777445 0.35511959
-0.34304345 0.085569069 0.35511959
-0.34304345 0.10436088 0.35511959
-0.34304345 0.12315255 0.35511959
-0.34311658 0.14198336 0.35575306
-0.34409148 -0.15928218 0.36419594
-0.34402812 0.16132683 0.3636471
-0.32835907 -0.19924057 0.39323163
-0.34677219 -0.17975231 0.38741195
-0.36661166 -0.14202124 0.39390028
-0.36647695 -0.12288047 0.39280629
-0.36647695 -0.10379865 0.39280629
-0.36647695 -0.084716797 0.39280629
-0.36647695 -0.065635011 0.39280629
-0.36647695 -0.046553157 0.39280617
-0.36647695 -0.027471272 0.39280641
-0.36647695 -0.0083894189 0.39280629
-0.36647695 0.010692362 0.39280629
-0.36647695 0.029774213 0.39280617
-0.36647695 0.048856027 0.39280629
-0.36647695 0.067937881 0.39280629
-0.36647695 0.087019734 0.39280629
-0.36647695 0.10610159 0.39280629
-0.36647695 0.12518334 0.39280641
-0.3665967 0.14432503 0.39377844
-0.34664655 0.18192977 0.38632369
-0.32803369 0.20129102 0.39021206
-0.36786735 -0.16173932 0.40409505
-0.3677994 0.16409098 0.40354347
-0.37113118 -0.18274398 0.43059433
-0.39083612 -0.14413527 0.43313253
-0.39064533 -0.12467573 0.43167484
-0.39064533 -0.10529473 0.43167484
-0.39064533 -0.08591371 0.43167472
-0.39064533 -0.066532604 0.43167472
-0.39064533 -0.047151543 0.43167484
-0.39064533 -0.027770482 0.43167472
-0.39064533 -0.0083895624 0.43167484
-0.39064533 0.010991536 0.43167472
-0.39064533 0.030372562 0.43167484
-0.39064533 0.049753658 0.43167484
-0.39064533 0.06913472 0.43167472
-0.39064533 0.088515677 0.43167484
-0.39064533 0.10789674 0.43167484
-0.39064533 0.12727785 0.43167484
-0.39082175 0.14674188 0.43302274
-0.37099439 0.18525231 0.42948353
-0.35348755 -0.20326948 0.44556832
-0.39243037 -0.16427784 0.44531488
-0.39235991 0.16694763 0.44477654
-0.35313314 0.20571867 0.44249916
-0.39655542 -0.18594779 0.47683644
-0.41589767 -0.1463401 0.4740473
-0.41558373 -0.12652823 0.47178173
-0.41558373 -0.10683843 0.47178149
-0.41558373 -0.087148607 0.47178149
-0.41558373 -0.067458808 0.47178173
-0.41558373 -0.047768973 0.47178173
-0.41558373 -0.028079286 0.47178149
-0.41558373 -0.0083895624 0.47178149
-0.41558373 0.01130027 0.47178173
-0.41558373 0.030990137 0.47178173
-0.41558373 0.0506799 0.47178149
-0.41558373 0.070369691 0.47178173
-0.41558373 0.090059415 0.47178149
-0.41558373 0.10974921 0.47178149
-0.41558373 0.12943901 0.47178149
-0.41585058 0.14924736 0.4737072
-0.39635164 0.18877757 0.47527897
-0.38005853 0.21084803 0.50307477
-0.48635548 -0.0083894907 0.82103121
-0.48633105 0.013987446 0.82086432
-0.48844302 -0.030877689 0.83530331
-0.48833501 0.036575474 0.8345654
-0.49325657 -0.053872526 0.86821413
-0.4930768 0.059806779 0.86698532
0 0 0 1 0 0 0 1 0 0 0 1 0 0 0 0 0 1140 1 0 0
