ply
format ascii 1.0
comment PCL generated
element vertex 1320
property float x
property float y
property float z
element camera 0
property float view_px
property float view_py
property float view_pz
property float x_axisx
property float x_axisy
property float x_axisz
property float y_axisx
property float y_axisy
property float y_axisz
property float z_axisx
property float z_axisy
property float z_axisz
property float focal
property float scalex
property float scaley
property float centerx
property float centery
property int viewportx
property int viewporty
property float k1
property float k2
end_header
0.070304871 -0.33409268 -0.14349341
0.094164461 -0.3342568 -0.14185286
0.070304871 -0.31027088 -0.14349341
0.094164461 -0.31042254 -0.14185274
0.070350602 -0.28670081 -0.1405226
0.070347831 -0.26284233 -0.14070344
0.070305124 -0.23880693 -0.14347708
0.094164461 -0.23891944 -0.14185286
0.070305124 -0.21498513 -0.14347708
0.094164461 -0.21508519 -0.14185274
0.070305124 -0.1911633 -0.14347708
0.094164461 -0.19125086 -0.14185286
0.070323557 -0.14356573 -0.14227974
0.09419404 -0.1436315 -0.14057195
0.070305124 -0.11969784 -0.14347696
0.094164461 -0.11974783 -0.14185274
0.070305124 -0.095875993 -0.14347696
0.094164461 -0.0959135 -0.14185286
0.070305124 -0.072054207 -0.14347696
0.094164461 -0.072079152 -0.14185286
0.070305124 -0.048232421 -0.14347696
0.094164461 -0.04824492 -0.14185286
0.070305124 -0.024410527 -0.14347696
0.094164461 -0.024410527 -0.14185274
0.070305124 -0.00058873929 -0.14347696
0.094164461 -0.00057618693 -0.14185286
0.070305124 0.023233101 -0.14347696
0.094164461 0.023258153 -0.14185286
0.070305124 0.047054891 -0.14347696
0.094164461 0.047092389 -0.14185286
0.070305124 0.070876673 -0.14347696
0.094164461 0.070926726 -0.14185286
0.070305124 0.094698563 -0.14347696
0.094164461 0.094761178 -0.14185286
0.070305124 0.11852026 -0.14347696
0.094164461 0.11859542 -0.14185286
0.070305124 0.14234225 -0.1434772
0.094164461 0.14242965 -0.14185286
0.070305124 0.16616409 -0.14347708
0.094164461 0.16626415 -0.14185286
0.070305124 0.18998599 -0.14347708
0.094164461 0.19009849 -0.14185286
0.070305124 0.21380778 -0.14347708
0.094164461 0.21393272 -0.14185274
0.070305124 0.23762946 -0.14347708
0.094164461 0.23776706 -0.14185286
0.070305124 0.26145133 -0.14347708
0.094164461 0.26160139 -0.14185286
0.070305124 0.28527316 -0.14347708
0.094164461 0.28543574 -0.14185286
0.070305124 0.30909497 -0.14347708
0.094164461 0.30926996 -0.14185274
0.070305124 0.33291686 -0.14347708
0.094164461 0.33310431 -0.14185286
0.070305124 0.35673869 -0.14347708
0.094164461 0.35693866 -0.14185286
0.070305124 0.38056037 -0.14347708
0.094164461 0.38077295 -0.14185274
0.070305124 0.40438223 -0.14347708
0.094164461 0.40460745 -0.14185274
0.070305124 0.42820412 -0.14347708
0.094164461 0.42844173 -0.14185286
0.046620794 -0.67131215 -0.12561607
0.070524499 -0.67056137 -0.12922812
0.094514921 -0.67109156 -0.12667751
0.022661474 -0.64693469 -0.12770474
0.046528574 -0.6449551 -0.13759565
0.094216436 -0.64455354 -0.1396023
0.11830455 -0.64609051 -0.13192308
0.022661474 -0.62359792 -0.12455416
0.046564996 -0.62199855 -0.13286448
0.070418239 -0.62137008 -0.13612998
0.094340399 -0.62173492 -0.13423431
0.11843954 -0.62302339 -0.12753916
0.022661474 -0.59847355 -0.13081586
0.046511225 -0.59680462 -0.13984895
0.11820392 -0.59766531 -0.13519049
0.022661474 -0.5745542 -0.13081586
0.046511225 -0.57295483 -0.13984895
0.11820392 -0.57377964 -0.13519061
0.022661474 -0.55063492 -0.13081586
0.046511225 -0.54910505 -0.13984907
0.11820392 -0.54989403 -0.13519073
0.022661474 -0.5267157 -0.13081598
0.046511225 -0.52525538 -0.13984883
0.11820392 -0.52600849 -0.13519049
0.022661474 -0.50382942 -0.12410581
0.046559401 -0.50236917 -0.1335907
0.070399225 -0.50178796 -0.13736522
0.094317168 -0.50211519 -0.13524008
0.11844106 -0.50330848 -0.12748933
0.022661474 -0.4788771 -0.13081586
0.046511225 -0.47755587 -0.13984895
0.11820443 -0.47823963 -0.13517416
0.022661474 -0.45495781 -0.13081586
0.046511225 -0.45370606 -0.13984907
0.11820443 -0.4543539 -0.13517416
0.022661474 -0.4310385 -0.13081586
0.046511225 -0.42985636 -0.13984907
0.11820392 -0.430466 -0.13519061
0.022661474 -0.40722308 -0.12997246
0.046521097 -0.40616459 -0.13856649
0.1182415 -0.40673071 -0.13397026
0.022661474 -0.38376209 -0.12594783
0.046546072 -0.38267952 -0.13532257
0.07037288 -0.38224614 -0.13907623
0.094274938 -0.38247788 -0.13706875
0.11837631 -0.38334125 -0.12959206
0.022661474 -0.35928062 -0.13081586
0.046511225 -0.35830712 -0.13984895
0.11820392 -0.35880917 -0.13519061
0.022661474 -0.33536139 -0.13081586
0.046511225 -0.33445734 -0.13984907
0.11820392 -0.33492351 -0.13519061
0.022661474 -0.31144211 -0.13081586
0.046511225 -0.31060755 -0.13984895
0.11820443 -0.31103945 -0.13517416
0.022661474 -0.28773147 -0.12835073
0.046532758 -0.28699473 -0.13705242
0.094235033 -0.28684691 -0.13879669
0.11829793 -0.28741074 -0.13213789
0.022661474 -0.26384294 -0.12770474
0.046533138 -0.26312709 -0.13700294
0.094234273 -0.26298654 -0.13882947
0.11831319 -0.26353988 -0.13164222
0.022661474 -0.23968534 -0.13079929
0.046511225 -0.23905829 -0.13984895
0.11820443 -0.23938218 -0.13517416
0.022661474 -0.21576485 -0.13081586
0.046511225 -0.21520859 -0.13984907
0.11820443 -0.21549647 -0.13517416
0.022661474 -0.1918456 -0.13081574
0.046511225 -0.19135879 -0.13984895
0.11820392 -0.19160984 -0.13519061
0.022661474 -0.16811593 -0.12671053
0.046544805 -0.16771047 -0.13548732
0.070374146 -0.16754863 -0.13899398
0.094273418 -0.16763447 -0.13713467
0.11835696 -0.16795379 -0.13022053
0.022661474 -0.14406042 -0.1294266
0.046520717 -0.14370677 -0.13861573
0.11825116 -0.14389759 -0.13365686
0.022661474 -0.12008774 -0.13081586
0.046511225 -0.11980961 -0.13984895
0.11820392 -0.11995304 -0.13519061
0.022661474 -0.096168444 -0.13081586
0.046511225 -0.095959812 -0.13984895
0.11820392 -0.096067443 -0.13519049
0.022661474 -0.072249129 -0.13081586
0.046511225 -0.072110072 -0.13984907
0.11820392 -0.072181754 -0.13519061
0.022661474 -0.048329882 -0.13081574
0.046511225 -0.048260272 -0.13984907
0.11820392 -0.048296116 -0.13519049
0.022661474 -0.024410579 -0.13081586
0.046511225 -0.024410579 -0.13984883
0.11820392 -0.024410527 -0.13519073
0.022661474 -0.00049127638 -0.13081586
0.046511225 -0.00056078099 -0.13984883
0.11820392 -0.00052493811 -0.13519061
0.022661474 0.023428079 -0.13081574
0.046511225 0.023288913 -0.13984895
0.11820392 0.023360699 -0.13519049
0.022661474 0.047347281 -0.13081586
0.046511225 0.04713871 -0.13984907
0.11820392 0.047246341 -0.13519061
0.022661474 0.071266577 -0.13081574
0.046511225 0.070988506 -0.13984895
0.11820392 0.07113187 -0.13519061
0.022661474 0.095185831 -0.13081586
0.046511225 0.094838157 -0.13984883
0.11820443 0.095018134 -0.13517416
0.022661474 0.11910515 -0.13081586
0.046511225 0.11868785 -0.13984883
0.11820443 0.11890389 -0.13517416
0.022661474 0.14302434 -0.13081586
0.046511225 0.14253774 -0.13984883
0.11820443 0.14278963 -0.13517416
0.022661474 0.16694374 -0.13081574
0.046511225 0.16638744 -0.13984907
0.11820443 0.16667539 -0.13517416
0.022661474 0.19086301 -0.13081586
0.046511225 0.19023713 -0.13984907
0.11820443 0.19056113 -0.13517416
0.022661474 0.21478236 -0.13081586
0.046511225 0.21408704 -0.13984907
0.11820443 0.21444686 -0.13517416
0.022661474 0.23870157 -0.13081586
0.046511225 0.23793669 -0.13984883
0.11820443 0.23833264 -0.13517416
0.022661474 0.26262096 -0.13081574
0.046511225 0.26178652 -0.13984883
0.11820443 0.26221839 -0.13517416
0.022661474 0.28654015 -0.13081586
0.046511225 0.28563628 -0.13984895
0.11820443 0.28610402 -0.13517416
0.022661474 0.31045949 -0.13081574
0.046511225 0.30948594 -0.13984907
0.11820443 0.30998978 -0.13517416
0.022661474 0.33437875 -0.13081586
0.046511225 0.33333585 -0.13984895
0.11820443 0.33387551 -0.13517416
0.022661474 0.358298 -0.13081586
0.046511225 0.35718545 -0.13984883
0.11820443 0.35776129 -0.13517416
0.022661474 0.38221735 -0.13081574
0.046511225 0.38103521 -0.13984883
0.11820443 0.38164699 -0.13517416
0.022661474 0.4061366 -0.13081586
0.046511225 0.40488505 -0.13984883
0.11820443 0.40553284 -0.13517416
0.022661474 0.43005598 -0.13081563
0.046511225 0.42873484 -0.13984895
0.11820443 0.42941853 -0.13517416
0.022661474 0.45487279 -0.12498581
0.046549752 0.45335501 -0.13484442
0.070377439 0.45274907 -0.13878024
0.094284073 0.45307347 -0.13667357
0.11840487 0.4543063 -0.12866521
0.046713725 -0.69787365 -0.11354375
0.070718661 -0.69721127 -0.11661673
0.094815522 -0.69784838 -0.11366081
0.022661474 -0.67332149 -0.11594903
0.11874042 -0.67294359 -0.11776721
-0.001401335 -0.65004355 -0.11217248
0.14281987 -0.64923418 -0.11621618
-0.0014071297 -0.62612575 -0.11141944
0.14288799 -0.62554312 -0.11444616
-0.0013662241 -0.60107535 -0.11673331
0.142607 -0.60014904 -0.12174666
-0.0013663527 -0.57705057 -0.11671674
0.142607 -0.57615995 -0.12174666
-0.0013663527 -0.55302274 -0.11671674
0.14260636 -0.55216807 -0.12176323
-0.0013664812 -0.52899754 -0.11670005
0.14260636 -0.52817917 -0.12176311
-0.0014214423 -0.50606889 -0.10956025
0.14297743 -0.50567436 -0.1121223
-0.0013663527 -0.48093924 -0.11671662
0.14260636 -0.48020113 -0.12176323
-0.0013663527 -0.45691147 -0.11671662
0.14260636 -0.45621216 -0.12176311
-0.0013663527 -0.43288359 -0.11671662
0.14260636 -0.43222311 -0.12176311
-0.0013678949 -0.40888038 -0.11651647
0.14262813 -0.4083038 -0.1211977
-0.0014094505 -0.38547444 -0.11111808
0.14288349 -0.38507664 -0.11456323
-0.0013663527 -0.36080012 -0.11671674
0.14260636 -0.36025617 -0.12176335
-0.0013663527 -0.33677226 -0.11671662
0.14260636 -0.33626729 -0.12176311
-0.0013663527 -0.31274444 -0.11671662
0.14260636 -0.31227833 -0.12176335
-0.0013819002 -0.28888774 -0.11469674
0.14271526 -0.28852889 -0.11893368
-0.0013939943 -0.26496521 -0.1131258
0.14278263 -0.26465288 -0.11718369
-0.0013663527 -0.24066101 -0.11671662
0.14260636 -0.24031129 -0.12176335
-0.0013664812 -0.21663418 -0.11669993
0.14260636 -0.21632239 -0.12176311
-0.0013664812 -0.19260617 -0.11669993
0.14260636 -0.19233333 -0.12176323
-0.0013963133 -0.16875714 -0.11282492
0.14280766 -0.16858603 -0.11653304
-0.0013788156 -0.14461206 -0.11509752
0.14268515 -0.14443429 -0.11971653
-0.0013663527 -0.12052189 -0.11671662
0.14260636 -0.12036648 -0.12176299
-0.0013663527 -0.096494079 -0.11671662
0.14260636 -0.096377522 -0.12176323
-0.0013663527 -0.07246621 -0.11671662
0.14260636 -0.072388455 -0.12176335
-0.0013663527 -0.048438393 -0.11671662
0.14260636 -0.048399545 -0.12176311
-0.0013663527 -0.024410579 -0.1167165
0.14260636 -0.024410527 -0.12176323
-0.0013663527 -0.00038276426 -0.1167165
0.14260636 -0.00042166561 -0.12176311
-0.0013663527 0.023645051 -0.1167165
0.14260636 0.023567453 -0.12176311
-0.0013663527 0.047672864 -0.1167165
0.14260636 0.047556419 -0.12176323
-0.0013663527 0.071700677 -0.1167165
0.14260636 0.071545273 -0.12176311
-0.0013663527 0.09572871 -0.11671662
0.14260636 0.095534354 -0.12176323
-0.0013663527 0.11975642 -0.11671674
0.14260636 0.11952326 -0.12176311
-0.0013663527 0.14378424 -0.11671674
0.14260636 0.14351228 -0.12176311
-0.0013663527 0.16781209 -0.11671662
0.14260636 0.1675013 -0.12176323
-0.0013663527 0.19183992 -0.11671674
0.14260636 0.19149017 -0.12176311
-0.0013663527 0.21586779 -0.11671662
0.14260636 0.21547937 -0.12176311
-0.0013663527 0.23989554 -0.11671662
0.14260636 0.23946823 -0.12176311
-0.0013663527 0.26392344 -0.11671662
0.14260636 0.26345718 -0.12176311
-0.0013663527 0.2879512 -0.11671662
0.14260636 0.2874462 -0.12176323
-0.0013663527 0.31197897 -0.11671674
0.14260636 0.31143513 -0.12176311
-0.0013663527 0.33600688 -0.11671662
0.14260636 0.33542404 -0.12176323
-0.0013663527 0.36003464 -0.11671662
0.14260636 0.359413 -0.12176311
-0.0013663527 0.38406253 -0.11671662
0.14260636 0.38340211 -0.12176311
-0.0013663527 0.40809035 -0.11671662
0.14260636 0.40739107 -0.12176311
-0.0013663527 0.43211821 -0.11671662
0.14260636 0.43138003 -0.12176311
-0.0014224742 0.45726839 -0.10942614
0.14296456 0.4568018 -0.1124568
0.046678517 0.47994745 -0.11811733
0.070645317 0.47941989 -0.12138069
0.094701439 0.47986919 -0.11860049
0.022661474 0.48149592 -0.10853755
0.11901534 0.48144716 -0.10883939
0.04690164 -0.75161564 -0.089132786
0.071111768 -0.75116485 -0.091084242
0.022661474 -0.72670144 -0.092152119
0.046807252 -0.72463822 -0.1013943
0.070914418 -0.72407824 -0.10390222
0.095130339 -0.7249428 -0.10002899
0.11964253 -0.72752327 -0.088470697
-0.0015849676 -0.70331091 -0.088317633
0.022661474 -0.69991183 -0.10408747
0.11918083 -0.70004606 -0.10346496
-0.0014928672 -0.67657781 -0.10028195
0.14344876 -0.67666191 -0.099877357
-0.025718167 -0.653346 -0.095672846
-0.025690071 -0.62880486 -0.09749794
0.16804916 -0.63019264 -0.090286851
-0.02563994 -0.60402757 -0.1007539
0.1678848 -0.60530382 -0.093845844
-0.025624376 -0.57969785 -0.1017648
0.16777152 -0.58066571 -0.096298337
-0.025624637 -0.55555779 -0.10174799
0.16777152 -0.55648071 -0.096298337
-0.025624637 -0.53141469 -0.10174799
0.16777152 -0.53229564 -0.096298218
-0.025721811 -0.5082435 -0.095436096
-0.025624637 -0.48312867 -0.10174811
0.16777152 -0.4839257 -0.096298337
0.16777152 -0.45974067 -0.096298218
-0.025624637 -0.45898554 -0.10174799
-0.025624637 -0.43484247 -0.10174799
0.16777152 -0.43555564 -0.096298456
-0.025624637 -0.41069946 -0.10174799
0.16777074 -0.41136846 -0.096315384
-0.025722332 -0.38728923 -0.095402241
-0.025624637 -0.36241332 -0.10174799
0.16777152 -0.36300054 -0.096298337
-0.025624637 -0.33827025 -0.10174799
0.16777152 -0.33881563 -0.096298337
-0.025624637 -0.31412721 -0.10174799
0.16777152 -0.31463063 -0.096298218
-0.025647983 -0.2901125 -0.10023153
0.16786994 -0.29062614 -0.094167352
-0.025687471 -0.2661553 -0.09766674
0.16809464 -0.26679921 -0.08930254
-0.025624637 -0.2416981 -0.10174799
0.16777152 -0.24207567 -0.096298337
-0.025624637 -0.21755497 -0.10174799
0.16777152 -0.21789062 -0.096298337
-0.025624637 -0.1934119 -0.10174799
0.16777152 -0.19370559 -0.096298456
-0.025680453 -0.16943632 -0.098122716
0.16803116 -0.16978033 -0.090677023
-0.025653437 -0.14519782 -0.099877357
0.16791998 -0.14545925 -0.093083858
-0.025624637 -0.12098275 -0.10174799
0.16777152 -0.12115051 -0.096298456
-0.025624637 -0.096839637 -0.10174799
0.16777152 -0.096965566 -0.096298337
-0.025624637 -0.072696716 -0.10174799
0.16777152 -0.072780594 -0.096298337
-0.025624637 -0.048553597 -0.10174799
0.16777152 -0.048595507 -0.096298456
-0.025624637 -0.024410527 -0.10174799
0.16777152 -0.024410579 -0.096298337
-0.025624637 -0.00026740506 -0.10174799
0.16777152 -0.00022554584 -0.096298337
-0.025624637 0.023875508 -0.10174799
0.16777152 0.023959436 -0.096298099
-0.025624637 0.048018631 -0.10174799
0.16777152 0.048144516 -0.096298337
-0.025624637 0.072161704 -0.10174799
0.16777152 0.072329447 -0.096298337
-0.025624637 0.096304774 -0.10174787
0.16777152 0.096514374 -0.096298337
-0.025624637 0.12044784 -0.10174787
0.16777152 0.12069947 -0.096298575
-0.025624637 0.14459075 -0.10174799
0.16777152 0.1448845 -0.096298337
-0.025624637 0.16873382 -0.10174799
0.16777152 0.16906948 -0.096298337
-0.025624637 0.19287695 -0.10174799
0.16777152 0.19325462 -0.096298337
-0.025624637 0.21701996 -0.10174799
0.16777152 0.21743955 -0.096298337
-0.025624637 0.24116309 -0.10174787
0.16777152 0.24162452 -0.096298218
-0.025624637 0.26530614 -0.10174787
0.16777152 0.26580948 -0.096298575
-0.025624637 0.28944921 -0.10174787
0.16777152 0.28999448 -0.096298337
-0.025624637 0.31359214 -0.10174799
0.16777152 0.31417951 -0.096298337
-0.025624637 0.33773521 -0.10174799
0.16777152 0.33836448 -0.096298218
-0.025624637 0.36187831 -0.10174799
0.16777152 0.36254963 -0.096298337
-0.025624637 0.38602138 -0.10174799
0.16777074 0.38673237 -0.096315265
-0.025624637 0.41016442 -0.10174787
0.16777074 0.41091725 -0.096315384
-0.025624637 0.43430758 -0.10174787
0.16777074 0.43510208 -0.096315384
-0.025761157 0.45981586 -0.092880607
-0.001550233 0.48403531 -0.092829704
0.14384598 0.4845643 -0.08955729
0.022661474 0.50840199 -0.091914892
0.046808679 0.50682801 -0.10120881
0.070917517 0.50640595 -0.1037004
0.095135003 0.5070622 -0.099826694
0.1196509 0.50903124 -0.0881989
0.022661474 -0.7536996 -0.080108404
0.095448688 -0.7522828 -0.086243868
-0.001677908 -0.73025268 -0.076244593
-0.026089337 -0.70692194 -0.071564674
0.14410196 -0.70447725 -0.082906365
-0.025902916 -0.68002981 -0.083673358
-0.050292674 -0.65667993 -0.079015255
0.16830115 -0.65551573 -0.084831476
-0.050190222 -0.63150799 -0.083451867
-0.050167013 -0.60703838 -0.084456921
-0.074844912 -0.58507234 -0.071410179
-0.050116312 -0.58237356 -0.08665204
-0.074845448 -0.56069857 -0.071392894
-0.050116312 -0.55811435 -0.086651921
-0.074845448 -0.53632188 -0.071392894
-0.050116707 -0.53385788 -0.086634994
-0.050242599 -0.51043767 -0.08118391
0.16820215 -0.50954604 -0.086975098
-0.074864477 -0.48765886 -0.070774674
-0.050116312 -0.4853366 -0.08665216
-0.074844912 -0.46318927 -0.071410179
-0.050116312 -0.46107733 -0.08665204
-0.074844912 -0.43881261 -0.071410179
-0.050116312 -0.43681797 -0.08665216
-0.074844912 -0.41443616 -0.071410179
-0.050116312 -0.41255879 -0.08665204
-0.050280843 -0.38912219 -0.079527736
0.16827756 -0.38845077 -0.085342169
-0.074844912 -0.3656829 -0.071410179
-0.050116312 -0.36404032 -0.08665204
-0.074844912 -0.34130621 -0.071410179
-0.050116312 -0.33978096 -0.08665216
-0.074844912 -0.31692976 -0.07141006
-0.050116312 -0.31552169 -0.08665204
-0.074861303 -0.29259825 -0.070877671
-0.050139885 -0.29134884 -0.085631371
-0.05022211 -0.26735577 -0.082071066
-0.074844912 -0.24379991 -0.071410179
-0.050116312 -0.24274406 -0.08665204
-0.074845448 -0.21942438 -0.071392894
-0.050116312 -0.21848464 -0.08665216
-0.074845448 -0.19504762 -0.071393013
-0.050116707 -0.19422637 -0.086634994
-0.050193761 -0.17012106 -0.083298445
-0.050165828 -0.1457894 -0.084508061
-0.074844912 -0.12191693 -0.071410179
-0.050116312 -0.12144761 -0.08665216
-0.074844912 -0.097540349 -0.071409941
-0.050116312 -0.097188398 -0.08665204
-0.074844912 -0.073163807 -0.07141006
-0.050116312 -0.07292904 -0.08665216
-0.074844912 -0.048787169 -0.07141006
-0.050116312 -0.04866989 -0.08665204
-0.074844912 -0.024410527 -0.07141006
-0.050116312 -0.024410475 -0.08665204
-0.074844912 -3.3887103e-05 -0.071410179
-0.050116312 -0.00015132129 -0.08665204
-0.074844912 0.024342597 -0.07141006
-0.050116312 0.024108041 -0.08665216
-0.074844912 0.048719186 -0.071410179
-0.050116312 0.048367251 -0.08665204
-0.074844912 0.073095873 -0.071410179
-0.050116312 0.072626501 -0.08665216
-0.050116312 0.096885666 -0.08665216
-0.074844912 0.097472414 -0.071410179
-0.074844912 0.121849 -0.071409941
-0.050116312 0.12114502 -0.08665204
-0.074844912 0.14622559 -0.07141006
-0.050116312 0.14540428 -0.08665216
-0.074844912 0.17060213 -0.071410179
-0.050116312 0.16966344 -0.08665204
-0.074844912 0.19497892 -0.071410179
-0.050116312 0.19392291 -0.08665204
-0.050116312 0.21818206 -0.08665204
-0.074844912 0.21935546 -0.071410179
-0.074844912 0.24373193 -0.07141006
-0.050116312 0.24244131 -0.08665216
-0.074844912 0.26810861 -0.071409941
-0.050116312 0.26670066 -0.08665204
-0.074844912 0.29248515 -0.071410179
-0.050116312 0.29095992 -0.08665216
-0.074844912 0.31686175 -0.071410179
-0.050116312 0.31521907 -0.08665204
-0.050116312 0.33947834 -0.08665216
-0.074844912 0.34123832 -0.071409941
-0.074844912 0.36561498 -0.07141006
-0.050116312 0.3637377 -0.08665204
-0.074844912 0.38999167 -0.07141006
-0.050116312 0.38799694 -0.08665216
-0.074844912 0.41436818 -0.071410179
-0.050116312 0.41225612 -0.08665204
-0.074844912 0.43874469 -0.07141006
-0.050116312 0.43651557 -0.08665216
-0.050358642 0.4623903 -0.076159
0.16852954 0.46181637 -0.079886556
-0.026019394 0.48673856 -0.07610774
-0.0016793553 0.51108766 -0.076056242
0.022661474 0.53559828 -0.075097322
0.04694026 0.53400141 -0.08411622
0.071192831 0.53370011 -0.085818529
0.095579743 0.53462946 -0.080569386
-0.026276935 -0.73401743 -0.059379935
0.14481004 -0.73287225 -0.064509988
-0.050855372 -0.71056789 -0.05464983
-0.050573144 -0.68352211 -0.066870689
0.16933779 -0.68445408 -0.062387347
-0.075129643 -0.66005284 -0.062162876
-0.099853933 -0.63698757 -0.054979324
-0.074909985 -0.63423222 -0.069296718
-0.07495077 -0.61008412 -0.067972302
-0.099813864 -0.58779716 -0.056020021
0.19421576 -0.58808899 -0.054372072
-0.099814549 -0.56330508 -0.056002498
0.19421576 -0.56358111 -0.054372191
-0.099814549 -0.53880978 -0.056002736
0.19421576 -0.53907335 -0.054372191
-0.074987337 -0.5126546 -0.066784739
-0.099875957 -0.49005285 -0.054406762
-0.099814549 -0.46532413 -0.056002736
0.19421576 -0.46555018 -0.054372191
-0.099814549 -0.44082901 -0.056002617
0.19421576 -0.44104233 -0.054371953
-0.099814549 -0.41633382 -0.056002498
0.19421576 -0.41653463 -0.054371953
-0.075065345 -0.39088607 -0.064251304
-0.099814549 -0.3673434 -0.056002617
0.19421576 -0.36751923 -0.054372072
-0.099814549 -0.34284821 -0.056002498
0.19421576 -0.34301138 -0.054372191
-0.099814549 -0.31835297 -0.056002736
0.19421576 -0.31850353 -0.054372072
-0.099814549 -0.29385778 -0.056002736
0.19421576 -0.29399586 -0.054372191
-0.075002179 -0.26856968 -0.066302299
-0.099814549 -0.24486734 -0.056002736
0.19421576 -0.24498032 -0.054372191
-0.099814549 -0.22037223 -0.056002736
0.19421576 -0.22047265 -0.054372191
-0.099814549 -0.19587697 -0.056002617
0.19421576 -0.19596484 -0.054371953
-0.099922076 -0.1715108 -0.053208828
-0.074939638 -0.17081222 -0.068333626
-0.099917382 -0.14698945 -0.053330421
-0.074918985 -0.14638616 -0.069004416
-0.099814549 -0.12239133 -0.056002617
0.19421576 -0.12244155 -0.054372191
-0.099814549 -0.097896218 -0.056002498
0.19421576 -0.097933829 -0.054372191
-0.099814549 -0.0734009 -0.056002617
0.19421576 -0.073426008 -0.054372072
-0.099814549 -0.048905794 -0.056002736
0.19421576 -0.048918292 -0.054372072
-0.099814549 -0.024410579 -0.056002498
0.19421576 -0.024410579 -0.054372072
-0.099814549 8.4739178e-05 -0.056002736
0.19421576 9.7185373e-05 -0.054372072
-0.099814549 0.024579849 -0.056002736
0.19421576 0.02460485 -0.054372072
-0.099814549 0.049074959 -0.056002617
0.19421576 0.049112666 -0.054371953
-0.099814549 0.073570326 -0.056002736
0.19421576 0.073620439 -0.054372191
-0.099814549 0.09806554 -0.056002498
0.19421576 0.098128155 -0.054372191
-0.099814549 0.12256061 -0.056002617
0.19421576 0.12263608 -0.054372191
-0.099814549 0.14705597 -0.056002736
0.19421576 0.1471438 -0.054371953
-0.099814549 0.17155102 -0.056002736
0.19421576 0.17165151 -0.054371953
-0.099814549 0.19604625 -0.056002617
0.19421576 0.19615927 -0.054371953
-0.099814549 0.22054151 -0.056002498
0.19421576 0.22066693 -0.054371953
-0.099814549 0.24503662 -0.056002736
0.19421576 0.24517469 -0.054372072
-0.099814549 0.26953188 -0.056002736
0.19421576 0.2696825 -0.054372191
-0.099814549 0.29402715 -0.056002498
0.19421576 0.29419023 -0.054372191
-0.099814549 0.31852224 -0.056002736
0.19421576 0.31869799 -0.054372191
-0.099814549 0.34301752 -0.056002498
0.19421576 0.34320566 -0.054372191
-0.099814549 0.36751273 -0.056002498
0.19421576 0.36771357 -0.054371953
-0.099814549 0.39200783 -0.056002736
0.19421576 0.39222133 -0.054371953
-0.099814549 0.4165031 -0.056002617
0.19421576 0.416729 -0.054371953
-0.099814549 0.44099823 -0.056002617
0.19421576 0.4412367 -0.054371953
-0.07521908 0.46499217 -0.059258699
-0.05075014 0.48947066 -0.059206843
-0.026280399 0.51395011 -0.059154987
0.14482863 0.51312494 -0.064026952
-0.0018098634 0.53843015 -0.059103131
0.12031452 0.53709453 -0.066646814
0.022661474 0.56308371 -0.058116555
0.047073279 0.56147265 -0.066836238
0.071471304 0.56130737 -0.06773138
0.096033141 0.56256282 -0.060935974
-0.0511402 -0.7378267 -0.042316675
-0.075887978 -0.7142567 -0.037535667
0.17040792 -0.71389395 -0.039218664
-0.075507075 -0.68704832 -0.049905539
-0.10023236 -0.66345853 -0.045147181
-0.12503158 -0.63979822 -0.040374517
0.19429998 -0.63740516 -0.052809358
-0.099994317 -0.61315835 -0.051332116
0.19469216 -0.61423004 -0.045531034
-0.12502752 -0.59055167 -0.040462017
-0.12502752 -0.56593698 -0.040462017
-0.12502833 -0.54132485 -0.040444613
-0.12515864 -0.51714426 -0.037623286
-0.099958181 -0.51488924 -0.052270651
0.19453995 -0.51549196 -0.048355818
-0.1251473 -0.49247167 -0.037868977
0.19438145 -0.49050766 -0.051297307
-0.12502752 -0.46747756 -0.040462017
-0.12502752 -0.44286278 -0.040462017
-0.12502752 -0.41824791 -0.040462136
-0.10006396 -0.39258683 -0.049522638
0.19479284 -0.39326352 -0.043662667
-0.12502752 -0.36901817 -0.040462136
-0.12502752 -0.34440342 -0.040462017
-0.12502752 -0.31978855 -0.040462136
-0.12502752 -0.29517373 -0.040461898
-0.10003112 -0.26979578 -0.050375342
0.19475801 -0.27026281 -0.04430902
-0.12502752 -0.24594405 -0.040462136
-0.12502752 -0.2213293 -0.040462017
-0.12502833 -0.19671534 -0.040444732
-0.12514324 -0.17221525 -0.037956595
0.19446957 -0.17167471 -0.049661756
-0.12516432 -0.14759877 -0.03750062
0.19447051 -0.14713126 -0.049644351
-0.12502752 -0.12286994 -0.040462017
-0.12502752 -0.098255053 -0.040462136
-0.12502752 -0.073640227 -0.040462017
-0.12502752 -0.049025301 -0.040462136
-0.12502752 -0.024410579 -0.040462136
-0.12502752 0.00020419434 -0.040462017
-0.12502752 0.024819177 -0.040462017
-0.12502752 0.04943395 -0.040461898
-0.12502752 0.074048832 -0.040462136
-0.12502752 0.098663554 -0.040461898
-0.12502752 0.12327844 -0.040462136
-0.12502752 0.14789321 -0.040462136
-0.12502752 0.17250824 -0.040462136
-0.12502752 0.19712301 -0.040461898
-0.12502752 0.22173779 -0.040461898
-0.12502752 0.24635266 -0.040462136
-0.12502752 0.27096742 -0.040462017
-0.12502752 0.29558229 -0.040462136
-0.12502752 0.32019708 -0.040462017
-0.12502752 0.34481189 -0.040462136
-0.12502752 0.36942667 -0.040462136
-0.12502752 0.39404172 -0.040462136
-0.12502752 0.41865647 -0.040461898
-0.12502752 0.44327131 -0.040461898
-0.10034668 0.46762201 -0.042176723
-0.07574667 0.49223214 -0.04212451
0.17001083 0.49131209 -0.047815561
-0.051145855 0.51684308 -0.042071819
-0.026544217 0.54145491 -0.042019486
-0.0019417759 0.56606734 -0.041967034
0.12102817 0.5657897 -0.043470502
0.022661474 0.59086609 -0.040952206
0.047210179 0.58930701 -0.049052358
0.071761295 0.58933723 -0.048895717
0.096511632 0.59100747 -0.040217042
-0.076271296 -0.74167305 -0.025087237
-0.10119049 -0.71798164 -0.020254254
-0.10070992 -0.69061607 -0.032740235
-0.12560633 -0.66690445 -0.027930379
0.19533782 -0.66577983 -0.033549309
-0.15057759 -0.64312154 -0.023106098
-0.12530217 -0.61626518 -0.034515977
-0.150488 -0.59333026 -0.024768829
-0.15048894 -0.56859756 -0.024751306
-0.15048894 -0.54386181 -0.024751186
-0.15059286 -0.51942289 -0.022823095
-0.15068257 -0.49491575 -0.021158218
-0.15048894 -0.46965465 -0.024751186
-0.15048894 -0.44491884 -0.024751186
-0.15048894 -0.42018303 -0.024751306
-0.15076567 -0.39604014 -0.019615889
-0.12529647 -0.39430538 -0.03463912
-0.15049182 -0.3707172 -0.024698138
-0.15048894 -0.34597567 -0.024751306
-0.15048894 -0.32123983 -0.024751186
-0.150488 -0.29650259 -0.024768949
-0.12531272 -0.27103427 -0.034287691
-0.15048894 -0.24703245 -0.024751425
-0.15048894 -0.22229676 -0.024751186
-0.15048894 -0.19756098 -0.024751067
-0.15060812 -0.17292738 -0.022539854
-0.15066348 -0.1482141 -0.021512508
-0.15048894 -0.12335362 -0.024751186
-0.15048894 -0.098617837 -0.024751186
-0.15048894 -0.073882103 -0.024751306
-0.15048894 -0.049146313 -0.024751425
-0.15048894 -0.024410527 -0.024751425
-0.15048894 0.00032525882 -0.024751425
-0.15048894 0.025060941 -0.024751186
-0.15048894 0.049796727 -0.024751186
-0.15048894 0.074532509 -0.024751186
-0.15048894 0.099268302 -0.024751186
-0.15048894 0.1240041 -0.024751186
-0.15048894 0.14873987 -0.024751186
-0.15048894 0.17347567 -0.024751186
-0.15048894 0.19821151 -0.024751306
-0.15048894 0.22294728 -0.024751306
-0.15048894 0.24768306 -0.024751306
-0.15048894 0.27241874 -0.024751186
-0.15048894 0.29715449 -0.024751186
-0.15048894 0.32189032 -0.024751186
-0.15048894 0.34662604 -0.024751186
-0.15048894 0.37136188 -0.024751186
-0.150488 0.39609528 -0.024769068
-0.150488 0.42083091 -0.024768829
-0.150488 0.44556653 -0.024769068
-0.12574583 0.47028038 -0.024910331
0.19564441 0.46982628 -0.027859807
-0.10101332 0.49502349 -0.024857402
-0.076279998 0.5197674 -0.024804235
-0.051545855 0.54451227 -0.024751186
0.14594084 0.5426746 -0.035130978
-0.026810896 0.56925786 -0.024698257
-0.002074983 0.59400082 -0.024662852
0.022661474 0.61895674 -0.023566365
0.047348894 0.6174624 -0.031032801
0.072055571 0.61771286 -0.029782176
0.097008288 0.61992854 -0.01871109
-0.10167484 -0.74556106 -0.0076707602
0.17149377 -0.74376667 -0.015709281
-0.12676856 -0.7217508 -0.0027673244
-0.12618478 -0.6942187 -0.015407085
0.19660915 -0.69535154 -0.0099562407
-0.15125448 -0.67038405 -0.010545015
-0.17639993 -0.64647752 -0.0056681633
0.22181438 -0.64676338 -0.0041825771
-0.17662273 -0.62226313 -0.0020503998
-0.15087853 -0.61940491 -0.01752162
-0.1762007 -0.59613937 -0.0089031458
0.22145334 -0.59593713 -0.010045528
-0.1762007 -0.57128161 -0.0089031458
0.22145334 -0.57108814 -0.010045409
-0.1762007 -0.54642373 -0.0089031458
0.22145334 -0.5462392 -0.010045409
-0.1762623 -0.52171999 -0.0079029799
0.22156107 -0.52165949 -0.0082961321
-0.17648481 -0.497383 -0.0042901039
0.22196114 -0.49774733 -0.001799345
-0.1762007 -0.47185045 -0.0089030266
0.22145334 -0.47169217 -0.010045409
-0.1762007 -0.44699273 -0.0089030266
0.22145334 -0.44684324 -0.010045409
-0.1762007 -0.422135 -0.0089030266
0.22145334 -0.42199427 -0.010045409
-0.17647378 -0.39778912 -0.0044691563
0.22191699 -0.39801469 -0.0025165081
-0.17624912 -0.37250403 -0.0081173182
0.22153357 -0.37243679 -0.0087423325
-0.1762007 -0.34756169 -0.0089031458
0.22145334 -0.34744731 -0.010045409
-0.1762007 -0.32270396 -0.0089031458
0.22145334 -0.32259828 -0.010045409
-0.1762007 -0.29784611 -0.0089030266
0.22145334 -0.29774931 -0.010045409
-0.17664924 -0.27354893 -0.001619935
-0.15085077 -0.27228528 -0.018036485
-0.1762007 -0.24813057 -0.0089030266
0.22145334 -0.24805148 -0.010045409
-0.1762007 -0.22327274 -0.0089030266
0.22145334 -0.22320236 -0.010045409
-0.17620182 -0.19841585 -0.0088853836
0.22145334 -0.19835334 -0.010045409
-0.17631845 -0.17364551 -0.0069916248
0.22165792 -0.17365795 -0.0067234039
-0.17641757 -0.14883499 -0.0053819418
0.22183314 -0.14889286 -0.0038781166
-0.1762007 -0.12384172 -0.0089030266
0.22145334 -0.12380639 -0.010045409
-0.1762007 -0.098983988 -0.0089030266
0.22145334 -0.098957419 -0.010045528
-0.1762007 -0.074126147 -0.0089030266
0.22145334 -0.074108563 -0.010045409
-0.1762007 -0.049268365 -0.0089030266
0.22145334 -0.049259596 -0.010045409
-0.1762007 -0.024410527 -0.008903265
0.22145334 -0.024410579 -0.010045409
-0.1762007 0.00044730864 -0.0089031458
0.22145334 0.00043854304 -0.010045409
-0.1762007 0.02530504 -0.0089031458
0.22145334 0.025287353 -0.01004529
-0.1762007 0.050162774 -0.008903265
0.22145334 0.050136473 -0.010045409
-0.1762007 0.075020552 -0.008903265
0.22145334 0.074985489 -0.010045409
-0.1762007 0.099878296 -0.0089031458
0.22145334 0.099834412 -0.010045409
-0.1762007 0.12473623 -0.0089030266
0.22145334 0.12468332 -0.01004529
-0.1762007 0.14959392 -0.0089030266
0.22145334 0.14953229 -0.010045409
-0.1762007 0.17445165 -0.0089030266
0.22145334 0.17438132 -0.010045409
-0.1762007 0.19930942 -0.0089031458
0.22145334 0.19923033 -0.010045409
-0.1762007 0.22416717 -0.0089031458
0.22145334 0.22407913 -0.010045409
-0.1762007 0.24902488 -0.008903265
0.22145334 0.24892814 -0.010045409
-0.1762007 0.27388281 -0.0089030266
0.22145334 0.27377716 -0.010045409
-0.1762007 0.29874057 -0.0089030266
0.22145334 0.29862633 -0.010045409
-0.1762007 0.3235983 -0.0089030266
0.22145334 0.32347524 -0.010045409
-0.1762007 0.34845603 -0.0089030266
0.22145334 0.34832412 -0.010045409
-0.1762007 0.37331384 -0.0089030266
0.22145334 0.37317312 -0.010045409
-0.1762007 0.39817157 -0.0089030266
0.22145334 0.39802215 -0.010045409
-0.1762007 0.4230293 -0.0089031458
0.22145334 0.42287102 -0.010045409
-0.17628762 0.44809371 -0.0074920654
0.22159956 0.44806746 -0.0076706409
-0.15142187 0.47297043 -0.007438302
-0.12655447 0.49784529 -0.0074025393
-0.10168721 0.52272362 -0.0073490143
0.17152333 0.52141625 -0.015069008
-0.076819122 0.54760289 -0.0072953701
-0.05195022 0.57248288 -0.0072418451
0.1472079 0.57341218 -0.0022116899
-0.02708048 0.59736371 -0.0071880817
0.12180805 0.59525567 -0.018143177
-0.0022097807 0.62224203 -0.0071525574
0.022661474 0.64738071 -0.0058649778
0.047489323 0.64594132 -0.012790799
0.07235834 0.64649695 -0.010116816
-0.12735614 -0.74949569 0.009953618
-0.15262519 -0.72555721 0.014892459
0.19790033 -0.72536606 0.014005065
-0.15193763 -0.69786423 0.0021327734
-0.17718306 -0.67390537 0.00704813
-0.20250517 -0.64987344 0.011977911
-0.20256534 -0.62501544 0.01284647
0.22215462 -0.62289006 0.0013420582
-0.20216738 -0.59897321 0.0071020126
-0.20216861 -0.57399517 0.0071200132
-0.20216861 -0.54901415 0.0071201324
-0.2021711 -0.52403855 0.0071561337
-0.20256034 -0.49987888 0.012773991
-0.20216861 -0.47407079 0.0071200132
-0.20216861 -0.44908971 0.0071202517
-0.20216738 -0.42410624 0.0071020126
-0.20242628 -0.39955685 0.010838985
-0.20227484 -0.37431163 0.0086536407
-0.20216861 -0.34916514 0.0071201324
-0.20216861 -0.32418406 0.0071201324
-0.20216738 -0.29920131 0.0071021318
-0.20268953 -0.2748006 0.01463902
0.22224429 -0.27388909 0.0027981997
-0.20216738 -0.2492394 0.0071021318
-0.20216861 -0.22425947 0.0071200132
-0.20216861 -0.19927838 0.0071202517
-0.20227985 -0.17437148 0.0087257624
-0.20243253 -0.14946286 0.010929465
-0.20216861 -0.12433505 0.0071201324
-0.20216861 -0.099353865 0.0071201324
-0.20216861 -0.074372843 0.0071201324
-0.20216861 -0.049391657 0.0071201324
-0.20216861 -0.024410579 0.0071201324
-0.20216861 0.00057065487 0.0071201324
-0.20216861 0.025551733 0.0071202517
-0.20216861 0.050532918 0.0071202517
-0.20216861 0.075513884 0.007119894
-0.20216861 0.10049497 0.0071201324
-0.20216861 0.12547615 0.0071201324
-0.20216861 0.15045723 0.0071201324
-0.20216861 0.17543842 0.0071201324
-0.20216861 0.2004196 0.0071201324
-0.20216861 0.22540067 0.0071201324
-0.20216861 0.25038168 0.0071201324
-0.20216738 0.27536133 0.0071021318
-0.20216738 0.3003422 0.0071021318
-0.20216738 0.32532305 0.0071021318
-0.20216738 0.35030425 0.0071021318
-0.20216738 0.37528512 0.0071021318
-0.20216738 0.40026608 0.0071021318
-0.20216738 0.42524716 0.0071022511
-0.20237869 0.45067418 0.010152459
-0.17737755 0.47568697 0.010206461
-0.15237463 0.50069773 0.010242701
0.19743124 0.49989885 0.0052999258
-0.12737198 0.52571225 0.010296822
-0.10236849 0.55072725 0.010351181
-0.077364162 0.57574338 0.010405302
-0.052359011 0.6007601 0.010459542
-0.027352739 0.6257742 0.010495663
0.1227027 0.62585747 0.010911226
-0.00234605 0.65079266 0.010549784
0.097532451 0.64942837 0.0039855242
0.022661474 0.67611957 0.012032151
0.047631357 0.67474622 0.0056601763
0.072671518 0.67572999 0.0102247
-0.1533182 -0.75346929 0.027753115
-0.17876564 -0.72940558 0.032746315
-0.17797124 -0.70154595 0.019846439
-0.20339459 -0.67746133 0.024815559
0.22329532 -0.67647052 0.019864559
-0.2288956 -0.65330327 0.029799819
-0.22875071 -0.62779981 0.027917385
-0.22842354 -0.60190618 0.023667455
-0.22839412 -0.57673293 0.023284793
-0.22839412 -0.55162722 0.023284912
-0.22839412 -0.52652168 0.023284912
-0.2289111 -0.50239843 0.030000806
-0.22839412 -0.47631058 0.023284793
-0.22839412 -0.4512051 0.023284912
-0.22839412 -0.42609951 0.023284912
-0.22862566 -0.40134132 0.026292801
-0.22857228 -0.37613785 0.025599599
-0.22839412 -0.3507829 0.023284793
-0.22839412 -0.32567722 0.023284912
-0.22839412 -0.30057165 0.023284912
-0.22893646 -0.27600849 0.030330062
-0.22839412 -0.25036058 0.023284793
-0.22839412 -0.22525504 0.023284912
-0.22839412 -0.20014954 0.023285031
-0.22849369 -0.17510362 0.024578452
-0.22870994 -0.1500963 0.027387857
-0.22839412 -0.12483284 0.023284793
-0.22839412 -0.099727169 0.023284912
-0.22839412 -0.074621603 0.023284912
-0.22839412 -0.049516041 0.023284793
-0.22839412 -0.024410527 0.023284793
-0.22839412 0.0006949883 0.023285031
-0.22839412 0.0258005 0.023285031
-0.22839412 0.050906066 0.023285031
-0.22839412 0.076011628 0.023285031
-0.22839412 0.10111721 0.023284793
-0.22839412 0.12622271 0.023284912
-0.22839412 0.15132834 0.023284912
-0.22839412 0.17643392 0.023284793
-0.22839412 0.20153941 0.023284793
-0.22839412 0.22664519 0.023284912
-0.22839412 0.25175065 0.023285031
-0.22839412 0.27685615 0.023285031
-0.22839412 0.30196172 0.023285031
-0.22839412 0.32706735 0.023285031
-0.22839412 0.35217279 0.023285031
-0.22839412 0.37727842 0.023285031
-0.22839412 0.40238398 0.023284793
-0.22839412 0.42748949 0.023284793
-0.22875634 0.45328328 0.02799046
-0.20361836 0.47843337 0.028045297
0.22366758 0.47810477 0.025909901
-0.17847952 0.50358468 0.028100252
-0.15333886 0.52873355 0.028136611
-0.1281985 0.55388588 0.028191447
0.17306638 0.55214143 0.018338799
-0.10305728 0.57903957 0.028246284
-0.077915221 0.60419363 0.02830112
0.14850411 0.60480255 0.031464458
-0.05277231 0.62934899 0.028355956
-0.027628276 0.65450096 0.028392315
-0.0024838243 0.6796577 0.02844727
0.098111719 0.67979157 0.029068589
0.022661474 0.70517439 0.030110478
0.047778957 0.70399648 0.024833798
0.072998807 0.70548069 0.031482816
-0.20519592 -0.73330033 0.050815701
-0.20429233 -0.70527196 0.037773371
0.22479731 -0.70661896 0.044253826
-0.22989616 -0.68106049 0.042796969
-0.25557864 -0.65677452 0.047836542
0.25047782 -0.65723372 0.050222993
-0.25517845 -0.63060683 0.043110371
0.24989696 -0.63037187 0.041838884
-0.25502399 -0.60502571 0.041286469
0.24963693 -0.60445899 0.038085699
-0.25488219 -0.57949793 0.039611697
0.24946135 -0.57881021 0.03555131
-0.25488219 -0.55426657 0.039611578
0.24946135 -0.55361021 0.03555131
-0.25488219 -0.52903545 0.039611697
0.24946135 -0.5284102 0.03555131
-0.2555348 -0.50493145 0.047318816
0.25037524 -0.50513965 0.048742652
-0.25488374 -0.47857541 0.039630055
0.24946135 -0.47801036 0.03555131
-0.25488374 -0.45334402 0.039629936
0.24946135 -0.45281035 0.035551429
-0.25488219 -0.42811045 0.039611816
0.24946135 -0.42761034 0.03555119
-0.2550739 -0.40314072 0.041875958
0.24974775 -0.40288764 0.03968513
-0.25514412 -0.37798133 0.042705059
0.24982297 -0.37777287 0.040770769
-0.25488374 -0.35241866 0.039630055
0.24946135 -0.3520104 0.03555131
-0.25488219 -0.32718545 0.039611578
0.24946135 -0.32681039 0.035551429
-0.25488219 -0.30195421 0.039611816
0.24946135 -0.30161047 0.035551429
-0.25543782 -0.27722812 0.046173453
0.25024718 -0.27728355 0.046893716
-0.25488219 -0.2514917 0.039611578
0.24946135 -0.25121036 0.03555131
-0.25488219 -0.2262605 0.039611697
0.24946135 -0.22601044 0.03555131
-0.25488374 -0.2010303 0.039630055
0.24946135 -0.2008104 0.035551429
-0.25496632 -0.17584395 0.040605187
0.24958727 -0.17569447 0.037369013
-0.25525653 -0.15073699 0.044032574
0.24999271 -0.15070571 0.043220997
-0.25488374 -0.12533608 0.039629936
0.24946135 -0.12521055 0.035551429
-0.25488374 -0.10010463 0.039629936
0.24946135 -0.10001048 0.03555131
-0.25488374 -0.074873328 0.039630055
0.24946135 -0.07481046 0.035551429
-0.25488374 -0.04964193 0.039630055
0.24946135 -0.049610548 0.035551429
-0.25488374 -0.024410579 0.039629936
0.24946135 -0.024410527 0.035551429
-0.25488374 0.00082092732 0.039630055
0.24946135 0.00078938901 0.035551429
-0.25488374 0.026052278 0.039630175
0.24946135 0.025989309 0.035551429
-0.25488374 0.051283527 0.039630055
0.24946135 0.051189382 0.03555131
-0.25488374 0.07651493 0.039629936
0.24946135 0.076389506 0.035551429
-0.25488374 0.10174628 0.039630055
0.24946135 0.10158943 0.035551429
-0.25488374 0.12697768 0.039630055
0.24946135 0.12678935 0.035551429
-0.25488219 0.15220825 0.039611578
0.24946135 0.15198925 0.035551429
-0.25488219 0.17743941 0.039611697
0.24946135 0.17718923 0.035551429
-0.25488219 0.20267065 0.039611578
0.24946135 0.20238946 0.03555131
-0.25488219 0.22790195 0.039611816
0.24946135 0.22758938 0.03555131
-0.25488219 0.25313312 0.039611697
0.24946135 0.25278932 0.035551429
-0.25488219 0.27836427 0.039611578
0.24946135 0.27798924 0.035551429
-0.25488219 0.30359566 0.039611697
0.24946135 0.30318916 0.035551429
-0.25488219 0.32882681 0.039611816
0.24946135 0.32838929 0.035551548
-0.25488219 0.35405806 0.039611578
0.24946135 0.35358933 0.03555131
-0.25488219 0.37928936 0.039611697
0.24946135 0.37878928 0.03555131
-0.25488219 0.40452051 0.039611816
0.24946135 0.4039892 0.03555131
-0.25488219 0.42975175 0.039611578
0.24946135 0.42918912 0.03555131
-0.2554253 0.45592105 0.046025753
0.25023949 0.45603201 0.04678297
-0.23014897 0.48121041 0.046081185
-0.20487176 0.50650024 0.046136498
-0.1795937 0.53179103 0.04619205
0.19925439 0.53059584 0.03913331
-0.15431377 0.55707955 0.046228886
-0.12903416 0.58237189 0.046284318
-0.10375369 0.60766518 0.046339512
-0.078472361 0.63295937 0.046395183
-0.053189766 0.65825063 0.046432018
0.12374358 0.65789372 0.044715166
-0.027906869 0.68354625 0.04648757
-0.23090327 -0.70903528 0.055879593
-0.25668988 -0.6846956 0.060959339
-0.28255615 -0.66028053 0.066054583
-0.28185323 -0.63344002 0.058445573
-0.2819134 -0.60817915 0.059096932
-0.2816368 -0.58229071 0.056102514
-0.2816368 -0.55693257 0.056102514
-0.2816368 -0.53157437 0.056102514
-0.28226459 -0.50721014 0.062898517
-0.2816385 -0.48086059 0.05612123
-0.2816385 -0.4555023 0.05612123
-0.2816385 -0.43014386 0.05612123
-0.28177759 -0.40495944 0.057627082
-0.28199768 -0.37984633 0.06000936
-0.2816385 -0.35406885 0.056121111
-0.2816385 -0.32871068 0.05612123
-0.2816368 -0.30335063 0.056102514
-0.28219908 -0.27846107 0.062189698
-0.2816368 -0.25263429 0.056102633
-0.2816385 -0.2272772 0.056121111
-0.2816385 -0.20191887 0.056121349
-0.28169861 -0.17659058 0.056771636
-0.28207511 -0.15138412 0.060847521
-0.2816385 -0.12584384 0.056121111
-0.2816385 -0.10048556 0.056121111
-0.2816385 -0.075127229 0.056121349
-0.2816385 -0.049768906 0.056121111
-0.2816385 -0.024410579 0.05612123
-0.2816385 0.0009478014 0.056121111
-0.2816385 0.026306026 0.056121111
-0.2816385 0.051664408 0.056121349
-0.2816385 0.077022791 0.056121111
-0.2816385 0.10238111 0.056121349
-0.2816385 0.12773949 0.056121111
-0.2816385 0.15309788 0.05612123
-0.2816385 0.17845605 0.056121349
-0.2816385 0.20381443 0.056121111
-0.2816385 0.22917281 0.056121349
-0.2816385 0.25453112 0.056121111
-0.2816385 0.27988949 0.05612123
-0.2816368 0.30524591 0.056102514
-0.2816368 0.33060414 0.056102514
-0.2816368 0.35596231 0.056102633
-0.2816368 0.38132048 0.056102633
-0.2816368 0.40667871 0.056102633
-0.2816368 0.43203676 0.056102633
-0.28239045 0.45858821 0.064261198
-0.25697419 0.48401797 0.064317226
-0.23155707 0.50944841 0.064373255
0.22577789 0.50877005 0.060176849
-0.2061391 0.5348798 0.064429283
-0.18072028 0.56031191 0.064485312
0.17464174 0.58351046 0.052446365
-0.15529956 0.58574152 0.064522505
-0.12987915 0.61117536 0.064578533
-0.10445787 0.63660997 0.064634681
0.14982828 0.63685685 0.065867782
-0.079035729 0.66204548 0.064690709
-0.05361272 0.68748194 0.064746857
-0.23191842 -0.73723423 0.069066882
0.22632194 -0.73722208 0.069010735
-0.25781 -0.7128405 0.074187636
-0.28378189 -0.68837112 0.079323769
0.25220063 -0.68752366 0.075089335
-0.30983633 -0.66382951 0.084494948
-0.30878037 -0.63630313 0.073943257
0.27833301 -0.6380223 0.0832479
-0.30909646 -0.61136693 0.077101707
-0.30866387 -0.58511502 0.072779059
0.27827051 -0.58675045 0.082435846
-0.30866387 -0.55962837 0.072779179
0.27827051 -0.56118965 0.082435966
-0.30866387 -0.5341419 0.072779179
0.27827051 -0.53562868 0.082435846
-0.30925095 -0.50951332 0.078645468
-0.30866575 -0.4831714 0.072797894
0.27827051 -0.48450688 0.082435966
-0.30866387 -0.45768219 0.072779179
0.27827051 -0.4589459 0.082435966
-0.30866387 -0.4321956 0.072779059
0.27827051 -0.43338495 0.082435846
0.27830973 -0.40788302 0.082945704
-0.30873901 -0.40679583 0.073530078
-0.3091341 -0.38172895 0.07747829
-0.30866387 -0.3557359 0.072779059
0.27827051 -0.3567023 0.082435846
-0.30866387 -0.33024931 0.072779298
0.27827051 -0.33114135 0.082435846
-0.30866387 -0.30476275 0.072779298
0.27827051 -0.30558053 0.082435966
-0.30922079 -0.2797046 0.078344107
-0.30866387 -0.25378957 0.072779179
0.27827051 -0.25445861 0.082435966
-0.30866387 -0.22830307 0.072779298
0.27827051 -0.22889777 0.082435966
-0.30866387 -0.20281658 0.072779298
0.27827051 -0.20333685 0.082435966
-0.30869579 -0.17734466 0.073098302
0.27828795 -0.17778648 0.082662463
-0.30916804 -0.15203737 0.077817082
-0.30866575 -0.12635741 0.072797894
0.27827051 -0.12665421 0.082435966
-0.30866575 -0.10087064 0.072797894
0.27827051 -0.10109322 0.082435846
-0.30866575 -0.075384043 0.072798014
0.27827051 -0.075532392 0.082435966
-0.30866575 -0.049897231 0.072797894
0.27827051 -0.049971458 0.082435966
-0.30866387 -0.024410579 0.072779059
0.27827051 -0.024410579 0.082435727
-0.30866387 0.0010759216 0.072779179
0.27827051 0.0011503529 0.082435846
-0.30866387 0.026562419 0.072779298
0.27827051 0.026711181 0.082435966
-0.30866387 0.052049231 0.072779179
0.27827051 0.052272115 0.082435846
-0.30866387 0.077535719 0.072779298
0.27827051 0.077833101 0.082435846
-0.30866387 0.10302223 0.072779298
0.27827051 0.10339393 0.082435966
-0.30866387 0.12850888 0.072779179
0.27827051 0.12895486 0.082435966
-0.30866387 0.15399538 0.072779298
0.27827051 0.15451585 0.082435727
-0.30866387 0.17948188 0.072779179
0.27827051 0.18007667 0.082436085
-0.30866387 0.20496869 0.072779298
0.27827051 0.2056376 0.082435966
-0.30866387 0.23045515 0.072779298
0.27827051 0.23119853 0.082435846
-0.30866387 0.25594166 0.072779298
0.27827051 0.25675941 0.082435966
-0.30866387 0.28142828 0.072779179
0.27827051 0.28232032 0.082435966
-0.30866387 0.30691478 0.072779298
0.27827051 0.30788106 0.082435727
-0.30866387 0.33240128 0.072779298
0.27827051 0.33344194 0.082435966
-0.30866387 0.35788807 0.072779298
0.27827051 0.35900286 0.082435966
-0.30866387 0.38337457 0.072779298
0.27827051 0.3845638 0.082435846
-0.30866387 0.40886107 0.072779298
0.27827051 0.41012472 0.082435846
-0.30866387 0.43434769 0.072779059
0.27827051 0.4356856 0.082435966
-0.30965671 0.46128517 0.082700133
-0.28409901 0.48685694 0.082756877
0.25264421 0.48666221 0.081492305
-0.25854042 0.51242948 0.082813501
-0.232981 0.53800291 0.082870245
-0.20742068 0.56357712 0.082926869
0.20111701 0.56194329 0.073699236
-0.18185946 0.58915228 0.082983494
-0.15629742 0.61472839 0.083040237
-0.13073447 0.64030522 0.083096981
-0.10517065 0.66588283 0.083153486
-0.079605982 0.6914615 0.083210111
0.12481099 0.69063616 0.079380393
-0.25893915 -0.74121201 0.08752203
-0.28501925 -0.71669227 0.09271884
0.25394836 -0.7182712 0.10031557
-0.3113012 -0.69233602 0.099132895
-0.33622569 -0.63964564 0.092035174
-0.33705437 -0.61537236 0.099724174
0.27900508 -0.61400092 0.091978073
-0.33619091 -0.58832139 0.091712356
-0.33619091 -0.56268919 0.091712475
-0.33619091 -0.5370568 0.091712475
-0.33686534 -0.51233977 0.09796989
0.2789554 -0.51136899 0.091332674
-0.33621138 -0.48581854 0.091902256
-0.33619091 -0.46015987 0.091712475
-0.33619091 -0.43452758 0.091712356
-0.33619091 -0.40889528 0.091712475
-0.33700913 -0.38408124 0.099304676
0.27899045 -0.3832711 0.091788292
-0.33619091 -0.35763064 0.091712594
-0.33618885 -0.33199662 0.091693521
-0.33618885 -0.30636445 0.091693282
-0.33689818 -0.28123888 0.098275065
0.27896562 -0.28071475 0.091465712
-0.33620113 -0.255108 0.091807365
-0.33618885 -0.22946791 0.091693521
-0.33618885 -0.20383571 0.091693282
-0.33618885 -0.17820357 0.091693521
-0.33696803 -0.1528496 0.098923087
0.27898464 -0.1525721 0.091712356
-0.33618885 -0.12693912 0.091693401
-0.33618885 -0.10130708 0.091693401
-0.33618885 -0.075674929 0.091693521
-0.33618885 -0.050042726 0.091693521
-0.33618885 -0.024410527 0.091693401
-0.33618885 0.0012216214 0.091693401
-0.33618885 0.02685377 0.091693401
-0.33618885 0.052485865 0.091693521
-0.33618885 0.078118116 0.091693282
-0.33618885 0.10375038 0.091693521
-0.33618885 0.12938248 0.091693521
-0.33618885 0.15501463 0.091693521
-0.33618885 0.18064682 0.091693521
-0.33618885 0.20627896 0.091693521
-0.33618885 0.23191111 0.091693521
-0.33618885 0.25754327 0.091693521
-0.33618885 0.28317535 0.091693401
-0.33618885 0.30880749 0.091693401
-0.33618885 0.33443984 0.091693521
