ply
format ascii 1.0
comment PCL generated
element vertex 726
property float x
property float y
property float z
element camera 1
property float view_px
property float view_py
property float view_pz
property float x_axisx
property float x_axisy
property float x_axisz
property float y_axisx
property float y_axisy
property float y_axisz
property float z_axisx
property float z_axisy
property float z_axisz
property float focal
property float scalex
property float scaley
property float centerx
property float centery
property int viewportx
property int viewporty
property float k1
property float k2
end_header
0.0044078529 -0.072272576 -0.31522006
0.024558827 -0.072216079 -0.31766933
0.044924945 -0.072243832 -0.31646883
0.065310538 -0.072271846 -0.31525528
0.0044078529 -0.051970795 -0.31522006
0.024418399 -0.051897995 -0.31994981
0.04435809 -0.05182559 -0.32465094
0.064226687 -0.051753476 -0.32933527
0.084666952 -0.051798441 -0.32641673
0.0044078529 -0.031669039 -0.31522018
0.024418399 -0.031632666 -0.31994969
0.04435809 -0.0315964 -0.32465094
0.064226687 -0.031560365 -0.32933515
0.084667951 -0.031582929 -0.32640505
0.084667951 -0.011367282 -0.32640505
0.0044078529 -0.011367178 -0.31522006
0.024418399 -0.011367204 -0.31994969
0.04435809 -0.01136723 -0.32465076
0.064226687 -0.011367204 -0.32933527
0.0044078529 0.0089345016 -0.31522
0.024418399 0.0088982061 -0.31994981
0.04435809 0.0088619646 -0.32465082
0.064226687 0.0088259317 -0.32933521
0.084667951 0.0088484436 -0.32640505
0.0044078529 0.029236363 -0.31522
0.024418399 0.029163564 -0.31994969
0.04435809 0.029091185 -0.32465082
0.064226687 0.029019067 -0.32933527
0.084667951 0.029064169 -0.32640505
0.0044078529 0.049538143 -0.31522
0.024418399 0.049428999 -0.31994975
0.04435809 0.049320377 -0.32465088
0.064226687 0.049212202 -0.32933521
0.084666952 0.04927963 -0.32641673
0.0044078529 0.069839977 -0.31522
0.024562448 0.069766372 -0.3176105
0.044929028 0.069803372 -0.31641001
0.065315992 0.069841057 -0.31518453
-0.01540529 -0.092900224 -0.30464047
0.0050445646 -0.092938304 -0.30340421
0.025512785 -0.092976041 -0.30217874
0.045999974 -0.093013778 -0.30095214
0.066601619 -0.093089797 -0.29848349
-0.035544202 -0.072663561 -0.29829252
-0.015675247 -0.072382011 -0.31048518
0.085796878 -0.072322242 -0.31307316
0.10637285 -0.072386675 -0.31028396
0.127767 -0.072629943 -0.29974824
-0.035544202 -0.052231409 -0.29829264
-0.015675247 -0.052043729 -0.31048512
0.10610975 -0.052003004 -0.31313217
0.12777057 -0.052209556 -0.29971254
-0.035544202 -0.031799357 -0.29829252
-0.015675247 -0.031705439 -0.31048518
0.10611084 -0.031685263 -0.31312031
0.12777176 -0.031788457 -0.29970056
0.12777176 -0.011367256 -0.29970056
-0.035544202 -0.01136723 -0.29829252
-0.015675247 -0.01136723 -0.31048512
0.10611084 -0.011367178 -0.31312042
-0.035544202 0.0090649519 -0.29829264
-0.015675247 0.0089709796 -0.31048512
0.10611084 0.0089507755 -0.31312031
0.12777176 0.0090540759 -0.29970056
-0.035544202 0.029496973 -0.2982924
-0.015675247 0.029309267 -0.31048518
0.10611084 0.029268751 -0.31312042
0.12777176 0.029475303 -0.29970056
-0.035544202 0.049929127 -0.29829252
-0.015675247 0.049647555 -0.31048512
0.10610975 0.049586341 -0.31313217
0.12777057 0.049896292 -0.29971242
-0.035544202 0.070361204 -0.29829264
-0.015675247 0.069985785 -0.31048501
0.085802883 0.069908299 -0.31300241
0.1063783 0.069993727 -0.31022483
0.127767 0.070316419 -0.29974818
-0.015402555 0.090551302 -0.30458105
0.0050477684 0.090598889 -0.30334479
0.025516465 0.090646081 -0.30211931
0.046004102 0.090693302 -0.30089259
0.066606238 0.09078835 -0.29842383
0.0058883876 -0.11393379 -0.28774488
0.026478797 -0.11398193 -0.28649288
0.047192201 -0.11408778 -0.28374386
0.067955807 -0.11419747 -0.28089243
-0.035263598 -0.093320191 -0.29100198
0.087270066 -0.093176275 -0.29567546
0.10798337 -0.093263246 -0.29284948
0.12880817 -0.093371265 -0.28934443
0.14981389 -0.093515426 -0.28466082
0.14965022 -0.072943307 -0.28617972
0.14965281 -0.052418225 -0.28615558
0.14965412 -0.031892858 -0.28614366
0.14965412 -0.01136723 -0.28614366
0.14965412 0.009158399 -0.28614354
0.14965412 0.029684002 -0.28614354
0.14965281 0.050209396 -0.28615558
0.14965022 0.070734181 -0.28617972
-0.035254821 0.091082744 -0.29077399
0.087276146 0.090896845 -0.29560375
0.10799003 0.091005646 -0.29277754
0.12881657 0.091141023 -0.28926027
0.1498217 0.09132079 -0.2845884
0.0058922768 0.11171587 -0.28767276
0.026482508 0.11177325 -0.28643274
0.047197223 0.1119008 -0.28367156
0.067960471 0.11203193 -0.28083193
0.048424572 -0.13545342 -0.26595604
0.069327101 -0.13558635 -0.26307857
-0.013439767 -0.11492137 -0.2620855
0.08876282 -0.11430701 -0.27804685
0.10968603 -0.11444674 -0.27441782
0.13077593 -0.11462907 -0.26968127
0.15194052 -0.11481204 -0.26492828
0.17175844 -0.093890712 -0.27247173
-0.055012241 -0.073386595 -0.26698315
0.17175704 -0.0732596 -0.27248377
-0.055012241 -0.052713454 -0.26698315
0.17175984 -0.052629232 -0.27245945
-0.055012241 -0.032040313 -0.26698315
0.17175984 -0.03199815 -0.27245957
-0.055012241 -0.011367178 -0.26698309
0.17175984 -0.011367204 -0.27245945
-0.055012241 0.0093058832 -0.26698315
0.17175984 0.0092636663 -0.27245945
-0.055012241 0.029978996 -0.26698315
0.17175984 0.029894719 -0.27245957
-0.055012241 0.050652109 -0.26698309
0.17175984 0.050525665 -0.27245945
-0.055012241 0.071325243 -0.26698309
0.17175704 0.071155958 -0.272484
0.17175844 0.091787197 -0.27247161
-0.01342956 0.11290802 -0.26186478
0.088768974 0.11216387 -0.27797407
0.10969277 0.11233156 -0.27434474
0.13078323 0.11255024 -0.26960808
0.15194845 0.11276981 -0.26485479
0.048429653 0.13340396 -0.26588267
0.069332764 0.13355896 -0.2630052
0.028183848 -0.13578367 -0.25880641
0.090348348 -0.1357598 -0.25932276
0.11152291 -0.13598116 -0.25453275
0.1327742 -0.13620362 -0.24971348
0.17328244 -0.11502954 -0.25927359
0.19488165 -0.11530045 -0.25223655
0.21665907 -0.11559188 -0.24466562
-0.054680116 -0.094391882 -0.25619709
0.19409212 -0.09431649 -0.25864655
0.21665907 -0.09474697 -0.24466568
0.19409212 -0.073579125 -0.25864655
0.21665907 -0.073901996 -0.24466562
0.19409516 -0.05284223 -0.25862193
0.21666232 -0.053057447 -0.24464077
0.19409516 -0.032104701 -0.25862199
0.21666232 -0.032212432 -0.24464077
0.19409516 -0.011367282 -0.25862181
0.21666232 -0.011367204 -0.24464077
0.19409516 0.0093702432 -0.25862199
0.21666232 0.0094778407 -0.24464077
0.19409516 0.030107664 -0.25862193
0.21666232 0.030323071 -0.24464077
0.19409516 0.050845295 -0.25862193
0.21666232 0.051168166 -0.24464077
0.19409212 0.071581952 -0.25864643
0.21665907 0.072012395 -0.2446655
-0.054673277 0.092422068 -0.25597519
0.19409364 0.092319839 -0.25863427
0.21666068 0.092857942 -0.24465311
0.17329237 0.1130316 -0.25918752
0.19489384 0.11335731 -0.25213766
0.21666068 0.11370294 -0.24465305
0.028205052 0.13380387 -0.25846207
0.090354577 0.13376145 -0.25924903
0.11152975 0.13401952 -0.25445873
0.13278162 0.1342793 -0.24963915
0.071015611 -0.15747149 -0.24114454
0.092052311 -0.15757625 -0.2391997
0.11338961 -0.15783891 -0.23432529
0.13486406 -0.15813503 -0.22883016
0.15418053 -0.13646087 -0.24414372
0.17585266 -0.13679017 -0.23701459
0.19763765 -0.13712065 -0.22986054
0.23946145 -0.11613559 -0.23053873
0.23946145 -0.095181949 -0.23053885
-0.074944757 -0.074127287 -0.23491365
0.23946321 -0.07422857 -0.23052627
-0.074944757 -0.053207107 -0.23491377
0.23946494 -0.053275004 -0.23051357
-0.074944757 -0.032287195 -0.23491365
0.23946494 -0.032321133 -0.23051357
0.23946494 -0.011367308 -0.23051357
-0.074944757 -0.01136723 -0.23491365
-0.074944757 0.0095527358 -0.23491365
0.23946494 0.0095866453 -0.23051381
-0.074944757 0.030472754 -0.23491359
0.23946494 0.030540572 -0.23051369
-0.074944757 0.051392846 -0.23491377
0.23946494 0.051494449 -0.23051369
-0.074944757 0.072312817 -0.23491365
0.23946145 0.072447538 -0.23053873
0.23946494 0.093402117 -0.23051369
0.23946321 0.11435542 -0.23052627
0.15418991 0.13458014 -0.2440567
0.17586276 0.13496427 -0.23692709
0.19765002 0.13535054 -0.22976017
0.071053013 0.15563893 -0.24065858
0.092058659 0.15573348 -0.23912495
0.11339656 0.15603361 -0.23425025
0.13487288 0.15637286 -0.22874212
0.15660655 -0.15852287 -0.22163284
0.17846575 -0.15891343 -0.21438479
0.0094468147 -0.13749714 -0.2217086
0.21976095 -0.13753155 -0.22096294
0.24217755 -0.13799469 -0.2109372
-0.032781973 -0.11628999 -0.22652769
0.26250303 -0.11668498 -0.21626389
-0.074611187 -0.095492005 -0.22046953
0.26250303 -0.095621511 -0.21626389
0.26250491 -0.074558154 -0.21625113
0.26250675 -0.053494789 -0.21623844
0.26250675 -0.032430984 -0.21623844
0.26250675 -0.011367178 -0.21623844
0.26250675 0.0096964724 -0.21623832
0.26250675 0.030760279 -0.21623844
0.26250675 0.051824108 -0.21623844
0.26250303 0.072887108 -0.21626377
-0.074605927 0.093797483 -0.22024196
0.26250675 0.09395159 -0.21623832
-0.03277421 0.11454949 -0.22632611
0.26250491 0.11501472 -0.21625113
0.0094665587 0.1358041 -0.22134209
0.21977586 0.13583063 -0.2208491
0.24219167 0.13637021 -0.21083534
0.15661746 0.15681686 -0.22153169
0.17847747 0.15726329 -0.21428299
0.13714245 -0.18050402 -0.20606291
0.15907466 -0.18095551 -0.19873184
0.0529681 -0.15966825 -0.20037597
0.20059866 -0.15937497 -0.20582002
0.22306925 -0.15992121 -0.19568288
0.26487756 -0.1384985 -0.20002919
0.28578755 -0.11724029 -0.20183831
0.28578755 -0.096065722 -0.2018382
-0.095359281 -0.074885406 -0.20208192
0.28578955 -0.074891433 -0.20182544
-0.095359281 -0.053712688 -0.20208204
0.28579152 -0.053716853 -0.20181274
-0.095359281 -0.032539945 -0.20208192
0.28578955 -0.032541964 -0.20182544
0.28578955 -0.011367282 -0.20182544
-0.095359281 -0.01136723 -0.20208192
-0.095359281 0.0098054856 -0.20208192
0.28579152 0.0098075829 -0.20181251
-0.095359281 0.030978305 -0.20208192
0.28579152 0.030982422 -0.20181262
-0.095359281 0.052151024 -0.20208192
0.28579152 0.052157208 -0.20181262
-0.095359281 0.073323734 -0.20208192
0.28578955 0.073331572 -0.20182544
0.28579152 0.094506778 -0.20181251
0.28578955 0.11568104 -0.2018255
0.26489446 0.13695876 -0.19991368
0.053001896 0.15814987 -0.19988799
0.20061442 0.15779237 -0.20569229
0.22308442 0.15841591 -0.19556695
0.1371527 0.17891878 -0.20596069
0.15908572 0.17942673 -0.19862908
0.11842388 -0.18211968 -0.17982781
0.18122423 -0.18146266 -0.19049573
0.20374873 -0.18209395 -0.18024468
0.2457099 -0.16047299 -0.18544447
-0.0098141134 -0.13925785 -0.18358791
0.28815776 -0.13912597 -0.18644333
-0.0526435 -0.11769386 -0.19005597
0.30932099 -0.1178019 -0.18724704
-0.095077544 -0.096621692 -0.1837827
0.3093189 -0.096514568 -0.18725991
0.30932099 -0.075227991 -0.18724704
0.3093231 -0.053941302 -0.18723404
0.30932099 -0.032654122 -0.18724704
0.30932099 -0.01136723 -0.18724692
0.30932099 0.0099196881 -0.18724692
0.3093231 0.031206923 -0.18723404
0.3093231 0.052493915 -0.18723392
0.30932099 0.073780544 -0.18724704
-0.095074147 0.095209338 -0.18356192
0.3093231 0.095068015 -0.18723404
-0.05263672 0.11623491 -0.18983614
0.30932099 0.11635433 -0.18724692
-0.0097960979 0.13785951 -0.18319809
0.28817576 0.13769096 -0.18632662
0.24572429 0.15904573 -0.18534076
0.11849731 0.18078429 -0.17903292
0.18123764 0.17999814 -0.19037926
0.20376155 0.18070754 -0.1801405
0.22644109 -0.18272994 -0.16991758
0.24967349 -0.18353529 -0.15684009
0.034369588 -0.1619323 -0.15836239
0.26901901 -0.16121282 -0.17171395
0.29255649 -0.16195866 -0.15787268
0.31175789 -0.13978517 -0.17217243
0.33310318 -0.11836909 -0.17251301
0.35714018 -0.11894222 -0.15762115
0.33310097 -0.096968338 -0.17252612
0.35713789 -0.097426876 -0.15763438
-0.1162731 -0.075662263 -0.16844702
0.33310544 -0.075568579 -0.1724999
0.35714254 -0.075912498 -0.15760803
-0.1162731 -0.054230481 -0.16844714
0.33310544 -0.054168135 -0.1724999
0.35714254 -0.054397434 -0.15760803
-0.1162731 -0.032798856 -0.16844714
0.33310318 -0.032767668 -0.17251289
0.35714018 -0.032882188 -0.15762126
0.33310318 -0.011367282 -0.17251301
-0.1162731 -0.01136723 -0.16844702
0.35714018 -0.01136723 -0.15762115
-0.1162731 0.010064447 -0.16844726
0.33310318 0.010033105 -0.17251301
0.35714018 0.010147674 -0.15762115
-0.1162731 0.031496175 -0.16844714
0.33310544 0.031433649 -0.1724999
0.35714018 0.031662792 -0.15762138
-0.1162731 0.052927695 -0.16844714
0.33310544 0.052834138 -0.1724999
0.35714254 0.053178057 -0.15760803
-0.1162731 0.074359499 -0.16844714
0.33310318 0.074234262 -0.17251313
0.35714018 0.074692756 -0.15762115
0.33310318 0.095634572 -0.17251289
0.35714018 0.096207842 -0.15762126
0.33310544 0.11703561 -0.17250001
0.35714254 0.11772341 -0.15760803
0.31177697 0.13846001 -0.17205465
0.034398928 0.16073647 -0.15788603
0.26903433 0.1598914 -0.17160916
0.2925728 0.1607438 -0.15776694
0.22645482 0.18142316 -0.16981244
0.24968815 0.18232925 -0.15673411
0.27324069 -0.18439689 -0.14285004
0.31689852 -0.16290167 -0.14037311
-0.029619887 -0.14106907 -0.14437425
0.33622006 -0.14061944 -0.154109
-0.073043697 -0.11913562 -0.15259528
0.38143608 -0.11952165 -0.14256907
-0.11610115 -0.097781695 -0.14611042
0.38143364 -0.097890317 -0.14258265
0.38143864 -0.076260164 -0.14255571
0.38143864 -0.054629214 -0.14255571
0.38143608 -0.032998066 -0.14256907
0.38143608 -0.011367178 -0.14256907
0.38143608 0.010263657 -0.14256907
0.38143608 0.031894498 -0.14256918
0.38143864 0.053525701 -0.14255571
0.38143608 0.075156115 -0.14256907
-0.1160994 0.096659541 -0.14588356
0.38143608 0.096787162 -0.14256895
-0.073038176 0.11796604 -0.15235615
0.38143864 0.11841871 -0.14255583
-0.029603943 0.13997397 -0.14396012
0.33624026 0.1394335 -0.15398955
0.31692022 0.16182317 -0.14023888
0.27325633 0.18329848 -0.14274299
0.10142246 -0.18527786 -0.12854373
0.29739058 -0.18540537 -0.12647438
0.34167609 -0.16389751 -0.12189257
0.36124268 -0.14152749 -0.13445055
0.40692082 -0.12029237 -0.12254429
0.40599254 -0.098358735 -0.1273675
-0.13770476 -0.076458506 -0.13396609
0.40599772 -0.076611497 -0.12734044
-0.13770476 -0.054761343 -0.13396597
0.40599772 -0.054863438 -0.12734044
-0.13770476 -0.033064313 -0.13396609
0.40599516 -0.033115204 -0.12735403
-0.13770476 -0.011367178 -0.13396609
0.40599516 -0.01136723 -0.12735391
-0.13770476 0.010329854 -0.13396609
0.40599516 0.010380745 -0.12735403
-0.13770476 0.032027043 -0.13396609
0.40599516 0.032128774 -0.12735403
-0.13770476 0.053724073 -0.13396609
0.40599772 0.053877056 -0.12734044
-0.13770476 0.075421207 -0.13396609
0.40599516 0.075624771 -0.12735403
0.40599254 0.097372219 -0.1273675
0.40694693 0.11934923 -0.12240839
0.36126652 0.14049354 -0.13431585
0.34169909 0.16296142 -0.12175667
0.10148084 0.18433012 -0.12785423
0.29740933 0.18443406 -0.12635267
0.32215813 -0.18655312 -0.1078378
0.015194431 -0.16426641 -0.11504626
-0.04999429 -0.14293301 -0.10402036
0.38735923 -0.14263327 -0.11050928
-0.09400478 -0.12061722 -0.11410451
-0.13770476 -0.098973274 -0.10741246
0.43082157 -0.098832816 -0.11197329
0.43082431 -0.076966681 -0.11195946
0.43082431 -0.05510018 -0.11195958
0.43082157 -0.03323365 -0.11197305
0.43082157 -0.01136723 -0.11197317
0.43082157 0.01049914 -0.11197305
0.43082157 0.032365561 -0.11197317
0.43082431 0.054232299 -0.11195958
0.43082431 0.076098718 -0.11195946
-0.13770476 0.098149732 -0.10716569
0.43081889 0.09796425 -0.11198688
-0.094000787 0.11974472 -0.11384511
-0.049981579 0.14214824 -0.10360765
0.38738456 0.14178377 -0.11037242
0.015220165 0.16340411 -0.11456859
0.3221803 0.18572639 -0.10770071
0.34773743 -0.18789163 -0.086102128
0.36763307 -0.16516575 -0.098357797
0.43489262 -0.12148204 -0.091632962
0.45591983 -0.099311583 -0.096423864
-0.15967384 -0.077274464 -0.098633885
0.45592275 -0.077325769 -0.096410036
-0.15967384 -0.055305474 -0.098633885
0.45592275 -0.055339642 -0.096410155
-0.15967384 -0.033336326 -0.098633885
0.45591697 -0.033353306 -0.096437693
-0.15967384 -0.011367282 -0.098633885
0.45591983 -0.011367178 -0.096423864
-0.15967384 0.010601865 -0.098633885
0.45591983 0.010618793 -0.096423864
-0.15967384 0.032570906 -0.098633885
0.45591983 0.032604918 -0.096423864
-0.15967384 0.054540053 -0.098633885
0.45592275 0.054591306 -0.096409917
-0.15967384 0.076509044 -0.098633885
0.45592275 0.076577544 -0.096409917
0.45591697 0.098562673 -0.096437693
0.4349232 0.12077773 -0.091480374
0.36765745 0.16441095 -0.098219752
0.083763003 -0.18854147 -0.075551033
-0.0045859218 -0.16667253 -0.070394039
0.39432105 -0.16654143 -0.072827339
0.41467461 -0.14393827 -0.082254052
-0.11555021 -0.12213995 -0.074540973
0.4812974 -0.077688873 -0.080689549
0.4812974 -0.055581674 -0.08068943
0.48129138 -0.033474214 -0.080717444
0.48129138 -0.01136723 -0.080717444
0.48129436 0.010739809 -0.080703497
0.48129436 0.032846898 -0.080703497
0.4812974 0.05495441 -0.080689549
0.4812974 0.077061608 -0.080689549
-0.11554804 0.12157306 -0.074260235
0.41470692 0.14330804 -0.082086444
-0.0045618564 0.16615663 -0.069873214
0.3943496 0.1659842 -0.072672725
0.08382456 0.18800917 -0.074751258
0.34776336 0.18723334 -0.085948825
0.37418923 -0.18941738 -0.06132865
-0.070962466 -0.1448518 -0.062475443
0.46446225 -0.12287965 -0.055324197
0.48562321 -0.10041405 -0.060620189
0.50734127 -0.078096211 -0.063055634
0.506953 -0.055826329 -0.064795017
0.50694668 -0.033596598 -0.06482327
0.50694668 -0.011367178 -0.06482327
0.50694978 0.010862241 -0.064808965
0.50694978 0.033091657 -0.064808965
0.506953 0.055321492 -0.064794898
0.50738227 0.077610239 -0.062871695
0.48565987 0.099947833 -0.060450077
0.46449772 0.12245549 -0.055153489
-0.07095331 0.14438617 -0.062079191
0.37421176 0.18894789 -0.061201215
0.42266074 -0.16826963 -0.040756941
0.44322363 -0.14542767 -0.050008893
0.5328908 -0.056073651 -0.048737645
0.53288746 -0.033720285 -0.048752069
0.53288746 -0.01136723 -0.048752069
0.53288746 0.010985876 -0.048752069
0.5328908 0.033339091 -0.048737645
0.5328908 0.0556923 -0.048737764
0.44325796 0.14504582 -0.049837589
0.4226912 0.16795951 -0.040598869
-0.024999335 -0.16915488 -0.024328828
-0.02497752 0.16899635 -0.023761988
0.065769807 -0.19223355 -0.015599251
0.47425702 -0.14735876 -0.0081990957
0.4962422 -0.12457206 -0.011354446
0.5190959 -0.10196036 -0.01040113
0.54241228 -0.079378903 -0.0075086355
0.54246998 0.079322703 -0.0072586536
0.51913857 0.10188162 -0.010210276
0.49628642 0.12448798 -0.01114893
0.47429362 0.14729899 -0.0080229044
0.06600602 0.19234358 -0.012189746
-0.18334474 -0.057007298 0.011901855
-0.18334474 -0.034187317 0.011901736
-0.18334474 -0.01136723 0.011901855
-0.18334474 0.011452749 0.011901855
-0.18334474 0.03427273 0.011901855
-0.18334474 0.057092711 0.011901736
-0.18391629 -0.080684505 0.04902482
-0.20704462 -0.057593875 0.050002337
-0.20704462 -0.034480445 0.050002337
-0.20704462 -0.011367282 0.050002337
-0.20704462 0.01174604 0.050002217
-0.20704462 0.034859359 0.050002456
-0.20704462 0.057972685 0.050002217
-0.18392098 0.081065252 0.049330354
0.55679274 -0.1039669 0.054761052
0.55684948 0.10439178 0.055006266
-0.23136213 -0.058195964 0.089110732
-0.23136213 -0.034781545 0.089110613
-0.23136213 -0.01136723 0.089110613
-0.23136213 0.012047086 0.089110732
-0.23136213 0.035461403 0.089110613
-0.23136213 0.058875769 0.089110732
-0.16118385 -0.10528361 0.097521424
-0.20799308 -0.081655569 0.091071606
-0.20800033 0.082360156 0.091385722
-0.16118689 0.10604344 0.097915649
-0.18535027 -0.10665824 0.14216447
-0.23275401 -0.082654148 0.13431311
-0.25632149 -0.058813885 0.12925124
-0.25632149 -0.035090558 0.12925124
-0.25632149 -0.01136723 0.12925136
-0.25632149 0.012356151 0.12925124
-0.25632086 0.03607922 0.12923515
-0.25632086 0.059802547 0.12923515
-0.23276395 0.08369191 0.13463628
-0.18535677 0.10776272 0.14258659
-0.28194767 -0.05944816 0.17044902
-0.28194767 -0.035407744 0.17044914
-0.28194767 -0.011367282 0.17044902
-0.28194767 0.012673235 0.17044902
-0.28194767 0.036713697 0.17044902
-0.28194767 0.060754217 0.17044902
-0.13770476 -0.13193333 0.17989814
-0.21023501 -0.10807431 0.18815076
-0.25822866 -0.083681546 0.17880106
-0.25824144 0.085062183 0.17913342
-0.21024504 0.10953336 0.18858516
-0.13770476 0.1333397 0.18049693
-0.3082692 -0.060099989 0.21278024
-0.3082692 -0.035733636 0.21278024
-0.3082692 -0.011367335 0.21278012
-0.3082692 0.012999177 0.21278012
-0.3082692 0.037365481 0.21278012
-0.30826831 0.061731361 0.21276319
-0.16220212 -0.13385408 0.22979879
-0.28444755 -0.084738724 0.22457314
-0.28446335 0.086471923 0.22491515
-0.16220687 0.13564551 0.23041677
-0.23587207 -0.10953458 0.23557556
-0.23588586 0.11135913 0.23602343
-0.33531308 -0.060769327 0.25625706
-0.33531308 -0.036068328 0.25625718
-0.33531308 -0.011367282 0.25625718
-0.33531308 0.013333766 0.2562573
-0.33531308 0.038034812 0.25625706
-0.33531308 0.062735908 0.25625706
-0.18749236 -0.13583618 0.28129745
-0.3114453 -0.0858275 0.27172077
-0.31146333 0.087923378 0.27205551
-0.18750218 0.13802494 0.28193545
-0.26229528 -0.1110396 0.28445482
-0.26231304 0.11324109 0.2849164
-0.36311144 -0.061457634 0.30096304
-0.36311144 -0.036412403 0.30096304
-0.36311144 -0.01136723 0.30096316
-0.36311144 0.013677893 0.30096316
-0.36311144 0.038723066 0.30096316
-0.36311144 0.063768402 0.30096304
-0.2895413 -0.11259153 0.33485615
-0.33925527 -0.086948723 0.32027066
-0.33927763 0.089419179 0.32063365
-0.2895633 0.11518143 0.33533251
-0.2136573 -0.13795485 0.33634031
-0.39169529 -0.062165335 0.34693241
-0.39169529 -0.036766335 0.34693241
-0.39169529 -0.01136723 0.34693229
-0.39169389 0.014031665 0.34691381
-0.39169389 0.039430663 0.34691393
-0.39169389 0.064829454 0.34691393
-0.21368188 0.14058703 0.33740377
-0.36791551 -0.088104218 0.37030482
-0.36794147 0.090960309 0.37067902
-0.31765026 -0.1141932 0.38687098
-0.31767574 0.11718342 0.38734341
-0.24090278 -0.14036478 0.39895236
-0.42109692 -0.062893055 0.39420021
-0.42109692 -0.03713017 0.39420021
-0.42109692 -0.011367282 0.39420021
-0.42109692 0.01439576 0.39420033
-0.42109692 0.04015854 0.39420021
-0.42109692 0.065921582 0.39420044
-0.24093679 0.14348088 0.4000566
-0.3974925 -0.089303628 0.42224014
-0.39753112 0.092563234 0.42274189
-0.34667626 -0.11585299 0.44077265
-0.34671834 0.11926621 0.44145596
-0.45135501 -0.063642263 0.4428618
-0.45135501 -0.0375048 0.44286191
-0.45135501 -0.01136723 0.44286191
-0.45135501 0.014770338 0.44286191
-0.45135319 0.040907487 0.44284225
-0.45135319 0.067044899 0.44284225
-0.26920956 -0.14287205 0.46409345
-0.26925373 0.14649162 0.46524107
-0.42810822 -0.090568192 0.477
-0.48250598 -0.064413697 0.49295938
-0.48250598 -0.037890486 0.49295926
-0.48250398 -0.011367282 0.49293923
-0.48250398 0.015155766 0.49293923
-0.48250398 0.04167866 0.49293923
-0.48250398 0.068201862 0.49293911
-0.42815045 0.094249494 0.47749841
-0.37686715 -0.11766168 0.49951005
-0.51048315 -0.064621188 0.50645041
-0.51048315 -0.037994314 0.5064503
-0.51048315 -0.011367178 0.5064503
-0.51048088 0.015259644 0.50643003
-0.51048088 0.041886464 0.50643015
-0.51048088 0.068513341 0.50643015
-0.37691751 0.12152867 0.50023711
-0.53904867 -0.09163601 0.52323842
-0.51205862 -0.091585904 0.52106953
-0.4851248 -0.091541089 0.5191282
-0.45823047 -0.091498688 0.51729083
-0.53836894 -0.064789109 0.51735222
-0.53836894 -0.038078118 0.51735222
-0.53836894 -0.01136723 0.51735222
-0.53836894 0.015343711 0.51735222
-0.53836894 0.042054601 0.51735222
-0.53836662 0.068765014 0.51733172
-0.53909588 0.095670395 0.52364779
-0.51206744 0.09559346 0.5211513
-0.48513502 0.095534444 0.51923025
-0.45823988 0.095477842 0.51739299
-0.29864138 -0.14548115 0.53187859
-0.48772562 -0.11906597 0.54511702
-0.46083921 -0.1190787 0.54553151
-0.4339447 -0.11909091 0.54592562
-0.40710324 -0.11912666 0.54708755
-0.48773599 0.12326011 0.54522061
-0.46085072 0.12327683 0.54565609
-0.43395525 0.12329207 0.54605007
-0.29869652 0.14962441 0.53307235
-0.57057273 -0.065475687 0.5619483
-0.57057273 -0.038421512 0.56194842
-0.57057273 -0.01136723 0.5619483
-0.57057273 0.015686948 0.5619483
-0.57057273 0.042741232 0.56194818
-0.57057011 0.069795087 0.56192732
-0.40711284 0.12333667 0.547212
-0.43646696 -0.14716831 0.57571185
-0.40954894 -0.14728926 0.57885778
-0.38258433 -0.14741144 0.58203053
-0.51762271 -0.11991528 0.57269764
-0.51766586 0.12433311 0.57309783
-0.43647945 0.15160085 0.57585943
-0.40955871 0.1517452 0.57898474
-0.38259313 0.15189168 0.58215749
-0.46513855 -0.14779806 0.59207296
-0.35570979 -0.14762035 0.58745873
-0.32880998 -0.14787102 0.59396899
-0.57314539 -0.093012311 0.58283556
-0.5731923 0.097504608 0.58321643
-0.46519163 0.15237606 0.59264803
-0.35571891 0.1521433 0.58760738
-0.32881683 0.15244304 0.59409666
-0.38498676 -0.17622194 0.61670673
-0.60483539 -0.066323794 0.61703062
-0.60483539 -0.038845565 0.61703062
-0.60483539 -0.01136723 0.61703062
-0.60483539 0.016111054 0.61703086
-0.60483539 0.043589234 0.61703062
-0.60483539 0.071067616 0.61703062
-0.38499725 0.18097135 0.61685812
-0.35791856 -0.17652754 0.62332523
-0.33079553 -0.17687367 0.63081634
-0.55186301 -0.12180945 0.63421416
-0.55193102 0.12670819 0.63480294
-0.35792792 0.18132797 0.62347674
-0.33080375 0.18173181 0.63096869
-0.30370405 -0.17736648 0.64148843
-0.27645665 -0.17786953 0.65237844
-0.60842884 -0.094436146 0.64449
-0.60848051 0.099403441 0.64488459
-0.30371112 0.1823068 0.64164162
-0.27646261 0.18289374 0.65253258
-0.24918506 -0.1785877 0.66792679
-0.49891648 -0.15029486 0.65694284
-0.49900487 0.15538669 0.65782619
-0.24918915 0.18373026 0.66806006
-0.41789243 -0.17947973 0.68724298
-0.22168958 -0.17933692 0.68414748
-0.64019227 -0.067199104 0.6738894
-0.64019227 -0.039283298 0.6738894
-0.64019227 -0.01136723 0.6738894
-0.64019227 0.016548786 0.67388964
-0.64019227 0.044464596 0.6738894
-0.64019227 0.072380766 0.6738894
-0.22169372 0.18460694 0.68432689
-0.58761454 -0.12384471 0.70031083
-0.58768702 0.12925225 0.70089912
-0.41800138 0.18484047 0.68865812
-0.19402926 -0.18034074 0.70588171
-0.64496171 -0.095910139 0.70831037
-0.64502156 0.10136968 0.70874178
-0.1940324 0.18577947 0.70608592
-0.16605401 -0.18146269 0.73017442
-0.53449273 -0.15307733 0.72923231
-0.67669034 -0.068102613 0.732566
-0.67669034 -0.03973487 0.732566
-0.67669034 -0.011367282 0.732566
-0.67669034 0.017000409 0.73256624
-0.67669034 0.045368046 0.73256624
-0.67669034 0.073735788 0.73256624
-0.53459924 0.15873042 0.73022032
-0.1660556 0.18708873 0.73038113
-0.13770476 -0.18282604 0.75968933
-0.62470245 -0.12595497 0.76884246
-0.6247884 0.13189265 0.76949966
-0.13770476 0.18867813 0.75987589
-0.45343813 -0.18358546 0.77613199
-0.45356387 0.18963389 0.77761686
0 0 0 1 0 0 0 1 0 0 0 1 0 0 0 0 0 726 1 0 0
