ply
format ascii 1.0
comment PCL generated
element vertex 941
property float x
property float y
property float z
element camera 1
property float view_px
property float view_py
property float view_pz
property float x_axisx
property float x_axisy
property float x_axisz
property float y_axisx
property float y_axisy
property float y_axisz
property float z_axisx
property float z_axisy
property float z_axisz
property float focal
property float scalex
property float scaley
property float centerx
property float centery
property int viewportx
property int viewporty
property float k1
property float k2
end_header
-0.011914678 -0.23914267 -0.080857158
0.012012959 -0.23924153 -0.079572082
-0.011921007 -0.21527192 -0.080034733
-0.01192734 -0.19138877 -0.07921207
-0.011917578 0.5983972 -0.080480218
0.012012959 0.59862459 -0.0792979
-0.036118116 -0.28865278 -0.062943101
-0.012021413 -0.2882787 -0.066991806
0.012012959 -0.28839219 -0.065764427
0.036076229 -0.28862557 -0.063237548
-0.060057051 -0.2641229 -0.068425298
-0.035971601 -0.2637814 -0.072459817
-0.011948343 -0.26344058 -0.076483727
0.012012959 -0.26354966 -0.075195193
0.036003515 -0.26376241 -0.072683573
0.060044222 -0.26403818 -0.069426298
-0.084152207 -0.24027924 -0.066092849
-0.059949569 -0.23974137 -0.073079348
-0.035901979 -0.23944099 -0.076981783
0.035969108 -0.23942776 -0.077153325
0.059968639 -0.23964466 -0.074335456
0.084158398 -0.2403511 -0.065159082
-0.084179893 -0.21630022 -0.065193653
-0.05996865 -0.2158111 -0.072253108
-0.035914667 -0.21554069 -0.076157451
0.012012959 -0.21536106 -0.078749061
0.035975449 -0.21552882 -0.076329112
0.059982143 -0.21572763 -0.073458195
0.084178776 -0.21636376 -0.064276457
-0.084208131 -0.19230843 -0.064276457
-0.059987746 -0.19186814 -0.071426272
-0.035927635 -0.19162861 -0.075315475
0.012012959 -0.19146682 -0.077942848
0.035981666 -0.19161603 -0.075521708
0.059995659 -0.19179709 -0.072580338
0.084199168 -0.19236289 -0.063393354
-0.084235854 -0.16830175 -0.063376069
0.084219575 -0.16834845 -0.062509775
-0.060006849 -0.16791244 -0.07059896
-0.035940338 -0.16770275 -0.074490309
-0.011933677 -0.16749281 -0.078388929
0.012012959 -0.16756125 -0.077119112
0.035988018 -0.16769172 -0.07469666
0.060009185 -0.16785306 -0.071701884
-0.084264129 -0.144282 -0.062457919
-0.060025968 -0.14394408 -0.069771409
-0.035953049 -0.14376432 -0.073664546
-0.01194015 -0.14358494 -0.077548146
0.012012959 -0.14364275 -0.076294899
0.035994373 -0.14375484 -0.073871017
0.060022712 -0.14389564 -0.070822954
-0.060045093 -0.11996301 -0.068943024
-0.03596577 -0.1198131 -0.072838426
-0.011946492 -0.11966349 -0.076724172
0.012012959 -0.11971114 -0.075487256
0.036000598 -0.11980453 -0.073062181
0.060036249 -0.11992458 -0.069943786
-0.060064226 -0.095969215 -0.0681144
-0.035978492 -0.095849209 -0.072011828
-0.011952838 -0.09572956 -0.075899601
0.012012959 -0.095767595 -0.074662209
0.036006957 -0.095842294 -0.072235823
0.060049798 -0.095939949 -0.069063902
-0.060083374 -0.071962632 -0.067285538
-0.035991225 -0.071872644 -0.071184993
-0.01195919 -0.071782708 -0.075074792
0.012012959 -0.071811371 -0.073836565
0.036013328 -0.071867384 -0.071408987
0.060063351 -0.07194189 -0.068183422
-0.060102925 -0.047943577 -0.066438675
-0.036004227 -0.047883503 -0.070340395
-0.011965543 -0.047823325 -0.074249268
0.012012959 -0.047842417 -0.073010683
0.036019694 -0.047879744 -0.070581675
0.060076915 -0.047930248 -0.067302585
-0.060122088 -0.023911346 -0.06560874
-0.036016975 -0.023881285 -0.069512486
-0.011971898 -0.023851123 -0.073423743
0.012012959 -0.02386054 -0.07220149
0.036025934 -0.023879228 -0.069771409
0.060090482 -0.023904983 -0.06642139
0.036032312 0.00013366166 -0.068943143
-0.060141265 0.00013371176 -0.064778328
-0.036029726 0.00013371176 -0.06868422
-0.011978392 0.00013371176 -0.072580218
0.012012959 0.00013371176 -0.071374536
0.060104057 0.00013371176 -0.065539598
-0.060160458 0.024191547 -0.063947678
-0.036042485 0.024161385 -0.067855358
-0.011984756 0.024131473 -0.071753621
0.012012959 0.02414069 -0.070547342
0.036038689 0.024159379 -0.068114519
0.060117643 0.024185985 -0.064657211
-0.060179651 0.048262108 -0.063116431
-0.036055252 0.048201881 -0.067026258
-0.011991123 0.048141956 -0.070926428
0.012012959 0.048160397 -0.069719315
0.036045067 0.048197873 -0.067285538
0.060131233 0.048252087 -0.063774467
-0.060198866 0.07234554 -0.062284708
-0.036068026 0.072255254 -0.066196561
-0.011997493 0.072165065 -0.070098877
0.012012959 0.07219252 -0.068908572
0.036051322 0.072248787 -0.066473246
0.060144834 0.072331563 -0.062891006
-0.036080804 0.096321158 -0.065366626
-0.012003867 0.096200906 -0.069270968
0.012012959 0.09623763 -0.068080068
0.036057711 0.09631259 -0.065643311
-0.036093593 0.12040009 -0.064536095
-0.012010247 0.12024962 -0.068442464
0.012012959 0.12029561 -0.067250967
0.036064103 0.12038941 -0.064813018
-0.03610665 0.14449264 -0.063687921
-0.012016624 0.14431126 -0.067613721
0.012012959 0.14436628 -0.06642139
0.036070496 0.14447896 -0.063982129
-0.03611945 0.16859718 -0.062856317
-0.012023142 0.16838643 -0.066767097
0.012012959 0.16844982 -0.065591335
0.036076762 0.16858029 -0.063168406
-0.01202953 0.19247368 -0.0659374
0.012012959 0.19254498 -0.064778328
0.036083162 0.19269535 -0.062336683
-0.012035919 0.2165736 -0.065107226
0.012012959 0.21665397 -0.063947678
-0.012042314 0.2406864 -0.064276457
0.012012959 0.24077563 -0.063116312
-0.012048712 0.2648122 -0.06344533
0.012012959 0.26491046 -0.062284708
-0.012055112 0.28895068 -0.062613845
-0.060186855 0.57773221 -0.062804699
-0.036064833 0.57706708 -0.066404104
-0.01199829 0.57640362 -0.069995522
0.012012959 0.5766108 -0.068874121
0.036049992 0.57702249 -0.066646099
0.060137365 0.57762665 -0.063376188
-0.084125593 0.60099965 -0.066957355
-0.059943601 0.59977168 -0.073337674
-0.035903033 0.59908366 -0.076912999
0.035969764 0.59905386 -0.077067614
0.059966519 0.59955311 -0.074473023
0.084136829 0.60116595 -0.066092849
-0.036099188 0.62559158 -0.064172745
-0.012007851 0.6246748 -0.068753242
0.012012959 0.62495118 -0.067371845
0.036066368 0.62552232 -0.06451869
-0.060499094 -0.31408525 -0.049284101
-0.03626553 -0.31367648 -0.053368211
-0.01209493 -0.31326884 -0.057441592
0.012012959 -0.31338373 -0.056293726
0.036149252 -0.31363809 -0.053751707
0.060357016 -0.31410268 -0.049109459
-0.08464127 -0.28982899 -0.050210118
-0.060277395 -0.28902766 -0.058884025
0.06020011 -0.28898925 -0.05930078
0.08451613 -0.28987899 -0.04966867
-0.10884113 -0.26574531 -0.049266696
-0.084318057 -0.26477659 -0.060706615
0.084280461 -0.26484719 -0.0598737
0.10866611 -0.26566249 -0.050245166
-0.10861487 -0.24112195 -0.055145264
0.10849056 -0.24106027 -0.055945754
-0.10864973 -0.21705915 -0.054239631
0.10851791 -0.21700244 -0.055058122
-0.10868528 -0.19298354 -0.053315878
0.1085458 -0.19293198 -0.054152369
-0.10872018 -0.16889273 -0.052409172
0.10857316 -0.16884658 -0.053263783
-0.10875577 -0.14478876 -0.051484704
0.08423999 -0.14432037 -0.061625957
0.10860054 -0.14474766 -0.052374363
-0.1087907 -0.12066999 -0.050576925
-0.084291883 -0.12024741 -0.061556578
0.084260419 -0.12027872 -0.060741305
0.10862794 -0.12063502 -0.051484585
-0.10882634 -0.096537799 -0.049651027
-0.084319659 -0.096198894 -0.060654521
0.084280856 -0.096223496 -0.059856534
0.10865536 -0.096508689 -0.05059433
-0.10886132 -0.07239078 -0.048742414
-0.084347978 -0.07213705 -0.059734821
0.084301308 -0.072154582 -0.058970809
0.10868278 -0.072368629 -0.049703598
-0.10889632 -0.048230026 -0.047832966
-0.084375784 -0.048060622 -0.05883193
0.084321767 -0.048072096 -0.058084846
0.10871022 -0.048214894 -0.04881227
-0.10893201 -0.024055347 -0.046905637
-0.084404141 -0.02397057 -0.057911038
0.084342241 -0.023976082 -0.057198286
0.10873769 -0.024047529 -0.047920346
-0.084431976 0.00013361155 -0.057006955
-0.10896706 0.00013371176 -0.045995235
0.08436273 0.00013371176 -0.05631125
0.10876516 0.00013371176 -0.047028184
-0.084460363 0.024252072 -0.05608511
0.084383219 0.024257082 -0.055423617
0.10879266 0.024328582 -0.046135306
-0.084488235 0.048384212 -0.055179954
0.084403731 0.048394132 -0.054535747
-0.084516659 0.072530881 -0.054256797
0.08442425 0.072544955 -0.053647161
-0.084544562 0.096691124 -0.053350687
-0.060218476 0.09644226 -0.061435223
0.060158711 0.096425124 -0.061989903
0.084444784 0.096709467 -0.052758098
-0.084572472 0.12086555 -0.0524441
-0.060237706 0.1205515 -0.060602546
0.060172323 0.12053206 -0.061105609
0.084465332 0.1208877 -0.051868439
-0.084600948 0.14505461 -0.051519513
-0.060256943 0.14467351 -0.05976975
0.060185943 0.14465268 -0.060220718
0.084486291 0.14508031 -0.050960898
-0.084628895 0.16925696 -0.050611854
-0.060276195 0.16880836 -0.058936119
0.060199577 0.16878691 -0.05933547
0.084506854 0.16928616 -0.050070405
-0.084657401 0.19347456 -0.049686074
-0.060295455 0.19295613 -0.05810225
-0.036132257 0.19271453 -0.062024593
0.060213212 0.19293465 -0.058449745
0.084527433 0.19350563 -0.049179435
-0.084685385 0.21770491 -0.048777223
-0.060314715 0.21711664 -0.057267904
-0.036145072 0.21684472 -0.061192274
0.036089569 0.21682332 -0.061504483
0.060226861 0.21709624 -0.057563424
0.084548026 0.21773878 -0.048287749
-0.084713928 0.24195088 -0.04785049
-0.060334004 0.24129026 -0.056432962
-0.036157891 0.24098793 -0.060359716
0.036095843 0.24096258 -0.060689211
0.060240515 0.24127142 -0.056676626
0.08456862 0.24198592 -0.047395706
-0.084741943 0.2662096 -0.046940684
-0.060353689 0.26547813 -0.055580258
-0.036170717 0.26514399 -0.059526563
0.036102258 0.26511592 -0.059856296
0.060254175 0.2654604 -0.055789232
0.084589243 0.26624683 -0.046503067
-0.084770516 0.2904841 -0.046012759
-0.060372986 0.2896775 -0.054744482
-0.036183819 0.28931445 -0.058675408
0.012012959 0.28905615 -0.061469913
0.036108673 0.28928223 -0.059022903
0.060267843 0.28966302 -0.054901481
0.084609866 0.29052138 -0.045609951
-0.060392298 0.31388971 -0.053908348
-0.03619666 0.31349629 -0.05784142
-0.012061518 0.31310204 -0.061782002
0.012012959 0.31321642 -0.060637355
0.036115095 0.31346133 -0.058189034
0.060281523 0.31387946 -0.054013133
-0.060411617 0.3381151 -0.053071976
-0.036209509 0.33769107 -0.057006955
-0.012068059 0.33726808 -0.060932279
0.012012959 0.33738944 -0.05980432
0.036121383 0.33765173 -0.057372093
0.060295206 0.33810949 -0.053124189
-0.060430951 0.36235332 -0.052234769
-0.036222365 0.3618986 -0.056172013
-0.012074471 0.36144513 -0.060099363
0.012012959 0.36157548 -0.058970928
0.036127806 0.36185643 -0.05653739
0.060308896 0.36235332 -0.052234769
-0.060450293 0.38660446 -0.051397204
-0.036235224 0.38611913 -0.055336595
-0.012080885 0.38563514 -0.05926609
0.012012959 0.38577217 -0.058154345
0.036134236 0.38607416 -0.055701971
0.060322598 0.38661081 -0.051344991
-0.060470045 0.41087067 -0.050541878
-0.036248095 0.41035268 -0.054500699
-0.012087304 0.40983811 -0.058432341
0.012012959 0.40998381 -0.057319999
0.036140673 0.41030484 -0.054866552
0.060336307 0.41088223 -0.050454736
-0.060489409 0.43514797 -0.049703479
-0.03626097 0.43459901 -0.053664565
-0.012093725 0.43405393 -0.057598233
0.012012959 0.43420821 -0.056485295
0.036147103 0.43454832 -0.054030299
0.060350019 0.43516719 -0.049563646
-0.06050878 0.45943797 -0.048864722
-0.03627412 0.45886096 -0.052810431
-0.012100149 0.45828283 -0.056763411
0.012012959 0.45844561 -0.055649877
0.036153413 0.45880231 -0.053211451
0.060364015 0.45946878 -0.048654914
-0.06051524 0.48365501 -0.048584938
-0.036278684 0.48305008 -0.052513957
-0.012102695 0.48244667 -0.056432962
0.012012959 0.48261547 -0.055336714
0.036155827 0.48299095 -0.052897573
0.06036859 0.48369008 -0.048357725
-0.06051524 0.50783122 -0.048584938
-0.036278684 0.50719607 -0.052513957
-0.012102695 0.50656241 -0.056433082
0.012012959 0.5067395 -0.055336595
0.036155827 0.5071339 -0.052897453
0.06036859 0.50786775 -0.048357487
-0.06051524 0.53200716 -0.048584938
-0.036278684 0.53134185 -0.052513719
-0.012102695 0.53067797 -0.056432962
0.012012959 0.53086376 -0.055336714
0.036155827 0.53127688 -0.052897453
0.06036859 0.53204572 -0.048357606
-0.036227722 0.55490148 -0.055824041
-0.012079548 0.55426139 -0.059439659
0.012012959 0.55444586 -0.058397651
0.036130752 0.55484313 -0.056154609
-0.060431354 0.55553997 -0.052217364
0.060309701 0.55554622 -0.052182436
-0.10898795 0.58093804 -0.045452356
-0.084477514 0.57907641 -0.055528045
0.084394887 0.57918912 -0.054918647
0.10878349 0.58075678 -0.046433091
-0.13312019 0.60485512 -0.046923161
-0.10854455 0.60292113 -0.056972146
0.10843808 0.60279077 -0.057650328
0.13301791 0.60515851 -0.045347095
-0.084655784 0.62848049 -0.049738526
-0.060260952 0.62650758 -0.059596062
0.060187817 0.62640685 -0.060099363
0.084527433 0.62859243 -0.049179196
-0.060970709 -0.34045663 -0.028862715
-0.03657423 -0.33997667 -0.033317685
-0.012246706 -0.33950156 -0.037725091
0.012012959 -0.33961734 -0.036650896
0.036301933 -0.33991191 -0.033917785
-0.084966108 -0.31504819 -0.039660573
0.084752947 -0.31507295 -0.039414406
0.10930326 -0.31605977 -0.029552937
-0.10924812 -0.29089287 -0.03869307
0.10898228 -0.2907742 -0.039977074
-0.13358651 -0.26679865 -0.036826968
0.13341641 -0.26695389 -0.034994006
-0.13324966 -0.24197061 -0.044120312
0.13313267 -0.24210571 -0.042366147
-0.13329178 -0.21782345 -0.043208122
0.13317321 -0.21795477 -0.041312456
-0.13333474 -0.19366325 -0.042278171
0.13321379 -0.1937876 -0.040258169
-0.13338503 -0.16949733 -0.041189313
0.13325372 -0.16960332 -0.039220929
-0.13343616 -0.14531545 -0.040082455
0.13329434 -0.14540403 -0.038165092
-0.13348651 -0.12111592 -0.038992167
0.13333501 -0.12118837 -0.037108898
-0.13353772 -0.096900053 -0.037883639
0.13337502 -0.096956022 -0.036069393
-0.13358895 -0.072667308 -0.036774278
0.13341573 -0.072707988 -0.035011411
-0.13364023 -0.048417367 -0.035664082
0.13345647 -0.048443772 -0.03395319
-0.13369155 -0.024150394 -0.03455317
0.13349655 -0.024163021 -0.032911658
0.13353735 0.00013366166 -0.031851768
-0.13374208 0.00013371176 -0.033459067
-0.13379347 0.024434803 -0.032346487
-0.10900279 0.02433685 -0.045066833
0.1335775 0.024446679 -0.030809045
-0.13384488 0.048753031 -0.031233072
-0.10903787 0.048554018 -0.044155359
0.10882016 0.048537333 -0.045241952
0.13361834 0.048775978 -0.029747725
-0.13389552 0.073087938 -0.030136943
-0.10907365 0.072785661 -0.043225765
0.10884768 0.072759606 -0.044348121
0.13365921 0.073121414 -0.028685689
-0.13394701 0.09744034 -0.02902174
-0.10910878 0.097030982 -0.042313337
0.10887577 0.096996561 -0.043436289
-0.10914459 0.12129129 -0.041382551
0.10890332 0.12124665 -0.042541385
-0.10917975 0.14556488 -0.04046905
0.10893089 0.14551066 -0.041646242
-0.10921561 0.16985364 -0.039537311
0.10895847 0.16978836 -0.040750265
-0.10925082 0.19415572 -0.038622856
0.10898607 0.19407988 -0.039853811
-0.10928673 0.21847321 -0.037689805
0.10901369 0.21838528 -0.038957119
-0.10932197 0.24280341 -0.036774158
0.10904132 0.24270456 -0.038059592
-0.10935792 0.26714972 -0.035840392
0.10906897 0.26703772 -0.037161589
-0.10939321 0.29150844 -0.034923553
0.10909664 0.29138488 -0.036263227
-0.1094292 0.31588337 -0.033988476
-0.08479856 0.31477112 -0.045101881
0.084630504 0.31480959 -0.044716358
0.10912431 0.31574568 -0.035364151
-0.10946452 0.34027064 -0.033070564
-0.084827162 0.33907411 -0.044173002
0.08465115 0.33911204 -0.04382205
0.10915256 0.34012228 -0.034447312
-0.10950056 0.3646743 -0.032134414
-0.084855244 0.36338943 -0.043260932
0.08467181 0.36342797 -0.042927623
0.10918027 0.36451107 -0.033547163
-0.10953593 0.38909018 -0.031215429
-0.084883884 0.38772103 -0.04233098
0.084692478 0.38775781 -0.042032361
0.109208 0.38891393 -0.032646894
-0.10957199 0.4135226 -0.030278325
-0.084911995 0.4120647 -0.041417837
0.084713571 0.41210389 -0.041119099
0.10923574 0.41333044 -0.031745791
-0.084940664 0.43642503 -0.040486693
0.084734268 0.43646166 -0.040223002
-0.10960741 0.43796709 -0.029358268
0.10926349 0.4377611 -0.030844331
-0.08496882 0.4607971 -0.039572358
0.084754981 0.4608331 -0.039326429
0.10929237 0.46221092 -0.029906869
-0.084976934 0.48508316 -0.039308667
0.084760658 0.48511839 -0.039080143
0.10929944 0.48656607 -0.029676795
-0.084976934 0.50933063 -0.039308786
0.084760658 0.50936759 -0.039080143
0.10929944 0.51088774 -0.029676795
-0.084976934 0.53357816 -0.039308786
0.084760658 0.53361684 -0.039080143
0.10929944 0.53520936 -0.029676795
-0.10943394 0.55878955 -0.033864856
-0.08483202 0.55699223 -0.044015169
0.084654391 0.5570513 -0.043681741
0.10913192 0.5585677 -0.035117269
-0.13371192 0.58303314 -0.034111977
0.13350743 0.58330721 -0.032629132
-0.10932875 0.63111061 -0.036597967
0.10903753 0.63079327 -0.038182735
-0.012208551 0.65411443 -0.042681813
0.012012959 0.65475696 -0.039590001
-0.036635734 0.65689111 -0.029322743
0.036319472 0.65640938 -0.031639576
-0.085687742 -0.34181875 -0.016224742
0.060693007 -0.3406266 -0.027286291
0.085277773 -0.34176877 -0.016688704
-0.10965716 -0.31620863 -0.028065681
-0.13417959 -0.29225144 -0.023986459
0.13388589 -0.29236138 -0.022796154
-0.15901713 -0.26862785 -0.015225053
0.15857391 -0.26856127 -0.016010642
-0.15854597 -0.24352196 -0.023968816
0.15819158 -0.24349736 -0.024288416
-0.15860531 -0.21923269 -0.022867322
0.15823996 -0.21920688 -0.023240447
-0.15866567 -0.19492753 -0.021747351
0.15828922 -0.19490133 -0.022174239
-0.15872608 -0.17060535 -0.020626664
0.1583377 -0.17057855 -0.02112484
-0.15878652 -0.14626583 -0.019504905
0.15838701 -0.14624038 -0.020056963
-0.15884602 -0.12190837 -0.018400431
0.15843636 -0.12188578 -0.01898849
-0.15890656 -0.09753453 -0.01727736
0.15848492 -0.097514339 -0.017937064
-0.15896712 -0.073143497 -0.016153336
0.15853433 -0.073127016 -0.016867161
-0.15902771 -0.04873503 -0.015028715
0.15858379 -0.048723254 -0.015796542
-0.1590874 -0.024309225 -0.013921022
0.15863246 -0.024302913 -0.01474297
-0.15914811 0.00013371176 -0.012794614
0.15868197 0.00013371176 -0.013670802
-0.15920885 0.024594037 -0.011667609
0.1587307 0.02458662 -0.0126158
0.13369945 0.097482927 -0.027640581
-0.13399854 0.12180997 -0.027906299
0.13374037 0.12186118 -0.026577234
-0.13405012 0.1461968 -0.026789904
0.13378133 0.14625561 -0.025513053
-0.13410172 0.17060071 -0.025672793
0.13382164 0.17066583 -0.024465919
-0.13415253 0.19502099 -0.024572492
0.13386264 0.19509315 -0.023400307
-0.13420419 0.21945941 -0.023453593
0.13390368 0.21953703 -0.022334099
-0.13425592 0.24391514 -0.022334099
0.13394406 0.2439959 -0.021284938
-0.13430683 0.26838669 -0.021231413
0.13398516 0.26847246 -0.02021718
-0.13435863 0.29287699 -0.020110369
0.1340256 0.29296401 -0.019166708
-0.13441044 0.31738436 -0.018988371
0.13406676 0.31747368 -0.01809752
-0.1344623 0.34190926 -0.017865658
0.13410725 0.34199771 -0.017045379
-0.13451336 0.36644956 -0.016759872
0.13414845 0.36654025 -0.015974879
-0.13456531 0.39100909 -0.01563561
0.13418901 0.39109707 -0.014921308
-0.13461727 0.41558596 -0.014510512
0.13423026 0.4156726 -0.013849378
-0.13466927 0.44018045 -0.013384581
0.13427086 0.44026208 -0.012794614
-0.13472131 0.46479225 -0.012258053
-0.10964353 0.46242833 -0.028420091
0.13431218 0.46487066 -0.011721134
-0.10965102 0.48678964 -0.028225303
-0.13472709 0.48926714 -0.012132645
-0.13472709 0.51372391 -0.012132883
-0.10965102 0.51112247 -0.028225064
-0.10965102 0.53545523 -0.028225183
-0.13472627 0.53817749 -0.012150645
-0.13434629 0.56117737 -0.020377398
0.13401258 0.56133187 -0.019504905
-0.15899886 0.58645988 -0.015564442
0.15856318 0.58633465 -0.016242743
-0.15860723 0.60949135 -0.022831798
0.15823586 0.60939574 -0.023329258
-0.13442114 0.63468134 -0.018756866
0.13408186 0.63489187 -0.017705321
-0.061666615 -0.36826411 0.001270771
-0.036993679 -0.36741602 -0.0060737133
-0.012455706 -0.36689627 -0.010575414
0.012012959 -0.36699343 -0.0097335577
0.036509641 -0.36731651 -0.0069357157
0.061142951 -0.36834127 0.0019387007
-0.11061711 -0.34323043 -0.0031256676
0.11017245 -0.34342453 -0.0013252497
-0.1347767 -0.31791061 -0.011058927
0.13435835 -0.31796432 -0.01052165
-0.1597186 -0.29426318 -0.0022076368
0.15914245 -0.29412529 -0.00370121
-0.18419182 -0.2451223 -0.003179431
0.1837979 -0.24527331 -0.0012171268
-0.18426056 -0.22067399 -0.0020635128
0.18387461 -0.22083127 0.00020682812
-0.18433042 -0.19620967 -0.00092887878
0.18395044 -0.1963663 0.0016137362
-0.18440703 -0.17173381 0.00031507015
0.1840273 -0.17188071 0.0030401945
-0.18450259 -0.14725304 0.0018664598
0.18410325 -0.14737229 0.0044497252
-0.18459822 -0.12274827 0.0034193993
-0.18469396 -0.09821976 0.0049740076
-0.15926963 0.049071547 -0.010539412
0.15878029 0.049056165 -0.01154232
-0.15932947 0.073566139 -0.0094287395
0.15882908 0.073541738 -0.010485888
-0.15939035 0.09807837 -0.0082992315
0.15887873 0.09804415 -0.0094108582
-0.15945125 0.12260814 -0.0071690083
0.15892759 0.12256259 -0.0083531141
-0.15951221 0.14715524 -0.0060379505
0.15897731 0.14709812 -0.0072766542
-0.15957321 0.17171994 -0.0049060583
0.15902622 0.17164929 -0.0062173605
-0.15963326 0.19630082 -0.0037910938
0.15907602 0.19621779 -0.0051394701
-0.15969434 0.22090028 -0.0026576519
0.15912502 0.22080182 -0.0040789843
-0.15975548 0.24551718 -0.0015233755
0.15917484 0.24540344 -0.0029995441
-0.15981664 0.27015173 -0.00038814545
0.15922391 0.27002051 -0.0019375086
-0.15987688 0.29480201 0.00072991848
0.15927383 0.29465544 -0.00085687637
-0.15993813 0.31947145 0.0018664598
0.15932295 0.3193053 0.0002065897
-0.15999943 0.34415847 0.0030039549
0.15937294 0.34397364 0.00128901
-0.16006078 0.36886305 0.0041422844
0.15942213 0.36865655 0.0023539066
0.15947217 0.3933582 0.0034375191
0.15953478 0.41811228 0.0047932863
0.134317 0.48934993 -0.011595964
0.134317 0.51381069 -0.011595964
0.13431631 0.53826851 -0.011613846
-0.1597477 0.56449014 -0.0016672611
0.15917484 0.56425434 -0.0029995441
-0.18465166 0.59012747 0.0042868853
-0.18464942 0.6147036 0.0042508841
-0.061383933 0.66070569 -0.010969281
0.060992237 0.66135383 -0.0078507662
-0.012681529 -0.39497817 0.018759966
0.012012959 -0.39505234 0.019361973
-0.086623088 -0.36975148 0.014151335
0.085957244 -0.36958775 0.01273334
-0.1362619 -0.34584087 0.021096587
0.13552754 -0.34570715 0.019854784
-0.16042486 -0.32010794 0.010898948
0.15979668 -0.32006437 0.010463238
-0.18496385 -0.27070946 0.0093567371
0.18448012 -0.27088618 0.011443615
0.18418024 -0.12284297 0.0058786869
0.18425635 -0.098291159 0.0072907209
-0.18478978 -0.073667288 0.0065300465
0.18433347 -0.073717944 0.0087221861
-0.18488571 -0.04909097 0.0080877542
0.18440971 -0.049122535 0.010136724
-0.18498173 -0.024490654 0.0096468925
0.18448697 -0.024505435 0.011570692
-0.18507782 0.00013366166 0.011207581
0.18456334 0.00013371176 0.012987733
-0.18517402 0.024782028 0.012769818
0.18464075 0.024794705 0.014424205
-0.18527032 0.049454544 0.014333248
0.18471724 0.049477693 0.015843987
-0.18536672 0.07415121 0.015898585
0.1847948 0.074183024 0.017283082
-0.18546322 0.098871827 0.017465353
0.18487144 0.098910004 0.01870513
-0.18555981 0.12361664 0.019033551
0.18494911 0.12365943 0.020146847
-0.18565647 0.14838587 0.020603418
0.1850259 0.14843045 0.021571517
-0.16012119 0.39358321 0.0052636862
-0.16018261 0.41832301 0.006403327
-0.16024408 0.44308037 0.0075441599
0.15959996 0.44289482 0.0062043667
-0.1603056 0.46785554 0.008685708
0.15966603 0.46770176 0.0076348782
-0.1603056 0.4924725 0.0086858273
0.15966603 0.49231064 0.0076346397
-0.16030464 0.51708651 0.0086675882
0.15966603 0.51691943 0.0076346397
-0.16030464 0.54170328 0.0086678267
0.1596652 0.54152524 0.0076167583
0.18420462 0.59050506 0.0063312054
0.1842622 0.61530954 0.007399559
-0.16021383 0.63983327 0.0069828033
0.15955484 0.6394819 0.0052273273
-0.062437557 -0.39693564 0.034653664
-0.037450273 -0.39557216 0.023582935
0.03673894 -0.39548203 0.022851229
0.06164125 -0.39689261 0.034303665
-0.11206272 -0.37209335 0.03443265
0.11126444 -0.37205926 0.034137964
-0.1861017 -0.29703832 0.027833343
0.18538605 -0.2970773 0.028255343
-0.21121356 -0.24789578 0.032849312
0.21034139 -0.24777688 0.031304359
-0.21132328 -0.22320257 0.03443265
0.21043089 -0.22308648 0.032757401
-0.2114318 -0.19848391 0.035999298
0.2105193 -0.19837268 0.034193277
-0.21154173 -0.1737421 0.037585616
0.21060896 -0.17363778 0.035648942
0.21069753 -0.14887974 0.037087321
0.21078734 -0.12410029 0.038545728
-0.18575324 0.17317918 0.022174716
0.18510371 0.17322457 0.023015738
-0.1858501 0.19799671 0.023747563
0.18518062 0.19803964 0.02444315
-0.18594708 0.22283871 0.02532196
0.1852586 0.22287816 0.025889993
-0.18604413 0.24770509 0.026898026
0.18533562 0.24773745 0.027319789
-0.18614128 0.27259576 0.028475523
0.18541373 0.27262062 0.028769374
-0.18623851 0.29751101 0.030054808
0.1854919 0.29752609 0.030220032
-0.18633586 0.32245049 0.031635404
0.18556917 0.32245228 0.031653643
-0.1864333 0.34741464 0.03321743
0.18564747 0.34740287 0.033107042
-0.18653083 0.37240341 0.034801126
0.18572487 0.37237361 0.034543395
-0.18662846 0.39741656 0.03638649
0.18580332 0.39736876 0.035999179
-0.18672618 0.42245433 0.037973166
0.18588087 0.42238432 0.037437916
-0.18579829 0.5688411 0.022906184
0.18513229 0.56895441 0.023546338
-0.21147268 0.59609538 0.036589265
0.21056241 0.59578204 0.034893274
-0.087795101 -0.39909849 0.052213669
0.086878896 -0.39915136 0.052642107
-0.18729398 -0.32374004 0.04719305
0.18632352 -0.32358596 0.045652747
-0.21236052 -0.27410057 0.049403906
0.21142857 -0.27406275 0.048957705
-0.21165173 -0.14897609 0.039173722
-0.21176186 -0.12418567 0.04076314
-0.21187212 -0.099370755 0.042354465
0.21087724 -0.09929841 0.040005207
-0.21198244 -0.074531443 0.043947101
0.21096607 -0.074473672 0.041447759
-0.21209291 -0.049667623 0.045541406
0.21106979 -0.049630497 0.043132067
-0.21220475 -0.024779407 0.047155857
0.21121818 -0.024766931 0.045541406
-0.21231544 0.00013366166 0.048753262
0.21136792 0.00013361155 0.047973037
-0.21242622 0.025071431 0.050352454
0.21151675 0.025071733 0.050389528
-0.21253712 0.050033703 0.051952958
0.21166693 0.05004723 0.052828312
-0.21264811 0.075020671 0.053555131
0.21181621 0.07505995 0.055252433
-0.21275924 0.10003249 0.055158973
-0.18682401 0.44751692 0.039561749
0.18595946 0.44742471 0.03889668
-0.18690483 0.47256342 0.040874243
0.18602318 0.47244716 0.040079117
-0.1869037 0.49742532 0.040855765
0.18602318 0.49730581 0.040079355
-0.1869037 0.52228993 0.040855765
0.18602318 0.5221644 0.040079117
-0.1869037 0.54715455 0.040855765
0.18602219 0.54702002 0.040060759
-0.21279025 0.57463074 0.055606961
-0.21273854 0.62444341 0.054860473
-0.18746677 0.64844286 0.049998879
0.18645856 0.64807451 0.048158884
-0.087626211 0.67269814 0.046728849
0.086887501 0.67400461 0.053014874
-0.01304647 -0.60129261 0.066166997
0.012012959 -0.60130644 0.066242099
-0.038108788 -0.57626653 0.06635499
-0.013005901 -0.57530004 0.060897231
0.012012959 -0.57532662 0.061046958
0.037077017 -0.5763396 0.066768289
-0.038113419 -0.55125648 0.066655517
-0.013009073 -0.5503509 0.06130898
0.012012959 -0.55037326 0.06144011
0.03707904 -0.55132008 0.067031384
-0.038173955 -0.52682883 0.070587397
-0.013037074 -0.52591693 0.064946413
0.012012959 -0.52593517 0.065059066
0.03710888 -0.52688068 0.070907712
-0.013084702 -0.50181955 0.071133852
0.012012959 -0.50182831 0.071190357
-0.038075548 -0.42561859 0.064195991
-0.012982141 -0.42478296 0.057810664
0.012012959 -0.42480984 0.058016181
0.037061691 -0.42569476 0.064777493
-0.13833581 -0.37573823 0.065998077
0.13731444 -0.37577078 0.066279769
-0.16288428 -0.34966078 0.056540251
0.16189729 -0.34959635 0.055942774
0.21196684 0.10011056 0.057698488
-0.21287045 0.12506887 0.056764364
0.21211657 0.1251985 0.060129762
-0.21298178 0.15013009 0.058371305
0.2122665 0.15032375 0.062564373
-0.21315031 0.17526077 0.060803533
0.21241783 0.17548794 0.065021515
-0.21335413 0.20045999 0.063745737
0.21256824 0.20068897 0.067463636
-0.21355833 0.22570495 0.066693068
0.21272002 0.22592922 0.069928288
-0.21376161 0.25099421 0.069627166
0.21287087 0.25120607 0.072377801
0.21197148 0.57501435 0.057773232
0.21203822 0.62521273 0.05885756
-0.013209481 -0.68087208 0.087342858
0.012012959 -0.68086034 0.087285757
-0.03845625 -0.65596592 0.088923097
0.037246391 -0.65593553 0.088770509
-0.013162836 -0.65443707 0.08128345
0.012012959 -0.65443707 0.08128345
-0.038354691 -0.62946182 0.082326531
-0.013116509 -0.62810302 0.075265408
0.012012959 -0.62811035 0.075303197
0.037197076 -0.62946934 0.082364559
-0.063657433 -0.60522962 0.087476015
0.062463991 -0.60527867 0.087742567
-0.038203839 -0.60246783 0.072528601
0.03712368 -0.60252362 0.072830439
-0.063457549 -0.57847351 0.078820586
0.062336247 -0.57858419 0.079445481
-0.063457988 -0.55331981 0.07883954
0.062335957 -0.55341929 0.079426408
-0.063565247 -0.5289138 0.083484173
0.062404279 -0.52897525 0.083864093
-0.038274784 -0.5027439 0.077136636
0.037157997 -0.50276715 0.077287912
-0.038399126 -0.47878113 0.085212827
-0.013139652 -0.47776598 0.078271627
0.012012959 -0.47776869 0.078290701
0.037219003 -0.47878113 0.085212827
-0.038399126 -0.45357502 0.085212827
-0.013138922 -0.45260009 0.078177094
0.012012959 -0.45260009 0.078177094
0.037219003 -0.45357502 0.085212827
-0.063477665 -0.42764643 0.079691648
0.062352002 -0.42774817 0.080468535
-0.11400262 -0.4031162 0.084832788
0.11283479 -0.40315357 0.085136771
-0.21427926 -0.30158922 0.077098846
0.21326296 -0.30174133 0.078744888
-0.21396656 0.27633092 0.072585225
0.21302311 0.27652261 0.074849844
-0.21417189 0.30171347 0.075548768
0.21317442 0.30187592 0.077306867
-0.21437627 0.32714042 0.078498721
0.21332711 0.32726923 0.07978642
-0.21458101 0.3526133 0.081454158
0.21347888 0.35269913 0.082250714
-0.21478745 0.37813443 0.084434032
0.21363205 0.37816945 0.084737897
-0.21499296 0.4036997 0.08739984
0.21378426 0.40367642 0.087209702
-0.21482958 0.55463761 0.085042
0.21366014 0.55466348 0.085193753
-0.24000943 0.60498744 0.084718943
0.23875284 0.60477328 0.083560228
-0.013332251 -0.98832953 0.10329103
0.012012959 -0.98824286 0.10300279
-0.013320128 -0.96252352 0.10171616
0.012012959 -0.96246749 0.10152411
-0.013320128 -0.93719047 0.10171604
0.012012959 -0.93713576 0.10152411
-0.03862692 -0.91138405 0.10000837
-0.013244394 -0.90913105 0.091878176
0.012012959 -0.90910459 0.091782808
0.037330091 -0.91128314 0.099644065
-0.038627215 -0.8860693 0.10002768
-0.013244394 -0.88387376 0.091878176
0.012012959 -0.88384789 0.091782689
0.037330091 -0.88596612 0.099644065
-0.038692255 -0.86185491 0.10425198
-0.013262033 -0.85921609 0.094169736
0.012012959 -0.85918605 0.094054937
0.0373592 -0.86163878 0.1034255
-0.013349568 -0.83682972 0.10554087
0.012012959 -0.8367759 0.10532904
-0.013349568 -0.81146723 0.10554063
0.012012959 -0.81141502 0.10532904
-0.013348088 -0.78605878 0.10534847
0.012012959 -0.7860083 0.10513663
-0.013316138 -0.75973916 0.10119784
0.012012959 -0.75969481 0.10100591
-0.038719207 -0.73548263 0.10600269
-0.013284266 -0.73348582 0.097057819
0.012012959 -0.73345172 0.096904516
0.0373783 -0.73546124 0.10590649
-0.038649663 -0.70914298 0.10148561
-0.013252476 -0.70729858 0.092928171
0.012012959 -0.70727378 0.092813611
0.037340872 -0.70904785 0.1010443
-0.038557924 -0.68257314 0.095527053
0.037296191 -0.68251359 0.095239997
-0.063918084 -0.63262492 0.098762393
0.062629223 -0.63256961 0.09847486
-0.089363143 -0.58277881 0.10313725
0.088052578 -0.58283681 0.10346413
-0.089363143 -0.55743492 0.10313725
0.088052578 -0.55749023 0.10346401
-0.063732669 -0.50483716 0.090733767
0.062511221 -0.50484884 0.090809822
-0.063965015 -0.48106024 0.10079491
0.06265904 -0.48100412 0.10041118
-0.063975662 -0.45579794 0.10125542
0.062665835 -0.45574212 0.10085237
-0.24080023 -0.25267944 0.094991565
0.23931195 -0.25242069 0.091630101
-0.24076936 -0.22737037 0.094590068
0.23931062 -0.22716394 0.091611028
-0.24100056 -0.20227712 0.097593904
0.23948391 -0.20206273 0.094112277
-0.24123073 -0.17713693 0.10058391
0.23965615 -0.17692219 0.096598506
-0.2414628 -0.15195175 0.10359859
0.23982999 -0.15174437 0.099107385
0.24012382 -0.12659454 0.10334849
-0.21519883 0.42931157 0.09037137
0.21393789 0.4292241 0.089704275
-0.21540639 0.45497227 0.093367338
0.21409057 0.45480838 0.092183471
-0.21551231 0.48046479 0.094896078
0.21417055 0.48025796 0.093482018
-0.21551231 0.50574529 0.094896078
0.21417055 0.50552762 0.093482018
-0.21551231 0.53102601 0.094895959
0.21417172 0.53080034 0.093500972
-0.038879436 -0.99226803 0.11640978
0.03746333 -0.99243069 0.11695206
-0.038791612 -0.96515322 0.11070573
0.037419111 -0.96530002 0.1112076
-0.038791612 -0.93975091 0.11070585
0.037419111 -0.93989378 0.1112076
-0.064425059 -0.89164317 0.12071514
0.062977917 -0.8917532 0.12112308
-0.064427301 -0.86618936 0.1208123
0.062977917 -0.8662706 0.12112308
-0.038865425 -0.83935952 0.11549962
0.037455428 -0.83946782 0.11592555
-0.038865123 -0.81391561 0.1154803
0.037455276 -0.81402045 0.11590612
-0.038865123 -0.78847653 0.1154803
0.037455276 -0.78857815 0.11590612
-0.038788941 -0.76189482 0.11053193
0.037417773 -0.76201069 0.1110338
-0.06429746 -0.68666005 0.11518991
0.062901475 -0.6868614 0.11615789
-0.064101741 -0.65952706 0.10671484
0.062746599 -0.6594038 0.10609901
-0.089836277 -0.61096174 0.11850286
0.088376604 -0.61077547 0.11749482
-0.089523725 -0.53293401 0.10835254
0.088162802 -0.53291535 0.10823679
-0.08978793 -0.50887078 0.11693275
0.088345729 -0.50875151 0.11615789
-0.089737251 -0.43230474 0.11528671
0.088305503 -0.43219072 0.11441588
-0.24169531 -0.12672046 0.10661864
-0.24192673 -0.10144223 0.1096251
0.2407968 -0.10154805 0.11306226
-0.24215859 -0.076117799 0.11263716
0.24146703 -0.076351039 0.12273622
-0.24239236 -0.050747328 0.1156739
-0.24260417 0.58575296 0.11842537
-0.064817242 -0.97304887 0.13769698
0.0632485 -0.97334158 0.13869774
-0.064817242 -0.94743872 0.13769686
0.0632485 -0.94772381 0.13869774
-0.064640939 -0.91971308 0.13006282
0.063103832 -0.91950208 0.12930143
-0.064861216 -0.76860797 0.13960111
-0.064681552 -0.74124664 0.13182139
0.063134804 -0.74113303 0.13131332
-0.064509921 -0.7140798 0.12438965
0.06303031 -0.7141093 0.1245259
-0.090469606 -0.64038241 0.13907087
0.08887171 -0.64035589 0.13893354
-0.090295777 -0.48583281 0.13342524
0.088760778 -0.48593572 0.13413
-0.090479285 -0.46108136 0.13938498
0.08888033 -0.46107045 0.13930631
0.24214119 -0.051005967 0.13246691
0.24177054 0.58729184 0.12711668
-0.064902514 -0.84593648 0.14138949
0.063297808 -0.84606636 0.1419009
-0.065058582 -0.82196277 0.14814734
0.063393988 -0.82196277 0.14814734
-0.065058582 -0.79627228 0.14814758
0.063394293 -0.79627699 0.14816737
0.063282982 -0.76891661 0.14093721
-0.24435228 -0.025502866 0.14113379
0.24281932 -0.025511535 0.14225495
0.24350147 0.00013361155 0.1521008
-0.24673671 0.00013371176 0.17210841
0.24418627 0.025930675 0.16198504
0 0 0 1 0 0 0 1 0 0 0 1 0 0 0 0 0 941 1 0 0
