ply
format ascii 1.0
comment PCL generated
element vertex 1327
property float x
property float y
property float z
element camera 0
property float view_px
property float view_py
property float view_pz
property float x_axisx
property float x_axisy
property float x_axisz
property float y_axisx
property float y_axisy
property float y_axisz
property float z_axisx
property float z_axisy
property float z_axisz
property float focal
property float scalex
property float scaley
property float centerx
property float centery
property int viewportx
property int viewporty
property float k1
property float k2
end_header
0.0051461086 -0.081941321 -0.21113676
0.0051461086 -0.067332275 -0.2111367
0.0051461086 -0.05272324 -0.21113664
0.0051461086 -0.038114265 -0.21113664
0.0051461086 -0.023505192 -0.21113664
0.0051461086 -0.0088960845 -0.2111367
0.0051461086 0.0057128929 -0.2111367
0.0051461086 0.020321965 -0.21113664
0.0051461086 0.034930941 -0.21113664
0.0051461086 0.049540047 -0.2111367
0.0051461086 0.064149097 -0.21113664
0.0051461086 0.078758076 -0.21113664
0.0051461086 0.0933671 -0.21113664
0.0051461086 0.10797624 -0.2111367
0.0051461086 0.12258524 -0.21113664
0.0051461086 0.13719428 -0.21113664
0.0051461086 0.15180327 -0.21113664
0.0051461086 0.16641235 -0.2111367
0.0051461086 0.18102144 -0.21113664
0.0051461086 0.1956304 -0.21113664
0.0051461086 0.21023946 -0.21113664
0.0051461086 0.22484848 -0.21113658
-0.03877493 0.23903492 -0.21418667
0.0051461086 0.23945755 -0.2111367
0.0047926679 0.25310719 -0.21769565
0.019936159 0.25449651 -0.20819736
-0.024290629 0.26780099 -0.21681756
0.033877298 0.26759359 -0.21816427
0.049028739 0.26878667 -0.21041554
0.035047263 -0.25846419 -0.20127738
0.020334564 -0.24372721 -0.20172811
-0.038360331 -0.22915415 -0.20072228
0.020334564 -0.2290457 -0.20172811
0.020334564 -0.21436429 -0.20172811
0.020334564 -0.19968279 -0.20172811
0.020334564 -0.18500137 -0.20172805
0.020334564 -0.17031987 -0.20172811
0.020334564 -0.15563838 -0.20172811
0.020334564 -0.14095695 -0.20172811
0.020334564 -0.12627546 -0.20172811
0.020334564 -0.11159404 -0.20172805
0.020334564 -0.096912533 -0.20172811
0.020334564 -0.082231037 -0.20172811
0.020334564 -0.067549556 -0.20172805
0.020334564 -0.052868061 -0.20172811
0.020334564 -0.038186654 -0.20172805
0.020334564 -0.023505174 -0.20172805
0.020334564 -0.0088236751 -0.20172811
0.020334564 0.0058577489 -0.20172805
0.020334564 0.020539246 -0.20172811
0.020334564 0.035220746 -0.20172811
0.020334564 0.049902167 -0.20172805
0.020334564 0.064583674 -0.20172811
0.020334564 0.079265088 -0.20172805
0.020334564 0.093946591 -0.20172811
0.020334564 0.10862811 -0.20172811
0.020334564 0.12330952 -0.20172805
0.020334564 0.13799101 -0.20172811
0.020334564 0.15267238 -0.20172805
0.020334564 0.16735388 -0.20172811
0.020334564 0.18203539 -0.20172811
0.020334564 0.1967168 -0.20172805
0.020334564 0.2113983 -0.20172811
-0.038338687 0.2263034 -0.20001924
0.020334564 0.22607973 -0.20172805
0.020334564 0.24076122 -0.20172811
0.035109758 0.25564066 -0.20037514
-0.052808605 -0.25981754 -0.19028932
0.05035086 -0.25945401 -0.19324064
0.065783963 -0.26045227 -0.1851359
-0.052920938 -0.24448641 -0.19515353
0.035674363 -0.24482441 -0.19222581
0.035674363 -0.23006985 -0.19222564
-0.038079835 -0.21537653 -0.19161284
0.035674363 -0.21531516 -0.19222575
-0.038079835 -0.20061715 -0.19161284
0.035674363 -0.20056055 -0.19222581
-0.038079835 -0.18585788 -0.19161284
0.035674363 -0.18580595 -0.19222575
-0.038079835 -0.17109844 -0.19161284
0.035674363 -0.17105129 -0.19222581
-0.038079835 -0.15633915 -0.1916129
0.035674363 -0.15629672 -0.19222581
-0.038079835 -0.14157979 -0.19161284
0.035674363 -0.14154208 -0.19222581
-0.038079835 -0.1268205 -0.19161284
0.035674363 -0.12678747 -0.19222575
-0.038079835 -0.11206116 -0.19161284
0.035674363 -0.11203288 -0.19222581
-0.038079835 -0.097301885 -0.19161284
0.035674363 -0.097278252 -0.19222575
-0.038079835 -0.082542539 -0.19161278
0.035674363 -0.082523599 -0.19222581
-0.038079835 -0.067783147 -0.1916129
0.035674363 -0.06776908 -0.19222575
-0.038079835 -0.0530238 -0.19161284
0.035674363 -0.053014405 -0.19222581
-0.038079835 -0.038264506 -0.19161284
0.035674363 -0.038259808 -0.19222564
0.035674363 -0.023505192 -0.19222581
-0.038079835 -0.023505155 -0.19161278
-0.038079835 -0.0087458612 -0.19161284
0.035674363 -0.0087505952 -0.19222575
-0.038079835 0.0060134884 -0.19161278
0.035674363 0.0060040765 -0.19222575
-0.038079835 0.020772874 -0.19161284
0.035674363 0.020758618 -0.19222575
-0.038079835 0.035532206 -0.19161284
0.035674363 0.035513271 -0.19222581
-0.038079835 0.050291505 -0.19161284
0.035674363 0.050267886 -0.19222564
-0.038079835 0.065050855 -0.19161284
0.035674363 0.065022498 -0.19222575
-0.038079835 0.079810143 -0.19161284
0.035674363 0.079777151 -0.19222581
-0.038079835 0.094569489 -0.19161278
0.035674363 0.094531775 -0.19222575
-0.038079835 0.10932885 -0.19161284
0.035674363 0.10928638 -0.19222581
-0.038079835 0.12408821 -0.19161284
0.035674363 0.12404098 -0.19222575
-0.038079835 0.13884751 -0.19161284
0.035674363 0.13879566 -0.19222581
-0.038079835 0.15360685 -0.19161284
0.035674363 0.15355021 -0.19222575
-0.038079835 0.16836615 -0.19161284
0.035674363 0.16830486 -0.19222581
-0.038079567 0.18312648 -0.19160414
0.035674363 0.18305947 -0.19222575
-0.038079567 0.19788581 -0.19160402
0.035674363 0.19781405 -0.19222581
-0.038079835 0.2126442 -0.19161284
0.035674363 0.21256867 -0.19222575
0.035674363 0.22732332 -0.19222581
-0.05290683 0.24175692 -0.19454253
0.035674363 0.24207786 -0.19222575
-0.052839372 0.25692096 -0.19162166
0.050408781 0.2567941 -0.19248831
0.065834746 0.25795725 -0.18453598
0.081348196 -0.26145899 -0.17696226
-0.067339495 -0.24683769 -0.17478997
0.051167801 -0.24593267 -0.18262821
0.066817179 -0.24705206 -0.17293417
-0.052582007 -0.23133594 -0.18047756
0.051167801 -0.23110417 -0.18262821
0.066817924 -0.23214988 -0.17292523
0.051168486 -0.21627651 -0.18261945
0.066817924 -0.2172467 -0.17292523
0.051168486 -0.20144799 -0.18261945
0.066817924 -0.20234346 -0.17292529
0.051168486 -0.18661939 -0.18261945
0.066817924 -0.18744032 -0.17292523
0.051168486 -0.17179081 -0.18261951
0.066817924 -0.17253704 -0.17292529
0.051168486 -0.15696225 -0.18261945
0.066817924 -0.1576339 -0.17292523
0.051168486 -0.14213371 -0.18261945
0.066817924 -0.14273071 -0.17292523
0.051168486 -0.12730514 -0.18261933
0.066817924 -0.1278275 -0.17292523
0.051168486 -0.11247654 -0.18261951
0.066817924 -0.11292432 -0.17292523
0.051168486 -0.09764801 -0.18261945
0.066817924 -0.098021075 -0.17292529
0.051168486 -0.082819447 -0.18261945
0.066817924 -0.083117917 -0.17292523
0.051168486 -0.067990944 -0.18261933
0.066817924 -0.068214729 -0.17292523
0.051168486 -0.05316228 -0.18261945
0.066817924 -0.053311571 -0.17292529
0.051168486 -0.038333744 -0.18261945
0.066817924 -0.038408391 -0.17292523
0.066817924 -0.02350523 -0.17292523
0.051168486 -0.023505155 -0.18261945
0.051168486 -0.0086765829 -0.18261951
0.066817924 -0.0086019933 -0.17292523
0.051168486 0.0061519518 -0.18261951
0.066817924 0.0063011684 -0.17292523
0.051168486 0.020980522 -0.18261945
0.066817924 0.021204442 -0.17292529
0.051168486 0.03580904 -0.18261945
0.066817924 0.036107585 -0.17292523
0.051168486 0.050637688 -0.18261945
0.066817924 0.051010747 -0.17292523
0.051168486 0.065466225 -0.18261945
0.066817924 0.065913975 -0.17292523
0.051168486 0.080294773 -0.18261933
0.066817924 0.080817178 -0.17292523
0.051168486 0.095123306 -0.18261933
0.066817924 0.09572041 -0.17292529
0.051168486 0.10995193 -0.18261951
0.066817924 0.11062358 -0.17292523
0.051168486 0.12478048 -0.18261945
0.066817924 0.12552673 -0.17292523
0.051168486 0.13960901 -0.18261945
0.066817924 0.14042993 -0.17292529
0.051168486 0.15443759 -0.18261933
0.066817924 0.15533309 -0.17292523
0.051168486 0.16926616 -0.18261945
0.066817924 0.17023632 -0.17292529
0.051168486 0.18409479 -0.18261945
0.066817924 0.18513948 -0.17292523
0.051168486 0.19892327 -0.18261945
0.066817924 0.20004268 -0.17292523
0.051168486 0.21375187 -0.18261933
0.066817924 0.2149459 -0.17292529
-0.052572802 0.22891295 -0.18007869
0.051167801 0.22857925 -0.18262821
0.066817924 0.22984907 -0.17292523
-0.067334831 0.24453586 -0.17448676
0.051167801 0.24340776 -0.18262821
0.066817179 0.24475104 -0.17293417
0.081389293 0.25913012 -0.17651749
-0.067112595 -0.26354182 -0.16005206
0.097045258 -0.26247433 -0.16871893
0.11287685 -0.26349834 -0.16040498
0.082625687 -0.2481837 -0.16313308
-0.067108825 -0.23356353 -0.15980768
0.082625687 -0.23320518 -0.16313308
-0.05231066 -0.21766672 -0.16872787
0.082625687 -0.21822661 -0.16313297
-0.05231066 -0.20273125 -0.16872787
0.082625687 -0.20324804 -0.16313297
-0.05231066 -0.18779567 -0.16872793
0.082625687 -0.1882695 -0.16313297
-0.05231066 -0.17286018 -0.16872787
0.082625687 -0.17329095 -0.16313291
-0.05231066 -0.15792473 -0.16872787
0.082625687 -0.15831231 -0.16313308
-0.05231066 -0.14298916 -0.16872793
0.082625687 -0.14333376 -0.16313308
-0.05231066 -0.12805372 -0.16872787
0.082625687 -0.12835519 -0.16313308
-0.05231066 -0.11311822 -0.16872787
0.082625687 -0.11337666 -0.16313297
-0.05231066 -0.098182619 -0.16872793
0.082625687 -0.098398104 -0.16313297
-0.05231066 -0.083247185 -0.16872787
0.082625687 -0.083419457 -0.16313308
-0.05231066 -0.068311691 -0.16872787
0.082625687 -0.068440884 -0.16313308
-0.05231066 -0.053376246 -0.16872776
0.082625687 -0.053462259 -0.16313308
-0.05231066 -0.038440675 -0.16872787
0.082625687 -0.038483728 -0.16313297
-0.052310456 -0.023505174 -0.16871893
0.082625687 -0.023505174 -0.16313297
-0.052310456 -0.0085695628 -0.16871899
0.082625687 -0.0085266018 -0.16313291
-0.052310456 0.0063659735 -0.16871881
0.082625687 0.0064520072 -0.16313308
-0.052310456 0.021301545 -0.16871893
0.082625687 0.021430597 -0.16313297
-0.052310456 0.036237046 -0.16871893
0.082625687 0.036409132 -0.16313297
-0.052310456 0.051172715 -0.16871893
0.082625687 0.051387686 -0.16313297
-0.052310456 0.066108212 -0.16871881
0.082625687 0.066366255 -0.16313291
-0.052310456 0.081043869 -0.16871893
0.082625687 0.081344813 -0.16313291
-0.052310456 0.095979378 -0.16871881
0.082625687 0.096323431 -0.16313308
-0.052310456 0.11091495 -0.16871893
0.082625687 0.111302 -0.16313308
-0.052310456 0.12585062 -0.16871893
0.082625687 0.12628056 -0.16313297
-0.052310456 0.14078611 -0.16871893
0.082625687 0.14125909 -0.16313297
-0.052310456 0.15572172 -0.16871893
0.082625687 0.15623769 -0.16313291
-0.052310456 0.17065725 -0.16871881
0.082625687 0.17121622 -0.16313291
-0.05231066 0.18559189 -0.16872793
0.082625687 0.18619488 -0.16313308
-0.05231066 0.20052738 -0.16872787
0.082625687 0.20117342 -0.16313297
-0.05231066 0.21546285 -0.16872776
0.082625687 0.21615197 -0.16313297
-0.067107439 0.23157763 -0.15971714
0.082625687 0.23113054 -0.16313297
0.082625687 0.2461091 -0.16313291
-0.067115381 0.26151189 -0.1602329
0.097073987 0.26031271 -0.16843182
0.11288951 0.26150391 -0.16028726
0.12884471 -0.2645312 -0.15201938
-0.082068205 -0.24923962 -0.15398818
0.098594189 -0.24932592 -0.15324122
0.098594189 -0.2342712 -0.15324122
-0.066885173 -0.22001311 -0.14528084
0.098594189 -0.21921654 -0.15324116
-0.066885173 -0.20489709 -0.14528084
0.098594189 -0.20416182 -0.15324122
-0.066885173 -0.18978117 -0.14528072
0.098594189 -0.18910709 -0.15324128
-0.066885173 -0.17466515 -0.14528072
0.098594189 -0.17405239 -0.15324116
-0.066885173 -0.15954912 -0.14528084
0.098594189 -0.15899765 -0.15324122
-0.066885173 -0.1444332 -0.14528072
0.098594189 -0.14394288 -0.15324122
-0.066885173 -0.12931718 -0.14528072
0.098594189 -0.12888822 -0.15324116
-0.066885173 -0.11420116 -0.14528084
0.098594189 -0.11383347 -0.15324122
-0.066885173 -0.099085167 -0.14528084
0.098594189 -0.098778695 -0.15324122
-0.066885173 -0.083969206 -0.14528072
0.098594189 -0.083724096 -0.15324116
-0.066885173 -0.068853185 -0.14528072
0.098594189 -0.068669334 -0.15324122
-0.066885173 -0.053737193 -0.14528084
0.098594189 -0.05361459 -0.15324122
-0.066885173 -0.038621165 -0.14528084
0.098594189 -0.038559936 -0.15324116
-0.066885173 -0.023505192 -0.14528072
0.098594189 -0.023505155 -0.15324122
-0.066885173 -0.0083891647 -0.14528072
0.098594189 -0.0084504094 -0.15324122
-0.066885173 0.0067268629 -0.14528072
0.098594189 0.0066042803 -0.15324116
-0.066885173 0.021842796 -0.14528072
0.098594189 0.021659005 -0.15324116
-0.066885173 0.036958806 -0.14528072
0.098594189 0.036713697 -0.15324122
-0.066885173 0.052074816 -0.14528072
0.098594189 0.051768366 -0.15324116
-0.066885173 0.067190841 -0.14528084
0.098594189 0.066823125 -0.15324122
-0.066885173 0.082306772 -0.14528072
0.098594189 0.081877887 -0.15324122
-0.066885173 0.097422779 -0.14528072
0.098594189 0.096932545 -0.15324116
-0.066885173 0.11253881 -0.14528072
0.098594189 0.11198731 -0.15324116
-0.066885173 0.12765482 -0.14528084
0.098594189 0.12704208 -0.15324122
-0.066885173 0.14277075 -0.14528072
0.098594189 0.14209667 -0.15324116
-0.066885315 0.15788592 -0.14528984
0.098594189 0.15715145 -0.15324122
-0.066885315 0.17300187 -0.14528996
0.098594189 0.17220621 -0.15324128
-0.066885315 0.18811776 -0.1452899
0.098594189 0.18726085 -0.15324116
-0.066885315 0.20323376 -0.14528996
0.098594189 0.20231561 -0.15324122
-0.066885315 0.21834964 -0.1452899
0.098594189 0.21737038 -0.15324122
0.098594189 0.23242506 -0.15324116
-0.082068339 0.24737364 -0.15400636
0.098594189 0.24747974 -0.15324122
0.12883943 0.26270658 -0.15206504
0.14495058 -0.26557297 -0.14356124
0.16119753 -0.2666249 -0.13502043
-0.097117171 -0.25169283 -0.13274348
0.11472586 -0.25047982 -0.14324838
0.13102323 -0.25164557 -0.13315278
0.13102323 -0.2364362 -0.13315284
-0.081950366 -0.23584047 -0.1386807
0.11472586 -0.23534824 -0.14324832
0.11472586 -0.22021659 -0.14324832
0.13102323 -0.22122689 -0.13315272
0.11472586 -0.20508492 -0.14324832
0.1310243 -0.20601836 -0.13314348
0.11472586 -0.18995325 -0.14324832
0.1310243 -0.19080897 -0.13314348
0.11472586 -0.17482162 -0.14324832
0.1310243 -0.17559947 -0.13314354
0.11472586 -0.15968995 -0.14324832
0.1310243 -0.16039005 -0.13314354
0.11472586 -0.14455836 -0.14324838
0.1310243 -0.1451806 -0.13314348
0.11472586 -0.12942666 -0.14324838
0.1310243 -0.12997118 -0.13314348
0.11472586 -0.11429499 -0.14324832
0.1310243 -0.11476178 -0.13314348
0.11472586 -0.099163458 -0.14324832
0.1310243 -0.099552363 -0.13314337
0.11472586 -0.084031761 -0.1432482
0.1310243 -0.084342904 -0.13314354
0.11472586 -0.068900153 -0.14324832
0.1310243 -0.069133475 -0.13314354
0.11472586 -0.053768486 -0.14324832
0.1310243 -0.053924076 -0.13314348
0.11472586 -0.038636781 -0.14324832
0.1310243 -0.038714595 -0.13314348
0.11472586 -0.023505192 -0.14324832
0.1310243 -0.023505155 -0.13314348
0.11472586 -0.0083735092 -0.14324832
0.1310243 -0.0082957875 -0.13314337
0.11472586 0.006758118 -0.14324838
0.1310243 0.006913729 -0.13314354
0.11472586 0.021889783 -0.14324838
0.1310243 0.022123095 -0.13314348
0.11472586 0.03702141 -0.14324838
0.1310243 0.037332539 -0.13314348
0.11472586 0.05215298 -0.1432482
0.1310243 0.052541997 -0.13314348
0.11472586 0.067284688 -0.14324832
0.1310243 0.067751423 -0.13314348
0.11472586 0.082416311 -0.14324832
0.1310243 0.082960799 -0.13314337
0.11472586 0.097547963 -0.14324832
0.1310243 0.09817031 -0.13314354
0.11472586 0.1126796 -0.14324832
0.1310243 0.11337973 -0.13314348
0.11472586 0.1278113 -0.14324832
0.1310243 0.12858911 -0.13314348
0.11472586 0.14294294 -0.14324832
0.1310243 0.14379855 -0.13314348
0.11472586 0.15807456 -0.14324838
0.1310243 0.159008 -0.13314337
0.11472586 0.17320627 -0.14324832
0.1310243 0.17421742 -0.13314337
0.11472586 0.18833783 -0.14324838
0.1310243 0.1894269 -0.13314354
0.11472586 0.20346947 -0.14324832
0.1310243 0.20463632 -0.13314348
0.11472586 0.21860111 -0.1432482
0.13102323 0.21984462 -0.13315272
-0.081952214 0.23429906 -0.13892114
0.11472586 0.23373273 -0.14324832
0.13102323 0.2350539 -0.13315278
-0.097117171 0.25027233 -0.13308752
0.11472586 0.24886444 -0.14324832
0.13102323 0.25026336 -0.13315272
0.14492565 0.26392066 -0.14376372
0.16114773 0.2651439 -0.13540095
-0.08187452 -0.26738772 -0.12882763
0.17758499 -0.26768485 -0.1264146
0.14736509 -0.2527073 -0.12395793
0.14748888 -0.23753551 -0.12295288
-0.081830375 -0.2222335 -0.12309396
0.14749002 -0.22224851 -0.12294358
-0.081816331 -0.2071152 -0.12126946
0.14749002 -0.20696057 -0.12294358
-0.081816331 -0.19181444 -0.1212694
0.14749002 -0.19167262 -0.12294358
-0.081816331 -0.17651355 -0.12126946
0.14749002 -0.1763847 -0.12294358
-0.081816331 -0.16121274 -0.1212694
0.14749002 -0.16109675 -0.12294358
-0.081816331 -0.14591192 -0.12126946
0.14749002 -0.14580882 -0.12294352
-0.081816331 -0.13061103 -0.1212694
0.14749002 -0.13052087 -0.12294352
-0.081816331 -0.11531016 -0.12126946
0.14749002 -0.11523291 -0.12294352
-0.081816331 -0.10000935 -0.1212694
0.14749002 -0.099944979 -0.12294352
-0.081816331 -0.084708512 -0.12126946
0.14749002 -0.084657028 -0.12294352
-0.081816331 -0.069407701 -0.1212694
0.14749002 -0.069369085 -0.12294358
-0.081816331 -0.054106824 -0.12126946
0.14749002 -0.054081138 -0.12294358
-0.081816331 -0.038805999 -0.12126946
0.14749002 -0.038793139 -0.12294364
-0.081816331 -0.02350523 -0.1212694
0.14749002 -0.023505118 -0.12294364
-0.081816331 -0.0082043493 -0.12126946
0.14749002 -0.0082171727 -0.12294364
-0.081816331 0.0070964936 -0.12126935
0.14749002 0.0070707723 -0.12294364
-0.081816263 0.022397522 -0.12126011
0.14749002 0.022358719 -0.12294364
-0.081816331 0.037698179 -0.1212694
0.14749002 0.037646681 -0.12294364
-0.081816331 0.052999061 -0.12126946
0.14749002 0.052934628 -0.12294364
-0.081816331 0.068299845 -0.1212694
0.14749002 0.068222567 -0.12294364
-0.081816331 0.08360073 -0.12126946
0.14749002 0.083510488 -0.12294364
-0.081816331 0.09890151 -0.12126946
0.14749002 0.098798424 -0.12294364
-0.081816405 0.11420168 -0.12127888
0.14749002 0.1140864 -0.12294364
-0.081816405 0.12950248 -0.12127882
0.14749002 0.12937434 -0.12294364
-0.081816405 0.14480321 -0.12127882
0.14749002 0.14466229 -0.12294364
-0.081816405 0.16010404 -0.12127888
0.14749002 0.15995023 -0.12294364
-0.081816405 0.17540483 -0.12127888
0.14749002 0.17523818 -0.12294364
-0.08181648 0.19070451 -0.1212883
0.14749002 0.19052613 -0.12294364
-0.08181648 0.2060052 -0.1212883
0.14749002 0.20581406 -0.12294364
-0.081834279 0.22102104 -0.1236012
0.14749002 0.22110209 -0.12294358
0.14748888 0.23638871 -0.12295306
0.14729226 0.25145546 -0.12454927
-0.0818666 0.26625565 -0.12779951
0.17750974 0.26637879 -0.12695754
0.19411595 -0.26875415 -0.11773318
0.21079235 -0.26983279 -0.10897559
0.16378416 -0.25371218 -0.11525512
-0.097117171 -0.23816727 -0.1170907
0.16412543 -0.23864613 -0.11264735
0.16412665 -0.22327989 -0.11263782
0.16412665 -0.20791255 -0.11263788
0.16412665 -0.19254524 -0.11263788
0.16412665 -0.17717806 -0.11263782
0.16412665 -0.16181079 -0.11263788
0.16412665 -0.14644343 -0.11263788
0.16412665 -0.13107613 -0.11263788
0.16412665 -0.11570892 -0.11263782
0.16412665 -0.10034156 -0.11263782
0.16412665 -0.084974274 -0.11263788
0.16412665 -0.069607019 -0.11263794
0.16412665 -0.054239787 -0.11263782
0.16412665 -0.038872425 -0.11263782
0.16412665 -0.023505155 -0.11263788
0.16412665 -0.0081378482 -0.11263794
0.16412665 0.0072293468 -0.11263782
0.16412665 0.022596691 -0.11263782
0.16412665 0.03796396 -0.11263788
0.16412665 0.053331193 -0.11263782
0.16412665 0.068698496 -0.11263782
0.16412665 0.084065825 -0.11263782
0.16412665 0.099433124 -0.11263788
0.16412665 0.11480032 -0.11263782
0.16412665 0.13016762 -0.11263782
0.16412665 0.14553496 -0.11263782
0.16412665 0.16090226 -0.11263788
0.16412665 0.17626944 -0.11263782
0.16412665 0.19163682 -0.11263782
0.16412665 0.20700409 -0.11263782
0.16412665 0.22237147 -0.11263782
-0.097117171 0.23707926 -0.11767644
0.16412543 0.23773739 -0.11264735
0.16368382 0.25263706 -0.11602187
0.19401099 0.26762301 -0.11845094
0.21065597 0.26887926 -0.10986149
0.22761764 -0.27092221 -0.1001308
-0.11256425 -0.25521129 -0.10227257
0.18034782 -0.25472599 -0.10647547
0.19705801 -0.25574872 -0.097618282
0.18093683 -0.2397694 -0.10222453
-0.097117171 -0.22442856 -0.1011591
0.18093683 -0.22432196 -0.10222465
-0.097117171 -0.20938824 -0.096663594
0.18093683 -0.20887455 -0.10222465
-0.097117171 -0.19389801 -0.096663594
0.18093683 -0.19342712 -0.10222453
-0.097117171 -0.17840849 -0.096653998
0.18093683 -0.1779796 -0.10222465
-0.097117171 -0.16291806 -0.096653998
0.18093683 -0.16253221 -0.10222453
-0.097117171 -0.14742781 -0.096653938
0.18093683 -0.1470847 -0.10222471
-0.097117171 -0.13193746 -0.096653998
0.18093683 -0.13163729 -0.10222465
-0.097117171 -0.1164472 -0.096653938
0.18093683 -0.11618985 -0.10222453
-0.097117171 -0.10095684 -0.096653998
0.18093683 -0.10074235 -0.10222465
-0.097117171 -0.085466444 -0.096654058
0.18093683 -0.085294932 -0.10222465
-0.097117171 -0.069976166 -0.096653938
0.18093683 -0.069847435 -0.10222465
-0.097117171 -0.054485828 -0.096653998
0.18093683 -0.054400094 -0.10222465
-0.097117171 -0.038995549 -0.096653938
0.18093683 -0.038952678 -0.10222465
-0.097117171 -0.02350523 -0.096653998
0.18093683 -0.023505192 -0.10222465
-0.097117171 -0.0080148 -0.096654058
0.18093683 -0.0080577424 -0.10222465
-0.097117171 0.0074753687 -0.096663713
0.18093683 0.0073896702 -0.10222453
-0.097117171 0.022965539 -0.096663594
0.18093683 0.022837158 -0.10222465
-0.097117171 0.038455818 -0.096663594
0.18093683 0.03828457 -0.10222453
-0.097117171 0.053946096 -0.096663713
0.18093683 0.053732093 -0.10222465
-0.097117171 0.069436386 -0.096663594
0.18093683 0.069179505 -0.10222465
-0.097117171 0.084926039 -0.096673131
0.18093683 0.084626928 -0.10222453
-0.097117171 0.10041627 -0.096673369
0.18093683 0.10007444 -0.10222465
-0.097117171 0.11590646 -0.09667331
0.18093683 0.11552185 -0.10222453
-0.097117171 0.13139661 -0.09667331
0.18093683 0.13096923 -0.10222453
-0.097117171 0.14688684 -0.09667331
0.18093683 0.14641671 -0.10222465
-0.097117171 0.16237611 -0.096682966
0.18093683 0.16186412 -0.10222453
-0.097117171 0.17786616 -0.096682847
0.18093683 0.17731164 -0.10222465
-0.097117171 0.19335628 -0.096682847
0.18093683 0.19275905 -0.10222465
-0.097117171 0.20884643 -0.096682847
0.18093683 0.20820653 -0.10222447
-0.097117171 0.2236788 -0.10202312
0.18093683 0.22365394 -0.10222465
0.18093683 0.23910132 -0.10222465
-0.11261277 0.23992014 -0.095968723
-0.11258044 0.2548337 -0.10016924
0.1802168 0.25382876 -0.10742092
0.19689174 0.25502956 -0.098754942
0.2139167 -0.25678059 -0.088682353
-0.11262006 -0.24054566 -0.095022142
0.19792332 -0.24090339 -0.091702223
0.19792332 -0.22537497 -0.091702163
0.19792332 -0.20984651 -0.091702223
0.19792332 -0.19431809 -0.091702223
0.19792332 -0.17878965 -0.091702223
0.19792332 -0.16326112 -0.091702223
0.19792332 -0.1477327 -0.091702163
0.19792332 -0.13220428 -0.091702163
0.19792332 -0.11667581 -0.091702223
0.19792332 -0.1011474 -0.091702223
0.19792332 -0.085618958 -0.091702223
0.19792332 -0.07009051 -0.091702223
0.19792332 -0.054562021 -0.091702163
0.19792332 -0.039033644 -0.091702044
0.19792332 -0.023505192 -0.091702044
0.19792332 -0.0079767779 -0.091702044
0.19792332 0.0075516738 -0.091702044
0.19792332 0.023080125 -0.091702044
0.19792332 0.038608614 -0.091702044
0.19792332 0.054137025 -0.091702044
0.19792332 0.069665477 -0.091702044
0.19792332 0.085193932 -0.091702163
0.19792332 0.10072234 -0.091702044
0.19792332 0.11625078 -0.091702044
0.19792332 0.13177925 -0.091702163
0.19792332 0.14730774 -0.091702044
0.19792332 0.16283618 -0.091702044
0.19792332 0.1783646 -0.091702163
0.19792332 0.19389306 -0.091702163
0.19792332 0.20942156 -0.091702044
0.19792332 0.22494993 -0.091702163
0.19792332 0.24047843 -0.091702044
0.21371321 0.25624213 -0.090003967
0.23092584 -0.25782159 -0.079666674
0.24808751 -0.25887197 -0.070570171
-0.12847033 -0.24297725 -0.07245928
0.21508889 -0.24204941 -0.081068754
0.23243637 -0.24320759 -0.070322573
-0.11274545 -0.22667275 -0.078734219
0.21508889 -0.22643909 -0.081068814
0.23243637 -0.22751451 -0.070322692
-0.11280166 -0.21171908 -0.0714311
0.23243798 -0.21182242 -0.070312679
0.21508889 -0.21082886 -0.081068754
-0.11280166 -0.1960346 -0.071431041
0.21508889 -0.19521852 -0.081068814
0.23243798 -0.19612934 -0.070312858
-0.11280166 -0.18035014 -0.0714311
0.21508889 -0.17960827 -0.081068754
0.23243798 -0.18043627 -0.070312738
-0.11280166 -0.16466564 -0.071431041
0.21508889 -0.16399786 -0.081068754
0.23243798 -0.16474313 -0.070312738
-0.11280166 -0.14898114 -0.071431041
0.23243798 -0.14905 -0.070312738
0.21508889 -0.14838754 -0.081068814
-0.11280166 -0.13329664 -0.07143122
0.21508889 -0.13277729 -0.081068754
0.23243798 -0.13335691 -0.070312738
-0.11280166 -0.11761212 -0.071431041
0.21508889 -0.11716697 -0.081068754
0.23243798 -0.11766374 -0.070312858
-0.11280166 -0.10192762 -0.071431041
0.21508889 -0.10155672 -0.081068754
0.23243798 -0.10197067 -0.070312679
-0.11280166 -0.086243182 -0.071431041
0.23243798 -0.086277544 -0.070312738
0.21508889 -0.085946396 -0.081068754
-0.11280166 -0.070558697 -0.071431041
0.21508889 -0.070336089 -0.081068814
0.23243798 -0.070584461 -0.070312738
-0.11280166 -0.054874096 -0.0714311
0.21508889 -0.054725774 -0.081068754
0.23243798 -0.054891393 -0.070312738
-0.11280166 -0.039189681 -0.0714311
0.21508889 -0.039115429 -0.081068754
0.23243798 -0.039198332 -0.070312738
-0.11280159 -0.023505267 -0.071440876
0.21508889 -0.023505192 -0.081068754
0.23243798 -0.023505192 -0.070312738
-0.11280159 -0.0078208148 -0.071440935
0.21508889 -0.007894882 -0.081068754
0.23243798 -0.0078121293 -0.070312679
-0.11280159 0.0078636371 -0.071440935
0.21508889 0.0077154655 -0.081068814
0.23243798 0.0078810081 -0.070312738
-0.11280159 0.023548052 -0.071440876
0.21508889 0.0233257 -0.081068754
0.23243798 0.023574147 -0.070312738
0.21508889 0.038936011 -0.081068754
-0.11280159 0.039232504 -0.071440876
0.23243798 0.039267208 -0.070312738
-0.11280151 0.054916512 -0.071450889
0.21508889 0.054546323 -0.081068635
0.23243798 0.054960344 -0.070312738
-0.11280151 0.070600882 -0.071450889
0.21508889 0.070156664 -0.081068754
0.23243798 0.070653409 -0.070312679
-0.11280151 0.086285189 -0.07145077
0.21508889 0.085766971 -0.081068814
0.23243798 0.086346582 -0.070312738
0.21508889 0.10137722 -0.081068754
-0.11280151 0.10196954 -0.071450889
0.23243798 0.10203962 -0.070312738
-0.11280151 0.11765392 -0.071450889
0.21508889 0.11698757 -0.081068754
0.23243798 0.11773275 -0.070312738
-0.11280143 0.13333744 -0.071460724
0.21508889 0.1325978 -0.081068754
0.23243798 0.1334258 -0.070312679
-0.11280143 0.14902171 -0.071460783
0.21508889 0.14820811 -0.081068754
0.23243798 0.14911896 -0.070312738
0.21508889 0.16381846 -0.081068814
-0.11280143 0.16470602 -0.071460724
0.23243798 0.16481209 -0.070312858
-0.11280143 0.18039028 -0.071460724
0.21508889 0.17942877 -0.081068754
0.23243798 0.18050516 -0.070312738
-0.11280143 0.19607459 -0.071460724
0.21508889 0.195039 -0.081068754
0.23243798 0.19619823 -0.070312858
-0.11280136 0.2117577 -0.071470678
0.21508889 0.2106494 -0.081068814
0.23243798 0.21189132 -0.070312738
-0.11273593 0.22639485 -0.079970777
0.21508889 0.22625972 -0.081068635
0.23243637 0.2275832 -0.070322752
-0.12844996 0.24282348 -0.073782444
0.21508889 0.24186999 -0.081068754
0.23243637 0.24327627 -0.070322573
0.23068179 0.2574653 -0.081176639
0.24779935 0.25869918 -0.072271407
-0.12852107 -0.25903445 -0.069163442
0.26540369 -0.25993177 -0.06139183
0.24996872 -0.24437805 -0.059462011
0.24997039 -0.22860238 -0.059452116
0.24997039 -0.21282567 -0.059452116
0.24997039 -0.19704899 -0.059452057
0.24997039 -0.18127221 -0.059452116
0.24997039 -0.16549551 -0.059452057
0.24997039 -0.14971891 -0.059452057
0.24997039 -0.13394211 -0.059452116
0.24997039 -0.11816543 -0.059452057
0.24997039 -0.10238872 -0.059451938
0.24997039 -0.086611986 -0.059452116
0.24997039 -0.070835292 -0.059452057
0.24997039 -0.055058651 -0.059452057
0.24997039 -0.039281905 -0.059452116
0.24997039 -0.023505192 -0.059452057
0.24997039 -0.0077285189 -0.059451938
0.24997039 0.0080483034 -0.059452116
0.24997039 0.023824979 -0.059452057
0.24997039 0.039601576 -0.059452057
0.24997039 0.055378366 -0.059452116
0.24997039 0.071155041 -0.059452057
0.24997039 0.08693175 -0.059451938
0.24997039 0.1027085 -0.059452116
0.24997039 0.11848521 -0.059452057
0.24997039 0.13426185 -0.059451938
0.24997039 0.15003861 -0.059452116
0.24997039 0.16581529 -0.059452057
0.24997039 0.18159199 -0.059451938
0.24997039 0.19736874 -0.059452116
0.24997039 0.21314543 -0.059451938
0.24997039 0.22892216 -0.059451938
0.24996872 0.24469751 -0.059462011
-0.12857458 0.25961149 -0.065687835
0.26506972 0.25994551 -0.0632779
0.2828784 -0.26100242 -0.052120149
-0.14467978 -0.24546403 -0.049385011
0.26768887 -0.24556106 -0.04848516
-0.12872678 -0.22896759 -0.055802703
0.26769066 -0.22970091 -0.048475027
-0.12888435 -0.21410818 -0.045567811
0.26769066 -0.21383971 -0.048475027
-0.12888435 -0.19822465 -0.04556793
0.26769066 -0.19797853 -0.048475027
-0.12888435 -0.18234104 -0.045567811
0.26769066 -0.18211728 -0.048475087
-0.12888435 -0.1664575 -0.045567751
0.26769066 -0.16625609 -0.048475027
-0.12888435 -0.15057395 -0.045567751
0.26769066 -0.1503949 -0.048475027
-0.12888435 -0.13469036 -0.045567751
0.26769066 -0.13453361 -0.048475087
-0.12888435 -0.1188067 -0.045567811
0.26769066 -0.11867243 -0.048475087
-0.12888435 -0.10292308 -0.045567811
0.26769066 -0.10281123 -0.048475027
-0.12888435 -0.08703956 -0.045567811
0.26769066 -0.086950064 -0.048474908
-0.12888435 -0.07115601 -0.045567751
0.26769066 -0.071088806 -0.048475027
-0.1288842 -0.055272169 -0.045577943
0.26769066 -0.055227626 -0.048475027
-0.1288842 -0.039388701 -0.045578063
0.26769066 -0.039366446 -0.048475027
-0.1288842 -0.023505155 -0.045577943
0.26769066 -0.023505155 -0.048475087
-0.1288842 -0.0076216478 -0.045578063
0.26769066 -0.0076439753 -0.048475027
-0.1288842 0.0082618967 -0.045578063
0.26769066 0.0082172044 -0.048475027
-0.12888403 0.02414507 -0.045588017
0.26769066 0.02407838 -0.048475027
-0.12888403 0.040028576 -0.045588017
0.26769066 0.039939638 -0.048475087
-0.12888403 0.055912007 -0.045588195
0.26769066 0.055800851 -0.048475027
-0.12888403 0.071795404 -0.045588017
0.26769066 0.071662068 -0.048475027
-0.12888403 0.087678835 -0.045588136
0.26769066 0.087523252 -0.048475027
-0.12888388 0.10356164 -0.045598149
0.26769066 0.10338451 -0.048475027
-0.12888388 0.11944504 -0.045598269
0.26769066 0.11924569 -0.048475027
-0.12888388 0.1353284 -0.045598149
0.26769066 0.13510686 -0.048475027
-0.12888388 0.15121168 -0.045598149
0.26769066 0.15096812 -0.048475087
-0.12888388 0.16709509 -0.045598269
0.26769066 0.16682933 -0.048475027
-0.12888372 0.18297735 -0.045608342
0.26769066 0.18269052 -0.048475027
-0.12888372 0.1988607 -0.045608461
0.26769066 0.19855168 -0.048475027
-0.12888372 0.21474402 -0.045608461
0.26769066 0.21441296 -0.048475027
-0.12870175 0.22917148 -0.057428479
0.26769066 0.23027414 -0.048475027
-0.14464015 0.24579161 -0.051101565
0.26768887 0.24613404 -0.0484851
0.28249329 0.26120272 -0.054204583
-0.14501378 -0.26298821 -0.034922838
0.30051011 -0.26208159 -0.042774379
0.31830287 -0.2631706 -0.033343494
0.28560174 -0.24675792 -0.037379742
0.28560174 -0.23081124 -0.037379801
0.28560174 -0.21486461 -0.037379682
0.28560174 -0.198918 -0.037379742
0.28560174 -0.18297139 -0.037379742
0.28560174 -0.16702475 -0.037379801
0.28560174 -0.15107813 -0.037379742
0.28560174 -0.1351316 -0.037379742
0.28560174 -0.11918487 -0.037379801
0.28560174 -0.10323833 -0.037379742
0.28560174 -0.087291613 -0.037379801
0.28560174 -0.071345001 -0.037379682
0.28560174 -0.055398386 -0.037379801
0.28560174 -0.03945177 -0.037379742
0.28560174 -0.02350523 -0.037379682
0.28560174 -0.0075585395 -0.037379742
0.28560174 0.0083880015 -0.037379742
0.28560174 0.024334691 -0.037379801
0.28560174 0.040281232 -0.037379742
0.28560174 0.056227926 -0.037379801
0.28560174 0.072174579 -0.037379742
0.28560174 0.088121191 -0.037379801
0.28560174 0.1040678 -0.037379742
0.28560174 0.12001435 -0.037379682
0.28560174 0.13596104 -0.037379742
0.28560174 0.15190762 -0.037379742
0.28560174 0.16785423 -0.037379801
0.28560174 0.18380089 -0.037379682
0.28560174 0.19974756 -0.037379801
0.28560174 0.21569411 -0.037379801
-0.14502633 0.23201028 -0.034379542
0.28560174 0.23164076 -0.037379682
0.28560174 0.24758741 -0.037379742
0.30007017 0.26246977 -0.045060515
0.31780624 0.26374957 -0.035824358
0.33625871 -0.26426956 -0.023825884
-0.16126078 -0.24800777 -0.025781929
0.30370677 -0.24796659 -0.026164353
-0.14507325 -0.23131484 -0.032347322
0.30370677 -0.23193361 -0.026164293
0.30370677 -0.21590066 -0.026164353
0.30370677 -0.1998677 -0.026164472
0.30370677 -0.1838347 -0.026164472
0.30370677 -0.16780183 -0.026164293
0.30370677 -0.15176888 -0.026164293
0.30370677 -0.13573584 -0.026164293
0.30370677 -0.11970294 -0.026164353
0.30370677 -0.10366997 -0.026164472
0.30370677 -0.087636948 -0.026164353
0.30370677 -0.07160411 -0.026164293
0.30370677 -0.055571124 -0.026164293
0.30370677 -0.039538138 -0.026164293
0.30370677 -0.02350523 -0.026164353
0.30370677 -0.0074722078 -0.026164353
0.30370677 0.0085607767 -0.026164353
0.30370677 0.024593726 -0.026164472
0.30370677 0.040626597 -0.026164293
0.30370677 0.05665962 -0.026164293
0.30370677 0.072692528 -0.026164353
0.30370677 0.088725522 -0.026164293
0.30370677 0.1047585 -0.026164353
0.30370677 0.12079142 -0.026164353
0.30370677 0.13682444 -0.026164472
0.30370677 0.15285735 -0.026164293
0.30370677 0.16889033 -0.026164293
0.30370677 0.18492332 -0.026164293
0.30370677 0.20095621 -0.026164353
0.30370677 0.21698916 -0.026164353
0.30370677 0.23302215 -0.026164472
-0.16119558 0.24882802 -0.027899265
0.30370677 0.24905509 -0.026164293
-0.14512742 0.26455626 -0.030002117
0.33569968 0.26503935 -0.026515663
0.35438228 -0.26537991 -0.014210165
0.32200891 -0.24918841 -0.014826894
-0.16179755 -0.23371634 -0.0083497167
0.32200891 -0.23306826 -0.014826715
-0.14538082 -0.21655977 -0.0190292
0.32201099 -0.21694896 -0.014816344
-0.14538082 -0.20047189 -0.019029021
0.32201099 -0.2008286 -0.014816463
-0.14538082 -0.18438402 -0.0190292
0.32201099 -0.18470831 -0.014816463
-0.14538059 -0.16829546 -0.019039452
0.32201099 -0.168588 -0.014816463
-0.14538059 -0.15220757 -0.019039571
0.32201099 -0.15246771 -0.014816344
-0.14538059 -0.13611978 -0.019039571
0.32201099 -0.13634744 -0.014816344
-0.14538059 -0.120032 -0.019039452
0.32201099 -0.12022707 -0.014816344
-0.14538059 -0.10394424 -0.019039452
0.32201099 -0.10410677 -0.014816344
-0.14538035 -0.087856054 -0.019049883
0.32201099 -0.08798638 -0.014816344
-0.14538035 -0.071768388 -0.019049883
0.32201099 -0.071866088 -0.014816344
-0.14538035 -0.055680644 -0.019049883
0.32201099 -0.055745803 -0.014816463
-0.14538035 -0.039592862 -0.019049883
0.32201099 -0.039625444 -0.014816463
-0.14538035 -0.023505192 -0.019049883
0.32201099 -0.02350523 -0.014816344
-0.14538011 -0.0074175596 -0.019060373
0.32201099 -0.0073848683 -0.014816344
-0.14538011 0.0086701475 -0.019060373
0.32201099 0.0087354183 -0.014816344
-0.14538011 0.024757739 -0.019060254
0.32201099 0.024855703 -0.014816344
-0.14538011 0.040845376 -0.019060373
0.32201099 0.040976103 -0.014816344
-0.14538011 0.056933042 -0.019060373
0.32201099 0.057096425 -0.014816463
-0.14537986 0.07302022 -0.019070804
0.32201099 0.073216751 -0.014816463
-0.14537986 0.089107707 -0.019070685
0.32201099 0.089336991 -0.014816344
-0.14537986 0.10519534 -0.019070804
0.32201099 0.10545737 -0.014816344
-0.14537986 0.12128291 -0.019070685
0.32201099 0.12157765 -0.014816344
-0.14537986 0.13737042 -0.019070625
0.32201099 0.13769794 -0.014816344
-0.14537963 0.15345712 -0.019081056
0.32201099 0.15381829 -0.014816344
-0.14537963 0.16954456 -0.019081116
0.32201099 0.16993858 -0.014816463
-0.14537963 0.18563205 -0.019081056
0.32201099 0.18605891 -0.014816523
-0.14537963 0.20171954 -0.019081056
0.32201099 0.20217927 -0.014816284
-0.14537963 0.21780711 -0.019081235
0.32201099 0.21829955 -0.014816284
-0.16172189 0.23491362 -0.010806918
0.32200891 0.23441857 -0.014826834
0.32200891 0.25053874 -0.014826953
0.35375673 0.26634228 -0.017112613
0.37197518 0.26765558 -0.0076345801
-0.16206932 -0.26707578 0.00047618151
0.37267143 -0.26649931 -0.0045158863
-0.17822582 -0.25060943 -0.0016420484
0.34051138 -0.2504237 -0.0033650994
0.34051138 -0.23421523 -0.0033652782
0.34051359 -0.21800771 -0.003354609
0.34051359 -0.2017992 -0.0033546686
0.34051359 -0.18559065 -0.0033546686
0.34051359 -0.16938208 -0.003354609
0.34051359 -0.15317355 -0.0033546686
0.34051359 -0.13696501 -0.0033546686
0.34051359 -0.12075648 -0.0033546686
0.34051359 -0.1045479 -0.0033546686
0.34051359 -0.088339344 -0.0033546686
0.34051359 -0.072130822 -0.0033546686
0.34051359 -0.055922229 -0.0033546686
0.34051359 -0.039713711 -0.0033547282
0.34051359 -0.023505192 -0.0033547282
0.34051359 -0.0072965622 -0.0033546686
0.34051359 0.0089119561 -0.0033546686
0.34051359 0.025120474 -0.0033546686
0.34051359 0.041328955 -0.003354609
0.34051359 0.057537477 -0.003354609
0.34051359 0.07374607 -0.003354609
0.34051359 0.089954585 -0.0033546686
0.34051359 0.10616319 -0.003354609
0.34051359 0.12237175 -0.003354609
0.34051359 0.13858026 -0.003354609
0.34051359 0.15478878 -0.0033546686
0.34051359 0.17099741 -0.003354609
0.34051359 0.1872059 -0.0033546686
0.34051359 0.20341448 -0.003354609
0.34051359 0.21962297 -0.0033546686
0.34051138 0.23583025 -0.0033652782
-0.17830776 0.25254282 0.00048673153
0.3401801 0.25183016 -0.0049590468
0.35844308 0.2530849 0.004629612
0.39036202 0.26898232 0.0019402504
0.39113063 -0.26762915 0.0052685142
0.40976483 -0.26877066 0.015154958
0.35918069 -0.25165412 0.0080516934
-0.17891249 -0.236173 0.016198158
0.35921752 -0.23537484 0.0082224011
-0.16230652 -0.21907327 0.008179903
0.35921985 -0.21907824 0.0082332492
-0.16230652 -0.20277591 0.008179903
0.35921985 -0.20278044 0.00823313
-0.16230652 -0.1864786 0.008179903
0.35921985 -0.18648276 0.0082333088
-0.16230652 -0.17018124 0.008179903
0.35921985 -0.17018494 0.00823313
-0.16230652 -0.15388395 0.0081798434
0.35921985 -0.15388723 0.0082333088
-0.16230619 -0.13758601 0.0081691742
0.35921985 -0.13758944 0.00823313
-0.16230619 -0.12128876 0.0081691742
0.35921985 -0.12129174 0.0082333088
-0.16230619 -0.10499141 0.0081691742
0.35921985 -0.10499394 0.0082332492
-0.16230619 -0.08869417 0.0081691146
0.35921985 -0.088696182 0.0082332492
-0.16230619 -0.072397009 0.0081691742
0.35921985 -0.072398424 0.0082332492
-0.16230586 -0.056099515 0.0081584454
0.35921985 -0.056100708 0.0082332492
-0.16230586 -0.039802354 0.008158505
0.35921985 -0.039802913 0.00823313
0.35921985 -0.023505192 0.0082332492
-0.16230586 -0.023505155 0.0081584454
-0.16230586 -0.0072080307 0.0081584454
0.35921985 -0.0072074346 0.00823313
-0.16230586 0.0090892054 0.0081584454
0.35921985 0.009090323 0.0082332492
-0.16230553 0.025386106 0.0081477761
0.35921985 0.025388081 0.00823313
-0.16230553 0.041683193 0.0081478357
0.35921985 0.041685801 0.0082332492
-0.16230553 0.057980243 0.0081478357
0.35921985 0.057983596 0.00823313
-0.16230553 0.074277401 0.0081477165
0.35921985 0.07428132 0.0082332492
-0.16230553 0.090574488 0.0081477761
0.35921985 0.090579078 0.00823313
-0.16230521 0.10687087 0.0081372261
0.35921985 0.10687684 0.0082332492
-0.16230521 0.12316786 0.0081371069
0.35921985 0.12317459 0.00823313
-0.16230521 0.13946483 0.0081371069
0.35921985 0.13947228 0.00823313
-0.16230521 0.15576199 0.0081371069
0.35921985 0.15577003 0.0082333088
-0.16230521 0.17205895 0.0081371069
0.35921985 0.17206776 0.0082332492
-0.16230488 0.18835482 0.0081263781
0.35921985 0.18836552 0.0082333088
-0.16230488 0.20465179 0.0081263781
0.35921985 0.20466328 0.00823313
-0.16225724 0.22077006 0.0065791607
0.35921985 0.22096103 0.0082333088
-0.17880164 0.23788515 0.013318241
0.35921752 0.23725745 0.00822258
0.3768757 0.25435266 0.014316857
-0.16226873 0.26967686 0.0069524646
0.37768757 -0.25272119 0.017953515
0.39533287 -0.25331518 0.023464561
0.4122318 -0.25353369 0.025492489
0.42916024 -0.25375155 0.027513325
0.37813312 -0.23654835 0.019949377
0.37813312 -0.22016045 0.019949377
0.37813312 -0.20377249 0.019949317
0.37813312 -0.18738456 0.019949377
0.37813312 -0.17099659 0.019949317
0.37813312 -0.1546087 0.019949377
0.37813312 -0.13822076 0.019949317
0.37813312 -0.1218328 0.019949377
0.37813312 -0.10544483 0.019949317
0.37813312 -0.089056939 0.019949377
0.37813312 -0.072669059 0.019949436
0.37813312 -0.056281086 0.019949377
0.37813312 -0.039893158 0.019949377
0.37813312 -0.023505192 0.019949377
0.37813312 -0.007117264 0.019949436
0.37813312 0.0092707016 0.019949377
0.37813312 0.025658634 0.019949436
0.37813312 0.042046595 0.019949377
0.37813312 0.05843449 0.019949436
0.37813312 0.074822456 0.019949377
0.37813312 0.09121038 0.019949436
0.37813312 0.10759835 0.019949377
0.37813312 0.12398626 0.019949436
0.37813312 0.14037421 0.019949377
0.37813312 0.15676214 0.019949377
0.37813312 0.17315011 0.019949377
0.37813312 0.189538 0.019949377
0.37813312 0.20592597 0.019949377
0.37813312 0.2223139 0.019949377
0.37813312 0.23870185 0.019949377
0.39662731 0.23982519 0.029069662
0.39507282 0.25540254 0.02233845
0.41195995 0.25566605 0.024353385
0.42887908 0.2559303 0.026372075
-0.19593805 -0.25408727 0.030628204
-0.19643217 -0.23868772 0.041326702
0.39690161 -0.23758 0.030257404
0.41385591 -0.23778425 0.032298326
0.43027967 -0.23776017 0.032057941
-0.17961046 -0.22148912 0.034332156
0.39725691 -0.22125483 0.031795979
0.41501337 -0.22174928 0.037148535
0.43027967 -0.221279 0.032057941
-0.17967877 -0.20514069 0.036106586
0.39725691 -0.20477568 0.031796038
0.41501337 -0.20522892 0.037148595
0.43027967 -0.20479783 0.032058001
-0.17967877 -0.18862835 0.036106527
0.39725691 -0.18829648 0.031795919
0.41501337 -0.18870859 0.037148595
0.43027967 -0.18831673 0.032058001
-0.17967877 -0.17211607 0.036106586
0.39725691 -0.17181733 0.0317958
0.41501337 -0.17218819 0.037148535
0.43027967 -0.17183559 0.032058001
-0.17967877 -0.15560368 0.036106586
0.39725691 -0.15533827 0.031795919
0.41501337 -0.15566793 0.037148595
0.43027967 -0.15535448 0.032058001
-0.17967877 -0.13909139 0.036106586
0.39725691 -0.13885909 0.0317958
0.41501337 -0.13914756 0.037148595
0.43027967 -0.13887325 0.032057941
-0.17967877 -0.12257911 0.036106527
0.39725691 -0.12237994 0.031795919
0.41501337 -0.1226272 0.037148535
0.43027967 -0.12239206 0.032057941
-0.17967877 -0.10606679 0.036106586
0.39725691 -0.10590084 0.0317958
0.41501337 -0.10610686 0.037148595
0.43027967 -0.10591094 0.032057941
-0.17967835 -0.089554101 0.03609556
0.39725691 -0.08942169 0.031795919
0.41501337 -0.089586571 0.037148595
0.43027967 -0.089429781 0.032058001
-0.17967835 -0.073041856 0.03609556
0.39725691 -0.072942585 0.031795919
0.41501337 -0.07306619 0.037148535
0.43027967 -0.072948627 0.032058001
-0.17967835 -0.056529645 0.036095619
0.39725691 -0.056463443 0.031795919
0.41501337 -0.056545861 0.037148595
0.43027967 -0.056467507 0.032058001
-0.17967835 -0.0400174 0.036095619
0.39725691 -0.039984301 0.031795919
0.41501337 -0.040025525 0.037148595
0.43027967 -0.039986275 0.032057941
-0.17967835 -0.023505192 0.03609556
0.39725691 -0.023505192 0.031795919
0.43027967 -0.023505192 0.032057941
0.41501337 -0.023505155 0.037148535
-0.17967792 -0.0069930218 0.036084592
0.39725691 -0.0070260502 0.031795919
0.41501337 -0.0069848578 0.037148595
0.43027967 -0.0070240349 0.032057941
-0.17967792 0.0095190741 0.036084592
0.39725691 0.0094530582 0.031795919
0.41501337 0.0095354766 0.037148595
0.43027967 0.0094571598 0.032058001
-0.17967792 0.026031282 0.036084592
0.39725691 0.025932241 0.031795919
0.41501337 0.026055921 0.037148535
0.43027967 0.025938243 0.032058001
-0.17967792 0.042543415 0.036084652
0.39725691 0.042411383 0.031795919
0.41501337 0.042576183 0.037148595
0.43027967 0.0424194 0.032058001
-0.17967792 0.059055511 0.036084771
0.39725691 0.058890451 0.031795919
0.41501337 0.059096482 0.037148595
0.43027967 0.058900554 0.032058001
-0.1796775 0.075567275 0.036073685
0.39725691 0.075369641 0.031795919
0.41501337 0.075616926 0.037148535
0.43027967 0.075381756 0.032057941
-0.1796775 0.092079297 0.036073685
0.39725691 0.091848701 0.031795919
0.41501337 0.092137218 0.037148535
0.43027967 0.091862902 0.032057941
-0.1796775 0.10859133 0.036073685
0.39725691 0.10832785 0.031795919
0.41501337 0.10865749 0.037148595
0.43027967 0.10834403 0.032057941
-0.1796775 0.12510334 0.036073685
0.39725691 0.124807 0.031795919
0.41501337 0.12517789 0.037148535
0.43027967 0.12482522 0.032058001
-0.1796775 0.14161541 0.036073685
0.39725691 0.14128621 0.031795979
0.41501337 0.1416982 0.037148476
0.43027967 0.14130639 0.032058001
-0.17967707 0.15812668 0.036062658
0.39725691 0.15776528 0.031795919
0.41501337 0.15821856 0.037148595
0.43027967 0.15778753 0.032058001
-0.17967707 0.17463855 0.036062658
0.39725691 0.17424439 0.031795919
0.41501337 0.17473882 0.037148595
0.43027967 0.17426859 0.032058001
-0.17967707 0.19115053 0.036062837
0.39725691 0.19072361 0.031795979
0.41501337 0.19125934 0.037148595
0.43027967 0.19074981 0.032057881
-0.17967707 0.20766255 0.036062837
0.39725691 0.20720267 0.031795979
0.41501337 0.2077796 0.037148595
0.43027967 0.20723097 0.032057941
-0.17948638 0.22360243 0.031108201
0.39725691 0.22368182 0.031795979
0.41501337 0.22429986 0.037148595
0.43027967 0.22371213 0.032058001
-0.19627824 0.24092436 0.037993908
0.41356933 0.24007487 0.031097353
0.43027967 0.24019328 0.032058001
-0.1963021 0.25751871 0.038510263
-0.21437117 -0.24126266 0.067056537
-0.19728976 -0.22385035 0.059893727
-0.19751596 -0.20756969 0.064791262
-0.19751596 -0.19083652 0.064791143
-0.19751596 -0.17410341 0.064791262
-0.19751596 -0.15737022 0.064791322
-0.19751596 -0.14063708 0.064791143
-0.19751546 -0.12390347 0.064779997
-0.19751546 -0.10717039 0.064779878
-0.19751546 -0.090437353 0.064779878
-0.19751546 -0.073704362 0.064779997
-0.19751546 -0.056971293 0.064779997
-0.19751494 -0.040238187 0.064768791
-0.19751494 -0.02350523 0.064768791
-0.19751494 -0.006772235 0.064768732
-0.19751494 0.0099606849 0.064768732
-0.19751494 0.026693679 0.064768732
-0.19751441 0.043426301 0.064757526
-0.19751441 0.060159151 0.064757466
-0.19751441 0.076892063 0.064757466
-0.19751441 0.09362492 0.064757526
-0.19751441 0.11035773 0.064757466
-0.19751389 0.12708987 0.064746261
-0.19751389 0.14382279 0.064746201
-0.19751389 0.16055548 0.064746201
-0.19751389 0.17728817 0.064746261
-0.19751389 0.19402111 0.064746201
-0.19751337 0.21075268 0.064734995
-0.19711924 0.22649994 0.056201577
-0.21416605 0.24403512 0.063250005
-0.2144399 -0.25815073 0.068332016
-0.21495831 0.26268038 0.077952206
-0.21539649 -0.2262698 0.086084127
-0.21517052 0.22946623 0.081890583
-0.23247972 0.24722001 0.089107394
-0.23274466 -0.24389988 0.093409538
-0.21583608 -0.2100634 0.094241858
-0.21583608 -0.19310363 0.094241858
-0.21583608 -0.17614372 0.094241858
-0.21583608 -0.15918395 0.094241858
-0.21583608 -0.14222404 0.094241858
-0.21583608 -0.12526427 0.094241858
-0.21583608 -0.10830444 0.094241917
-0.21583608 -0.091344595 0.094241977
-0.21583545 -0.074384436 0.094230413
-0.21583545 -0.05742472 0.094230354
-0.21583545 -0.0404649 0.094230294
-0.21583545 -0.02350523 0.094230354
-0.21583545 -0.0065454096 0.094230354
-0.21583483 0.01041415 0.094218731
-0.21583483 0.027373787 0.094218791
-0.21583483 0.044333529 0.094218731
-0.21583483 0.061293129 0.094218731
-0.21583483 0.078252807 0.094218791
-0.2158342 0.095211834 0.094207168
-0.2158342 0.11217152 0.094207168
-0.2158342 0.12913108 0.094207168
-0.2158342 0.1460906 0.094207168
-0.2158342 0.16305016 0.094207168
-0.21583359 0.18000871 0.094195664
-0.21583359 0.19696815 0.094195545
-0.21583359 0.21392761 0.094195664
-0.23360483 -0.26235864 0.10737687
-0.23394515 -0.22874711 0.11290282
-0.2336553 0.2325038 0.10819626
-0.25123465 0.25048152 0.11558789
-0.25156868 -0.24660173 0.12040859
-0.23465943 -0.21262585 0.12450153
-0.23465943 -0.19543293 0.12450153
-0.23465943 -0.17824021 0.12450153
-0.23465943 -0.1610475 0.12450153
-0.23465943 -0.14385469 0.12450153
-0.23465943 -0.1266619 0.12450147
-0.23465943 -0.1094691 0.12450153
-0.23465943 -0.09227635 0.12450165
-0.23465943 -0.075083546 0.12450147
-0.23465943 -0.05789075 0.12450153
-0.23465943 -0.040697992 0.12450153
-0.23465872 -0.023505192 0.12448978
-0.23465872 -0.0063125435 0.12448967
