ply
format ascii 1.0
comment PCL generated
element vertex 904
property float x
property float y
property float z
element camera 1
property float view_px
property float view_py
property float view_pz
property float x_axisx
property float x_axisy
property float x_axisz
property float y_axisx
property float y_axisy
property float y_axisz
property float z_axisx
property float z_axisy
property float z_axisz
property float focal
property float scalex
property float scaley
property float centerx
property float centery
property int viewportx
property int viewporty
property float k1
property float k2
end_header
-0.36910012 -0.067349046 -0.51070344
-0.35045561 -0.067348428 -0.51073492
-0.36895624 -0.048698232 -0.51148206
-0.34926605 -0.048606161 -0.51745361
-0.3689543 -0.030065227 -0.51149261
-0.34870332 -0.029994845 -0.52063203
-0.33147848 -0.030055609 -0.51273352
-0.36895818 -0.011432347 -0.51147157
-0.34850559 -0.011432322 -0.52174872
-0.33095762 -0.011432322 -0.51580888
-0.36895624 0.0072005587 -0.51148212
-0.34847972 0.007120409 -0.52189463
-0.33087951 0.0071637603 -0.51627016
-0.36895818 0.025833689 -0.51147157
-0.34872547 0.025694631 -0.52050674
-0.33155325 0.025821127 -0.51229203
-0.36895818 0.044466719 -0.51147169
-0.34921044 0.044321328 -0.51776767
-0.36909428 0.063122295 -0.51073486
-0.35046867 0.063124619 -0.5106613
-0.39089242 -0.10525758 -0.49431783
-0.39009905 -0.086365566 -0.49844027
-0.37005517 -0.086147197 -0.50553387
-0.35263431 -0.086366013 -0.49842966
-0.39009494 -0.067631789 -0.49846154
-0.39009494 -0.048898645 -0.49846154
-0.33291271 -0.048809346 -0.50426459
-0.39009702 0.044767413 -0.49845099
-0.33277297 0.044614036 -0.50508982
-0.39009905 0.063500918 -0.49844033
-0.39009702 0.082233839 -0.49845093
-0.37010401 0.081971347 -0.50526959
-0.35276425 0.082262941 -0.49769568
-0.39096636 0.10117575 -0.49393368
-0.41328928 -0.12486067 -0.47617227
-0.41148388 -0.10560882 -0.48519272
-0.37262073 -0.10536033 -0.49164748
-0.4114688 -0.08677122 -0.48526794
-0.41146666 0.082740858 -0.48527879
-0.41147098 0.10157643 -0.48525715
-0.3725279 0.10125812 -0.49214977
-0.43386519 -0.12523219 -0.46813184
-0.39521343 -0.12505963 -0.47186536
-0.4330734 -0.10611888 -0.47194123
-0.4330734 -0.087181598 -0.47194135
-0.32120347 -0.011432347 -0.4610917
-0.32111311 0.0075842282 -0.46165073
-0.43307114 0.08325386 -0.47195226
-0.43306887 0.10219048 -0.47196299
-0.43383121 0.12132531 -0.46829545
-0.41343239 0.1209394 -0.47545731
-0.39502737 0.1210808 -0.47283202
-0.455607 -0.12582676 -0.45525658
-0.47699147 -0.1071608 -0.44487
-0.4549123 -0.10663693 -0.45847976
-0.47699398 -0.088015504 -0.44485885
-0.4549123 -0.087595977 -0.45847982
-0.34141597 -0.068657376 -0.45405525
-0.32351544 -0.049694147 -0.44679016
-0.3220382 -0.030492913 -0.45592821
-0.32205778 0.026690718 -0.45580727
-0.32365176 0.045979869 -0.44594699
-0.34129465 0.064845629 -0.45477182
-0.47699398 0.084296495 -0.44485885
-0.45491469 0.083772756 -0.45846885
-0.47699398 0.10344241 -0.44485891
-0.4549123 0.10281332 -0.45847982
-0.45560467 0.12202723 -0.45526755
-0.47877264 -0.12667511 -0.43689138
-0.49947065 -0.10771641 -0.4304356
-0.49931759 -0.088439159 -0.43109846
-0.34612331 -0.08858823 -0.42625976
-0.49949658 -0.069205403 -0.4303233
-0.3264156 -0.06923946 -0.42885029
-0.30681771 -0.030684944 -0.43098611
-0.3059946 -0.011432322 -0.43633229
-0.30590856 0.0077747973 -0.43689132
-0.30683503 0.027074534 -0.43087369
-0.49934351 0.065577969 -0.43098611
-0.32629013 0.065619893 -0.42962635
-0.49931759 0.084826291 -0.43109846
-0.34601262 0.084987238 -0.4269135
-0.49948883 0.1041122 -0.43035698
-0.47879261 0.12302236 -0.43680185
-0.5220387 -0.088886827 -0.41656017
-0.52188963 -0.069508843 -0.41718477
-0.52188963 -0.050150003 -0.41718489
-0.30828801 -0.050084542 -0.42143625
-0.52232355 -0.030805208 -0.41536653
-0.29047954 -0.011432247 -0.41106033
-0.29039609 0.0079693003 -0.41163075
-0.52223128 0.02730732 -0.41575319
-0.52188963 0.046644125 -0.41718501
-0.30841178 0.046564594 -0.4206326
-0.52188963 0.066002913 -0.41718477
-0.5220468 0.085387103 -0.41652596
-0.36951411 -0.10876884 -0.40309274
-0.33108512 -0.089397833 -0.39996523
-0.4850722 -0.069705404 -0.40867299
-0.31110868 -0.069833748 -0.40311557
-0.54481322 -0.050372772 -0.4027136
-0.50502247 -0.050316066 -0.40639561
-0.29274836 -0.050483119 -0.39554822
-0.54471421 -0.030899432 -0.40311557
-0.29128748 -0.030880883 -0.40553641
-0.54471141 -0.011432298 -0.40312707
-0.5239045 -0.011432298 -0.40874153
-0.54471141 0.0080347387 -0.40312707
-0.52379268 0.0079878503 -0.40921032
-0.54471141 0.027501777 -0.40312707
-0.50812846 0.027658492 -0.39294624
-0.29130256 0.027466189 -0.40543324
-0.54478496 0.046975687 -0.40282851
-0.50490344 0.046881415 -0.40691108
-0.29285991 0.047161385 -0.3947854
-0.4850288 0.066259146 -0.40886748
-0.31097963 0.066410393 -0.40395373
-0.33096042 0.085994877 -0.40073621
-0.36988446 0.10546804 -0.40100086
-0.47039342 -0.07021381 -0.38665646
-0.29548201 -0.070440091 -0.376858
-0.49068934 -0.050668351 -0.38351136
-0.50822473 -0.030980919 -0.39252943
-0.27543792 -0.031080827 -0.37956327
-0.50978261 -0.011432347 -0.38578355
-0.27464539 -0.011432371 -0.38528281
-0.50967777 0.0081646712 -0.38623744
-0.27456796 0.0081677632 -0.38584173
-0.27545089 0.027865954 -0.37946969
-0.49056697 0.047409136 -0.38405925
-0.47045612 0.066951916 -0.38636541
-0.29538429 0.06722407 -0.37752599
-0.35532132 -0.10996762 -0.3719483
-0.31572792 -0.090224765 -0.37311286
-0.45545864 -0.070731513 -0.36424029
-0.4760915 -0.051027015 -0.36022043
-0.27688324 -0.050889712 -0.36913252
-0.49387032 -0.031160042 -0.36926234
-0.49539876 -0.011432298 -0.36241567
-0.49530613 0.0083448319 -0.36283064
-0.4937703 0.028016191 -0.36971021
-0.4759661 0.047946252 -0.36080217
-0.27698296 0.047770519 -0.36841279
-0.45562357 0.06765765 -0.36344671
-0.3155922 0.087024204 -0.37399429
-0.35579619 0.10693947 -0.36914432
-0.30004147 -0.091069207 -0.34568483
-0.27952909 -0.071059585 -0.35003752
-0.47924787 -0.031342402 -0.3455767
-0.25925753 -0.031284805 -0.35306275
-0.25848565 -0.011432371 -0.35896075
-0.25841099 0.0083702551 -0.35953134
-0.4791469 0.028380543 -0.3460452
-0.25926846 0.02827388 -0.35297906
-0.27949429 0.068062827 -0.35028893
-0.29989398 0.088074967 -0.34669328
-0.34112781 -0.11128035 -0.33784175
-0.4402585 -0.07125847 -0.34142584
-0.46122444 -0.051392231 -0.33649975
-0.26068422 -0.051304959 -0.34216082
-0.48075104 -0.011432322 -0.3386029
-0.24198687 -0.011432322 -0.33210123
-0.48066777 0.0085284552 -0.3389892
-0.2419166 0.0085770013 -0.33267152
-0.46109623 0.048493188 -0.33711654
-0.2607725 0.048392389 -0.34148616
-0.44039124 0.068356156 -0.34076285
-0.34135064 0.10844899 -0.33646357
-0.28401515 -0.09193217 -0.31766248
-0.26323617 -0.071691714 -0.32266033
-0.44608051 -0.05176425 -0.3123374
-0.24414209 -0.051729307 -0.31460303
-0.46435255 -0.0315281 -0.32144934
-0.24273911 -0.031493135 -0.32599372
-0.46582925 -0.011432371 -0.31434464
-0.46575254 0.0087152934 -0.31471348
-0.46425086 0.028751746 -0.32193869
-0.24274513 0.028690018 -0.32594496
-0.44594979 0.049050391 -0.31299037
-0.24421936 0.049027611 -0.31397545
-0.26326177 0.068919584 -0.3224647
-0.28390974 0.089163102 -0.31842303
-0.32657209 -0.11263387 -0.30267775
-0.2465955 -0.072337851 -0.29468369
-0.44917679 -0.03171739 -0.29686749
-0.22587025 -0.031705912 -0.29835051
-0.22514141 -0.01143242 -0.30466253
-0.22507557 0.0087882979 -0.30523247
-0.44907451 0.029129848 -0.2973786
-0.22587314 0.029115308 -0.2983256
-0.24667552 0.069795042 -0.294034
-0.32653388 0.10999795 -0.30292594
-0.2676377 -0.092813835 -0.28902632
-0.22724268 -0.052162509 -0.28646505
-0.45062321 -0.011432371 -0.28964067
-0.20793661 -0.011432322 -0.27663839
-0.45055795 0.0089058643 -0.28996676
-0.20787385 0.0090039959 -0.27722085
-0.2273109 0.04967656 -0.28587407
-0.26767713 0.090306215 -0.28872526
-0.31165364 -0.11403427 -0.2662921
-0.22959268 -0.072997652 -0.2661134
-0.43371493 -0.031910285 -0.27180564
-0.20863831 -0.031923193 -0.2701273
-0.43512982 -0.011432371 -0.26445329
-0.43507332 0.0090999482 -0.26474714
-0.43360978 0.029515196 -0.27235198
-0.20863831 0.029549375 -0.2701273
-0.22972387 0.070689738 -0.26497722
-0.31132731 0.111587 -0.2685231
-0.25089595 -0.093714789 -0.25976849
-0.20997599 -0.052605134 -0.25771534
-0.19029739 -0.011432322 -0.24864376
-0.19023529 0.0092191482 -0.24926424
-0.21003687 0.050339978 -0.25715029
-0.25107133 0.091475539 -0.25834453
-0.29631647 -0.11547417 -0.22888517
-0.23379901 -0.094641186 -0.22968531
-0.21217245 -0.073662333 -0.23733473
-0.19205561 -0.053015359 -0.23107445
-0.19094071 -0.03213805 -0.24221528
-0.19093812 0.029978793 -0.24224138
-0.19210806 0.05095423 -0.23055041
-0.21229473 0.071575776 -0.23619986
-0.23399144 0.092642717 -0.22801888
-0.19384497 -0.074219704 -0.21319425
-0.17237869 -0.032316703 -0.2190088
-0.17187184 -0.011432322 -0.22449577
-0.17182076 0.0094055673 -0.22504854
-0.17238116 0.030336935 -0.21898246
-0.19390476 0.072302647 -0.21259665
-0.21564358 -0.095397286 -0.20512676
-0.17328298 -0.05335189 -0.20921969
-0.15315592 -0.032467756 -0.1993866
-0.15276372 -0.011432371 -0.20401788
-0.15272185 0.0095637413 -0.20451236
-0.15316272 0.030639783 -0.19930613
-0.1733371 0.051460508 -0.2086339
-0.17469397 0.072877035 -0.19394529
-0.21574432 0.093559861 -0.2041918
-0.19655219 -0.095981866 -0.18614197
-0.17474872 -0.074677959 -0.19335282
-0.15504694 -0.075054452 -0.17705452
-0.15382433 -0.053624764 -0.19149292
-0.13338628 -0.032594327 -0.18294311
-0.1330775 -0.011432371 -0.18695414
-0.13304314 0.0096953074 -0.18740046
-0.13339984 0.030894406 -0.18276668
-0.15388256 0.051872123 -0.19080496
-0.15501001 0.073383562 -0.17749059
-0.19647634 0.094225407 -0.1868999
-0.26128688 -0.11753253 -0.17540455
-0.24121803 -0.11791629 -0.16543496
-0.1768423 -0.096457779 -0.17068887
-0.13488123 -0.075366795 -0.16352332
-0.13391307 -0.053861681 -0.17610025
-0.11361549 -0.054065559 -0.16286254
-0.11319665 -0.032702446 -0.16890788
-0.11296045 -0.011432272 -0.17231727
-0.11293013 0.0098081762 -0.17275476
-0.092447408 0.0099029439 -0.1604507
-0.11321279 0.031111442 -0.16867483
-0.13394561 0.052221466 -0.1756773
-0.11357733 0.052504722 -0.16341329
-0.13486639 0.073807783 -0.16371584
-0.17681322 0.094837233 -0.1710037
-0.28436103 0.11654232 -0.16123676
-0.26118442 0.11584952 -0.17623663
-0.24118945 0.116337 -0.16568232
-0.2850714 -0.11828676 -0.15580845
-0.22054613 -0.11813951 -0.15963662
-0.20009562 -0.11848218 -0.15073395
-0.15662706 -0.096836247 -0.1583941
-0.13602626 -0.097136378 -0.14864862
-0.11435095 -0.075627357 -0.15224707
-0.092982538 -0.054236446 -0.15176141
-0.092631094 -0.032790486 -0.1574682
-0.071786456 -0.032863837 -0.14793897
-0.092470355 -0.011432371 -0.16007829
-0.071675546 -0.011432371 -0.14999747
-0.071656071 0.009980497 -0.15035868
-0.092651524 0.031289056 -0.15713644
-0.071807452 0.031436644 -0.14754927
-0.092952646 0.052762661 -0.15224695
-0.11435287 0.074161775 -0.1522193
-0.15663642 0.095326893 -0.15828347
-0.13606375 0.095716551 -0.14816189
-0.22069046 0.11667809 -0.15829718
-0.20003447 0.11699924 -0.1513449
-0.17942432 -0.11878997 -0.14273787
-0.1584495 -0.11901576 -0.13687205
-0.13747525 -0.11928695 -0.12982571
-0.11515119 -0.097381257 -0.14069676
-0.094166867 -0.097632766 -0.13253033
-0.093511559 -0.075836971 -0.14317095
-0.072426684 -0.07600113 -0.13605809
-0.051152535 -0.076125577 -0.1306715
-0.072075017 -0.054377802 -0.1425842
-0.050932266 -0.054487705 -0.13544035
-0.029649995 -0.054585833 -0.1290642
-0.050708227 -0.032922648 -0.14029098
-0.029449455 -0.032969039 -0.13427424
-0.050639756 -0.011432371 -0.14177358
-0.029409438 -0.011432371 -0.13531399
-0.050624259 0.010043955 -0.14210904
-0.029397547 0.01009396 -0.13562286
-0.0081266835 0.010157765 -0.12732792
-0.050732158 0.03155629 -0.13977301
-0.029474892 0.031651255 -0.13361359
-0.072056197 0.052977715 -0.14293337
-0.050923191 0.053146232 -0.13563704
-0.029646195 0.05329575 -0.12916291
-0.0935288 0.074448995 -0.14289153
-0.072452404 0.074674189 -0.13558078
-0.051183127 0.074845672 -0.13000894
-0.11519674 0.09602914 -0.14003909
-0.094133936 0.096297562 -0.13306499
-0.17944106 0.11740521 -0.14255631
-0.1585184 0.11770529 -0.13605809
-0.13743183 0.11796704 -0.13038969
-0.18236899 -0.14173375 -0.11086071
-0.11633118 -0.11952396 -0.12366462
-0.094990648 -0.11969762 -0.11915398
-0.07349775 -0.11981208 -0.11618149
-0.052055009 -0.1200064 -0.11113226
-0.072960325 -0.097828977 -0.12615514
-0.051577635 -0.097973347 -0.12146783
-0.030199587 -0.098179206 -0.11478543
-0.029850744 -0.076283157 -0.1238488
-0.0084905177 -0.076475658 -0.11551201
-0.0083176121 -0.054708052 -0.12112737
0.013093725 -0.054859105 -0.11131811
-0.0081567094 -0.033029977 -0.12635291
0.013221823 -0.033103079 -0.11686456
-0.0081375614 -0.011432371 -0.12697458
0.013231024 -0.011432322 -0.11726296
0.013239898 0.010232302 -0.11764705
-0.008180216 0.031774711 -0.12558937
0.01320374 0.031921163 -0.11608171
-0.0083184838 0.053481918 -0.12109888
0.013090096 0.053711463 -0.11116099
-0.029841468 0.075028032 -0.12408948
-0.0084668398 0.075268358 -0.11628091
-0.072944321 0.096552037 -0.12645173
-0.051576979 0.096743397 -0.12148201
-0.030208908 0.097010389 -0.11454296
-0.11632433 0.1182732 -0.12376392
-0.095008157 0.11849923 -0.1188699
-0.073534586 0.11865498 -0.11549795
-0.052027293 0.11882883 -0.11173224
-0.22696549 -0.14223206 -0.10007262
-0.20438367 -0.14187124 -0.10788488
-0.16074896 -0.14178662 -0.10971701
-0.13916868 -0.14187391 -0.10782778
-0.11747507 -0.14190502 -0.10715437
-0.095907159 -0.14203812 -0.10427117
-0.074301414 -0.14217697 -0.10126722
-0.052712344 -0.14237857 -0.096900702
-0.030606486 -0.12027276 -0.10421395
-0.0091062784 -0.1206076 -0.095514536
-0.0087540448 -0.098420225 -0.10695386
0.0127801 -0.098704085 -0.097737551
0.012960821 -0.076705404 -0.10556304
0.034631763 -0.055034444 -0.099928498
0.03471829 -0.033190131 -0.10554862
0.034724914 -0.011432322 -0.10597885
0.034731317 0.010319008 -0.10639489
0.034710117 0.032091357 -0.10501766
0.034627106 0.053977814 -0.099626064
0.012976386 0.075577684 -0.10623705
0.034543555 0.075948298 -0.094199181
-0.0087708086 0.097323522 -0.10640907
0.01276011 0.09769062 -0.096871853
-0.030583821 0.11914885 -0.10480249
-0.0090960488 0.11956254 -0.095846772
-0.22707883 0.141224 -0.099020839
-0.20433927 0.14072236 -0.10832882
-0.18245879 0.14063834 -0.10988855
-0.16070777 0.14062151 -0.11020327
-0.13918632 0.14076184 -0.10759866
-0.11753365 0.14083138 -0.10630882
-0.095877998 0.14091556 -0.10474491
-0.074295975 0.14109753 -0.10136807
-0.052727677 0.1413562 -0.096568704
-0.16315648 -0.16504443 -0.081285
-0.14090008 -0.16482611 -0.085336089
-0.11890908 -0.16476572 -0.08645606
-0.096969388 -0.1647352 -0.08702302
-0.075172432 -0.16483867 -0.085103154
-0.053520598 -0.16514586 -0.079401255
-0.25125021 -0.14322603 -0.078553557
-0.031112865 -0.14264847 -0.091057777
-0.0094788745 -0.14300142 -0.083414197
0.012488663 -0.12100769 -0.085117817
0.034430385 -0.099039376 -0.086848617
0.034534644 -0.076981194 -0.093620658
0.056277394 -0.0773018 -0.079737425
0.056330793 -0.055238519 -0.086674094
0.056374796 -0.033291474 -0.092390418
0.056378365 -0.011432322 -0.092853665
0.07823389 -0.011432272 -0.077559233
0.05638193 0.010419658 -0.093316913
0.07823389 0.010536832 -0.078085661
0.056373015 0.032289349 -0.092158556
0.056327324 0.054287288 -0.086223364
0.056281332 0.076377816 -0.080248594
0.034412026 0.098122314 -0.085656285
0.01249101 0.12005338 -0.085219622
-0.031144671 0.14169763 -0.090231419
-0.0094995201 0.14210112 -0.082743406
-0.16319355 0.16415125 -0.080847263
-0.14083624 0.16382372 -0.08616519
-0.11890303 0.16380046 -0.086543322
-0.097009681 0.16381125 -0.08636868
-0.075164594 0.16388021 -0.085248828
-0.053490914 0.16420075 -0.08004427
-0.12042665 -0.18801951 -0.06455183
-0.09838327 -0.18804951 -0.064064384
-0.076427989 -0.18818884 -0.061802983
-0.20884439 -0.16601291 -0.0633111
-0.18564004 -0.16535884 -0.075450778
-0.031819142 -0.16550653 -0.07270813
-0.010073327 -0.16596994 -0.064108849
0.012194611 -0.14351086 -0.072385073
0.034216292 -0.12147638 -0.072942972
0.056223735 -0.099472947 -0.072766781
0.07823389 -0.077676415 -0.063517809
0.07823389 -0.055477116 -0.071180463
0.07823389 -0.033409588 -0.07704699
0.07823389 0.032520674 -0.077134728
0.07823389 0.054649044 -0.070563197
0.07823389 0.07687895 -0.06397593
0.056217857 0.098647833 -0.072003365
0.034213807 0.12062792 -0.072781444
-0.25154254 0.14246333 -0.076022029
0.012219355 0.14260162 -0.073456645
-0.20888135 0.16525397 -0.06294167
-0.18557507 0.16444024 -0.076153755
-0.031812362 0.1646416 -0.072884202
-0.010082424 0.16520022 -0.06381321
-0.12043176 0.18723331 -0.06447804
-0.098358698 0.1872344 -0.064463139
-0.076447122 0.18744314 -0.061447859
-0.16550845 -0.1886995 -0.05351007
-0.14284837 -0.18829812 -0.060026884
-0.054453798 -0.18834937 -0.059197068
-0.032598756 -0.18876459 -0.052453041
0.011759393 -0.16653952 -0.053539634
0.033998732 -0.14413789 -0.058811545
0.056115054 -0.12202653 -0.058648705
0.07823389 -0.099995352 -0.055799365
0.10046272 -0.078118794 -0.044360518
0.10039686 -0.055758249 -0.052914739
0.10034987 -0.033548374 -0.059019327
0.10034543 -0.011432322 -0.059597135
0.10034109 0.010674826 -0.060160041
0.10034679 0.0327935 -0.059419513
0.10040282 0.055074502 -0.052140594
0.10045926 0.077469163 -0.044809699
0.07823389 0.099265844 -0.0559479
0.056111403 0.12130266 -0.058174253
0.034013789 0.14333795 -0.059789777
0.011741184 0.16588153 -0.052750945
-0.14288262 0.18757261 -0.059582353
-0.054509945 0.18768351 -0.057981491
-0.16545555 0.18795 -0.054134727
-0.032583855 0.18803957 -0.052840233
-0.12266413 -0.21233033 -0.032256603
-0.10003673 -0.21198672 -0.03721571
-0.077930681 -0.2122153 -0.033916593
-0.055831455 -0.21253039 -0.029369831
-0.18874738 -0.18941982 -0.041812897
-0.010750629 -0.18940143 -0.042112708
0.011207849 -0.19016847 -0.029657245
-0.23299712 -0.16704783 -0.044106007
0.033723153 -0.16721991 -0.040912628
0.055994108 -0.14487104 -0.042937398
0.07823389 -0.12268371 -0.041572928
0.10052907 -0.10061307 -0.035740256
0.12289673 -0.056095175 -0.031033039
0.12279691 -0.033713818 -0.037516594
0.12278672 -0.011432371 -0.038178325
0.12277677 0.010839085 -0.038824797
0.12278511 0.033118803 -0.038283587
0.12291116 0.055583555 -0.030095935
0.10052096 0.10000301 -0.036794305
0.07823389 0.1221054 -0.040792465
0.056000222 0.14420331 -0.043731451
-0.23320383 0.16653214 -0.042187691
0.033702578 0.16669297 -0.039576292
-0.18880418 0.18884617 -0.041197658
-0.01071924 0.18871215 -0.043132186
0.01122392 0.18959759 -0.03035295
-0.14528757 0.21208905 -0.028340697
-0.12268715 0.21181326 -0.031924367
-0.10013964 0.21153454 -0.035544395
-0.077872194 0.21157634 -0.035001993
-0.055814691 0.21198201 -0.029732823
-0.16858563 -0.21337563 -0.017170191
-0.1453692 -0.21267517 -0.02728045
-0.033754572 -0.21301161 -0.022424221
-0.0116193 -0.21360207 -0.013901591
-0.2126914 -0.19046324 -0.024869442
0.033318121 -0.19109537 -0.014604926
0.055861332 -0.16804026 -0.025688887
0.07823389 -0.14574976 -0.023913264
0.10064399 -0.12348285 -0.020811915
0.12319206 -0.1013487 -0.011851192
0.12304379 -0.078647226 -0.021481395
0.14567643 -0.033913195 -0.011621594
0.14565983 -0.011432371 -0.012341261
0.14564286 0.011037325 -0.013075709
0.14565276 0.033513647 -0.01264739
0.1230377 0.078175217 -0.021876812
0.12316473 0.10089479 -0.013626456
0.10065208 0.12307677 -0.019761443
0.07823389 0.14523447 -0.024596334
0.055845439 0.16767523 -0.023624539
-0.21258056 0.18990068 -0.025977015
0.033321884 0.19067173 -0.014849305
-0.1686942 0.2130477 -0.015887976
-0.033773877 0.21258321 -0.021922469
-0.01166594 0.21331716 -0.012387037
-0.080045097 -0.23754524 0.0053222179
-0.057439543 -0.23755473 0.0054460764
-0.1927242 -0.21465091 0.0012378693
0.010598384 -0.21433893 -0.0032666922
0.05563131 -0.19225299 0.004191637
-0.25944814 -0.1690173 -0.0075576305
0.07823389 -0.1691456 -0.0051753521
-0.28156915 -0.14635848 -0.010733008
0.10079745 -0.14681371 -0.00087726116
0.12344859 -0.12446905 0.0048110485
0.14584166 -0.056504067 -0.0044676065
0.14586619 0.056199979 -0.0034050941
-0.28156915 0.14598152 -0.010733008
0.10079306 0.14648177 -0.0014480352
-0.25946233 0.16867235 -0.0074347258
0.07823389 0.16889192 -0.0038672686
0.055630833 0.19199514 0.0042536259
-0.19260865 0.21426986 -1.2993813e-05
0.010535374 0.21422932 -0.00053787231
-0.12553203 -0.23783897 0.0091384649
-0.10275375 -0.23766693 0.00690341
-0.035227083 -0.23835431 0.015832901
0.032860789 -0.21561131 0.015099645
-0.23855302 -0.19245335 0.0074461699
0.10096567 -0.17055479 0.020975471
0.14635772 -0.10226411 0.017878413
0.14609352 -0.079291947 0.0064381361
0.16914752 -0.034160744 0.020537138
0.16912054 -0.011432371 0.019660711
0.16909358 0.0112826 0.018784881
0.169108 0.034004744 0.019253969
0.14608097 0.079030439 0.0058956146
0.14630146 0.10201359 0.015442729
0.12346935 0.12427397 0.0061589479
0.10096893 0.17044795 0.021398425
-0.23850116 0.19218315 0.0069653988
0.032869913 0.21538754 0.014506936
-0.12539762 0.2374507 0.0071980953
-0.1027232 0.23738359 0.0064070225
-0.080113582 0.23739932 0.0065932274
-0.057536937 0.23748088 0.0075547695
-0.035158649 0.23803133 0.014055133
-0.14919126 -0.23885746 0.022369742
-0.012946106 -0.23938236 0.02918756
-0.21867418 -0.21698403 0.034914255
0.07823389 -0.19373608 0.028274536
0.12380281 -0.1481391 0.027818203
0.14681545 -0.12573494 0.037698865
0.16940081 -0.057015788 0.02876246
0.16943765 0.056970481 0.02995944
0.12379313 0.14802514 0.027189255
0.07823389 0.1936976 0.028825402
-0.21871534 0.21699005 0.03532517
0.055384092 0.21706563 0.036305904
-0.14927456 0.23882692 0.023451567
-0.012910247 0.23921408 0.028022766
-0.17361727 -0.24038789 0.042250752
0.009443976 -0.24073209 0.04672122
0.055364102 -0.21726041 0.038902879
0.12421533 -0.17236747 0.054612756
0.16980243 -0.080108695 0.041805983
0.1697824 0.080116153 0.041155219
0.17014207 0.10345279 0.052835822
0.14685167 0.12580319 0.039267421
0.12422347 0.17252608 0.05514133
-0.17343447 0.24023603 0.040092111
0.0094586909 0.24074341 0.046084046
-0.08357852 -0.26570904 0.070894361
0.031995792 -0.24262287 0.071283102
0.07823389 -0.21949817 0.071201921
0.10127354 -0.19574958 0.060968995
0.14746894 -0.14990248 0.065995932
0.17021996 -0.10341848 0.055365682
0.19371766 -0.057625789 0.068386436
0.19335976 -0.03445746 0.059088111
0.19332267 -0.011432371 0.058124542
0.19328561 0.011577929 0.057161689
0.19331402 0.034599658 0.057899833
0.19376558 0.057886641 0.069631815
0.14744771 0.15006663 0.065076351
0.101278 0.19596465 0.061547995
0.07823389 0.21950528 0.067998648
0.03199729 0.24286903 0.071185827
-0.083373733 0.26560929 0.067093849
-0.10739625 -0.26667377 0.082288146
-0.060763754 -0.26626137 0.077417731
0.17092052 -0.12729062 0.078117132
0.1942496 -0.08104182 0.082206607
0.19422135 0.081357665 0.081472516
0.17096764 0.12766825 0.079647303
-0.10763671 0.26737356 0.086192489
-0.060658686 0.26635277 0.075142741
-0.0380411 -0.26723722 0.088943124
0.12497182 -0.198384 0.10374761
0.1481563 -0.17458464 0.095759273
0.19478643 -0.10467444 0.096154332
0.21825838 -0.034769755 0.099649191
0.21821263 -0.011432371 0.098659158
0.21816695 0.011889827 0.097669959
0.21821263 0.035227213 0.098659277
0.19471803 0.10505171 0.094377041
0.14821032 0.17517139 0.098098636
0.12497411 0.19889863 0.1038965
-0.038032271 0.26760653 0.088713646
-0.13271579 -0.26925972 0.1128267
-0.01547388 -0.26912871 0.11127937
0.054818973 -0.24558146 0.10971677
0.1016807 -0.22245359 0.1138593
0.17184445 -0.15184817 0.10812283
0.19572687 -0.12892531 0.12058759
0.21871415 -0.058259133 0.10951746
0.21877021 0.058835838 0.11073053
0.1718082 0.15232262 0.1069448
0.1016634 0.22286272 0.11161196
-0.2034744 0.24680023 0.11761212
0.054824471 0.24607112 0.10900259
-0.13227153 0.26924154 0.10641432
-0.015511788 0.26980469 0.11251044
0.22003227 -0.10596456 0.13805544
0.21937016 -0.082000516 0.12371981
0.21933144 0.082632609 0.12288165
0.21998695 0.10669524 0.13707399
0.19577906 0.1296218 0.12194347
0.1493971 -0.20120093 0.14948809
0.17279953 -0.1769222 0.13913894
0.19691479 -0.15384933 0.15145016
0.24440554 -0.058909886 0.15179169
0.24384063 -0.035090458 0.14130855
0.24378672 -0.011432371 0.14030826
0.24373195 0.012210135 0.13929141
0.24380043 0.03587243 0.14056242
0.24446905 0.059811305 0.15297031
0.1968596 0.15464357 0.15001678
0.17292222 0.17794436 0.14312422
0.14938805 0.20203012 0.14909601
0.07823389 -0.24965811 0.16267347
0.12583619 -0.22564273 0.15989006
0.22124326 -0.13060677 0.16427362
0.24519232 -0.082985923 0.16639256
0.24514216 0.083943814 0.16546202
0.22129732 0.13163114 0.16544473
0.12588355 0.22681582 0.16296601
0.07823389 0.2504122 0.16026783
0.19824308 -0.17944525 0.18596053
0.24598658 -0.10729105 0.18113244
0.27013683 -0.035420261 0.18414605
0.27007243 -0.011432371 0.18310022
0.27000809 0.012539494 0.182055
0.27010572 0.036535546 0.18364048
0.24598002 0.1083863 0.18101048
0.0064057261 0.27588031 0.17828095
0.0061686635 -0.27567145 0.18854618
0.17456973 -0.20410402 0.19662809
0.22271004 -0.15590854 0.19603062
0.27082223 -0.059579387 0.19527531
0.27089038 0.060813826 0.19638205
0.22263137 0.15703139 0.19432747
0.19838031 0.18080191 0.18952572
0.17453997 0.2052563 0.19566166
0.10247871 -0.25388056 0.21752477
0.15080172 -0.22913589 0.21030962
0.24750152 -0.1323379 0.20924604
0.27174592 -0.083999321 0.2102741
0.27168262 0.085292011 0.20924604
0.24755216 0.13369751 0.21018541
0.15093505 0.23090479 0.21608257
0.10244626 0.25490367 0.21330905
0.22447446 -0.18204634 0.23423171
0.27267963 -0.10865533 0.22543538
0.29717651 -0.035759266 0.22819459
0.29710197 -0.01143242 0.22711909
0.2970275 0.012878102 0.2260443
0.29715785 0.037217464 0.22792566
0.27272815 0.11012658 0.22622311
0.2246168 0.18374476 0.23731291
0.20052448 -0.20709734 0.24523282
0.24926311 -0.15802883 0.24193704
0.29799333 -0.060267732 0.23998463
0.29806721 0.061845478 0.24105096
0.29898289 0.086678296 0.25426769
0.24915498 0.15948886 0.23993039
0.2004638 0.20858149 0.24365652
0.17673229 -0.23305371 0.26685941
0.27453274 -0.13411902 0.25552595
0.30014336 -0.11005882 0.27101755
0.29906246 -0.085041903 0.25541639
0.27457768 0.13582546 0.25625575
0.17686145 0.23513654 0.27105427
0.12750347 0.25955024 0.26818287
0.12759821 -0.25825393 0.27433705
0.25153086 -0.18472928 0.2840209
0.32595262 -0.060976058 0.28599083
0.32499158 -0.036108062 0.27350652
0.32490638 -0.011432371 0.27239978
0.32482266 0.013226553 0.27131236
0.32499158 0.037919261 0.27350652
0.32603136 0.062906802 0.28701401
0.3002634 0.11191744 0.27275014
0.2764627 0.16201781 0.286865
0.25167006 0.18678036 0.28660476
0.22729841 -0.21018502 0.29537141
0.27660602 -0.16021152 0.28919244
0.30237231 -0.13595372 0.30318987
0.32717681 -0.086115152 0.30189347
0.32707709 0.088104844 0.30059826
0.30240747 0.13801676 0.30369723
0.22719568 0.2120102 0.29314733
0.3284117 -0.11150347 0.31793511
0.3536143 -0.036467001 0.32011759
0.35351941 -0.01143242 0.3189975
0.35342467 0.013584993 0.31787801
0.35364002 0.038641386 0.32042158
0.32862359 0.11376253 0.32068765
0.15364458 -0.26280135 0.33340883
0.203614 -0.23711652 0.32550108
0.27945176 -0.187498 0.33540142
0.3547349 -0.061705355 0.33335137
0.35481599 0.063999087 0.33430886
0.30459204 0.16462395 0.3352288
0.27957818 0.18991193 0.33745396
0.20371014 0.23952021 0.32799911
0.25492987 -0.21337059 0.34709859
0.30477545 -0.1624601 0.33787608
0.33105716 -0.13784401 0.35230088
0.35612151 -0.087219954 0.3497268
0.35600203 0.089574322 0.3483156
0.33107805 0.14027405 0.35257208
0.25477391 0.21554768 0.34420502
0.35756347 -0.11300673 0.36675537
0.38308349 -0.03683652 0.36812377
0.38297513 -0.011432322 0.36695099
0.38287047 0.013954022 0.3658179
0.3831377 0.03938498 0.36871076
0.35784507 0.1156635 0.37008071
0.15414131 0.26689488 0.35491776
0.23149881 -0.24132967 0.3863132
0.38437885 -0.062456612 0.38214648
0.38446084 0.06512437 0.38303423
0.3335796 0.16730951 0.38506806
0.23152986 0.24406089 0.38698566
0.28346026 -0.21665868 0.40049112
0.30827934 -0.19035652 0.38845015
0.33380947 -0.16477764 0.38805401
0.36062634 -0.13979252 0.40292597
0.38593534 -0.08835765 0.39899611
0.38579187 0.091086976 0.39744294
0.36062634 0.14259979 0.40292573
0.30838224 0.19314402 0.38993561
0.28323942 0.21919893 0.39690554
0.3876752 -0.11457948 0.41783059
0.41343576 -0.03721717 0.41756868
0.41331485 -0.011432371 0.41636026
0.41320002 0.014334275 0.41521311
0.41352651 0.040151123 0.41847551
0.41492018 -0.063230179 0.43240166
0.4150036 0.066283725 0.43323541
0.38796771 0.11762343 0.42099726
0.36351007 0.17010711 0.43698096
0.26044565 -0.24570467 0.44945955
0.33805844 -0.19330947 0.44324982
0.3637484 -0.16716753 0.43979609
0.41665804 -0.089530215 0.44976759
0.41648754 0.092645586 0.44806409
0.33812615 0.19648153 0.44412959
0.31264281 0.22297649 0.45143187
0.2603749 0.24876906 0.44814599
0.18265736 -0.27249098 0.4592818
0.31293517 -0.22005574 0.45565116
0.39112133 -0.1418021 0.45513582
0.44471142 -0.037609246 0.46851766
0.44457716 -0.011432322 0.46727228
0.44444975 0.014725904 0.46608996
0.44484571 0.040940814 0.46976388
0.39109659 0.14499903 0.4548682
0.18250877 0.27532363 0.45445621
0.41873404 -0.11620165 0.47051239
0.44640201 -0.064027786 0.48420441
0.44648331 0.06747815 0.48495901
0.4190318 0.11964375 0.47348773
0.36883694 -0.19636154 0.49988866
0.39463729 -0.16963413 0.49319744
0.4483318 -0.090739131 0.50211084
0.44813335 0.094253205 0.50026929
0.39459446 0.1731113 0.49273407
0.36885846 0.19993086 0.50014246
0.29051301 -0.25024641 0.5150131
0.34340224 -0.22356705 0.51266813
0.42258424 -0.14387485 0.50898564
0.47680488 -0.011432272 0.51975644
0.47666413 0.015129653 0.51853728
0.42253107 0.1474741 0.50845408
0.34358278 0.22738171 0.51501334
0.29030296 0.253654 0.51160276
0.45078307 -0.11787495 0.52485585
0.47695318 -0.038013734 0.52104056
0.47713619 0.041754737 0.52262568
0.45108628 0.12172917 0.52766931
0.42651817 -0.17217892 0.54829586
0.47887096 -0.06485071 0.53764915
0.47894588 0.068710171 0.53829789
0.42672506 0.17621665 0.55036306
0.40066203 -0.19951542 0.55841732
0.45506611 -0.14601526 0.56459725
0.48100147 -0.091985784 0.55609977
0.48076952 0.095910482 0.55409086
0.45497385 0.15002775 0.56374121
0.40062565 0.20349535 0.55802333
0.32176915 -0.2549676 0.58315885
0.37513286 -0.22735891 0.57423973
0.48387504 -0.11960345 0.58098578
0.51020384 -0.038430639 0.57518935
0.51004612 -0.01143242 0.57390881
0.50989121 0.01554611 0.57265103
0.51044881 0.042594384 0.57717836
0.48417723 0.12388223 0.58360267
0.37570783 0.23195542 0.58103013
0.32137778 0.25872752 0.57751012
0.51236928 -0.065699257 0.59277034
0.51243794 0.069980964 0.593328
0.43359146 -0.20277873 0.61897659
0.459456 -0.17481315 0.60533059
0.51471758 -0.093273103 0.61183596
0.51444554 0.097620487 0.60962725
0.45995548 0.17942841 0.60996521
0.43348274 0.2071823 0.61789
0.48861513 -0.14822616 0.62203598
0.54451698 -0.038860798 0.63108611
0.54434401 -0.011432272 0.62976456
0.54417413 0.015975874 0.62846649
0.54483044 0.043461379 0.63348162
0.48847899 0.15266578 0.62085688
0.40864122 -0.23170379 0.64479423
0.51805943 -0.12138888 0.63896859
0.54694909 -0.066575304 0.64967108
0.54701245 0.071293399 0.65015495
0.51835293 0.12610476 0.64135182
0.40908745 0.23670781 0.64962518
0.35428783 -0.25988099 0.65407622
0.49387524 -0.177689 0.6675899
0.54952556 -0.094601467 0.66935897
0.5492149 0.099386781 0.66698503
0.3550919 0.26542565 0.66452134
0.46768376 -0.20615739 0.68167448
0.52328479 -0.15051074 0.68139315
0.52309716 0.15539137 0.67986977
0.49434322 0.18275203 0.6716429
0.46748674 0.21099764 0.67984641
0.55339116 -0.12323397 0.69889772
0.57994157 -0.039304953 0.68879342
0.57975245 -0.011432371 0.68742859
0.57956672 0.016419441 0.68608832
0.58033007 0.044356026 0.69159734
0.55367327 0.1284027 0.70105314
0.44352582 -0.23622745 0.71824658
0.58266705 -0.067480534 0.70846319
0.58271652 0.07264813 0.7088201
0.5295248 -0.18066643 0.7320559
0.5854823 -0.095973752 0.72878027
0.58512574 0.1012103 0.72620714
0.52994984 0.18619336 0.73550653
0.44379655 0.24164958 0.72095203
0.50300163 -0.20965718 0.74662638
0.55913216 -0.15287308 0.74276686
0.61653614 -0.039764147 0.74842548
0.61632985 -0.011432371 0.74701548
0.61612731 0.016877841 0.74563026
0.6170097 0.045280941 0.75166345
0.55888158 0.15820792 0.74085212
0.50269878 0.21494901 0.74400401
0.58992571 -0.12514171 0.76084781
0.59019393 0.13077869 0.76278353
0.39273635 -0.2687526 0.78212738
0.61957717 -0.068415932 0.76921725
0.61962032 0.074049748 0.76951241
0.39291477 0.27464107 0.78423405
0.47987053 -0.24093914 0.79475379
0.56647134 -0.18375145 0.79884815
0.56684124 0.18975899 0.80167484
0.47991624 0.24679191 0.7951777
0.53961229 -0.21328536 0.81395602
0.53918439 0.21904278 0.81048203
0 0 0 1 0 0 0 1 0 0 0 1 0 0 0 0 0 904 1 0 0
