ply
format ascii 1.0
comment PCL generated
element vertex 943
property float x
property float y
property float z
element camera 1
property float view_px
property float view_py
property float view_pz
property float x_axisx
property float x_axisy
property float x_axisz
property float y_axisx
property float y_axisy
property float y_axisz
property float z_axisx
property float z_axisy
property float z_axisz
property float focal
property float scalex
property float scaley
property float centerx
property float centery
property int viewportx
property int viewporty
property float k1
property float k2
end_header
-0.038623359 -0.78430891 -0.054605961
-0.012570011 -0.78338945 -0.058725119
0.013419918 -0.78358847 -0.057833791
0.039433513 -0.78407568 -0.055650949
-0.038623359 -0.75828731 -0.054605842
-0.012570011 -0.75739944 -0.058725238
0.013419918 -0.75759143 -0.05783391
0.039433513 -0.75806218 -0.05565083
-0.038623359 -0.73226577 -0.054605842
-0.012570011 -0.73140949 -0.058724999
0.013419918 -0.73159468 -0.05783391
0.039433513 -0.73204845 -0.055650949
-0.038623359 -0.70624399 -0.054605961
-0.012570011 -0.70541954 -0.058725357
0.013419918 -0.70559794 -0.05783391
0.039433513 -0.7060349 -0.055650949
-0.038623359 -0.68022239 -0.054605961
-0.012570011 -0.67942965 -0.058725238
0.013419918 -0.67960107 -0.05783391
0.039433513 -0.68002135 -0.055651069
-0.038623359 -0.65420073 -0.054605961
-0.012570011 -0.6534397 -0.058725238
0.013419918 -0.65360439 -0.05783391
0.039433513 -0.65400773 -0.055650949
-0.038623359 -0.62817925 -0.054605842
-0.012570011 -0.62744981 -0.058725238
0.013419918 -0.62760758 -0.05783391
0.039433513 -0.62799418 -0.05565083
-0.038623359 -0.60215753 -0.054605842
-0.012570011 -0.60145992 -0.058725119
0.013419918 -0.60161084 -0.05783391
0.039433513 -0.60198045 -0.055650949
-0.038623359 -0.57613593 -0.054605842
-0.012570011 -0.57546997 -0.058725119
0.013419918 -0.57561404 -0.05783391
0.039433513 -0.57596695 -0.055650949
-0.038623359 -0.55011415 -0.054605961
-0.012570011 -0.54948002 -0.058725119
0.013419918 -0.54961723 -0.05783391
0.039433513 -0.54995322 -0.055651069
-0.038623359 -0.5240925 -0.054605961
-0.012570011 -0.52349001 -0.058725238
0.013419918 -0.52362037 -0.057833791
0.039433513 -0.52393967 -0.055650949
-0.038623359 -0.49807096 -0.054605961
-0.012570011 -0.49750009 -0.058725357
0.013419918 -0.49762365 -0.05783391
0.039433513 -0.49792618 -0.05565083
-0.038623359 -0.47204933 -0.054605842
-0.012570011 -0.47151023 -0.058725238
0.013419918 -0.47162682 -0.05783391
0.039433513 -0.4719125 -0.055650949
-0.038623359 -0.44602764 -0.054605842
-0.012570011 -0.44552022 -0.058725119
0.013419918 -0.44563001 -0.057833791
0.039433513 -0.44589889 -0.055650949
-0.038623359 -0.42000592 -0.054605961
-0.012570011 -0.41953033 -0.058725119
0.013419918 -0.41963321 -0.05783391
0.039433513 -0.41988531 -0.055651069
-0.038623359 -0.39398438 -0.054605961
-0.012570011 -0.39354047 -0.058725119
0.013419918 -0.39363641 -0.057833791
0.039433513 -0.39387172 -0.055650949
-0.038623359 -0.36796269 -0.054605842
-0.012570011 -0.36755052 -0.058725119
0.013419918 -0.36763969 -0.05783391
0.039433513 -0.36785808 -0.055650949
-0.038623359 -0.34194112 -0.054605842
-0.012570011 -0.34156066 -0.058725119
0.013419918 -0.34164289 -0.05783391
0.039433513 -0.34184456 -0.055651069
-0.038623359 -0.31591946 -0.054605842
-0.012570011 -0.31557065 -0.058725238
0.013419918 -0.31564611 -0.057833791
0.039433513 -0.31583098 -0.055650949
-0.038623359 -0.28989774 -0.054605961
-0.012570011 -0.28958061 -0.058725238
0.013419918 -0.28964931 -0.05783391
0.039433513 -0.28981739 -0.055650711
-0.038623359 -0.26387617 -0.05460608
-0.012570011 -0.26359075 -0.058725119
0.013419918 -0.26365253 -0.057833791
0.039433513 -0.26380375 -0.055650949
-0.038623359 -0.23785453 -0.054605842
-0.012570011 -0.23760088 -0.058725119
0.013419918 -0.23765573 -0.057833791
0.039433513 -0.23779024 -0.055650949
-0.038623359 -0.21183287 -0.054605842
-0.012570011 -0.21161096 -0.058725119
0.013419918 -0.211659 -0.057833791
0.039433513 -0.21177654 -0.055650949
-0.038623359 -0.18581133 -0.054605842
-0.012570011 -0.18562107 -0.058725119
0.013419918 -0.1856622 -0.057833791
0.039433513 -0.185763 -0.055650949
-0.038623359 -0.15978973 -0.054605842
-0.012570011 -0.15963119 -0.058725119
0.013419918 -0.15966542 -0.057833791
0.039433513 -0.15974946 -0.05565083
-0.038623359 -0.13376792 -0.054605961
-0.012570011 -0.13364109 -0.058725357
0.013419918 -0.1336686 -0.057833791
0.039433513 -0.13373578 -0.055650949
-0.038623359 -0.10774632 -0.054605961
-0.012570011 -0.10765117 -0.058725238
0.013419918 -0.10767183 -0.057833791
0.039433513 -0.10772224 -0.055650949
-0.038623359 -0.081724778 -0.054605961
-0.012570011 -0.081661284 -0.058725238
0.013419918 -0.081675008 -0.057833672
0.039433513 -0.081708595 -0.055651069
-0.038623359 -0.055703126 -0.054605842
-0.012570011 -0.055671409 -0.058725238
0.013419918 -0.055678301 -0.057833791
0.039433513 -0.055695012 -0.055650949
-0.038623359 -0.02968148 -0.054605842
-0.012570011 -0.02968148 -0.058725119
0.013419918 -0.02968148 -0.057833791
0.039433513 -0.029681532 -0.05565083
-0.038623359 -0.0036597755 -0.054605961
-0.012570011 -0.0036916006 -0.058725119
0.013419918 -0.0036846064 -0.057833672
0.039433513 -0.0036677327 -0.05565083
-0.038623359 0.022361819 -0.054605961
-0.012570011 0.022298276 -0.058725119
0.013419918 0.022312108 -0.057833791
0.039433513 0.022345748 -0.055650949
-0.038623359 0.048383523 -0.054605842
-0.012570011 0.048288319 -0.058725357
0.013419918 0.048308823 -0.057833791
0.039433513 0.048359226 -0.05565083
-0.038623359 0.074405059 -0.054605842
-0.012570011 0.074278414 -0.058725238
0.013419918 0.074305698 -0.057833791
0.039433513 0.074373022 -0.05565083
-0.038623359 0.10042666 -0.054605842
-0.012570011 0.10026829 -0.058725119
0.013419918 0.1003024 -0.057833791
0.039433513 0.1003865 -0.055650949
-0.038623359 0.12644847 -0.054605842
-0.012570011 0.12625821 -0.058725119
0.013419918 0.12629934 -0.057833672
0.039433513 0.1264001 -0.055651069
-0.038623359 0.15247007 -0.05460608
-0.012570011 0.1522481 -0.058725119
0.013419918 0.15229604 -0.057833791
0.039433513 0.15241379 -0.05565083
-0.038623359 0.17849161 -0.054605961
-0.012570011 0.17823797 -0.058725119
0.013419918 0.17829275 -0.057833791
0.039433513 0.17842728 -0.055650711
-0.038623359 0.20451331 -0.054605842
-0.012570011 0.20422785 -0.058725119
0.013419918 0.20428963 -0.057833791
0.039433513 0.20444085 -0.055650949
-0.038623359 0.23053487 -0.054605842
-0.012570011 0.23021783 -0.058725119
0.013419918 0.2302864 -0.057833672
0.039433513 0.23045455 -0.055650949
-0.038623359 0.25655663 -0.054605722
-0.012570011 0.25620782 -0.058725357
0.013419918 0.25628322 -0.057833672
0.039433513 0.25646821 -0.055650949
-0.038623359 0.28257823 -0.054605961
-0.012570011 0.28219771 -0.058725357
0.013419918 0.28227994 -0.057833791
0.039433513 0.28248167 -0.055650949
-0.038623359 0.30859986 -0.054605842
-0.012570011 0.30818763 -0.058725238
0.013419918 0.30827698 -0.057833791
0.039433513 0.30849525 -0.055650711
-0.038623359 0.33462158 -0.054605842
-0.012570011 0.33417752 -0.058725238
0.013419918 0.3342737 -0.057833791
0.039433513 0.3345089 -0.055650949
-0.038623359 0.36064306 -0.054605842
-0.012570011 0.36016741 -0.058725238
0.013419918 0.36027041 -0.05783391
0.039433513 0.36052239 -0.055650949
-0.038623359 0.38666478 -0.054605842
-0.012570011 0.38615745 -0.058725119
0.013419918 0.38626733 -0.05783391
0.039433513 0.38653618 -0.055650949
-0.038614579 0.41261181 -0.0551759
-0.012576434 0.41225642 -0.057890892
0.013419918 0.41213989 -0.058782101
0.03944302 0.41271129 -0.054415941
-0.012632188 0.43925646 -0.050648093
0.013419918 0.43914309 -0.051466823
-0.091210805 -0.78825408 -0.036933422
-0.064784825 -0.78566068 -0.048551202
0.06557022 -0.78586084 -0.04765451
0.091869898 -0.78803134 -0.0379318
-0.091210805 -0.76209652 -0.036933541
-0.064784825 -0.75959235 -0.048551202
0.06557022 -0.75978565 -0.04765451
0.091869898 -0.76188129 -0.037931919
-0.091210805 -0.73593879 -0.036933541
-0.064784825 -0.73352408 -0.048551321
0.06557022 -0.73371047 -0.04765451
0.091869898 -0.7357313 -0.037931919
-0.091210805 -0.70978111 -0.036933422
-0.064784825 -0.70745581 -0.048551321
0.06557022 -0.70763534 -0.04765451
0.091869898 -0.70958126 -0.037931919
-0.091210805 -0.68362349 -0.036933541
-0.064784825 -0.68138754 -0.048551321
0.06557022 -0.68156022 -0.04765439
0.091869898 -0.68343139 -0.037931919
-0.091210805 -0.65746582 -0.036933541
0.091869898 -0.65728128 -0.037931919
-0.064784825 -0.65531933 -0.048551321
0.06557022 -0.65548515 -0.04765439
-0.091210805 -0.63130808 -0.036933422
-0.064784825 -0.62925124 -0.048551083
0.06557022 -0.62940991 -0.04765439
0.091869898 -0.63113141 -0.037931919
-0.091210805 -0.60515046 -0.036933541
-0.064784825 -0.60318297 -0.048551202
0.06557022 -0.60333478 -0.04765439
0.091869898 -0.60498142 -0.037931919
-0.091210805 -0.57899272 -0.036933422
-0.064784825 -0.5771147 -0.048551202
0.06557022 -0.5772596 -0.04765439
0.091869898 -0.57883143 -0.037931919
-0.091210805 -0.55283505 -0.036933422
-0.064784825 -0.55104643 -0.048551321
0.06557022 -0.55118442 -0.04765451
0.091869898 -0.55268127 -0.037931919
-0.091210805 -0.52667743 -0.036933422
-0.064784825 -0.52497816 -0.048551321
0.06557022 -0.52510923 -0.04765451
0.091869898 -0.52653128 -0.037931919
-0.091210805 -0.50051969 -0.036933422
-0.064784825 -0.49890986 -0.048551321
0.06557022 -0.49903408 -0.04765451
0.091869898 -0.50038129 -0.037931919
-0.091210805 -0.47436205 -0.036933422
-0.064784825 -0.47284162 -0.048551321
0.06557022 -0.47295898 -0.04765451
0.091869898 -0.47423133 -0.037931919
-0.091210805 -0.44820431 -0.036933303
-0.064784385 -0.446771 -0.048570275
0.06557022 -0.4468838 -0.04765439
0.091869898 -0.4480814 -0.037931919
-0.091210805 -0.42204666 -0.036933422
-0.064784385 -0.42070296 -0.048570156
0.06557022 -0.42080864 -0.04765451
0.091869898 -0.42193142 -0.0379318
-0.091210805 -0.39588901 -0.036933422
-0.064784385 -0.39463472 -0.048570275
0.06557022 -0.39473358 -0.04765439
0.091869898 -0.39578143 -0.0379318
-0.091210805 -0.36973131 -0.036933303
-0.064784385 -0.36856678 -0.048570275
0.06557022 -0.36865842 -0.04765439
0.091869898 -0.36963141 -0.037931681
-0.091210805 -0.34357366 -0.036933422
-0.064784385 -0.34249863 -0.048570275
0.06557022 -0.34258327 -0.04765439
0.091869898 -0.3434813 -0.037931919
-0.091210805 -0.31741601 -0.036933422
-0.064784385 -0.31643057 -0.048570156
0.06557022 -0.31650805 -0.04765439
0.091869898 -0.31733131 -0.037931919
-0.091210805 -0.29125825 -0.036933303
-0.064784385 -0.29036242 -0.048570275
0.06557022 -0.2904329 -0.04765439
0.091869898 -0.29118136 -0.037931919
-0.091210805 -0.26510051 -0.036933541
-0.064784385 -0.26429436 -0.048570037
0.06557022 -0.26435775 -0.04765439
0.091869898 -0.26503146 -0.037931919
-0.091210805 -0.2389428 -0.036933541
-0.064784385 -0.23822622 -0.048570156
0.06557022 -0.23828267 -0.04765439
0.091869898 -0.23888147 -0.037931919
-0.091210805 -0.2127852 -0.036933541
-0.064784385 -0.21215805 -0.048570275
0.06557022 -0.21220744 -0.04765439
0.091869898 -0.21273142 -0.0379318
-0.091210805 -0.18662755 -0.036933541
-0.064784385 -0.18609011 -0.048570275
0.06557022 -0.1861323 -0.04765451
0.091869898 -0.18658142 -0.0379318
-0.091210209 -0.1604691 -0.036952615
-0.064784385 -0.1600219 -0.048570395
0.06557022 -0.16005714 -0.04765451
0.091869898 -0.16043136 -0.037931919
-0.091210209 -0.13431156 -0.036952615
-0.064784385 -0.13395384 -0.048570156
0.06557022 -0.13398209 -0.047654271
0.091869898 -0.13428138 -0.037931919
-0.091210209 -0.10815416 -0.036952615
-0.064784385 -0.10788569 -0.048570275
0.06557022 -0.10790689 -0.047654271
0.091869898 -0.10813142 -0.037931919
-0.091210209 -0.081996515 -0.036952615
-0.064784385 -0.081817634 -0.048570156
0.06557022 -0.081831738 -0.04765439
0.091869898 -0.08198151 -0.037931919
-0.091210209 -0.05583892 -0.036952734
-0.064784385 -0.055749476 -0.048570156
0.06557022 -0.05575658 -0.04765439
0.091869898 -0.05583144 -0.0379318
-0.091210209 -0.02968148 -0.036952615
-0.064784385 -0.029681532 -0.048570275
0.06557022 -0.029681426 -0.04765439
0.091869898 -0.029681426 -0.0379318
-0.091210209 -0.0035239328 -0.036952734
-0.064784385 -0.0036133733 -0.048570275
0.06557022 -0.003606325 -0.04765439
0.091869898 -0.0035314634 -0.0379318
-0.091210209 0.022633664 -0.036952615
-0.064784385 0.022454891 -0.048570275
0.06557022 0.022468884 -0.04765439
0.091869898 0.022618607 -0.037931681
-0.091210209 0.048791047 -0.036952615
-0.064784385 0.048522834 -0.048570275
0.06557022 0.048543926 -0.04765451
0.091869898 0.048768569 -0.037931919
-0.091210209 0.074948698 -0.036952615
-0.064784385 0.074590892 -0.048570275
0.06557022 0.074619189 -0.04765451
0.091869898 0.074918643 -0.037931919
-0.091210209 0.10110635 -0.036952615
-0.064784385 0.1006591 -0.048570156
0.06557022 0.10069428 -0.047654629
0.091869898 0.1010685 -0.037931919
-0.091210209 0.12726374 -0.036952734
-0.064784385 0.12672715 -0.048570275
0.06557022 0.12676954 -0.047654629
0.091869898 0.12721856 -0.037931919
-0.091210209 0.15342128 -0.036952615
-0.064784385 0.15279531 -0.048570156
0.06557022 0.15284447 -0.04765439
0.091869898 0.1533684 -0.037931919
-0.091210209 0.17957878 -0.036952615
-0.064784385 0.17886336 -0.048570275
0.06557022 0.17891975 -0.04765439
0.091869898 0.17951849 -0.037931919
-0.091210209 0.20573643 -0.036952734
-0.064784385 0.20493151 -0.048570037
0.06557022 0.20499484 -0.04765439
0.091869898 0.20566855 -0.0379318
-0.091210209 0.23189391 -0.036952615
-0.064784385 0.23099951 -0.048570275
0.06557022 0.23107006 -0.04765439
0.091869898 0.23181848 -0.0379318
-0.091210209 0.25805143 -0.036952615
-0.064784385 0.25706759 -0.048570156
0.06557022 0.25714511 -0.04765451
0.091869898 0.2579686 -0.037931919
-0.091210209 0.28420901 -0.036952734
-0.064784385 0.28313574 -0.048570156
0.06557022 0.28322044 -0.04765439
0.091869898 0.28411847 -0.037931919
-0.091210209 0.31036642 -0.036952615
-0.064784385 0.30920389 -0.048570275
0.06557022 0.30929542 -0.047654629
0.091869898 0.31026849 -0.037931919
-0.091210209 0.33652401 -0.036952615
-0.064784385 0.33527201 -0.048570275
0.06557022 0.33537075 -0.04765451
0.091869898 0.3364186 -0.037931681
-0.091210209 0.36268166 -0.036952615
-0.064784385 0.36134017 -0.048570275
0.06557022 0.36144584 -0.04765451
0.091869898 0.3625685 -0.0379318
-0.091210209 0.38883904 -0.036952615
-0.064784385 0.38740823 -0.048570037
0.06557022 0.38752106 -0.04765439
0.091869898 0.38871852 -0.037931681
-0.091209032 0.41499162 -0.036991239
-0.064811707 0.41363102 -0.047387242
0.065557584 0.41348878 -0.048474908
0.091912039 0.41510722 -0.036107421
-0.064992405 0.44079253 -0.039562464
-0.03872627 0.43963429 -0.047921658
0.039499331 0.43974802 -0.047100902
0.065681227 0.44067037 -0.040444255
-0.065173499 0.46807685 -0.031720757
-0.038838733 0.46677575 -0.040617108
-0.012688181 0.46637237 -0.043374062
0.013419918 0.46626049 -0.044139266
0.039555885 0.46690196 -0.039754272
0.06580545 0.46798119 -0.032375813
-0.038951386 0.49403158 -0.033299685
-0.012744416 0.49360523 -0.036069155
0.013419918 0.49349579 -0.036779761
0.039612833 0.49417683 -0.032356501
-0.11791333 -0.79141438 -0.022778034
0.11853424 -0.79176027 -0.021228313
-0.11791333 -0.76514769 -0.022778034
0.11853424 -0.76548177 -0.021228075
-0.11791333 -0.73888093 -0.022778153
0.11853424 -0.73920316 -0.021228194
-0.11791333 -0.71261436 -0.022778034
0.11853424 -0.71292466 -0.021228075
-0.11791333 -0.68634772 -0.022778034
0.11853424 -0.68664593 -0.021228075
-0.11791333 -0.66008103 -0.022778153
0.11853424 -0.66036743 -0.021228194
-0.11791333 -0.63381439 -0.022778034
0.11853424 -0.63408881 -0.021227956
-0.11791333 -0.60754776 -0.022778034
0.11853424 -0.6078102 -0.021228075
-0.11791333 -0.58128113 -0.022778034
0.11853424 -0.58153164 -0.021228313
-0.11791333 -0.55501449 -0.022778153
0.11853424 -0.55525309 -0.021228075
-0.11791333 -0.52874774 -0.022778034
0.11853424 -0.52897447 -0.021228194
-0.11791333 -0.50248116 -0.022778034
0.11853424 -0.50269586 -0.021228194
-0.11791333 -0.47621456 -0.022778034
0.11853424 -0.4764173 -0.021228075
-0.11791333 -0.44994774 -0.022778153
0.11853424 -0.45013872 -0.021228194
0.11853424 -0.42386013 -0.021227956
-0.11791333 -0.4236812 -0.022778153
-0.11791333 -0.39741459 -0.022778034
0.11853424 -0.39758155 -0.021228194
-0.11791333 -0.3711479 -0.022778034
0.11853424 -0.37130302 -0.021228194
-0.11791333 -0.34488115 -0.022778034
0.11853424 -0.34502441 -0.021228075
-0.11791333 -0.31861451 -0.022778034
0.11853424 -0.31874588 -0.021228194
-0.11791333 -0.29234794 -0.022778034
0.11853424 -0.29246718 -0.021228194
-0.11791333 -0.26608136 -0.022778034
0.11853424 -0.26618868 -0.021228075
-0.11791333 -0.23981456 -0.022778034
0.11853424 -0.2399101 -0.021228194
-0.11791333 -0.21354793 -0.022778034
0.11853424 -0.21363156 -0.021228075
-0.11791333 -0.1872814 -0.022778034
0.11853424 -0.18735301 -0.021228194
-0.11791333 -0.1610146 -0.022778034
0.11853424 -0.16107425 -0.021228194
-0.11791333 -0.13474803 -0.022778153
0.11853424 -0.13479581 -0.021228075
-0.11791333 -0.10848144 -0.022778034
0.11853424 -0.10851721 -0.021228194
-0.11791333 -0.082214698 -0.022778034
0.11853424 -0.08223857 -0.021228194
-0.11791333 -0.055948064 -0.022778153
0.11853424 -0.055960022 -0.021228075
-0.11791333 -0.02968148 -0.022778034
0.11853424 -0.02968148 -0.021228194
-0.11791333 -0.0034148432 -0.022778153
0.11853424 -0.0034027752 -0.021228194
-0.11791333 0.022851899 -0.022778034
0.11853424 0.022875767 -0.021227956
-0.11791333 0.049118642 -0.022778153
0.11853424 0.049154256 -0.021228194
-0.11791333 0.075385168 -0.022778034
0.11853424 0.075432852 -0.021227956
-0.11791258 0.10165089 -0.022797465
0.11853424 0.1017115 -0.021227956
-0.11791333 0.12791839 -0.022778034
0.11853424 0.12798999 -0.021228194
-0.11791333 0.15418503 -0.022778034
0.11853424 0.15426853 -0.021227956
-0.11791258 0.1804505 -0.022797465
0.11853424 0.18054724 -0.021228075
-0.11791258 0.20671712 -0.022797465
0.11853424 0.20682588 -0.021228194
-0.11791258 0.23298354 -0.022797465
0.11853424 0.23310427 -0.021228075
-0.11791258 0.25925004 -0.022797465
0.11853424 0.25938305 -0.021228194
-0.11791258 0.28551656 -0.022797585
0.11853424 0.28566152 -0.021227956
-0.11791258 0.31178305 -0.022797465
0.11853424 0.31194007 -0.021228075
-0.11791258 0.33804956 -0.022797227
0.11853424 0.33821866 -0.021228194
-0.11791258 0.36431605 -0.022797465
0.11853424 0.36449733 -0.021227956
-0.11791258 0.3905825 -0.022797465
0.11853424 0.3907758 -0.021228194
-0.11804838 0.4173106 -0.019269347
0.11857186 0.41721439 -0.020006418
-0.091451451 0.44223976 -0.02911818
0.092098854 0.44239226 -0.028018117
-0.09170156 0.46964571 -0.020995378
0.092286557 0.46980724 -0.019890308
-0.065355442 0.4954876 -0.023842812
0.065929972 0.49541917 -0.02428782
-0.06553822 0.52302551 -0.015928268
-0.039064527 0.52140522 -0.025951028
-0.012800896 0.52095574 -0.028732181
0.013419918 0.52085263 -0.029368997
0.039669879 0.52156782 -0.024945736
0.06605538 0.52299088 -0.016142249
-0.039178755 0.54890394 -0.01853168
-0.012857617 0.5484243 -0.021363854
0.013419918 0.54832596 -0.021945238
0.039727326 0.54908162 -0.017483115
-0.012914737 0.57601547 -0.013943791
0.013419918 0.57592249 -0.014469385
-0.14529879 -0.77036875 0.0014446974
0.14569229 -0.77040684 0.0016214848
-0.14529879 -0.74391556 0.0014448166
0.14569229 -0.74395239 0.0016214848
-0.14529879 -0.71746254 0.0014448166
0.14569229 -0.71749789 0.0016214848
-0.14529879 -0.69100928 0.0014446974
0.14569229 -0.69104344 0.0016213655
-0.14529879 -0.66455615 0.0014448166
0.14569229 -0.66458899 0.001621604
-0.14529879 -0.63810307 0.0014448166
0.14569229 -0.63813448 0.0016214848
-0.14529879 -0.61165005 0.0014448166
0.14569229 -0.61167991 0.0016213655
-0.14529879 -0.58519691 0.0014446974
0.14569229 -0.58522552 0.0016214848
-0.14529879 -0.55874372 0.0014446974
0.14569229 -0.5587709 0.0016214848
-0.14529879 -0.53229064 0.0014448166
0.14569229 -0.53231651 0.001621604
-0.14529879 -0.50583762 0.0014448166
0.14569229 -0.50586206 0.0016214848
-0.14529879 -0.47938445 0.0014449358
0.14569229 -0.47940758 0.001621604
-0.14529879 -0.4529312 0.0014446974
0.14569305 -0.45295545 0.0016411543
-0.14529879 -0.42647821 0.0014448166
0.14569305 -0.42650092 0.0016411543
-0.14529879 -0.40002507 0.0014449358
0.14569305 -0.4000462 0.0016411543
-0.14529879 -0.37357202 0.0014449358
0.14569305 -0.37359157 0.0016411543
-0.14529879 -0.34711882 0.0014446974
0.14569305 -0.347137 0.0016411543
-0.14529879 -0.32066566 0.0014448166
0.14569305 -0.32068232 0.0016411543
-0.14529879 -0.29421261 0.0014449358
0.14569305 -0.29422766 0.0016411543
-0.14529969 -0.26776081 0.0014643669
0.14569305 -0.26777309 0.0016410351
-0.14529969 -0.24130754 0.0014644861
0.14569305 -0.24131843 0.0016410351
-0.14529969 -0.21485433 0.0014643669
0.14569305 -0.21486391 0.0016413927
-0.14529969 -0.18840103 0.0014643669
0.14569305 -0.18840931 0.0016412735
-0.14529969 -0.16194777 0.0014644861
0.14569305 -0.16195467 0.0016412735
-0.1453006 -0.1354951 0.0014840364
0.14569305 -0.13550001 0.0016412735
-0.1453006 -0.10904168 0.0014841557
0.14569305 -0.10904537 0.0016411543
-0.1453006 -0.082588263 0.0014840364
0.14569305 -0.082590714 0.0016412735
-0.1453006 -0.056134842 0.0014840364
0.14569305 -0.056136072 0.0016412735
-0.1453006 -0.029681532 0.0014839172
0.14569305 -0.02968148 0.0016411543
-0.1453006 -0.0032281131 0.0014839172
0.14569305 -0.0032268316 0.0016411543
-0.1453006 0.02322536 0.0014839172
0.14569305 0.023227815 0.0016411543
-0.1453006 0.049678724 0.0014839172
0.14569305 0.049682517 0.0016411543
-0.1453006 0.076132149 0.0014839172
0.14569305 0.076137155 0.0016411543
-0.14530151 0.10258646 0.0015035868
0.14569305 0.10259165 0.0016411543
-0.14530151 0.12903994 0.0015035868
0.14569305 0.12904629 0.0016411543
-0.14530151 0.15549347 0.001503706
0.14569305 0.15550093 0.0016411543
-0.14530151 0.18194722 0.0015035868
0.14569305 0.18195562 0.0016411543
-0.14530151 0.20840062 0.0015035868
0.14569305 0.20841023 0.0016411543
-0.14530151 0.23485421 0.0015038252
0.14569305 0.23486499 0.0016412735
-0.14530151 0.26130795 0.001503706
0.14569305 0.26131943 0.0016411543
-0.14530151 0.28776133 0.001503706
0.14569305 0.28777409 0.0016411543
-0.14530151 0.314215 0.0015038252
0.14569305 0.31422874 0.0016411543
-0.14530151 0.34066847 0.0015035868
0.14569305 0.34068337 0.0016411543
-0.14530241 0.36712429 0.0015234947
0.14569305 0.36713812 0.0016411543
-0.14530241 0.3935782 0.0015234947
0.14569305 0.39359277 0.0016411543
-0.14539047 0.42028141 0.0034296513
0.14575508 0.42025807 0.0032528639
-0.11840562 0.4448905 -0.0099877119
0.11887314 0.44485825 -0.01022172
-0.11876557 0.47262356 -0.00063586235
0.11917678 0.47266373 -0.00036120415
-0.091987669 0.49735644 -0.011703849
0.092474714 0.4973506 -0.011742592
-0.092275344 0.52521855 -0.0023614168
0.092664219 0.52502865 -0.0035370588
-0.065722294 0.55069476 -0.0079574585
0.066181391 0.55069476 -0.0079574585
-0.065906785 0.5784899 3.1113625e-05
-0.039300989 0.57660896 -0.010592341
0.039784878 0.57671273 -0.010007262
0.066308014 0.57853156 0.00026667118
-0.03942379 0.60444295 -0.0026162863
-0.012971953 0.60372341 -0.0065110922
0.013419918 0.60363674 -0.0069802999
0.039842829 0.60446841 -0.0024789572
-0.01302942 0.63155186 0.00095379353
0.013419918 0.63147259 0.00054144859
0.039900884 0.63234282 0.0050625801
-0.14597206 0.44849443 0.016021609
0.14617112 0.44822291 0.01406157
-0.1191275 0.50050819 0.0087670088
0.11948215 0.50062972 0.0095561743
-0.11949141 0.52854615 0.018221498
0.11978869 0.52875471 0.019511104
-0.09256459 0.55323339 0.0070319176
0.092882372 0.55304319 0.0059093237
-0.092855424 0.58140165 0.016477227
0.093112238 0.58129311 0.015862942
-0.066092134 0.60641497 0.0080569983
0.066434935 0.60649872 0.0085104704
-0.039547469 0.63241094 0.0054169893
-0.066278808 0.63447446 0.016140342
0.066562772 0.63460428 0.016813874
-0.039671421 0.66050589 0.013468146
-0.013087136 0.65950179 0.0084514618
0.013419918 0.6594348 0.0081163645
0.039959349 0.66034371 0.012657166
-0.039795961 0.68873274 0.021556973
-0.013145105 0.68757415 0.015981793
0.013419918 0.68751651 0.015704751
0.040020976 0.68854713 0.020662785
-0.17362714 -0.77786964 0.03624475
0.17368951 -0.77760625 0.035022855
-0.17362714 -0.7511487 0.036244869
0.17368951 -0.75089461 0.035022855
-0.17362714 -0.72442764 0.036244869
0.17368951 -0.72418308 0.035022855
-0.17362714 -0.6977067 0.03624475
0.17368951 -0.69747138 0.035022855
-0.17362714 -0.6709857 0.036244988
0.17368951 -0.67075992 0.035022855
-0.17362714 -0.64426458 0.036244869
0.17368951 -0.64404809 0.035022736
-0.17362714 -0.6175437 0.036244988
0.17368951 -0.61733675 0.035022855
-0.17362714 -0.5908227 0.036244869
0.17368951 -0.59062493 0.035022736
-0.17362714 -0.56410158 0.036244869
0.17368951 -0.56391352 0.035022855
-0.17362714 -0.5373807 0.036244869
0.17368951 -0.53720194 0.035022974
-0.17362714 -0.51065958 0.036244869
0.17368951 -0.51049024 0.035022736
-0.17362714 -0.48393854 0.036244869
0.17368951 -0.48377863 0.035022974
-0.17362714 -0.45721751 0.036244988
0.17368951 -0.45706704 0.035022736
-0.17362714 -0.43049657 0.036244869
0.17368951 -0.43035549 0.035022855
-0.17362714 -0.40377557 0.036245108
0.17368951 -0.40364388 0.035022736
-0.17362714 -0.37705457 0.036244988
0.17368951 -0.37693229 0.035022855
-0.17362714 -0.35033354 0.036244869
0.17368951 -0.35022071 0.035022736
-0.17362714 -0.3236126 0.036244988
0.17368951 -0.32350907 0.035022855
-0.17362714 -0.29689154 0.036244869
0.17368951 -0.29679736 0.035022736
-0.17362714 -0.27017045 0.036244869
0.17368951 -0.27008587 0.035022855
-0.17362714 -0.24344957 0.036244988
0.17368951 -0.24337418 0.035022736
-0.17362714 -0.21672848 0.036244869
0.17368951 -0.21666269 0.035022855
-0.17362714 -0.19000749 0.036244869
0.17368951 -0.18995099 0.035022736
-0.17362714 -0.16328645 0.036244988
0.17368951 -0.16323951 0.035022855
-0.17362714 -0.13656545 0.036244869
0.17368951 -0.13652775 0.035022736
-0.17362714 -0.10984446 0.036244988
0.17368951 -0.10981627 0.035022855
-0.17362714 -0.08312346 0.036244869
0.17368951 -0.083104566 0.035022736
-0.17362823 -0.056402791 0.036264896
0.17368951 -0.056393072 0.035022855
-0.17362823 -0.02968148 0.036265016
0.17368951 -0.029681586 0.035022974
-0.17362823 -0.00296022 0.036264777
0.17368951 -0.0029697772 0.035022974
-0.17362823 0.023761038 0.036264896
0.17368951 0.023741711 0.035022974
-0.17362928 0.050482508 0.036285043
0.17368951 0.050453302 0.035022855
-0.17362928 0.077203766 0.036285043
0.17368951 0.077164844 0.035022974
-0.17362928 0.10392518 0.036284924
0.17368951 0.10387665 0.035022974
-0.17363039 0.1306473 0.03630507
0.17368951 0.13058813 0.035022974
-0.17363039 0.15736891 0.03630507
0.17368951 0.15729973 0.035022855
-0.17363039 0.1840903 0.036304951
0.17368951 0.18401143 0.035022974
-0.17363039 0.21081188 0.03630507
0.17368951 0.21072297 0.035022974
-0.17362928 0.2375318 0.036285043
0.17368951 0.23743452 0.035022855
-0.17362928 0.26425308 0.036285043
0.17368951 0.26414612 0.035022736
-0.17362928 0.29097438 0.036285281
0.17368951 0.29085788 0.035022974
-0.17362928 0.31769577 0.036285043
0.17368951 0.3175694 0.035022736
-0.17362928 0.34441707 0.036285043
0.17368951 0.34428096 0.035022855
-0.17362823 0.37113598 0.036264896
0.17368951 0.37099248 0.035022736
-0.17315423 0.3967737 0.027469039
0.17338207 0.39688444 0.028366566
-0.17384122 0.42509559 0.040217638
-0.146557 0.47691205 0.028685808
0.14670329 0.47679535 0.02788794
-0.11994105 0.55710673 0.029903412
0.12009761 0.55704588 0.029543996
-0.093147859 0.60972518 0.025974035
0.09334299 0.60970312 0.025854468
-0.093441285 0.63820124 0.035503507
0.093575537 0.63828206 0.035924315
-0.066465907 0.66266239 0.024241805
0.066691227 0.66284567 0.025157452
-0.066685297 0.6912654 0.033741474
0.066820309 0.69122386 0.033541441
-0.039921388 0.71709681 0.029703736
-0.013203328 0.71576947 0.023545265
0.013419918 0.71572214 0.023326397
0.040085346 0.71695054 0.029025078
-0.040047102 0.74559033 0.037868977
-0.01326196 0.74409306 0.031161904
0.013419918 0.74405724 0.031002164
0.040150031 0.74549186 0.037427664
-0.013320698 0.77253711 0.038792133
0.013419918 0.77251369 0.038691759
0.17402694 0.42537183 0.042328238
0.17475477 0.45432314 0.058086395
-0.14714624 0.50553894 0.041443348
0.14724052 0.50560105 0.04184556
-0.14773984 0.53437763 0.054295421
0.14778133 0.5346365 0.055895805
-0.1204332 0.586043 0.042690158
0.12046093 0.58580422 0.041342735
-0.12092822 0.61518961 0.055551291
0.12089407 0.61516356 0.055409551
-0.093736954 0.66683823 0.045105815
0.093809448 0.66702777 0.046052814
-0.094096668 0.69605541 0.056787968
0.094044253 0.69593757 0.056220055
-0.066906817 0.7200349 0.043334007
0.066955276 0.7198137 0.042307973
-0.067129582 0.74896377 0.052979469
0.06711179 0.74885076 0.052473903
-0.040173408 0.77421844 0.046073079
0.04021503 0.77417183 0.045871377
-0.040300626 0.80298704 0.054336071
-0.013379694 0.80110651 0.04645586
0.013419918 0.80110174 0.046435833
0.040280189 0.80298704 0.054336071
-0.01342057 0.82921422 0.051765919
0.013419918 0.82921422 0.051765919
-0.01342057 0.85605448 0.051765919
0.013419918 0.85605448 0.051765919
-0.01342057 0.88289517 0.051765919
0.013419918 0.88289517 0.051765919
-0.01342057 0.90973574 0.051765919
0.013419918 0.90973574 0.051765919
-0.01342057 0.93657613 0.051765919
0.013419918 0.93658173 0.051785946
-0.01342057 0.96341664 0.051766038
0.013419918 0.9634223 0.051786065
-0.01342057 0.99025702 0.051765919
0.013419918 0.9902631 0.051786184
-0.17498797 0.45479599 0.061499119
-0.14866455 0.56462812 0.074315786
0.14837843 0.56413597 0.071409583
-0.12142614 0.64454877 0.068487525
0.12133072 0.64476097 0.069590449
-0.094495922 0.72572941 0.069753885
0.094341226 0.72558403 0.069079876
-0.0673531 0.77804863 0.062658548
0.067269221 0.77805805 0.062699318
-0.067578338 0.80730051 0.072411537
0.067427583 0.80743724 0.072984695
-0.040379308 0.83110613 0.059446573
0.040320784 0.8311463 0.059608936
-0.040379308 0.85800576 0.059446335
0.040320784 0.85804719 0.059609056
-0.040379308 0.88490558 0.059446573
0.04032094 0.88495332 0.059629321
-0.040379621 0.91181058 0.059466839
0.04032094 0.91185433 0.05962944
-0.040379621 0.93871021 0.059466958
0.04032094 0.93875515 0.059629321
-0.040379621 0.96561009 0.059466839
0.04032094 0.96565634 0.05962944
-0.040379621 0.99250972 0.05946672
0.04032094 0.99255729 0.05962956
-0.17616998 0.48491976 0.083433986
0.17598546 0.48510954 0.084731579
-0.12214742 0.67526859 0.087226629
0.12179949 0.67478579 0.084814072
-0.094896875 0.75561517 0.082775354
0.094671302 0.75574845 0.083372116
-0.067685276 0.83544052 0.077042103
0.067500472 0.83560741 0.077719212
-0.067685276 0.86247557 0.077041984
0.067500472 0.86264759 0.077719212
-0.067685276 0.88951075 0.077042222
0.067500472 0.88968813 0.077719212
-0.067685276 0.91654581 0.077041984
0.067500472 0.9167282 0.077719212
-0.067685276 0.94358087 0.077041984
0.067500472 0.94376856 0.077719212
-0.067685276 0.97061598 0.077042222
0.067500472 0.97080874 0.077719212
-0.20493591 -0.79392678 0.11074066
-0.20493591 -0.76663232 0.11074066
-0.2049372 -0.73934203 0.11076152
-0.20493591 -0.71204334 0.11074042
-0.20493591 -0.68474889 0.11074054
-0.20493591 -0.65745449 0.11074054
-0.20493591 -0.63015991 0.11074066
-0.20493591 -0.60286552 0.11074066
-0.20493591 -0.575571 0.11074066
-0.20493591 -0.54827648 0.11074042
-0.20493591 -0.52098203 0.11074066
-0.20493591 -0.49368751 0.11074054
-0.20493591 -0.46639314 0.11074066
-0.20493591 -0.43909857 0.11074066
-0.20493591 -0.41180405 0.11074054
-0.20493591 -0.38450962 0.11074042
-0.20493591 -0.35721508 0.11074066
-0.20493591 -0.32992071 0.11074054
-0.20493591 -0.30262628 0.11074066
-0.20493591 -0.27533177 0.11074066
-0.20493591 -0.24803719 0.11074054
-0.20493591 -0.22074278 0.11074042
-0.20493591 -0.19344829 0.11074066
-0.20493591 -0.16615386 0.11074066
-0.20493461 -0.13885869 0.1107198
-0.20493461 -0.11156443 0.1107198
-0.20493461 -0.084270112 0.11071968
-0.20493461 -0.056975797 0.11071956
-0.20493461 -0.029681532 0.1107198
-0.20493461 -0.0023871623 0.1107198
-0.20493461 0.024907101 0.11071956
-0.20493461 0.052201468 0.11071968
-0.20493461 0.079495683 0.1107198
-0.20493461 0.10679005 0.1107198
-0.20493461 0.13408436 0.11071968
-0.20493461 0.16137889 0.1107198
-0.20493461 0.18867323 0.1107198
-0.20493461 0.21596742 0.1107198
-0.20493461 0.2432618 0.11071992
-0.20493461 0.27055612 0.1107198
-0.20493461 0.29785043 0.11071968
-0.20493461 0.32514465 0.11071992
-0.20493461 0.35243902 0.1107198
-0.20493461 0.37973335 0.1107198
-0.20500417 0.40716669 0.11184919
0.20380643 0.40548775 0.098217607
-0.14968705 0.59556186 0.096453667
0.14940947 0.59587049 0.098196864
-0.12300902 0.70703483 0.10961187
0.12262874 0.70747811 0.11174464
-0.095435709 0.78673565 0.10027444
0.095017023 0.78628939 0.098342299
0.20490925 -0.76828313 0.11868358
0.20490925 -0.74092764 0.11868358
0.20490925 -0.71357203 0.11868358
0.20490925 -0.68621635 0.11868358
0.20490925 -0.6588608 0.11868358
0.20490925 -0.63150513 0.11868358
0.20490925 -0.60414946 0.11868358
0.20490925 -0.57679391 0.11868358
0.20490925 -0.54943824 0.11868358
0.20490925 -0.52208257 0.11868346
0.20490925 -0.49472708 0.11868358
0.20490925 -0.4673714 0.11868358
0.20490925 -0.44001567 0.11868358
0.20490813 -0.41265786 0.11866248
0.204907 -0.38530031 0.1186415
0.204907 -0.35794497 0.1186415
0.20490585 -0.33058795 0.11862063
0.20490585 -0.30323282 0.11862063
0.20490474 -0.27587616 0.11859953
0.20490474 -0.24852124 0.11859953
0.2049036 -0.2211652 0.11857855
0.2049036 -0.19381033 0.11857855
0.20490247 -0.1664547 0.11855757
0.20490247 -0.13909994 0.11855757
0.20490134 -0.11174487 0.11853659
0.20490134 -0.084390312 0.11853647
0.20490019 -0.057035763 0.11851549
0.20490019 -0.02968148 0.11851561
0.20490019 -0.0023271441 0.11851537
0.20490019 0.025027137 0.11851549
0.20490019 0.052381527 0.11851537
0.20490019 0.079735816 0.11851549
0.20490019 0.10709019 0.11851537
0.20490019 0.13444448 0.11851549
0.20490019 0.16179885 0.11851537
0.20490019 0.18915305 0.11851549
0.20490019 0.21650743 0.11851537
0.20490019 0.24386193 0.11851573
0.20490019 0.27121633 0.11851549
0.20490019 0.2985706 0.11851573
0.20490019 0.32592499 0.11851549
0.20490019 0.35327929 0.11851561
0.20490019 0.38063356 0.11851549
0.095642298 0.81994981 0.12541771
0.095718823 0.84817344 0.12873101
0.095718823 0.87560648 0.12873113
0.095718823 0.90303957 0.12873125
0.095718823 0.93047243 0.12873125
0.095718823 0.95790529 0.12873125
0.095718823 0.98533821 0.12873113
-0.096433066 0.82167912 0.13266444
-0.096433066 0.84914249 0.13266444
-0.096433066 0.87660551 0.13266444
-0.096433066 0.90406883 0.13266444
-0.096433066 0.93153226 0.13266432
-0.096433066 0.95899534 0.13266444
-0.096433066 0.98645866 0.13266444
0 0 0 1 0 0 0 1 0 0 0 1 0 0 0 0 0 943 1 0 0
