ply
format ascii 1.0
comment PCL generated
element vertex 1206
property float x
property float y
property float z
element camera 1
property float view_px
property float view_py
property float view_pz
property float x_axisx
property float x_axisy
property float x_axisz
property float y_axisx
property float y_axisy
property float y_axisz
property float z_axisx
property float z_axisy
property float z_axisz
property float focal
property float scalex
property float scaley
property float centerx
property float centery
property int viewportx
property int viewporty
property float k1
property float k2
end_header
-0.059528183 -0.80573267 -0.40773892
-0.035011522 -0.80430895 -0.41287625
-0.010602276 -0.80390495 -0.4143343
0.013784518 -0.80390495 -0.4143343
0.038182538 -0.80430895 -0.41287625
0.062659889 -0.80573702 -0.40772331
-0.059395712 -0.77974969 -0.4134748
-0.03489995 -0.77795845 -0.4201231
-0.010535614 -0.77718478 -0.42299438
0.013784518 -0.77718478 -0.42299438
0.038126752 -0.77795845 -0.4201231
0.062571809 -0.77975786 -0.41344416
-0.035118621 -0.7573337 -0.40591979
-0.010638353 -0.75635785 -0.40964806
0.013784518 -0.75635785 -0.40964806
0.038236085 -0.7573337 -0.40591979
-0.10917249 -0.81127071 -0.38775504
-0.084179692 -0.8076582 -0.40079081
0.087258749 -0.80767101 -0.40074432
0.11215157 -0.81128365 -0.38770831
-0.10921153 -0.78695261 -0.38674068
0.11218376 -0.78697366 -0.3866626
-0.084083065 -0.78232163 -0.40392888
0.087186277 -0.78233415 -0.4038825
-0.059791345 -0.75984001 -0.39634359
0.062836051 -0.75985628 -0.39628148
-0.13470809 -0.81693578 -0.36731279
0.13753201 -0.81696212 -0.36721802
-0.084753364 -0.76355225 -0.38216031
0.087690465 -0.76358092 -0.38205063
-0.035684813 -0.74222428 -0.36914468
-0.010925264 -0.7414031 -0.3723768
0.013784518 -0.74140704 -0.3723613
0.038519181 -0.74222428 -0.36914468
-0.13501744 -0.79399163 -0.36061513
0.13779165 -0.79403013 -0.36047232
-0.060638454 -0.7446329 -0.35966277
0.063400321 -0.74464113 -0.35963094
-0.060892303 -0.72253299 -0.3486706
-0.03585501 -0.7202127 -0.35809028
-0.011010312 -0.71941489 -0.36132896
0.013784518 -0.71941489 -0.36132896
0.038604282 -0.7202127 -0.35809028
0.063569807 -0.72254485 -0.34862268
-0.036026381 -0.69804913 -0.34695923
-0.011095827 -0.69727093 -0.35022044
0.013784518 -0.69727093 -0.35022044
0.038689967 -0.69804913 -0.34695923
-0.13592215 -0.84917134 -0.34102774
0.1385413 -0.84918046 -0.34099567
-0.16143063 -0.82708669 -0.33068395
0.16398162 -0.82716286 -0.33040917
-0.11122189 -0.77602375 -0.33451021
0.11379362 -0.77605772 -0.33438122
-0.085875221 -0.74817324 -0.34572673
0.088531181 -0.74819344 -0.34564674
-0.086207695 -0.72591805 -0.33492923
0.088780545 -0.7259379 -0.33484864
-0.061148267 -0.70028579 -0.33758712
0.063740201 -0.70029342 -0.33755481
-0.036198936 -0.67573214 -0.3357513
-0.011181931 -0.67497373 -0.33903503
0.013784518 -0.67497373 -0.33903503
0.038776245 -0.67573214 -0.3357513
-0.011268635 -0.65252161 -0.32777202
0.013784518 -0.65252161 -0.32777202
-0.16225231 -0.85646063 -0.31543553
0.16468377 -0.85652572 -0.31520712
-0.11161601 -0.75362378 -0.32427073
0.11410893 -0.75365674 -0.32414079
-0.1120126 -0.7310819 -0.31396651
0.11442626 -0.73111409 -0.31383586
-0.086542897 -0.70351768 -0.32404351
0.08903195 -0.70353711 -0.32396245
-0.086880349 -0.68096685 -0.31308436
-0.06140599 -0.67788523 -0.32642746
0.063912019 -0.6778928 -0.32639503
0.089284681 -0.68098181 -0.31301904
-0.061665114 -0.65532672 -0.31520712
-0.036372695 -0.65325993 -0.32446539
0.038863249 -0.65326351 -0.32444918
0.064085022 -0.65533763 -0.31515813
-0.036547665 -0.63063073 -0.31310081
-0.011355941 -0.62991309 -0.31643057
0.013784518 -0.62991309 -0.31643057
0.038950734 -0.63063437 -0.31308436
-0.13812155 -0.78678119 -0.29340935
0.14038244 -0.78684616 -0.29316127
-0.11241174 -0.70839709 -0.30359697
0.11474558 -0.70842838 -0.30346537
-0.11281341 -0.6855678 -0.29316127
0.11506694 -0.68559831 -0.29302907
-0.087219566 -0.65825993 -0.30206788
0.089539483 -0.65827835 -0.3019855
-0.087561592 -0.63540298 -0.29096019
-0.061926413 -0.63261563 -0.30389261
0.06425897 -0.63262266 -0.30385971
0.089796014 -0.63542086 -0.29087734
-0.062189136 -0.60974312 -0.29251623
0.064434387 -0.60975343 -0.29246652
-0.03672386 -0.60784328 -0.3016566
-0.01144386 -0.60714632 -0.3050096
0.013784518 -0.60714632 -0.3050096
0.039038833 -0.60784674 -0.30164015
-0.036901295 -0.58489585 -0.29013181
-0.011532395 -0.58422005 -0.29350865
0.013784518 -0.58422005 -0.29350865
0.039127551 -0.58489913 -0.29011548
-0.13852741 -0.7636959 -0.28462183
0.14072135 -0.76376355 -0.28435576
-0.13893624 -0.74049097 -0.27577043
0.14106146 -0.74055272 -0.27551997
-0.11323173 -0.66267443 -0.28229284
0.11540008 -0.66269314 -0.28220963
-0.11366446 -0.63969451 -0.27105045
0.11574576 -0.639709 -0.27098358
-0.087905943 -0.612391 -0.27977717
0.090053916 -0.6124047 -0.27971041
-0.088252127 -0.5892185 -0.26853454
0.090313949 -0.58923531 -0.26845062
-0.062454086 -0.5867148 -0.28104365
0.064611018 -0.58672476 -0.28099382
-0.06272088 -0.56352532 -0.26949108
-0.037080236 -0.56178969 -0.27850938
-0.011621551 -0.56113201 -0.28192663
0.013784518 -0.56113201 -0.28192663
0.039216895 -0.56178969 -0.27850938
0.064788632 -0.5635317 -0.26945758
-0.011711343 -0.53788096 -0.2702626
0.013784518 -0.53788096 -0.2702626
-0.13949409 -0.89674485 -0.26369262
0.14151669 -0.89674485 -0.26369262
-0.11441594 -0.87466365 -0.25152636
0.11633236 -0.87454778 -0.25193322
-0.1393465 -0.71715713 -0.26688862
0.14140338 -0.71721727 -0.26663649
-0.13975894 -0.69369757 -0.25795853
0.1417478 -0.69375998 -0.25768816
-0.11409948 -0.61655378 -0.25974846
0.11609431 -0.61657149 -0.25966394
-0.088601202 -0.56589097 -0.25719821
0.090575367 -0.56590408 -0.2571305
-0.06298916 -0.54016972 -0.25787413
-0.037260186 -0.53851676 -0.26682127
0.039306868 -0.53851676 -0.26682127
0.064967752 -0.54017907 -0.25782335
-0.037441414 -0.51507837 -0.25505018
-0.011801767 -0.5144648 -0.25851595
0.013784518 -0.5144648 -0.25851595
0.039397482 -0.51507837 -0.25505018
-0.11501207 -0.90483445 -0.23603809
0.11681811 -0.9047994 -0.23615801
-0.14020422 -0.67025912 -0.24831796
0.1421137 -0.67028958 -0.24818182
-0.14070265 -0.64692038 -0.23752677
0.14252909 -0.64694977 -0.23738992
-0.11453813 -0.59325796 -0.24835193
0.11644473 -0.59327161 -0.24828374
-0.11497914 -0.56979865 -0.23689365
0.11679808 -0.56981504 -0.2368083
-0.088952139 -0.54240024 -0.24580097
0.090838976 -0.54241592 -0.24571586
-0.089306019 -0.51875091 -0.23430812
-0.063259721 -0.51665276 -0.24615836
0.06514813 -0.51666182 -0.24610734
0.091104403 -0.51876611 -0.23422253
-0.063532196 -0.49296951 -0.23435974
-0.037623934 -0.4914732 -0.2431953
0.039488744 -0.4914732 -0.2431953
0.065329522 -0.49297535 -0.23432541
-0.011892836 -0.49088204 -0.24668574
0.013784518 -0.49088204 -0.24668574
-0.037807759 -0.46769917 -0.23125541
-0.011984558 -0.46713096 -0.23477089
0.013784518 -0.46713096 -0.23477089
0.039580654 -0.46769917 -0.23125541
-0.14120431 -0.62343001 -0.22666562
0.14294717 -0.62345856 -0.22652781
-0.14170922 -0.59978652 -0.21573365
0.14336863 -0.59981769 -0.21557784
-0.1154232 -0.54617721 -0.22535694
0.11715335 -0.5461933 -0.22527063
-0.115871 -0.52239567 -0.21372259
0.11751107 -0.52240801 -0.21365309
-0.089662351 -0.49493802 -0.22273624
0.091371268 -0.49494976 -0.22266698
-0.090020612 -0.47095716 -0.21110129
-0.063806206 -0.46911544 -0.2224946
0.065512471 -0.46912378 -0.22244298
0.091640376 -0.47097123 -0.21101451
-0.06408257 -0.44509423 -0.21052778
-0.037992902 -0.44375449 -0.21922994
-0.012076934 -0.44320941 -0.22277069
0.013784518 -0.44320941 -0.22277069
0.039673362 -0.44375706 -0.21921253
0.065696716 -0.44510221 -0.21047568
-0.012169977 -0.41911569 -0.2106843
0.013784518 -0.41911569 -0.2106843
-0.090115927 -0.9130345 -0.20800591
0.091707446 -0.91300404 -0.20811021
-0.090416394 -0.88983876 -0.19824779
0.091931164 -0.88978887 -0.19842291
-0.14221744 -0.57598841 -0.20473027
0.1437922 -0.57601863 -0.20457351
-0.142729 -0.55203432 -0.19365478
0.14421853 -0.55206352 -0.19349682
-0.11632124 -0.49844575 -0.20202494
0.11787182 -0.49846047 -0.20193756
-0.090384066 -0.44682318 -0.19929779
0.091911763 -0.44682848 -0.19926298
-0.064360909 -0.42090127 -0.19847536
-0.038179379 -0.41963729 -0.20711803
0.039766598 -0.41963977 -0.20710039
0.065882012 -0.42090642 -0.19844043
-0.038367204 -0.39534578 -0.19491839
-0.01226369 -0.39484817 -0.19851041
0.013784518 -0.39484817 -0.19851041
0.039860513 -0.39534816 -0.19490063
-0.090857051 -0.9462356 -0.18393719
-0.064809762 -0.94770604 -0.1790396
-0.038709994 -0.94962317 -0.17265332
0.040031634 -0.94961792 -0.17267108
0.066180162 -0.94769543 -0.179075
0.092266925 -0.94625157 -0.18388414
-0.038645223 -0.92214537 -0.17686045
-0.012473688 -0.92379194 -0.17123115
0.013784518 -0.9237867 -0.17124891
0.039998978 -0.92212993 -0.17691338
-0.064589985 -0.918724 -0.18855643
0.066033371 -0.91870844 -0.18860936
-0.14324392 -0.52792263 -0.18250644
0.14464767 -0.52795076 -0.18234742
-0.14376225 -0.50365174 -0.17128444
0.14507964 -0.50367892 -0.17112434
-0.11677531 -0.4743315 -0.19022834
0.11823454 -0.47434276 -0.19015801
-0.11723185 -0.45004576 -0.17836654
0.11860035 -0.45005947 -0.17827809
-0.090757117 -0.42255303 -0.18718255
0.092191972 -0.42256081 -0.18712962
-0.091133408 -0.39811096 -0.1749624
-0.064641245 -0.39653492 -0.18633628
0.06606891 -0.39653984 -0.18630111
0.092474192 -0.39811835 -0.17490911
-0.06492319 -0.37199056 -0.17412794
-0.038556393 -0.37087804 -0.18262994
-0.012358082 -0.37040448 -0.1862483
0.013784518 -0.37040448 -0.1862483
0.039955109 -0.37088025 -0.18261254
0.066257149 -0.37199759 -0.17407465
-0.012453164 -0.3457832 -0.17389715
0.013784518 -0.3457832 -0.17389715
-0.012484371 -0.95046693 -0.16984308
0.013784518 -0.95046693 -0.16984308
-0.03899556 -0.9024117 -0.15410531
0.040174004 -0.90239125 -0.15417719
-0.065018445 -0.89788347 -0.17000329
0.066318184 -0.8978532 -0.17010999
-0.14428401 -0.47922009 -0.15998805
0.14551449 -0.47924614 -0.15982676
-0.1176923 -0.42559212 -0.16640389
0.11896817 -0.4256027 -0.1663326
-0.11815529 -0.40096369 -0.15437472
0.11933915 -0.40097612 -0.15428483
-0.091512412 -0.3734923 -0.16265368
0.092758045 -0.37349689 -0.16261804
-0.065207586 -0.34727147 -0.1618135
-0.038746957 -0.34623206 -0.17025256
0.040050391 -0.34623426 -0.17023468
0.066446751 -0.34727815 -0.16175973
-0.038941678 -0.32142681 -0.15760517
-0.01255004 -0.32099858 -0.1613127
0.013784518 -0.32099858 -0.1613127
0.040147752 -0.32142884 -0.15758729
-0.012622406 -0.29567719 -0.15191185
0.013784518 -0.29567719 -0.15191185
-0.012612025 -0.24273884 -0.15326047
0.013784518 -0.24273884 -0.15326047
-0.065408841 -0.21635604 -0.15309882
-0.038963493 -0.21609434 -0.15618801
-0.012568922 -0.21586818 -0.15885961
0.013784518 -0.21586969 -0.15884185
0.040158521 -0.21609434 -0.15618801
0.066580646 -0.21635893 -0.15306294
-0.065330453 -0.18969679 -0.15649319
-0.038914915 -0.18947738 -0.15934336
-0.012543292 -0.18925843 -0.16218889
0.013784518 -0.18925843 -0.16218889
0.040134232 -0.18947738 -0.15934336
0.066527836 -0.18969679 -0.15649319
-0.065299392 -0.16323206 -0.15783811
-0.038892586 -0.16302729 -0.16079378
-0.012531458 -0.16282398 -0.16372609
0.013784518 -0.16282398 -0.16372609
0.040123068 -0.16302729 -0.16079378
0.066507123 -0.16323206 -0.15783811
-0.065307252 -0.13689175 -0.15749741
-0.038896445 -0.13670415 -0.16054296
-0.012532561 -0.13651696 -0.16358304
0.013784518 -0.13651696 -0.16358304
0.040125135 -0.13670525 -0.1605252
0.066512644 -0.13689286 -0.15747941
-0.065353662 -0.11063599 -0.15548813
-0.038925949 -0.11046692 -0.15862668
-0.01254646 -0.11029711 -0.16177773
0.013784518 -0.11029711 -0.16177773
0.04013975 -0.11046692 -0.15862668
0.066543579 -0.11063697 -0.15547013
-0.065439157 -0.084427617 -0.15178609
-0.038980905 -0.084276505 -0.15505719
-0.012573061 -0.08412575 -0.1583221
0.013784518 -0.084126614 -0.15830421
0.040167365 -0.084277444 -0.15503919
0.0666003 -0.084427617 -0.15178609
-0.01261313 -0.057968505 -0.1531167
0.013784518 -0.057968505 -0.1531167
-0.012670406 -0.90481251 -0.14567626
0.013784518 -0.90481251 -0.14567626
-0.14480922 -0.4546262 -0.14861655
0.14595151 -0.45464838 -0.14847243
-0.14533795 -0.4298681 -0.13716936
0.14639215 -0.42988938 -0.1370244
-0.11862158 -0.3761611 -0.14226043
0.11971219 -0.37617272 -0.14217007
-0.091894157 -0.34869504 -0.15025604
0.093044363 -0.34869945 -0.15022016
-0.092271984 -0.32369217 -0.13798583
-0.065496124 -0.32238343 -0.14931953
0.066638835 -0.32238767 -0.14928353
0.093327738 -0.3236964 -0.13794959
-0.065674596 -0.29678953 -0.14159107
0.066757828 -0.29679337 -0.14155495
-0.03907951 -0.29602844 -0.14865279
0.040216532 -0.29602844 -0.14865279
-0.092454351 -0.27125666 -0.13206327
-0.06569007 -0.27037016 -0.14092112
-0.039115328 -0.2698293 -0.14632607
-0.01264264 -0.26953328 -0.14928353
0.013784518 -0.26953328 -0.14928353
0.040234439 -0.2698293 -0.14632607
0.066768132 -0.27037388 -0.14088511
0.093464509 -0.27126038 -0.13202691
-0.092249095 -0.24408114 -0.13872921
-0.065555245 -0.24333933 -0.14675939
-0.039048173 -0.24297637 -0.15068829
0.040201001 -0.24297798 -0.15067017
0.066678256 -0.24334267 -0.14672303
0.093310565 -0.24408448 -0.13869298
-0.11886644 -0.21781239 -0.13589883
-0.092070781 -0.21708235 -0.1445204
0.093176827 -0.21708542 -0.14448428
0.1199064 -0.21781543 -0.13586247
-0.11873377 -0.19101685 -0.13934553
-0.091955185 -0.19032958 -0.14827418
0.093090132 -0.19033229 -0.1482383
0.11980028 -0.19101959 -0.13930929
-0.11867034 -0.16439894 -0.14099371
-0.091894157 -0.16375738 -0.15025604
0.093044363 -0.16375983 -0.15022027
0.11974952 -0.16440156 -0.14095759
-0.11867242 -0.13791132 -0.14093947
-0.091886953 -0.13732323 -0.15049005
0.093038954 -0.13732547 -0.15045404
0.1197512 -0.1379137 -0.14090323
-0.11874216 -0.11151762 -0.13912797
-0.091931872 -0.11098405 -0.14903104
0.093072653 -0.11098596 -0.14899516
0.11980698 -0.11151954 -0.13909173
-0.11888041 -0.085178189 -0.13553572
-0.092031293 -0.084704049 -0.14580274
0.093147211 -0.084705614 -0.1457665
0.11991759 -0.085179932 -0.13549936
-0.092186056 -0.058443509 -0.14077628
-0.065563992 -0.0582278 -0.14638031
-0.039062586 -0.058098011 -0.1497519
0.040208206 -0.058098815 -0.14973378
0.066683806 -0.058228545 -0.14636219
0.093263291 -0.05844485 -0.14074028
-0.092398904 -0.032163687 -0.13386405
-0.065730646 -0.032000549 -0.13916409
-0.039171796 -0.031892896 -0.14265847
-0.012666794 -0.031785473 -0.1461457
0.013784518 -0.031785473 -0.1461457
0.040262815 -0.031893358 -0.14264047
0.06679491 -0.032000959 -0.13914609
0.093422927 -0.032164909 -0.13382757
-0.039310556 -0.0056229457 -0.13364577
-0.012735055 -0.0055390522 -0.13727832
0.013784518 -0.0055390522 -0.13727832
0.040332053 -0.0056229457 -0.13364577
-0.17272474 -0.618729 -0.12109149
0.17369443 -0.61892319 -0.12012064
-0.17263992 -0.5917818 -0.12266576
0.17361407 -0.59193665 -0.1218605
-0.17255417 -0.56485581 -0.12425685
0.1735414 -0.56500781 -0.12343395
-0.17251872 -0.53811955 -0.12491488
0.17348567 -0.53816801 -0.1246407
-0.17304306 -0.51315266 -0.11518431
0.17393516 -0.51319939 -0.11490858
-0.14587021 -0.40494439 -0.12564564
0.14683574 -0.40496469 -0.12549961
-0.14640605 -0.37985361 -0.11404455
0.1472823 -0.3798728 -0.11389732
-0.11909186 -0.3511847 -0.13004208
0.12008844 -0.35119596 -0.129951
-0.11950832 -0.32585889 -0.1192224
0.12042105 -0.32586724 -0.11914909
-0.11962131 -0.29951656 -0.11628652
-0.092468917 -0.2978673 -0.13159013
0.093475439 -0.2978712 -0.13155365
0.12051089 -0.29952255 -0.11623144
-0.11944836 -0.27238575 -0.12078011
0.12037252 -0.27239132 -0.12072515
-0.14633474 -0.24621877 -0.11558831
-0.11907574 -0.24484491 -0.13046122
0.12007441 -0.24484998 -0.13040638
0.14721934 -0.24622384 -0.11553335
-0.14600785 -0.21893299 -0.12266564
0.14694692 -0.21893752 -0.12261081
-0.14576903 -0.19190288 -0.12783623
0.14674792 -0.19190705 -0.12778139
-0.17310745 -0.16626999 -0.11398935
-0.14561751 -0.16508341 -0.13111675
0.14662163 -0.16508704 -0.13106215
0.17398101 -0.16627505 -0.11391568
-0.17306386 -0.13952127 -0.11479831
-0.14560826 -0.13850409 -0.13131702
0.14661323 -0.13850617 -0.13128078
0.17394365 -0.13952589 -0.11472464
-0.1731243 -0.11288907 -0.11367679
-0.14570756 -0.11205433 -0.12916744
0.14669597 -0.11205635 -0.12913096
0.17399547 -0.11289313 -0.11360312
-0.14588962 -0.085654356 -0.12522554
0.14684841 -0.085657023 -0.12517059
-0.14616096 -0.059268154 -0.11935067
-0.11908836 -0.058853157 -0.13013327
0.12008394 -0.058854558 -0.13009655
0.14707382 -0.0592696 -0.11931419
-0.11937016 -0.032504022 -0.12281191
0.12030938 -0.032505125 -0.12277555
-0.11973522 -0.006092146 -0.11332703
-0.092674471 -0.0058244914 -0.124915
-0.065941729 -0.0057066083 -0.13002396
0.066935636 -0.0057070181 -0.1300056
0.093630023 -0.0058257654 -0.12486005
0.12060202 -0.0060934797 -0.11327183
-0.093017116 0.020618878 -0.11378694
-0.066199645 0.020696905 -0.1188556
-0.039480451 0.020754829 -0.12261093
-0.01281898 0.020812694 -0.12637603
0.013784518 0.020812519 -0.12635791
0.040417142 0.020754538 -0.12259245
0.067107581 0.020696614 -0.11883712
0.093886599 0.020618241 -0.11375022
-0.012919857 0.047315441 -0.11327207
0.013784518 0.047315493 -0.11329031
-0.17356937 -0.48804194 -0.10541701
0.17438637 -0.48808676 -0.10513997
-0.17409864 -0.46278936 -0.095595002
0.17484011 -0.46283233 -0.095316052
-0.14696516 -0.35464612 -0.1019392
0.14774828 -0.35466427 -0.10179126
-0.1472273 -0.32850969 -0.096263766
0.14796603 -0.3285248 -0.096133828
-0.1470944 -0.30136436 -0.099141002
0.14785315 -0.30137241 -0.099066734
-0.14677039 -0.27384931 -0.10615623
0.1475824 -0.27385479 -0.10610092
-0.17384163 -0.24762508 -0.10036469
0.17460948 -0.24763018 -0.10030913
-0.17349371 -0.22027457 -0.10682118
0.17431127 -0.22027937 -0.10676575
-0.20101924 -0.19448504 -0.094293475
-0.17325126 -0.19317427 -0.11132085
0.17410429 -0.19317988 -0.1112473
0.20174383 -0.19449356 -0.094181776
-0.20089447 -0.16749415 -0.096319437
0.20163262 -0.16749927 -0.096245408
-0.20088875 -0.14065358 -0.09641242
0.20162763 -0.14065805 -0.096338153
-0.20100321 -0.11391961 -0.094553828
0.20172779 -0.11392362 -0.094479322
-0.17329094 -0.086330779 -0.1105839
0.17413917 -0.086334966 -0.11049163
-0.17357036 -0.059805207 -0.10539865
0.17437783 -0.059807993 -0.10532486
-0.17397155 -0.033269405 -0.097953558
-0.14652589 -0.032853827 -0.11144984
0.14737865 -0.03285557 -0.11139464
0.17472172 -0.03327173 -0.097879529
-0.14699338 -0.0063692108 -0.10132825
0.14776753 -0.0063701421 -0.10129106
-0.1201942 0.020428203 -0.10140216
0.12096865 0.020427562 -0.10136521
-0.09344811 0.047211558 -0.099790096
-0.066513412 0.047253679 -0.10526943
-0.039684627 0.047285169 -0.10934925
0.04051923 0.04728505 -0.10933065
0.067316473 0.047253679 -0.10526943
0.094210275 0.047211036 -0.099734306
-0.013044638 0.074019663 -0.097062349
0.013784518 0.074019663 -0.097043753
-0.039937906 0.074019723 -0.09289813
0.040645871 0.074019723 -0.092879295
-0.17463194 -0.43739641 -0.085698247
0.17529728 -0.4374373 -0.085417867
-0.17516725 -0.41185623 -0.075764179
0.17575619 -0.41189528 -0.07548213
-0.17527266 -0.30409464 -0.073808074
0.17583786 -0.30410463 -0.073714137
-0.1745031 -0.27565739 -0.088088989
0.17517821 -0.27566659 -0.087995768
-0.20211522 -0.24982998 -0.076496959
0.20270184 -0.2498385 -0.076403141
-0.2015083 -0.22200781 -0.086352348
0.20216975 -0.22201419 -0.086277604
-0.22927594 -0.14203405 -0.073996186
0.22984637 -0.14204216 -0.073864698
-0.22924337 -0.11500197 -0.074466586
0.22981739 -0.11500905 -0.074334979
-0.20124169 -0.087249942 -0.090681553
0.20193645 -0.087253369 -0.090607047
-0.20161305 -0.06060376 -0.084651351
0.20226142 -0.060606666 -0.084576368
-0.20213027 -0.033937581 -0.076252818
0.20271501 -0.033940546 -0.076158762
-0.17450713 -0.006676726 -0.088014364
0.17518166 -0.0066788718 -0.087921023
-0.17519258 0.020026341 -0.075294137
-0.14756869 0.020235259 -0.088872552
0.14824766 0.020234562 -0.088816881
0.17576921 0.020024773 -0.0752002
-0.14828709 0.047007754 -0.073318839
-0.12076414 0.047110006 -0.086595058
0.12142517 0.047109481 -0.086539149
0.067571498 0.074019663 -0.088704944
0.094597064 0.074019663 -0.082985997
-0.093963809 0.074019723 -0.083042145
-0.066895522 0.074019723 -0.088723421
-0.040194757 0.10100932 -0.076215267
-0.013172754 0.10097702 -0.08041966
0.013784518 0.10097702 -0.08041966
0.040774155 0.10100932 -0.076215267
-0.17570662 -0.38617307 -0.065754533
0.17621858 -0.38621017 -0.065470934
-0.17601989 -0.35981894 -0.059941173
0.17648889 -0.35985869 -0.059618831
-0.17570969 -0.33203921 -0.06569767
0.17621423 -0.33205456 -0.065565467
-0.20284668 -0.27800599 -0.06461978
0.2033419 -0.27801546 -0.064525247
-0.23027073 -0.22427011 -0.059637785
0.23072955 -0.22427964 -0.05952394
-0.22979589 -0.19662517 -0.066491723
0.23030858 -0.19663545 -0.066359282
-0.22946252 -0.16922727 -0.071303487
0.23001105 -0.16923517 -0.071190476
-0.2295265 -0.088187642 -0.070379853
0.2300656 -0.088191129 -0.070304513
-0.23001733 -0.061425783 -0.063295126
0.23050311 -0.061429389 -0.063200593
-0.20280941 -0.0072030276 -0.065224886
0.20330928 -0.0072052404 -0.065130472
-0.17608839 0.046894927 -0.058669806
0.14884636 0.047007404 -0.073262215
0.1765371 0.04689423 -0.058575034
0.12194481 0.074019663 -0.069663167
-0.14907247 0.074019723 -0.056314826
-0.12141366 0.074019842 -0.069719911
0.14950085 0.074019723 -0.056257606
-0.094484493 0.101087 -0.066132545
-0.067281283 0.10104163 -0.072019458
0.067828678 0.1010418 -0.072000861
0.094987594 0.10108741 -0.066075802
-0.067671195 0.12832341 -0.055135965
-0.04045378 0.12825811 -0.059391022
-0.013301955 0.12819268 -0.063636065
0.013784518 0.12819268 -0.063636065
0.040903665 0.12825811 -0.059391022
0.068088621 0.12832381 -0.055116892
-0.20398496 -0.30707687 -0.04613626
0.20434105 -0.30709341 -0.045983434
-0.23088473 -0.25220603 -0.05077529
0.23127535 -0.25221643 -0.050661087
-0.25912365 -0.19888854 -0.037090421
0.25940987 -0.19889742 -0.036975145
-0.2588577 -0.17135817 -0.040545702
0.2591705 -0.1713663 -0.040430427
-0.25876176 -0.14401737 -0.041791558
0.25908417 -0.14402452 -0.041676641
-0.25884736 -0.11682262 -0.040679932
0.25916252 -0.11682983 -0.040545583
-0.25913253 -0.089730479 -0.036975145
0.25942054 -0.089737572 -0.036821485
-0.23068677 -0.034634233 -0.053632855
0.23109701 -0.034636557 -0.0535568
-0.23154832 -0.007757917 -0.041197538
0.23186405 -0.0077600703 -0.041101575
-0.20370632 0.01964708 -0.050660968
0.20409516 0.019645281 -0.050546646
-0.17703198 0.074019723 -0.041159272
0.17734593 0.074019723 -0.041063309
-0.14986551 0.10129464 -0.039145112
-0.1220695 0.10119053 -0.05268085
0.12246949 0.10119088 -0.052623749
0.15016174 0.10129523 -0.039087534
-0.12273172 0.12862621 -0.035475731
-0.095010236 0.12841712 -0.049058557
0.095381908 0.12841792 -0.049001098
0.12299871 0.12862691 -0.035437465
-0.068064421 0.15586871 -0.038108468
-0.040715303 0.15576936 -0.042404771
-0.013432401 0.15567054 -0.046690583
0.013784518 0.155671 -0.04667151
0.041034576 0.15576982 -0.042385459
0.068350777 0.15586917 -0.038089395
-0.20541403 -0.33697748 -0.022931218
0.20559263 -0.33699775 -0.022756815
-0.23223688 -0.2813445 -0.031259179
0.23248564 -0.28136957 -0.031008482
-0.26014954 -0.22730777 -0.023763776
0.26033726 -0.22732252 -0.02358973
-0.25964233 -0.062693708 -0.03035295
0.25987938 -0.062699683 -0.030198455
-0.26039717 -0.035653032 -0.020547509
0.26056013 -0.035658322 -0.020372868
-0.23267572 0.01925068 -0.024924874
0.23286623 0.019249342 -0.024828315
-0.20479082 0.046697862 -0.033051014
0.20504311 0.046696991 -0.032954574
0.20600055 0.074019663 -0.015186667
-0.20588498 0.074019723 -0.015283942
-0.17798603 0.10141549 -0.02345407
0.17816284 0.10141613 -0.023376584
-0.1506663 0.12883663 -0.021807432
0.15082909 0.12883751 -0.021749258
-0.12340044 0.15633065 -0.018102169
-0.095541105 0.15601401 -0.031818032
0.095780075 0.15601523 -0.031760335
0.12353368 0.15633157 -0.018063426
-0.068461478 0.18368104 -0.020915866
-0.040979359 0.18354741 -0.025253892
-0.013564109 0.18341425 -0.029581189
0.013784518 0.18341494 -0.029561877
0.041166604 0.18354811 -0.02523458
0.068615481 0.18368167 -0.020896435
-0.23371616 -0.31098133 -0.0099074841
0.23379353 -0.31099609 -0.0097706318
-0.26138452 -0.25618321 -0.0077209473
0.26144886 -0.25619936 -0.007545352
-0.28948313 -0.14653853 -0.00085139275
0.28950503 -0.14655671 -0.00055730343
-0.28920111 -0.11878929 -0.0041819811
0.28924561 -0.11880306 -0.00392735
-0.28961268 -0.091469698 0.00067865849
0.28961226 -0.091476835 0.0008354187
-0.26152444 -0.0085729733 -0.0059033632
0.26157615 -0.0085775629 -0.0057079792
-0.23391229 0.04649777 -0.0070761442
0.23396549 0.046497017 -0.006978631
-0.20699015 0.1016165 0.0026618242
0.20696762 0.1016172 0.0027601719
-0.17894863 0.12908635 -0.0055905581
0.17898886 0.12908773 -0.0054928064
-0.15147497 0.15664954 -0.004299283
0.151503 0.15665069 -0.0042406321
-0.12407573 0.18430796 -0.00055742264
-0.096077181 0.18388146 -0.014408469
0.096182145 0.18388328 -0.014349937
0.12407393 0.18430912 -0.00051820278
-0.096618541 0.21202356 0.0031728745
-0.068862393 0.21176466 -0.0035555363
-0.041246288 0.21159667 -0.0079160929
-0.013697249 0.21142858 -0.012285948
0.013784518 0.21142858 -0.012285948
0.041299921 0.21159667 -0.0079160929
0.068883061 0.21176612 -0.0035165548
0.096588179 0.21202582 0.003231883
-0.2074752 -0.3684997 0.010537982
0.20740697 -0.36854592 0.010913014
-0.26311707 -0.28595245 0.014785767
0.26302066 -0.28598815 0.015141845
-0.29077712 -0.20285445 0.014429569
0.29067093 -0.2028667 0.014587879
-0.29002038 -0.17454797 0.0054932833
0.28998899 -0.17456424 0.0057294369
-0.29038075 -0.064237244 0.0097488165
0.29031056 -0.06424322 0.0099066496
-0.29147536 -0.03698393 0.022675514
0.29130575 -0.036988869 0.022834539
-0.26298162 0.01866645 0.013026118
0.26288638 0.018663719 0.013204098
0.23507582 0.074019663 0.011051178
-0.23516136 0.074019782 0.010952353
-0.2081065 0.12949251 0.020789027
0.2079445 0.12949407 0.020888448
-0.17992093 0.1570363 0.012453079
0.17982231 0.15703851 0.012551904
-0.15229161 0.18473701 0.01338172
0.15218356 0.18473887 0.013441086
-0.12475771 0.21256194 0.017161012
0.12461953 0.21256346 0.01720047
-0.097165264 0.24044445 0.020927906
-0.069267698 0.24012417 0.013994813
-0.041515525 0.23991993 0.0095713139
-0.013831536 0.23971584 0.0051589012
0.013784518 0.23971683 0.0051784515
0.04143469 0.23992082 0.0095908642
0.069152966 0.24012509 0.014014602
0.096998237 0.24044719 0.02098763
-0.013967299 0.26828238 0.022794724
0.013784518 0.26828238 0.022794724
-0.23653917 -0.34318653 0.030839562
0.23631045 -0.34321639 0.031098962
-0.29174137 -0.23150623 0.025817394
0.2915507 -0.23152304 0.026016116
-0.29305476 -0.0096637532 0.041327477
0.29274324 -0.0096679404 0.041508198
-0.26445282 0.046195894 0.032137156
0.26421058 0.046194561 0.032316923
-0.23642309 0.1018206 0.029163837
0.23619743 0.1018213 0.029263496
-0.20923421 0.15765166 0.039100647
0.20893128 0.15765405 0.039200783
-0.18090309 0.18526983 0.030679822
0.18066421 0.18527278 0.030779839
-0.15311639 0.21310377 0.031238794
0.15287091 0.2131061 0.031298637
-0.12544647 0.24109682 0.035055161
0.12517054 0.24109879 0.035095692
-0.069676541 0.26876223 0.031697989
-0.041787412 0.26852152 0.027230859
0.041570637 0.2685225 0.027250886
0.069425531 0.26876327 0.031717896
-0.097717434 0.26914802 0.038860202
0.09741237 0.26915124 0.038920283
-0.014104248 0.29712993 0.040584922
0.013784518 0.29712993 0.040584922
-0.2663396 -0.31815413 0.056647778
0.2659201 -0.31819111 0.056991816
-0.29469869 0.017931864 0.060741425
0.29423946 0.017928611 0.060944319
-0.26593971 0.074019723 0.051452398
0.26554891 0.074019782 0.051634073
-0.23769768 0.1299047 0.047560811
0.23733044 0.12990615 0.047661424
-0.21037342 0.18609859 0.057599187
0.20992815 0.18610179 0.057700634
-0.18189527 0.21379095 0.049092293
0.1815147 0.21379483 0.049193144
-0.15394939 0.24175361 0.049273849
0.15356509 0.24175635 0.049334168
-0.12614211 0.26991692 0.053128719
0.12572707 0.26991919 0.053169131
-0.098275118 0.29813907 0.05697155
-0.070089415 0.29768357 0.049576163
-0.042061985 0.29740575 0.045065045
0.041707922 0.29740709 0.045084953
0.069700792 0.29768473 0.04959619
0.097830653 0.29814276 0.057032228
-0.042339597 0.32657832 0.063096404
-0.014242555 0.32626337 0.058551431
0.013784518 0.32626477 0.058571696
0.041846734 0.3265796 0.063116789
-0.29494286 -0.26277381 0.06362462
0.2944614 -0.26279262 0.063827991
-0.32308596 -0.15056068 0.064458132
0.32260311 -0.15057567 0.064702034
-0.32325318 -0.12258568 0.066268325
0.3227599 -0.12260101 0.066553354
-0.32385582 -0.094800435 0.072792053
0.32331586 -0.094815649 0.073118925
-0.29636034 0.045824654 0.080364585
0.2957502 0.045823142 0.080569625
-0.26744255 0.10214246 0.070975304
0.26690164 0.10214379 0.071158886
-0.23898531 0.15827639 0.066146255
0.23847507 0.15827876 0.06624794
-0.21152559 0.21483856 0.076308489
0.21093528 0.21484163 0.076390147
-0.18289761 0.24260452 0.067693472
0.1823739 0.24260899 0.067795277
-0.15479076 0.27069095 0.067489862
0.15426625 0.27069414 0.067551017
-0.12684475 0.29902649 0.071383476
0.12628919 0.29902911 0.071424365
-0.098838411 0.32742137 0.075265169
-0.070506878 0.32689396 0.067652583
0.069979101 0.32689524 0.067673087
0.098252662 0.32742429 0.075305939
-0.042619668 0.35604051 0.081287503
-0.014382397 0.35568878 0.076717615
0.013784518 0.35568878 0.076717615
0.041986767 0.35604236 0.081308007
-0.32535478 -0.18033472 0.089018822
0.32473728 -0.18039617 0.089905024
-0.32513794 -0.067198075 0.086671352
0.32449654 -0.067212947 0.087062359
0.2972773 0.074019663 0.10040748
-0.29804173 0.074019723 0.10022092
-0.26896167 0.13056894 0.09070909
0.26827043 0.13057208 0.090915442
-0.24028762 0.18694055 0.084943533
0.23963273 0.18694392 0.085046411
-0.2126884 0.24387431 0.095189929
0.21195278 0.24387813 0.09527266
-0.18391028 0.27171439 0.086485982
0.18324193 0.2717199 0.086588979
-0.1556406 0.29991987 0.085889697
0.15497448 0.29992357 0.085951209
-0.12755448 0.32842979 0.089822531
0.12685697 0.32843274 0.089863658
-0.099407397 0.35699946 0.093743443
-0.070928037 0.35639495 0.085889339
0.070259877 0.35639647 0.085909963
0.098679416 0.35700265 0.09378469
-0.042902552 0.38579857 0.099661231
-0.014523483 0.38540781 0.095045447
0.013784518 0.38540781 0.095045447
0.042128209 0.38580036 0.099681973
-0.32817996 -0.2109507 0.11960208
0.32730165 -0.21099585 0.12018895
-0.32723239 -0.039652534 0.10934424
0.32641688 -0.03966479 0.10974014
-0.29973969 0.10252196 0.12027264
0.29882106 0.10252329 0.12046134
-0.27049729 0.15930432 0.11065745
0.26965261 0.15930903 0.11086583
-0.24160199 0.21590105 0.10391462
0.24080113 0.21590516 0.10401845
-0.21386327 0.27321151 0.11426771
0.21298084 0.27321604 0.11435103
-0.18493342 0.30112591 0.10547328
0.18411897 0.30113235 0.10557711
-0.15649906 0.32944509 0.10447574
0.1556899 0.3294495 0.10453796
-0.12827139 0.35813162 0.10844851
0.12743051 0.35813481 0.10849023
-0.099982157 0.38687807 0.11240947
-0.071353421 0.38619217 0.10430944
0.070543468 0.38619381 0.10433018
0.099110492 0.3868815 0.11245108
-0.043188605 0.41585839 0.11824083
-0.01466599 0.41542587 0.1135577
0.013784518 0.41542777 0.11357856
0.042271242 0.4158605 0.11826169
-0.32935286 -0.011764683 0.13229942
0.32836106 -0.011773862 0.13270009
-0.2720497 0.1883533 0.13082337
0.27104989 0.18835986 0.13103414
-0.24293001 0.24516279 0.12308311
0.24198166 0.24516761 0.12318802
-0.21505041 0.3028546 0.13354409
0.21401963 0.30285972 0.13362861
-0.18596722 0.33084333 0.12465799
0.18500511 0.33085054 0.12476301
-0.15736625 0.35927096 0.12325108
0.15641259 0.35927579 0.1233139
-0.12899561 0.38813588 0.12726462
0.12800992 0.38813967 0.12730682
-0.10056279 0.41706178 0.13126576
-0.07178311 0.41629013 0.12291515
0.070830248 0.41629425 0.12295723
0.099545978 0.41706544 0.13130808
-0.043477233 0.44622102 0.13698792
-0.014810103 0.44574979 0.13227808
0.013784518 0.44574979 0.13227808
0.042415556 0.44622329 0.13700938
-0.33149987 0.016472276 0.15554154
0.3303296 0.016466063 0.15594733
-0.30155855 0.13135488 0.14175224
0.30049103 0.13136098 0.14215517
-0.27361912 0.21772143 0.15121067
0.27246255 0.21772978 0.15142405
-0.24427192 0.27473029 0.14245212
0.24317455 0.27473593 0.14255798
-0.21624999 0.33280852 0.15302289
0.21506929 0.3328144 0.15310824
-0.18701181 0.36087161 0.14404356
0.18590054 0.36087975 0.14414954
-0.15824233 0.38940224 0.14221859
0.15714267 0.38940766 0.14228225
-0.12972726 0.41844797 0.14627373
0.12859525 0.41845188 0.14631593
-0.10114937 0.44755495 0.150316
-0.072217643 0.44669569 0.14173102
0.071119621 0.44669789 0.14175212
0.099985927 0.44755921 0.15035856
-0.043768805 0.47689292 0.15592599
-0.01495552 0.4763802 0.15116811
0.013784518 0.4763802 0.15116811
0.042561505 0.47689763 0.15596867
-0.33367196 0.045064967 0.17905486
0.33232111 0.045061886 0.17946565
-0.30353671 0.16056177 0.16511309
0.30228812 0.16057067 0.16549969
-0.27520585 0.2474139 0.17182326
0.27389082 0.24742389 0.17203879
-0.24562795 0.30460852 0.16202438
0.24438128 0.30461648 0.16215301
-0.21746352 0.36307973 0.17272842
0.21613005 0.36308488 0.17279303
-0.18806738 0.39121559 0.16363251
0.18680538 0.39122465 0.1637398
-0.15912743 0.41984367 0.16138148
0.15788028 0.41984954 0.16144586
-0.13046646 0.44907212 0.16547835
0.12918662 0.44907647 0.16552114
-0.10174201 0.4783625 0.16956234
-0.072656117 0.47740924 0.16071761
0.071411937 0.47741163 0.16073895
0.10043041 0.47836709 0.16960537
-0.073099084 0.50843769 0.17989838
-0.044063691 0.50788122 0.17507935
-0.015102417 0.5073238 0.17025113
0.013784518 0.50732625 0.17027283
0.042708788 0.50788367 0.17510092
0.071707256 0.50844002 0.17992032
-0.30553982 0.19013759 0.18876922
0.30410954 0.1901498 0.18916059
-0.27681023 0.27743608 0.19266462
0.27533489 0.27744779 0.19288254
-0.24705981 0.33486408 0.18269181
0.24565816 0.33487752 0.18288696
-0.21868861 0.39367011 0.19262111
0.21720202 0.39367563 0.19268656
-0.18913412 0.42188033 0.18342888
0.18771978 0.4218902 0.18353701
-0.16002168 0.45059979 0.18074274
0.15862551 0.45060614 0.18080747
-0.13121331 0.48001358 0.18488181
0.12978411 0.48001829 0.18492508
-0.1023408 0.50948966 0.18900824
0.10087951 0.50949478 0.18905187
-0.073547117 0.53978848 0.19929898
-0.044361278 0.53918606 0.1944083
-0.015250997 0.53858787 0.18955207
0.013784518 0.53858787 0.18955207
0.042857584 0.53918874 0.19443011
0.07200595 0.53979111 0.19932079
-0.33652219 0.074019603 0.20990968
0.33533335 0.074019723 0.2150389
-0.30756843 0.22008914 0.21272588
0.3059524 0.22010371 0.21310008
-0.27843252 0.30779323 0.2137388
0.27679664 0.30780825 0.21398103
-0.24851216 0.36546052 0.20365453
0.24694926 0.36547557 0.20385158
-0.21992673 0.42458659 0.21272588
0.2182866 0.4245947 0.21281397
-0.19021221 0.45287082 0.20343542
0.1886439 0.45288181 0.20354486
-0.16092522 0.48167586 0.20030487
0.15937848 0.4816829 0.20037043
-0.13196792 0.51127702 0.20448744
0.13038781 0.51128203 0.20453119
-0.10294513 0.54093838 0.20863509
0.10133328 0.5409466 0.20870113
-0.073999286 0.57146138 0.21887839
-0.044661947 0.57081461 0.2139374
-0.015400941 0.57017243 0.20903039
0.013784518 0.57017243 0.20903039
0.043007918 0.57081747 0.21395922
0.0723074 0.57146406 0.2189008
-0.30962485 0.25042486 0.23701119
0.30782053 0.25044131 0.23736763
-0.28007475 0.33849317 0.2350719
0.27827328 0.33850831 0.2352947
-0.24998076 0.39639947 0.22485185
0.24825618 0.39641824 0.22507334
-0.22117813 0.45583391 0.2330457
0.21938162 0.45584276 0.23313475
-0.191303 0.4841947 0.22367775
0.18957789 0.48420426 0.22376633
-0.16183822 0.51307654 0.22007179
0.16013934 0.51308405 0.22013795
-0.13273044 0.54286748 0.22429788
0.13099784 0.54287285 0.22434235
-0.10355649 0.57271898 0.22848916
0.10179181 0.57272774 0.2285558
-0.044966079 0.60277498 0.23369122
-0.015552443 0.60208499 0.22871125
0.013784518 0.60208827 0.22873342
0.043159988 0.60277826 0.23371339
-0.28173378 0.36953816 0.25662351
0.27976659 0.36955541 0.25684893
-0.25146586 0.42768684 0.24628794
0.24957645 0.4277077 0.24651194
-0.22244298 0.48741776 0.25358462
0.22048841 0.48742741 0.25367439
-0.19240431 0.51585269 0.24411535
0.19052191 0.51586312 0.24420512
-0.16276079 0.54480714 0.24004614
0.16090818 0.54481542 0.24011338
-0.13350095 0.57479036 0.24431705
0.13161427 0.57479614 0.24436188
-0.10417428 0.60483438 0.24855244
-0.074456163 0.60346377 0.23866212
0.072611988 0.60346693 0.23868418
0.10225517 0.60484356 0.24861979
-0.045273047 0.63506663 0.25362945
-0.015705701 0.63433385 0.24861956
0.013784518 0.63433385 0.24861956
0.043313473 0.63506991 0.25365198
-0.31170586 0.28114986 0.26158643
0.30971271 0.28116933 0.26194787
-0.25296783 0.45932868 0.26796651
0.25091168 0.45935133 0.2681936
-0.22372152 0.51934344 0.2743454
0.22160718 0.51935393 0.27443624
-0.19351749 0.54785275 0.26477373
0.19147612 0.54786396 0.26486433
-0.16369312 0.57687306 0.26023161
0.16168514 0.57688165 0.26029932
-0.13427964 0.60705066 0.26454759
0.13223723 0.60705692 0.26459301
-0.1047986 0.63728946 0.26882803
-0.074917823 0.63580126 0.25865233
0.072919764 0.63580453 0.25867486
0.10272343 0.6372996 0.2688961
-0.045583241 0.66769719 0.27377725
-0.01586039 0.66691792 0.26871479
0.013784518 0.66691792 0.26871479
0.043468572 0.66770077 0.27379978
-0.31381381 0.312273 0.28648019
0.3116276 0.31229424 0.28682339
-0.28341165 0.40093556 0.27841997
0.28127688 0.40095484 0.27864778
-0.25448689 0.49133089 0.28989232
0.25226215 0.49135551 0.29012167
-0.2250154 0.55161947 0.29535556
0.2227394 0.55163074 0.29544735
-0.19464278 0.5802002 0.28565645
0.19244069 0.58021218 0.285748
-0.16463535 0.60927933 0.2806313
0.16247037 0.60928863 0.28069961
-0.1350657 0.63965052 0.28497052
0.13286681 0.63966054 0.28503895
-0.10542957 0.67009014 0.28931928
-0.075384863 0.66848224 0.27887571
0.073231123 0.66848576 0.27889824
0.10319668 0.67010063 0.28938806
-0.045897067 0.70067632 0.2941606
-0.016016714 0.69984561 0.28902161
0.013784518 0.69984919 0.28904462
0.04362531 0.70067632 0.2941606
-0.34460652 0.10388568 0.29742527
0.34279558 0.10392972 0.30316365
-0.31594923 0.34380195 0.31169844
0.31356925 0.343826 0.31204617
-0.28510869 0.43269148 0.30046523
0.2828044 0.43271288 0.30069566
-0.25602335 0.52369952 0.31206954
0.25362802 0.52372617 0.31230116
-0.22632203 0.58424604 0.31657243
-0.19578035 0.61290056 0.30676711
0.19341581 0.61291379 0.30685961
-0.16558763 0.64203143 0.30124903
0.16326396 0.64204156 0.30131805
-0.13586107 0.67260206 0.3056345
0.13350312 0.67261279 0.305704
-0.10606729 0.70324188 0.3100301
-0.075856321 0.70150542 0.29928994
0.073545426 0.7015093 0.29931319
0.10367499 0.70325303 0.3100996
-0.046213865 0.73400187 0.31473732
-0.016174871 0.73312622 0.30956697
0.013784518 0.73312622 0.30956697
0.043783888 0.73400593 0.31476045
-0.28682524 0.46481252 0.32276356
0.2843495 0.46483573 0.32299685
-0.25757751 0.55644101 0.3345015
0.25500965 0.5564701 0.33473623
0.22388273 0.58425832 0.31666529
-0.19693041 0.64596009 0.32810938
0.19440161 0.64597374 0.32820308
-0.16655013 0.67513514 0.32208776
0.16406608 0.67514592 0.32215762
-0.13666497 0.70590758 0.3265208
0.13414627 0.70591879 0.32659054
-0.10671188 0.73674983 0.33096361
-0.076332778 0.73487985 0.31992137
0.073863074 0.73488373 0.31994486
0.10415844 0.73676169 0.33103359
-0.046534047 0.76768321 0.33553386
-0.016334537 0.76675785 0.33030832
0.013784518 0.76675785 0.33030832
0.043943983 0.76768738 0.33555734
-0.31811267 0.37574449 0.33724773
0.31553459 0.3757697 0.33757627
-0.28856343 0.49730685 0.34534323
0.28591239 0.49732968 0.34555566
-0.22764301 0.61723161 0.33802271
0.22503866 0.6172446 0.33811665
-0.19809315 0.67938441 0.34968734
0.19539939 0.67940271 0.34980536
-0.16752301 0.70859605 0.34315133
0.16487683 0.70860767 0.34322202
-0.13747756 0.73957276 0.34763205
0.13479637 0.73958492 0.34770322
-0.10736343 0.77062035 0.35212326
-0.076814875 0.76861507 0.34079719
0.074184477 0.76861924 0.34082067
0.10464712 0.77063304 0.35219443
-0.016495913 0.80075014 0.35127127
0.013784518 0.80075431 0.35129499
-0.3203027 0.40810689 0.36311018
0.31752768 0.40813717 0.36346769
-0.29031998 0.5301764 0.36816192
0.28749514 0.53020388 0.36840034
-0.25915131 0.58956522 0.35721767
0.25640729 0.58959311 0.35743105
-0.22897863 0.65058225 0.35971034
0.22620739 0.65059602 0.35980535
-0.19926877 0.71317965 0.37150455
0.19640715 0.7131989 0.37162423
-0.16850646 0.74242002 0.36444342
0.16569641 0.74243218 0.36451483
-0.13829897 0.77360368 0.36897302
0.13545351 0.77361643 0.36904478
-0.10802207 0.80485922 0.37351298
-0.077301614 0.80270875 0.36187339
-0.046858031 0.80173033 0.35657728
0.044105791 0.80173033 0.35657728
0.074508972 0.80271316 0.36189711
0.10514112 0.80487245 0.37358499
-0.016663078 0.83520967 0.37298679
0.013784518 0.83520967 0.37298679
-0.32252184 0.44089934 0.3893168
0.31954542 0.44093275 0.38967872
-0.29209709 0.56343019 0.39124656
0.28909469 0.56345993 0.39148831
-0.26074183 0.6230725 0.38017464
0.25782126 0.62310231 0.38039088
-0.23032913 0.6843037 0.38163948
0.22739041 0.68432236 0.38175964
-0.20045754 0.74735188 0.39356542
0.19742616 0.74737239 0.39368629
-0.16950062 0.77661288 0.38596797
0.16652492 0.77662557 0.38604021
-0.13912937 0.80800635 0.39054704
0.13611785 0.80801964 0.39061952
-0.077821374 0.83740205 0.38437986
-0.047198068 0.83630204 0.3786633
0.044275995 0.83630657 0.37868714
0.074855484 0.83740687 0.38440371
-0.26235098 0.65697253 0.40340066
0.25925326 0.65700781 0.40364385
-0.2316947 0.71840262 0.4038136
0.22858536 0.71842217 0.40393519
-0.17052144 0.81124347 0.4080689
0.16737562 0.81125706 0.40814209
-0.10877585 0.84002191 0.39799261
0.10570647 0.84003586 0.39806557
-0.016940076 0.87285906 0.40896964
0.013784518 0.87285906 0.40896964
-0.3247706 0.47413039 0.41587377
0.321592 0.47416955 0.41626501
-0.2938951 0.59707499 0.41460347
0.2907131 0.59710711 0.41484761
-0.26397911 0.69127226 0.42690086
0.26070067 0.69130999 0.42714691
-0.23307566 0.75288504 0.42623782
0.22979377 0.75290591 0.42636037
-0.20165966 0.7819078 0.41587377
0.19845659 0.78192925 0.41599584
-0.14024635 0.84417397 0.41956735
0.13701147 0.84418797 0.41964078
-0.078847073 0.87682676 0.42879391
-0.047816146 0.87482834 0.4188087
0.044585038 0.87483323 0.41883278
0.075539671 0.87683684 0.42884302
-0.32704967 0.50780886 0.44278812
0.32366431 0.5078513 0.44318461
-0.29571623 0.6311211 0.43826103
0.29235062 0.63115197 0.43848324
-0.26562655 0.72597897 0.45067978
0.26216525 0.72601902 0.45092821
-0.23451047 0.78786772 0.44953632
0.23104933 0.78788978 0.44966054
-0.20314468 0.81777698 0.44343233
0.19973183 0.81780881 0.44360566
-0.17236903 0.84965944 0.44807076
0.1689249 0.84972167 0.44839358
-0.32935962 0.54194343 0.4700675
0.32576662 0.54199272 0.47049451
-0.29755715 0.66556889 0.46217513
0.2940076 0.66560179 0.4624002
-0.29942009 0.70042896 0.48637557
0.29568446 0.70046407 0.48660326
-0.26729542 0.76110399 0.47476768
0.26364729 0.76114237 0.47499394
-0.3317011 0.57654411 0.49771929
0.32789764 0.57660067 0.49817729
-0.30130547 0.73570865 0.51086712
0.29738149 0.73574597 0.51109767
-0.23796611 0.82927167 0.50564885
0.23412964 0.82948864 0.50682425
-0.33407477 0.6116206 0.52575064
0.33005601 0.61168122 0.52621508
-0.27099392 0.80178696 0.52815127
0.26699412 0.80199742 0.52933955
-0.33648127 0.64718181 0.55417013
0.33224621 0.64725083 0.554667
0 0 0 1 0 0 0 1 0 0 0 1 0 0 0 0 0 1206 1 0 0
