ply
format ascii 1.0
comment PCL generated
element vertex 1376
property float x
property float y
property float z
element camera 0
property float view_px
property float view_py
property float view_pz
property float x_axisx
property float x_axisy
property float x_axisz
property float y_axisx
property float y_axisy
property float y_axisz
property float z_axisx
property float z_axisy
property float z_axisz
property float focal
property float scalex
property float scaley
property float centerx
property float centery
property int viewportx
property int viewporty
property float k1
property float k2
end_header
-0.2613371 -0.52627921 -0.046351433
-0.31883293 -0.44189414 -0.038302541
-0.34631911 -0.41210392 -0.050275803
-0.34757447 -0.38517955 -0.035450578
-0.37482965 -0.3553907 -0.049164772
-0.37620199 -0.32823217 -0.034308791
-0.40401971 -0.27067688 -0.041434407
-0.43213278 -0.18509349 -0.044801116
-0.43278831 -0.15687759 -0.03871882
-0.43344364 -0.12856798 -0.032638431
-0.43344364 0.12832499 -0.032638431
-0.43278596 0.15658687 -0.038740873
-0.43213046 0.18475583 -0.04482317
-0.40494835 0.2425333 -0.032154679
-0.40401533 0.27036312 -0.041478038
-0.37619793 0.32797244 -0.034352541
-0.37482563 0.35501623 -0.049208283
-0.34757078 0.38491032 -0.035494447
-0.34631544 0.41172013 -0.050319195
-0.31882954 0.44160232 -0.038346291
-0.26133171 0.52591807 -0.046438813
-0.23315451 0.55509895 -0.041609406
-0.20477596 0.58390969 -0.039529681
-0.17611188 0.61163706 -0.044036746
-0.1475175 0.63929701 -0.048532605
-0.090872906 0.67009473 -0.035670161
-0.062288336 0.69700903 -0.044014692
-0.0053406116 0.72638923 -0.039398193
0.051513836 0.75372142 -0.044975996
0.080276117 0.7558381 -0.034791827
0.13699621 0.78280622 -0.042025089
0.16595924 0.78477269 -0.032902241
0.22217119 0.81050682 -0.045478225
0.25085658 0.81120449 -0.042353272
0.27945888 0.8115561 -0.040777683
0.30797225 0.81163424 -0.040427446
0.33649102 0.81171262 -0.040077209
0.36501521 0.81179076 -0.039726615
0.39395496 0.81266212 -0.035823703
0.39395243 0.84117609 -0.035845757
0.4248274 -0.81704772 -0.016717434
0.19507089 -0.78694141 -0.023645997
0.22398722 -0.78785181 -0.019266009
0.25280273 -0.78830755 -0.017072439
0.2816503 -0.78875947 -0.014898539
0.13828197 -0.76022142 -0.014187932
0.10920077 -0.75816494 -0.024463177
0.023324236 -0.72884941 -0.028147578
0.052145958 -0.73087817 -0.017604589
-0.033832245 -0.70056015 -0.026582241
-0.0051554274 -0.70263684 -0.015342236
-0.062497448 -0.67369294 -0.016850591
-0.11952423 -0.64280117 -0.029998064
-0.14822805 -0.61497128 -0.025456786
-0.17700309 -0.58707672 -0.02088201
-0.20571703 -0.55869514 -0.019155264
-0.2342321 -0.52970713 -0.021612287
-0.26255998 -0.50043964 -0.026493907
-0.29081213 -0.4712463 -0.031384706
-0.29195127 -0.44459164 -0.014942646
-0.32007349 -0.41513106 -0.022187114
-0.34884185 -0.35804006 -0.020483971
-0.37729108 -0.30060896 -0.022518873
-0.40495279 -0.24277516 -0.032110453
-0.40589052 -0.21473229 -0.022739887
-0.43404877 -0.10015398 -0.027023077
-0.43432707 -0.071606889 -0.024441123
-0.43449137 -0.043011714 -0.022916675
-0.43465579 -0.014393264 -0.021391034
-0.43465337 0.014236957 -0.021413207
-0.43449137 0.042843632 -0.022916555
-0.43432707 0.07142698 -0.024441123
-0.43404877 0.099954233 -0.027023196
-0.40588611 0.21456304 -0.022784114
-0.377287 0.30044019 -0.0225631
-0.34883809 0.35788631 -0.020527959
-0.32007009 0.41496342 -0.02223146
-0.29194665 0.44447669 -0.015009284
-0.29080755 0.47100437 -0.031450748
-0.26255459 0.50023198 -0.026582241
-0.23422733 0.52953607 -0.021700501
-0.20571291 0.55854237 -0.019243956
-0.17699882 0.58690643 -0.020992756
-0.14822534 0.6147688 -0.025544882
-0.1195222 0.64256299 -0.03008616
-0.062496938 0.67355925 -0.016917109
-0.033832245 0.70035118 -0.026648283
-0.0051561128 0.70251006 -0.015430927
0.023322877 0.72862339 -0.028235793
0.052143909 0.73073328 -0.017693043
0.10919736 0.7579667 -0.024551392
0.13827786 0.76010215 -0.014276624
0.19506547 0.78674871 -0.023734331
0.2239826 0.78769749 -0.019332528
0.2527959 0.78816557 -0.017161012
0.28164092 0.78862923 -0.015009403
0.4248274 0.81692749 -0.016717553
0.31053162 -0.78921199 -0.012721539
0.339302 -0.78936446 -0.011987925
0.36804301 -0.78943843 -0.011632085
0.39678687 -0.78950757 -0.011298895
0.42553866 -0.7895816 -0.010942698
0.45601991 -0.79239386 0.0025867224
0.16752443 -0.76228958 -0.0038552284
0.19673747 -0.76374483 0.003415823
0.081124306 -0.73287165 -0.0072463751
0.11026349 -0.73487204 0.003147006
0.023695488 -0.7047261 -0.0040338039
-0.033832245 -0.67623889 -0.0024704933
-0.091246761 -0.64595288 -0.011387706
-0.12006047 -0.61799073 -0.0067784786
-0.1489448 -0.58995616 -0.0021797419
-0.17778233 -0.56140357 -0.00063717365
-0.20662504 -0.53277183 0.00050401688
-0.23531777 -0.50371534 -0.0014643669
-0.26371929 -0.47416729 -0.0076700449
-0.29308194 -0.41767055 0.0013773441
-0.32127851 -0.38807341 -0.0065330267
-0.34990424 -0.33046523 -0.0079373121
-0.35089979 -0.30263641 0.0038194656
-0.37830701 -0.27274933 -0.011520982
-0.37918231 -0.24462666 -0.0020457506
-0.40683308 -0.18654747 -0.013321519
-0.40742093 -0.15808132 -0.0074470043
-0.40786982 -0.12948185 -0.0029619932
-0.40831971 -0.10081337 0.0015337467
-0.40831971 0.10083368 0.0015339851
-0.40786982 0.1294674 -0.0029619932
-0.40742093 0.15803236 -0.0074470043
-0.40682864 0.18645081 -0.013365984
-0.3791782 0.24461609 -0.0020904541
-0.3783029 0.27266559 -0.011565685
-0.350896 0.30267045 0.0037746429
-0.34990048 0.33040833 -0.0079818964
-0.32127339 0.38802427 -0.0065999031
-0.29307884 0.41768423 0.0013325214
-0.26371515 0.47410795 -0.0077366829
-0.23531294 0.50370008 -0.0015538931
-0.2066209 0.53277069 0.0004144907
-0.17777887 0.5613932 -0.00072669983
-0.14894205 0.58993328 -0.002269268
-0.12005841 0.61793184 -0.0068676472
-0.091245733 0.64586192 -0.011454105
-0.033832245 0.67622024 -0.0025151968
0.023694113 0.70468616 -0.0041233301
0.081120871 0.73280191 -0.0073577166
0.11025917 0.73488218 0.0030348301
0.16752082 0.76225424 -0.0039223433
0.19673473 0.76377016 0.0033708811
0.31052342 0.78910339 -0.012810349
0.33929089 0.78925657 -0.012099028
0.368031 0.78933322 -0.011743665
0.39677659 0.78940994 -0.011387706
0.42552769 0.78948671 -0.011031866
0.45602575 0.79243165 0.0026316643
0.48754376 -0.79645717 0.022137403
0.22575298 -0.76430613 0.0062199831
0.25476524 -0.76474673 0.0084215403
0.2838116 -0.76518798 0.010625482
0.31289425 -0.76563406 0.012854815
0.34201148 -0.76608068 0.015086293
0.37110493 -0.76641959 0.016779184
0.40007076 -0.76649189 0.017140388
0.42903933 -0.76655966 0.017479181
0.45788309 -0.76642859 0.016824245
0.4875406 -0.76748747 0.022114754
0.13956431 -0.73687881 0.013575673
0.16894948 -0.73861378 0.02259016
0.052721575 -0.70682383 0.0073205233
0.08192531 -0.7089386 0.018766999
-0.0049686879 -0.67825502 0.0089160204
0.024071246 -0.68028349 0.020372391
-0.06268438 -0.6491403 0.0074329376
-0.033832245 -0.6512627 0.019965291
-0.091607854 -0.62103719 0.012066245
-0.12060346 -0.59286803 0.016733766
-0.14956823 -0.56413919 0.018066287
-0.17854571 -0.53536177 0.019196391
-0.20754272 -0.50657302 0.020372391
-0.23626313 -0.47709236 0.016079187
-0.26472825 -0.4473232 0.0087137222
-0.29421631 -0.39050353 0.017749906
-0.32230175 -0.36055672 0.0067591667
-0.32321393 -0.33271313 0.018608809
-0.35190353 -0.27463344 0.015673041
-0.38000396 -0.21632679 0.0068489313
-0.38065034 -0.1878023 0.013846278
-0.38129708 -0.1591703 0.020847201
-0.40869659 -0.072064802 0.0052999258
-0.40884936 -0.043240692 0.0068262815
-0.40900451 -0.014393209 0.0083767176
-0.40900451 0.014466051 0.0083767176
-0.40884936 0.043301761 0.0068262815
-0.40869659 0.072113812 0.0052999258
-0.381295 0.15933818 0.02082479
-0.3806462 0.18791491 0.013801217
-0.3800019 0.21638657 0.0068262815
-0.35189781 0.27475721 0.01560533
-0.32321048 0.33286062 0.018563509
-0.32229832 0.36061263 0.0067141056
-0.2942116 0.39064133 0.017682433
-0.26472408 0.44739035 0.0086466074
-0.23625949 0.47721574 0.016011357
-0.20753855 0.50672549 0.020281792
-0.17854309 0.53550798 0.01912868
-0.14956544 0.56427276 0.017976046
-0.12060137 0.59299058 0.016643643
-0.091606818 0.62112701 0.011998892
-0.062683865 0.64919406 0.0073654652
-0.033832245 0.65141684 0.019919872
-0.0049692076 0.67831957 0.0088487864
0.0240702 0.68043619 0.020304441
0.052720018 0.70687568 0.0072532892
0.081922524 0.70907408 0.018676519
0.13955909 0.73696929 0.013463259
0.16894585 0.73878253 0.022522449
0.2257483 0.76434839 0.0061527491
0.25476006 0.76480591 0.0083543062
0.283804 0.76525927 0.010535598
0.31288385 0.76571792 0.012741923
0.34200022 0.76618183 0.01497376
0.37109277 0.76653367 0.016666293
0.4000577 0.76660854 0.017027497
0.42902821 0.76668382 0.017388701
0.45787722 0.76655704 0.016779184
0.48754686 0.76767546 0.022160053
0.48754686 0.79664093 0.022160053
0.28600469 -0.74129546 0.036524415
0.31528744 -0.74172586 0.038761258
0.34460717 -0.74216145 0.041024327
0.46075696 -0.74173033 0.038784146
0.51939195 -0.74231982 0.041847706
0.19816124 -0.73937303 0.026535153
0.22743431 -0.74013352 0.030487895
0.25675657 -0.74086541 0.034290075
0.4891519 -0.74076009 0.033742905
0.11130796 -0.71106637 0.03028357
0.14086485 -0.71318173 0.041733503
0.053289182 -0.68232435 0.031898618
-0.0047882646 -0.6533609 0.032353997
-0.062850133 -0.62376893 0.028964877
-0.033832245 -0.62578124 0.04141295
-0.091973878 -0.59580964 0.035840273
-0.12107051 -0.5669024 0.036958098
-0.15018508 -0.53798097 0.038099051
-0.17931724 -0.50904232 0.039241314
-0.20831615 -0.47968376 0.037117839
-0.23715729 -0.4500899 0.032672763
-0.26574609 -0.42024252 0.025241852
-0.26667863 -0.39276853 0.040384173
-0.29512402 -0.36278236 0.030852079
-0.32413366 -0.30469465 0.030556321
-0.32499233 -0.27643737 0.041710377
-0.35279256 -0.24636444 0.026171923
-0.35344329 -0.21778215 0.033857107
-0.3540425 -0.18905346 0.040932894
-0.38177007 -0.13037252 0.025967836
-0.38219395 -0.10148367 0.030556083
-0.38261887 -0.072524376 0.035156012
-0.38274947 -0.043469567 0.036569953
-0.38284647 -0.014393209 0.037619829
-0.38284647 0.014691204 0.03761971
-0.38274947 0.043759674 0.036569953
-0.38261676 0.072802879 0.035133123
-0.38219187 0.10172661 0.030533433
-0.38177007 0.13058083 0.025967836
-0.35404056 0.18937556 0.040909767
-0.35343945 0.21804827 0.033811331
-0.35278872 0.24657124 0.026126385
-0.32498878 0.27676326 0.0416646
-0.32412842 0.30493245 0.030488133
-0.29511929 0.36302134 0.030783653
-0.2666744 0.39308044 0.040315509
-0.26574191 0.42043743 0.025173783
-0.23715359 0.45034114 0.032604337
-0.20831299 0.47996891 0.037049174
-0.17931548 0.50934643 0.039195657
-0.15018226 0.53826934 0.038007975
-0.1210684 0.56718117 0.036866784
-0.09197247 0.59607917 0.03574872
-0.062849611 0.62398887 0.028896689
-0.033832245 0.62609679 0.041344523
-0.0047886148 0.65361017 0.032308221
0.053287603 0.68256551 0.03183043
0.11130445 0.7112903 0.030192256
0.14085957 0.71348947 0.041618824
0.19815704 0.73957199 0.026466966
0.22742957 0.74036312 0.030419707
0.2567513 0.74112403 0.034221411
0.28599694 0.74156654 0.036433101
0.31527898 0.74201441 0.038670182
0.34459573 0.74246264 0.040910125
0.46074799 0.74202365 0.03871572
0.48914558 0.74101925 0.033697605
0.51939529 0.74265498 0.041870713
0.37396204 -0.7425974 0.043289661
0.40334946 -0.74302948 0.045534968
0.43228608 -0.74270296 0.043839216
0.17020813 -0.71396017 0.045947433
0.19960129 -0.71469378 0.049918413
0.22905776 -0.71543348 0.053920984
0.25857651 -0.71617424 0.057931423
0.4636676 -0.71674603 0.061025858
0.49222231 -0.71579939 0.055902123
0.52070349 -0.71485949 0.050814867
0.11226564 -0.68644339 0.055164576
0.08268676 -0.68437749 0.043495774
0.024447709 -0.65547287 0.044824481
0.053864278 -0.6575011 0.0568012
-0.0046220645 -0.62780696 0.053943872
-0.063016042 -0.59806889 0.050515771
-0.092284881 -0.56969333 0.056040287
-0.12153782 -0.54062682 0.057193279
-0.15080072 -0.51150948 0.05809319
-0.17996028 -0.48200291 0.055948138
-0.20908481 -0.45252469 0.053759456
-0.23805812 -0.42284501 0.049390197
-0.26749524 -0.36488774 0.053644538
-0.29603651 -0.33486512 0.04402256
-0.29694262 -0.30673808 0.057100773
-0.32568079 -0.24787214 0.050653934
-0.32637253 -0.21917143 0.059639812
-0.35464585 -0.16021758 0.048058152
-0.35518128 -0.13124758 0.054381251
-0.35545257 -0.10210802 0.057585359
-0.35571849 -0.072918028 0.060725451
-0.35571653 0.073393352 0.060702562
-0.35545257 0.10255969 0.057585359
-0.35517934 0.13167353 0.054358363
-0.35464391 0.16059488 0.048035264
-0.32637075 0.2196376 0.059616685
-0.32567903 0.24826893 0.050630927
-0.29693779 0.30718014 0.057031751
-0.29603174 0.33520603 0.043953896
-0.26749241 0.36530441 0.053598404
-0.23805565 0.42322832 0.04934442
-0.20908162 0.45293853 0.053690553
-0.17995763 0.48243308 0.055878997
-0.15079859 0.51195532 0.058023691
-0.1215357 0.54106194 0.057101011
-0.092283815 0.57012242 0.055971146
-0.063015327 0.59845167 0.050424099
-0.0046225991 0.62821883 0.053874731
0.024447009 0.65581805 0.044778705
0.053862683 0.65793455 0.05673182
0.082683943 0.68470383 0.043404222
0.11226209 0.68685973 0.055072308
0.17020318 0.71430475 0.045855999
0.19959706 0.71507329 0.049849629
0.22905299 0.71584338 0.053851604
0.25857118 0.71661526 0.057862401
0.4636555 0.71720624 0.06093359
0.49221593 0.71622914 0.05585587
0.52069682 0.71525019 0.050768852
0.37394971 0.74291605 0.043175459
0.40333626 0.74336547 0.045420289
0.43227476 0.74303055 0.043747663
0.28815773 -0.71691686 0.061950684
0.317716 -0.7174899 0.065051675
0.34724128 -0.71791369 0.067345977
0.3767997 -0.7183339 0.069620013
0.40600994 -0.71814084 0.068575621
0.43497297 -0.71760112 0.065654159
0.55157912 -0.71688688 0.06178844
0.14184672 -0.68782932 0.062991381
0.17143244 -0.68883431 0.068668246
0.20106077 -0.68971062 0.07361722
0.23070154 -0.69042397 0.077646375
0.49533224 -0.69054776 0.078345895
0.5239774 -0.68963665 0.073198676
0.55254543 -0.6887278 0.068065166
0.083458297 -0.65949124 0.068552375
0.11316148 -0.66116571 0.078439474
0.024782319 -0.62984604 0.066557646
0.054382853 -0.63189906 0.079255819
-0.033832245 -0.60000408 0.063083887
-0.0044541303 -0.60195547 0.075758696
-0.063162744 -0.57167268 0.069573283
-0.092574134 -0.5430702 0.074827433
-0.12199833 -0.51400119 0.077133775
-0.15131959 -0.48434252 0.0749439
-0.18060726 -0.45471832 0.072756529
-0.20985168 -0.42510524 0.070362806
-0.23880726 -0.39506119 0.063292265
-0.2395305 -0.36701873 0.07671392
-0.26831764 -0.33681074 0.066998124
-0.26904663 -0.30841139 0.078835964
-0.29758656 -0.27814767 0.066395402
-0.29821429 -0.2493996 0.075456142
-0.32704967 -0.19032373 0.068436146
-0.32746285 -0.1612086 0.073803306
-0.32783946 -0.13199617 0.078696012
-0.35588881 -0.043671228 0.062736869
-0.35597894 -0.014393375 0.063801408
-0.35597894 0.014892861 0.063801408
-0.35588881 0.044162489 0.062737107
-0.32783768 0.13260958 0.078672647
-0.32746103 0.16178401 0.073780179
-0.32704788 0.19085766 0.068413019
-0.29821268 0.24998716 0.075432777
-0.29758331 0.27866355 0.06634903
-0.26904377 0.30902261 0.078789353
-0.26831332 0.33732826 0.066928625
-0.239528 0.36761308 0.076667547
-0.23880476 0.39555183 0.063246012
-0.20984954 0.42565 0.070316672
-0.18060458 0.45527822 0.07268703
-0.15131745 0.48491892 0.074874043
-0.12199671 0.51459348 0.07706368
-0.092573054 0.54364443 0.074757695
-0.063162208 0.57220584 0.069503784
-0.033832245 0.60048681 0.063014746
-0.0044548493 0.60253203 0.075665832
0.024781249 0.63035512 0.066488028
0.054381236 0.63250548 0.079185843
0.083455436 0.66001076 0.068459511
0.11315878 0.6617654 0.078369379
0.14184353 0.68830967 0.06292212
0.17142871 0.68935859 0.068598509
0.20105505 0.6902684 0.073524356
0.23069668 0.69101727 0.077576637
0.49531931 0.69114232 0.078252792
0.52396721 0.69019556 0.073128819
0.5525347 0.68924725 0.067995429
0.28815186 0.71738887 0.061881304
0.31770745 0.7179811 0.064959288
0.34722969 0.7184183 0.067230105
0.37678719 0.7188558 0.069503784
0.40599653 0.71865481 0.06845963
0.43496153 0.71809709 0.065561295
0.55158269 0.71737558 0.061812043
0.26040679 -0.69114304 0.081707478
0.29017532 -0.69186378 0.085777283
0.32000729 -0.69258559 0.089855313
0.34990293 -0.69330949 0.093942761
0.37921584 -0.69297236 0.09203887
0.40838048 -0.69245285 0.089104891
0.43750051 -0.69193411 0.086175203
0.46657604 -0.69141614 0.083250165
0.58410752 -0.69118452 0.081941247
0.14282456 -0.66213495 0.084162474
0.17257667 -0.66310704 0.089902401
0.20241824 -0.66408217 0.095659971
0.52728677 -0.66410995 0.095824599
0.55601954 -0.66323036 0.090630054
0.58467466 -0.66235292 0.085449457
0.084180772 -0.63396168 0.092015624
0.025120426 -0.60392004 0.0885185
-0.033832245 -0.57364929 0.08308661
-0.0042929593 -0.57563972 0.0966959
-0.063307494 -0.54494786 0.088378072
-0.092861913 -0.51614547 0.093519568
-0.1223914 -0.48670888 0.094154239
-0.1518431 -0.45693389 0.091944933
-0.1812419 -0.42714027 0.089245558
-0.21047825 -0.3971262 0.083928347
-0.21111146 -0.36895168 0.097637773
-0.24026015 -0.3387799 0.090254545
-0.26967183 -0.2797128 0.088987589
-0.29884502 -0.2205143 0.084560156
-0.2993404 -0.19139867 0.091710091
-0.29977557 -0.16213959 0.097991228
-0.32819724 -0.10270272 0.083343863
-0.32844049 -0.073314846 0.086503029
-0.3286534 -0.043875329 0.089269161
-0.32873648 -0.014393264 0.090348363
-0.32873648 0.015097186 0.090348363
-0.3286534 0.044570975 0.089269161
-0.32843867 0.073988557 0.086479783
-0.32819545 0.10335199 0.08332026
-0.29977393 0.16290127 0.097967625
-0.29933876 0.19211186 0.091686606
-0.29884341 0.22117223 0.084536552
-0.26966894 0.28040254 0.08894074
-0.24025634 0.33947659 0.090183973
-0.21110928 0.36970708 0.097590923
-0.2104761 0.3977758 0.083881736
-0.18124011 0.42783025 0.089198947
-0.15184166 0.45764431 0.091898084
-0.12238977 0.48743254 0.094083786
-0.092860818 0.51686388 0.093449116
-0.063306957 0.54562622 0.088307619
-0.033832245 0.57428634 0.083016396
-0.0042935051 0.5763815 0.09662497
0.025118984 0.60459471 0.088424921
0.084179327 0.63467038 0.091968298
0.14282131 0.66277874 0.084092021
0.17257288 0.66379517 0.089832067
0.20241389 0.66481447 0.09558928
0.52727646 0.66484356 0.095754147
0.55600876 0.66392398 0.090559602
0.58465952 0.66300255 0.085356116
0.2604014 0.69176745 0.081637502
0.29016939 0.69251943 0.085706949
0.3200008 0.69327289 0.089785218
0.37920827 0.69367629 0.091968417
0.40836966 0.69312972 0.089010954
0.437489 0.69258845 0.086081624
0.46656376 0.69204819 0.083156586
0.58410752 0.69182366 0.081941247
0.34989351 0.69402361 0.093848586
0.32224301 -0.66719794 0.1140579
0.35188031 -0.66713738 0.11370134
0.38145834 -0.66699272 0.11284649
0.23234963 -0.66506004 0.10143459
0.26226196 -0.66580063 0.10580671
0.29221833 -0.66649443 0.10990417
0.41077945 -0.66649044 0.10988057
0.44005546 -0.66598904 0.10691929
0.46928346 -0.66548413 0.1039387
0.49846935 -0.66498423 0.10098624
0.61698252 -0.6652081 0.10230827
0.11397574 -0.63518697 0.099594235
0.14381334 -0.63615286 0.1055702
0.17373374 -0.63709122 0.11137497
0.55953509 -0.63742894 0.11346388
0.58835596 -0.63658142 0.10822153
0.61709851 -0.63573623 0.10299325
0.054892868 -0.60589403 0.10134017
0.084770307 -0.60740596 0.11116123
0.025457349 -0.57764447 0.11040246
-0.033832245 -0.54683888 0.10202503
-0.0041461308 -0.54874337 0.11576939
-0.063453689 -0.51795781 0.10736895
-0.093107238 -0.48859334 0.10945404
-0.12277924 -0.45912832 0.11094785
-0.15234794 -0.42919829 0.10833991
-0.18176925 -0.39902943 0.10294616
-0.18230036 -0.3707166 0.11674488
-0.21172622 -0.34053215 0.11094785
-0.24082953 -0.31010363 0.10082102
-0.2413829 -0.28124413 0.11109018
-0.27030033 -0.25086129 0.099193573
-0.27084759 -0.22178167 0.10807943
-0.27124941 -0.19245605 0.11460459
-0.30014503 -0.13275443 0.10332417
-0.30049092 -0.10327943 0.10831618
-0.30069622 -0.073696449 0.11127996
-0.30082121 -0.044058546 0.11308396
-0.30087718 -0.014393319 0.11389172
-0.30087718 0.015278406 0.11389148
-0.30081958 0.044937193 0.11306024
-0.30069622 0.074561484 0.11127996
-0.30049092 0.10412169 0.10831642
-0.30014503 0.13355832 0.10332417
-0.27124941 0.1933468 0.11460459
-0.2708461 0.22262055 0.10805583
-0.2702989 0.25163171 0.09916997
-0.24138033 0.28210402 0.11104262
-0.24082699 0.31088418 0.10077393
-0.21172404 0.34139031 0.11090052
-0.18229944 0.37162137 0.11672103
-0.18176743 0.39982522 0.10289884
-0.15234575 0.43003228 0.10826886
-0.12277814 0.45998496 0.11090052
-0.093106143 0.48943484 0.10938251
-0.063453145 0.51878297 0.10729802
-0.033832245 0.54762226 0.10195422
-0.0041466802 0.54963231 0.11569834
0.025456253 0.57849175 0.11033094
0.054891236 0.60667104 0.10126948
0.084768131 0.60825866 0.11109018
0.11397394 0.63595384 0.099547148
0.14381009 0.63696194 0.10549927
0.58834064 0.63740683 0.10812688
0.61708254 0.6365214 0.10289896
0.1737299 0.63794482 0.11130369
0.55952412 0.63829869 0.11339307
0.23234308 0.66583258 0.10134041
0.26225469 0.66660661 0.10571218
0.29221231 0.66733629 0.10983324
0.32223424 0.66806746 0.11396313
0.35187316 0.66800845 0.11363029
0.38145068 0.66785717 0.11277544
0.41076851 0.66732782 0.10978568
0.44004381 0.66680366 0.1068244
0.46927106 0.66627592 0.10384405
0.4984563 0.66575313 0.10089207
0.61698252 0.66600406 0.10230851
0.20374459 -0.63803226 0.11719692
0.23384628 -0.63897645 0.12303674
0.26403925 -0.63992333 0.12889445
0.29428935 -0.64080721 0.13436139
0.32404983 -0.64068681 0.13361728
0.35378686 -0.64054734 0.13275325
0.38351065 -0.64040762 0.13188994
0.41320181 -0.64024091 0.13085878
0.44263536 -0.63975716 0.1278652
0.47202343 -0.63927382 0.12487614
0.50136608 -0.63879138 0.1218915
0.5306356 -0.63827878 0.11872065
0.65020549 -0.63894945 0.12286961
0.17490256 -0.61077839 0.1330651
0.11470551 -0.60854417 0.11855412
0.14475584 -0.60968691 0.12597549
0.59180629 -0.61023957 0.12956488
0.62006879 -0.60884875 0.12053192
0.65020972 -0.6092124 0.12289357
0.055387869 -0.57945389 0.12277424
0.085356914 -0.58054173 0.13021171
0.65106875 -0.58018094 0.12774527
0.025753118 -0.55066144 0.1296128
-0.033832245 -0.51976156 0.12115192
-0.0039978344 -0.52157837 0.1350342
-0.063581653 -0.49038398 0.12399209
-0.093354613 -0.46081102 0.1255213
-0.12313457 -0.43113738 0.12633407
-0.15277329 -0.40095171 0.12215376
-0.18280578 -0.3421351 0.12987649
-0.21221516 -0.31169817 0.12153351
-0.2127068 -0.28270507 0.13217747
-0.2419405 -0.25223136 0.12143826
-0.24234745 -0.22290848 0.12899029
-0.27164236 -0.16302443 0.12098503
-0.27203068 -0.13349253 0.12729084
-0.27224007 -0.10379621 0.13069117
-0.2724188 -0.074040011 0.1335932
-0.2724188 0.075076714 0.1335932
-0.27224156 0.10481136 0.13071501
-0.27203068 0.13448064 0.12729084
-0.2716409 0.16396321 0.12096107
-0.24234614 0.22390847 0.12896621
-0.24193794 0.25317121 0.12139046
-0.21270457 0.28372723 0.13212979
-0.21221295 0.31263801 0.12148583
-0.18280488 0.34314093 0.12985241
-0.15277182 0.40189511 0.12210631
-0.12313347 0.43211284 0.12628639
-0.09335351 0.46177694 0.12544978
-0.063581109 0.4913373 0.12392032
-0.033832245 0.52069265 0.1210804
-0.0039983857 0.52261627 0.13496196
0.025752012 0.5516572 0.12954128
0.055386215 0.58039635 0.12270248
0.085354708 0.58154136 0.13013995
0.65105605 0.5811618 0.12767375
0.11470275 0.6094538 0.11848247
0.14475361 0.61065716 0.12592781
0.17489868 0.61179942 0.13299334
0.59179467 0.61123359 0.12949336
0.62005669 0.60977352 0.12046051
0.65020972 0.61016673 0.12289357
0.20374018 0.63893098 0.11712563
0.2338413 0.63991982 0.1229651
0.26403186 0.64090782 0.12879884
0.29428121 0.64183372 0.13426554
0.32404315 0.64171165 0.13354528
0.35377967 0.64156544 0.13268149
0.3835029 0.64141917 0.13181794
0.41319352 0.64124453 0.13078701
0.44262654 0.64073753 0.12779343
0.47201091 0.64022726 0.1247803
0.50135285 0.63972193 0.12179589
0.53062165 0.63918495 0.11862564
0.65020549 0.6399036 0.12286985
0.20508441 -0.61168492 0.13895333
0.23535818 -0.61259419 0.14485896
0.26572424 -0.61350626 0.15078294
0.2957927 -0.61371142 0.1521157
0.32582805 -0.61382693 0.15286672
0.35571238 -0.6136927 0.15199435
0.3855834 -0.61355841 0.15112221
0.41544378 -0.61342794 0.15027463
0.44524649 -0.61324173 0.14906466
0.47479343 -0.61277634 0.14604247
0.50429112 -0.61230797 0.14300096
0.53374624 -0.61184436 0.13998854
0.56309277 -0.61131835 0.136572
0.11544251 -0.58163738 0.13770211
0.14564365 -0.58273351 0.14519727
0.17596173 -0.58383405 0.15272152
0.56575835 -0.58400434 0.15388548
0.5944466 -0.58283603 0.14589751
0.62282598 -0.58150733 0.13681257
0.68379039 -0.58251119 0.14367688
0.055785418 -0.55209923 0.13998854
0.085935943 -0.55335009 0.14901602
0.62560648 -0.5539341 0.15323055
0.65396208 -0.5526672 0.14408696
0.6837948 -0.55261362 0.14370072
0.026031367 -0.52323395 0.14768589
0.68521518 -0.52371866 0.15138876
-0.033832245 -0.49218807 0.13864028
-0.0038564485 -0.49400607 0.1534003
-0.063706279 -0.46250385 0.14018142
-0.093603685 -0.43279332 0.14169896
-0.12343822 -0.402686 0.13948309
-0.15320244 -0.37250388 0.13609135
-0.12374396 -0.37404007 0.15272152
-0.15360042 -0.34375581 0.14901626
-0.18321818 -0.31316522 0.14059079
-0.18363193 -0.28403276 0.15134037
-0.21316996 -0.25351018 0.14220536
-0.21351919 -0.22402801 0.14976633
-0.24273658 -0.19345424 0.13621128
-0.24312976 -0.16389154 0.14350784
-0.24339008 -0.13414067 0.14833891
-0.2435897 -0.10428922 0.15204298
-0.27255046 -0.044233046 0.13573062
-0.27262744 -0.014393264 0.13698065
-0.27262592 0.015455961 0.13695657
-0.27255192 0.045286581 0.1357547
-0.2435897 0.10546804 0.15204275
-0.24338877 0.13528994 0.1483146
-0.24312842 0.16500349 0.14348376
-0.24273527 0.19450966 0.13618743
-0.21351805 0.22518784 0.14974225
-0.21316883 0.2546117 0.14218128
-0.18363008 0.28520235 0.15129173
-0.18321633 0.31425184 0.14054239
-0.15359969 0.34490904 0.14899194
-0.15320095 0.37355506 0.13604319
-0.12374283 0.37521932 0.15267313
-0.12343711 0.40376276 0.13943446
-0.093602575 0.4338842 0.14162672
-0.06370572 0.46358249 0.14010894
-0.033832245 0.49325424 0.13856828
-0.0038568228 0.49518895 0.1533519
0.02603025 0.5243693 0.14761364
0.68520176 0.52488226 0.15131581
0.055783741 0.55317467 0.1399163
0.085933708 0.55449504 0.14894354
0.62559009 0.55510795 0.15313375
0.65394926 0.55377418 0.14401448
0.6837948 0.55372828 0.14370072
0.1154388 0.58269089 0.13760602
0.14564031 0.5838486 0.14512479
0.17595783 0.58500695 0.15264857
0.5657509 0.58518988 0.15383685
0.59443492 0.58395642 0.14582527
0.62281376 0.58255762 0.13674009
0.68379039 0.58362561 0.14367688
0.20507848 0.61274749 0.13885725
0.2353515 0.61370212 0.14476264
0.26571676 0.61465979 0.15068638
0.29578656 0.61487889 0.15204275
0.32582131 0.61500055 0.15279424
0.35570511 0.6148594 0.15192163
0.38557556 0.61471844 0.15104949
0.4154354 0.61458153 0.15020216
0.44523454 0.61438203 0.14896786
0.47478074 0.61389339 0.14594591
0.5042811 0.61340564 0.14292848
0.53373218 0.61291462 0.13989222
0.56307793 0.61236238 0.13647568
0.2063975 -0.58493888 0.16027486
0.23688725 -0.58591217 0.16692936
0.26707059 -0.58610857 0.16827309
0.29726851 -0.58629441 0.16954362
0.32748383 -0.58647704 0.17079103
0.35765716 -0.58657014 0.17142785
0.38767678 -0.5864414 0.17054665
0.41768575 -0.58631611 0.16969073
0.44767857 -0.58618724 0.16881049
0.47759068 -0.58598369 0.16741788
0.50725174 -0.58553725 0.16436708
0.53676319 -0.58498865 0.16061532
0.14654034 -0.55551094 0.16461098
0.17701197 -0.55656397 0.17221081
0.56809765 -0.55612999 0.16907918
0.59710139 -0.55519354 0.16232026
0.11618688 -0.55446202 0.15704095
0.05617249 -0.52442002 0.15674937
0.086454459 -0.52561164 0.16585529
0.62840652 -0.52612334 0.16976416
0.65687996 -0.52491969 0.16056693
0.71773899 -0.52546155 0.1647085
0.026290447 -0.4953748 0.16451371
0.6882714 -0.49579579 0.1679312
0.71773899 -0.49539891 0.16470873
-0.033832245 -0.46420944 0.15495288
-0.0037396997 -0.46578148 0.16856635
-0.063831955 -0.43438926 0.1565069
-0.033832245 -0.43599454 0.17140281
-0.063939847 -0.40579203 0.17052209
-0.093807369 -0.40423173 0.15492857
-0.094012812 -0.37547678 0.16827309
-0.12403938 -0.34515283 0.16551387
-0.15392838 -0.31463352 0.15966642
-0.15424758 -0.28532785 0.1700331
-0.18400863 -0.25467542 0.16112673
-0.18430248 -0.22505152 0.16876185
-0.21386865 -0.19442965 0.15733278
-0.21418005 -0.16468312 0.16407478
-0.21437961 -0.13475825 0.16839516
-0.21458071 -0.10476757 0.17274964
-0.24378702 -0.074380286 0.15570509
-0.24394152 -0.044408828 0.15857208
-0.24397296 -0.014393319 0.15915573
-0.24397165 0.015626574 0.15913141
-0.2439428 0.04563836 0.1585964
-0.24378833 0.075587995 0.15572989
-0.21457958 0.10610496 0.17272484
-0.21437848 0.13606198 0.16837084
-0.21417892 0.16595341 0.16405046
-0.21386752 0.19564793 0.15730822
-0.18430153 0.22635764 0.16873729
-0.18400767 0.25592262 0.16110241
-0.15424684 0.28664318 0.17000854
-0.15392762 0.31586915 0.1596421
-0.12403882 0.34643304 0.16548955
-0.094012439 0.37677801 0.16824853
-0.093806989 0.40543005 0.15490425
-0.063939467 0.4071078 0.17047346
-0.063831389 0.43559384 0.1564337
-0.033832245 0.43731686 0.17135417
-0.033832245 0.46540168 0.15487993
-0.0037400797 0.46708143 0.16851723
0.026289698 0.49664313 0.16446483
0.68825787 0.4970873 0.16785753
0.71773899 0.49667525 0.16470873
0.056170806 0.52562517 0.15667665
0.086452208 0.52688682 0.16578257
0.62839413 0.52742833 0.16969073
0.65686274 0.52615058 0.16046965
0.71773899 0.52673805 0.16470873
0.11618312 0.55566519 0.15694392
0.14653698 0.55677593 0.16453826
0.17700797 0.55788743 0.17213738
0.56809008 0.55743301 0.16903055
0.59709352 0.55644429 0.16227138
0.206393 0.5861699 0.16020191
0.23688048 0.58719039 0.16683185
0.26706684 0.58740497 0.16822422
0.29726231 0.58759689 0.16947067
0.32747704 0.58778894 0.17071807
0.3576498 0.58788675 0.17135394
0.38766888 0.58775133 0.17047322
0.41767725 0.5876193 0.16961753
0.44766951 0.587484 0.16873729
0.47758108 0.5872696 0.16734469
0.50723821 0.58679605 0.1642698
0.53675246 0.58622229 0.16054261
0.2076039 -0.5576247 0.17986476
0.23803571 -0.55812925 0.18350565
0.26842341 -0.55845338 0.18584645
0.29875761 -0.55863118 0.18712914
0.32910931 -0.55880558 0.18838751
0.35948044 -0.55898005 0.18964708
0.38979119 -0.55905187 0.19016588
0.41995019 -0.55893207 0.18930113
0.45009285 -0.55880886 0.18841207
0.48022187 -0.55868602 0.18752396
0.50978422 -0.55800968 0.18264425
0.53899324 -0.55707002 0.17586243
0.1168792 -0.5268122 0.17502844
0.14744604 -0.5280152 0.18422043
0.54123712 -0.52892894 0.19120395
0.57045519 -0.52803761 0.18439233
0.59956837 -0.52714622 0.17758024
0.056562923 -0.49650094 0.17365587
0.086978234 -0.49763525 0.18286574
0.63117617 -0.49803573 0.18611753
0.65981829 -0.4969328 0.17716253
0.026516959 -0.46701226 0.17922604
0.056938499 -0.46824715 0.18991911
0.69135368 -0.46763456 0.18461454
0.71978164 -0.46656159 0.17532289
0.75205225 -0.46778819 0.18594539
-0.0036286768 -0.43724328 0.182989
0.75205225 -0.4375619 0.18594539
-0.033832245 -0.40727139 0.18530428
0.75282782 -0.40772313 0.18981993
-0.064043395 -0.37692711 0.18397391
-0.094220057 -0.34652632 0.18173373
-0.12427951 -0.31588417 0.17591155
-0.12452148 -0.286461 0.18638933
-0.15453745 -0.25580373 0.17944705
-0.15476793 -0.22603059 0.18693149
-0.18459845 -0.19531259 0.17645133
-0.18484914 -0.16541016 0.18296421
-0.18502465 -0.13534723 0.18752396
-0.21476644 -0.074704796 0.17677009
-0.21482426 -0.044558555 0.17802203
-0.21486622 -0.014393264 0.17893088
-0.21486622 0.015779026 0.17893088
-0.21482539 0.045937762 0.17804682
-0.21476644 0.076073729 0.17677009
-0.1850237 0.13679813 0.1874994
-0.18484914 0.16682692 0.18296421
-0.18459749 0.19667813 0.17642653
-0.15476641 0.22747496 0.18688262
-0.15453669 0.25719184 0.17942226
-0.12452034 0.28790039 0.18633997
-0.12427893 0.31724468 0.17588675
-0.094219677 0.3479313 0.18170917
-0.064043209 0.37834913 0.18394911
-0.033832245 0.40870097 0.18525493
0.75282288 0.40919015 0.18979561
-0.0036290549 0.43865466 0.18293941
0.75205225 0.43900177 0.18594515
0.026516203 0.46839425 0.17917669
0.056937367 0.46971121 0.18986952
0.69134003 0.46905476 0.18454063
0.71977222 0.46791363 0.17527378
0.75205225 0.46922797 0.18594539
0.056561798 0.49783969 0.17360699
0.086975962 0.49904174 0.18279207
0.6311636 0.49946707 0.18604386
0.6598053 0.49829525 0.1770891
0.11687543 0.52815437 0.17493045
0.14744264 0.52943134 0.18414629
0.5412299 0.53040236 0.1911546
0.57044381 0.52945518 0.18431866
0.59956038 0.52851462 0.17753088
0.20759785 0.55900323 0.1797663
0.23803055 0.55953944 0.18343198
0.26841772 0.55988169 0.18577278
0.29875132 0.5600692 0.18705499
0.32910246 0.56025332 0.1883136
0.35947305 0.56043744 0.18957293
0.3897832 0.56051332 0.19009197
0.41994163 0.56038696 0.18922722
0.45008373 0.56025702 0.1883384
0.48021221 0.5601269 0.18744981
0.50977743 0.55941689 0.1825949
0.53898245 0.55842143 0.17578876
0.17807406 -0.52902287 0.19192111
0.20859337 -0.52954751 0.19593132
0.2391251 -0.52997941 0.19923031
0.26970997 -0.53041506 0.20255935
0.30025801 -0.53071469 0.20484841
0.33074948 -0.53088415 0.20614326
0.36125848 -0.53105026 0.20741379
0.39178708 -0.53121674 0.20868552
0.42223746 -0.53127235 0.2091099
0.45233196 -0.53094286 0.20659173
0.482131 -0.53035653 0.20211184
0.5118624 -0.52977175 0.19764245
0.14823797 -0.49991396 0.20136631
0.1789304 -0.50070792 0.20781291
0.54350227 -0.50056976 0.20669138
0.57282758 -0.49972096 0.19980133
0.11753608 -0.49877179 0.19209421
0.6020546 -0.49887845 0.1929599
0.087505832 -0.46941108 0.20000017
0.11819867 -0.47048596 0.20930922
0.6045565 -0.47038513 0.20843613
0.63379222 -0.46959183 0.20156491
0.66278619 -0.46870956 0.19392502
0.026739839 -0.43839788 0.19370258
0.057275236 -0.43956155 0.20449984
0.69445783 -0.43922904 0.2014159
0.72290462 -0.43816605 0.19155037
-0.0035172123 -0.40848878 0.19746864
0.026964761 -0.40957376 0.20831144
0.72482717 -0.40889615 0.20154011
0.78675115 -0.40948895 0.20746386
-0.033832245 -0.37815294 0.19724548
-0.0034245253 -0.3792859 0.20950878
0.75482553 -0.37838918 0.19980133
0.78675115 -0.37909701 0.20746362
-0.064143844 -0.34782085 0.19702232
-0.033832245 -0.34885913 0.20928442
0.75683343 -0.34890562 0.20983326
0.78675115 -0.3487049 0.20746362
-0.094382994 -0.31714717 0.19231689
-0.064222686 -0.31829759 0.2072643
0.78688073 -0.31836101 0.20808709
-0.094545282 -0.28760192 0.20285761
-0.12475387 -0.2568509 0.19645202
-0.12492823 -0.22695059 0.20400202
-0.15499851 -0.19614249 0.19442046
-0.15520169 -0.16610494 0.20101821
-0.15534109 -0.13590211 0.20554554
-0.18520057 -0.10521421 0.19209421
-0.1554808 -0.10562985 0.21008289
-0.18533206 -0.07499326 0.19551027
-0.18539119 -0.044705123 0.19704711
-0.18545038 -0.014393264 0.19858491
-0.18545038 0.015930256 0.19858491
-0.18539119 0.046230391 0.19704711
-0.18533206 0.076506592 0.19551027
-0.18519959 0.10670054 0.19206941
-0.15548003 0.10725442 0.21005785
-0.15534031 0.13749181 0.20552051
-0.15520169 0.16766088 0.20101821
-0.15499777 0.19764628 0.1943959
-0.12492708 0.22852634 0.20395243
-0.1247533 0.25836995 0.19642723
-0.094544515 0.28916815 0.20280802
-0.094382614 0.31863374 0.19229209
-0.0642225 0.3198995 0.20723951
0.7868703 0.31996691 0.20803726
-0.064143658 0.34934351 0.19699752
-0.033832245 0.35047638 0.20925939
0.75682843 0.35052702 0.20980823
0.78675628 0.35031277 0.20748889
-0.033832245 0.37967753 0.19722044
-0.0034249071 0.3809022 0.20945895
0.75482059 0.37993306 0.19977653
0.78675115 0.38070258 0.20746362
-0.0035174023 0.41001454 0.19744384
0.02696399 0.41118035 0.20826161
0.7248224 0.41045341 0.20151532
0.78675115 0.41109455 0.20746362
0.026739456 0.43989444 0.19367778
0.057274081 0.44113836 0.20445001
0.66565579 0.44179448 0.21013272
0.69444406 0.44077948 0.20134151
0.72289985 0.43964595 0.19152558
0.087504305 0.47095293 0.1999501
0.11819675 0.47209945 0.20925939
0.60454839 0.47199196 0.2083863
0.63377964 0.47114271 0.20149052
0.66277301 0.47020185 0.19385087
0.11753321 0.50024939 0.19202006
0.14823455 0.50146252 0.20129144
0.17892638 0.50230616 0.20773804
0.543495 0.50216275 0.20664155
0.57281989 0.501261 0.1997515
0.60204262 0.50036258 0.19288599
0.17806876 0.53049487 0.19182193
0.20858881 0.5310539 0.19585717
0.23912165 0.53151459 0.19918048
0.26970616 0.53197587 0.20250952
0.30025169 0.53228951 0.20477355
0.33074257 0.53246903 0.20606863
0.36125097 0.53264499 0.20733941
0.39178175 0.53282464 0.20863545
0.42222595 0.53287655 0.20901
0.45232579 0.53253454 0.2065419
0.48212445 0.53191388 0.20206225
0.51185554 0.53129452 0.19759262
0.2095679 -0.50119352 0.21175611
0.24022505 -0.50160611 0.21510613
0.27093419 -0.5020197 0.21846235
0.30169335 -0.5024305 0.22179878
0.33240223 -0.50270593 0.22403467
0.36305264 -0.5028671 0.22534239
0.39372051 -0.50302517 0.22662556
0.42402762 -0.50277716 0.22461307
0.45408443 -0.50230986 0.22081983
0.48398876 -0.50175428 0.21630776
0.51382494 -0.50119978 0.21180618
0.14892924 -0.47129709 0.21633279
0.17967999 -0.47191939 0.22172344
0.21051618 -0.47254646 0.2271539
0.51580524 -0.47242457 0.22609699
0.54567528 -0.47189927 0.22154772
0.57522243 -0.47118422 0.21535623
0.087977923 -0.44072881 0.2153312
0.11879254 -0.44174275 0.22473872
0.60708213 -0.44166949 0.22405946
0.63642472 -0.44092035 0.21710885
0.66566902 -0.44017664 0.21020782
0.057613894 -0.41065988 0.21916425
0.66801924 -0.41109195 0.22348177
0.69665909 -0.41007617 0.21333063
0.0271728 -0.38042349 0.22182381
0.69852525 -0.38057217 0.22343147
0.72675955 -0.37947729 0.21158111
-0.0033314619 -0.34990177 0.22159803
0.72870177 -0.34990829 0.22167313
-0.033832245 -0.31935275 0.22097051
0.75885159 -0.31927165 0.21991646
-0.064295575 -0.28856349 0.21673334
0.78897458 -0.28866223 0.2181617
-0.094693825 -0.25783965 0.2125057
-0.064368822 -0.25868592 0.22624791
0.79107922 -0.25881156 0.22828734
-0.094805606 -0.22780006 0.21976626
-0.12510154 -0.19693181 0.21150625
-0.09491121 -0.19763014 0.22662532
-0.12525812 -0.16676979 0.21828663
-0.12535432 -0.1364226 0.22245157
-0.1254507 -0.10601167 0.22662532
-0.1555908 -0.07527262 0.21365535
-0.15563315 -0.044843577 0.21503103
-0.15566631 -0.014393319 0.21610749
-0.15566631 0.016065046 0.21610773
-0.15563315 0.046507306 0.21503103
-0.1555908 0.07692574 0.21365559
-0.1254501 0.10776387 0.22660029
-0.12535432 0.13814348 0.22245157
-0.12525755 0.16845728 0.2182616
-0.12510096 0.19856717 0.21148121
-0.094910815 0.19938174 0.22660029
-0.094804838 0.22949703 0.21971595
-0.09469305 0.25948027 0.21245539
-0.064368628 0.26043409 0.22622263
0.79107398 0.26057553 0.22826231
-0.064295389 0.29023814 0.2167083
0.78896415 0.290346 0.2181114
0.75884652 0.32097059 0.21989167
-0.033832245 0.32106218 0.22097051
-0.0033316556 0.35161391 0.221573
0.72869694 0.35162079 0.2216481
0.027172022 0.38213441 0.22177374
0.6985206 0.38229781 0.22340643
0.72675472 0.38111192 0.21155632
0.05761274 0.41234997 0.21911395
0.66801482 0.41281793 0.22345674
0.69665444 0.41172394 0.21330535
0.087977156 0.4423919 0.2153064
0.11879254 0.44348103 0.22473872
0.60707402 0.44339693 0.22400963
0.63641626 0.44259441 0.21705902
0.14892694 0.47296447 0.21628273
0.17967728 0.47362852 0.22167337
0.21051154 0.47429433 0.22707856
0.51579821 0.47416726 0.22604668
0.54567158 0.47360992 0.22152269
0.57521468 0.47284445 0.21530664
0.20956329 0.50282216 0.21168101
0.2402198 0.50326055 0.21503103
0.27092838 0.50369978 0.21838725
0.30168909 0.5041399 0.22174847
0.33239758 0.50443232 0.22398436
0.36304507 0.50460029 0.22526681
0.39371237 0.50476807 0.22654998
0.42402181 0.50450796 0.22456253
0.45407826 0.50401151 0.22076976
0.48398221 0.50342131 0.21625769
0.51382154 0.50283533 0.21178091
0.24133384 -0.47300336 0.23111045
0.27216634 -0.47339115 0.23446882
0.3030532 -0.47378245 0.23785746
0.33399037 -0.47417167 0.24122703
0.36470824 -0.47424763 0.24188626
0.39513299 -0.47399879 0.23973143
0.42552775 -0.47375318 0.2376045
0.45585269 -0.4734731 0.23517621
0.48586321 -0.4729481 0.23063147
0.21138129 -0.44351685 0.24120128
0.24241292 -0.44410807 0.24668586
0.48775131 -0.44393268 0.24505913
0.51779634 -0.44343767 0.24046648
0.14957571 -0.44234508 0.23032868
0.18043625 -0.44293028 0.23575795
0.54777586 -0.44294643 0.23590934
0.57763243 -0.44241855 0.23100984
0.088408671 -0.41167632 0.22932041
0.11925561 -0.41242176 0.23676956
0.15021855 -0.41316992 0.24424636
0.57990503 -0.41332254 0.24577057
0.60962379 -0.41272327 0.23978245
0.63908237 -0.41202462 0.23280156
0.057953916 -0.38153785 0.23388731
0.088779986 -0.38222992 0.2413789
0.64067674 -0.38230723 0.24221599
0.66967833 -0.38144228 0.2328521
0.027360089 -0.35095105 0.2339884
0.058191977 -0.35181531 0.24419558
0.67134517 -0.35165215 0.24226677
0.70027506 -0.35085911 0.23290241
-0.0032378323 -0.3203375 0.23376119
0.027525835 -0.32118356 0.2447542
0.70201451 -0.32099617 0.24231756
0.73065883 -0.32018971 0.23184216
-0.033832245 -0.28951746 0.23050535
-0.0031596553 -0.29044667 0.24391639
0.73262101 -0.29031643 0.24203837
0.76088005 -0.28948602 0.23005164
0.82183242 -0.28942838 0.22921979
-0.033832245 -0.2595396 0.24011171
0.76292396 -0.25954911 0.24026358
0.82183784 -0.25887054 0.22924483
-0.064435802 -0.22861816 0.23494875
0.79319465 -0.22880755 0.23846495
0.82183784 -0.22831099 0.22924483
-0.064486474 -0.19831859 0.24153125
0.79400063 -0.19835614 0.24234283
0.82183784 -0.19775099 0.22924483
-0.095017567 -0.16735661 0.23353398
-0.064531244 -0.16788821 0.24734676
0.79470778 -0.16782662 0.2457453
0.82256097 -0.16732056 0.23259985
-0.095095441 -0.13691972 0.23859179
0.82328528 -0.1368387 0.23596013
-0.095150068 -0.10636995 0.24213994
0.82401627 -0.10630564 0.23935139
-0.12553272 -0.075526819 0.23017752
-0.09519659 -0.075757578 0.2451607
0.82474858 -0.075720422 0.24274886
-0.12558341 -0.044976924 0.23237216
0.82548213 -0.045083113 0.2461518
-0.12559915 -0.014393431 0.23305404
-0.12559915 0.016195783 0.23305404
-0.12558341 0.046774223 0.23237216
0.82548213 0.046986379 0.2461518
-0.12553215 0.077306673 0.23015225
-0.095196187 0.077652618 0.24513543
0.82474858 0.077597469 0.24274886
-0.095149681 0.10824161 0.24211442
0.82401627 0.10815652 0.23935163
-0.095095053 0.13876374 0.23856628
0.82328528 0.13866338 0.23596036
-0.09501718 0.16916156 0.23350871
-0.064531043 0.16979964 0.24732149
0.79470253 0.16972566 0.24571955
0.82255554 0.16911846 0.23257411
-0.064486474 0.20018636 0.24153125
0.79399532 0.20022868 0.24231756
0.82183784 0.1995243 0.22924483
-0.064435609 0.23043369 0.23492348
0.79318935 0.23065011 0.23843968
0.82183784 0.2300839 0.22924483
-0.033832245 0.26139477 0.2400862
0.76291382 0.26140332 0.2402128
0.82183784 0.26064357 0.22924483
-0.033832245 0.29130021 0.23050535
-0.0031596553 0.29233277 0.24391639
0.7326113 0.29218414 0.24198759
0.76087499 0.29126334 0.23002636
0.82183242 0.29120129 0.22921956
-0.0032378323 0.32214534 0.23376119
0.027525835 0.32307604 0.24475467
0.7020098 0.32286766 0.24229228
0.73064911 0.32197863 0.23179209
0.027359698 0.35275838 0.23396337
0.058191381 0.35370114 0.24417031
0.67134076 0.35352302 0.24224126
0.70027035 0.35265806 0.23287737
0.057953335 0.38334426 0.23386204
0.088778414 0.38409135 0.24132836
0.64067245 0.3841776 0.24219072
0.66967386 0.38324058 0.23282683
0.088407896 0.41344717 0.22929537
0.63907379 0.41381967 0.23275101
0.11925464 0.41425005 0.23674428
0.15021735 0.4150559 0.24422109
0.57989717 0.41521728 0.24571979
0.60961974 0.41457471 0.23975694
0.14957339 0.44412082 0.23027837
0.18043351 0.44474778 0.23570716
0.21137816 0.44537625 0.24115074
0.24240762 0.4460066 0.24660957
0.48774463 0.44582167 0.24500835
0.51778924 0.44529134 0.24041545
0.54776847 0.44476515 0.23585904
0.57762855 0.44420233 0.23098457
0.24132684 0.47477838 0.2310096
0.27216053 0.4751952 0.23439276
0.30304673 0.47561252 0.23778164
0.33398569 0.47603062 0.24117625
0.36470315 0.4761118 0.24183547
0.39512751 0.47584632 0.23968089
0.42552188 0.47558448 0.23755372
0.45584646 0.47528547 0.23512566
0.48585659 0.47472563 0.23058093
0.27341047 -0.44453311 0.2506305
0.30442405 -0.44490126 0.25404704
0.33523828 -0.44497553 0.25473607
0.36601204 -0.44499484 0.25491464
0.3965438 -0.44476923 0.25282228
0.42703775 -0.44453859 0.25068104
0.45749584 -0.44430521 0.24851692
0.18119788 -0.41373488 0.24989164
0.21225411 -0.41428351 0.25537431
0.24339578 -0.41483378 0.26087224
0.27457386 -0.41532135 0.26574337
0.39796397 -0.41534701 0.26599991
0.42855474 -0.41512862 0.2638191
0.45911539 -0.41491318 0.26166594
0.48963976 -0.41469538 0.25948989
0.51980543 -0.41424283 0.2549659
0.54988796 -0.41378072 0.25035012
0.11972149 -0.38292232 0.24887359
0.15077969 -0.38361719 0.25639617
0.18195525 -0.38431475 0.26394689
0.5520193 -0.38440484 0.26492178
0.58192664 -0.38384858 0.25890124
0.61153817 -0.38317633 0.25162423
0.089152768 -0.35260195 0.25348532
0.12019023 -0.35324264 0.2610513
0.61300415 -0.35321227 0.26069295
0.64227873 -0.35244885 0.25167525
0.058424786 -0.32191676 0.25427663
0.089472532 -0.32265514 0.26387012
0.64388829 -0.3224481 0.26117909
0.67302006 -0.32172033 0.25172627
0.027681477 -0.29120511 0.25486386
0.058659367 -0.29186821 0.26443446
0.67470288 -0.29164606 0.26123059
0.70375746 -0.2909894 0.25175154
-0.0030981638 -0.26026598 0.25190461
0.027814221 -0.26097903 0.26348531
0.70551342 -0.26084191 0.26125658
0.73450017 -0.26025954 0.25180256
-0.033832245 -0.2293411 0.24836457
-0.0030366182 -0.22996269 0.25989902
0.73632938 -0.23003861 0.26130736
0.76497334 -0.22945619 0.25050294
-0.033832245 -0.1989439 0.25506794
0.76598418 -0.19896628 0.25555289
-0.033832245 -0.16840982 0.26089752
0.76666963 -0.16833596 0.25897825
-0.064576142 -0.13736904 0.25317967
-0.033832245 -0.13775875 0.26584566
0.76735634 -0.13765299 0.26240909
0.79541618 -0.13724495 0.24915373
0.85729682 -0.13730766 0.25119102
-0.064607002 -0.10671768 0.25718844
0.76803905 -0.10691683 0.26582038
0.79612046 -0.10661021 0.2525419
0.85729682 -0.10657905 0.25119102
-0.064628065 -0.075984947 0.25992501
0.79683125 -0.0759238 0.25596178
0.85729682 -0.075850382 0.25119078
-0.095232978 -0.045093611 0.24752486
-0.064641073 -0.045202129 0.26161492
0.79754329 -0.045184914 0.25938761
0.85729682 -0.045121878 0.25119102
-0.064648569 -0.014393431 0.26258838
0.79825652 -0.014393319 0.26281917
-0.095252566 -0.014393209 0.24879706
0.82621688 -0.014393209 0.24956071
0.85729116 -0.014393209 0.25116551
-0.095252566 0.016316855 0.24879706
-0.064648569 0.016422933 0.26258862
0.79825652 0.016424822 0.26281917
0.82621688 0.016322631 0.24956095
0.85729116 0.016335184 0.25116551
-0.095232978 0.047007591 0.24752486
-0.064641275 0.047224857 0.26164043
0.79754329 0.047190093 0.25938761
0.85729682 0.047063909 0.25119102
-0.064627871 0.077993676 0.25989926
0.79683125 0.077902541 0.25596178
0.85729682 0.077792466 0.25119078
-0.064606801 0.10870513 0.25716269
0.76803905 0.10897143 0.26581991
0.79612046 0.10856273 0.25254214
0.85730249 0.1085218 0.25121629
-0.06457594 0.13932511 0.25315416
-0.033832245 0.13981368 0.26584566
0.76735121 0.1396805 0.26238334
0.79541081 0.13917021 0.24912798
0.85730249 0.13925052 0.25121653
-0.033832245 0.1704265 0.26089776
0.76666456 0.17033675 0.2589525
-0.033832245 0.20091435 0.25504267
0.76598418 0.20094201 0.25555313
-0.033832245 0.23125987 0.2483393
-0.0030366182 0.2319718 0.2598995
0.73632449 0.23205678 0.26128185
0.76496321 0.23138998 0.25045216
-0.0030983575 0.26221162 0.2518791
0.027813826 0.26301399 0.26346004
0.70550871 0.26285964 0.26123059
0.73449528 0.26220465 0.25177705
0.027681477 0.29317534 0.25486386
0.058658779 0.29391006 0.26440871
0.67469829 0.29366362 0.26120484
0.70375276 0.29293385 0.25172627
0.058424786 0.32388234 0.25427663
0.089470945 0.32469052 0.2638191
0.64388394 0.32446483 0.26115382
0.67301553 0.32366431 0.25170076
0.089151978 0.3545593 0.25346029
0.12018826 0.35525599 0.26100004
0.61300415 0.35522744 0.26069295
0.64227438 0.35439208 0.25164974
0.11971953 0.38484138 0.24882233
0.15077734 0.38559428 0.25634491
0.18195251 0.38634998 0.26389587
0.55201173 0.38644734 0.26487076
0.58192271 0.38584748 0.25887597
0.611534 0.38511926 0.25159872
0.18119514 0.41566136 0.24984109
0.21225095 0.4162522 0.25532329
0.24339223 0.41684482 0.26082075
0.27456993 0.41736987 0.26569164
0.39795846 0.41739744 0.26594865
0.42854881 0.41716239 0.2637676
0.45910904 0.41693035 0.26161492
0.48963314 0.41669592 0.25943887
0.51979834 0.41620821 0.25491488
0.5498842 0.41571358 0.25032485
0.2734046 0.44646206 0.2505542
0.30441543 0.44685367 0.25394475
0.3352336 0.44693914 0.25468504
0.3660095 0.44696262 0.25488913
0.39653832 0.4467181 0.2527715
0.42703187 0.44647074 0.2506305
