ply
format ascii 1.0
comment PCL generated
element vertex 1347
property float x
property float y
property float z
element camera 0
property float view_px
property float view_py
property float view_pz
property float x_axisx
property float x_axisy
property float x_axisz
property float y_axisx
property float y_axisy
property float y_axisz
property float z_axisx
property float z_axisy
property float z_axisz
property float focal
property float scalex
property float scaley
property float centerx
property float centery
property int viewportx
property int viewporty
property float k1
property float k2
end_header
0.2338469 -0.18945962 -0.21185094
0.25677085 -0.19028986 -0.20286322
-0.25519472 -0.16863343 -0.19606555
-0.23233245 -0.16805562 -0.20288968
0.23453167 -0.16804996 -0.2029556
-0.20986475 -0.16779616 -0.20595324
-0.18744373 -0.16753611 -0.20902359
-0.16507122 -0.16727784 -0.21207422
0.16729458 -0.16719663 -0.21303302
0.18960938 -0.167418 -0.21041834
0.21196476 -0.16763991 -0.20779896
-0.21054618 -0.14626935 -0.19710112
-0.18805572 -0.14603147 -0.20019031
-0.16561405 -0.14579526 -0.20325959
-0.14321999 -0.14555946 -0.20632255
-0.12087278 -0.14532325 -0.20939207
-0.098573573 -0.14508837 -0.21244216
0.10086072 -0.14511162 -0.21214002
0.12312258 -0.14531404 -0.20951056
0.14542454 -0.14551577 -0.20688939
0.16776782 -0.1457189 -0.20425069
0.19015121 -0.14592147 -0.20161998
0.21257636 -0.14612541 -0.19897127
-0.14369687 -0.12396721 -0.19747269
-0.12128127 -0.12375415 -0.2005477
-0.098912761 -0.12354053 -0.20362973
-0.076592304 -0.12332847 -0.20669174
-0.054318834 -0.12311587 -0.20976055
-0.032092918 -0.12290455 -0.21280962
0.012218085 -0.12283283 -0.21384645
0.034385823 -0.12301462 -0.21122032
0.056593865 -0.12319609 -0.20860231
0.078842327 -0.12337778 -0.20597959
0.10113171 -0.12356078 -0.20333898
0.12346144 -0.12374315 -0.20070672
0.14583254 -0.12392681 -0.19805634
0.16824397 -0.12410974 -0.19541454
-0.076864734 -0.10167063 -0.19784415
-0.054523032 -0.10148137 -0.20091856
-0.032228559 -0.10129163 -0.20399976
-0.0099816704 -0.10110306 -0.20706093
0.012218085 -0.10122668 -0.20505595
0.034453515 -0.10138846 -0.20242691
0.0567297 -0.10155156 -0.19977963
0.079046451 -0.10171401 -0.19714093
-0.010054256 -0.07941144 -0.19763184
0.012218085 -0.079517938 -0.19565368
-0.36815774 -0.28150582 -0.18428969
0.37018257 -0.28146955 -0.18458426
-0.34459424 -0.28031743 -0.19393873
0.34675881 -0.28034848 -0.19368601
-0.36906058 -0.25992733 -0.17739081
-0.34543836 -0.25880784 -0.18708563
0.34754258 -0.25882953 -0.18689847
0.37102386 -0.25988552 -0.17775393
-0.34628645 -0.23719651 -0.18019986
-0.32276261 -0.23615366 -0.1898762
0.32493863 -0.23622558 -0.18920887
0.34833005 -0.23720956 -0.1800791
-0.32355615 -0.2145094 -0.18300354
-0.30013183 -0.21354425 -0.19264781
0.30237058 -0.21365753 -0.19151568
0.32567239 -0.21456978 -0.18240035
-0.30086964 -0.19186595 -0.18580186
0.27983838 -0.19112545 -0.19381893
0.30305088 -0.19196612 -0.18471801
-0.30181816 -0.17024779 -0.17700052
-0.27842993 -0.16943797 -0.18656421
0.25751868 -0.16880575 -0.19403183
0.2806482 -0.16956592 -0.18505287
-0.27941665 -0.14783949 -0.17670429
-0.25609958 -0.14710307 -0.18627012
-0.23308362 -0.14650667 -0.19401848
0.23527496 -0.14656201 -0.19330013
0.25834134 -0.14725348 -0.18431652
-0.23383945 -0.12482483 -0.18509293
-0.21123181 -0.12461001 -0.18819439
-0.18867242 -0.12439556 -0.19128919
-0.16616024 -0.12418071 -0.19439089
0.19069719 -0.12429402 -0.19275451
0.21319078 -0.12447777 -0.19010293
0.23602322 -0.12492963 -0.1835798
-0.21192169 -0.10281687 -0.17923272
-0.18929197 -0.10262503 -0.18234682
-0.16670977 -0.10243294 -0.1854676
-0.14417669 -0.10224202 -0.18856823
-0.12169167 -0.10205138 -0.19166255
-0.099254034 -0.10186046 -0.19476318
0.10140397 -0.1018768 -0.19449735
0.12380289 -0.1020407 -0.19183564
0.1462424 -0.10220417 -0.18918216
0.16872303 -0.10236777 -0.18652427
0.1912457 -0.1025326 -0.18384767
0.21380901 -0.10269701 -0.18117964
-0.14468266 -0.080405839 -0.17917895
-0.12212567 -0.080239497 -0.18226635
-0.099616461 -0.080073483 -0.18534696
-0.07715448 -0.079907112 -0.1884346
-0.054740485 -0.079741813 -0.19150245
-0.03237363 -0.079576083 -0.1945771
0.034525823 -0.079659186 -0.19303393
0.056874167 -0.079801284 -0.19039619
0.07926324 -0.079943769 -0.18775356
0.10169315 -0.080086373 -0.18510628
0.12416348 -0.080228604 -0.18246734
0.14667527 -0.080371745 -0.1798104
0.16922824 -0.080515228 -0.17714846
-0.077521898 -0.058115013 -0.17650247
-0.055015478 -0.05797223 -0.17959535
-0.03255656 -0.05782897 -0.18269527
-0.010145529 -0.057686754 -0.18577516
0.012218085 -0.057776995 -0.18382084
0.034617174 -0.057899587 -0.18116629
0.057057008 -0.058021821 -0.17852032
-0.41575885 -0.28390664 -0.16479731
-0.39187875 -0.28270227 -0.17457604
0.39375401 -0.28259763 -0.17542505
0.41747257 -0.28373131 -0.1662215
-0.41678151 -0.26218894 -0.15780532
0.41843104 -0.26201579 -0.15930462
-0.3928411 -0.26105437 -0.16763079
0.39465174 -0.26094645 -0.16856515
-0.3938081 -0.23930311 -0.16065252
-0.36996776 -0.23824632 -0.17045891
0.37186915 -0.23819971 -0.17089152
0.39555728 -0.23919606 -0.16164553
-0.3708792 -0.21646181 -0.16349399
-0.34713855 -0.21548229 -0.17328131
0.34912118 -0.21548763 -0.17322755
0.37271833 -0.21641153 -0.16399646
-0.34799474 -0.19366461 -0.1663301
-0.32435349 -0.19276235 -0.17609859
0.32640964 -0.19281203 -0.17555976
0.34991607 -0.19366336 -0.16634357
-0.34906152 -0.17188472 -0.15766907
-0.32536253 -0.17106417 -0.16735995
0.30392289 -0.17033225 -0.17600417
0.32734153 -0.17110208 -0.16691279
0.3509067 -0.17187676 -0.15776443
-0.30288929 -0.14858174 -0.16706181
0.28155124 -0.14794928 -0.17527688
0.30490732 -0.14865065 -0.16616738
-0.28041142 -0.1260947 -0.1667639
-0.25701058 -0.12542653 -0.17640817
0.25916958 -0.12555623 -0.17453563
0.28246039 -0.12618673 -0.16543508
-0.25792778 -0.10360221 -0.16647911
-0.23459993 -0.10300908 -0.17611206
0.23677549 -0.10315097 -0.1738075
0.26000339 -0.10371263 -0.16468859
-0.23547186 -0.081125982 -0.16581488
-0.21264394 -0.080908529 -0.16985047
-0.18994154 -0.080740221 -0.17297113
-0.16728842 -0.080573194 -0.17607152
0.1918225 -0.080658905 -0.17448187
0.21445718 -0.080802165 -0.17182362
0.23756002 -0.081244387 -0.16361606
-0.21357432 -0.058980502 -0.15776443
-0.19077803 -0.058835842 -0.16089749
-0.16802953 -0.05869069 -0.16403723
-0.14532976 -0.058546044 -0.16717017
-0.12267914 -0.058402292 -0.1702832
-0.10007671 -0.05825875 -0.17338943
0.079538003 -0.058144934 -0.17585599
0.10206016 -0.058268137 -0.17318714
0.1246236 -0.058391578 -0.17051291
0.14722781 -0.058514781 -0.16784751
0.16987406 -0.058638759 -0.16516376
0.19256192 -0.058762915 -0.16247511
0.2153085 -0.058898665 -0.159536
-0.12323721 -0.036384471 -0.15820086
0.12508701 -0.036373988 -0.15847337
-0.10054077 -0.036263794 -0.16133285
-0.077892348 -0.036143117 -0.16447163
-0.055292722 -0.036023058 -0.16759026
-0.032740999 -0.035902776 -0.17071569
-0.010237551 -0.035783336 -0.17382097
0.012218085 -0.035857469 -0.17189109
0.034709182 -0.035960548 -0.16921461
0.057241559 -0.036063828 -0.16653323
0.079815023 -0.036166653 -0.16386068
0.1024302 -0.036270209 -0.16116953
-0.032926966 -0.01379519 -0.15863681
-0.010330337 -0.013698772 -0.16176796
0.012218085 -0.013757303 -0.159863
-0.46400046 -0.28633824 -0.14505565
-0.43979961 -0.28511921 -0.154953
0.44134334 -0.28487375 -0.15694606
0.46552464 -0.28615019 -0.14658153
-0.44088122 -0.26332954 -0.14792752
0.44236147 -0.26309198 -0.14998507
-0.44197017 -0.24143684 -0.14085436
-0.41780704 -0.24036571 -0.15079367
0.41939402 -0.24019739 -0.1523546
0.44338447 -0.24120656 -0.14299083
-0.41883951 -0.21843922 -0.14373446
-0.39477775 -0.21744639 -0.15365434
0.3964653 -0.21734115 -0.15470684
0.42036349 -0.21827668 -0.1453582
-0.39575401 -0.19548643 -0.14660907
-0.37179324 -0.19457188 -0.1565094
0.37357163 -0.19452012 -0.15706897
0.39737767 -0.19538236 -0.14773524
-0.37291995 -0.172712 -0.14789999
0.37462148 -0.17265737 -0.14854503
0.39848399 -0.17344186 -0.13928115
-0.35030198 -0.15008005 -0.14759803
-0.32651618 -0.14932784 -0.15736902
0.3284083 -0.14935517 -0.15701449
0.35205686 -0.15006429 -0.14780378
-0.32767776 -0.12744257 -0.14730966
-0.30396622 -0.12676641 -0.15706897
0.3058984 -0.12682217 -0.15626395
0.32948232 -0.12746066 -0.14704859
-0.30505207 -0.10480224 -0.14699364
-0.28141171 -0.10420018 -0.1567688
0.28337571 -0.10427678 -0.15552652
0.30689484 -0.10484452 -0.14630675
-0.28243941 -0.082166754 -0.14649916
-0.25887898 -0.081645019 -0.15618181
0.26086369 -0.081734143 -0.15452921
0.28431377 -0.08222764 -0.14537179
-0.26011789 -0.059673063 -0.14277053
-0.23660006 -0.059224017 -0.15249157
0.23857559 -0.059319533 -0.15042365
0.26198894 -0.05974371 -0.1412406
-0.23773856 -0.03712178 -0.13904643
-0.21451348 -0.036870897 -0.14556432
-0.19162051 -0.036748625 -0.14873719
-0.16877681 -0.036626831 -0.15190303
-0.14598295 -0.036505818 -0.15504849
0.14778554 -0.036477938 -0.15577221
0.17052521 -0.036581524 -0.15307999
0.19330746 -0.036685981 -0.15036881
0.21622506 -0.036842182 -0.14630675
-0.16953115 -0.01437971 -0.1396538
-0.14664084 -0.014281474 -0.14283955
-0.12380053 -0.014184169 -0.14600432
-0.10100868 -0.01408644 -0.14917612
-0.078265876 -0.013988964 -0.15234113
-0.055572268 -0.013892159 -0.15548539
0.034801945 -0.013840437 -0.15716445
0.057427425 -0.013923682 -0.15446103
0.08009465 -0.014007173 -0.15175235
0.1028033 -0.014090337 -0.14905262
0.12555423 -0.014174022 -0.14633405
0.14834726 -0.014257826 -0.1436106
0.1711825 -0.014341824 -0.14088213
-0.078642935 0.0083491355 -0.14009559
-0.055854138 0.0084227398 -0.14328015
-0.033114474 0.0084962025 -0.14645791
-0.01042389 0.0085689723 -0.14961505
0.012218085 0.0085253716 -0.14772153
0.034895476 0.0084627494 -0.14501429
0.057614837 0.0083998218 -0.14228833
0.080376282 0.0083367527 -0.13955724
-0.48910484 -0.28810352 -0.130723
-0.49059817 -0.26633427 -0.12190557
-0.46514609 -0.26447943 -0.1379689
0.46684211 -0.26447314 -0.13802409
-0.46629724 -0.24251518 -0.13084793
0.46816945 -0.24267092 -0.12940311
-0.46745166 -0.22044349 -0.12370646
-0.44306439 -0.21943867 -0.13374758
0.44441435 -0.21921825 -0.13594961
0.46950454 -0.22074115 -0.12073135
-0.44416168 -0.19733289 -0.12662029
-0.41987699 -0.19640717 -0.13664138
0.42133567 -0.19625008 -0.13834202
0.44544709 -0.19712335 -0.12888861
-0.42111468 -0.17438191 -0.12817919
-0.39693588 -0.17354354 -0.1380794
0.42249727 -0.17423126 -0.12995887
0.44666475 -0.17502671 -0.12056363
-0.39835012 -0.15159845 -0.12787306
-0.3742449 -0.15083626 -0.1377753
0.37585604 -0.1507788 -0.13852155
0.39980403 -0.15149677 -0.12919438
-0.37558085 -0.12881032 -0.12756705
-0.35154924 -0.12812421 -0.13747108
0.35321486 -0.12810311 -0.13777542
0.37709734 -0.12874958 -0.12844348
-0.35280856 -0.10601839 -0.12724674
-0.32885051 -0.10540823 -0.13715327
0.3305622 -0.10541601 -0.13702869
0.35438076 -0.10599185 -0.12767816
-0.33003297 -0.083222158 -0.12691259
-0.30615732 -0.08269266 -0.13673842
0.30790916 -0.082723282 -0.13617098
0.33165392 -0.083223023 -0.12689865
-0.30762193 -0.060579322 -0.12314832
-0.28379044 -0.06012433 -0.13299906
0.2855477 -0.060169868 -0.13201392
0.30925432 -0.060598709 -0.12272942
-0.26136813 -0.037499301 -0.12923598
0.23960035 -0.037196137 -0.13711166
0.26312321 -0.037552841 -0.12784529
-0.23888755 -0.01481618 -0.12547767
-0.21546049 -0.01457648 -0.13326228
-0.19247098 -0.014477968 -0.13646162
0.19405919 -0.014425546 -0.13816237
0.21714994 -0.014585815 -0.13295734
0.24063441 -0.014871605 -0.12367868
-0.21641439 0.0079052076 -0.12087107
-0.19332857 0.0079793185 -0.12408316
-0.17029181 0.0080538467 -0.12730253
-0.14730498 0.0081279576 -0.1305145
-0.12436794 0.0082018971 -0.1337198
-0.10148103 0.0082754716 -0.13690424
0.10317993 0.0082736239 -0.13682139
0.12602536 0.0082105547 -0.13409412
0.14891365 0.0081471205 -0.13134778
0.17184451 0.0080836341 -0.12859654
0.19481805 0.0080199763 -0.12584019
-0.10207017 0.030779667 -0.12159801
-0.079114087 0.030828949 -0.12479472
-0.056207057 0.030878153 -0.12799823
-0.033349462 0.030927408 -0.13119519
-0.010541131 0.030976608 -0.13438499
0.012218085 0.03094786 -0.13252735
0.035012659 0.030905891 -0.12979209
0.057849418 0.030863583 -0.12705171
0.080728486 0.030821301 -0.12430644
0.10364998 0.030778993 -0.12155604
-0.51694959 -0.26861444 -0.10215914
0.49258596 -0.26662496 -0.11938846
-0.49210277 -0.24443644 -0.11302114
0.49399731 -0.24469122 -0.11065793
-0.49361399 -0.22240576 -0.1040976
0.49541694 -0.22262818 -0.1018759
-0.46886802 -0.19841141 -0.11494541
0.47084746 -0.19868261 -0.11200881
-0.47052339 -0.17636961 -0.10470545
-0.44545403 -0.17522469 -0.11822641
0.47238788 -0.17659843 -0.10200346
-0.44704664 -0.15313736 -0.10788214
-0.42261752 -0.1523658 -0.11790419
0.42390379 -0.15221927 -0.11980808
0.44848451 -0.15311894 -0.10812187
-0.42413083 -0.13019666 -0.10755754
-0.39977416 -0.12950113 -0.11759591
0.40113124 -0.12940031 -0.11905241
0.42532 -0.13005596 -0.10958767
-0.4012081 -0.10725004 -0.10724735
-0.37692603 -0.10663164 -0.11728764
0.37834886 -0.10657046 -0.11828232
0.40246946 -0.10715274 -0.10882664
-0.37828246 -0.084299348 -0.10692275
-0.35407493 -0.083758287 -0.11696529
0.35555306 -0.083728082 -0.11752582
0.37960726 -0.084237792 -0.10806549
-0.35576436 -0.06149853 -0.10324883
-0.33161271 -0.061037295 -0.1132319
0.33311167 -0.061030872 -0.11337233
0.35711831 -0.061465181 -0.10397029
-0.30910009 -0.03826157 -0.1094327
-0.28515387 -0.037878893 -0.11937439
0.2867929 -0.037911169 -0.11853456
0.31061319 -0.0382725 -0.10915077
-0.28652999 -0.015427515 -0.10562384
-0.26262993 -0.01512105 -0.11557686
0.26426789 -0.015159495 -0.11432767
0.28804946 -0.015448757 -0.10493159
-0.2639021 0.007464841 -0.10180509
-0.24004713 0.0076954365 -0.11178374
0.21808325 0.0078732148 -0.11948645
0.24167794 0.0076569915 -0.11012292
-0.21765336 0.030520607 -0.10477591
-0.19439535 0.030580875 -0.10868561
-0.17123885 0.030630749 -0.11192441
-0.14813261 0.030680452 -0.11515594
-0.12507641 0.030730184 -0.11838043
0.12661402 0.030736573 -0.11880052
0.14962071 0.030694153 -0.11603987
0.17267019 0.03065148 -0.11327398
0.19576256 0.030608781 -0.11050296
0.21924448 0.030489113 -0.10272539
-0.12581846 0.053488813 -0.10231495
-0.10268718 0.053513918 -0.10556734
-0.079606198 0.053538967 -0.10881269
-0.056575675 0.053563625 -0.11203694
-0.033594672 0.053588446 -0.11526811
-0.010663471 0.053613439 -0.11849248
0.012218085 0.05359932 -0.11667085
0.035134945 0.053578027 -0.11390615
0.058094449 0.053556729 -0.11113656
0.081097052 0.053535324 -0.10834742
0.10414187 0.05351403 -0.1055814
0.12723002 0.053492568 -0.10279608
-0.010787136 0.076494925 -0.10242808
0.51865679 -0.26880413 -0.10051596
-0.5185411 -0.24657583 -0.093170404
0.52015418 -0.24673715 -0.091674209
-0.52014476 -0.22440568 -0.084113002
0.52166045 -0.22453919 -0.082779646
-0.49513677 -0.20024401 -0.095106244
0.49684504 -0.20043474 -0.093042016
-0.49684086 -0.17803457 -0.085044026
0.49843448 -0.17818987 -0.083209872
-0.47260237 -0.15437198 -0.091845036
0.47432747 -0.15455973 -0.089405298
-0.44865254 -0.1308969 -0.097451329
0.45031956 -0.13102689 -0.095575452
-0.45046136 -0.10857687 -0.085702658
-0.42565471 -0.10787257 -0.097138882
0.42674401 -0.10773883 -0.099310756
0.4521701 -0.10874809 -0.082923055
-0.42719135 -0.08539281 -0.086632609
-0.40265402 -0.084844179 -0.096812129
0.40381691 -0.084751688 -0.098530412
0.42817986 -0.085268013 -0.088948369
-0.40455472 -0.062429301 -0.083095193
-0.38007659 -0.061961927 -0.093213081
0.38127878 -0.061902843 -0.094494343
0.40559119 -0.062342562 -0.084972501
-0.35747468 -0.039033987 -0.089362621
-0.33320707 -0.038646773 -0.099424124
0.33458284 -0.038635306 -0.099722028
0.35870451 -0.039000586 -0.090233326
-0.33481464 -0.01604706 -0.085502386
-0.31059197 -0.015736558 -0.095589638
0.31198311 -0.015740514 -0.095461607
0.3360675 -0.016033418 -0.085946083
-0.28791744 0.0072328746 -0.091759562
0.26542303 0.0074391514 -0.10068607
0.28931761 0.0072199926 -0.091203451
-0.26547822 0.030212235 -0.084743261
-0.24148583 0.030366868 -0.094793081
0.24297416 0.030343752 -0.093284369
0.26685309 0.030197695 -0.083797574
-0.21902472 0.053370632 -0.086961627
-0.19551668 0.053413276 -0.092500687
-0.17223343 0.053438548 -0.095774531
-0.1490002 0.053463653 -0.099055409
0.15036128 0.053471051 -0.10000563
0.17353581 0.05344959 -0.09720993
0.19675371 0.053428013 -0.09440887
0.22046649 0.053356342 -0.085087061
-0.14987801 0.076494925 -0.08276546
-0.080104522 0.076494925 -0.092629075
-0.056948278 0.076494925 -0.095902443
-0.033842534 0.076494925 -0.099168897
0.12785324 0.076494873 -0.086604118
-0.12656923 0.076494984 -0.086060405
-0.10331146 0.076495044 -0.089348435
0.012218085 0.076494984 -0.1006434
0.035258554 0.076494984 -0.097849011
0.058342129 0.076494984 -0.095049262
0.08146926 0.076494984 -0.092230082
0.10463952 0.076495044 -0.089419842
0.15111057 0.076494984 -0.083783269
-0.034093097 0.099650495 -0.082894325
-0.010912142 0.099625222 -0.08618927
0.012218085 0.099638611 -0.084442377
-0.54365396 -0.27092507 -0.082148433
0.54506087 -0.27101126 -0.081402302
-0.54533696 -0.24874541 -0.073038816
0.54664642 -0.24880922 -0.072446942
-0.54703289 -0.22643256 -0.063859224
-0.52175814 -0.20210138 -0.075000525
0.52317578 -0.20220923 -0.073832512
-0.52350718 -0.17972142 -0.065122008
0.52481067 -0.17980137 -0.064178586
-0.49904767 -0.15589857 -0.072013617
0.5004968 -0.15601867 -0.07045269
-0.47469932 -0.13218391 -0.078873634
0.47628346 -0.13233447 -0.076700687
-0.4768168 -0.10980407 -0.065774918
0.47825611 -0.10992027 -0.063888073
-0.45246887 -0.086145543 -0.072663307
0.45403847 -0.086281098 -0.070148945
-0.42919654 -0.06289918 -0.072923303
0.43044436 -0.062913857 -0.07260561
-0.40650499 -0.039817072 -0.069020391
-0.38190609 -0.039424002 -0.07923305
0.38298154 -0.039368607 -0.08066988
0.40741187 -0.039738536 -0.071059942
-0.38375273 -0.016674653 -0.065122008
-0.35920101 -0.016359806 -0.075346589
0.36030537 -0.016328365 -0.076369524
0.38470003 -0.016625501 -0.066717386
-0.33643726 0.0067638457 -0.071449995
-0.31209469 0.0069993734 -0.081646323
0.31336567 0.0069993734 -0.081646323
0.3375659 0.0067775175 -0.072042227
-0.31395063 0.029899407 -0.064425349
-0.28963351 0.030056201 -0.074611306
0.29088497 0.030050371 -0.074236393
0.31506869 0.029902603 -0.06462872
-0.26714605 0.053214625 -0.066688418
-0.24300444 0.053292852 -0.076859117
0.2443406 0.053282652 -0.075533986
0.26836693 0.053208686 -0.065919995
-0.22041252 0.076494925 -0.068933725
-0.19665025 0.076494925 -0.076139092
0.19783625 0.076494925 -0.076830506
-0.17323795 0.076495044 -0.079463005
0.17441161 0.076494984 -0.080957174
0.22170404 0.076494984 -0.067224741
-0.15076542 0.099778317 -0.066297054
-0.1273282 0.09975265 -0.069628239
-0.10394254 0.099727213 -0.072952151
-0.080607846 0.099701434 -0.076283216
-0.057324942 0.099675938 -0.079592466
0.035383504 0.099660359 -0.081617594
0.058592722 0.099682271 -0.078773022
0.081845529 0.099704064 -0.07593739
0.10514215 0.099725977 -0.073096514
0.12848271 0.099747829 -0.070250034
0.15186736 0.099769801 -0.067398548
0.17529619 0.099791877 -0.064541578
-0.011070295 0.12307167 -0.065644264
0.012218085 0.1230979 -0.063946128
-0.57071537 -0.27326509 -0.061882615
0.57180196 -0.27324492 -0.062057257
-0.5724951 -0.25094444 -0.052634954
0.57347786 -0.25090662 -0.052986026
0.5482415 -0.22647482 -0.063437939
-0.54873925 -0.20398369 -0.054623485
0.54984349 -0.2040053 -0.054389596
-0.55052936 -0.18143094 -0.044934392
0.55152285 -0.1814335 -0.044904709
-0.52584505 -0.15744546 -0.051917911
0.5269987 -0.15749624 -0.05125916
-0.50127369 -0.13356987 -0.058869481
0.50257665 -0.13365883 -0.05758667
-0.50352168 -0.11104681 -0.045595765
-0.47894812 -0.087227143 -0.052591085
0.48024783 -0.087315403 -0.050951481
-0.45506418 -0.063689776 -0.055806398
0.45645463 -0.063790254 -0.053629637
-0.43134159 -0.040231302 -0.058257222
0.43281054 -0.040336289 -0.055529118
-0.40847155 -0.016991623 -0.054827929
0.40924948 -0.01692424 -0.057017803
-0.38561678 0.0062887967 -0.050878167
-0.36094353 0.0065271482 -0.06119895
0.36192107 0.0065542981 -0.062376976
0.38643453 0.0063293353 -0.052634954
-0.33843255 0.029741608 -0.054170489
0.33940855 0.029753488 -0.054944873
0.36390293 0.029603589 -0.045213699
-0.31592292 0.053056322 -0.046125054
-0.2914511 0.053135835 -0.056448817
0.29254565 0.053134322 -0.056259036
0.31688076 0.053059347 -0.046521544
-0.24454138 0.076494925 -0.058709145
0.24572332 0.076494925 -0.057572126
-0.26883405 0.076494984 -0.048415542
0.26989764 0.076495044 -0.047843099
-0.22181708 0.099898458 -0.050687671
-0.19779523 0.099829756 -0.059612513
-0.17425437 0.099803925 -0.06295836
0.19894236 0.09983553 -0.0588696
0.22295637 0.099910334 -0.049148798
-0.15188883 0.12338268 -0.045448899
-0.12828833 0.1233304 -0.048840761
-0.10474088 0.12327862 -0.052210689
-0.081245109 0.12322656 -0.055587411
-0.057801839 0.12317489 -0.058942318
-0.0344101 0.12312306 -0.062304258
0.035541695 0.12314212 -0.061068058
0.058909472 0.12318633 -0.058199048
0.082321554 0.12323054 -0.055324674
0.10577851 0.12327521 -0.052430034
0.12927967 0.12331958 -0.049544692
0.15282552 0.12336414 -0.046653748
-0.59814686 -0.2756387 -0.041327119
0.59889191 -0.27550942 -0.042446971
-0.60002005 -0.25317168 -0.031968117
0.60066032 -0.25303274 -0.033257842
-0.57428581 -0.22848701 -0.043330431
0.57516384 -0.22843391 -0.043860435
-0.57609022 -0.20589301 -0.033954144
0.57685995 -0.20582598 -0.03467977
-0.55300158 -0.15901324 -0.031552911
0.55383962 -0.15899271 -0.03181982
-0.52820605 -0.13497537 -0.038583159
0.52920544 -0.13499993 -0.038228631
0.5046767 -0.11110837 -0.044595957
-0.50578439 -0.088323988 -0.032235146
0.50679487 -0.088363968 -0.031493545
-0.48167375 -0.064617045 -0.035730481
0.48279405 -0.064677931 -0.034413218
-0.457775 -0.041003264 -0.038199186
0.45898387 -0.041074969 -0.036337018
-0.43391487 -0.017427787 -0.040663838
0.4352037 -0.017501839 -0.038258314
-0.41045871 0.0060488731 -0.040486932
0.4114534 0.006041646 -0.040176988
-0.38789746 0.029422589 -0.033450603
-0.36308092 0.029582463 -0.043845654
0.38855672 0.029452682 -0.03540504
-0.34056008 0.052976411 -0.035745144
0.34137252 0.052983917 -0.036721349
0.36602247 0.052907988 -0.026857972
-0.29329219 0.076494925 -0.038051486
0.29422757 0.076494925 -0.038051486
0.31871459 0.076494925 -0.028196573
-0.31791759 0.076494984 -0.02761662
-0.27054119 0.10005827 -0.029935002
-0.24609566 0.099977918 -0.040354013
0.24712485 0.099985652 -0.039365649
0.2714493 0.10006142 -0.0295192
-0.22359882 0.12365833 -0.027542233
-0.19929415 0.12349766 -0.037977695
-0.17554113 0.1234348 -0.04206419
0.17641695 0.12340885 -0.043742537
0.20034367 0.12352625 -0.03611517
0.224544 0.12367845 -0.026232719
-0.12927206 0.14724 -0.027542233
-0.10555828 0.14716077 -0.030974269
-0.081897564 0.14708164 -0.034398437
-0.05829009 0.14700308 -0.037800312
-0.034734882 0.14692441 -0.04120934
-0.011232325 0.14684623 -0.044595957
0.012218085 0.14688456 -0.042932987
0.035703648 0.14695169 -0.040029645
0.059234001 0.14701876 -0.037120461
0.082809612 0.14708646 -0.034191132
0.10643004 0.14715393 -0.031270981
0.13009563 0.14722145 -0.028345227
-0.6259501 -0.27804291 -0.020505786
0.62633497 -0.27780324 -0.022581458
-0.62792832 -0.25543281 -0.010988355
0.62819821 -0.25518668 -0.013272047
-0.60191077 -0.23056942 -0.022521734
0.60243952 -0.2304202 -0.024013281
-0.60381323 -0.20782718 -0.013016701
0.60422945 -0.20767051 -0.014712453
-0.57791448 -0.18316332 -0.024475217
0.5785774 -0.18308648 -0.025384068
-0.58052742 -0.16060326 -0.010898113
0.58102876 -0.1605095 -0.012115479
-0.55549836 -0.13639867 -0.018038511
0.55617899 -0.13635933 -0.01860702
-0.53058249 -0.11230529 -0.02516067
0.53143376 -0.11231073 -0.025071263
-0.53298002 -0.089434899 -0.011619687
0.5336839 -0.089426018 -0.01178503
-0.50864023 -0.065557294 -0.015372157
0.50946641 -0.06557592 -0.014967322
-0.4845604 -0.04178571 -0.017873883
0.48548803 -0.041822582 -0.01691556
-0.46051747 -0.018052235 -0.020386338
0.4615421 -0.018099584 -0.018846393
-0.43651602 0.0056422129 -0.02287972
0.43762213 0.0055942982 -0.020804644
-0.41306591 0.029241141 -0.021670818
0.4142096 0.029201917 -0.019115567
-0.39033985 0.05281508 -0.014787436
-0.36536396 0.052896053 -0.025309682
0.39094841 0.05282427 -0.0159868
-0.34271187 0.076494873 -0.017110229
0.36816597 0.076494925 -0.0082947016
0.34336022 0.076495044 -0.018278003
-0.31993666 0.10022028 -0.0088820457
-0.29515427 0.10013897 -0.019444466
0.29593122 0.10013779 -0.019609094
0.32057217 0.10021445 -0.0096344948
-0.24807021 0.12382016 -0.017035365
0.24890147 0.12383164 -0.016286373
-0.20092577 0.14754294 -0.014427304
-0.17685868 0.1473988 -0.020670295
-0.15303829 0.14731912 -0.024117589
0.15380724 0.14728943 -0.02539897
0.17756368 0.14735734 -0.02246213
0.20178096 0.14758104 -0.012776375
-0.10638775 0.17137963 -0.009423852
-0.082559645 0.17127271 -0.012896538
-0.058785204 0.17116608 -0.016361356
-0.035064448 0.17106006 -0.019803405
-0.011396627 0.17095381 -0.023252726
0.012218085 0.1710034 -0.021641135
0.03586787 0.171094 -0.018696785
0.059563298 0.1711854 -0.015732169
0.083304167 0.17127642 -0.012776494
0.1070907 0.17136753 -0.0098152161
-0.65413886 -0.28048187 0.00061690807
0.65413797 -0.28012732 -0.0024549961
-0.65621865 -0.25772345 0.010266185
0.65658247 -0.25761998 0.0093060732
-0.6299156 -0.23268047 -0.0014266968
0.63007283 -0.2324324 -0.0039057732
-0.63191855 -0.20978794 0.0082097054
0.63195586 -0.20953789 0.0055023432
-0.60572743 -0.18494347 -0.0034526587
0.60602742 -0.18478113 -0.0053701401
-0.60842437 -0.16221365 0.010022283
0.60856754 -0.16204491 0.0078291893
-0.58315772 -0.13784045 0.0027694702
0.58349872 -0.13773528 0.0012532473
-0.55801177 -0.11358162 -0.0044342279
0.55853868 -0.11352959 -0.0052796602
-0.56054753 -0.090561666 0.0092909336
0.56091887 -0.090500943 0.008163929
-0.53596854 -0.066510223 0.0052591562
0.53648293 -0.066486336 0.0047427416
-0.51170492 -0.042578466 0.0027240515
0.51233369 -0.042580262 0.0027694702
-0.48747858 -0.018685311 0.00017774105
0.4882153 -0.018704534 0.00079882145
-0.46329215 0.0051683635 -0.0023642778
0.46412537 0.0051411241 -0.0011845827
-0.43968034 0.028926663 -0.001245141
0.44056311 0.028900996 0.00042009354
-0.41626757 0.052690119 0.0014352798
0.41718084 0.052673586 0.0035889149
-0.39281619 0.076494925 0.0041354895
-0.36767682 0.076494984 -0.006531477
0.39374873 0.076494984 0.0067489147
-0.34489009 0.10030214 0.0017534494
0.34537369 0.10029178 0.00040495396
0.37033737 0.10036951 0.010510087
-0.29752162 0.12414725 0.0042111874
-0.27271146 0.12398317 -0.0064411163
0.27341628 0.12398564 -0.0062903166
0.29809237 0.12414064 0.0037862062
-0.25009194 0.14803404 0.0068401098
-0.22542417 0.14778765 -0.0038300753
0.22617044 0.14781237 -0.0027574301
0.25072041 0.14804564 0.0073421001
-0.20258273 0.17196202 0.0094889402
-0.17819478 0.1717014 0.0010259151
-0.15420479 0.1715937 -0.0024701357
-0.13026896 0.17148632 -0.0059585571
0.13092364 0.17145944 -0.0068330765
0.15480205 0.17155087 -0.0038604736
0.17881629 0.17169389 0.00078356266
0.20323944 0.17200568 0.010906339
-0.059360381 0.19579244 0.0085445642
-0.035446335 0.195656 0.0050010681
-0.011587025 0.19552049 0.0014806986
0.012218085 0.19558068 0.0030425787
0.036058482 0.19569695 0.0060648918
0.059945501 0.19581357 0.0090928078
-0.65831155 -0.23482239 0.019975781
0.65947354 -0.23514655 0.023215413
-0.63393396 -0.18675208 0.017906308
0.6338535 -0.18650457 0.014983416
-0.61119735 -0.13930267 0.023876667
0.61117685 -0.13913026 0.021387458
-0.5858115 -0.11487456 0.016559124
0.58599579 -0.11476428 0.014769316
0.588512 -0.091590725 0.0283885
-0.56366587 -0.067475967 0.0261693
0.56384796 -0.067408584 0.024707198
-0.53921306 -0.043381393 0.023584366
0.53952551 -0.043347605 0.022708416
-0.51480067 -0.019326657 0.021003723
0.51523185 -0.019317299 0.020696759
-0.49042878 0.0046882927 0.018427372
0.49096951 0.0046822429 0.018687844
-0.46665135 0.028607979 0.019454479
0.46725395 0.028596379 0.020205736
-0.44310516 0.052530523 0.022170663
0.44374943 0.052520942 0.023415327
0.42019436 0.076494925 0.026616216
-0.41951784 0.076494984 0.024891853
-0.39589125 0.10050147 0.02763319
-0.37001631 0.10038458 0.012462735
0.39659077 0.10051823 0.029823422
-0.34766138 0.12447876 0.025753736
-0.32250375 0.12431233 0.014937401
0.32293025 0.12429687 0.013928771
0.34792981 0.12445383 0.024122596
-0.29994574 0.14853278 0.028434873
-0.27493227 0.14828256 0.01760006
0.27543148 0.14828044 0.017508268
0.30030382 0.14851636 0.027725577
-0.22727802 0.17229331 0.02025187
0.22782306 0.17231938 0.021095872
-0.17976598 0.19648507 0.026538968
-0.15556404 0.19633937 0.022754431
-0.1314307 0.19620231 0.01919353
-0.1073525 0.19606552 0.015640736
-0.083328761 0.19592856 0.012081027
0.083879277 0.1959303 0.012127042
0.10785948 0.19604674 0.015151501
0.13188706 0.19616392 0.018197536
0.15596183 0.19628137 0.021249294
0.18029884 0.19655259 0.028296232
-0.011801288 0.22061113 0.02931428
-0.68470907 -0.28398454 0.030950785
0.68592995 -0.28442213 0.034739733
-0.68798661 -0.26153481 0.045632243
0.6889742 -0.26188311 0.048863173
-0.66110021 -0.21207002 0.032913804
0.66238737 -0.21246925 0.037234783
-0.66426533 -0.18926641 0.047598243
-0.63669974 -0.16384494 0.031213403
0.63701528 -0.16381168 0.030780792
-0.63985872 -0.14086404 0.04641211
-0.61399508 -0.11618602 0.037855268
0.61380911 -0.1160142 0.035065055
-0.58849204 -0.09170378 0.03048718
-0.59173995 -0.068454988 0.047364116
0.59156531 -0.068341859 0.044915199
-0.56709754 -0.044195838 0.044743896
0.56706733 -0.044124447 0.042890429
-0.5424962 -0.019977078 0.042127728
0.54259837 -0.019937798 0.040852547
-0.51793325 0.0042016134 0.039500833
0.51816118 0.004217416 0.038817525
-0.49398366 0.028285317 0.040417433
0.49428868 0.028287951 0.040246367
-0.47030509 0.052368693 0.043186069
0.47066066 0.052366391 0.043497443
-0.44658232 0.076494925 0.045944095
0.44698134 0.076494873 0.046739817
-0.42281994 0.1006637 0.048722625
-0.37299487 0.12464654 0.036645532
0.37362397 0.1246824 0.038972855
-0.32513422 0.14878483 0.039345503
0.32534176 0.1487543 0.038025975
0.35054564 0.14899367 0.048394561
-0.27718943 0.17296419 0.042034388
-0.25214666 0.17262763 0.031105042
0.25256753 0.17263475 0.031336904
0.27747673 0.17295265 0.041661263
-0.22945766 0.19733284 0.048566341
-0.20452437 0.19690736 0.037514091
0.20494875 0.19695157 0.038662195
0.22976525 0.19735447 0.04912889
-0.13273039 0.22144344 0.047332764
-0.10843308 0.2212764 0.043715477
-0.084192201 0.22111031 0.040122271
-0.060006116 0.22094336 0.036506057
-0.03587608 0.22077751 0.032913685
0.012218085 0.22068095 0.030827165
0.03627279 0.22082317 0.033903956
0.060374953 0.22096556 0.036986589
0.084525086 0.22110897 0.040091038
0.10872225 0.22125125 0.043170571
0.13296765 0.22139442 0.046271682
-0.69129163 -0.23887148 0.060436726
0.69204605 -0.23913944 0.063114882
0.66533083 -0.18958795 0.051396608
-0.66843677 -0.16659608 0.066950917
0.64101934 -0.1411671 0.050786257
-0.64422292 -0.11800616 0.067409396
-0.61681813 -0.092860974 0.051959991
0.61703348 -0.0928533 0.051819086
-0.5953604 -0.0450207 0.066176534
0.59499478 -0.044916749 0.063477635
-0.57056743 -0.020636022 0.063524842
0.5703218 -0.020566642 0.06127131
-0.54581594 0.0037078708 0.060877562
0.54570723 0.0037464797 0.059209466
-0.52168959 0.02795795 0.061680555
0.52167392 0.027975321 0.060547113
-0.49787471 0.05220478 0.064487219
0.49791878 0.052209936 0.063824534
-0.474015 0.076494925 0.067282915
0.47411641 0.076494873 0.067124844
0.42325303 0.10067345 0.049988627
-0.39982191 0.12497021 0.057669044
0.40021795 0.12499487 0.059272408
-0.37671193 0.14941928 0.066824555
-0.35049769 0.14903811 0.05031693
-0.32780468 0.1736442 0.064124346
-0.30240816 0.17330299 0.053040624
0.30255115 0.17327257 0.052053928
0.32779256 0.17359483 0.062515974
-0.25456911 0.1977618 0.059713006
0.25474706 0.19775945 0.059649944
-0.18167827 0.22191718 0.057590365
-0.15708299 0.2216101 0.050942779
0.15726107 0.22153789 0.049378872
0.18196124 0.2219891 0.059146643
-0.060663257 0.24655133 0.064960718
-0.0363134 0.24635512 0.061318517
-0.012019563 0.24615848 0.057669044
0.012218085 0.24623564 0.059099436
0.036490981 0.24640521 0.062247992
0.060812205 0.24657431 0.065387011
-0.69463152 -0.21599454 0.075397491
0.6951493 -0.21618983 0.077512383
0.66919512 -0.16682994 0.06998837
0.64507186 -0.11822934 0.071034074
-0.62077218 -0.069579624 0.071715474
0.62163842 -0.069765948 0.075747252
-0.59924316 -0.021338895 0.086351871
-0.5740791 0.0032077357 0.082532406
0.5736146 0.0032693222 0.079869032
-0.54977441 0.027626097 0.083234787
0.5494166 0.027658768 0.081112385
-0.52582181 0.052038573 0.086079955
0.52553529 0.052051183 0.08443296
-0.45011529 0.10082828 0.070099235
0.45026201 0.10083069 0.070416093
-0.42704079 0.12530155 0.079183936
0.42716128 0.12531187 0.079853058
0.37706462 0.14946434 0.068769574
-0.35346901 0.17401153 0.076049209
0.35377121 0.17408146 0.07832408
-0.30532756 0.19862792 0.082213163
-0.27985805 0.1981934 0.070922971
0.27989689 0.19816707 0.070241928
0.30521634 0.19857749 0.080905199
-0.23188332 0.22295576 0.080076337
-0.206692 0.22243503 0.068801165
0.20686041 0.22247672 0.06970346
0.23192811 0.22296828 0.0803473
-0.1586297 0.24734277 0.079645991
-0.13405308 0.24714461 0.075969934
-0.10953277 0.24694613 0.072286248
-0.085069932 0.24674892 0.068627119
0.085181907 0.24674377 0.068532348
0.10960071 0.24691448 0.071699619
0.13406791 0.24708465 0.074857473
0.15867008 0.24735558 0.079885006
-0.72202343 -0.26615104 0.088465214
0.72220665 -0.26625812 0.089458823
-0.7255367 -0.24319878 0.10367787
0.72546762 -0.24323761 0.10406625
-0.6979925 -0.19289535 0.090453148
0.69827765 -0.19302851 0.092025995
-0.67302227 -0.14376092 0.088225126
0.6734553 -0.14391753 0.090485334
-0.64864594 -0.094840206 0.088689566
0.64917696 -0.094994046 0.091544271
-0.62640947 -0.046318069 0.099881291
0.62687051 -0.046435468 0.102934
0.59997857 -0.021465197 0.090453267
0.55353147 0.051889684 0.10540962
-0.50182354 0.076494925 0.088913798
0.5016064 0.076494925 0.087776423
-0.4777849 0.10099505 0.091769099
0.47762468 0.10099 0.091111064
-0.45463657 0.1256375 0.10101116
0.45445669 0.12563263 0.10068834
-0.40385419 0.14991947 0.088481307
0.40393597 0.14994204 0.089458823
-0.38052922 0.17468172 0.097817063
0.38057137 0.17472246 0.099139214
-0.33097965 0.19906551 0.093584299
0.33085668 0.19904825 0.093134403
-0.2828106 0.22400934 0.1028856
-0.25725502 0.22348034 0.091431975
0.25716522 0.2234633 0.091062784
0.28257486 0.22396225 0.10186732
-0.20890234 0.24847752 0.10070431
-0.18362999 0.24786204 0.089282513
0.18365602 0.24793282 0.09059763
0.20881034 0.24851316 0.1013664
-0.086136766 0.27320457 0.10327363
-0.061460394 0.27297091 0.099477768
-0.036842354 0.27273667 0.09567523
-0.012283054 0.27250412 0.091897488
0.012218085 0.27258918 0.093279004
0.036754873 0.27278918 0.096528411
0.061342038 0.27299079 0.099800587
0.085979745 0.27319267 0.10307944
-0.72908366 -0.22002569 0.11903667
0.72876233 -0.22000614 0.1188246
-0.70220369 -0.16985729 0.10931671
0.70219004 -0.1699236 0.11017716
-0.67766994 -0.12061589 0.10978758
0.67777103 -0.12070594 0.11124945
-0.65381157 -0.071511708 0.1135428
0.6539678 -0.071601145 0.11548066
-0.60471416 0.0024630055 0.11478019
0.6050483 0.002391167 0.11789417
-0.57841039 0.027275868 0.10597646
0.57894343 0.027214505 0.10996616
-0.55415386 0.05187007 0.10797012
0.52945822 0.076494925 0.10870016
-0.53001559 0.076494984 0.11084318
-0.50583655 0.10116416 0.11373794
0.50534791 0.1011515 0.11207855
-0.48261243 0.12597804 0.12312472
0.48211318 0.12595764 0.12179911
-0.4313691 0.15042609 0.11042106
0.43116367 0.1504266 0.11043715
-0.4079662 0.17536178 0.11990261
0.4077259 0.17537189 0.12022948
-0.35770443 0.19980252 0.11272919
0.35765451 0.19986504 0.11435676
-0.3085492 0.22454134 0.11440563
0.30815759 0.22446468 0.11274529
-0.25999695 0.24972275 0.12381268
-0.2343581 0.24909833 0.11222494
0.23413666 0.24909833 0.11222494
0.25963461 0.24968645 0.12314117
-0.1606169 0.27402064 0.11652374
-0.13566682 0.27367479 0.11090827
-0.11087192 0.27343887 0.10707819
0.11066813 0.273395 0.1063652
0.13540675 0.27359679 0.10964131
0.16043772 0.27412111 0.11815512
-0.75700283 -0.27089506 0.13248432
0.75630605 -0.27074611 0.13110149
-0.7326535 -0.19662464 0.13449466
0.73208761 -0.19655907 0.13371992
-0.70708168 -0.146736 0.13116741
0.70672148 -0.14673832 0.13120019
-0.68238109 -0.097154804 0.13164461
0.68214697 -0.097190343 0.13230312
-0.65982229 -0.047956929 0.14246178
-0.63215142 -0.022638783 0.12856972
0.63219321 -0.02270104 0.13059151
-0.58523995 0.051600814 0.14294231
-0.55937612 0.076494984 0.13746524
0.55955124 0.076494984 0.14095461
-0.53427809 0.10133564 0.13601232
0.53392154 0.10133794 0.13630939
0.51013803 0.12628697 0.14319098
-0.45926875 0.1509403 0.13268197
0.45875069 0.15091698 0.13167751
-0.43578357 0.17605093 0.14227939
0.43524405 0.17603049 0.14161706
-0.38513613 0.20066811 0.13522041
0.38481197 0.20069294 0.13586378
-0.33494848 0.22528064 0.13041067
0.33477315 0.2253665 0.13227034
-0.28582349 0.25035256 0.13550091
0.28530833 0.25027966 0.1341486
-0.21164507 0.2754845 0.14029264
-0.18603629 0.27474934 0.1283561
0.18574379 0.27481005 0.12934208
0.21122488 0.27550176 0.14057386
-0.08731284 0.30043954 0.14146793
-0.062339973 0.30016899 0.13756442
-0.037427332 0.29989922 0.13367045
-0.012574845 0.29963142 0.12980235
0.012218085 0.29972029 0.13108516
0.037046503 0.29995072 0.13441217
0.061926249 0.3001816 0.1377461
0.08685787 0.30041432 0.14110363
-0.76073462 -0.24764654 0.14812219
0.75977242 -0.24744529 0.14611137
0.76326734 -0.22392482 0.16124511
-0.736889 -0.17320731 0.15283477
0.73603481 -0.1730971 0.15140116
-0.71202672 -0.1232967 0.15331841
0.71131635 -0.12324753 0.15251791
-0.68773663 -0.073495351 0.15649092
0.68711531 -0.073482193 0.15620685
0.65955049 -0.047992066 0.14337337
-0.63800418 0.001469247 0.15781212
0.63760895 0.001448065 0.15873241
-0.61118847 0.026622474 0.14842141
0.61103266 0.02659367 0.15028548
0.58525485 0.051580362 0.14561319
-0.51098138 0.12632345 0.14556348
-0.48755664 0.15146104 0.15523815
0.48670623 0.1514141 0.15320158
-0.41295791 0.20154673 0.15804625
0.41233429 0.2015312 0.15764475
-0.36237204 0.226331 0.15315163
0.36193082 0.22637168 0.15403616
-0.31193832 0.25104076 0.1482718
0.31163463 0.25115457 0.15038526
-0.23744319 0.27622402 0.15230131
0.23688436 0.27619824 0.15188468
-0.16290309 0.30165067 0.15895009
-0.1374402 0.30098248 0.1493032
-0.11234618 0.30071074 0.14538085
0.11184089 0.30064613 0.14445138
0.13691027 0.30094084 0.14870405
0.1623753 0.30173072 0.16010547
-0.79296434 -0.27577245 0.17773938
0.79131424 -0.27535492 0.17386603
-0.76449478 -0.22416803 0.16387892
-0.7682876 -0.20045874 0.17977285
0.76679903 -0.20018482 0.17653763
-0.74207383 -0.14979255 0.17528582
0.74085391 -0.14963335 0.17298794
-0.71704406 -0.099533863 0.17579329
0.71596879 -0.099442802 0.17410278
-0.66594952 -0.023974314 0.1719414
0.66523117 -0.02396854 0.17175567
-0.59222305 0.076494925 0.1807394
-0.56604546 0.10163689 0.17513359
0.56570923 0.10165365 0.17731619
-0.5416404 0.12684572 0.17948461
-0.46399137 0.17674956 0.16497052
0.46312889 0.17669737 0.16327465
0.4402329 0.20238155 0.17973888
-0.39018759 0.22739717 0.17623293
0.38945779 0.22739083 0.17609751
-0.33935526 0.2522817 0.17130029
0.33878881 0.25234064 0.17239726
-0.289619 0.27771968 0.1765883
-0.26343375 0.27696905 0.16439962
0.26272538 0.27690083 0.16329145
0.28903252 0.27781445 0.17812884
-0.18866956 0.30249357 0.1711148
0.18802114 0.30252746 0.17160416
-0.038092263 0.32804662 0.17685914
-0.012905338 0.32772911 0.1727345
0.012218085 0.32782146 0.17393374
0.03737795 0.32809359 0.17746842
-0.79692155 -0.25221792 0.19380331
0.79499209 -0.2517651 0.18927801
-0.77253062 -0.17664984 0.1975528
0.77076274 -0.17635322 0.19370079
-0.7473349 -0.1260525 0.19806695
0.74573374 -0.12585422 0.19484699
0.72111571 -0.075411774 0.19798124
-0.69413894 -0.049640171 0.18619418
0.69306159 -0.049587272 0.184816
-0.64484864 0.025951263 0.19200885
0.64394063 0.025957204 0.19163299
-0.61849058 0.051266611 0.18636441
0.61778957 0.051262796 0.18685818
0.59171146 0.076494984 0.18208015
0.54132628 0.12688628 0.18211412
-0.51718122 0.15212345 0.1839149
0.51687938 0.15219407 0.18697762
-0.49265304 0.17746922 0.18834031
0.49235725 0.17757683 0.19183815
-0.44117382 0.20243719 0.18118048
0.41735736 0.22842208 0.1984272
-0.36716482 0.25354022 0.19465876
0.36631435 0.25354302 0.19471002
-0.24078292 0.30419585 0.19568551
-0.21462849 0.30334163 0.18335402
0.21384797 0.30332845 0.18316734
0.23985733 0.3041341 0.19479549
-0.1395746 0.32948267 0.19551444
-0.11403644 0.32900396 0.18929505
-0.088657565 0.32868415 0.1851393
-0.063342921 0.32836491 0.18099391
0.062592357 0.32836637 0.18101084
0.087861471 0.32863966 0.18456101
0.11318549 0.32891351 0.18811893
0.13876408 0.32958698 0.19686735
-0.80090922 -0.22842777 0.20999157
0.80065703 -0.22870716 0.21301639
0.75067937 -0.10175439 0.2170006
-0.72258335 -0.07553304 0.20060647
-0.70067441 -0.02534683 0.21651518
0.69911718 -0.025267869 0.21395111
-0.67219669 0.00044886768 0.201998
0.671009 0.00048063695 0.20062363
-0.46979952 0.20334175 0.20468116
0.46910021 0.20340663 0.20636892
-0.41840401 0.22847918 0.19966221
-0.3953734 0.25481609 0.21833658
0.39421889 0.25476199 0.2173301
-0.31710181 0.27915329 0.19986832
0.31630719 0.279221 0.20096707
-0.26713511 0.30505657 0.20811021
0.2661888 0.30506852 0.20828271
-0.165567 0.33047363 0.20838618
0.1646356 0.33052418 0.20904207
-0.77804172 -0.15293539 0.22064686
0.77706182 -0.1529583 0.22097695
-0.75266987 -0.10197888 0.22116816
-0.72940445 -0.051371045 0.23116088
0.72744262 -0.051223718 0.22733462
-0.67942709 0.025261953 0.23678529
0.67770261 0.025303755 0.23406708
-0.65264982 0.050923157 0.23098588
0.6511609 0.05093728 0.22915041
-0.6259625 0.076495044 0.22518933
0.62469757 0.076494984 0.22424853
-0.59937125 0.10197783 0.21943057
0.59831524 0.10197738 0.21937847
-0.57468897 0.12753037 0.22395241
0.57367527 0.12753654 0.22435308
-0.5499422 0.15315314 0.22850418
0.5489611 0.15317246 0.2293427
-0.52512729 0.17884645 0.23306847
0.52417243 0.17888585 0.23434734
-0.44702569 0.22957611 0.22341251
0.44598022 0.2295875 0.2236563
-0.34505409 0.28065047 0.22417879
0.34397081 0.28065047 0.22417879
-0.29459232 0.30660266 0.23042619
0.29355577 0.30668032 0.23154569
-0.21816745 0.33247894 0.23443508
-0.1917638 0.33147234 0.22135937
0.19069944 0.33146834 0.22130728
0.21695776 0.33241954 0.23366404
-0.064575881 0.35807273 0.23438251
-0.038912412 0.35771257 0.230129
-0.013314369 0.35735187 0.2258693
0.012218085 0.35744196 0.22693312
0.037786696 0.35774967 0.23056626
0.06341137 0.35805804 0.23420715
-0.83750904 -0.28399536 0.25403929
-0.80834907 -0.20557487 0.24019349
0.80941534 -0.20638144 0.24971771
-0.75945109 -0.077838905 0.25053167
-0.70733202 -0.00059980899 0.24740231
0.7052778 -0.00051172078 0.24359143
-0.50189584 0.20502338 0.24837399
0.5008409 0.20507985 0.24984157
-0.42401454 0.25612012 0.24253452
0.42264032 0.25605467 0.24131954
-0.37342244 0.28216991 0.24885118
0.37202549 0.28209919 0.24770248
-0.32263651 0.30831727 0.2551744
0.32131138 0.30831498 0.25513899
-0.24477902 0.33349219 0.24759662
0.24353997 0.33351937 0.24794996
-0.090305708 0.35843533 0.23866427
0.089092687 0.35836849 0.23787379
-0.14232528 0.35982445 0.25506806
-0.11610189 0.3587988 0.24295712
0.11488438 0.3588272 0.24329185
0.14103223 0.35988614 0.25579572
0.83790308 -0.28474224 0.26096964
0.788831 -0.13060173 0.27193892
-0.78847677 -0.13013595 0.26437414
0.76030833 -0.078282379 0.26013267
-0.73844779 -0.027045198 0.27167022
-0.66063136 0.076494984 0.27086377
0.65854466 0.076494984 0.26751757
-0.63362378 0.1023285 0.26499891
0.63178134 0.10231001 0.26259077
-0.608652 0.12823421 0.26966405
0.60687011 0.12820388 0.26769626
-0.58360761 0.15421128 0.27432454
0.58188301 0.15417649 0.27281737
-0.47877842 0.23154643 0.26607013
0.47758314 0.23161665 0.26758897
-0.40221405 0.28371119 0.27387583
-0.27252787 0.33535492 0.27179563
0.27116221 0.33543897 0.27288914
-0.16880056 0.36095279 0.26839375
0.16737776 0.36095437 0.26841164
-0.81865793 -0.18315378 0.28204238
0.81837469 -0.18355566 0.28726172
0.73885387 -0.0273102 0.28027618
-0.68774462 0.050570346 0.27680326
0.68711716 0.050537229 0.28110504
-0.55849665 0.18026133 0.27901578
0.55681956 0.1802285 0.2779541
-0.45564488 0.25844175 0.28561652
0.45429215 0.25852534 0.28717124
0.4010157 0.28385362 0.27619231
-0.35110369 0.31005883 0.28031218
0.349464 0.30997306 0.27906978
-0.19548759 0.36209029 0.28182602
0.19392267 0.36203074 0.28112292
-0.013834533 0.38912642 0.29344082
-0.84817374 -0.2624473 0.29602063
0.84721428 -0.26272222 0.29876816
-0.71909511 0.024258215 0.30197632
0.71878457 0.024156734 0.30857575
-0.53520411 0.20683363 0.29540253
0.533427 0.20679727 0.29445779
-0.38040346 0.31206784 0.30930853
0.37893367 0.31224048 0.31180251
-0.30086344 0.33739606 0.29831314
0.29919252 0.33738077 0.29811275
-0.2224002 0.36325061 0.29552984
0.22088529 0.3634125 0.29743934
-0.092427418 0.39043146 0.30756855
-0.066157967 0.38999915 0.30288887
-0.039959926 0.38956302 0.29816735
0.012218085 0.38921198 0.29436684
0.038308911 0.38958481 0.2984041
0.06446176 0.38995707 0.30243254
0.090677284 0.39033169 0.30648887
-0.80240029 -0.10745116 0.32271993
0.80096376 -0.1075457 0.32447541
-0.77675831 -0.055001117 0.32547402
0.77546549 -0.055099405 0.32802868
-0.64578956 0.12913561 0.32821405
-0.61823928 0.15530217 0.32155657
0.61794943 0.15550333 0.33027184
-0.59280139 0.18171573 0.32625115
0.59074432 0.18168148 0.32514095
-0.51193273 0.23374009 0.31356514
0.51003504 0.23370016 0.31270206
-0.4344525 0.28669286 0.32229495
0.4327004 0.28673607 0.32299674
-0.32964945 0.33947006 0.32525194
0.32764807 0.33935317 0.32373595
-0.25053927 0.36552805 0.32242441
0.24874961 0.36558902 0.32314479
-0.11902496 0.39147824 0.31890082
0.11723751 0.39155334 0.3197118
-0.85911429 -0.24035326 0.33908784
0.85673779 -0.24019995 0.33742893
-0.83305037 -0.16123685 0.34046817
0.83083141 -0.16116697 0.33946085
-0.75539285 -0.0029130727 0.34757447
0.75367075 -0.0029464141 0.34901798
-0.67346615 0.1028673 0.3349905
0.67259836 0.10291017 0.34054291
0.64523983 0.12924679 0.33543694
-0.56946391 0.20869535 0.34377456
0.56798637 0.20882073 0.34703112
-0.48890236 0.26111817 0.33528817
0.48682719 0.26106521 0.33430231
-0.27912882 0.36784184 0.34974945
0.27703995 0.36779901 0.34924316
-0.17313296 0.39423957 0.34879291
-0.14595832 0.39284775 0.33372605
0.14403248 0.39284948 0.33374441
0.17104885 0.39415643 0.34789312
-0.70650429 0.076494925 0.36706066
0.70460188 0.076494925 0.36846352
-0.54610276 0.2360152 0.36282039
-0.41279227 0.31556326 0.3597604
0.41064787 0.31555277 0.35960937
-0.87041444 -0.21771583 0.38357043
0.86647642 -0.21715638 0.37696302
-0.81676632 -0.083953656 0.38292003
0.81348604 -0.083758704 0.37869823
0.54525942 0.23640737 0.37131107
-0.46776664 0.28982151 0.37309802
0.46528083 0.28970087 0.37114
-0.3606571 0.34283435 0.36895692
0.35857332 0.34292194 0.37009549
-0.30857664 0.37055689 0.38181102
0.30650023 0.3707771 0.38441277
-0.20103003 0.39636719 0.37182403
0.19886243 0.39645681 0.37279356
-0.84807396 -0.13857812 0.40145636
0.84388119 -0.1381278 0.39414525
-0.79485965 -0.03111539 0.40385497
0.79124963 -0.030957706 0.39873266
-0.74026668 0.04962052 0.40020025
0.73725867 0.049641535 0.39745927
-0.52557158 0.2647213 0.40215242
-0.22980602 0.39919376 0.40242314
0.22732681 0.399158 0.40203631
-0.068455271 0.42607948 0.40236509
-0.041477345 0.4255152 0.39672673
-0.014586366 0.42495281 0.39110613
0.012218085 0.42502195 0.39179838
0.039065354 0.42550942 0.39666891
0.065987825 0.42599818 0.40155303
0.87644702 -0.19357654 0.41743863
0.52402216 0.26505437 0.40833235
-0.44615421 0.31916261 0.41171265
0.44351956 0.31910199 0.41083765
-0.39374483 0.34713688 0.42484808
0.39090365 0.34698462 0.4228704
-0.095812939 0.42759573 0.41751659
0.093247667 0.42762318 0.41778982
-0.88201153 -0.19448379 0.42922223
-0.77469128 0.022225305 0.43402088
0.77048868 0.022332728 0.42704344
-0.3415364 0.37582576 0.44403362
0.33866379 0.37573689 0.4429841
-0.25981084 0.40292969 0.44286549
-0.12352875 0.42943671 0.43591225
0.12078946 0.42935178 0.43506479
0.72318864 0.10384005 0.46132874
