ply
format ascii 1.0
comment PCL generated
element vertex 1344
property float x
property float y
property float z
element camera 0
property float view_px
property float view_py
property float view_pz
property float x_axisx
property float x_axisy
property float x_axisz
property float y_axisx
property float y_axisy
property float y_axisz
property float z_axisx
property float z_axisy
property float z_axisz
property float focal
property float scalex
property float scaley
property float centerx
property float centery
property int viewportx
property int viewporty
property float k1
property float k2
end_header
-0.26695251 0.14625806 -0.1766001
0.26830444 0.14625996 -0.17658484
-0.31477141 0.14771506 -0.16477036
-0.29079679 0.14696226 -0.17088163
0.29210484 0.14696422 -0.17086613
0.31603408 0.14771882 -0.16473925
-0.33784544 0.17075062 -0.1672734
-0.3138375 0.16994399 -0.17343605
-0.28992537 0.16913885 -0.17958915
0.29130045 0.16914082 -0.17957377
0.31516531 0.16994616 -0.17342055
0.3391276 0.1707547 -0.16724253
-0.36088145 0.19374803 -0.16977239
-0.33684644 0.19289559 -0.17592478
0.33819354 0.19289771 -0.1759094
0.36218306 0.19375232 -0.16974139
-0.38394594 0.21678203 -0.17175925
-0.35982138 0.21581373 -0.17837894
0.36118925 0.21581835 -0.17834818
0.38526312 0.21678653 -0.17172825
-0.40753692 0.24040437 -0.16972613
-0.38302752 0.23901081 -0.17877734
0.3843987 0.23901543 -0.17874658
0.40884072 0.2404114 -0.16967976
-0.43123865 0.26414564 -0.16714978
-0.40627852 0.26226112 -0.17880797
0.40765214 0.26226845 -0.17876196
0.43252295 0.26415321 -0.16710341
-0.42996192 0.28601223 -0.17587876
0.4313134 0.2860198 -0.17583275
-0.45402306 0.31019074 -0.17078912
0.45533797 0.31020164 -0.17072761
-0.47816786 0.33445394 -0.16566706
-0.45287341 0.33212787 -0.17825615
0.45424578 0.33213931 -0.178195
0.47944146 0.33446234 -0.16562068
-0.15212066 0.032299459 -0.14824283
-0.12852144 0.032099575 -0.15060151
-0.10498206 0.031951785 -0.15234864
-0.081469655 0.031803966 -0.15409386
-0.057984158 0.031656265 -0.15583694
-0.034525536 0.031508923 -0.15757811
-0.011093728 0.03136158 -0.15931726
0.0123113 0.03136158 -0.15931726
0.035729717 0.031508923 -0.15757811
0.05917494 0.031656265 -0.15583694
0.082647026 0.031803966 -0.15409386
0.10614647 0.031952977 -0.15233302
0.12967251 0.032100946 -0.15058589
0.15325442 0.032301992 -0.1482116
-0.19899406 0.055646807 -0.14978969
-0.17518638 0.055152804 -0.15513682
-0.15148127 0.054693431 -0.16010857
-0.12800214 0.054533154 -0.16184461
-0.10454981 0.054372907 -0.16357911
0.10580019 0.054372907 -0.16357911
0.12923916 0.054533154 -0.16184461
0.15270492 0.054693431 -0.16010857
0.17637344 0.055155724 -0.15510571
0.20013924 0.055648029 -0.14977407
-0.24583183 0.078984499 -0.15119457
-0.22194228 0.078435838 -0.15667653
-0.19814812 0.077903062 -0.1619997
0.1993873 0.077904791 -0.16198432
0.22314057 0.078437477 -0.15666127
0.24698806 0.078985989 -0.15117896
-0.2928794 0.10257316 -0.15007079
-0.26886767 0.10194844 -0.15586817
-0.24494706 0.10132596 -0.16164339
0.2461849 0.1013293 -0.16161251
0.27006131 0.10195181 -0.15583694
0.29402727 0.10257486 -0.15005505
-0.33996168 0.12617922 -0.14894617
-0.31585157 0.12550941 -0.15474784
-0.29183298 0.12484205 -0.16052711
0.29306275 0.12484559 -0.16049647
0.31703556 0.12551111 -0.15473211
0.34110114 0.12618098 -0.14893055
-0.36316192 0.14937952 -0.15125692
-0.33885196 0.14848053 -0.1585567
0.34006536 0.14848238 -0.15854108
0.36432287 0.14938518 -0.15121019
-0.38663718 0.17285466 -0.15119445
-0.36195329 0.17156243 -0.16106987
0.36318794 0.17156634 -0.16103876
0.38779607 0.17285883 -0.15116334
-0.41011122 0.19632888 -0.15114772
-0.38521707 0.19481865 -0.16204631
0.38646138 0.19482514 -0.1619997
0.41127205 0.19633529 -0.15110099
-0.43392399 0.22014168 -0.14878988
-0.40880296 0.21841583 -0.16058934
0.41003644 0.21842265 -0.16054273
0.43506706 0.22014847 -0.14874291
-0.43257728 0.24220994 -0.15799749
0.43379116 0.24221724 -0.15795088
-0.45639214 0.26604494 -0.15540135
0.45758647 0.26605234 -0.15535462
-0.45517838 0.28814495 -0.16328514
0.45643559 0.28815544 -0.16322303
-0.48060828 0.29029822 -0.15057039
0.48176578 0.29030609 -0.15052342
-0.47938505 0.31243098 -0.15813732
0.48060074 0.31243914 -0.15809083
-0.50367391 0.33679909 -0.15297222
0.50485021 0.33680785 -0.15292549
-0.058587395 -0.013397723 -0.1297158
-0.034929425 -0.013510525 -0.13134468
-0.011296535 -0.013623312 -0.13297188
0.0123113 -0.013622046 -0.13295615
0.035931662 -0.013510525 -0.13134468
0.0595771 -0.013397723 -0.1297158
-0.17672169 0.01019755 -0.13020635
-0.15282622 0.0098170638 -0.13514948
-0.12909329 0.0095805824 -0.13822079
-0.1054635 0.0094558299 -0.13984072
-0.081859194 0.0093324631 -0.14144325
-0.058279239 0.0092080832 -0.14305973
-0.034724444 0.0090849251 -0.1446588
-0.011194151 0.0089608133 -0.14627182
0.0123113 0.0089608133 -0.14627182
0.035829172 0.0090849251 -0.1446588
0.059371904 0.0092093647 -0.14304399
0.082939178 0.0093324631 -0.14144325
0.10653163 0.0094571114 -0.13982511
0.13014844 0.0095805824 -0.13822079
0.1538592 0.0098193884 -0.13511789
0.17771603 0.010198712 -0.13019049
-0.22383514 0.033667386 -0.13208747
-0.19984573 0.033209294 -0.13749671
-0.17594174 0.032754332 -0.1428715
0.17703354 0.032755494 -0.14285576
0.20089629 0.033210546 -0.13748109
0.2248442 0.033668607 -0.13207173
-0.27091855 0.057136148 -0.13366663
-0.24685849 0.0566369 -0.13907039
-0.2228843 0.056140929 -0.14443934
0.22398841 0.0561423 -0.14442384
0.24792263 0.05663988 -0.13903892
0.27194002 0.057137579 -0.13365066
-0.31812015 0.080735445 -0.13369799
-0.29393148 0.080149084 -0.1395576
-0.26983657 0.079566538 -0.1453793
0.2709482 0.079568088 -0.14536369
0.29499987 0.080152184 -0.13952637
0.31914207 0.080736995 -0.13368237
-0.34126738 0.10391304 -0.13763845
-0.31698111 0.10319865 -0.14426708
0.31808597 0.10320207 -0.14423561
0.34232149 0.10391635 -0.1376071
-0.38950393 0.12844917 -0.12928855
-0.3645274 0.12719265 -0.14017081
0.36560303 0.12719804 -0.14012372
0.39049619 0.12845472 -0.12924111
-0.41314891 0.15209299 -0.12922537
-0.38806543 0.15073133 -0.14028084
0.38914227 0.1507372 -0.14023352
0.41414103 0.15209904 -0.12917781
-0.43679479 0.1757381 -0.12916195
-0.41162571 0.17429125 -0.1402179
0.41270036 0.17429528 -0.14018655
0.43778685 0.17574424 -0.12911439
-0.43527889 0.19793907 -0.13952625
0.43635067 0.19794551 -0.13947916
-0.45924091 0.22188079 -0.1368984
0.46029279 0.22188777 -0.13685131
-0.483244 0.24586365 -0.13426614
-0.45781219 0.24402985 -0.14617801
0.4589355 0.24403688 -0.14613104
0.48427606 0.24587098 -0.13421881
-0.50754821 0.27013585 -0.1300956
-0.48183513 0.26805267 -0.14298129
0.48293421 0.26806036 -0.14293408
0.5085485 0.27014348 -0.13004804
-0.50625211 0.29246974 -0.13774872
0.50731128 0.29247767 -0.13770151
-0.53074723 0.31696475 -0.13252985
-0.50495982 0.31468958 -0.14537954
0.50607765 0.3146981 -0.14533234
0.53176659 0.31697321 -0.13248229
-0.13033527 -0.035898432 -0.11133075
-0.10649616 -0.036001906 -0.11301124
-0.082684457 -0.036102295 -0.11464214
-0.058897898 -0.03620252 -0.11627102
-0.0351362 -0.036303669 -0.1179142
-0.011399936 -0.036403924 -0.11953962
0.0123113 -0.036403924 -0.11953962
0.036035053 -0.036303669 -0.1179142
0.059784099 -0.03620252 -0.11627102
0.08355812 -0.036102295 -0.11464214
0.10735777 -0.036000729 -0.11299539
0.13118406 -0.035897359 -0.11131465
-0.10597818 -0.013172626 -0.12646866
-0.082270026 -0.013285682 -0.12810099
0.083247297 -0.013285682 -0.12810099
0.10694289 -0.013172626 -0.12646866
-0.17760842 -0.012434036 -0.11580801
-0.15359958 -0.012779653 -0.12079751
-0.12971082 -0.013060465 -0.12485063
0.13066308 -0.013060465 -0.12485063
0.15452136 -0.01277861 -0.12078166
0.17849191 -0.012433097 -0.11579204
-0.24896763 0.011432469 -0.11416256
-0.22479372 0.011011302 -0.11963522
-0.20070651 0.010592684 -0.12507284
0.20166142 0.01059401 -0.12505686
0.22570692 0.011012465 -0.11961925
0.24983883 0.01143375 -0.11414647
-0.29631141 0.035048634 -0.11577618
-0.27206767 0.034586996 -0.12122715
-0.24790813 0.034125626 -0.12667489
0.24887685 0.034128398 -0.12664306
0.27299339 0.034588337 -0.12121105
0.29719678 0.035051227 -0.11574423
-0.29506215 0.057635516 -0.12825942
0.29604211 0.057637006 -0.12824368
-0.34422007 0.059131354 -0.11206746
-0.319363 0.058198512 -0.12216568
0.32029939 0.058203012 -0.12211788
0.3450774 0.059134334 -0.11203516
-0.36767173 0.082642466 -0.1146419
-0.34273669 0.081614494 -0.12491405
0.34369457 0.081619263 -0.12486625
0.36855093 0.082647115 -0.11459398
-0.39108637 0.10611603 -0.11719656
-0.36609399 0.10501087 -0.12745154
0.36706996 0.10501441 -0.12741983
0.39198363 0.10611954 -0.11716473
-0.41468304 0.12973481 -0.11815345
0.41559002 0.12974033 -0.11810553
-0.43841428 0.15346465 -0.11808956
0.43932113 0.15347067 -0.11804175
-0.46214652 0.17719546 -0.11802578
0.46305326 0.17720169 -0.11797786
-0.46068066 0.199599 -0.12754655
0.46166068 0.19960567 -0.12749898
-0.48627958 0.20126981 -0.11548853
0.48716715 0.20127636 -0.11544073
-0.51047403 0.22540268 -0.11281931
-0.48475587 0.22363371 -0.12491405
0.48571593 0.22364068 -0.12486649
0.51134145 0.22540969 -0.11277151
-0.50887775 0.24771443 -0.12224495
0.50981766 0.24772182 -0.12219739
-0.53347898 0.27223641 -0.11710072
0.53437966 0.27224413 -0.11705303
-0.55818921 0.29686511 -0.11179507
-0.53210968 0.29465681 -0.12483454
0.53306985 0.29466474 -0.12478709
0.55904949 0.29687321 -0.11174703
-0.55675542 0.31926191 -0.11955559
0.55767542 0.31927043 -0.11950779
-0.13103765 -0.058853298 -0.096124053
-0.10705349 -0.058983013 -0.098531723
-0.083134316 -0.059063956 -0.10003245
-0.059238657 -0.059143797 -0.10151577
-0.035365604 -0.059224516 -0.10301375
-0.011515757 -0.059304357 -0.10449421
0.0123113 -0.059304357 -0.10449421
0.036149878 -0.059223726 -0.10299766
0.060011268 -0.059143797 -0.10151577
0.083895884 -0.059063122 -0.10001636
0.10780313 -0.058983013 -0.098531723
0.13177 -0.058851555 -0.096091628
-0.20270428 -0.034968808 -0.096237183
-0.17850348 -0.035278872 -0.10127413
-0.15438023 -0.035589203 -0.10631061
0.15519048 -0.03558816 -0.10629463
0.17927508 -0.035277963 -0.1012578
0.20343725 -0.034967899 -0.09622097
-0.27442393 -0.011042297 -0.095719576
-0.2501027 -0.011391357 -0.10075819
-0.22585905 -0.011740461 -0.10579634
-0.20169517 -0.012087256 -0.11080241
0.20254026 -0.012086242 -0.11078632
0.22666571 -0.011739299 -0.10578048
0.2508707 -0.011390194 -0.10074198
0.27515471 -0.011040077 -0.095687389
-0.29766592 0.012350351 -0.1022408
-0.27322611 0.011854216 -0.10868645
0.27405664 0.011856496 -0.1086545
0.29844713 0.012352839 -0.10220861
-0.34584272 0.036552489 -0.098014832
-0.32094193 0.035748094 -0.10751522
0.32176557 0.035752058 -0.10746694
0.34659189 0.036555171 -0.097982526
-0.36926463 0.060088187 -0.10170913
0.37004247 0.060091138 -0.10167694
-0.41804495 0.084719092 -0.093890667
-0.39277393 0.083677202 -0.10430121
0.39357394 0.083682179 -0.10425293
0.41876528 0.084723949 -0.093842149
-0.44168854 0.10843238 -0.095703483
-0.41624615 0.10722873 -0.10687268
0.41706419 0.10723233 -0.10684073
0.44242314 0.10843769 -0.095655084
-0.46559572 0.13233653 -0.095622659
-0.44004783 0.13103181 -0.10692108
0.44086653 0.13103551 -0.10688877
0.46632773 0.13234028 -0.095590234
-0.48950151 0.15623984 -0.095558047
-0.46386361 0.1548461 -0.1068728
0.46468455 0.15485212 -0.10682452
0.49023327 0.15624383 -0.095525742
-0.51369894 0.18036872 -0.093777418
-0.48781261 0.17876831 -0.10600531
0.48862475 0.1787726 -0.10597312
0.51441979 0.18037495 -0.093728781
-0.51208019 0.20295367 -0.10333562
0.51287454 0.20296046 -0.10328758
-0.53639245 0.22718322 -0.10064542
0.5371666 0.22719032 -0.1005969
-0.56107253 0.25172615 -0.096188664
-0.53485233 0.24970084 -0.10934389
0.53569335 0.24970815 -0.10929585
0.56181556 0.2517361 -0.096123934
-0.55962729 0.27435255 -0.10401154
0.56042761 0.27436024 -0.10396326
-0.5844878 0.29908949 -0.098660827
0.58525032 0.2991004 -0.098596096
-0.13181566 -0.081966832 -0.07927978
-0.10766376 -0.082123697 -0.082676291
-0.08362256 -0.082192943 -0.084176183
-0.059604488 -0.082262188 -0.085674882
-0.03560926 -0.08233203 -0.087188125
-0.011637468 -0.082401216 -0.088683724
0.0123113 -0.082401216 -0.088683724
0.03627158 -0.08233203 -0.087188125
0.060255162 -0.082262188 -0.085674882
0.084261701 -0.082192943 -0.084176183
0.10829135 -0.082123697 -0.082676291
0.13241772 -0.081966147 -0.07926333
-0.22811945 -0.057792217 -0.076432824
-0.20372294 -0.058067158 -0.081534266
-0.179405 -0.058341935 -0.086634994
-0.15517436 -0.058607981 -0.091573358
0.15587193 -0.058606341 -0.091540813
0.18006481 -0.058340192 -0.08660233
0.20434275 -0.058066249 -0.081517816
0.22870009 -0.057791367 -0.076416373
-0.2759003 -0.033952847 -0.079737425
-0.25134405 -0.034344375 -0.086097836
-0.2269839 -0.034657627 -0.09118402
0.22767921 -0.034655556 -0.091151714
0.25199929 -0.034343481 -0.086081624
0.27650806 -0.033950552 -0.079704642
-0.32414532 -0.0098002702 -0.077791572
-0.29915118 -0.010465756 -0.087399483
0.29981816 -0.01046373 -0.087366939
0.32473856 -0.0097979009 -0.07775867
-0.34756112 0.01382117 -0.083132863
-0.32253596 0.013082907 -0.092724323
0.32324576 0.013086557 -0.092675686
0.34819576 0.013823658 -0.083100319
-0.39619175 0.03823185 -0.078184009
-0.37089497 0.037360519 -0.088472486
0.37157097 0.037363291 -0.088439941
0.39679083 0.038235873 -0.078135014
-0.41985899 0.062019736 -0.080799222
-0.39447567 0.061050028 -0.091297626
0.39517564 0.061054468 -0.091248751
0.42047855 0.062024415 -0.080750346
-0.44348657 0.085768014 -0.083410144
0.44412661 0.085772842 -0.083361149
-0.4673354 0.10965902 -0.08432281
0.46798286 0.1096642 -0.084273934
-0.49133089 0.1336506 -0.08424139
0.49197561 0.13365442 -0.084208965
-0.51532769 0.15764371 -0.08415997
0.51597458 0.15764973 -0.084111094
-0.53979069 0.18198168 -0.08145237
0.54041713 0.18198803 -0.081403375
-0.56429625 0.20636189 -0.078740239
-0.53808492 0.20465115 -0.091086626
0.5387854 0.20465791 -0.091037869
0.56490213 0.20636865 -0.078691125
-0.56252819 0.22898754 -0.088309884
0.56320775 0.22899473 -0.088261127
-0.58752006 0.25377125 -0.082904577
0.58815837 0.25377887 -0.082855582
-0.61259896 0.2786414 -0.077480555
-0.58600169 0.27648914 -0.090794444
0.58670068 0.27649689 -0.090745926
0.61319911 0.27865207 -0.077415109
-0.13260138 -0.10533319 -0.062268257
-0.10828029 -0.10550217 -0.066657901
-0.084115319 -0.10556041 -0.068173409
-0.059973702 -0.10561871 -0.069687247
-0.035855412 -0.10567696 -0.071199656
-0.0117603 -0.10573573 -0.072727203
0.0123113 -0.10573573 -0.072727203
0.036394656 -0.10567696 -0.071199656
0.0605013 -0.10561871 -0.069687247
0.084631272 -0.10556041 -0.068173409
0.10878459 -0.10550217 -0.066657901
0.13307251 -0.1053325 -0.062251687
-0.22932312 -0.08111313 -0.060796857
-0.20483811 -0.081327498 -0.065437913
-0.18042542 -0.081541225 -0.070065498
-0.1560847 -0.081754312 -0.074679613
0.15665148 -0.081753522 -0.074663043
0.18095681 -0.081540376 -0.070049167
0.20533401 -0.081326649 -0.065421581
0.22978342 -0.081112325 -0.060780168
-0.27746826 -0.057055786 -0.062764049
-0.2525959 -0.057516426 -0.071314692
0.25313857 -0.057514727 -0.07128191
0.2779454 -0.057053834 -0.062730789
-0.32582539 -0.032872662 -0.062202215
-0.3007921 -0.033414707 -0.071002483
0.30133286 -0.033412784 -0.07096982
0.32629871 -0.032870755 -0.062169194
-0.3745994 -0.0084564388 -0.058396339
-0.34929422 -0.0091303587 -0.068123937
0.34981513 -0.0091270357 -0.068074465
0.37504584 -0.008453086 -0.05834651
-0.39807358 0.015309244 -0.063804269
-0.37273929 0.01456289 -0.073498368
0.37330005 0.014565378 -0.073465824
0.39856201 0.015312955 -0.063754797
-0.42168835 0.039128304 -0.067596912
0.42220634 0.039132386 -0.067547679
-0.47114348 0.063979089 -0.05958879
-0.44541433 0.062996149 -0.070230007
0.44595298 0.063000739 -0.070180535
0.47160062 0.063983679 -0.05953896
-0.49502739 0.087972999 -0.061375618
-0.46910051 0.08682403 -0.072858572
0.46965969 0.086828828 -0.072809339
0.49549866 0.087977916 -0.061326027
-0.49317369 0.11089632 -0.072842121
0.49373066 0.11089978 -0.0728091
-0.51920038 0.11214095 -0.061292887
0.51966864 0.11214459 -0.061259747
-0.54364413 0.13648582 -0.059688091
-0.5172556 0.13497445 -0.072776437
0.51781493 0.13498026 -0.072727084
0.54410595 0.13649347 -0.059621811
-0.54150707 0.15917119 -0.07175827
0.54205889 0.15917727 -0.071708918
-0.56609946 0.18361372 -0.068979859
0.56663609 0.18362457 -0.068897486
-0.59123087 0.20845661 -0.063622713
0.59172392 0.20846575 -0.063556671
-0.58904624 0.23093811 -0.074974537
0.58962655 0.23094758 -0.074908853
-0.61460018 0.25614586 -0.067481518
0.61512667 0.25615853 -0.067399383
-0.6405592 0.28169441 -0.058594942
0.64101791 0.28170782 -0.058512449
-0.1579354 -0.12880985 -0.04033494
-0.1334158 -0.12894243 -0.044635653
-0.10896797 -0.12907034 -0.048791528
-0.084649034 -0.12913346 -0.050840378
-0.060377829 -0.12917489 -0.052188158
-0.036127388 -0.12921646 -0.053534746
-0.011897556 -0.12925842 -0.054896832
0.0123113 -0.12925842 -0.054896832
0.036530644 -0.12921646 -0.053534746
0.06077072 -0.12917489 -0.052188158
0.085031942 -0.12913288 -0.050823808
0.10933524 -0.12906986 -0.048774838
0.13375118 -0.12894189 -0.044618964
0.15823857 -0.1288089 -0.040301204
-0.23068818 -0.10459402 -0.043064117
-0.20602837 -0.10479384 -0.048258185
-0.1814803 -0.10497408 -0.052936435
-0.1570041 -0.10515422 -0.057617664
0.15743954 -0.10515353 -0.057601094
0.18187983 -0.10497339 -0.052919865
0.20639205 -0.10479331 -0.048241377
0.23101315 -0.10459264 -0.04303062
-0.27905336 -0.0804113 -0.045604706
-0.25402409 -0.080819875 -0.054448605
0.25443694 -0.08081834 -0.054415345
0.27939841 -0.080409825 -0.045571446
-0.32767534 -0.056100458 -0.045036912
-0.30250025 -0.056579813 -0.053933501
0.30290964 -0.056578025 -0.053900361
0.32801655 -0.056098506 -0.045003414
-0.37647754 -0.0316993 -0.043147564
-0.35104409 -0.032304212 -0.052969813
0.3514466 -0.032302126 -0.052936435
0.37680471 -0.031697229 -0.043114185
-0.40006444 -0.0077772439 -0.048591614
0.40043378 -0.0077750236 -0.048558116
-0.44931921 0.016869694 -0.043532252
-0.4235678 0.016061172 -0.054033279
0.42397925 0.016063809 -0.05400002
0.44965011 0.016872346 -0.043498993
-0.44735849 0.040030777 -0.056937933
0.44779485 0.040035069 -0.056888103
-0.47324505 0.04096216 -0.04593873
0.47359964 0.040967911 -0.045871973
-0.49731508 0.065121233 -0.047224045
0.49768004 0.065127462 -0.047157288
-0.52177238 0.089501172 -0.046105742
0.52212924 0.089507937 -0.046038985
-0.54640985 0.11399734 -0.044067502
0.54675436 0.11400637 -0.043983698
-0.57124931 0.13863173 -0.041105509
0.57157165 0.1386413 -0.041021705
-0.56866449 0.16122347 -0.05509603
0.56909144 0.1612314 -0.05502975
-0.59390873 0.18613583 -0.049708009
0.59429789 0.18614674 -0.049624681
-0.61949068 0.21130759 -0.043047309
0.61982608 0.21131685 -0.042980433
-0.61703593 0.23381373 -0.055312037
0.61746877 0.2338258 -0.055228829
-0.643103 0.25939834 -0.046356201
0.64346766 0.2594111 -0.046272635
-0.13433158 -0.15277228 -0.024808288
-0.10972913 -0.15286946 -0.029016614
-0.085228615 -0.15293881 -0.032018065
-0.060811363 -0.15297098 -0.033415556
-0.036415905 -0.15300289 -0.034795046
-0.01204182 -0.15303436 -0.036156535
0.0123113 -0.15303436 -0.036156535
0.036674902 -0.15300289 -0.034795046
0.061060004 -0.15297072 -0.033398747
0.085466243 -0.15293881 -0.032018065
0.10994416 -0.15286909 -0.028999686
0.13451435 -0.15277191 -0.02479136
-0.23219126 -0.12829277 -0.02353847
-0.20723291 -0.12851852 -0.030872107
-0.18254781 -0.12866421 -0.035601974
0.18281393 -0.12866363 -0.035585284
0.20746273 -0.12851804 -0.03085506
0.23236594 -0.12829171 -0.023504734
-0.2807698 -0.10397669 -0.027023554
-0.25566554 -0.10428612 -0.03506422
0.2559292 -0.1042848 -0.035030484
0.28097188 -0.10397531 -0.026989818
-0.32954746 -0.079582781 -0.027665615
-0.30422881 -0.07999824 -0.036660671
0.30450529 -0.079996914 -0.036627054
0.32975498 -0.079581246 -0.027631998
-0.37845311 -0.055134386 -0.027108192
-0.35299131 -0.055619135 -0.036106229
0.35326403 -0.055617392 -0.036072731
0.37865683 -0.055132434 -0.027074337
-0.40207028 -0.031090647 -0.033263922
0.40232167 -0.031088591 -0.033230305
-0.4518747 -0.0062162876 -0.026059866
-0.4256866 -0.0070948452 -0.038742185
0.42598039 -0.0070924163 -0.038708568
0.45207354 -0.0062127262 -0.026009321
-0.47593877 0.018031299 -0.028442383
0.47615874 0.018036485 -0.02837503
-0.50014126 0.042333692 -0.029742122
0.50037163 0.042339504 -0.029674649
-0.52444375 0.066681713 -0.030332446
0.52467924 0.066688001 -0.030264854
-0.5492062 0.091285706 -0.028273821
0.54942638 0.091292471 -0.02820611
-0.57400399 0.11592355 -0.026195288
0.57420874 0.11593074 -0.026127577
-0.59661376 0.16361833 -0.035652518
0.5968917 0.16362646 -0.035585284
-0.62206256 0.18868896 -0.030197382
0.62229908 0.18869802 -0.03012991
-0.64566326 0.23692542 -0.034037948
0.64593327 0.2369377 -0.033954024
-0.13525896 -0.17690362 -0.0047299862
-0.11049988 -0.17696932 -0.0089914799
-0.085814647 -0.1770307 -0.012986183
-0.061250888 -0.17705227 -0.014383674
-0.0367084 -0.17707413 -0.015796661
-0.012187812 -0.17709561 -0.017191529
0.0123113 -0.17709561 -0.017191529
0.036821283 -0.17707376 -0.015779734
0.06135276 -0.17705227 -0.014383674
0.085906155 -0.17703053 -0.012969136
0.11056077 -0.17696907 -0.0089744329
0.13528717 -0.17690346 -0.0047129393
-0.20861866 -0.15245041 -0.010870695
-0.18373187 -0.15257759 -0.016375422
-0.15899943 -0.15267482 -0.020588994
0.15914984 -0.15267447 -0.020572066
0.18384999 -0.15257722 -0.016358256
0.20869559 -0.15244973 -0.010836363
-0.28259194 -0.12779273 -0.0072985888
-0.25732732 -0.12804328 -0.015439272
0.25743994 -0.12804228 -0.015405178
0.28264219 -0.12779161 -0.0072643757
-0.33144218 -0.1033247 -0.010084867
-0.30600199 -0.10366561 -0.018942118
0.30614209 -0.10366419 -0.018908143
0.33151436 -0.10332339 -0.010050893
-0.38066766 -0.078726754 -0.0091283321
-0.35501054 -0.079164997 -0.018619299
0.35514867 -0.079163313 -0.018585443
0.38073501 -0.078724369 -0.0090770721
-0.40422702 -0.054578006 -0.016783476
0.40435365 -0.05457519 -0.016732454
-0.45472392 -0.029447302 -0.0065797567
-0.42808446 -0.030362278 -0.02143693
0.42824954 -0.030358151 -0.0213691
0.45477524 -0.029443026 -0.0065114498
-0.47866255 -0.0051555634 -0.010751128
0.47874647 -0.005150795 -0.010682702
-0.50299883 0.019292042 -0.012065172
0.5030933 0.019297287 -0.011996865
-0.52731794 0.043720961 -0.013361096
0.52742016 0.043725193 -0.013310075
-0.55203068 0.068345487 -0.012321115
0.5521282 0.068351775 -0.012252688
-0.57695198 0.093090624 -0.010238767
0.577034 0.093097329 -0.01017046
-0.60209024 0.11797118 -0.0071959496
0.60214937 0.11797836 -0.0071276426
-0.59933972 0.1408968 -0.021487951
0.59951192 0.14090663 -0.021403193
-0.62490737 0.16604072 -0.015983939
0.62503791 0.1660513 -0.015898705
-0.65085131 0.19145301 -0.0090770721
0.65092945 0.19146428 -0.0089914799
-0.64824718 0.21427849 -0.021606445
0.64842153 0.21429023 -0.021521807
-0.67468429 0.24008176 -0.01245749
0.67478901 0.24009424 -0.012372255
-0.1113331 -0.20136498 0.012655973
-0.086490721 -0.20139317 0.0089700222
-0.061747529 -0.20140746 0.0071214437
-0.037042387 -0.20141688 0.0058962107
-0.012356117 -0.20142634 0.0046719313
0.0123113 -0.20142634 0.0046719313
0.036988147 -0.20141688 0.0058962107
0.061683849 -0.20140746 0.0071214437
0.08641322 -0.20139313 0.0089874268
0.11122736 -0.20136471 0.012673259
-0.21016103 -0.1766555 0.01139164
-0.18499726 -0.17676654 0.0041719675
-0.16008425 -0.17683786 -0.00045704842
0.1600797 -0.17683759 -0.00043988228
0.18495813 -0.17676613 0.004206419
0.21006554 -0.17665519 0.011409044
-0.28443524 -0.15190725 0.012655854
-0.25900841 -0.15209755 0.0044133663
-0.23371568 -0.15228572 -0.0037356615
0.23373795 -0.15228492 -0.0037013292
0.25896823 -0.15209664 0.0044476986
0.28433192 -0.15190634 0.012690544
-0.33351067 -0.12728745 0.009108305
-0.30798602 -0.12754069 0.00088393688
0.30797359 -0.12753963 0.00091814995
0.33343518 -0.12728649 0.0091428757
-0.38332731 -0.10245671 0.012465358
-0.35705218 -0.10297252 -0.0009380579
0.35705426 -0.10297136 -0.00090384483
0.38322848 -0.10245471 0.012517452
-0.40698066 -0.078108311 0.0042580366
0.40694541 -0.078105986 0.0043098927
-0.45761088 -0.052964494 0.013158321
-0.430794 -0.053775132 -0.0018826723
0.4308064 -0.05377233 -0.0018311739
0.45750794 -0.052961737 0.013210177
-0.48161632 -0.028522715 0.0084341764
0.48155016 -0.028519481 0.0084861517
-0.50589126 -0.0040069669 0.0058271885
0.50584549 -0.0040033162 0.0058789253
-0.53033978 0.020565748 0.0044821501
0.53030759 0.020571098 0.0045511723
-0.55488676 0.045174986 0.0038100481
0.55486023 0.045180649 0.0038790703
-0.57993293 0.070028454 0.0058962107
0.57989091 0.070034742 0.0059652328
-0.6050151 0.094916105 0.0080024004
0.6049574 0.09492287 0.0080715418
-0.6306777 0.12013102 0.01284647
0.63058329 0.12013859 0.01291585
-0.62778127 0.14319044 -0.001625061
0.62779814 0.14319831 -0.0015563965
-0.65355855 0.16849577 0.003947854
0.6535365 0.16850638 0.0040341616
-0.68013841 0.19432214 0.012846589
0.68004864 0.19433352 0.012933254
-0.67740059 0.2172924 0.00014436245
0.6774084 0.21730432 0.00023043156
-0.062264256 -0.22609377 0.029496551
-0.037386879 -0.22609377 0.028271675
-0.012528365 -0.22609377 0.027047515
0.0123113 -0.22609377 0.027047515
0.037160389 -0.22609377 0.028271675
0.062028341 -0.22609377 0.029496551
-0.18638128 -0.20125726 0.026645541
-0.16118947 -0.20130789 0.020053148
-0.13623261 -0.20133641 0.016350389
0.13609856 -0.20133625 0.016367674
0.16102704 -0.20130774 0.020070434
0.18616918 -0.20125701 0.026680589
-0.26082736 -0.17643219 0.025894165
-0.23543714 -0.17654404 0.018626571
0.23528729 -0.17654356 0.01866138
0.26062188 -0.17643167 0.025929213
-0.30999324 -0.15171574 0.020941019
0.30982643 -0.151715 0.020975828
-0.35955444 -0.12692966 0.020732164
0.35939163 -0.12692806 0.020784378
-0.4098281 -0.10193503 0.026016474
0.40962541 -0.10193313 0.026068926
-0.4335371 -0.077477649 0.017913818
0.43339944 -0.077474415 0.017983437
-0.48468125 -0.052146286 0.028341532
0.4844619 -0.052143425 0.028393984
-0.50881356 -0.027570039 0.023904324
0.50863141 -0.027565584 0.023973942
-0.53340161 -0.0028476864 0.022561312
0.53322744 -0.0028439313 0.022613645
-0.55796921 0.021854222 0.02121973
0.55780578 0.021858245 0.021271944
-0.58294749 0.046733201 0.022212863
0.58277994 0.046739072 0.0222826
-0.60815603 0.071730524 0.024322867
0.6079728 0.071736932 0.024392724
-0.63359702 0.096860379 0.027432203
0.63339376 0.096869141 0.027519464
-0.65658051 0.14551279 0.018487573
0.65644324 0.14552096 0.018556952
-0.68289429 0.17116651 0.025632262
0.68270624 0.17117745 0.025719643
-0.70695579 0.22034791 0.022195339
0.70679486 0.22036001 0.0222826
-0.16253154 -0.22609381 0.044958711
-0.13731517 -0.22609377 0.039788365
-0.11223315 -0.22609377 0.036039829
0.086951606 -0.22609377 0.032300115
0.11194686 -0.22609377 0.036039829
0.1621774 -0.22609381 0.044976354
-0.087208562 -0.22609371 0.032282591
0.13700069 -0.22609371 0.03980577
-0.26275787 -0.2010875 0.048692226
-0.23718284 -0.20114432 0.041303992
-0.2117251 -0.20120087 0.033967018
0.21145584 -0.20120066 0.033984661
0.23685846 -0.20114405 0.041339278
0.26237556 -0.20108728 0.048709989
-0.31235436 -0.17614526 0.044534683
-0.28633416 -0.17631945 0.033212185
0.28607115 -0.17631924 0.033229828
0.31200594 -0.17614461 0.04456985
-0.36232129 -0.15116724 0.044693589
-0.33604223 -0.15144657 0.032598257
0.33578596 -0.15144578 0.032633305
0.36197218 -0.15116638 0.044728875
-0.41271445 -0.12608775 0.048072457
-0.38602102 -0.12651061 0.034335732
0.38575393 -0.12650913 0.034388423
0.4123421 -0.12608606 0.048125625
-0.43655589 -0.10140843 0.039700031
0.43624833 -0.10140637 0.039753079
-0.48778716 -0.076064378 0.048515081
-0.46053377 -0.07677424 0.033142209
0.46027952 -0.076771066 0.033212304
0.48741525 -0.076060832 0.048586011
-0.51200867 -0.051320463 0.043669105
0.51167178 -0.051317558 0.043721795
-0.53649521 -0.026527718 0.04082799
0.53618342 -0.026523322 0.040898681
-0.56120068 -0.0016759783 0.03947103
0.56089693 -0.0016724318 0.039524078
-0.58598953 0.023198128 0.038678646
0.58569545 0.023203626 0.038749099
-0.61133248 0.048309505 0.040828109
0.61102229 0.048315376 0.040898561
-0.63670546 0.073452413 0.04296267
0.63637942 0.07345894 0.043033481
-0.66269648 0.098909974 0.047912836
0.66233295 0.098917216 0.047983885
-0.65962279 0.12231642 0.033124685
0.6593765 0.12232593 0.033212304
-0.68574059 0.14786267 0.038837314
0.68545097 0.14787272 0.038925052
-0.7127248 0.17392606 0.048037052
0.71236515 0.17393696 0.048125625
-0.70982683 0.19722867 0.035055757
0.70956701 0.19724014 0.035143614
-0.13845162 -0.25122079 0.064392924
-0.1131464 -0.2511853 0.05976665
-0.087942936 -0.25115737 0.056132197
-0.062807515 -0.25113347 0.053020835
-0.037752606 -0.25112569 0.052026272
-0.012713002 -0.25111797 0.051032543
0.0123113 -0.25111797 0.051032543
0.037343252 -0.25112569 0.052026272
0.062390789 -0.25113347 0.053038478
0.08750198 -0.25115737 0.056132197
0.11267801 -0.25118536 0.059784412
0.13794774 -0.25122112 0.064410925
-0.21335697 -0.22609381 0.057520986
-0.18789513 -0.22609381 0.05122757
0.18749385 -0.22609381 0.051263213
0.21290749 -0.22609377 0.05755651
-0.23896711 -0.22609371 0.064482331
0.23846558 -0.22609371 0.064535975
-0.28872949 -0.20100698 0.05914247
0.28826994 -0.20100656 0.059195995
-0.33864185 -0.17595755 0.056719542
0.33819991 -0.17595707 0.056755185
-0.38879773 -0.15088584 0.056879759
0.38835514 -0.15088499 0.056915402
-0.4396356 -0.12566103 0.061926365
0.4391571 -0.1256595 0.06197989
-0.46350878 -0.10087787 0.053482533
0.46309564 -0.100876 0.053535938
-0.51530111 -0.075347275 0.064035177
0.51481026 -0.075344041 0.064106822
-0.53962708 -0.050476968 0.059321046
0.53917307 -0.050473213 0.059392095
-0.5644722 -0.025473401 0.05794847
0.56402624 -0.025470063 0.058001876
-0.58929306 -0.00049215555 0.056559443
0.58886141 -0.00048717856 0.056630611
-0.61453813 0.024645984 0.057485223
0.61409986 0.024651438 0.05755651
-0.64004374 0.049902648 0.059641957
0.63959289 0.049910218 0.059731126
-0.66579479 0.075286746 0.0628196
0.66532022 0.075294942 0.062908888
-0.68893945 0.12453154 0.053678155
0.68853581 0.12454113 0.053766847
-0.71564609 0.15043584 0.061122894
0.71518594 0.15044621 0.061211944
-0.73993272 0.20017782 0.057592154
0.73950034 0.20018947 0.057681203
-0.088785097 -0.27664188 0.083482027
-0.063438348 -0.27659348 0.080336213
-0.038159564 -0.2765646 0.078458786
-0.012916217 -0.27654889 0.077430964
0.0123113 -0.27654889 0.077430964
0.037546732 -0.2765646 0.078458786
0.062811345 -0.27659374 0.080354452
0.088134021 -0.27664232 0.083500266
-0.21519698 -0.25137243 0.084079504
-0.18948664 -0.25131842 0.077070117
-0.16391967 -0.25126964 0.070719242
0.16336808 -0.25126985 0.070755124
0.18888643 -0.25131872 0.077106357
0.21454313 -0.25137269 0.084115624
-0.26499763 -0.22609387 0.075142622
0.26441309 -0.22609371 0.075178504
-0.34128052 -0.20083717 0.08120358
-0.31487957 -0.20092525 0.069767833
0.31433696 -0.20092498 0.069803834
0.3406502 -0.2008369 0.081239581
-0.39181367 -0.17557807 0.081366181
-0.36512753 -0.17576857 0.068996429
0.36459142 -0.17576799 0.069032311
0.39118266 -0.17557754 0.081402302
-0.41563588 -0.15057366 0.070396304
0.41509178 -0.15057233 0.070450068
-0.46679008 -0.1252304 0.075916886
0.46620435 -0.1252287 0.075971007
-0.49093494 -0.10028216 0.068960667
0.49040315 -0.10028005 0.06901443
-0.54343408 -0.074526787 0.081800222
0.54281008 -0.074522659 0.081890345
-0.56813562 -0.049435928 0.078639269
0.56753665 -0.04943122 0.078729391
-0.59311247 -0.024285823 0.077232718
0.59252501 -0.024280265 0.077322602
-0.61823791 0.00090391934 0.076709628
0.61765844 0.00091147423 0.07681787
-0.64407724 0.026363403 0.079794526
0.64347494 0.026371717 0.079902887
-0.66996533 0.051870733 0.082885146
0.66934007 0.051879972 0.082993627
-0.69216776 0.10098574 0.068655729
0.69164526 0.10099295 0.068727255
-0.71869951 0.12680799 0.074800611
0.7181381 0.12681958 0.074908495
-0.74297261 0.17672423 0.070755124
0.74243909 0.17673534 0.070845127
-0.16534576 -0.27685291 0.097184181
-0.13972719 -0.27677324 0.092009783
-0.11418889 -0.27669385 0.086851716
0.11351202 -0.27669406 0.086869836
0.13901073 -0.27677363 0.092028022
0.16458961 -0.27685323 0.09720242
-0.24117021 -0.25144184 0.093101621
0.24044716 -0.25144219 0.09313798
-0.31756842 -0.22609381 0.096637011
0.31682077 -0.22609381 0.096691728
-0.29119703 -0.22609371 0.08585465
0.29053035 -0.22609365 0.08589077
-0.36797613 -0.20074125 0.093666077
0.36725017 -0.20074098 0.093702555
-0.41876692 -0.17537862 0.094321728
0.41804099 -0.17537761 0.094394684
-0.44275546 -0.1502493 0.084441543
0.44210368 -0.15024799 0.084495902
-0.49466011 -0.12469945 0.093156219
0.49394748 -0.1246966 0.093247414
-0.51908922 -0.099569768 0.087468505
0.51842099 -0.099566385 0.087559104
-0.69683325 0.077825278 0.090300679
0.69615567 0.077836961 0.090427876
-0.72394508 0.10395214 0.098297834
0.72320706 0.10396501 0.098425627
-0.74690771 0.15351573 0.087794781
0.74625134 0.15353039 0.087922096
-0.77539301 0.18046325 0.10111237
0.77463961 0.18048134 0.10125852
-0.11532485 -0.30267543 0.11636472
-0.089639261 -0.30255672 0.11122203
-0.064078584 -0.30248365 0.10805941
-0.038575448 -0.30242389 0.10547137
-0.013126004 -0.30240571 0.10468304
0.0123113 -0.30240571 0.10468304
0.037754677 -0.30242389 0.10547137
0.063238174 -0.30248404 0.10807788
0.088774651 -0.30255708 0.11124027
0.11442079 -0.30267584 0.11638308
-0.21724081 -0.27710539 0.11357951
-0.19117247 -0.27696475 0.10444486
0.19036156 -0.27696529 0.10448158
0.21635988 -0.27710587 0.11361635
-0.29370371 -0.25159505 0.11298978
-0.26728499 -0.25151157 0.10215521
0.26649258 -0.25151187 0.10219193
0.29282817 -0.25159532 0.11302662
-0.34411347 -0.22609377 0.10749018
0.3432827 -0.22609377 0.10754514
-0.39513764 -0.20062819 0.1083535
0.3943032 -0.20062771 0.10842693
-0.44670355 -0.17509204 0.11293447
0.44583496 -0.17509103 0.11300826
-0.47075361 -0.14982025 0.10301578
0.46996194 -0.14981866 0.10308874
-0.52360243 -0.12401499 0.11538661
0.52271664 -0.12401266 0.1154604
-0.54814583 -0.098717272 0.10962164
0.54730493 -0.098714262 0.1096952
-0.57280189 -0.073455438 0.10499477
0.57200032 -0.073451355 0.10508645
-0.59798092 -0.048091844 0.10358357
0.59719408 -0.048085883 0.10369337
-0.62313485 -0.022750974 0.10215521
0.62235987 -0.022744268 0.10226512
-0.64908063 0.0028496087 0.10479307
0.64828628 0.0028572679 0.10490298
-0.67517102 0.028529167 0.1079309
0.6743533 0.02853781 0.10804105
-0.70195013 0.054508865 0.11404014
0.70109022 0.054519862 0.11416936
-0.75204182 0.13060418 0.11002612
0.75121468 0.13061816 0.11015499
-0.03906551 -0.32884744 0.13730192
-0.01336761 -0.32880938 0.13606846
0.0123113 -0.32880938 0.13606846
0.037999704 -0.32884744 0.13730192
-0.19310734 -0.30312568 0.13586295
-0.1670333 -0.30295572 0.12850094
-0.14109549 -0.30279711 0.1216346
0.14015099 -0.30279765 0.12165308
0.16603608 -0.30295619 0.12851965
0.1920546 -0.3031266 0.1359005
-0.26984543 -0.27739501 0.13239229
-0.2434551 -0.27724704 0.12278306
0.24250361 -0.27724758 0.12282014
0.26882029 -0.27739555 0.1324296
-0.32046899 -0.25169218 0.12562108
0.3194983 -0.25169265 0.12567675
-0.37130618 -0.22609365 0.12250519
0.37036231 -0.22609371 0.12257934
-0.42282405 -0.20049752 0.12532401
0.42185965 -0.20049694 0.1253984
-0.47508574 -0.17478874 0.13263464
0.4740662 -0.17478764 0.13270926
-0.49919298 -0.14936808 0.12259781
0.49825117 -0.14936644 0.12267196
-0.57759339 -0.097853735 0.13205683
0.57658368 -0.097850025 0.13214993
-0.60292822 -0.072283879 0.1303618
0.60193563 -0.072278753 0.13047338
-0.62828749 -0.046726257 0.1289289
0.62730324 -0.046721026 0.12902188
-0.65416092 -0.021025419 0.13017571
0.65317142 -0.021018565 0.13028741
-0.68045288 0.0048276633 0.13334322
0.67943984 0.0048353374 0.13345516
-0.72926646 0.080766022 0.12213469
0.72834533 0.080778003 0.12226427
-0.75724578 0.10738093 0.13256025
0.75624979 0.10739586 0.13270926
-0.78074145 0.15764147 0.12352467
0.77981591 0.15765858 0.12367296
-0.14259674 -0.32936585 0.15413725
-0.11652047 -0.3291592 0.14742792
-0.090627432 -0.32903248 0.14331388
-0.064808354 -0.32891995 0.13965917
0.063724406 -0.32891995 0.13965917
0.08951579 -0.32903308 0.1433326
0.11537788 -0.3291603 0.14746559
0.14140277 -0.32936683 0.15417492
-0.21932687 -0.30330646 0.14368916
0.2182142 -0.30330732 0.14372671
-0.29659852 -0.27757877 0.1443274
0.29548186 -0.27757925 0.14436495
-0.37503073 -0.25191659 0.1547606
-0.34763086 -0.2518039 0.1401273
0.34654894 -0.25180444 0.14018357
0.37383664 -0.25191706 0.15481734
-0.3989889 -0.22609377 0.13962173
0.3979139 -0.22609377 0.13969672
-0.45083764 -0.20036319 0.14276993
0.44973958 -0.20036256 0.1428448
-0.50380754 -0.17448185 0.15257061
0.50263524 -0.1744808 0.15264618
-0.52818686 -0.14887968 0.14374542
0.5270859 -0.1488775 0.14383936
-0.55293494 -0.12332168 0.13790047
0.55187964 -0.12331867 0.13799369
-0.70713741 0.03085205 0.13810599
0.70609254 0.030862272 0.13823688
-0.73466951 0.057243824 0.14633751
0.73355848 0.057253331 0.14645004
-0.78616303 0.13450754 0.14624333
0.78506309 0.13452381 0.14639378
-0.039570093 -0.35579723 0.17007542
-0.013616635 -0.35573336 0.16841757
0.0123113 -0.35573336 0.16841757
0.038251996 -0.35579723 0.17007542
-0.19526124 -0.32988 0.17083824
-0.16881859 -0.32959658 0.16163218
0.16756637 -0.32959718 0.16165113
0.19393933 -0.32988116 0.17087626
-0.27282178 -0.30385736 0.16754186
-0.24596907 -0.30357796 0.15544093
0.24476625 -0.30357882 0.1554786
0.27152616 -0.30385819 0.16757989
-0.32379398 -0.27780229 0.15884626
0.32256758 -0.27780312 0.15890288
-0.40291363 -0.2520453 0.17148685
0.40159133 -0.25204578 0.17154396
-0.42696083 -0.22609377 0.1569345
0.42575088 -0.22609371 0.15699136
-0.47950181 -0.20020877 0.16282761
0.47825009 -0.20020819 0.16290367
-0.53287512 -0.1741713 0.17274654
0.5315482 -0.17417005 0.17282295
-0.55780667 -0.14835043 0.16666639
0.55653018 -0.14834827 0.1667614
-0.58266866 -0.12261907 0.16072202
0.58143854 -0.12261606 0.16081655
-0.60794944 -0.096872732 0.15753984
0.60674453 -0.096868977 0.1576345
-0.63352066 -0.071094036 0.15612125
0.63232738 -0.071089849 0.15621591
-0.65931982 -0.045270145 0.15595114
0.65813589 -0.045262903 0.15608358
-0.68581647 -0.019241035 0.15914905
0.68460524 -0.019234046 0.15926266
-0.71240455 0.0068506002 0.16254294
0.71116811 0.0068585277 0.16265678
-0.74014771 0.033374876 0.17087626
0.73885214 0.033385098 0.17100978
-0.76252109 0.083839297 0.1554029
0.76134968 0.083853006 0.15555429
-0.79165924 0.11105525 0.16927481
0.7903825 0.11107042 0.16942739
-0.11793301 -0.35633808 0.18412697
-0.091715135 -0.35612679 0.17863774
-0.065594085 -0.35593605 0.17368233
0.064248517 -0.35593683 0.17370141
0.090331577 -0.35612756 0.17865705
0.11650734 -0.35633886 0.18414617
-0.22186373 -0.33017161 0.18030584
0.22046925 -0.33017278 0.1803441
-0.29986891 -0.30413884 0.17973042
0.29847977 -0.3041397 0.17976868
-0.3789373 -0.27826026 0.18859255
-0.35124511 -0.2780304 0.17366326
0.34990513 -0.27803129 0.17372072
0.37748292 -0.27826115 0.18865037
-0.43117189 -0.25218096 0.18911302
0.42971677 -0.25218165 0.18919027
0.45388019 -0.22609381 0.17448509
-0.45522159 -0.22609371 0.17440856
-0.50850916 -0.20005281 0.18310821
0.50710195 -0.20005202 0.1831851
-0.58783197 -0.1478142 0.18988431
0.58637774 -0.14781183 0.18998086
-0.61305332 -0.12186636 0.18516517
0.61163598 -0.12186345 0.18526137
-0.63883263 -0.095864981 0.18372309
0.63743073 -0.095860481 0.18383849
-0.66458619 -0.06988661 0.18226302
0.66319269 -0.06988211 0.18235922
-0.69127184 -0.04368335 0.18539608
0.68985885 -0.043677047 0.18551147
-0.71803606 -0.017423168 0.1886698
0.71659881 -0.017416015 0.18878531
-0.76803303 0.060032576 0.17927039
0.76666981 0.060042322 0.17938542
-0.013909612 -0.38341928 0.20647669
0.0123113 -0.38341928 0.20647669
-0.17083919 -0.35691553 0.1991297
-0.14429505 -0.35659903 0.190907
0.14281732 -0.35659987 0.19092631
0.16929923 -0.35691708 0.19916856
-0.27598846 -0.33093002 0.20493865
-0.24870966 -0.33050215 0.19104218
0.24723285 -0.33050337 0.19108081
0.27440503 -0.33093125 0.20497739
-0.32721117 -0.30444506 0.19299281
0.32572383 -0.30444688 0.19307005
-0.4074201 -0.27856016 0.20807457
0.40582076 -0.27856165 0.2081722
0.48261487 -0.22609381 0.19440424
-0.48410612 -0.22609371 0.19430745
-0.53838772 -0.19987002 0.20684671
0.53680146 -0.19986933 0.20694423
-0.56276309 -0.17381421 0.19593275
0.56126159 -0.17381273 0.19602942
-0.74571103 0.0091545433 0.1957972
0.74421996 0.0091625899 0.19591343
-0.77381259 0.035947531 0.20429635
0.77226138 0.035958111 0.20443273
-0.79723161 0.087277681 0.19262564
0.79577559 0.087292016 0.19278026
-0.82684427 0.11481321 0.20682728
0.82528037 0.11482882 0.20698309
-0.1195344 -0.38430855 0.22573209
-0.092923187 -0.38394547 0.21787047
-0.066488869 -0.38369408 0.21242774
-0.040167436 -0.3835299 0.20887411
0.038550816 -0.38353091 0.20889366
0.06484475 -0.38369408 0.21242774
0.091238074 -0.38394725 0.21790957
0.11778907 -0.38431042 0.22577143
-0.22468795 -0.3577601 0.22106981
-0.19765173 -0.35732058 0.20965445
0.19603103 -0.3573221 0.20969355
0.22298092 -0.35776228 0.22112858
-0.30359334 -0.33139527 0.22004831
0.30189389 -0.33139649 0.22008765
-0.35535756 -0.30488002 0.21182215
0.35372788 -0.3048822 0.21191978
-0.46039224 -0.2523551 0.21172428
0.45876637 -0.25235584 0.21182215
-0.51446259 -0.22609381 0.22177708
0.51276088 -0.22609381 0.22187543
-0.61920792 -0.14715385 0.21847832
0.61754155 -0.14715064 0.21861577
-0.64466166 -0.12097806 0.21401203
0.64303422 -0.1209733 0.21416843
-0.6702013 -0.094841406 0.21031809
0.66859597 -0.094836906 0.21043527
-0.69681311 -0.068510488 0.21205652
0.69519526 -0.068505079 0.2121737
-0.72378951 -0.042068526 0.21536231
0.72214723 -0.042062312 0.21547997
-0.75135297 -0.015427738 0.22106957
0.74967188 -0.01541923 0.22120714
-0.80288643 0.063169867 0.21632195
0.80124849 0.063183248 0.21647871
-0.17316011 -0.38506925 0.24220037
-0.14626834 -0.38467336 0.2336297
0.1444625 -0.38467526 0.2336694
0.17128953 -0.38507211 0.24226022
-0.25194848 -0.35822368 0.23311532
0.25014919 -0.35822585 0.23317468
-0.33149585 -0.3318806 0.23580801
0.3296791 -0.33188307 0.23588741
-0.38382265 -0.3053205 0.230901
0.382047 -0.30532289 0.23099971
-0.43668962 -0.27891743 0.23127639
0.43491504 -0.27891928 0.23139501
-0.49032685 -0.25254852 0.2368387
0.48850855 -0.25254911 0.23693788
-0.56989229 -0.19963005 0.23802876
0.56806713 -0.19962922 0.23812819
-0.59457332 -0.17332131 0.22795951
0.59282631 -0.17331956 0.2280581
-0.7796784 0.011503205 0.22969604
0.77793217 0.011512727 0.2298342
-0.8086161 0.038721591 0.24033177
0.80679387 0.03873381 0.24049091
-0.83272582 0.09079507 0.23070335
0.83097869 0.090809792 0.23086143
-0.067575276 -0.41249573 0.25947058
-0.040878467 -0.41225797 0.25505674
-0.014255077 -0.41205841 0.25135374
0.0123113 -0.41205841 0.25135374
0.038906183 -0.41225797 0.25505674
0.065569326 -0.41249686 0.25949085
-0.2004416 -0.38565838 0.2549566
0.19847223 -0.38566029 0.25499666
-0.27967522 -0.35881495 0.24847674
0.27775821 -0.35881728 0.24853671
-0.36002567 -0.33247572 0.25513697
0.35806283 -0.33247873 0.25523698
-0.41271377 -0.30578595 0.25105381
0.41078386 -0.30578828 0.25115395
-0.46636325 -0.27927983 0.25481629
0.46440595 -0.27928135 0.25491655
-0.54531443 -0.22609377 0.24969506
0.5433988 -0.22609377 0.24979472
-0.65299296 -0.14625719 0.25730252
0.65103298 -0.14625365 0.25746286
-0.67869073 -0.11978576 0.25273383
0.67676711 -0.11978074 0.25289404
-0.70522201 -0.093217254 0.25251389
0.7033093 -0.093209535 0.2527138
-0.73215973 -0.066564158 0.25419521
0.73023152 -0.066555902 0.25437558
-0.75981808 -0.039717659 0.2589885
0.75785875 -0.039706916 0.25918961
-0.8386904 0.066438138 0.25491643
0.83675742 0.066451639 0.25507689
-0.12143106 -0.41333318 0.2750088
-0.094413631 -0.41286242 0.26627421
0.092355937 -0.4128646 0.26631439
0.11930581 -0.41333419 0.27502906
-0.22794144 -0.38626236 0.26802969
0.22587176 -0.38626415 0.26807022
-0.30770522 -0.35943392 0.2645607
0.30566663 -0.35943711 0.26464128
-0.38888302 -0.33307892 0.27472496
0.38676807 -0.33308142 0.27480602
-0.44239417 -0.30633584 0.27486682
0.44028187 -0.30633825 0.27496827
-0.52111781 -0.25276527 0.26500404
0.51908666 -0.25276616 0.26512492
-0.60225827 -0.19937342 0.27136421
0.60017759 -0.19937247 0.27146506
-0.62722337 -0.17279926 0.26186299
0.62522709 -0.17279677 0.26202393
-0.78858244 -0.012522057 0.26825178
0.78655362 -0.012509689 0.26845372
-0.17603664 -0.41444165 0.29558218
-0.14858313 -0.41380385 0.28374672
0.14639156 -0.41380614 0.28378761
0.17375521 -0.41444504 0.29564369
-0.25575987 -0.38693649 0.28262675
0.25358096 -0.3869403 0.28270817
-0.33629534 -0.36017317 0.2837671
0.33411145 -0.36017704 0.28386891
-0.49670544 -0.27967447 0.28044963
0.49455464 -0.27967644 0.2805717
-0.5524177 -0.25298557 0.29363465
0.55016732 -0.25298646 0.2937578
-0.57729357 -0.22609371 0.28173113
0.57513237 -0.22609371 0.28183293
-0.68755424 -0.14534006 0.29701865
0.68529046 -0.1453363 0.2971828
-0.71452338 -0.11841461 0.29726493
-0.81824315 0.015034944 0.28067327
0.81613469 0.015053242 0.28093755
-0.041793853 -0.44251436 0.31451309
-0.014714807 -0.44230258 0.31107461
0.0123113 -0.44230258 0.31107461
0.039364036 -0.44251561 0.31453371
-0.20380841 -0.41519856 0.3096267
0.20141827 -0.41520077 0.30966818
-0.28411627 -0.38778156 0.30092311
0.28179726 -0.38778538 0.30100536
-0.36569995 -0.36109778 0.30778766
0.36333209 -0.36110175 0.30789089
-0.41875222 -0.33385956 0.30007982
0.41644761 -0.3338635 0.3002032
-0.47272348 -0.30693287 0.30071747
0.47041589 -0.3069357 0.30084074
-0.52796882 -0.28012183 0.3095026
0.52559859 -0.28012401 0.30964732
-0.63544863 -0.19910371 0.30638361
0.6331104 -0.19910255 0.30654871
-0.66153824 -0.17218578 0.30170512
0.65923345 -0.17218362 0.30184937
0.71226716 -0.11840816 0.29747021
-0.74181509 -0.091428488 0.29899037
0.73954725 -0.091420382 0.29919577
-0.77002561 -0.064230844 0.30471277
0.76771545 -0.064221486 0.304919
-0.79919899 -0.036741391 0.31422281
0.79681748 -0.03673023 0.31443
-0.84964359 0.043267012 0.2993809
0.84738892 0.043286115 0.29962754
-0.096283421 -0.44328317 0.32699716
-0.068978317 -0.44286609 0.32022405
0.066504702 -0.44286728 0.32024479
0.093757823 -0.44328445 0.32701802
-0.2318057 -0.41596252 0.32380533
0.22930802 -0.41596591 0.3238678
-0.31277609 -0.38863754 0.31945443
0.31031337 -0.38864034 0.31951678
-0.39550567 -0.36203271 0.33207858
0.39295176 -0.36203671 0.33218336
-0.44973603 -0.33481088 0.33096921
0.44719487 -0.3348147 0.33109474
-0.58494908 -0.2532419 0.32693458
0.58245718 -0.25324363 0.32714343
0.60772085 -0.22609381 0.31600654
-0.61014038 -0.22609365 0.31588185
-0.82958192 -0.0088310987 0.32818782
0.8271094 -0.0088142604 0.32845962
-0.15155098 -0.4445768 0.34800267
-0.12373417 -0.44376653 0.33484507
0.12114897 -0.44376916 0.33488703
0.14886563 -0.44458067 0.34806597
-0.26046592 -0.41703779 0.34376061
0.25781667 -0.41704237 0.34384489
-0.34210092 -0.38966864 0.34178007
0.33947077 -0.3896735 0.34188557
-0.50480568 -0.30774376 0.33583117
0.50223488 -0.3077476 0.33599913
-0.56133652 -0.28072694 0.34880579
0.55867183 -0.28072986 0.34899616
-0.67030591 -0.198789 0.34726322
0.66765112 -0.19878778 0.34741116
-0.696648 -0.17155835 0.34245396
0.69403541 -0.17155576 0.34262252
-0.724069 -0.14427379 0.34319139
0.7214604 -0.14426893 0.34340215
-0.75172859 -0.11694527 0.3449837
0.7491079 -0.11693876 0.34519446
-0.86147511 0.019658566 0.34741116
0.85885239 0.019676283 0.34766471
-0.17961468 -0.44543773 0.36198258
0.17682223 -0.44544166 0.36204648
-0.28949779 -0.41815409 0.3644762
0.28668815 -0.41815764 0.3645401
-0.42634517 -0.3631739 0.36172688
0.42356649 -0.36317879 0.36185467
-0.48129529 -0.33578411 0.36257887
0.47851762 -0.3357895 0.36274946
-0.64483261 -0.22609381 0.35717595
0.64211929 -0.22609377 0.3574307
-0.78050667 -0.089400843 0.35166192
0.77783632 -0.089392915 0.35187376
-0.81009585 -0.061612323 0.36140752
0.80735713 -0.061601534 0.36164188
-0.20795333 -0.44635838 0.37693179
0.20504744 -0.44636381 0.37701774
-0.37227884 -0.39091808 0.36883223
0.36944357 -0.39092404 0.36896026
-0.53811234 -0.30865729 0.37538624
0.53523564 -0.30866075 0.37553644
-0.62085825 -0.25362283 0.37641656
0.61798805 -0.25362444 0.37663138
-0.84123969 -0.033356503 0.37703931
0.83838791 -0.033342719 0.37729704
