ply
format ascii 1.0
comment PCL generated
element vertex 1341
property float x
property float y
property float z
element camera 0
property float view_px
property float view_py
property float view_pz
property float x_axisx
property float x_axisy
property float x_axisz
property float y_axisx
property float y_axisy
property float y_axisz
property float z_axisx
property float z_axisy
property float z_axisz
property float focal
property float scalex
property float scaley
property float centerx
property float centery
property int viewportx
property int viewporty
property float k1
property float k2
end_header
0.14307983 0.44757006 -0.1942569
0.16510604 0.44811931 -0.19187939
-0.11954785 0.46869525 -0.19749629
-0.097582996 0.46812668 -0.19987869
-0.075655356 0.46756253 -0.20224273
-0.0537639 0.46699598 -0.20461702
-0.031909049 0.46643028 -0.20698738
0.033491392 0.46643367 -0.2069732
0.055328101 0.46699938 -0.20460284
0.077201404 0.46756592 -0.20222855
0.099110939 0.46812996 -0.19986439
0.12105758 0.46869859 -0.19748211
-0.16358839 0.46983513 -0.1927197
-0.14154962 0.46926466 -0.19511008
0.14304107 0.46926805 -0.1950959
0.16506076 0.46983513 -0.1927197
-0.14150444 0.49094966 -0.1959486
-0.1195092 0.49036214 -0.19833338
-0.097550824 0.48977569 -0.20071411
-0.075629674 0.48919359 -0.20307696
-0.053744663 0.48860905 -0.20544994
0.055315278 0.48861256 -0.20543599
0.077182136 0.48919711 -0.20306301
0.099085212 0.48977903 -0.20070016
0.12102536 0.49036565 -0.19831932
0.14300235 0.49095318 -0.19593441
-0.12046605 -0.12126837 -0.17761695
-0.098305948 -0.12137543 -0.18109548
-0.076199681 -0.12148235 -0.18456542
-0.054147024 -0.12158886 -0.18802714
0.055583302 -0.12158886 -0.18802714
0.077609316 -0.12148235 -0.18456542
0.09968932 -0.12137498 -0.18108118
0.12182274 -0.12126786 -0.17760277
-0.12056116 -0.099162839 -0.17555749
-0.098425992 -0.099256009 -0.17797673
-0.076328196 -0.099348873 -0.18039191
-0.054267678 -0.099441744 -0.18280292
-0.032244336 -0.099534303 -0.18520987
-0.010258083 -0.099626869 -0.18761265
0.011691173 -0.099626318 -0.18759847
0.033659037 -0.099533804 -0.18519557
0.055663954 -0.099441186 -0.18278861
0.077706032 -0.099348366 -0.1803776
0.09978535 -0.09925545 -0.17796242
0.12190146 -0.099162839 -0.17555749
-0.1205219 -0.077159971 -0.17640769
-0.098393336 -0.077271789 -0.17882538
-0.076302111 -0.077383295 -0.18123901
-0.054248143 -0.077494457 -0.18364871
-0.032231335 -0.077605709 -0.18605423
-0.010251594 -0.077716514 -0.1884557
0.011691173 -0.077715918 -0.18844128
0.033652537 -0.077605009 -0.18603992
0.055650935 -0.077493846 -0.18363428
0.077686474 -0.07738249 -0.18122482
0.099759229 -0.077271029 -0.17881107
0.1218693 -0.077159375 -0.17639327
-0.14267859 -0.055003315 -0.17415893
-0.12048266 -0.055170342 -0.1772573
-0.09836068 -0.055300608 -0.17967355
-0.076276034 -0.055430606 -0.18208575
-0.054228622 -0.055560365 -0.18449378
-0.032218345 -0.055689856 -0.18689811
-0.010245112 -0.055819154 -0.18929815
0.011691173 -0.055818349 -0.18928397
0.03364604 -0.055689096 -0.18688369
0.055637922 -0.055559546 -0.18447959
0.077666916 -0.055429697 -0.18207145
0.099733107 -0.055299744 -0.17965913
0.1218366 -0.055169597 -0.17724276
0.14400944 -0.05500184 -0.17413008
-0.14259623 -0.033044651 -0.17568731
-0.12044344 -0.033193663 -0.17810631
-0.098328054 -0.033342361 -0.18052101
-0.076249979 -0.033490852 -0.1829319
-0.054209117 -0.033639044 -0.18533862
-0.032205358 -0.033787042 -0.1877414
-0.010238628 -0.033934727 -0.19014001
0.011691173 -0.033933803 -0.19012582
0.03363955 -0.033786133 -0.18772697
0.055624913 -0.033638239 -0.18532443
0.077647373 -0.033489987 -0.18291759
0.099707007 -0.033341497 -0.18050683
0.12180392 -0.033192739 -0.178092
0.14393751 -0.033044651 -0.17568731
-0.14255044 -0.011062518 -0.17653716
-0.12040425 -0.011230052 -0.17895484
-0.09829545 -0.011397213 -0.18136823
-0.07622394 -0.011564076 -0.18377769
-0.054189611 -0.01173082 -0.18618286
-0.032192383 -0.011897147 -0.18858409
0.033633061 -0.011896178 -0.18857002
0.055611916 -0.011729777 -0.18616879
0.077627845 -0.011563122 -0.18376327
0.099680923 -0.011396229 -0.18135393
0.12177125 -0.011228979 -0.17894042
0.14389825 -0.011062518 -0.17653716
-0.14250466 0.010906503 -0.17738664
-0.12036509 0.010720611 -0.17980289
-0.098262861 0.010534927 -0.18221486
-0.076197915 0.010349557 -0.18462288
-0.054170128 0.010164469 -0.18702674
-0.032179415 0.009979859 -0.18942654
0.033626575 0.0099808127 -0.18941224
0.055598926 0.010165632 -0.18701243
0.077608325 0.010350615 -0.18460846
0.099654853 0.01053609 -0.18220067
0.12173861 0.010721684 -0.17978847
0.14385901 0.010906503 -0.17738664
-0.14245814 0.032861516 -0.17825007
-0.12032595 0.032658309 -0.18065035
-0.098230302 0.032454118 -0.18306088
-0.076171905 0.0322503 -0.1854676
-0.05415066 0.03204684 -0.18787003
-0.032166455 0.031843871 -0.1902684
0.033620097 0.031845033 -0.19025397
0.055585943 0.032048196 -0.1878556
0.077588819 0.032251462 -0.18545318
0.099628799 0.03245528 -0.1830467
0.12170599 0.032659471 -0.18063605
0.14381981 0.032862678 -0.17823589
-0.1647021 0.0552167 -0.17463493
-0.14241242 0.054804444 -0.17909861
-0.12028616 0.054581493 -0.18151176
-0.098197207 0.054359019 -0.18392086
-0.07614591 0.054138064 -0.1863116
-0.054131191 0.053916365 -0.1887126
0.055572968 0.053917617 -0.18869865
0.077569321 0.054139525 -0.18629742
0.099602759 0.054361492 -0.18389213
0.12167338 0.054584175 -0.18148303
0.14378063 0.054805815 -0.17908418
0.16603684 0.055219531 -0.17460608
-0.16460359 0.07710579 -0.17623472
-0.14236672 0.076734364 -0.17994654
-0.12024706 0.076493084 -0.18235826
-0.098164678 0.076252043 -0.18476605
-0.07611949 0.076011419 -0.18716967
-0.054111738 0.075772852 -0.18955493
0.05556 0.075774312 -0.18954074
0.077549838 0.0760144 -0.18714094
0.099576734 0.076254964 -0.18473732
0.12164081 0.076495826 -0.18232965
0.14374146 0.076735884 -0.17993212
0.16595063 0.077108771 -0.17620599
-0.16450515 0.098970503 -0.17783296
-0.14232105 0.09865132 -0.18079412
-0.12020797 0.098391622 -0.18320429
-0.098132163 0.098132163 -0.18561041
-0.076093532 0.097873271 -0.18801284
-0.054092299 0.097616464 -0.19039667
0.05554704 0.097617865 -0.1903826
0.077530362 0.097876519 -0.18798435
0.099550731 0.098135263 -0.18558192
0.12160824 0.098394543 -0.18317568
0.14370231 0.09865284 -0.18077958
0.16586451 0.098973572 -0.17780411
-0.16441925 0.12083381 -0.17922795
-0.14227542 0.12055531 -0.18164086
-0.12016892 0.12027711 -0.18404984
-0.098099679 0.11999944 -0.18645477
-0.076068021 0.1197238 -0.18884134
0.077510901 0.11972541 -0.18882692
0.099524736 0.1200026 -0.18642616
0.12157569 0.12028036 -0.18402112
0.1436632 0.12055698 -0.18162656
0.16578856 0.12083557 -0.1792134
-0.16436704 0.14274314 -0.18007576
-0.14222981 0.14244625 -0.18248737
-0.12012989 0.14214969 -0.18489504
-0.098067202 0.14185366 -0.18729842
-0.076042086 0.14155978 -0.18968344
0.077491455 0.14156169 -0.18966925
0.099498764 0.14185709 -0.18726969
0.12154316 0.14215326 -0.18486607
0.1436241 0.14244804 -0.18247294
0.16574287 0.14274508 -0.18006146
-0.076016165 0.1633831 -0.19052505
0.077472016 0.163385 -0.19051087
-0.1867183 0.16540027 -0.17511082
-0.16431485 0.16463968 -0.18092322
-0.14218421 0.16432422 -0.18333328
-0.12009088 0.16400939 -0.18573928
-0.098034754 0.16369501 -0.18814158
0.099472798 0.16369867 -0.18811285
0.12151066 0.16401315 -0.18571091
0.14358503 0.16432613 -0.18331897
0.1656972 0.1646415 -0.18090892
0.18805692 0.16540399 -0.17508185
-0.18660749 0.18722418 -0.17671001
-0.1642627 0.18652302 -0.18177021
-0.14213867 0.18618938 -0.18417871
-0.1200519 0.18585604 -0.1865834
-0.098002322 0.18552339 -0.18898404
0.099446855 0.18552732 -0.18895555
0.12147818 0.18586001 -0.18655491
0.14354597 0.18619126 -0.18416464
0.16565156 0.18652508 -0.18175566
0.18795842 0.18722814 -0.1766814
-0.18649681 0.20902365 -0.17830753
-0.16421056 0.20839342 -0.18261647
-0.14209314 0.2080414 -0.18502378
-0.12001295 0.20768979 -0.18742692
-0.097970456 0.20734102 -0.18981194
0.09942092 0.20734307 -0.18979764
0.1214457 0.20769399 -0.18739843
0.14350761 0.20804551 -0.18499529
0.16560596 0.20839545 -0.18260217
0.18786003 0.20902798 -0.17827892
-0.18638527 0.23079669 -0.17991781
-0.16415848 0.23025095 -0.18346238
-0.14204763 0.22988066 -0.18586826
-0.11997399 0.2295109 -0.18826997
-0.097938068 0.22914377 -0.19065344
0.099395007 0.22914594 -0.19063926
0.12141326 0.22951511 -0.18824148
0.1434686 0.22988501 -0.18583965
0.16556038 0.23025319 -0.18344796
0.18776175 0.23080325 -0.17987478
-0.20884927 0.25376189 -0.17400026
-0.18627483 0.25254753 -0.18151176
-0.16410641 0.25209552 -0.18430769
-0.14200215 0.25170678 -0.18671215
-0.11993509 0.25131884 -0.18911254
0.12138082 0.25132343 -0.18908381
0.14342962 0.25171149 -0.18668365
0.16551483 0.2520979 -0.18429339
0.18766358 0.25255451 -0.18146896
0.21017957 0.25376633 -0.17397141
-0.20872606 0.27554479 -0.17560077
-0.18618934 0.27433464 -0.18274546
-0.16405439 0.27392709 -0.18515253
-0.1419567 0.27352017 -0.18755567
-0.1198962 0.27311385 -0.18995464
0.12134841 0.27311873 -0.18992603
0.14339067 0.27352491 -0.18752706
0.16546929 0.27392963 -0.18513811
0.18758583 0.27433717 -0.18273103
0.21006867 0.27554959 -0.17557192
-0.20860298 0.29730353 -0.1771996
-0.18613073 0.29617175 -0.18359137
-0.1640024 0.29574582 -0.18599689
-0.14191128 0.2953206 -0.18839848
0.14335172 0.29532549 -0.18836999
0.1654238 0.2957485 -0.1859827
0.18753375 0.2961742 -0.18357682
0.20995791 0.29730853 -0.17717099
-0.20848005 0.31903782 -0.17879653
-0.18607219 0.31799582 -0.18443656
-0.1639504 0.31755158 -0.18684089
-0.14186588 0.31710812 -0.18924105
0.14331281 0.31711343 -0.18921232
0.16537832 0.31755421 -0.18682659
0.18748169 0.31799844 -0.18442225
0.20984726 0.31904313 -0.1787678
-0.20835724 0.34074798 -0.18039191
-0.18601365 0.33980688 -0.1852814
-0.16389848 0.33934459 -0.18768406
-0.14182052 0.33888295 -0.19008303
0.14327392 0.33888838 -0.19005442
0.16533287 0.33934715 -0.18766987
0.18742968 0.33980969 -0.18526709
0.20973672 0.34075341 -0.18036306
-0.23086302 0.36393675 -0.17447627
-0.20823459 0.36243394 -0.18198538
-0.18595517 0.3616052 -0.18612576
-0.16384657 0.3611246 -0.18852723
0.16528746 0.36112729 -0.18851292
0.18737768 0.361608 -0.18611145
0.20962635 0.3624396 -0.18195665
0.2321972 0.36394241 -0.17444742
-0.18589669 0.3833904 -0.18696964
-0.1637947 0.38289168 -0.18936956
0.16524206 0.38289455 -0.18935513
0.1873257 0.38339344 -0.18695521
-0.23072754 0.38565454 -0.17607617
-0.20811208 0.38409558 -0.18357694
0.20951606 0.3841016 -0.18354833
0.23207402 0.3856605 -0.17604756
-0.23059218 0.40734819 -0.17767465
-0.20798966 0.40573314 -0.18516684
-0.18583827 0.40516284 -0.18781281
-0.16374284 0.40464601 -0.19021142
0.1651967 0.40464911 -0.19019699
0.18727377 0.40516594 -0.18779838
0.20940591 0.40573928 -0.18513834
0.23195098 0.40735444 -0.17764592
-0.23045699 0.42901745 -0.17927098
-0.20790595 0.42745861 -0.1862545
-0.18577988 0.42692235 -0.18865561
0.18722187 0.42692569 -0.18864143
0.20932956 0.42746171 -0.1862402
0.23182808 0.42902395 -0.17924237
-0.23032196 0.4506627 -0.18086565
-0.20784099 0.44922337 -0.18709815
-0.18572152 0.44866905 -0.18949795
0.18717 0.44867238 -0.18948364
0.2092711 0.44922671 -0.18708396
0.23170532 0.45066932 -0.18083715
-0.25286809 0.47407159 -0.17496657
-0.23018709 0.47228375 -0.18245864
-0.2077761 0.47097531 -0.18794131
-0.18566319 0.47040293 -0.1903398
0.18711816 0.4704065 -0.19032562
0.20921269 0.47097871 -0.18792713
0.2315827 0.47229043 -0.18242991
0.2542063 0.47407839 -0.17493773
-0.18764853 -0.14292665 -0.1616838
-0.16483454 -0.1431759 -0.17248452
-0.14276882 -0.1431759 -0.17248452
-0.12070311 -0.1431759 -0.17248452
-0.098637387 -0.1431759 -0.17248452
-0.076571681 -0.1431759 -0.17248452
-0.05450597 -0.1431759 -0.17248452
-0.032440256 -0.1431759 -0.17248452
-0.010374541 -0.1431759 -0.17248452
0.011691173 -0.1431759 -0.17248452
0.033756886 -0.1431759 -0.17248452
0.0558226 -0.1431759 -0.17248452
0.077888317 -0.1431759 -0.17248452
0.099954031 -0.1431759 -0.17248452
0.12201974 -0.1431759 -0.17248452
0.14408545 -0.1431759 -0.17248452
0.16615115 -0.1431759 -0.17248452
0.18888558 -0.14292517 -0.16162586
-0.16549431 -0.12078039 -0.1617713
-0.14290671 -0.1210315 -0.16992581
0.14420563 -0.12103019 -0.16988242
0.16673002 -0.12077953 -0.16174221
-0.16539489 -0.098694406 -0.16338551
-0.14285137 -0.09898559 -0.1709528
0.14415753 -0.098984532 -0.17092383
0.16664304 -0.098693199 -0.16335642
-0.18794538 -0.076282084 -0.15739918
-0.16529559 -0.076633081 -0.16499805
-0.14276493 -0.07698217 -0.17255664
0.14408344 -0.076980859 -0.17252791
0.16655615 -0.076631725 -0.16496897
0.18914768 -0.076280817 -0.15736997
-0.18783322 -0.054187566 -0.1590184
-0.16519639 -0.054596469 -0.16660869
0.16646935 -0.054594904 -0.1665796
0.18904796 -0.054186001 -0.15898919
-0.18772116 -0.032117754 -0.16063571
-0.16509731 -0.032584667 -0.16821766
0.16638266 -0.032582894 -0.16818845
0.18894836 -0.032115936 -0.16060662
-0.18760923 -0.010072753 -0.16225135
-0.16499835 -0.010597497 -0.16982448
0.16629605 -0.0105955 -0.16979563
0.18884887 -0.010070741 -0.16222227
-0.18749742 0.011947438 -0.16386521
-0.16489948 0.011365235 -0.17142987
0.16620955 0.01136741 -0.1714009
0.18874949 0.011949614 -0.163836
-0.21008903 0.034585074 -0.15789533
-0.18738575 0.033943132 -0.16547692
-0.16480075 0.03330332 -0.17303324
0.16612315 0.0333056 -0.17300439
0.18865022 0.03394556 -0.16544783
0.21129538 0.034587488 -0.15786624
-0.20996444 0.056613445 -0.15951395
-0.18727419 0.055914074 -0.16708708
0.18855107 0.055916697 -0.16705799
0.21118322 0.056616187 -0.15948498
-0.20983997 0.078617215 -0.16113079
-0.18716277 0.077860177 -0.16869533
0.18845201 0.077863276 -0.16866636
0.21107121 0.078620166 -0.16110158
-0.20971565 0.10059628 -0.16274571
-0.18705146 0.099782109 -0.17030203
0.18835306 0.099785149 -0.17027307
0.21095932 0.10059947 -0.16271675
-0.20959148 0.12255085 -0.16435897
-0.18694027 0.12167928 -0.17190671
0.18825424 0.12168261 -0.17187786
0.21084756 0.12255418 -0.16432977
-0.2322263 0.14541575 -0.15837681
-0.20946741 0.14448065 -0.16597044
-0.18682922 0.14355204 -0.17350948
0.18815553 0.14355555 -0.17348075
0.21073592 0.14448413 -0.16594136
0.23343655 0.14541942 -0.15834773
-0.23208927 0.16737849 -0.15999484
-0.20934352 0.16638586 -0.16758001
0.2106244 0.16638958 -0.16755104
0.23331198 0.16738233 -0.15996575
-0.23195241 0.18931633 -0.16161108
-0.20921975 0.18826655 -0.16918755
0.21051301 0.18827057 -0.1691587
0.23318757 0.18932045 -0.16158199
-0.2318157 0.21122956 -0.16322565
-0.20909612 0.21012273 -0.17079365
0.21040173 0.21012691 -0.17076468
0.2330633 0.21123385 -0.16319644
-0.25450572 0.23428828 -0.15723872
-0.23167916 0.23311839 -0.16483831
-0.20897263 0.23195446 -0.17239773
0.2102906 0.2319589 -0.17236888
0.23293915 0.23312274 -0.16480923
0.25570747 0.23429286 -0.1572094
-0.25435615 0.25620961 -0.15885806
-0.23154275 0.25498253 -0.16644919
0.23281513 0.25498715 -0.16642022
0.25557035 0.25621432 -0.15882897
-0.25420672 0.27810633 -0.16047561
-0.23140648 0.27682227 -0.16805804
0.23269127 0.2768271 -0.16802919
0.25543338 0.27811134 -0.16044641
-0.23127039 0.29863724 -0.16966534
0.23256756 0.29864249 -0.16963649
-0.25405747 0.29997846 -0.16209126
0.25529656 0.29998353 -0.16206229
-0.25390837 0.32182589 -0.16370511
-0.23113444 0.32042822 -0.17127073
0.23244397 0.32043353 -0.171242
0.25515988 0.32183132 -0.16367614
-0.27663916 0.34510836 -0.15773487
-0.25375944 0.34364906 -0.1653173
-0.23099867 0.34219453 -0.17287433
0.2323205 0.34220031 -0.17284536
0.25502336 0.34365466 -0.16528845
0.27784494 0.3451139 -0.15770566
-0.27647713 0.36696342 -0.15935373
-0.25360936 0.36544475 -0.16694224
0.25488701 0.36545339 -0.16689861
0.27769542 0.36696938 -0.15932453
-0.27631533 0.38879439 -0.16097057
-0.25346076 0.38721874 -0.16855061
0.25475082 0.38722786 -0.16850722
0.27754602 0.38880029 -0.16094148
-0.27615368 0.41060039 -0.16258597
-0.25331235 0.40896836 -0.17015719
0.25461352 0.40897474 -0.17012835
0.27739683 0.41060659 -0.16255689
-0.27599224 0.43238214 -0.16419923
-0.25316411 0.43069372 -0.17176223
0.25447765 0.43070021 -0.17173326
0.27724779 0.43238863 -0.16417003
-0.29876652 0.45589343 -0.15821636
-0.27583095 0.45413956 -0.16581059
-0.25301602 0.45239487 -0.17336535
0.25434187 0.45240149 -0.17333639
0.27709892 0.45414618 -0.16578174
0.29997626 0.4559001 -0.15818715
-0.21066898 -0.14266512 -0.15036166
0.21181937 -0.14266381 -0.15030301
-0.21096632 -0.12031009 -0.14649916
-0.18817015 -0.12054595 -0.15415537
0.18934745 -0.12054504 -0.15412617
0.21208493 -0.12030923 -0.14646971
-0.2337437 -0.097811818 -0.14045691
-0.21084073 -0.098107196 -0.14813054
-0.18805771 -0.098401561 -0.15577817
0.1892475 -0.098400444 -0.15574896
0.21197191 -0.098106034 -0.14810121
0.23481604 -0.097810708 -0.14042759
-0.23360498 -0.075575262 -0.14209533
-0.21071528 -0.075929314 -0.14976013
0.21185902 -0.075927988 -0.1497308
0.23468994 -0.075574011 -0.14206576
-0.23346642 -0.053363726 -0.14373183
-0.21058884 -0.053777143 -0.15140259
0.21174623 -0.053774759 -0.1513586
0.23456395 -0.053362161 -0.14370227
-0.233328 -0.031177357 -0.14536631
-0.21046369 -0.031649277 -0.15302849
0.21163359 -0.031646639 -0.1529845
0.23443812 -0.031175554 -0.14533699
-0.23318973 -0.009016037 -0.14699912
-0.21033867 -0.0095463097 -0.1546526
0.21152005 -0.009544313 -0.15462327
0.23431243 -0.0090140253 -0.14696956
-0.25601092 0.013711914 -0.14094424
-0.23305164 0.013120413 -0.1486299
-0.21021378 0.012531832 -0.15627491
0.21140763 0.012534007 -0.15624571
0.2341869 0.013122529 -0.14860058
0.25708729 0.013714299 -0.14091468
-0.25585964 0.035881773 -0.14258194
-0.23291369 0.035231709 -0.1502589
0.23406149 0.035234228 -0.15022957
0.25694859 0.035884306 -0.14255261
-0.25570852 0.058026522 -0.14421785
-0.2327759 0.057318181 -0.15188622
0.23393621 0.057320952 -0.1518569
0.25681007 0.058029234 -0.1441884
-0.2555576 0.080146462 -0.14585197
-0.23263827 0.079379767 -0.15351164
0.23381108 0.079382747 -0.1534822
0.25667173 0.080149323 -0.14582241
-0.27843323 0.10306847 -0.13980711
-0.25540683 0.10224116 -0.14748406
-0.23250078 0.10141662 -0.15513504
0.2336861 0.10141972 -0.15510595
0.2565335 0.10224441 -0.14745462
-0.27826923 0.12519661 -0.14144611
-0.25525621 0.12431103 -0.14911449
-0.23236345 0.12342864 -0.15675688
0.23356126 0.12343198 -0.15672767
0.25639543 0.12431443 -0.14908504
0.27934965 0.12519994 -0.14141643
-0.25510576 0.14635623 -0.15074289
0.25625753 0.14635971 -0.15071368
-0.27810541 0.1472995 -0.14308333
0.27919844 0.14730313 -0.14305377
-0.27794173 0.16937765 -0.14471853
-0.2549555 0.16837627 -0.15236962
0.25611979 0.16838026 -0.15234029
0.27904737 0.1693815 -0.1446892
-0.27777827 0.19143063 -0.14635205
-0.25480542 0.19037166 -0.15399444
0.25598222 0.19037583 -0.15396512
0.27889648 0.19143474 -0.14632261
-0.27761498 0.21345896 -0.14798367
-0.25465548 0.21234241 -0.15561748
0.25584474 0.21234667 -0.15558815
0.27874574 0.21346337 -0.14795423
-0.30069798 0.21458364 -0.14029467
0.30176976 0.21458784 -0.14026499
-0.30052137 0.23664486 -0.14193296
-0.2774519 0.2354624 -0.14961338
0.27859518 0.23546684 -0.14958417
0.30160582 0.23664945 -0.14190352
-0.30034503 0.25868103 -0.14356959
-0.27728897 0.25744095 -0.15124142
0.2784448 0.25744566 -0.1512121
0.30144203 0.25868598 -0.14354026
-0.30016884 0.28069267 -0.14520442
-0.27712625 0.27939475 -0.15286744
0.27829456 0.27939969 -0.15283823
0.30127844 0.28069761 -0.14517486
-0.29999286 0.30267921 -0.14683747
-0.27696368 0.30132386 -0.1544919
0.27814454 0.30132905 -0.15446258
0.30111501 0.30268452 -0.14680791
-0.32295352 0.32605836 -0.14079666
-0.29981709 0.32464102 -0.14846838
-0.27680132 0.32322839 -0.15611422
0.27799466 0.32323387 -0.1560849
0.30095178 0.32464644 -0.14843893
0.32402942 0.32606384 -0.14076722
-0.32276437 0.34805271 -0.1424346
-0.29964146 0.34657791 -0.15009761
0.30078873 0.34658381 -0.15006828
0.3238529 0.34805855 -0.14240503
-0.32257548 0.37002239 -0.14407051
-0.2994661 0.36849031 -0.15172493
0.30062586 0.36849627 -0.15169573
0.32367656 0.37002823 -0.14404106
-0.32238677 0.39196709 -0.14570487
-0.2992909 0.39037809 -0.15335059
0.3004632 0.39038405 -0.15332139
0.32350045 0.39197335 -0.1456753
-0.32219827 0.41388723 -0.14733708
-0.2991159 0.41224095 -0.15497434
0.30030069 0.41224727 -0.15494502
0.32332453 0.41389355 -0.14730775
-0.29894111 0.43407944 -0.1565963
0.30013838 0.43408599 -0.15656698
-0.34520316 0.43749776 -0.14128375
-0.32201001 0.43578234 -0.14896774
0.32314879 0.4357889 -0.1489383
0.34628305 0.4375045 -0.14125431
-0.32182193 0.45765302 -0.15059614
0.32297325 0.45765999 -0.15056705
-0.25633043 -0.16470285 -0.13748586
-0.2339953 -0.16470285 -0.13748586
-0.21166018 -0.16470285 -0.13748586
-0.18932503 -0.16470285 -0.13748586
-0.16698989 -0.16470285 -0.13748586
-0.14465478 -0.16470285 -0.13748586
-0.12231963 -0.16470285 -0.13748586
-0.099984497 -0.16470285 -0.13748586
-0.077649355 -0.16470285 -0.13748586
-0.055314232 -0.16470285 -0.13748586
-0.032979093 -0.16470285 -0.13748586
-0.01064396 -0.16470285 -0.13748586
0.011691173 -0.16470285 -0.13748586
0.034026306 -0.16470285 -0.13748586
0.056361437 -0.16470285 -0.13748586
0.078696579 -0.16470285 -0.13748586
0.10103171 -0.16470285 -0.13748586
0.12336685 -0.16470285 -0.13748586
0.14570197 -0.16470285 -0.13748586
0.16803712 -0.16470285 -0.13748586
0.19037223 -0.16470285 -0.13748586
0.21270737 -0.16470285 -0.13748586
0.23504251 -0.16470285 -0.13748586
0.25737765 -0.16470285 -0.13748586
-0.25716415 -0.1421594 -0.12846053
-0.23387383 -0.14240086 -0.13892031
0.23493546 -0.14239985 -0.13887608
0.25814694 -0.14215803 -0.12840104
-0.25692227 -0.11983529 -0.13107896
-0.23388258 -0.12007362 -0.13881683
0.23494232 -0.12007267 -0.13878739
0.25792268 -0.11983439 -0.13104916
-0.25676993 -0.097514316 -0.13272774
0.25778306 -0.097513206 -0.13269818
-0.27993426 -0.074776858 -0.12480783
-0.25661781 -0.075218648 -0.13437474
0.25764358 -0.075217336 -0.13434505
0.28088805 -0.074774683 -0.12476313
-0.2795881 -0.052530497 -0.12826705
-0.25646582 -0.052948251 -0.13601995
0.25750428 -0.052946538 -0.13599038
0.28056988 -0.052527219 -0.12820745
-0.27942279 -0.030226052 -0.12991917
-0.25631404 -0.030702949 -0.13766325
0.25736511 -0.03070125 -0.13763368
0.28041449 -0.030224338 -0.12988925
-0.27925766 -0.0079471469 -0.13156927
-0.25616241 -0.0084829479 -0.13930464
0.25722611 -0.0084808767 -0.13927507
0.28026208 -0.0079449862 -0.1315397
-0.30238792 0.014968961 -0.12461376
-0.27909118 0.014305562 -0.13323247
0.28010979 0.014309034 -0.13318789
0.30334052 0.014972448 -0.12456906
-0.30211785 0.037191108 -0.1271199
-0.27892643 0.036534011 -0.13487887
0.27995771 0.036537915 -0.13483453
0.30308825 0.037193641 -0.1270901
-0.30193967 0.059453368 -0.12877333
-0.27876186 0.058737367 -0.13652349
0.27980441 0.05873996 -0.13649392
0.30292279 0.05945611 -0.12874353
-0.30176166 0.081690222 -0.13042474
-0.27859744 0.080915451 -0.13816631
0.27965268 0.080918491 -0.13813663
0.3027575 0.081693262 -0.13039494
-0.32485834 0.10473979 -0.12430024
-0.30158389 0.10390192 -0.13207424
0.27950108 0.10307181 -0.13977754
0.30259246 0.1039052 -0.13204479
0.3258073 0.10474303 -0.12427044
-0.32466707 0.12698507 -0.12595689
-0.30140629 0.1260885 -0.13372207
0.30242753 0.12609184 -0.1336925
0.32562876 0.12698847 -0.12592709
-0.32447597 0.14920512 -0.12761164
-0.30122891 0.1482498 -0.13536823
0.30226281 0.1482535 -0.13533831
0.32545042 0.14920878 -0.12758172
-0.32428342 0.17139804 -0.12927926
-0.30105174 0.17038622 -0.13701212
0.3020983 0.17039001 -0.13698232
0.32527229 0.171404 -0.12923467
-0.34743667 0.19464567 -0.12314999
-0.32409278 0.1935676 -0.13093019
-0.30087477 0.19249734 -0.13865423
0.30193394 0.1925014 -0.13862467
0.32509434 0.19357386 -0.13088572
0.34837699 0.19464982 -0.12312019
-0.34723246 0.21684873 -0.12480783
-0.32390237 0.21571198 -0.13257933
0.32491502 0.21571639 -0.13254964
0.34818554 0.21685308 -0.12477803
-0.34702849 0.2390264 -0.12646401
-0.32371217 0.23783135 -0.13422644
0.32473752 0.23783591 -0.13419676
0.3479943 0.23903096 -0.12643409
-0.34682474 0.26117909 -0.12811804
-0.32352218 0.25992548 -0.13587177
0.3245602 0.25993022 -0.1358422
0.34780332 0.26118377 -0.12808836
-0.32333243 0.28199488 -0.13751519
0.32438308 0.28199989 -0.13748562
-0.34662125 0.28330645 -0.1297704
0.34761253 0.28331164 -0.1297406
-0.36981761 0.30678579 -0.12364316
-0.34641799 0.30540881 -0.13142061
-0.32314286 0.30403915 -0.13915682
0.32420611 0.3040444 -0.13912737
0.34742194 0.30541405 -0.13139093
0.37076196 0.3067911 -0.12361324
-0.36960074 0.32892129 -0.12530053
-0.34621495 0.32748601 -0.13306928
0.3472316 0.32749155 -0.13303947
0.37055784 0.32892683 -0.12527061
-0.34601215 0.3495383 -0.13471603
0.34704146 0.34954396 -0.13468623
-0.36938214 0.35102883 -0.12697065
0.37035209 0.35103449 -0.12694108
-0.36916575 0.37311402 -0.12862444
-0.34580955 0.37156543 -0.13636065
0.34685153 0.37157127 -0.13633096
0.37014842 0.37311992 -0.12859464
-0.36894959 0.39517394 -0.13027608
-0.34560719 0.39356789 -0.13800347
0.34666181 0.39357397 -0.1379739
0.36994499 0.3951802 -0.1302464
-0.36873367 0.41720906 -0.13192582
-0.34540507 0.41554537 -0.1396445
0.34647232 0.41555157 -0.13961506
0.3697418 0.4172155 -0.13189626
-0.39218894 0.41888484 -0.12415099
0.39313743 0.41889122 -0.12412107
-0.39195937 0.44095269 -0.12580764
-0.36851802 0.43921897 -0.13357377
0.36953881 0.43922564 -0.13354421
0.39292061 0.44095936 -0.12577784
-0.28057054 -0.16440991 -0.11844981
0.2814768 -0.16440894 -0.11838996
-0.28097472 -0.14183488 -0.11441135
0.28184989 -0.14183351 -0.11435103
-0.28062758 -0.11942886 -0.11788011
0.28152943 -0.11942704 -0.11782014
-0.30426222 -0.096532695 -0.10722232
-0.28027976 -0.097076558 -0.12135577
0.28120834 -0.097074285 -0.12129581
0.30508104 -0.096530929 -0.1071769
-0.30388495 -0.074126229 -0.11072326
0.30473217 -0.074123502 -0.11066282
-0.30350852 -0.051773265 -0.11421585
0.30438265 -0.051770091 -0.11415565
-0.30313465 -0.029472753 -0.11768508
0.30403545 -0.029469013 -0.11762512
-0.32685301 -0.0062467009 -0.1070261
-0.30276003 -0.0072260201 -0.12116098
0.3036876 -0.0072218627 -0.12110114
0.32767066 -0.0062434226 -0.10698056
-0.32644874 0.016053453 -0.1105274
0.32729492 0.016058162 -0.11046708
-0.32604536 0.038300321 -0.11402047
0.32691845 0.038305372 -0.11396015
-0.32564473 0.060495585 -0.11749017
0.32654288 0.060499728 -0.11744511
-0.34944496 0.084050059 -0.10684454
-0.32524329 0.082636684 -0.12096655
0.32616982 0.082642704 -0.12090671
0.3502633 0.08405596 -0.10678411
-0.3490155 0.10624507 -0.1103313
0.34986067 0.10625184 -0.1102711
-0.34858522 0.12838596 -0.11382496
0.34945726 0.12839293 -0.11376476
-0.34815779 0.15047583 -0.11729491
0.34905481 0.15048134 -0.11724997
-0.37204167 0.17435965 -0.10664821
-0.34772956 0.1725114 -0.120772
0.34865505 0.17251933 -0.12071216
0.37285897 0.17436764 -0.10658765
-0.37158534 0.19644907 -0.11013532
0.37242946 0.19645739 -0.11007512
-0.37112808 0.2184836 -0.11362934
0.37199908 0.21849254 -0.11356926
-0.37067389 0.24046817 -0.11709988
0.37156975 0.24047506 -0.11705494
-0.39464143 0.26468152 -0.10645175
-0.37025213 0.26243916 -0.12032282
0.37117094 0.2624442 -0.1202929
0.39545768 0.26469147 -0.10639119
-0.39415818 0.28666493 -0.10993922
-0.37003475 0.28462508 -0.12198377
0.37096635 0.28463027 -0.12195408
0.39499927 0.28667265 -0.10989404
-0.39367396 0.30859348 -0.11343372
0.39454395 0.30860415 -0.11337364
-0.39319301 0.33047232 -0.11690474
0.39408767 0.33048061 -0.11685979
-0.4172442 0.35501549 -0.10625505
-0.39287922 0.35253027 -0.11916935
0.39378938 0.35253599 -0.11913943
0.41805941 0.35502705 -0.10619462
-0.41673404 0.37689289 -0.10974324
-0.39264888 0.37467358 -0.12083173
0.39357179 0.37467965 -0.12080181
0.41757396 0.37690189 -0.10969806
-0.41622287 0.39871517 -0.11323833
-0.39241877 0.39679179 -0.12249231
0.39335451 0.39679798 -0.12246239
0.41709179 0.39872763 -0.11317801
-0.41576999 0.42056951 -0.11633432
0.41665855 0.4205763 -0.1163044
-0.41552636 0.44269565 -0.11800003
0.41642776 0.4427025 -0.11796999
-0.30487403 -0.18676133 -0.10154581
-0.28226221 -0.18676133 -0.10154581
-0.25965041 -0.18676133 -0.10154581
-0.23703861 -0.18676133 -0.10154581
-0.21442685 -0.18676133 -0.10154581
-0.19181503 -0.18676133 -0.10154581
-0.16920322 -0.18676133 -0.10154581
-0.14659144 -0.18676133 -0.10154581
-0.12397962 -0.18676133 -0.10154581
-0.10136783 -0.18676133 -0.10154581
-0.078756019 -0.18676133 -0.10154581
-0.056144226 -0.18676133 -0.10154581
-0.033532426 -0.18676133 -0.10154581
-0.010920626 -0.18676133 -0.10154581
0.011691173 -0.18676133 -0.10154581
0.034302972 -0.18676133 -0.10154581
0.056914769 -0.18676133 -0.10154581
0.079526573 -0.18676133 -0.10154581
0.10213837 -0.18676133 -0.10154581
0.12475018 -0.18676133 -0.10154581
0.14736196 -0.18676133 -0.10154581
0.16997378 -0.18676133 -0.10154581
0.19258556 -0.18676133 -0.10154581
0.21519737 -0.18676133 -0.10154581
0.23780918 -0.18676133 -0.10154581
0.26042095 -0.18676133 -0.10154581
0.28303277 -0.18676133 -0.10154581
0.30564457 -0.18676133 -0.10154581
-0.30539629 -0.16407502 -0.096699595
0.30613565 -0.16407394 -0.096638799
-0.30501792 -0.14150696 -0.10021055
0.30578277 -0.14150596 -0.10016489
-0.32888383 -0.11855309 -0.089438558
-0.3046388 -0.11899313 -0.10372818
0.30543223 -0.11899135 -0.1036675
0.32956779 -0.11855127 -0.089377403
-0.32847643 -0.095983878 -0.092966795
0.3291859 -0.095982112 -0.092921019
-0.32806826 -0.07346943 -0.096501827
0.32880655 -0.07346651 -0.096440911
-0.3276628 -0.051007941 -0.10001326
0.32842645 -0.051005527 -0.099967599
-0.35161331 -0.027720913 -0.089239717
-0.32725653 -0.02860108 -0.10353136
0.32804891 -0.028597191 -0.1034708
0.3522962 -0.027717173 -0.089178562
-0.35117871 -0.0052588135 -0.092768431
0.35188699 -0.0052556694 -0.092722774
-0.35074323 0.017148361 -0.09630394
0.35148048 0.017153054 -0.096243024
-0.35031071 0.039503142 -0.099815726
0.35107321 0.039507136 -0.099770188
-0.34987733 0.061803311 -0.10333443
0.35066864 0.061808765 -0.10327375
-0.37434587 0.063123643 -0.089040875
0.37502772 0.063129306 -0.088979721
-0.37388402 0.085478425 -0.092570066
0.37459114 0.085482925 -0.09252429
-0.37342128 0.10777828 -0.096106052
0.37415749 0.1077849 -0.096045256
-0.37296164 0.13002652 -0.099618435
0.37372297 0.13003156 -0.099572778
-0.37250111 0.15221965 -0.10313749
0.3732914 0.15222707 -0.10307682
-0.39659241 0.17622805 -0.092371702
0.39729834 0.17623401 -0.092326045
-0.39610237 0.19842035 -0.095908165
0.39683753 0.19842884 -0.095847368
-0.39561564 0.2205618 -0.099420905
0.39637581 0.22056863 -0.099375248
-0.39512795 0.24264818 -0.10294068
0.39591718 0.24265757 -0.10287988
-0.41930386 0.26698971 -0.092173338
0.42001072 0.26699969 -0.092112303
-0.41878873 0.28907731 -0.095695019
0.41952062 0.28908497 -0.095649362
-0.41827267 0.31110939 -0.099223495
0.4190338 0.31112018 -0.099162698
-0.41775784 0.3330889 -0.10274363
0.41854602 0.33309999 -0.10268295
-0.44202071 0.35776666 -0.091959715
0.44272637 0.35777852 -0.091898441
-0.44147608 0.3797442 -0.095496893
0.44220901 0.37975654 -0.095436096
-0.44093278 0.40166906 -0.099025846
0.44169283 0.40168163 -0.098965168
-0.44039309 0.42354479 -0.10253131
0.44117785 0.42355463 -0.10248578
-0.32896155 -0.18666302 -0.088765383
0.32964197 -0.18666236 -0.088689089
-0.32970515 -0.16385365 -0.082325935
0.33033273 -0.16385294 -0.082279801
-0.329294 -0.14117606 -0.085886478
0.3299506 -0.14117475 -0.085825205
-0.35336798 -0.11810831 -0.07499361
0.3539395 -0.11810695 -0.074947238
-0.35292727 -0.095429957 -0.078571796
0.35352808 -0.095427535 -0.078510165
-0.3524895 -0.072805315 -0.08212626
0.35311589 -0.072803348 -0.082080007
-0.35205087 -0.050236061 -0.08568716
0.35270643 -0.050232679 -0.085625887
-0.37621045 -0.026831195 -0.074792862
0.37678081 -0.026828304 -0.07474649
-0.37574214 -0.0042613596 -0.078371644
0.37634188 -0.0042571723 -0.078310132
-0.3752749 0.018253878 -0.081941724
0.37590215 0.018258676 -0.081880331
-0.37481084 0.04071638 -0.085487962
0.37546536 0.040721625 -0.08542645
-0.39905602 0.064458311 -0.074591994
0.39962721 0.064464122 -0.074530244
-0.39856219 0.086921066 -0.078155875
0.39915878 0.086925656 -0.078109622
-0.39806744 0.10932803 -0.081726432
0.3986935 0.10933471 -0.081665039
-0.39757389 0.13168103 -0.085288525
0.39822733 0.131688 -0.085227132
-0.42190698 0.15576205 -0.074375749
-0.39708149 0.15398028 -0.088842034
0.39776227 0.15398785 -0.088780761
0.42247695 0.15576974 -0.074313998
-0.42138335 0.17811459 -0.077955365
0.42198086 0.17812264 -0.077893972
-0.42086107 0.20041314 -0.081526756
0.42148605 0.20042172 -0.081465125
-0.42034221 0.2226603 -0.085073948
0.42099237 0.22266707 -0.085027814
-0.44475883 0.24707681 -0.074174881
-0.41982239 0.24485168 -0.088627815
0.42050201 0.24486119 -0.088566542
0.44532773 0.24708641 -0.074113131
-0.44420999 0.26932311 -0.077739716
0.44480407 0.26933047 -0.077693701
-0.44366008 0.29151329 -0.081311584
0.4442839 0.29152367 -0.081249952
-0.44311151 0.31364992 -0.084874511
0.44376272 0.31366095 -0.084812999
-0.46761629 0.33840689 -0.073958635
-0.44256663 0.33573624 -0.088413715
0.44324282 0.33574465 -0.088367701
0.46818402 0.33841839 -0.073896766
-0.46703747 0.36054197 -0.077539444
0.46763268 0.36055371 -0.077477574
-0.46646246 0.3826265 -0.081096292
0.46708271 0.3826358 -0.081049919
-0.46588635 0.40465525 -0.084659576
0.46653643 0.40466794 -0.084598422
-0.3546353 -0.20937315 -0.064704537
-0.33173987 -0.20937315 -0.064704537
-0.30884448 -0.20937315 -0.064704537
-0.28594908 -0.20937315 -0.064704537
-0.26305369 -0.20937315 -0.064704537
-0.24015827 -0.20937315 -0.064704537
-0.21726288 -0.20937315 -0.064704537
-0.19436748 -0.20937315 -0.064704537
-0.17147206 -0.20937315 -0.064704537
-0.14857666 -0.20937315 -0.064704537
-0.12568127 -0.20937315 -0.064704537
-0.10278585 -0.20937315 -0.064704537
-0.079890445 -0.20937315 -0.064704537
-0.056995045 -0.20937315 -0.064704537
-0.034099638 -0.20937315 -0.064704537
-0.011204232 -0.20937315 -0.064704537
0.011691173 -0.20937315 -0.064704537
0.034586579 -0.20937315 -0.064704537
0.057481982 -0.20937315 -0.064704537
0.080377392 -0.20937315 -0.064704537
0.1032728 -0.20937315 -0.064704537
0.12616819 -0.20937315 -0.064704537
0.1490636 -0.20937315 -0.064704537
0.171959 -0.20937315 -0.064704537
0.19485439 -0.20937315 -0.064704537
0.21774982 -0.20937315 -0.064704537
0.24064521 -0.20937315 -0.064704537
0.26354063 -0.20937315 -0.064704537
0.28643605 -0.20937315 -0.064704537
0.30933145 -0.20937315 -0.064704537
0.33222684 -0.20937315 -0.064704537
0.35512224 -0.20937315 -0.064704537
-0.35450318 -0.18648598 -0.065776944
0.35500917 -0.18648537 -0.065683722
-0.35425073 -0.16363043 -0.067826509
0.35476711 -0.16362973 -0.067779899
-0.37859377 -0.14049932 -0.056580901
-0.35380787 -0.14084204 -0.071422219
0.3543537 -0.14084068 -0.07136023
0.37902978 -0.14049715 -0.056487083
-0.37809312 -0.11765928 -0.060406446
0.37855279 -0.11765771 -0.060359597
-0.37762025 -0.094869822 -0.064019918
0.3781077 -0.094867907 -0.063973427
-0.37714851 -0.072135538 -0.067624927
0.37766558 -0.072132722 -0.067562819
-0.40155172 -0.048667565 -0.05658102
-0.3766779 -0.049456432 -0.071220875
0.37722266 -0.049453154 -0.071158886
0.40198433 -0.048664138 -0.056518555
-0.40104973 -0.025932729 -0.060203671
0.40151021 -0.025928944 -0.060141444
-0.40054893 -0.0032529682 -0.063817859
0.40103725 -0.0032486767 -0.063755512
-0.40005153 0.019372836 -0.067407489
0.40056539 0.019376323 -0.067360997
-0.42453939 0.04318136 -0.056377649
-0.39955318 0.041942954 -0.071004152
0.40009674 0.041948169 -0.070942283
0.42497092 0.043186694 -0.056315184
-0.42401174 0.065807611 -0.059985399
0.42446885 0.065811843 -0.05993855
-0.42348304 0.088377684 -0.063599944
0.42397013 0.088383883 -0.063537717
-0.42295563 0.11089292 -0.067205906
0.4234705 0.11089966 -0.067143679
-0.44753262 0.13504466 -0.056158781
-0.42243177 0.13335544 -0.070787311
0.42297202 0.13336083 -0.070740819
0.44796294 0.13505185 -0.056096196
-0.44697469 0.15755945 -0.059782624
0.44743285 0.1575672 -0.059720039
-0.44642049 0.18002176 -0.06338203
0.44690409 0.18002793 -0.063335299
-0.44586524 0.20242757 -0.066988349
0.44637889 0.20243627 -0.066926241
-0.47052917 0.2269215 -0.055939674
-0.44531137 0.22477934 -0.070585966
0.4458527 0.22478831 -0.070523977
0.47095591 0.22692841 -0.055892944
-0.46994328 0.24932629 -0.059564114
0.47040027 0.24933603 -0.059501767
-0.46935877 0.27167678 -0.063179731
0.46984363 0.27168676 -0.063117504
-0.46877822 0.29397562 -0.066770911
0.46928829 0.29398373 -0.06672442
-0.49352649 0.31880888 -0.055736423
-0.46819657 0.31621829 -0.070369244
0.46873668 0.31622908 -0.070307136
0.49395454 0.31882009 -0.055673838
-0.4929153 0.34110656 -0.059345841
0.49336854 0.34111527 -0.059298754
-0.49230286 0.36334726 -0.062961698
0.49278647 0.3633593 -0.062899351
-0.49169192 0.3855342 -0.066569209
0.49220324 0.38554665 -0.066506982
-0.49108246 0.40766725 -0.070167661
0.49162149 0.40768 -0.07010591
-0.3804006 -0.20937319 -0.042774439
0.38074011 -0.20937315 -0.04260087
-0.38052455 -0.1863016 -0.04182744
0.38084707 -0.18630089 -0.041732788
-0.37955782 -0.16334385 -0.049214482
0.37993711 -0.16334248 -0.049120307
-0.40381494 -0.11703847 -0.04024756
0.40412605 -0.11703563 -0.040152669
-0.4027881 -0.094240069 -0.047658205
0.40315619 -0.094236426 -0.047563791
-0.40205497 -0.071457788 -0.052949309
0.40245757 -0.071455613 -0.052902222
-0.42712992 -0.047702268 -0.03866601
0.42742959 -0.047697157 -0.038571239
-0.42613703 -0.025024429 -0.045454502
0.42648235 -0.025021493 -0.045407295
-0.42560315 -0.0022337586 -0.049104571
0.42597875 -0.0022293925 -0.049041629
-0.42507067 0.020501539 -0.052745461
0.42547423 0.020506337 -0.052682877
-0.44977552 0.044433534 -0.041590452
0.45009381 0.044438958 -0.041527152
-0.44921216 0.067168921 -0.04524982
0.44955856 0.067174703 -0.045186877
-0.44865015 0.089848787 -0.048900247
0.44902465 0.089855015 -0.048837185
-0.44809189 0.11247507 -0.052525997
0.44849199 0.11248016 -0.052478909
-0.4728846 0.13675237 -0.041369319
0.47319922 0.13675776 -0.041322112
-0.47229293 0.15937653 -0.045029163
0.47263816 0.15938443 -0.044966102
-0.47170275 0.18194571 -0.048680305
0.47207606 0.18195406 -0.048617244
-0.47111401 0.20445979 -0.052322268
0.47151527 0.20446855 -0.052259564
-0.49599442 0.22908258 -0.041163921
0.49631038 0.22909185 -0.041100979
-0.49537453 0.25159574 -0.044824481
0.49571866 0.25160536 -0.0447613
-0.49475875 0.27405635 -0.048460245
0.4951283 0.27406394 -0.048412919
-0.49414191 0.29646006 -0.052102685
0.494542 0.29647049 -0.0520401
-0.5191102 0.32142821 -0.040942788
0.51942223 0.32143679 -0.040895462
-0.51846206 0.34383032 -0.044603825
0.51880485 0.34384176 -0.044540644
-0.51781547 0.36617753 -0.048255682
0.51818639 0.36618951 -0.048192859
-0.51717323 0.3884736 -0.051883101
0.51756942 0.38848296 -0.051836014
-0.38246819 -0.23255903 -0.026974916
-0.35928237 -0.23255903 -0.026974916
-0.3360965 -0.23255903 -0.026974916
-0.31291068 -0.23255903 -0.026974916
-0.28972483 -0.23255903 -0.026974916
-0.26653898 -0.23255903 -0.026974916
-0.24335314 -0.23255903 -0.026974916
-0.22016731 -0.23255903 -0.026974916
-0.19698146 -0.23255903 -0.026974916
-0.17379563 -0.23255903 -0.026974916
-0.15060976 -0.23255903 -0.026974916
-0.12742391 -0.23255903 -0.026974916
-0.10423806 -0.23255903 -0.026974916
-0.081052214 -0.23255903 -0.026974916
-0.057866368 -0.23255903 -0.026974916
-0.034680523 -0.23255903 -0.026974916
-0.011494675 -0.23255903 -0.026974916
0.011691173 -0.23255903 -0.026974916
0.034877021 -0.23255903 -0.026974916
0.058062866 -0.23255903 -0.026974916
0.081248716 -0.23255903 -0.026974916
0.10443456 -0.23255903 -0.026974916
0.12762041 -0.23255903 -0.026974916
0.15080625 -0.23255903 -0.026974916
0.1739921 -0.23255903 -0.026974916
0.19717796 -0.23255903 -0.026974916
0.2203638 -0.23255903 -0.026974916
0.24354964 -0.23255903 -0.026974916
0.26673549 -0.23255903 -0.026974916
0.28992134 -0.23255903 -0.026974916
0.31310719 -0.23255903 -0.026974916
0.33629304 -0.23255903 -0.026974916
0.35947886 -0.23255903 -0.026974916
0.38266474 -0.23255903 -0.026974916
-0.40588176 -0.16297621 -0.025331378
0.40607816 -0.1629747 -0.025235772
-0.40484691 -0.13995014 -0.032800078
0.40509868 -0.13994832 -0.032720685
-0.4293139 -0.093319178 -0.023734331
0.42949873 -0.09331549 -0.023638487
-0.42821804 -0.070454434 -0.031226516
0.42846051 -0.070450142 -0.031131148
-0.45277086 -0.023588374 -0.022135377
0.45294183 -0.023583412 -0.022055149
-0.45161608 -0.00088474154 -0.029635549
0.45184708 -0.00087822974 -0.029540062
-0.45046708 0.02170603 -0.037098765
0.45075542 0.021713361 -0.037003636
-0.47503895 0.068758428 -0.028042912
0.47525594 0.06876567 -0.027963281
-0.47406968 0.091336042 -0.034038663
0.47433034 0.091342211 -0.033975124
-0.47347516 0.11407113 -0.037716389
0.47376409 0.1140779 -0.037653089
-0.49848655 0.13847536 -0.026448607
0.49869192 0.13848451 -0.026368737
-0.49786058 0.16121 -0.030144811
0.49809179 0.16121781 -0.030081391
-0.49723879 0.18389076 -0.033816338
0.49749568 0.18389708 -0.033768773
-0.52236938 0.20858732 -0.022535205
-0.49661586 0.20651433 -0.037494659
0.4969036 0.20652327 -0.037431479
0.52254248 0.20859608 -0.022471189
-0.52171606 0.2312676 -0.026225328
0.52191484 0.23127452 -0.026177287
-0.52106148 0.25388992 -0.029922247
0.52129143 0.25389966 -0.02985847
-0.52040857 0.27645704 -0.033609986
0.52066684 0.2764672 -0.033546448
-0.51976001 0.29897162 -0.037273049
0.52004379 0.29897943 -0.037225366
-0.54563081 0.30150536 -0.022311211
0.54580265 0.30151621 -0.022247434
-0.54494596 0.32407072 -0.026017785
0.54514641 0.32408211 -0.025954008
-0.54426581 0.34658369 -0.029699206
0.54449171 0.34659269 -0.029651523
-0.54358441 0.36903885 -0.033387661
0.54384142 0.36905119 -0.033324122
-0.54290462 0.39143899 -0.037067175
0.54319 0.39145163 -0.037003756
-0.40711531 -0.23264018 -0.016429305
0.40725377 -0.23264149 -0.016252637
0.40804982 -0.20937319 -0.010169625
-0.4079715 -0.20937304 -0.01025033
-0.40692401 -0.18611673 -0.017809629
0.40706259 -0.18611602 -0.017713428
-0.43151969 -0.13939254 -0.0086530447
0.43158859 -0.13939017 -0.0085562468
-0.43041524 -0.1162981 -0.016204596
0.43053994 -0.11629563 -0.016124129
-0.45509523 -0.069337249 -0.0070382357
0.45515245 -0.069332749 -0.0069411993
-0.45392889 -0.046406165 -0.014613509
0.45404437 -0.04640092 -0.014517069
-0.47869587 0.00079260767 -0.0054214001
0.47873896 0.0007982254 -0.005340457
-0.47746995 0.023560792 -0.013005018
0.47757378 0.023568124 -0.012908578
-0.47625011 0.046215206 -0.020550728
0.47641197 0.046223283 -0.020454764
-0.50103611 0.093602091 -0.01139462
0.50112563 0.093610138 -0.011314154
-0.49975678 0.11609375 -0.018948197
0.49990708 0.1161041 -0.018851995
-0.52462441 0.16371605 -0.0097985268
0.52470505 0.16372782 -0.0097019672
-0.52328843 0.18604663 -0.017344356
0.52342433 0.18605712 -0.017264009
-0.5482406 0.23390612 -0.0081847906
0.54830962 0.23392048 -0.0080881119
-0.54700243 0.25620487 -0.014886975
0.54711723 0.25621474 -0.014822721
-0.54631722 0.27888414 -0.018595695
0.54645771 0.27889198 -0.018547654
-0.57188207 0.30417129 -0.0065693855
0.57193637 0.304185 -0.0064884424
-0.57104337 0.32674262 -0.0109272
0.57112527 0.32675108 -0.01087904
-0.57032466 0.34936205 -0.014661789
0.57043821 0.34937391 -0.014597416
-0.56960773 0.37192568 -0.018387198
0.56974995 0.37193796 -0.018322945
-0.43450013 -0.25634068 0.011723995
-0.41101635 -0.25634068 0.011723995
-0.38753259 -0.25634068 0.011723995
-0.36404884 -0.25634068 0.011723995
-0.34056509 -0.25634068 0.011723995
-0.31708133 -0.25634068 0.011723995
-0.29359761 -0.25634068 0.011723995
-0.27011383 -0.25634068 0.011723995
-0.24663009 -0.25634068 0.011723995
-0.22314635 -0.25634068 0.011723995
-0.1996626 -0.25634068 0.011723995
-0.17617884 -0.25634068 0.011723995
-0.15269509 -0.25634068 0.011723995
-0.12921134 -0.25634068 0.011723995
-0.10572758 -0.25634068 0.011723995
-0.08224383 -0.25634068 0.011723995
-0.05876008 -0.25634068 0.011723995
-0.035276331 -0.25634068 0.011723995
-0.011792579 -0.25634068 0.011723995
0.011691173 -0.25634068 0.011723995
0.035174925 -0.25634068 0.011723995
0.058658674 -0.25634068 0.011723995
0.082142428 -0.25634068 0.011723995
0.10562618 -0.25634068 0.011723995
0.12910993 -0.25634068 0.011723995
0.15259367 -0.25634068 0.011723995
0.17607743 -0.25634068 0.011723995
0.19956118 -0.25634068 0.011723995
0.22304493 -0.25634068 0.011723995
0.24652869 -0.25634068 0.011723995
0.27001244 -0.25634068 0.011723995
0.29349619 -0.25634068 0.011723995
0.31697997 -0.25634068 0.011723995
0.3404637 -0.25634068 0.011723995
0.36394745 -0.25634068 0.011723995
0.3874312 -0.25634068 0.011723995
0.41091496 -0.25634068 0.011723995
0.43439871 -0.25634068 0.011723995
-0.43375006 -0.18592882 0.0065959692
0.43369946 -0.18592821 0.0066775084
-0.43263206 -0.16260232 -0.0010476112
0.43264249 -0.16260076 -0.00095033646
-0.45744297 -0.11554632 0.0082108974
0.45738295 -0.11554334 0.0083090067
-0.45626739 -0.092383578 0.00057554245
0.45626372 -0.092380248 0.00065660477
-0.48116368 -0.045088187 0.0098439455
0.48109186 -0.045082986 0.0099418163
-0.47992539 -0.022090673 0.0021840334
0.47991243 -0.022084713 0.0022816658
-0.50490981 0.02544558 0.011478662
0.50482351 0.025451794 0.011560559
-0.50361115 0.048278123 0.0038104057
0.50358641 0.048286378 0.0039082766
-0.50231904 0.070996106 -0.0038192272
0.50235295 0.071004927 -0.0037220716
-0.52732229 0.11872196 0.0054389238
0.52728301 0.11873075 0.005520463
-0.52596998 0.14127541 -0.002199173
0.52599216 0.14128667 -0.0021020174
-0.55105579 0.1892392 0.00705266
0.55100769 0.18925205 0.0071504116
-0.5496462 0.21162993 -0.00057709217
0.54965383 0.21164104 -0.00049591064
-0.57481766 0.25983378 0.0086843967
0.5747577 0.25984883 0.0087823868
-0.57334459 0.28205693 0.0010300875
0.57334346 0.2820726 0.0011277199
-0.59860492 0.33050409 0.010317802
0.59853005 0.33051869 0.01039958
-0.59707129 0.35256156 0.0026556253
0.59705848 0.35257939 0.0027530193
-0.43600056 -0.2329358 0.021982789
0.4358339 -0.23293667 0.022081614
-0.43487129 -0.20937319 0.014261842
0.43476397 -0.20937319 0.014360309
-0.45981443 -0.16222262 0.023614287
0.459636 -0.16222104 0.023713112
-0.45862696 -0.13882533 0.015901446
0.45850787 -0.13882315 0.015999913
-0.48365641 -0.091433287 0.025263786
0.48346606 -0.091429442 0.025362849
-0.4824082 -0.068201929 0.017542601
0.48227468 -0.068198085 0.017624855
-0.50752407 -0.020567611 0.026915073
0.50732172 -0.020561486 0.027014375
-0.50621223 0.0024964064 0.019169211
0.50606942 0.0025033802 0.019267797
-0.53141749 0.050374418 0.028568149
0.53120035 0.050381482 0.02865088
-0.53004456 0.073271483 0.020813942
0.52988982 0.073280603 0.020912766
-0.52867854 0.096053213 0.013098955
0.52858317 0.096063077 0.013197184
-0.55390245 0.14412281 0.022460461
0.55373293 0.14413247 0.022542953
-0.55247551 0.166738 0.014737248
0.55236834 0.1667501 0.014835477
-0.57778293 0.21504828 0.024092317
0.57760453 0.21506196 0.02419138
-0.57629496 0.23749644 0.01636076
0.57617599 0.23751062 0.016459107
-0.60169214 0.28605184 0.025742412
0.60150182 0.28606775 0.025841713
-0.60014302 0.30833277 0.01800251
0.60001224 0.30834928 0.018101096
-0.46266177 -0.20937319 0.04210794
0.46235088 -0.2093731 0.042274833
-0.46101049 -0.18573809 0.031382561
0.46077228 -0.18573737 0.03148222
-0.48617446 -0.13824949 0.040840387
0.48586437 -0.13824721 0.040940404
-0.48491359 -0.11478171 0.033040643
0.48466343 -0.11477863 0.033140063
-0.51016492 -0.067048758 0.042508602
0.50984269 -0.067044109 0.042608738
-0.50883979 -0.043749705 0.034683704
0.50857764 -0.043744251 0.034783363
-0.5341813 0.0042291135 0.044178486
0.53384703 0.0042359829 0.04427886
-0.53279442 0.027359664 0.036345243
0.53252035 0.027367339 0.036445022
-0.55822068 0.075582862 0.045833468
0.55787444 0.075591952 0.045934081
-0.55677503 0.098546028 0.038008451
0.55648893 0.098555982 0.038108468
-0.55533355 0.12139142 0.030206561
0.55510741 0.12140194 0.030305982
-0.5807783 0.16980737 0.039656997
0.58048034 0.16981962 0.039757013
-0.57927847 0.19248605 0.031863332
0.57904035 0.19249928 0.031962633
-0.60481071 0.24114734 0.0413239
0.60450071 0.241162 0.041423917
-0.60324579 0.26365522 0.033505321
0.60299587 0.26367062 0.03360486
-0.62886918 0.31256488 0.042992711
0.62854713 0.31258193 0.043092728
-0.62724233 0.33490339 0.03516531
0.62698036 0.33492115 0.035265088
-0.44031745 -0.28074291 0.051497579
