ply
format ascii 1.0
comment PCL generated
element vertex 1346
property float x
property float y
property float z
element camera 0
property float view_px
property float view_py
property float view_pz
property float x_axisx
property float x_axisy
property float x_axisz
property float y_axisx
property float y_axisy
property float y_axisz
property float z_axisx
property float z_axisy
property float z_axisz
property float focal
property float scalex
property float scaley
property float centerx
property float centery
property int viewportx
property int viewporty
property float k1
property float k2
end_header
0.12314527 0.25822055 -0.26012284
0.14561756 0.25864896 -0.25664461
0.16814384 0.25907835 -0.25315785
0.19072351 0.25950721 -0.24967593
0.2133583 0.25993881 -0.24617261
-0.01098358 0.14951199 -0.22647095
0.011587105 0.1493253 -0.22867465
0.034137025 0.14928354 -0.22916842
-0.10126014 0.17206779 -0.22663128
-0.078622438 0.17186311 -0.22884822
-0.056019239 0.1716598 -0.23104823
-0.033449765 0.17145565 -0.23325825
-0.010914342 0.17125186 -0.23546517
0.011587105 0.17104939 -0.23765528
0.034067303 0.17099679 -0.2382257
0.056601658 0.17132178 -0.23470783
0.079190686 0.17164871 -0.23116803
0.10183447 0.17197651 -0.22762001
-0.19152591 0.19461989 -0.22680509
-0.16882211 0.19439945 -0.2290082
-0.14615171 0.19417799 -0.23122156
-0.12351612 0.19395801 -0.23341799
-0.10091399 0.19373724 -0.23562455
-0.078345932 0.19351682 -0.2378279
-0.055812173 0.19329801 -0.24001455
-0.03331193 0.19307816 -0.2422111
-0.01084563 0.19286004 -0.24439114
0.056462739 0.19292605 -0.2437309
0.078981802 0.19327801 -0.24021304
0.10155487 0.19362965 -0.23670006
0.12418287 0.19398338 -0.23316526
0.14686568 0.19433799 -0.22962189
0.16960277 0.19469213 -0.2260834
-0.21357167 0.21645665 -0.23359096
-0.19090383 0.21622029 -0.23578393
-0.16826917 0.21598288 -0.23798704
-0.14566861 0.21574584 -0.24018657
-0.12310267 0.21551052 -0.24236983
-0.10056996 0.21527416 -0.24456269
0.12383469 0.21552774 -0.2422111
0.14644685 0.21590719 -0.23868966
0.16911368 0.21628761 -0.23515964
0.1918354 0.21666902 -0.23162115
0.21461128 0.21704987 -0.22808743
-0.25924134 0.23977005 -0.22668493
-0.2359603 0.23879915 -0.23509324
-0.21288261 0.23793894 -0.24254167
-0.19028464 0.23768732 -0.24472123
0.16862692 0.23774827 -0.24419308
0.19127774 0.23815432 -0.24067652
0.2139833 0.23856148 -0.23715138
0.23674278 0.23896793 -0.23363078
0.25955829 0.23937702 -0.23008859
-0.28167671 0.26217458 -0.22802079
-0.25834194 0.26113978 -0.23642123
-0.23514058 0.26011109 -0.24477404
0.23604767 0.26037136 -0.24266058
0.2587907 0.26080334 -0.2391535
0.28178373 0.2614966 -0.23352456
-0.01112334 0.10562842 -0.20831537
0.011587105 0.10547294 -0.21055996
0.034277983 0.10545233 -0.21085715
0.057024043 0.10570067 -0.20727324
-0.10195887 0.1283264 -0.20847785
-0.079180568 0.12815364 -0.21072209
-0.056436896 0.12798116 -0.21296322
-0.033727989 0.12780987 -0.21518707
-0.011053245 0.12763795 -0.21742117
0.011587105 0.12746724 -0.21963859
0.034207284 0.12743627 -0.22004139
0.056882512 0.12771149 -0.21646619
0.079612665 0.12798628 -0.21289551
0.10239848 0.12826286 -0.2093029
-0.10160843 0.15026459 -0.2175827
-0.078900643 0.15007573 -0.21981311
-0.05622758 0.14988828 -0.22202682
-0.033588447 0.14970002 -0.22425067
0.056741647 0.14958431 -0.22561526
0.079401173 0.149886 -0.22205353
0.10211539 0.15018719 -0.21849668
-0.19278347 0.1510206 -0.20865369
-0.16993827 0.15083171 -0.21088421
-0.14712685 0.15064205 -0.21312499
-0.12435009 0.15045263 -0.21536231
0.12488522 0.15049033 -0.21491766
0.14771055 0.15079407 -0.21133006
0.17059156 0.15109861 -0.20773351
-0.21506307 0.17321458 -0.21421695
-0.19215275 0.17288765 -0.21775746
-0.16937847 0.17268285 -0.21997416
-0.14663777 0.17247713 -0.22220123
-0.12393152 0.17227161 -0.22442448
0.1245332 0.17230511 -0.22406328
0.14728647 0.17263326 -0.2205112
0.17009562 0.17296338 -0.21693707
0.19296037 0.17329443 -0.21335423
0.21587989 0.17362484 -0.20977616
-0.26105702 0.19659883 -0.20702934
-0.23761514 0.19574615 -0.2155509
-0.21430817 0.19489828 -0.22402298
0.19239573 0.19504842 -0.22252285
0.21524407 0.19540566 -0.21895361
0.23814702 0.19576228 -0.21538913
0.26110673 0.19612116 -0.21180248
-0.2836419 0.21917334 -0.2083832
-0.26014552 0.21825582 -0.21689665
-0.23678441 0.21734366 -0.22536123
0.23744322 0.21743301 -0.22453165
0.26033068 0.21781728 -0.22096741
0.28365076 0.21864197 -0.2133137
-0.30620608 0.24172711 -0.20973551
-0.28265536 0.24074498 -0.21824145
0.28271341 0.24014235 -0.22346056
0.30632135 0.24131244 -0.21332741
-0.32875112 0.26426187 -0.21107352
-0.30514607 0.26321518 -0.21957135
0.30530593 0.26273444 -0.22347391
0.32899177 0.26398259 -0.21334064
-0.034151625 0.061319962 -0.18767142
-0.011264843 0.061198115 -0.18993378
0.011587105 0.061075553 -0.19220626
0.034420609 0.061068892 -0.19232941
0.057309996 0.061264545 -0.18869996
-0.12562148 0.084179178 -0.18783593
-0.10266578 0.084039047 -0.19011176
-0.07974565 0.083899915 -0.19237041
-0.056860067 0.083760247 -0.19463933
-0.034009464 0.083620802 -0.1969049
-0.011193872 0.083482265 -0.19915318
0.011587105 0.083343253 -0.20141172
0.034349021 0.083329767 -0.20162928
0.057166677 0.083552822 -0.19800901
0.080039956 0.083775416 -0.19439352
0.10296959 0.08399941 -0.19075549
-0.1940567 0.10687825 -0.19027627
-0.17106748 0.10672081 -0.19254827
-0.14811414 0.10656451 -0.19480324
-0.12519506 0.10640772 -0.19706845
-0.10231097 0.10625103 -0.19933009
-0.07946223 0.10609542 -0.2015748
-0.056647822 0.1059393 -0.20382965
-0.033868395 0.10578422 -0.20606744
0.079825796 0.10595043 -0.20366669
0.10268335 0.1062009 -0.20005155
0.12559637 0.10645109 -0.19644105
0.14856602 0.10670279 -0.19280815
0.17159209 0.10695519 -0.18916631
-0.21658908 0.12941065 -0.19439352
-0.19341812 0.12901798 -0.19949353
-0.1705007 0.12884419 -0.20175147
-0.14761896 0.12867165 -0.20399272
-0.12477126 0.12849838 -0.20624352
0.12523994 0.12854005 -0.20570159
0.14813663 0.12881693 -0.20210493
0.1710899 0.12909557 -0.19848585
0.19409943 0.12937488 -0.19485784
0.21716544 0.1296549 -0.19122124
0.24028707 0.12993447 -0.18758905
-0.23929222 0.15211374 -0.19574523
-0.21582402 0.15138671 -0.20433164
0.1935277 0.1514028 -0.20414174
0.21652067 0.15170875 -0.20052779
0.23956995 0.15201557 -0.1969049
0.262714 0.15236136 -0.19282186
-0.28563362 0.17559206 -0.18848073
-0.26197341 0.174795 -0.19710946
-0.2384503 0.17400244 -0.205688
0.23885626 0.17395753 -0.20617592
0.2618888 0.17429078 -0.20256674
0.28554246 0.17518982 -0.19283545
-0.30834901 0.198318 -0.18985152
-0.2846351 0.19745663 -0.19845855
0.28459331 0.19699106 -0.2031101
0.30837068 0.19801801 -0.19284928
-0.33104506 0.22102445 -0.19120753
-0.30727467 0.22009626 -0.19982016
0.30734247 0.21974027 -0.20312381
0.33120018 0.22084752 -0.19284928
-0.35371867 0.24370861 -0.19257569
-0.32989344 0.242715 -0.20118058
0.33009142 0.24248913 -0.20313728
0.35402811 0.2436755 -0.19286287
-0.35249308 0.26531464 -0.20252597
0.35284016 0.26523766 -0.20315087
-0.37637317 0.26637349 -0.19392896
0.37685582 0.26650313 -0.19287646
-0.12648237 0.039303869 -0.16919732
-0.10338208 0.039197505 -0.17150187
-0.080317393 0.039091185 -0.17380273
-0.057288527 0.038985685 -0.17608631
-0.034294672 0.038879827 -0.17838025
-0.011336259 0.038774684 -0.18065667
0.011587105 0.038669005 -0.18294358
0.034492549 0.038667083 -0.18298483
0.05745443 0.038836375 -0.17931867
0.080472969 0.039006218 -0.1756438
0.10354794 0.039175704 -0.17197335
0.1266803 0.039346233 -0.16828024
-0.19534591 0.062182367 -0.17166829
-0.17221168 0.062058285 -0.17396891
-0.14911303 0.061934561 -0.17626595
-0.12605058 0.0618117 -0.17854583
-0.10302281 0.061688319 -0.18083572
-0.080030419 0.061565086 -0.1831224
-0.05707363 0.061442867 -0.18539178
0.080255777 0.061461329 -0.1850481
0.10325807 0.061658546 -0.18138719
0.12631705 0.061856374 -0.17771721
0.14943233 0.062053829 -0.174052
0.17260528 0.062252641 -0.1703639
-0.21813683 0.085013598 -0.17428744
-0.19469932 0.084600031 -0.18100131
-0.17163779 0.084459409 -0.18328762
-0.14861166 0.084318742 -0.18557024
0.12595558 0.08422403 -0.18710864
0.14899813 0.084449127 -0.18345273
0.17209671 0.084674016 -0.17980158
0.19525291 0.08490029 -0.17612779
0.21846631 0.085126996 -0.1724447
0.2417371 0.085354358 -0.16875267
-0.24099205 0.10789016 -0.17567134
-0.21736033 0.10728708 -0.18437433
0.19467478 0.10720806 -0.1855154
0.21781333 0.10746062 -0.18186927
0.24100979 0.10771474 -0.17820048
0.26447353 0.10814145 -0.17204273
-0.26382604 0.13074532 -0.17705405
-0.24013869 0.13007608 -0.18574893
0.26359129 0.13032912 -0.18246162
0.28746191 0.13113014 -0.17205656
-0.2876524 0.1314186 -0.1683079
-0.31052259 0.15432063 -0.16968346
-0.28664029 0.1535807 -0.1784215
-0.26289722 0.15284503 -0.18710852
0.28649944 0.1532374 -0.18247545
0.31045011 0.15411854 -0.1720705
-0.33337012 0.17720026 -0.17107177
-0.30943212 0.17639375 -0.1798017
0.30940747 0.17614552 -0.18248928
0.33343804 0.17710668 -0.17208421
-0.35619643 0.20005858 -0.17245853
-0.33220285 0.19918582 -0.1811806
0.33231521 0.19905338 -0.18250299
0.35642579 0.20009464 -0.17209804
-0.37900338 0.2228972 -0.17383051
-0.35495418 0.22195813 -0.18254435
0.35522279 0.22196105 -0.18251669
0.37941504 0.22308388 -0.17209828
-0.40178749 0.2457132 -0.17521477
-0.37768292 0.244708 -0.1839205
0.37813014 0.24486861 -0.18253064
0.40240249 0.24607158 -0.17211199
-0.42455247 0.26850995 -0.17658412
-0.40039253 0.26743859 -0.18528187
0.40103725 0.2677758 -0.18254435
0.42538971 0.26905903 -0.17212594
0.011587105 -0.0061033741 -0.14919746
-0.15050265 0.017012887 -0.15047812
-0.12724115 0.016924679 -0.15276933
-0.10401504 0.016836591 -0.15505719
-0.080824271 0.016748622 -0.15734148
-0.057668753 0.016660847 -0.15962231
-0.034548406 0.016573131 -0.16189957
-0.011463146 0.016485639 -0.16417348
0.011587105 0.016397752 -0.16645801
0.034620732 0.01640255 -0.1663326
0.057710584 0.016543165 -0.16268134
0.080856852 0.016684093 -0.15902102
0.10405975 0.016825229 -0.15535164
0.12731948 0.016966842 -0.15167344
-0.21970466 0.040009469 -0.15392065
-0.19599561 0.039622918 -0.16229057
-0.17278916 0.039516643 -0.16459167
-0.14961755 0.039409846 -0.16690314
0.14986993 0.039517209 -0.1645776
0.17311707 0.039688736 -0.16086614
0.19642107 0.039860025 -0.15715945
0.21978372 0.040032178 -0.15342927
0.24320455 0.040204927 -0.14969027
-0.24271505 0.063063085 -0.15532351
-0.21891755 0.062587708 -0.16414571
0.19583556 0.062451914 -0.16666675
0.21912242 0.06265083 -0.16297436
0.24246794 0.062850997 -0.1592586
0.26625788 0.063297674 -0.15097034
-0.26570395 0.086095229 -0.15672517
-0.24185123 0.085553184 -0.1655252
0.26536196 0.085797906 -0.16155052
0.28940848 0.086448669 -0.15098441
-0.31272432 0.10972033 -0.14925349
-0.2886728 0.10910666 -0.15811157
-0.26476243 0.10849664 -0.16691709
0.28843111 0.10886742 -0.16156447
0.31255886 0.10959952 -0.15099859
-0.33572695 0.13277721 -0.15066087
-0.31161895 0.13209589 -0.15951037
0.31150144 0.1319378 -0.16156447
0.33570901 0.13274996 -0.15101254
-0.35870978 0.15581349 -0.15205276
-0.33454531 0.15506485 -0.16089416
0.33457029 0.15500689 -0.16157842
0.35885894 0.15590051 -0.15102661
-0.38166952 0.17882732 -0.1534574
-0.35744885 0.17801136 -0.16229045
0.3576389 0.17807585 -0.16159248
0.38200864 0.17905056 -0.15104067
-0.4046078 0.20181969 -0.15486085
-0.38033098 0.20093659 -0.16368556
0.38070729 0.20114455 -0.16160631
0.40515816 0.20220047 -0.15105474
-0.42752674 0.224792 -0.15624881
-0.4031938 0.22384188 -0.16506541
0.40377548 0.22421309 -0.16162038
0.42830747 0.22535026 -0.15106881
-0.45052797 0.24782065 -0.15696335
-0.42603353 0.24672434 -0.16645777
0.42684346 0.2472814 -0.16163433
0.4514586 0.24850136 -0.15106881
-0.47447982 0.27157116 -0.1517297
-0.44885415 0.26958746 -0.16783535
0.44991124 0.27034953 -0.16164827
0.47460756 0.27165073 -0.15108287
0.011587105 -0.028865993 -0.13175082
0.034890562 -0.028855108 -0.13128078
-0.17487568 -0.005534254 -0.1307106
-0.15144198 -0.0056061447 -0.13304639
-0.12804505 -0.0056774095 -0.13536429
-0.10468394 -0.0057487637 -0.13767862
-0.081358574 -0.0058198571 -0.1399895
-0.058068864 -0.0058909208 -0.14229679
-0.034814745 -0.0059618726 -0.14460027
-0.011596113 -0.0060326234 -0.14690077
0.034754917 -0.0060943216 -0.1489017
0.05797939 -0.0059810355 -0.14522171
0.081261054 -0.0058670118 -0.14151859
0.1046 -0.005752705 -0.1378063
0.12799647 -0.0056381673 -0.13408482
0.15145063 -0.0055231676 -0.1303544
-0.22106862 0.0175623 -0.13620234
-0.19719382 0.01722382 -0.14499593
-0.17379965 0.017101228 -0.14818335
0.15063561 0.017108232 -0.14800024
0.17400955 0.017250501 -0.1443038
0.19744095 0.01739309 -0.14059842
0.22093002 0.017536044 -0.13688385
0.24451426 0.017698027 -0.13267636
-0.26760894 0.04083243 -0.13610315
-0.24358599 0.040419683 -0.14503813
0.26715896 0.040637195 -0.14032924
-0.29073322 0.064022258 -0.13752246
-0.26665318 0.063541234 -0.14644933
0.29039145 0.063870311 -0.14034343
-0.3381162 0.087742835 -0.12996936
-0.31383577 0.08719039 -0.13894081
-0.28969878 0.086641148 -0.14785933
0.31362516 0.087103963 -0.14034343
-0.36125594 0.11095867 -0.13138044
-0.33691826 0.11033764 -0.14034355
0.33685732 0.11033666 -0.14035761
-0.38437229 0.13415177 -0.13280439
-0.35997763 0.13346241 -0.14175916
0.36008924 0.13356915 -0.1403718
-0.40746886 0.15732414 -0.13421285
-0.38301721 0.15656662 -0.14315915
0.38332099 0.15680146 -0.14038599
-0.43054187 0.1804738 -0.13563418
-0.40603343 0.17964822 -0.14457226
0.40655249 0.18003353 -0.14040017
-0.45435709 0.20409817 -0.1320926
-0.42902809 0.20270792 -0.14598382
0.42978379 0.20326531 -0.14041424
-0.4524357 0.22605044 -0.14457214
0.45301485 0.22649699 -0.14042842
-0.47648993 0.24986088 -0.1392951
0.47624573 0.24972835 -0.14044261
-0.50062859 0.27375495 -0.13399959
0.49947637 0.27295953 -0.1404568
-0.011866701 -0.051857915 -0.11175025
0.011587105 -0.051894192 -0.11410069
0.035027809 -0.051884077 -0.11345208
-0.17596339 -0.02843412 -0.11304855
-0.15239303 -0.02848839 -0.1153971
-0.12885898 -0.028542489 -0.11774206
-0.10536062 -0.028596811 -0.12009788
-0.081899084 -0.028650858 -0.12243557
-0.058473632 -0.028704837 -0.12476957
-0.035084173 -0.028758563 -0.12710047
-0.011730622 -0.028812319 -0.12942743
0.058251567 -0.028768793 -0.12754333
0.081670322 -0.028682277 -0.12379646
0.10514662 -0.028595902 -0.12005484
0.12868141 -0.028508894 -0.11628962
0.15227461 -0.028421782 -0.11251473
-0.22253397 -0.0051171184 -0.117167
-0.19850492 -0.0053913221 -0.12607133
0.17496198 -0.0054084882 -0.12662888
0.19853213 -0.0052930936 -0.12287974
0.22216064 -0.0051772147 -0.11912155
0.24603188 -0.0049876422 -0.11296201
-0.26923868 0.018245272 -0.11846066
-0.24508317 0.017902739 -0.12735748
0.2687045 0.018105939 -0.12207735
0.29306346 0.01851622 -0.11141813
-0.31608477 0.041665271 -0.11807275
-0.29177478 0.041247591 -0.12711465
0.2913827 0.041132301 -0.12961292
0.31577909 0.04163076 -0.11881995
-0.33932403 0.064993009 -0.11950934
-0.3149564 0.064506173 -0.12854254
0.31469756 0.064447761 -0.12962699
0.33917692 0.065029398 -0.11883426
-0.38711247 0.08885774 -0.11186564
-0.36254135 0.088298589 -0.12094438
0.33801222 0.087763116 -0.12964141
0.36257455 0.088427737 -0.11884856
-0.38573861 0.11158346 -0.12236404
0.36132666 0.11107816 -0.1296556
0.38597193 0.11182594 -0.11886311
-0.41036752 0.11221169 -0.11329353
-0.43397188 0.13573924 -0.11218309
-0.40891221 0.13484523 -0.12379646
0.38464087 0.13439299 -0.12966979
0.40936911 0.13522385 -0.11887741
-0.43212047 0.1581178 -0.12484133
0.40795487 0.15770772 -0.12968433
0.43276605 0.15862152 -0.1188916
-0.45629662 0.18196458 -0.1194948
0.4312706 0.18102345 -0.12968409
0.45616278 0.18201917 -0.11890602
-0.48055816 0.20589581 -0.11412954
0.45458427 0.20433784 -0.1296984
0.4795593 0.20541635 -0.11892033
-0.47851446 0.2279689 -0.12677193
0.47789773 0.22765183 -0.12971246
0.50357634 0.22922724 -0.11509466
-0.5027594 0.25192526 -0.12141776
0.5014047 0.25110418 -0.12852848
-0.52708751 0.27596444 -0.11605918
0.52595294 0.27531868 -0.12130296
-0.012004378 -0.075174145 -0.093865395
0.011587105 -0.07519237 -0.096243739
0.035166677 -0.075185969 -0.095412493
0.058805168 -0.075156495 -0.091585636
-0.17706387 -0.051602848 -0.095179081
-0.15335445 -0.051639352 -0.09755528
-0.1296818 -0.051675968 -0.099927783
-0.10604579 -0.051712416 -0.10229671
-0.082446381 -0.051748749 -0.10466182
-0.058883138 -0.051785365 -0.10703802
-0.035356753 -0.051821753 -0.10939574
0.058526736 -0.051825866 -0.10967052
0.082084104 -0.051767543 -0.10587931
0.10570013 -0.051709101 -0.10207868
0.12937446 -0.051650606 -0.098283529
0.15310836 -0.051591765 -0.094463825
-0.22401902 -0.028083704 -0.097875595
-0.19983266 -0.028292276 -0.10690773
0.17592645 -0.028334431 -0.10873079
0.1996371 -0.028246745 -0.10493755
0.22340682 -0.02815894 -0.10113454
0.24756826 -0.027971223 -0.093003631
-0.27101785 -0.0045638233 -0.099200368
-0.2467045 -0.0048413426 -0.10821021
0.27038437 -0.0046573952 -0.10223854
-0.31797761 0.018936127 -0.10050964
-0.29353639 0.018589623 -0.10951138
0.31759551 0.01893001 -0.10066926
-0.36514243 0.042507991 -0.099825859
-0.34054023 0.042085409 -0.1089766
0.34034997 0.04213284 -0.10794973
0.36509553 0.04263781 -0.097016215
-0.41331467 0.066473976 -0.092024446
-0.3884978 0.065975294 -0.10127985
-0.36383739 0.065482691 -0.11042178
0.36383137 0.065615118 -0.10796428
0.38866097 0.06620419 -0.09703064
-0.41183093 0.08942017 -0.1027323
0.38731253 0.089097172 -0.1079787
0.4122262 0.089770406 -0.097045183
-0.4358367 0.11317201 -0.099433303
0.41079345 0.11257903 -0.10799301
0.43579116 0.11333653 -0.097059846
-0.46022457 0.13714029 -0.0939821
0.4342742 0.13606051 -0.10800755
0.45935592 0.13690224 -0.097074509
-0.45825237 0.15964624 -0.10679185
0.4577547 0.15954199 -0.10802209
0.48320556 0.16062453 -0.095237255
-0.48261899 0.18363789 -0.10138154
0.48123497 0.1830231 -0.10803652
-0.50707215 0.20771483 -0.095951915
0.50576973 0.20715699 -0.10152674
-0.50490552 0.22991154 -0.10874534
0.53055024 0.23148376 -0.094157338
-0.52933913 0.25401238 -0.10334182
0.5282414 0.25349879 -0.10779071
-0.035911802 -0.098765552 -0.073344231
0.011587105 -0.098765604 -0.078175902
-0.012143682 -0.098765492 -0.075769424
0.035307318 -0.098765492 -0.077142954
0.059086926 -0.098765492 -0.073285222
-0.17818187 -0.075044528 -0.077024817
-0.15432721 -0.075063489 -0.07950294
-0.13051429 -0.075082056 -0.081903458
-0.10673846 -0.075100563 -0.084300399
-0.082999662 -0.075118899 -0.086693525
-0.059297785 -0.075137295 -0.089083076
-0.035632536 -0.07515569 -0.091483355
0.082502797 -0.075126961 -0.087749481
0.10625978 -0.075097427 -0.083903551
0.13007633 -0.075067662 -0.080048084
0.1539527 -0.075037897 -0.076183081
-0.22552188 -0.051343895 -0.07835269
-0.20117825 -0.051484425 -0.087485552
0.17690156 -0.051532809 -0.090634942
0.2007543 -0.051473685 -0.086796284
0.22466682 -0.051414561 -0.082947969
0.24912608 -0.05125786 -0.072767019
-0.2728211 -0.027663544 -0.079679608
-0.24834774 -0.027874224 -0.088804722
0.27208763 -0.02771987 -0.082124352
-0.32007957 -0.0040036961 -0.081005573
-0.2954767 -0.0042844191 -0.090122581
0.29491034 -0.0043245181 -0.091424942
0.31961048 -0.0039891303 -0.08053422
-0.39217684 0.019988559 -0.073166847
-0.36729735 0.019635752 -0.082330227
-0.34256527 0.019285224 -0.091439486
0.34230122 0.019346572 -0.089844584
0.36718079 0.019765712 -0.078957438
-0.41510689 0.043465763 -0.079090238
-0.38989279 0.042933211 -0.09062016
0.39002091 0.043147177 -0.085989237
0.4151265 0.043660164 -0.074882627
-0.43961787 0.067467794 -0.0735811
0.41367111 0.066798449 -0.0860039
0.43886209 0.067396879 -0.074897408
-0.43771935 0.090416044 -0.086561441
0.4373211 0.090449527 -0.086018562
0.4625974 0.09113352 -0.07491219
-0.4622111 0.11444364 -0.081079125
0.46097082 0.11410034 -0.086033225
-0.48679045 0.13855702 -0.075577259
0.48532188 0.13810177 -0.081491351
-0.48469713 0.16119289 -0.088526368
0.51021564 0.16242078 -0.074024916
-0.50925702 0.18533131 -0.083050966
0.50798267 0.18488911 -0.087837458
-0.53390461 0.20955583 -0.077556133
0.53287983 0.20927104 -0.080401778
-0.53161234 0.23187754 -0.090503097
0.55789524 0.2337698 -0.072944641
-0.55623996 0.25612634 -0.085034847
0.55545056 0.25592801 -0.086752295
-0.036194164 -0.1226563 -0.055004478
-0.012284755 -0.12263744 -0.0574435
0.011587105 -0.12261859 -0.059893489
0.035449531 -0.12262802 -0.058668971
0.059372295 -0.12265819 -0.054749966
-0.17940065 -0.098765552 -0.057234168
-0.15531152 -0.098765552 -0.061236501
-0.13135667 -0.098765604 -0.063665509
-0.10743935 -0.098765552 -0.066090941
-0.083559491 -0.098765552 -0.068512559
-0.059717007 -0.098765604 -0.070930243
0.082926489 -0.098765604 -0.069403052
0.10682613 -0.098765604 -0.065510988
0.13078605 -0.098765604 -0.061609268
0.15480651 -0.098765552 -0.057697654
0.17888774 -0.098765552 -0.053775907
-0.22704405 -0.074902505 -0.058579206
-0.20254007 -0.074973688 -0.06782949
0.17788911 -0.075008191 -0.072308064
0.20188577 -0.074978203 -0.06842351
0.22602338 -0.074939355 -0.063367605
-0.2746461 -0.051060032 -0.05992341
-0.25001073 -0.051202219 -0.069165587
0.27381217 -0.051088311 -0.06175828
-0.32220691 -0.027238294 -0.061266184
-0.29744038 -0.027451545 -0.070500612
0.29678029 -0.02746731 -0.071182132
0.32165068 -0.027212419 -0.060147166
-0.36972654 -0.0034371242 -0.062608004
-0.34482908 -0.0037212074 -0.071834207
0.34448504 -0.0036518574 -0.069581151
0.36953899 -0.0033116713 -0.058534622
-0.41800696 0.020566165 -0.05816102
0.39223933 0.02018822 -0.067977905
0.41747719 0.020613864 -0.056920052
-0.44153038 0.044324204 -0.060505509
0.44041222 0.044176191 -0.063710213
-0.4662371 0.068472937 -0.054929614
0.46460423 0.068135485 -0.061191678
-0.46421674 0.091555998 -0.068052292
0.48960972 0.092443377 -0.053641081
-0.48890391 0.11573054 -0.062503576
0.48745728 0.11537603 -0.067621589
-0.51367992 0.13999219 -0.056935072
0.51246625 0.13974829 -0.060102344
-0.51145786 0.16275698 -0.070055723
-0.53621644 0.18704495 -0.064499378
0.53522789 0.18685672 -0.066536903
-0.56106144 0.21141905 -0.058937907
0.56036472 0.21141303 -0.058997512
-0.58599597 0.23588088 -0.053356409
-0.55864048 0.23386717 -0.072041512
-0.5834651 0.2582657 -0.06650722
0.58303493 0.25838926 -0.065436602
-0.036479902 -0.1468325 -0.03644526
-0.012427398 -0.14679463 -0.038913369
0.011587105 -0.14675669 -0.041377664
0.035593458 -0.14677829 -0.039972186
0.059660878 -0.14683931 -0.036005735
-0.18063614 -0.12279346 -0.037172675
-0.1563084 -0.12275067 -0.042736769
-0.13220909 -0.12273148 -0.045210123
-0.10814858 -0.12271268 -0.047664523
-0.084125988 -0.12269383 -0.050114989
-0.060141213 -0.12267503 -0.052561641
0.083355628 -0.1226884 -0.050820827
0.10739975 -0.12271868 -0.046881914
0.13150491 -0.12274918 -0.042932987
0.15567133 -0.12277958 -0.038974047
0.17989925 -0.12281014 -0.035004973
-0.22858706 -0.098765664 -0.038535118
-0.20392047 -0.098765604 -0.047905207
0.20302995 -0.098765552 -0.049844623
0.22745274 -0.098765492 -0.042736769
-0.27649611 -0.074758552 -0.039896727
-0.25169641 -0.074830703 -0.049258471
0.25070342 -0.074853949 -0.052276611
0.27556098 -0.074767858 -0.041105866
-0.32436338 -0.050772689 -0.041256905
-0.29942933 -0.050916877 -0.050625682
0.29867643 -0.050917391 -0.050655842
0.32371962 -0.050745212 -0.039473176
-0.3721889 -0.026807562 -0.04261601
-0.34712201 -0.027023785 -0.051976562
0.34669957 -0.026955746 -0.049033046
0.37192699 -0.026697598 -0.037854075
-0.39486745 -0.003129214 -0.052606702
0.39477283 -0.0029691458 -0.0474087
-0.42134798 -0.0025577247 -0.034049034
0.4201864 -0.0026245564 -0.036217928
-0.44457781 0.021277897 -0.039669871
0.44289425 0.021042027 -0.045797706
-0.46827471 0.045192927 -0.041694999
0.46665758 0.044940829 -0.047152758
-0.49318013 0.069490179 -0.036051154
0.49178398 0.069303378 -0.039518595
-0.49103293 0.092708662 -0.049333692
-0.51591837 0.11703207 -0.043717504
0.51473975 0.11687128 -0.046038628
-0.54089385 0.14144351 -0.038081169
0.53999329 0.14141907 -0.038398981
-0.53854525 0.16434124 -0.051346302
0.5375998 0.16424078 -0.0525316
-0.56350023 0.18877813 -0.045737505
0.5628565 0.18885326 -0.044923902
-0.58854848 0.21330497 -0.040093184
0.58823723 0.21358666 -0.037278414
-0.61368459 0.23791909 -0.034443617
0.58562428 0.23608944 -0.051421523
-0.61102045 0.26043105 -0.047754765
0.61100769 0.26088679 -0.043808103
-0.036798377 -0.17134374 -0.015759826
-0.01258603 -0.17128491 -0.018306732
0.011587105 -0.17122653 -0.020834446
0.035753511 -0.17126475 -0.019180536
0.059982754 -0.17135912 -0.015099287
-0.18188676 -0.14713401 -0.016864896
-0.15731643 -0.14702371 -0.024030089
-0.13307244 -0.14698538 -0.026517987
-0.10886633 -0.14694688 -0.02901721
-0.084699273 -0.14690876 -0.031497121
-0.060570493 -0.14687061 -0.033973098
0.083789602 -0.14690059 -0.032029152
0.10797986 -0.14696202 -0.028042316
0.13223189 -0.14702353 -0.024045229
0.15654592 -0.14708517 -0.020038247
0.18092221 -0.14714709 -0.016020775
-0.23014894 -0.12293912 -0.018245459
-0.20531772 -0.12286612 -0.027737498
0.20418887 -0.12284081 -0.031025648
0.22890022 -0.12291154 -0.021844268
-0.25340268 -0.098765604 -0.029108524
0.25230303 -0.098765552 -0.031497002
0.27733198 -0.098765604 -0.020191312
-0.27836874 -0.098765492 -0.01962471
-0.32654622 -0.074613221 -0.021002769
-0.30144557 -0.074686058 -0.030478239
0.30059659 -0.074681431 -0.029869676
0.32581484 -0.07459414 -0.018536687
-0.37468138 -0.050482031 -0.022379518
-0.34944642 -0.050627761 -0.031846642
0.34894204 -0.050572004 -0.028225303
0.37434882 -0.05039737 -0.016880274
-0.39803424 -0.02647943 -0.028407931
0.39733839 -0.026437216 -0.026578903
0.42293403 -0.026175007 -0.015222192
-0.44814685 -0.0019795448 -0.015268326
0.44637874 -0.0021451563 -0.020650625
-0.47146755 0.021998085 -0.020956755
0.46989214 0.02184099 -0.025037885
-0.4953458 0.046072498 -0.022654653
0.49397585 0.045951098 -0.025282145
-0.52045304 0.070519999 -0.016941786
0.51934683 0.070487782 -0.017539978
-0.51817602 0.093875527 -0.030386806
0.51703399 0.093785673 -0.031846762
-0.54326266 0.11834964 -0.024702072
0.54240865 0.11838867 -0.024136901
-0.56844354 0.14291385 -0.018981218
0.5679059 0.14311214 -0.01640451
-0.56596273 0.16594467 -0.032408834
0.56537104 0.16608754 -0.030721426
-0.59111989 0.19053376 -0.026731491
0.59087402 0.19087791 -0.023006201
-0.61636871 0.21521226 -0.021033168
0.61650014 0.21578917 -0.015268207
-0.64170951 0.23998094 -0.015314341
0.61374289 0.23844159 -0.029595613
-0.63891208 0.26262289 -0.028773427
0.6393714 0.26341754 -0.021890044
-0.15844917 -0.1716383 -0.0030088425
-0.13404039 -0.17157929 -0.0055611134
-0.10967048 -0.17152022 -0.0081245899
-0.085340619 -0.17146137 -0.010668635
-0.061049677 -0.17140242 -0.013224006
0.084275074 -0.17145349 -0.011007667
0.10863071 -0.17154828 -0.0069051981
0.13304992 -0.17164326 -0.0027922392
0.15753296 -0.17173851 0.001331687
-0.23173252 -0.14742959 0.0023254156
-0.2067332 -0.14728123 -0.007306695
0.20536099 -0.14720902 -0.01199317
0.2303683 -0.14738354 -0.00065410137
-0.2802659 -0.12308674 0.00091266632
-0.25513121 -0.12301271 -0.0086957216
0.25392303 -0.12299917 -0.010452986
0.27912822 -0.12308754 0.001021266
-0.32875761 -0.098765604 -0.00048339367
0.32793835 -0.098765604 0.0026828051
-0.30348659 -0.098765492 -0.010083199
0.302544 -0.098765492 -0.008788228
-0.37767452 -0.074436761 0.0019216537
-0.35179937 -0.07453981 -0.011469483
0.35121644 -0.074506395 -0.0071214437
-0.40125078 -0.050196398 -0.0038291216
0.39994043 -0.050221365 -0.0054529905
-0.42474142 -0.02604413 -0.0095589161
-0.47526982 -0.0013941154 0.0037395954
0.47372404 -0.0014734641 0.0011608601
-0.49868187 0.02272708 -0.0020179749
0.49735972 0.022677548 -0.0033029318
-0.52274972 0.046962574 -0.0033804178
0.52168089 0.046975493 -0.0031017065
-0.54806453 0.071563169 0.0024187565
-0.54565191 0.095056653 -0.011207819
0.54484355 0.095145971 -0.0097595453
-0.57094574 0.11968422 -0.0054376125
0.57046413 0.11992547 -0.001955986
-0.59632951 0.14440107 0.00033831596
-0.59371352 0.16756672 -0.013254642
0.5935322 0.16795936 -0.008618474
-0.61907583 0.19230977 -0.0075074434
0.61928582 0.19292974 -0.00079357624
-0.6450209 0.21737909 0.00061774254
0.6422562 0.24082547 -0.0074763298
-0.66886514 0.26576239 -0.001584053
0.66814023 0.26598614 0.00035405159
-0.086357802 -0.19671047 0.022365093
-0.061811678 -0.19663061 0.019771814
-0.037305314 -0.19655034 0.017166853
-0.012839206 -0.19647089 0.0145818
0.011587105 -0.19639131 0.012001157
0.0360092 -0.19645397 0.014034033
0.060495459 -0.19658223 0.018201947
0.08504615 -0.19671093 0.022380829
-0.20834626 -0.17207669 0.015975595
-0.18330324 -0.17184937 0.0061357021
0.18208006 -0.17183407 0.005466342
0.20682614 -0.17198026 0.011798024
-0.28218949 -0.14772835 0.021736145
-0.25688377 -0.14757851 0.012001157
0.25556496 -0.14756127 0.010876179
0.2809476 -0.14774019 0.022506595
-0.33099979 -0.12323613 0.020321608
-0.30555594 -0.12316112 0.010595202
0.3045164 -0.12317643 0.012563825
-0.35418499 -0.098765604 0.0091905594
0.35352004 -0.098765604 0.014253259
-0.40451822 -0.0742888 0.021138549
0.37680164 -0.074417964 0.0043616295
0.40257588 -0.074328676 0.015944242
-0.42818844 -0.049901571 0.015317678
0.42625135 -0.049981549 0.010126829
-0.45177212 -0.025603518 0.0095181465
0.45002133 -0.025693148 0.0056374073
-0.50272286 -0.00080183148 0.022978902
0.50145215 -0.00079257786 0.023277879
-0.52622688 0.023464806 0.017151117
0.5252136 0.023526445 0.018751264
-0.55049533 0.047864661 0.01614809
0.54978096 0.048014611 0.019394875
-0.57601547 0.072618589 0.022003293
0.54730093 0.071688861 0.0047504902
-0.57346964 0.096253455 0.0082235336
0.57304877 0.096525446 0.012642026
-0.59896821 0.12103435 0.014049768
0.59892249 0.12148513 0.020557165
-0.62505794 0.14609796 0.022380829
0.59621495 0.14482929 0.0059022903
-0.6218065 0.16920853 0.0061357021
0.62209421 0.16985753 0.013799191
-0.64908361 0.19486585 0.020164251
0.64810306 0.19501105 0.021736026
0.64516771 0.21802473 0.0070700645
-0.6730758 0.24356595 0.017950892
0.67117554 0.24324334 0.014957666
-0.18553101 -0.19732457 0.042310119
-0.16035134 -0.19701615 0.032290697
-0.13557114 -0.19687104 0.0275805
-0.11094461 -0.19679084 0.024978638
0.10966103 -0.19683951 0.026555061
0.1343412 -0.19696891 0.030755877
0.15908656 -0.19709852 0.034967899
0.18389736 -0.19722855 0.039191127
-0.25890511 -0.17253615 0.035871983
-0.23354672 -0.1723057 0.025892615
0.23204926 -0.17225292 0.023608327
0.25746226 -0.17252809 0.035522938
-0.33327004 -0.14803089 0.041386604
-0.3076511 -0.14787917 0.031531096
0.30651718 -0.14792053 0.03422296
-0.35691637 -0.12333239 0.032844663
0.33009234 -0.12326595 0.024206758
0.35585678 -0.12335621 0.035935521
-0.380761 -0.098765552 0.026980877
0.37928966 -0.098765604 0.02590847
0.40572327 -0.098765492 0.041497946
-0.43169037 -0.074139073 0.040590763
0.42975762 -0.074167356 0.036919475
-0.45545509 -0.049603201 0.034698486
0.45372325 -0.049639247 0.032353997
-0.47913241 -0.025157757 0.028828025
0.47762054 -0.025181293 0.027801394
-0.53051198 -0.0002020672 0.042453527
-0.55410832 0.024211727 0.036554456
0.55345964 0.024387278 0.041115999
-0.5785836 0.048777074 0.035903811
0.57828468 0.049068645 0.042214513
0.57565457 0.07290718 0.027359605
-0.60162997 0.097463831 0.027880549
0.60165524 0.09792383 0.035348654
-0.62902445 0.12298463 0.042198658
0.62492871 0.14657107 0.028527856
-0.65319687 0.17207232 0.039954543
0.65106571 0.17178297 0.036538601
-0.6773355 0.22109124 0.037713408
0.67423904 0.22028917 0.029696822
-0.70144022 0.27004173 0.035475492
0.69778168 0.26883864 0.025057316
-0.13713442 -0.22270027 0.06142652
-0.11224521 -0.22259784 0.058768868
-0.087396555 -0.22249506 0.056099653
-0.062589467 -0.22239316 0.053450942
-0.037822984 -0.22229078 0.050790787
-0.013097617 -0.22218916 0.048150539
0.011587105 -0.22208765 0.04551506
0.036270227 -0.22218116 0.047942758
0.061018899 -0.22234505 0.052200437
0.085833378 -0.22250935 0.056469321
0.11071394 -0.22267416 0.060749531
-0.2108693 -0.19763517 0.05239284
0.20913579 -0.19753994 0.049301982
0.23466714 -0.19791225 0.061394334
-0.31010014 -0.17300105 0.056003451
-0.28442147 -0.17276773 0.045898199
0.2830649 -0.17280498 0.04751122
0.308862 -0.17308423 0.059605956
-0.35986707 -0.14829271 0.058398724
0.33227429 -0.14810202 0.046009779
0.35822397 -0.14828511 0.057899952
-0.38389686 -0.12348326 0.052440763
0.38180998 -0.12344704 0.047735095
-0.40783781 -0.098765492 0.046504736
-0.45919701 -0.073987521 0.06028235
0.45748827 -0.073993236 0.05952549
-0.48305675 -0.049301118 0.054317355
0.48158568 -0.049292035 0.054911375
-0.50682831 -0.024706237 0.048374534
0.5056116 -0.024661906 0.05029428
0.52956861 -0.00010243803 0.045690536
-0.58233267 0.024967797 0.056195974
-0.60481799 0.073827773 0.044446111
0.60441351 0.074142143 0.050278187
0.6306774 0.0993433 0.058398843
0.62778968 0.1230673 0.043393731
-0.65736502 0.14899442 0.060008645
0.65405613 0.14833799 0.05147934
-0.68164843 0.19833541 0.057723403
0.67804134 0.19743642 0.047990799
-0.70590097 0.24760795 0.055456996
0.70261115 0.24674636 0.047463298
0.011587105 -0.24833393 0.079761267
-0.1878113 -0.2233896 0.079337597
-0.16233404 -0.22299498 0.069085121
0.13566083 -0.22283936 0.065041304
0.16067433 -0.22300503 0.069344401
0.1858519 -0.22324049 0.075462818
-0.26202646 -0.19826144 0.072733641
-0.23636776 -0.19794753 0.062538981
0.26039296 -0.1982879 0.073593974
-0.33619583 -0.17329045 0.068534613
0.33485439 -0.17336574 0.071792126
-0.38708326 -0.1485993 0.078310966
0.38478464 -0.14852527 0.073496461
-0.41121075 -0.12363601 0.072278976
0.40908924 -0.12360951 0.068826199
-0.43524852 -0.098765552 0.066269517
0.43332365 -0.098765552 0.064169168
-0.48704445 -0.073833965 0.080217838
-0.51099974 -0.048995435 0.074179053
0.50984228 -0.048940022 0.077773452
-0.53486592 -0.024249226 0.068162203
0.53400064 -0.024135143 0.073107004
-0.55864334 0.0004049018 0.062168121
0.55808669 0.0005979836 0.068437576
0.58210319 0.025259711 0.063781619
-0.60868829 0.05010052 0.064556837
0.60720068 0.050137773 0.06536448
0.63359237 0.075395837 0.073545337
-0.63304389 0.099582374 0.062281013
-0.66158241 0.12562433 0.080299377
0.65801454 0.12499782 0.071256757
-0.6860193 0.17529407 0.07800138
0.68276256 0.1746763 0.070705891
-0.71042156 0.22489354 0.07570684
0.70750564 0.22433943 0.070170641
-0.73478925 0.27442265 0.073415399
0.73223686 0.27398437 0.069619894
-0.13874571 -0.24909839 0.096311927
-0.11357371 -0.24895854 0.093284249
-0.088458084 -0.24883333 0.090573907
-0.063383915 -0.24870759 0.087851763
-0.038351987 -0.24858283 0.08515048
-0.013361682 -0.2484583 0.082453609
0.036537021 -0.24846509 0.082600713
0.061553918 -0.24866594 0.08695066
0.086637676 -0.24886675 0.091296196
0.1117892 -0.24906869 0.095669746
0.13700914 -0.24927211 0.10007167
-0.23925321 -0.22418578 0.10002208
-0.21345091 -0.22378674 0.089655042
0.21150173 -0.22371225 0.087720513
0.23734793 -0.22418834 0.10008824
-0.31383756 -0.19889623 0.093349934
-0.28784963 -0.19857776 0.083008885
0.28631309 -0.19866596 0.085870385
0.31243238 -0.19904733 0.098256707
-0.36339483 -0.1737619 0.088949919
0.36104268 -0.17364891 0.084054828
-0.4146384 -0.14890978 0.098471045
0.41251317 -0.14888133 0.09662497
-0.43886426 -0.12379059 0.092363715
0.43695107 -0.12378694 0.091887355
-0.46299943 -0.098765552 0.086279511
0.46132019 -0.098765492 0.087180018
0.48561648 -0.073816657 0.08246994
-0.53929037 -0.048685811 0.094287395
-0.56387043 -0.023705952 0.091690302
0.56279349 -0.02360107 0.096229553
-0.58901775 0.0013352558 0.092380404
0.58700967 0.0013079494 0.091493368
-0.61417586 0.026386917 0.093070626
0.61115855 0.026145108 0.086787105
0.63769501 0.051500291 0.094863296
-0.63711405 0.075884715 0.082617044
0.66262734 0.10155454 0.094303966
-0.69044209 0.15195915 0.098520637
0.68755454 0.15159282 0.093761086
-0.71499574 0.20188946 0.096196651
0.71246988 0.20161274 0.093202114
-0.73951441 0.25174835 0.093876243
0.73737669 0.25161564 0.092643261
-0.013631458 -0.2752955 0.1174984
0.011587105 -0.27514732 0.11474764
0.036809519 -0.2753225 0.11799908
-0.19014496 -0.25006467 0.11723149
-0.16436301 -0.24957997 0.10673833
0.16229665 -0.24947508 0.10446882
0.18795533 -0.24993838 0.1144979
-0.2652221 -0.22458795 0.1104722
0.26339439 -0.22466923 0.11258364
-0.34109733 -0.19953251 0.11401498
0.33875188 -0.19943163 0.11073804
-0.39094013 -0.17423943 0.10962498
0.38861734 -0.17417157 0.1066885
-0.44253898 -0.14922404 0.11888397
-0.46686375 -0.12394723 0.11269999
0.46521625 -0.12396717 0.11529744
-0.49109688 -0.098765604 0.10653925
0.48971698 -0.098765492 0.11050534
-0.51523894 -0.073678635 0.10040188
0.51414865 -0.07363756 0.105744
0.53850657 -0.048582699 0.10098004
-0.64123935 0.051886633 0.10322773
0.66730982 0.077775136 0.11769879
-0.66585672 0.10195854 0.10086417
0.69241196 0.12817609 0.11713135
-0.71962827 0.17859191 0.11694789
0.71750551 0.17855945 0.11656451
-0.74429989 0.22878543 0.11459768
0.74259031 0.22892553 0.11599743
-0.1405137 -0.27621654 0.13459003
-0.11493165 -0.2758919 0.12856495
-0.089542106 -0.2757417 0.12577879
-0.064195961 -0.27559274 0.12301397
-0.03889244 -0.27544409 0.12025392
0.062100384 -0.27556205 0.12244499
0.087459981 -0.27580231 0.12690282
0.11288857 -0.27604312 0.13137269
0.1383871 -0.2762855 0.13587177
-0.2422079 -0.25104252 0.13840473
-0.21609314 -0.25055236 0.12779248
0.21392405 -0.25051832 0.12705374
-0.29135814 -0.2249928 0.12098944
0.28963995 -0.22515321 0.12515831
0.3160896 -0.22564158 0.13784719
-0.36871356 -0.20017901 0.13501143
0.36619303 -0.2000815 0.13184392
-0.41883624 -0.1747226 0.13054848
0.41672045 -0.17472804 0.13078403
0.44064358 -0.14924277 0.12010348
-0.49521312 -0.12410548 0.13327527
-0.51967496 -0.098765552 0.1278429
0.51852745 -0.098765552 0.13418531
-0.5450955 -0.073461898 0.12856495
0.54309082 -0.07345596 0.12933803
-0.57052416 -0.048147168 0.12927055
0.56758487 -0.048220292 0.12452149
-0.59596378 -0.022821695 0.12997651
0.59222919 -0.023029692 0.12097275
-0.6214143 0.0025146827 0.13068295
0.61799705 0.0023028031 0.12380099
-0.6468758 0.027861863 0.13138962
0.6438061 0.027678207 0.12661755
-0.67019266 0.077992156 0.1217252
-0.69492853 0.12832874 0.11933494
-0.72432786 0.15499833 0.13799918
-0.74915057 0.20552954 0.13560188
-0.77394128 0.25598916 0.13322473
-0.039444722 -0.30289286 0.15612543
-0.013907132 -0.30271947 0.15330946
0.011587105 -0.30254632 0.15049815
0.037088167 -0.30277413 0.1541965
-0.19253284 -0.2773706 0.15600598
-0.16643897 -0.27679157 0.1452632
0.16401802 -0.27660155 0.14173734
0.19011109 -0.2772896 0.1545037
-0.26849326 -0.25153673 0.14910293
0.24009396 -0.25110346 0.13972342
0.26646909 -0.25169483 0.15252542
-0.31845295 -0.22570401 0.13946962
0.34341541 -0.22639176 0.15733862
-0.39668435 -0.20083332 0.15626216
0.39434752 -0.20083499 0.15631342
-0.4470942 -0.1752125 0.15175843
0.44524145 -0.17529278 0.15523744
-0.47078902 -0.14954206 0.13953745
0.46918276 -0.14960952 0.14392328
0.49389154 -0.12414998 0.13904703
-0.67458093 0.053716213 0.14283836
0.67205667 0.053650454 0.1414156
-0.69947261 0.10439435 0.14041722
0.69733971 0.10442033 0.14084017
0.72261393 0.1551725 0.14026475
-0.7540679 0.18197462 0.15689433
0.74787939 0.2059072 0.13968968
-0.77900696 0.23277387 0.15445232
0.77313602 0.25662383 0.13911474
-0.14232455 -0.30398107 0.1737963
-0.11631874 -0.303415 0.16460264
-0.090649888 -0.30323955 0.16175485
-0.065025777 -0.30306655 0.15894639
0.062659197 -0.30305398 0.15874112
0.088300489 -0.30333465 0.16329813
0.11401233 -0.30361605 0.16786778
0.13979566 -0.30389929 0.17246723
-0.21879697 -0.27795318 0.16681874
0.21640682 -0.27798289 0.16736913
-0.29545197 -0.25228512 0.16530669
0.29304832 -0.25228986 0.16540992
-0.34613895 -0.2265248 0.16079521
-0.47581241 -0.17572334 0.17388237
-0.50018173 -0.14994246 0.16554713
0.49813712 -0.14998129 0.16807425
-0.52588683 -0.12435957 0.16626883
0.52298325 -0.12433547 0.16312659
-0.55160606 -0.098765552 0.16700792
0.5477584 -0.098765492 0.15821087
-0.57733357 -0.073160276 0.16773021
0.57377738 -0.073211573 0.16108656
-0.60307235 -0.047543917 0.16845274
0.59984457 -0.047612809 0.16398454
-0.62882227 -0.02191636 0.16917574
0.62595415 -0.021969602 0.16687024
-0.65458339 0.0037221611 0.16989911
0.65211248 0.0037184507 0.16977835
-0.6803593 0.029372618 0.17063975
0.67831302 0.029450893 0.1726743
-0.70407557 0.080150098 0.16177201
0.70234287 0.080319196 0.16491163
-0.729092 0.13110033 0.1593399
0.72780061 0.13144587 0.16432774
0.75324559 0.18255314 0.16372705
-0.78414667 0.2092604 0.1759901
0.77868927 0.23364535 0.16316104
-0.80921125 0.26033366 0.17353725
0.011587105 -0.33108708 0.19478261
-0.19497901 -0.30533177 0.19572699
-0.16856544 -0.30465412 0.1847254
0.16589688 -0.30451202 0.18241584
0.1923202 -0.30531776 0.19549954
-0.27208772 -0.27928594 0.19155145
-0.24523304 -0.27853969 0.17770255
0.2429076 -0.27868149 0.18033469
0.26961982 -0.27938849 0.19345427
-0.32320637 -0.25328565 0.18696868
0.32028365 -0.25311387 0.18324912
-0.37418333 -0.2273557 0.18238127
0.37162271 -0.22734971 0.18222499
-0.42502069 -0.20149678 0.17780626
0.42292389 -0.20159979 0.18114948
0.47418967 -0.17586598 0.18005753
-0.70873851 0.055589899 0.18340528
0.707416 0.055863127 0.18931961
-0.73391438 0.10688984 0.18094158
0.73305976 0.10736948 0.18872726
-0.75904918 0.15811324 0.17846394
0.75869447 0.15885773 0.18813491
0.78432006 0.21032751 0.18754303
0.80993658 0.26177937 0.18695128
-0.11818128 -0.33234864 0.21299243
-0.092056468 -0.33196366 0.20743489
-0.066072419 -0.33174419 0.20426714
-0.040137235 -0.33152509 0.20110559
-0.014250773 -0.3313064 0.19794989
0.037436582 -0.33141088 0.19945693
0.063365266 -0.33176732 0.20460129
0.089373112 -0.33212364 0.20974398
0.11546116 -0.33248216 0.21492004
-0.22156702 -0.3060137 0.20680082
0.21895131 -0.30612975 0.20868587
-0.29991087 -0.28047279 0.21357596
0.29678753 -0.28025675 0.20956755
-0.35132492 -0.25429934 0.20891511
0.34853804 -0.25428146 0.20852733
-0.40259701 -0.22819814 0.20426726
0.40025252 -0.22832079 0.20745254
-0.45396844 -0.20222229 0.20136881
0.45193172 -0.20237601 0.2063607
0.50393784 -0.17650522 0.20773447
-0.53224856 -0.15055953 0.2056216
0.52854425 -0.15046139 0.19924653
-0.55827069 -0.12466823 0.20636058
0.55486858 -0.12463612 0.20219386
-0.58430421 -0.098765552 0.20710027
0.58124214 -0.098765664 0.20516419
-0.61034918 -0.072851621 0.20784009
0.60765922 -0.072849333 0.20812201
-0.63640565 -0.046926152 0.20858014
0.63412619 -0.046887364 0.2111026
-0.66247362 -0.020989373 0.20932078
0.66063654 -0.020879634 0.21407092
-0.68855661 0.0049593449 0.21007919
-0.71464765 0.030919194 0.2108202
-0.73879999 0.082362428 0.20282614
0.73840052 0.082937628 0.21350515
-0.76409566 0.13393928 0.20031607
0.76422399 0.13481142 0.21290433
-0.79157072 0.18622595 0.20710015
0.79003417 0.18666515 0.21228576
0.81583911 0.23850128 0.2116853
-0.14470598 -0.33320522 0.22535563
0.14171563 -0.3329969 0.22234964
-0.24835299 -0.30671757 0.2182318
0.24579263 -0.30694824 0.22197664
-0.37981483 -0.25532639 0.23115134
0.37722123 -0.25546601 0.23417306
-0.43175876 -0.22916141 0.22929454
0.42931807 -0.22930644 0.2330637
-0.50783491 -0.17667894 0.21525609
0.68719721 0.0051744208 0.21706223
0.71380132 0.031274065 0.2200408
-0.74561018 0.057895899 0.23333204
-0.82000285 0.23906782 0.2173456
-0.19834326 -0.33493724 0.25035572
-0.17142592 -0.334068 0.23780954
0.16842559 -0.33402324 0.23716402
0.19537163 -0.33506 0.25212705
-0.27624035 -0.30809468 0.24059176
0.27291697 -0.30782956 0.23628592
-0.3281005 -0.28167427 0.23587382
0.32508701 -0.2816405 0.23524702
-0.48597699 -0.20351592 0.24337828
0.48209018 -0.20332174 0.23707461
-0.56509489 -0.15119129 0.24665606
0.56216997 -0.15120202 0.24735916
-0.59144497 -0.12498436 0.2474314
0.58890176 -0.12500721 0.25039172
-0.61780375 -0.098765664 0.24818921
0.61568439 -0.098765492 0.25344777
-0.64417422 -0.072535142 0.24894714
-0.67055649 -0.046292968 0.2497052
0.74382091 0.058141604 0.23865247
-0.77411944 0.11075614 0.24371994
0.76983196 0.11040545 0.23802459
0.79583752 0.1626513 0.23741496
0.82337648 0.2154755 0.24327016
0.011587105 -0.36285812 0.27217412
-0.22551447 -0.33586717 0.26377749
0.22255509 -0.33610463 0.26720417
-0.30449954 -0.30948994 0.26324952
0.30126077 -0.30943736 0.26239419
-0.3566654 -0.28289187 0.25846875
0.35382134 -0.28304547 0.26132107
-0.40917903 -0.25655285 0.2577064
0.40634263 -0.25666773 0.26019406
-0.46375164 -0.23080413 0.27197313
0.45985827 -0.23061007 0.2669307
-0.54066259 -0.17765842 0.25767016
0.53751963 -0.17765552 0.25754321
0.64251512 -0.072476871 0.2565093
0.66939056 -0.046141181 0.2595582
-0.69791317 -0.019932196 0.25509548
0.69631761 -0.019758306 0.2626307
-0.72778141 0.0068586171 0.27175343
0.72328943 0.0066717044 0.26569057
0.7503134 0.033149809 0.26877415
-0.80280817 0.16394258 0.25418997
-0.83166957 0.21745577 0.26470637
0.85403663 0.26980612 0.26143014
-0.094452627 -0.36386493 0.28525257
-0.067861445 -0.36359408 0.28173435
-0.041327368 -0.36333793 0.27840698
-0.014844709 -0.36308372 0.27510452
0.038037557 -0.36327013 0.27752566
0.064570941 -0.3636848 0.28291237
0.091187656 -0.36410075 0.28831601
-0.25385901 -0.33766708 0.28975713
0.25023144 -0.33740997 0.28604555
-0.33313984 -0.31090528 0.28622985
0.33004221 -0.31106895 0.28888845
-0.38621524 -0.28440666 0.28658056
0.38299862 -0.28447133 0.28778028
-0.51880467 -0.20484388 0.28650665
0.51564014 -0.20488203 0.28774345
-0.59875572 -0.15183881 0.28872228
-0.62543577 -0.12530826 0.28949845
-0.75794673 0.033912778 0.28859293
-0.78521687 0.087155432 0.29177344
0.77756995 0.086126924 0.27268672
0.80824578 0.14023212 0.29114425
-0.86070931 0.27129966 0.27528775
-0.12146121 -0.36486217 0.29820788
0.11794516 -0.36466074 0.2955904
-0.4411543 -0.25855678 0.30108976
0.43723193 -0.25838244 0.29731643
-0.57432622 -0.17866287 0.30116439
0.57211316 -0.17884071 0.30886674
0.59677327 -0.15196432 0.29687071
0.62392533 -0.12538898 0.29999208
-0.65520614 -0.098765604 0.30627048
0.65112984 -0.098765604 0.3031379
0.67838031 -0.072093844 0.3062706
-0.81435567 0.14102423 0.30257905
0.8392579 0.19492418 0.30982041
-0.17608555 -0.3668693 0.32428122
-0.14867033 -0.36586133 0.31118619
0.14513351 -0.36585847 0.31114864
0.17256442 -0.36706108 0.32677245
-0.2826356 -0.33949322 0.31611562
0.27910566 -0.33953232 0.316679
-0.36286196 -0.31273651 0.31596565
0.35927296 -0.31272602 0.31579673
0.41420057 -0.28665191 0.328246
-0.49657455 -0.23249237 0.3158344
0.49336782 -0.23259361 0.3184638
-0.68531293 -0.071961828 0.3234328
0.70964724 -0.045068696 0.32922935
-0.84366822 0.19522843 0.31341493
-0.87316012 0.24977121 0.32430017
0.87060291 0.25020954 0.32868087
-0.20420109 -0.36850089 0.3454746
0.20024244 -0.36827335 0.34251821
-0.31185552 -0.3413476 0.34288037
0.30849966 -0.341694 0.34788132
-0.41817012 -0.28678447 0.33070505
-0.47396275 -0.26061553 0.34566545
-0.55247539 -0.20620605 0.33074307
0.55020952 -0.20649013 0.33996654
-0.7157194 -0.044890918 0.34076583
-0.79661477 0.062874675 0.34112775
0.79269159 0.062842175 0.34042335
-0.069734402 -0.39694446 0.36283565
-0.042573854 -0.39665097 0.35936892
-0.015466447 -0.39635471 0.3558706
0.011587105 -0.39617103 0.35370195
0.038667142 -0.39664605 0.35931122
0.065834999 -0.397129 0.36501539
-0.39479125 -0.31550062 0.36085093
0.39075324 -0.31543195 0.35973442
0.47069725 -0.26080441 0.34975564
0.63571483 -0.15303761 0.36657953
-0.7464301 -0.017549522 0.35827255
0.74216074 -0.017590709 0.35648513
-0.82620782 0.11743969 0.35224497
0.82405931 0.11789379 0.35961902
-0.85599428 0.17235366 0.36345243
-0.097191148 -0.39790574 0.37418854
0.093121983 -0.39772686 0.37207484
-0.23306184 -0.37059781 0.3727144
0.22905043 -0.37059468 0.37267566
-0.45096183 -0.28922692 0.37603271
0.44761494 -0.28952774 0.381616
-0.532125 -0.23469357 0.37302482
0.52791226 -0.23464061 0.37164843
0.61136633 -0.1805537 0.38303912
-0.6415596 -0.15319437 0.37677085
-0.77744961 0.010067113 0.3759551
0.77518642 0.010320067 0.38417053
0.85577303 0.17355233 0.37902641
-0.8859666 0.2276175 0.37471247
-0.15290566 -0.40033567 0.40288389
-0.1249105 -0.39906025 0.38782299
0.12080205 -0.39910671 0.38837063
0.14873654 -0.40049437 0.4047581
-0.26242486 -0.37277752 0.40103126
0.25846431 -0.37307355 0.40487671
-0.34410486 -0.34501386 0.39579904
0.33974952 -0.3448875 0.39397323
0.50554949 -0.26341975 0.40637767
-0.61706448 -0.18076363 0.39212978
-0.67221296 -0.12611751 0.39464068
