ply
format ascii 1.0
comment PCL generated
element vertex 1344
property float x
property float y
property float z
element camera 0
property float view_px
property float view_py
property float view_pz
property float x_axisx
property float x_axisy
property float x_axisz
property float y_axisx
property float y_axisy
property float y_axisz
property float z_axisx
property float z_axisy
property float z_axisz
property float focal
property float scalex
property float scaley
property float centerx
property float centery
property int viewportx
property int viewporty
property float k1
property float k2
end_header
-0.031325512 0.22127929 -0.095902801
-0.010405838 0.22114959 -0.097773492
0.010485033 0.22102019 -0.09964174
0.052253641 0.22109058 -0.098626494
0.073226102 0.22135502 -0.094809234
0.09425766 0.22162017 -0.090981305
0.11534809 0.22188532 -0.087155223
0.13649851 0.22215202 -0.083305538
-0.052483074 0.24302539 -0.084978402
-0.031464674 0.24288025 -0.086864293
-0.010475321 0.24273533 -0.088747561
0.010485033 0.24259049 -0.090628147
0.031416453 0.24244604 -0.092506289
0.052394658 0.24267989 -0.089467227
0.073437929 0.24297482 -0.085636973
-0.073530592 0.24317086 -0.083090007
0.031486109 0.26414359 -0.083457887
-0.22203761 -0.49532884 -0.065615833
-0.20023282 -0.49366283 -0.074272156
0.15758486 -0.49222481 -0.08174485
0.17885125 -0.49301261 -0.077650785
0.20018151 -0.49380291 -0.073544443
0.22157596 -0.49459559 -0.069425762
-0.24301474 -0.47386771 -0.067361832
-0.22115768 -0.47227055 -0.076007247
0.22082917 -0.47169411 -0.079127133
0.2422563 -0.47255093 -0.074489295
-0.26396653 -0.45243627 -0.069092751
-0.24205722 -0.45090756 -0.077727258
0.26335824 -0.45154187 -0.074144721
-0.28489047 -0.43102983 -0.0708341
-0.26292923 -0.42956918 -0.079457879
0.28446421 -0.43052527 -0.073812723
-0.30578789 -0.40965033 -0.072573423
-0.28377482 -0.40825808 -0.081186175
0.30557668 -0.40950575 -0.073467791
-0.34886312 -0.38963071 -0.065654457
-0.32665882 -0.38829798 -0.074310601
0.32669303 -0.38847893 -0.073135614
-0.36975932 -0.36823723 -0.067400277
-0.34750327 -0.36697283 -0.076045394
0.34781605 -0.36744878 -0.072790802
-0.39093655 -0.34716231 -0.06704098
-0.36866567 -0.34601888 -0.075293124
0.34682894 -0.34525505 -0.080805182
0.36925077 -0.34673786 -0.070104539
-0.39048097 -0.32562727 -0.07015568
-0.36823663 -0.32454979 -0.078389108
0.36882401 -0.3252072 -0.073365629
-0.39002645 -0.30414107 -0.073263347
-0.36780861 -0.30312923 -0.081478238
0.36839825 -0.30372784 -0.076618969
0.39093924 -0.30504969 -0.065885603
-0.38957292 -0.28270349 -0.07636404
0.36797184 -0.28229785 -0.079877317
0.39048597 -0.28353569 -0.069156766
-0.41226166 -0.26279098 -0.065757036
-0.38912043 -0.26131433 -0.079457998
0.39003202 -0.26207137 -0.072432876
-0.41167909 -0.24127495 -0.069540977
-0.38866898 -0.23997369 -0.082544506
0.38958091 -0.24065962 -0.075688601
-0.41109812 -0.21981812 -0.073314548
0.38913086 -0.21929875 -0.078936458
0.41173398 -0.22028854 -0.068221092
-0.41051874 -0.19842032 -0.077077627
0.38868013 -0.19798744 -0.082189262
0.41125637 -0.19889373 -0.071486712
-0.40994096 -0.17708126 -0.080830574
0.41077986 -0.17754969 -0.074744582
-0.43306285 -0.15696016 -0.067836344
0.41030264 -0.15625545 -0.0780074
0.43299848 -0.15699926 -0.067271948
-0.43245211 -0.13560614 -0.071614563
0.40982839 -0.13501287 -0.081249595
0.43249536 -0.13567239 -0.070539773
-0.433038 -0.1147093 -0.067990243
0.41031379 -0.11417352 -0.077930987
0.43297479 -0.11473956 -0.067425966
-0.4099879 -0.09301009 -0.080525756
0.41079852 -0.09328296 -0.074616969
-0.41057563 -0.072133444 -0.076708138
0.38873994 -0.071938984 -0.081757724
0.41128629 -0.072342269 -0.07128197
-0.411165 -0.051198281 -0.072880149
0.38919961 -0.051026992 -0.07844013
0.41177526 -0.051350459 -0.067938924
-0.41175601 -0.030204415 -0.069041431
-0.38876736 -0.029908009 -0.081871867
0.38966045 -0.030064151 -0.075114489
-0.41234869 -0.0091515072 -0.065191925
-0.38922834 -0.0089432858 -0.078720093
0.36765936 -0.0088887811 -0.082265258
0.39012235 -0.0090501346 -0.071780741
-0.3896904 0.012069948 -0.075560987
0.36809334 0.012096016 -0.078949153
0.39058542 0.012015026 -0.068439007
-0.36795115 0.033131719 -0.080449343
-0.39015353 0.033131771 -0.07239449
0.36852837 0.033131875 -0.075624704
-0.39061961 0.054242469 -0.069207847
-0.36839011 0.054180376 -0.077281475
0.36896449 0.054218799 -0.072292328
-0.39108488 0.075402275 -0.066026747
-0.36882833 0.075277701 -0.074119091
-0.34670258 0.07515391 -0.08216393
0.34699646 0.07519567 -0.079445124
0.36940166 0.07535731 -0.068951786
-0.36985001 0.096520953 -0.066745877
-0.34765682 0.096333213 -0.074872077
0.32563737 0.096162215 -0.082278013
0.3479436 0.096405216 -0.071755111
-0.32680982 0.11745551 -0.073084533
-0.30479488 0.11720645 -0.081173599
0.30461079 0.11716773 -0.082430422
0.32683471 0.11749172 -0.071908712
-0.3059341 0.13860472 -0.07130748
-0.28396657 0.13829303 -0.079406857
0.28358659 0.13817084 -0.082582533
0.3057282 0.13857576 -0.072062075
-0.28503263 0.15978229 -0.069515467
-0.2631126 0.15940759 -0.077625394
0.28462404 0.15965754 -0.072215557
-0.2641038 0.18098733 -0.06772089
-0.24223141 0.18054962 -0.075841486
0.2415785 0.18019119 -0.082493722
0.26352108 0.18073609 -0.072381675
-0.24314637 0.20221937 -0.065936804
-0.22132188 0.20171857 -0.07406795
-0.19962628 0.20122087 -0.082151115
0.19966704 0.2012935 -0.080970287
0.22098495 0.20153174 -0.077103198
0.24242176 0.20181304 -0.072535038
-0.2003862 0.2229158 -0.072279394
-0.17873836 0.22235513 -0.080373049
0.15770879 0.2224195 -0.079445124
0.17897917 0.22268766 -0.075573802
0.20030992 0.22295675 -0.071691334
0.22170031 0.22322556 -0.067810714
-0.17942315 0.24414089 -0.070488691
-0.15801302 0.24375436 -0.075509906
-0.13684843 0.24360815 -0.07740891
-0.11571322 0.2434622 -0.079305112
-0.094607286 0.24331641 -0.08119905
0.094540901 0.24327144 -0.081783056
0.11570362 0.24356896 -0.077918231
0.13692635 0.24386728 -0.074042439
0.15820935 0.24416655 -0.07015574
0.17955208 0.24446553 -0.066270769
-0.15857804 0.2655935 -0.066334903
-0.13734215 0.26543161 -0.068246722
-0.1161358 0.26527002 -0.07015568
-0.094958954 0.26510859 -0.072062194
-0.073811546 0.26494735 -0.073965907
-0.052693494 0.26478636 -0.075866997
-0.031604558 0.26462451 -0.07777822
-0.01054517 0.26446405 -0.079674006
0.010485033 0.26430365 -0.081567109
0.052536435 0.26441446 -0.080258727
0.073651485 0.26474208 -0.076389611
0.094826445 0.26507065 -0.072509468
0.11606157 0.26540017 -0.068618357
-0.052907109 0.28670037 -0.06661737
-0.031745978 0.28651786 -0.068592787
-0.010615584 0.28633916 -0.070526838
0.010485033 0.28616315 -0.072432876
0.031556323 0.28598726 -0.074336052
0.052679367 0.2862978 -0.070974886
0.073868573 0.28666592 -0.06698966
-0.24398075 -0.49700528 -0.056904435
0.24318622 -0.49573451 -0.063507557
-0.287146 -0.47709286 -0.049905777
-0.26501042 -0.47547525 -0.058661461
0.26437175 -0.47464168 -0.063172877
0.28667086 -0.47674972 -0.051762581
-0.30820143 -0.45552081 -0.051671505
-0.28601328 -0.45397255 -0.060416222
0.28556374 -0.45354605 -0.062825441
0.30795369 -0.45556673 -0.051412225
-0.32923156 -0.43397844 -0.05342257
-0.30699083 -0.43249947 -0.062155962
0.30675974 -0.43244275 -0.062490523
0.32924044 -0.43437612 -0.051074624
-0.35023332 -0.41246146 -0.055183887
-0.32794029 -0.41105142 -0.063906312
0.32796237 -0.41133648 -0.062143087
0.35053396 -0.41318247 -0.05072403
-0.37120828 -0.39097196 -0.056943059
0.34916875 -0.39022297 -0.061808109
0.37183121 -0.39198133 -0.050386429
-0.39236811 -0.36972129 -0.05725348
0.39313546 -0.37077701 -0.050035715
0.37038204 -0.36910599 -0.061460257
-0.41460612 -0.34945017 -0.050529361
0.3918508 -0.34823403 -0.059306741
0.4146277 -0.34974018 -0.048436761
-0.41401708 -0.32769507 -0.054355264
0.3913936 -0.32661515 -0.062606573
0.41414315 -0.32803604 -0.051749468
-0.41342965 -0.30599993 -0.058170795
0.41365787 -0.3063823 -0.055067301
-0.41284385 -0.28436485 -0.061975598
0.41317564 -0.28478193 -0.058364391
-0.43614012 -0.26461831 -0.048800945
0.43553421 -0.26440269 -0.050801992
0.41269457 -0.26323316 -0.061653495
-0.4355208 -0.24296704 -0.052631736
0.41221276 -0.24173456 -0.064947605
0.43502504 -0.24281928 -0.054109097
-0.43490329 -0.22137579 -0.056451917
0.43451509 -0.22128624 -0.057421446
-0.43428743 -0.19984424 -0.060261488
0.43400833 -0.19980603 -0.060712814
0.45694208 -0.20072672 -0.049840689
-0.43367532 -0.17837307 -0.064047754
0.43350282 -0.17837709 -0.063996255
0.45640495 -0.17921102 -0.05316329
-0.45705149 -0.15813318 -0.050905824
0.45587125 -0.15774801 -0.056464672
-0.45640367 -0.13664588 -0.054730892
0.45533881 -0.1363363 -0.059758425
-0.45695692 -0.11559979 -0.051464081
0.45581061 -0.11531004 -0.056839824
-0.43365869 -0.093766488 -0.064150691
0.43349093 -0.093770064 -0.064073324
0.45635676 -0.094260119 -0.053461432
-0.43428326 -0.072765358 -0.060287237
0.43400833 -0.072748989 -0.060712814
0.45690423 -0.073158495 -0.050074697
-0.43490955 -0.051705331 -0.056413054
0.43452701 -0.051676579 -0.05734396
-0.43553761 -0.030585796 -0.052527905
0.41226542 -0.030307323 -0.064587653
0.43504497 -0.030552201 -0.053979754
-0.43616742 -0.0094065703 -0.048631787
0.41275677 -0.0092126355 -0.061228395
0.43556818 -0.0093765929 -0.050581217
-0.41294304 0.011960415 -0.061331272
0.41324934 0.011933619 -0.057860613
-0.41353905 0.033131771 -0.05746007
0.39104962 0.033131771 -0.065089107
0.41374308 0.033131771 -0.054484844
-0.41413677 0.054362793 -0.053578019
0.39151493 0.054300182 -0.061730862
0.41423807 0.054381978 -0.051100731
-0.41473615 0.075653926 -0.049685001
0.39198139 0.075520232 -0.058364391
0.41473424 0.075684324 -0.047708154
-0.39237377 0.096741088 -0.057214618
0.37042418 0.096650451 -0.061138034
0.39307788 0.096897222 -0.050451279
-0.37123337 0.11795805 -0.056762099
-0.3489556 0.11770599 -0.064947724
0.34923065 0.11781818 -0.061305642
0.3718023 0.11814761 -0.050607204
-0.35026214 0.13923383 -0.054963827
-0.3280322 0.13891846 -0.063160062
0.3280412 0.13898383 -0.061460257
0.35052758 0.13939512 -0.050776124
-0.32926509 0.16053814 -0.053150296
-0.30708307 0.16015908 -0.061357141
0.30685413 0.1601471 -0.061614871
0.32925689 0.16064054 -0.050931931
-0.30824041 0.18187025 -0.051334262
-0.28610641 0.18142748 -0.059551835
0.28566942 0.18130803 -0.061769485
0.30798864 0.18188363 -0.051087618
-0.28718662 0.20322984 -0.049528956
-0.2651009 0.20272306 -0.057757258
0.26448712 0.20246646 -0.061923981
0.28672281 0.20312423 -0.051243305
-0.26610658 0.22461823 -0.047708154
-0.24406914 0.22404742 -0.055947423
-0.22216277 0.22347999 -0.064137757
0.2433061 0.2236217 -0.06209147
0.26545936 0.22436252 -0.051399231
-0.22300978 0.24539983 -0.054135084
-0.20115165 0.24476847 -0.062336206
0.20095627 0.2447665 -0.062362015
0.2224215 0.24506822 -0.058441997
0.24419832 0.24559838 -0.051554799
-0.20192266 0.26678023 -0.052320361
-0.18011206 0.26608381 -0.060545087
0.13735652 0.26572943 -0.064729035
0.15871264 0.26606089 -0.06081593
0.18012969 0.2663931 -0.056891441
0.20160796 0.26672634 -0.052955866
0.22314766 0.26706073 -0.049008965
-0.18085459 0.28825131 -0.049827695
-0.15917157 0.28761667 -0.056697488
-0.13785727 0.28743282 -0.05868721
-0.11657376 0.28724936 -0.060673952
-0.095320918 0.28706601 -0.062658012
-0.074098729 0.28688303 -0.064639211
0.095120676 0.28703871 -0.062954128
0.11643537 0.28741255 -0.058906674
0.13781294 0.28778762 -0.05484736
0.15925434 0.28816485 -0.050763011
-0.053315558 0.30960107 -0.048930883
-0.032017887 0.30940077 -0.050931931
-0.010751046 0.30920073 -0.052929878
0.010485033 0.30900121 -0.054924965
0.031690516 0.30880296 -0.056904316
0.052954398 0.30918267 -0.053111434
0.07428322 0.30959058 -0.049034953
-0.33184224 -0.48035914 -0.032226443
-0.30942282 -0.47872078 -0.041094303
0.30915591 -0.47887546 -0.040256977
-0.35300362 -0.45864695 -0.03401494
-0.33053109 -0.45707899 -0.042871356
0.3305288 -0.45760202 -0.039916754
-0.37413782 -0.43696278 -0.035801291
-0.35161403 -0.43546697 -0.044633389
0.35190859 -0.43632567 -0.039563537
-0.39616725 -0.41632605 -0.031278372
-0.37266836 -0.41388056 -0.046406031
0.37329382 -0.41504374 -0.039209843
-0.39425781 -0.39291328 -0.044333458
0.39468271 -0.39375451 -0.0388695
-0.41635695 -0.37236801 -0.039157629
0.41607875 -0.37246194 -0.038515568
-0.4386324 -0.35182598 -0.033383846
0.4375872 -0.35126013 -0.03746748
-0.43800619 -0.3299326 -0.037257433
0.43707108 -0.32946634 -0.040819645
-0.43738171 -0.30810001 -0.04112041
0.43655822 -0.30772686 -0.04415071
0.45967686 -0.30910954 -0.032923698
-0.43676111 -0.28632969 -0.044959426
0.4360446 -0.28603789 -0.047486782
0.45909706 -0.28730536 -0.036509991
-0.46031532 -0.26646841 -0.031633854
0.45855692 -0.26558277 -0.039851546
-0.45965844 -0.24468029 -0.035512447
0.45801592 -0.24391118 -0.043197751
-0.45900342 -0.22295278 -0.039380193
0.45747831 -0.22229305 -0.046523213
-0.45835245 -0.20128691 -0.043223977
0.48106468 -0.20215803 -0.032936811
-0.45770109 -0.17968008 -0.047070384
0.48033962 -0.18043858 -0.037218094
-0.48133796 -0.15932068 -0.033765078
0.47961897 -0.15878659 -0.041473389
-0.4806523 -0.13769862 -0.03763783
0.47889832 -0.13720039 -0.045728564
-0.48116812 -0.11650176 -0.034724474
0.47947291 -0.11609157 -0.042335987
-0.48186457 -0.095307253 -0.030791044
-0.45761731 -0.094532467 -0.047564983
0.48020416 -0.094973423 -0.038017869
-0.45827949 -0.073405609 -0.043654919
0.48093998 -0.073789835 -0.033673048
-0.45894358 -0.052218899 -0.039733529
0.4574531 -0.052005053 -0.046679497
-0.45960954 -0.030972086 -0.035801291
0.45800325 -0.030799389 -0.043276191
-0.46027744 -0.0096648149 -0.031857729
0.45855477 -0.0095414408 -0.03986454
-0.43679908 0.011832505 -0.044724703
0.43609068 0.011851482 -0.047187567
0.4591077 0.011768745 -0.036444306
0.43661448 0.033131719 -0.043785334
0.45970449 0.033131719 -0.032752514
-0.43743244 0.033131771 -0.040806532
-0.4380677 0.05449146 -0.036877275
0.43713957 0.054464452 -0.040374875
-0.43870467 0.075911731 -0.032936692
0.43766391 0.075849637 -0.036969066
-0.41615543 0.097127788 -0.040466309
0.41590828 0.097145982 -0.039681196
-0.39415288 0.11831869 -0.04505074
0.39454848 0.11847916 -0.039838314
-0.39594781 0.14008781 -0.032778978
-0.37262684 0.13955173 -0.046705723
0.37319106 0.13981007 -0.039995432
-0.37402868 0.16130298 -0.03658855
-0.3515799 0.16091937 -0.044894218
0.35183606 0.16113847 -0.040152431
-0.35290733 0.1827639 -0.034750819
-0.33050698 0.1823158 -0.043067336
0.33048198 0.18246365 -0.040322423
-0.33175799 0.20425329 -0.032910466
-0.30940622 0.20374042 -0.04123807
0.30913192 0.20378706 -0.040479422
-0.28827614 0.22519252 -0.039419532
0.28778431 0.22510824 -0.040636539
-0.31057906 0.22577032 -0.031080842
-0.26711962 0.24667379 -0.037585378
-0.24499871 0.24603483 -0.045885086
0.26643908 0.24642682 -0.040793419
-0.24593501 0.26818347 -0.035748839
-0.22386298 0.26747981 -0.044059277
0.2450963 0.26774302 -0.040950418
-0.22483265 0.28984201 -0.032607794
-0.20277579 0.28904471 -0.04123795
0.18075858 0.28854212 -0.046679497
0.20232652 0.2889204 -0.042584181
0.22395946 0.28930113 -0.038463235
-0.18220088 0.31145591 -0.030395865
-0.16026869 0.31060663 -0.038882494
-0.13881586 0.31040493 -0.040898085
-0.1173942 0.31020349 -0.042910695
-0.096003652 0.31000242 -0.044920325
-0.074644119 0.30980143 -0.046927094
0.095675573 0.31000111 -0.044933438
0.11713105 0.31041145 -0.040832758
0.13865022 0.31082302 -0.03671968
0.16023408 0.31123719 -0.032581568
-0.053729311 0.33279881 -0.031015038
-0.03229332 0.33258021 -0.033041954
-0.010888562 0.33236215 -0.035066009
0.010485033 0.33214435 -0.037087083
0.031827733 0.33192968 -0.039078951
0.05323384 0.33237344 -0.034960985
0.074703634 0.3328186 -0.030830383
-0.35440567 -0.4820081 -0.023301363
0.33182919 -0.48101884 -0.028655291
0.35469148 -0.4831779 -0.016969204
-0.37586251 -0.46053451 -0.023354411
0.35329437 -0.45965663 -0.028312206
0.37625143 -0.46172857 -0.016610146
-0.39809287 -0.43995839 -0.018113017
0.39781687 -0.44027373 -0.016250491
0.37476662 -0.43829146 -0.02795577
-0.42040902 -0.41930699 -0.012838483
0.39624253 -0.41691869 -0.027612448
0.41938594 -0.41881129 -0.015904307
-0.41837236 -0.39572561 -0.02606678
0.41772562 -0.39554259 -0.027256012
0.4409624 -0.39734557 -0.015544772
-0.44066307 -0.37504983 -0.020822287
0.43921223 -0.3741591 -0.02691257
-0.46303555 -0.35429409 -0.015571594
0.46106544 -0.35307997 -0.024334073
-0.4622947 -0.33219793 -0.019946456
0.46036896 -0.33105996 -0.028642178
-0.46163228 -0.31022635 -0.023857474
-0.46097398 -0.28831756 -0.027744651
0.48398307 -0.28970778 -0.015704632
-0.48479283 -0.26834166 -0.014252305
0.48324898 -0.26771799 -0.02003932
-0.48409751 -0.24641484 -0.018179536
0.48251939 -0.24579754 -0.024347305
-0.48340648 -0.22455075 -0.02208221
0.48178983 -0.22394356 -0.028655171
-0.48271504 -0.20274651 -0.025987506
-0.48202556 -0.18100321 -0.029881716
0.50550336 -0.18209362 -0.015717864
-0.50592786 -0.16052309 -0.016410232
0.50473589 -0.16027075 -0.020052433
-0.50520593 -0.13876522 -0.020318031
0.50397319 -0.13851625 -0.024360657
-0.50567228 -0.11741412 -0.017793894
0.50448453 -0.11721591 -0.021472454
-0.5064103 -0.096092023 -0.013799071
0.50526297 -0.095940776 -0.017075658
-0.48256531 -0.074053086 -0.026833415
0.50604153 -0.074597828 -0.012678385
-0.48326802 -0.052738413 -0.022864103
0.4816781 -0.052539729 -0.029314756
-0.48397276 -0.03136272 -0.018883824
0.48241854 -0.031222768 -0.024942636
-0.48467952 -0.0099260323 -0.014891982
0.4831613 -0.0098388381 -0.020556927
-0.46094719 0.011703057 -0.027902961
0.48390639 0.011612605 -0.016157269
-0.46161881 0.033131771 -0.023936987
-0.4622924 0.054621637 -0.019959569
0.46040952 0.054556727 -0.028391242
-0.46296793 0.076172918 -0.015970945
0.46111679 0.076049097 -0.0240165
-0.44023019 0.097519673 -0.023499966
0.43891752 0.097396694 -0.028826833
0.46281806 0.097750783 -0.013492227
-0.41805106 0.11883901 -0.028153777
0.41747275 0.11881341 -0.028985023
0.44057724 0.11915015 -0.018046379
-0.41996366 0.14074391 -0.015731215
0.3960304 0.14022766 -0.029143214
0.41904929 0.14064866 -0.018205881
-0.39775869 0.16205087 -0.020397663
0.37459049 0.1616396 -0.029301643
0.39752382 0.16214472 -0.018365502
-0.37562773 0.1832867 -0.025048614
0.35315302 0.18304902 -0.029459953
0.37600079 0.18363822 -0.018525004
-0.35424453 0.20476922 -0.024532557
0.33171648 0.20445526 -0.029631376
0.35448021 0.20512938 -0.018684626
-0.3555899 0.22693604 -0.014252305
-0.33301657 0.22635141 -0.022691965
0.31028399 0.22585967 -0.029789329
0.33296058 0.22661707 -0.018857121
-0.31176209 0.24796328 -0.020835757
-0.28937364 0.24731663 -0.029235721
0.28885394 0.24726173 -0.029947639
0.31144503 0.24810317 -0.019016743
-0.29047927 0.26960376 -0.018976808
-0.26814008 0.26889148 -0.027388096
0.26742637 0.26866135 -0.03010571
0.28993192 0.26958686 -0.019176126
-0.2693626 0.29145265 -0.015171885
-0.2470286 0.29064548 -0.023910642
0.24613184 0.29020104 -0.028721213
0.268603 0.29124972 -0.017368197
-0.20427999 0.31232631 -0.021697879
0.18188159 0.31165114 -0.028444171
0.20359369 0.31206641 -0.024294257
0.22542782 0.31255746 -0.019388556
-0.22649877 0.31320357 -0.012931943
-0.16146347 0.33404163 -0.01948154
-0.13978691 0.33367568 -0.022877455
-0.11822534 0.33345595 -0.024916291
-0.096695244 0.33323649 -0.026952028
-0.075196594 0.33301753 -0.028985023
0.096237794 0.33326644 -0.026674747
0.11783591 0.33371419 -0.022519708
0.13949858 0.33416337 -0.018352151
0.16122679 0.33461538 -0.014158964
-0.054148465 0.35629922 -0.012865186
-0.032572344 0.35606217 -0.014918804
-0.011027871 0.35582528 -0.016969204
0.010485033 0.35559049 -0.01900351
0.031968888 0.35538968 -0.020742774
0.053516984 0.35587144 -0.016569972
-0.3776972 -0.4844445 -0.010113358
0.37774837 -0.4853577 -0.0051711798
-0.40003875 -0.4638181 -0.0048087835
0.39940229 -0.4638181 -0.0048087835
-0.42246303 -0.443111 0.00050246716
0.42105985 -0.44227073 -0.0044597387
0.44286135 -0.42086345 -0.003210783
-0.44280744 -0.39857531 -0.0075575113
-0.46529055 -0.37776527 -0.0022563934
0.46344209 -0.37668651 -0.0096321106
-0.48786119 -0.35687831 0.0030781031
0.48643601 -0.35628259 -0.0012208223
-0.48688817 -0.33449176 -0.002417922
0.48545587 -0.33389115 -0.0070081949
-0.48618692 -0.31237912 -0.006378293
0.48471716 -0.31176433 -0.011369824
-0.48549005 -0.29033017 -0.010314226
-0.50957829 -0.27023855 0.0033479929
0.50859243 -0.27006406 0.0017290115
-0.5088436 -0.24817118 -0.00062870979
0.50781536 -0.24796793 -0.0026597977
-0.50811344 -0.22616744 -0.004580617
0.50704306 -0.22594202 -0.0070215464
-0.50738287 -0.20422435 -0.0085349083
0.50627089 -0.20398319 -0.011383295
-0.50665438 -0.18234295 -0.012478232
-0.53082961 -0.16174147 0.0011762381
0.53024679 -0.16177884 0.0017155409
-0.53006554 -0.13984445 -0.0027941465
0.52943593 -0.1398519 -0.0026731491
-0.53047973 -0.11833829 -0.00064206123
0.52987587 -0.11835722 -0.00029194355
-0.53125799 -0.096886538 0.0034018755
0.53070056 -0.096922152 0.0041717291
-0.50715053 -0.074709006 -0.0097925663
-0.50789279 -0.053264491 -0.0057748556
0.50682497 -0.053188115 -0.0082538128
-0.50863725 -0.031758465 -0.0017455816
0.50761074 -0.031710736 -0.0038151741
-0.5093838 -0.010190584 0.0022954941
0.50840151 -0.010165352 0.00065076351
-0.48538834 0.011572046 -0.010888815
0.48465383 0.033131719 -0.011743784
-0.48609912 0.033131823 -0.0068742037
-0.486812 0.054753378 -0.0028479099
0.48540366 0.054718971 -0.0073162317
-0.48752692 0.076437183 0.0011899471
0.48615587 0.076374516 -0.0028748512
-0.46459931 0.09791594 -0.0063380003
-0.44224513 0.11936608 -0.011035919
0.46505651 0.11971673 0.00035440922
-0.44427818 0.14140871 0.001540184
0.44224989 0.14107303 -0.0071824789
-0.42189339 0.16284537 -0.0031974316
0.42063814 0.16265383 -0.007343173
-0.39958578 0.18421051 -0.0079056025
0.39902884 0.18423209 -0.0075037479
0.42223933 0.1848307 0.0036045313
-0.40142933 0.20656943 0.0046987534
-0.37735289 0.20550421 -0.012598276
0.37742203 0.20580801 -0.0076644421
0.40054563 0.20649204 0.0034425259
-0.37909356 0.22792098 -3.6120415e-05
0.35581771 0.22738141 -0.0078252554
0.37885439 0.22815087 0.0032805204
-0.35694695 0.24926829 -0.0038825274
-0.33428609 0.24861377 -0.012384653
0.33421433 0.24895132 -0.0079995394
0.35716563 0.24980718 0.0031186342
-0.33556503 0.27104115 -0.0020010471
-0.31295383 0.2703203 -0.010514498
0.31261504 0.27051958 -0.0081601143
0.33547786 0.27145991 0.0029430389
-0.31445485 0.29308367 0.0024844408
-0.2918385 0.29226628 -0.0063649416
0.29125962 0.29230833 -0.0059088469
-0.27135652 0.31497332 0.004752636
-0.24885638 0.31408495 -0.0041240454
0.24788994 0.31370121 -0.0079592466
0.27053791 0.31485578 0.0035774708
-0.20580661 0.33594006 -0.0018663406
-0.18356532 0.33498788 -0.010701656
0.18301952 0.33506715 -0.0099664927
0.20487767 0.33552036 -0.005761385
0.22703789 0.33630574 0.0015269518
-0.16268589 0.35782731 0.00036787987
-0.14076996 0.35724974 -0.0046342611
-0.11906671 0.35701108 -0.0066999197
-0.097395368 0.35677293 -0.0087623596
-0.075755872 0.35653517 -0.010822058
0.075129613 0.3563548 -0.012384653
0.09680748 0.35684091 -0.0081734657
0.11855016 0.35732713 -0.0039631128
0.14035825 0.35781473 0.00025999546
0.16223204 0.35830376 0.0044959784
-0.032855034 0.37985229 0.0034425259
-0.011169009 0.37959638 0.0013650656
0.010485033 0.37934259 -0.00069582462
0.03211192 0.37916198 -0.0021624565
0.053803913 0.37968284 0.0020661354
-0.40200129 -0.48790348 0.0086090565
0.40100074 -0.4875558 0.0067269802
0.42445108 -0.48977274 0.018726349
-0.42453668 -0.46714324 0.013971448
0.42274946 -0.46592522 0.0070922375
-0.44716012 -0.44630602 0.019367814
0.44516358 -0.44501457 0.011742592
-0.44497228 -0.42232558 0.0058342218
0.46828032 -0.42466351 0.020296574
-0.46756941 -0.40146309 0.011199355
0.46584839 -0.40054756 0.0052527189
-0.49025032 -0.38051912 0.016571641
0.48897207 -0.38010699 0.013753891
-0.51302028 -0.35949716 0.02197814
-0.51179242 -0.3368147 0.015332222
0.51093346 -0.33676493 0.01495111
-0.51105142 -0.31455925 0.011321664
0.51015151 -0.31446221 0.010534406
-0.51031506 -0.29236823 0.0073359013
0.50936955 -0.2922276 0.0061180592
-0.53467768 -0.2721594 0.021171331
-0.53390265 -0.24994993 0.017144322
0.53351063 -0.25017375 0.019381642
-0.53313243 -0.22780454 0.01314187
0.53269207 -0.2279717 0.014950991
-0.53236181 -0.20572078 0.0091376305
0.53187364 -0.20583797 0.010521054
-0.53159332 -0.1836997 0.0051447153
0.53105766 -0.18377349 0.0061045885
-0.55604398 -0.16297442 0.01897192
-0.55523926 -0.14093724 0.01495111
0.55530071 -0.14120927 0.019367814
-0.55559087 -0.11927321 0.016707897
0.55565572 -0.11951596 0.02121222
-0.55641031 -0.097690232 0.02080214
-0.53203589 -0.07537248 0.0074442625
0.53152788 -0.075418808 0.0086497068
-0.53281868 -0.053796858 0.011511803
0.53235537 -0.053846568 0.0131284
-0.53360373 -0.032158934 0.015590906
0.53318793 -0.032206036 0.017634988
-0.53439105 -0.010458291 0.019681931
0.53402573 -0.010496557 0.02216959
-0.51013255 0.011439418 0.0063480139
0.50918996 0.011448855 0.0051040649
0.50998336 0.033131719 0.0095849037
-0.51088345 0.033131771 0.010412335
-0.51163399 0.054886684 0.014474869
0.51077932 0.054883659 0.014080286
-0.51238924 0.076704629 0.018562675
0.51157773 0.076705098 0.018589854
-0.48927271 0.098317526 0.011050105
0.48798606 0.098245479 0.0079318285
-0.46673632 0.11989925 0.0062804222
0.49036717 0.12038305 0.021991849
-0.46889266 0.14208125 0.019012928
0.46731719 0.14190128 0.014338851
-0.44632733 0.16364968 0.014216185
0.44439137 0.16330361 0.006726861
-0.42384046 0.18514565 0.009449482
0.44655418 0.18575597 0.020774841
-0.42580518 0.20764783 0.022210717
0.42385313 0.20718142 0.014638066
-0.4032895 0.22913024 0.017416835
0.40207431 0.22892642 0.014474869
-0.3808499 0.25054011 0.012639046
0.38029799 0.25066879 0.014311552
-0.35848597 0.27187762 0.0078775883
0.35852247 0.27240747 0.014134645
-0.33721432 0.29390627 0.011389494
0.31410283 0.29337564 0.0056447983
0.33713496 0.29445171 0.017294049
-0.29399791 0.31586602 0.013672113
0.29337305 0.3160198 0.015209675
-0.25071156 0.33786112 0.015958786
-0.22818752 0.33689687 0.0070111752
0.24967559 0.33755606 0.013128519
-0.20735402 0.35989037 0.018235087
-0.18494922 0.35885549 0.0092731714
0.18417266 0.35879603 0.0087581873
0.20617886 0.3592881 0.013019681
-0.16392578 0.38195339 0.020501494
-0.1417667 0.38113582 0.01386261
-0.11991978 0.380878 0.011769891
-0.098105215 0.38062054 0.0096800327
-0.076322906 0.38036355 0.0075932741
-0.054572806 0.3801069 0.0055094957
0.075561292 0.3802053 0.0063076019
0.097384788 0.38073078 0.010575175
0.11927398 0.38125628 0.014842272
0.14122945 0.38178352 0.019122243
-0.033141457 0.40395698 0.022046566
-0.01131201 0.40368155 0.01994133
0.010485033 0.40340811 0.017853022
0.032256868 0.40325299 0.016667128
0.05409468 0.40381387 0.020952582
-0.4266324 -0.49140924 0.027583718
-0.4493669 -0.47051555 0.03301847
0.44749257 -0.46942693 0.026869655
-0.47219086 -0.4495441 0.03848815
0.47073841 -0.44903845 0.035502076
-0.46986789 -0.42538697 0.024771333
-0.4926649 -0.40438983 0.030208945
0.49153757 -0.40418869 0.02890265
-0.51554686 -0.38331017 0.035654068
0.51493418 -0.38358706 0.03754735
0.51223814 -0.35954458 0.022320151
-0.53701341 -0.33916709 0.033308029
0.53681314 -0.33968395 0.037257075
-0.53623176 -0.31676689 0.029246211
0.53598428 -0.31720096 0.032770395
-0.53545493 -0.29443222 0.025210023
0.53515792 -0.29478875 0.028297901
-0.56009698 -0.27410471 0.039221644
0.53433424 -0.27244693 0.023839593
-0.55928057 -0.25175107 0.035143018
-0.55846941 -0.22946262 0.031089783
0.55874348 -0.23003229 0.037257075
-0.55765766 -0.20723635 0.027034402
0.55788004 -0.20772207 0.032770514
-0.55684835 -0.18507335 0.022990584
0.55701667 -0.18548089 0.028284192
-0.58157945 -0.16422302 0.036994219
0.55615866 -0.16331074 0.023825765
-0.58073306 -0.14204395 0.032922029
-0.58101678 -0.12022061 0.034287333
-0.58187842 -0.098504536 0.038432717
0.55652797 -0.097918548 0.025744677
-0.55723214 -0.076044589 0.024908185
0.55740303 -0.076251797 0.030291557
-0.55805641 -0.054336101 0.029026389
0.55828083 -0.0545156 0.034853101
-0.55888295 -0.032564536 0.033156276
0.55915886 -0.032709152 0.039415479
-0.55971199 -0.01072954 0.03729856
-0.53518069 0.011305122 0.023784757
0.53486115 0.011282757 0.026691318
-0.53597254 0.033131719 0.027899623
0.53570175 0.033131823 0.031241298
-0.53676671 0.055021815 0.032026291
0.53654504 0.055050906 0.035805821
-0.5375632 0.076975673 0.03616488
-0.51425135 0.098723806 0.028641462
0.51354235 0.098747998 0.029686332
-0.49153468 0.12043951 0.023825765
-0.49381724 0.14276278 0.036717772
0.49277455 0.14274302 0.036206365
-0.47106856 0.16446453 0.031861067
0.46960267 0.16430822 0.028476715
-0.44839731 0.18609244 0.027020812
0.44874081 0.20843413 0.034977317
-0.42778778 0.23035455 0.035087824
0.4256984 0.22981182 0.027254105
-0.40516859 0.25189689 0.03026402
0.403615 0.25153729 0.025593877
-0.38262406 0.27336511 0.025442958
0.38175291 0.27336398 0.025429249
0.40516785 0.2743268 0.036800742
-0.36070034 0.29514495 0.024798632
0.36035666 0.2955355 0.029026389
-0.33971539 0.31766966 0.031695724
-0.31678319 0.31676418 0.022648692
0.3163977 0.31719348 0.026938558
0.3396126 0.31837562 0.038751006
-0.29618841 0.33980522 0.033997774
-0.27337772 0.33883011 0.024949551
0.27250201 0.33881828 0.024839759
0.29551855 0.34009093 0.03664887
-0.25259218 0.36197829 0.036316991
-0.22990164 0.36093181 0.027254105
0.22867122 0.36041099 0.022744417
0.2514883 0.3617726 0.034535646
0.16325152 0.38231227 0.023414969
0.18534131 0.3828443 0.027734876
-0.20892376 0.38418582 0.038626432
-0.186353 0.38306612 0.029534936
0.20752336 0.38342202 0.03242588
-0.14277664 0.40533879 0.032605052
-0.12078417 0.40506113 0.0304842
-0.098824464 0.40478402 0.028366804
-0.076897457 0.40450746 0.02625227
-0.055003077 0.4042311 0.024140835
0.075998776 0.40437633 0.025250912
0.097969882 0.40494245 0.029576421
0.12000754 0.40550837 0.033900976
0.14211242 0.40607607 0.038238883
-0.011456912 0.42808682 0.038764954
0.010485033 0.42779362 0.03664875
0.032403775 0.4276692 0.035750508
-0.45159498 -0.49495965 0.046801448
0.44984448 -0.4940995 0.042146087
-0.47453409 -0.4739337 0.052324176
0.473223 -0.4736765 0.050871491
-0.49510035 -0.42848966 0.043964624
0.49412844 -0.42852786 0.044200778
-0.51810062 -0.40735629 0.049476385
0.51766187 -0.4078916 0.052953005
-0.54118711 -0.38613909 0.054995537
-0.53851944 -0.36215141 0.041133523
0.53847623 -0.36286163 0.046258688
-0.56255722 -0.34154969 0.05151391
-0.56173384 -0.31900293 0.047400117
0.56222731 -0.31998318 0.055359364
-0.56091279 -0.29652083 0.043298006
0.56135285 -0.29738888 0.050815821
0.56048119 -0.27486601 0.046286464
-0.5853442 -0.25374901 0.055107355
0.55961227 -0.25241441 0.041771412
-0.58413035 -0.23114175 0.049267292
-0.58327663 -0.20877105 0.045159698
0.584297 -0.20963484 0.055359483
-0.58242542 -0.18646473 0.041064382
0.58338761 -0.18721539 0.050815701
0.58247828 -0.16486585 0.046272635
0.58157462 -0.14258811 0.041757584
0.58183289 -0.12069268 0.043048143
0.58275414 -0.098930277 0.047650695
-0.58274251 -0.076725118 0.042590141
0.58367831 -0.077097692 0.052268147
-0.5836063 -0.054881737 0.046745777
0.58460265 -0.055194065 0.056886554
-0.58460021 -0.032988846 0.051527977
0.56004238 -0.010832764 0.044006348
-0.56054342 0.011169156 0.041452527
0.56092876 0.011114052 0.048612118
-0.56137455 0.033131719 0.045604825
0.561818 0.033131719 0.05323267
-0.5622108 0.055158563 0.04978323
-0.56304955 0.077249788 0.053974032
0.53738856 0.077040419 0.040371299
-0.53954589 0.099135503 0.046467423
0.53949875 0.09925849 0.051793218
-0.51664126 0.12098619 0.04157722
0.51607287 0.12106012 0.043978453
-0.51905298 0.14345232 0.054631472
-0.49611822 0.16528922 0.049713373
0.49520382 0.16532776 0.050550699
-0.47326428 0.18705195 0.044826269
0.47190893 0.18693972 0.042742848
-0.45048833 0.20874068 0.039955616
0.47423846 0.20979971 0.057152987
-0.45259625 0.23159513 0.052995086
0.45094731 0.23133978 0.049309134
-0.42979059 0.25326961 0.048096418
0.42778319 0.25276241 0.041507959
-0.40706277 0.27487001 0.043214679
0.42988902 0.27594456 0.0559057
-0.38510582 0.29685903 0.043353677
0.3837736 0.29662967 0.04087019
0.40756685 0.29785293 0.054113865
-0.36397362 0.31948245 0.049811244
0.36302322 0.31956905 0.050676346
-0.34274387 0.34220716 0.056283951
-0.31914678 0.34078807 0.043117642
0.318726 0.34137264 0.0485425
-0.2984122 0.36409307 0.054631591
-0.27542806 0.36303148 0.045438051
0.27449602 0.36314556 0.0464257
-0.25450009 0.38644531 0.056970716
-0.23163942 0.3853128 0.047776103
0.23033042 0.38488442 0.044297934
0.25332871 0.38635898 0.056270003
-0.1877771 0.40762687 0.050090194
-0.16518359 0.40642765 0.040925741
0.16428478 0.40664536 0.042590141
0.18652494 0.40721658 0.046954513
0.20902692 0.40815535 0.054127932
-0.14384376 0.42997712 0.05240798
-0.12165945 0.42956534 0.049434662
-0.099553309 0.42926994 0.047302604
-0.077479661 0.42897299 0.045159817
-0.055439405 0.42867833 0.043034315
-0.033431701 0.42838234 0.040897965
0.054389387 0.42827094 0.040094137
0.076442502 0.42887667 0.044464827
0.098562896 0.42948213 0.048835039
0.12075108 0.43008971 0.053218722
0.010485033 0.45250508 0.055695653
0.032552674 0.45241708 0.055093527
-0.50004524 -0.47739851 0.071893454
-0.49755958 -0.45282382 0.057853937
0.49674734 -0.45313048 0.059664726
-0.52067667 -0.43163478 0.0634197
0.52041668 -0.43245792 0.068512082
-0.54388094 -0.41036096 0.068992615
0.54133737 -0.38712627 0.061744928
-0.56436574 -0.36484188 0.060549974
0.56516135 -0.36623511 0.07060504
0.56310725 -0.34265134 0.059931636
-0.58910704 -0.32218209 0.073211432
-0.58784848 -0.29927573 0.067156076
0.58796656 -0.30003059 0.073693514
-0.58659226 -0.2764639 0.061112165
0.58704543 -0.27732393 0.069091678
0.58612734 -0.25468931 0.064504385
0.58521211 -0.23212686 0.059931755
-0.61124694 -0.18891534 0.07289958
0.61017734 -0.18897647 0.073693633
-0.60993898 -0.16629028 0.06683147
0.60922086 -0.16644686 0.069091678
-0.60863954 -0.14376104 0.060802937
0.60826445 -0.1439881 0.064490318
-0.60886687 -0.12170628 0.061857581
0.60841686 -0.12188759 0.065223336
-0.61018246 -0.09986838 0.067961097
0.60938841 -0.099957861 0.069897652
-0.61149758 -0.077936493 0.074062347
0.61036021 -0.077956282 0.074573278
0.58553284 -0.033219852 0.061534047
-0.5858568 -0.011041719 0.057573676
0.58646595 -0.011174504 0.066196442
-0.58711576 0.010998419 0.063630939
0.58740216 0.010942636 0.070874095
-0.58838302 0.033131771 0.069728017
0.56270742 0.055220705 0.057854176
0.56360239 0.077381223 0.062504768
-0.56515723 0.099552006 0.064504385
0.56585944 0.0997767 0.074232578
-0.54206681 0.12154005 0.059566498
0.54217798 0.12174734 0.066295147
-0.54461098 0.144151 0.072786212
0.51862651 0.14359735 0.058401346
-0.521487 0.16612482 0.067805648
0.52120602 0.16636324 0.072970629
-0.49844274 0.18802285 0.062842369
0.49765763 0.18814129 0.065039992
-0.47548017 0.20984644 0.057910204
-0.47771639 0.23285055 0.071114659
0.47659162 0.23289171 0.071709514
-0.45472351 0.25465968 0.066154122
0.45317614 0.25447732 0.063785911
-0.43180963 0.2763938 0.061210513
-0.40983474 0.29859686 0.062167048
-0.38861734 0.32137242 0.068696022
0.38662875 0.32077116 0.062687755
0.34212974 0.34266683 0.060549974
0.36572903 0.34397024 0.072644472
-0.3215431 0.36515981 0.063870311
0.2976954 0.3645283 0.058401346
0.32109153 0.36592454 0.070492029
-0.27750969 0.38758689 0.066238761
0.27651933 0.3878442 0.0683285
-0.23340248 0.41004896 0.068596959
-0.21051626 0.40883395 0.059313774
0.23201507 0.40973285 0.066182256
-0.18922195 0.43254581 0.070944786
-0.16645966 0.43125725 0.061646461
0.1430074 0.43069878 0.057615757
0.16533211 0.43130994 0.062026143
0.18772557 0.43192306 0.066450477
-0.011603862 0.45282087 0.057854176
-0.14496934 0.45507941 0.073296428
-0.12254714 0.4544003 0.068653584
-0.10029194 0.45408428 0.066492796
-0.078069679 0.45376664 0.06432128
-0.055881254 0.45345157 0.062167168
-0.03372582 0.45313492 0.060002089
0.054688103 0.45306095 0.059496164
0.076891951 0.45370898 0.063926697
0.099164002 0.45435676 0.068356872
0.12150478 0.45500669 0.072800517
-0.52590483 -0.48090845 0.091717839
0.49939477 -0.47800118 0.075297117
0.52319902 -0.45729032 0.084226966
-0.52327794 -0.45615101 0.07749939
-0.54660386 -0.43482292 0.083141446
0.54423225 -0.41165763 0.077414155
-0.56769556 -0.38938493 0.077186704
0.56819284 -0.39072612 0.086356997
-0.59037095 -0.34518498 0.079292417
0.58982038 -0.34566432 0.082955956
0.58889341 -0.32281184 0.078324556
0.6140371 -0.27982119 0.092263699
-0.6151979 -0.25736395 0.091229796
0.61306822 -0.25700092 0.087602377
-0.6138764 -0.23445171 0.085098624
0.61210251 -0.23425373 0.082955956
-0.61255735 -0.21163487 0.078979135
0.61113983 -0.2115795 0.078324437
0.63639086 -0.16805223 0.092263699
0.63538611 -0.14541137 0.087602258
0.63541698 -0.12310123 0.087745547
-0.61282128 -0.055912025 0.080203772
0.61133808 -0.055883557 0.079277992
-0.6141507 -0.033793479 0.086371303
0.61231917 -0.033738688 0.083998322
0.61330348 -0.011521503 0.08873415
0.58833861 0.033131823 0.075552702
-0.58965564 0.05535917 0.075850964
0.58928096 0.055393111 0.080260754
-0.59093076 0.077681094 0.081985712
0.59022635 0.077727333 0.084984303
-0.56855905 0.12221545 0.081500649
0.56869441 0.12244526 0.08896327
0.54488456 0.144465 0.080944896
-0.54717863 0.16697112 0.086128116
-0.52394342 0.18900678 0.081101537
0.52381444 0.18936247 0.087702632
-0.50078863 0.21096605 0.076092482
0.50013888 0.21118778 0.079690933
-0.50315636 0.23412195 0.089465141
-0.47997332 0.25606745 0.084441066
0.47897109 0.25622037 0.086428642
-0.45687044 0.27793697 0.079434633
0.45542982 0.27785146 0.078424096
-0.43488961 0.30035648 0.081215739
0.43308067 0.30003434 0.07772696
-0.41359061 0.3232888 0.087845683
0.41149017 0.32274657 0.082427979
-0.36730328 0.34425166 0.07525444
0.38983119 0.34553447 0.087158561
-0.34589371 0.36723682 0.081857324
0.34468397 0.36733067 0.082670689
-0.3243843 0.39032575 0.088476062
-0.3006669 0.38873395 0.075552583
0.29990721 0.38934386 0.080502987
-0.27962041 0.41250035 0.087330341
-0.25643721 0.41127163 0.077940345
0.25519624 0.41132188 0.078324437
0.27857521 0.41292614 0.09058392
-0.23519142 0.43514767 0.08972311
-0.21213207 0.43384263 0.08030355
0.2105536 0.4332689 0.076163411
0.23372464 0.43496299 0.088390112
-0.19068803 0.45783046 0.092105865
-0.1677544 0.45645052 0.082670569
0.14391463 0.45565876 0.077257752
0.16639382 0.45631266 0.081729054
0.18894272 0.45696869 0.086213946
-0.034199312 0.47997528 0.090756178
-0.011838598 0.47960436 0.088347316
0.010485033 0.47923422 0.085942388
0.032789156 0.47921419 0.085813642
0.055169381 0.47997528 0.090756178
0.52601451 -0.48239768 0.10012853
-0.55011219 -0.46019375 0.10137117
0.5501098 -0.46152422 0.1092273
0.54715365 -0.43645322 0.093226433
-0.57196087 -0.41490352 0.098497272
0.57125759 -0.41548631 0.10228229
-0.59376645 -0.36970252 0.095629096
0.592305 -0.36966673 0.095370054
0.61696535 -0.34872624 0.10635245
0.61598712 -0.32568437 0.10164595
-0.61786091 -0.30348215 0.10358477
0.61501205 -0.30271661 0.096954465
-0.61652505 -0.28037333 0.097386837
0.64002848 -0.23667252 0.10914016
0.63841319 -0.21355426 0.10164595
-0.6416167 -0.19173095 0.10947454
0.63740194 -0.19076705 0.096954346
-0.64023077 -0.1688146 0.10326612
-0.63884741 -0.14599437 0.097069621
-0.6388185 -0.12359663 0.096940041
-0.64021134 -0.10149502 0.10317922
0.6364373 -0.1010009 0.092479348
-0.64161021 -0.079298459 0.10944545
0.63746411 -0.078828685 0.097242713
0.63852537 -0.0565883 0.10216653
0.64015692 -0.034333065 0.1097362
-0.61548269 -0.011580206 0.092550993
-0.61682343 0.010727897 0.098771572
0.61428797 0.010768665 0.093470931
0.61527872 0.033131719 0.098237753
-0.61817002 0.033131823 0.10501862
0.61627281 0.055568382 0.10302019
0.61726701 0.078078553 0.1078037
-0.59420669 0.10031977 0.097747207
0.59263945 0.10030351 0.097040892
-0.57244349 0.14523341 0.10090876
0.57156116 0.14534706 0.10385966
0.54762149 0.16741592 0.095758557
-0.55063289 0.19024482 0.1040771
-0.52642268 0.21210104 0.094520807
0.52644706 0.21259677 0.10257161
-0.528925 0.23541054 0.10806513
0.50264317 0.23446912 0.094477654
-0.50554609 0.25749305 0.10296237
0.50517309 0.25798994 0.10941637
-0.48225126 0.27949989 0.097891569
0.48137265 0.27978718 0.1012845
-0.46028113 0.30214098 0.10053301
0.45901844 0.30225191 0.10173273
-0.43889594 0.32522947 0.1072377
0.43729082 0.32515675 0.10651207
-0.39219177 0.3463248 0.094492078
-0.37069458 0.36946678 0.10116875
0.36847669 0.36874887 0.094952583
-0.34910023 0.39271706 0.10789084
0.32349211 0.39085406 0.092766523
0.34727791 0.39237747 0.10513461
-0.30295631 0.41373914 0.096796036
0.30215189 0.41454244 0.10293341
-0.28176373 0.4377839 0.10874784
-0.25840148 0.43646139 0.09920454
0.25709274 0.43667182 0.10072076
-0.21377167 0.45921955 0.10160244
0.21210293 0.4587695 0.098526239
-0.14687733 0.48273864 0.10870433
-0.12401491 0.48146492 0.10043204
-0.10150492 0.48109153 0.098006964
-0.079032384 0.48071894 0.095585942
-0.05659721 0.48034674 0.093168974
0.077625751 0.48073661 0.095701218
0.10015923 0.48150271 0.10067737
0.12276997 0.48227152 0.10567093
-0.5542798 -0.48645186 0.12302685
0.55309606 -0.48687047 0.12539089
-0.57628661 -0.44079909 0.12011003
0.57435346 -0.44051763 0.11836863
-0.59824973 -0.39523715 0.11719918
0.59551233 -0.39438814 0.11139464
0.62014151 -0.37330589 0.12163365
-0.62054354 -0.34999275 0.11603069
-0.6191994 -0.32668796 0.10979438
0.64331591 -0.28328368 0.12439203
0.6416679 -0.25991741 0.11674607
-0.64440972 -0.23785916 0.12198555
-0.64300859 -0.2147451 0.11570919
0.66655362 -0.14785263 0.12724376
0.66623849 -0.12515357 0.12583184
-0.64301509 -0.057006158 0.11573851
-0.64442605 -0.034617715 0.12205887
0.64180017 -0.011962242 0.11736
0.64345205 0.010525879 0.12502348
-0.61951923 0.055631936 0.11127806
-0.62087739 0.078229122 0.1175791
0.61999232 0.10085487 0.12091565
-0.59828317 0.12331975 0.11735988
0.5956347 0.12315469 0.11200607
0.59866095 0.14624245 0.12712598
-0.57637745 0.16856155 0.1205641
0.57445478 0.16848445 0.11889529
0.55038387 0.19060233 0.1107105
-0.55442667 0.21390352 0.12378991
0.55317754 0.21402931 0.12583184
0.5291068 0.23607069 0.11759388
-0.53242475 0.25934416 0.12700832
-0.50795811 0.28108293 0.11658561
0.50773168 0.28175518 0.12452424
-0.48601159 0.30394807 0.12009561
0.48539084 0.30450654 0.12614059
-0.46454206 0.32719621 0.12689054
-0.41741204 0.34842435 0.11397314
0.41549382 0.34813857 0.11132193
-0.39583078 0.37172833 0.12075448
0.39362291 0.37119451 0.11613274
0.37168172 0.39432842 0.12097418
-0.32740426 0.41607293 0.11462939
0.32593009 0.41617221 0.11538827
-0.30560789 0.4395369 0.12139928
0.28066176 0.43839693 0.11317134
0.30443168 0.44013488 0.1257143
-0.26043281 0.46208504 0.12119424
-0.23700678 0.46061769 0.11116171
0.2354608 0.46058568 0.11094344
0.25907975 0.46252275 0.1241864
-0.17001231 0.48437506 0.11933422
0.1454584 0.48304299 0.11068141
0.16822489 0.48381707 0.11570919
0.19136533 0.48533246 0.12555254
-0.012123421 0.50790918 0.12534666
0.010485033 0.50751048 0.1228801
0.033078566 0.50759578 0.12340832
-0.58068007 -0.46708488 0.14206123
0.57748652 -0.46582955 0.13464856
-0.60280311 -0.42115575 0.13910651
0.5987522 -0.41938144 0.12758195
-0.62488186 -0.37531844 0.13615787
0.64663786 -0.33038411 0.13980377
-0.64864266 -0.30779639 0.14094698
0.6449725 -0.30677226 0.13207769
-0.64722341 -0.28438267 0.13458943
-0.64581352 -0.26107112 0.12827396
0.66999763 -0.19428635 0.14267051
-0.67129582 -0.17140248 0.14062011
0.66826946 -0.17100823 0.13492954
-0.66982794 -0.148285 0.13426411
-0.66950709 -0.12553301 0.13287508
-0.67098385 -0.10316203 0.13926971
0.66795927 -0.10289737 0.13353992
0.66968906 -0.080524072 0.1412884
-0.64584315 -0.01213225 0.12840641
-0.64726633 0.01045065 0.13478172
-0.64869243 0.033131719 0.14116967
0.64510936 0.033131771 0.1327126
0.64677864 0.055856474 0.14045703
-0.62441951 0.1011572 0.13401294
-0.60241795 0.14663231 0.13725352
-0.58036786 0.19220757 0.14050126
0.57738119 0.19186276 0.13410151
-0.55827206 0.23788428 0.14377141
0.55599749 0.23769894 0.14109528
0.53179669 0.25978902 0.13278651
-0.51287955 0.3061915 0.14438152
0.46352452 0.32760748 0.13100052
-0.44297504 0.35055387 0.13373208
0.4415879 0.35078654 0.13589144
-0.42130515 0.37401867 0.14059055
0.41957614 0.37404102 0.14078367
-0.37414736 0.39513865 0.12755263
0.34991241 0.41781604 0.12795007
-0.35236311 0.41865787 0.13438237
-0.33047915 0.44228879 0.14125896
0.32840636 0.44188783 0.13836503
-0.2840822 0.46365309 0.13191533
0.28297806 0.46457916 0.13824642
-0.21679239 0.48768675 0.14084291
-0.19331633 0.48602378 0.13004184
0.2149504 0.48749906 0.13962579
-0.12579368 0.51010722 0.1389432
-0.10293917 0.50951356 0.13526976
-0.080177404 0.5091095 0.13277149
-0.057454549 0.50870872 0.13029253
-0.034769915 0.50830865 0.12781763
0.055750176 0.50841582 0.12848008
0.078500286 0.50923866 0.13356936
0.10132929 0.51006401 0.13867629
0.1242376 0.51089269 0.14380121
0.58065456 -0.4914242 0.15111017
-0.60742193 -0.4474625 0.16132879
0.60305458 -0.44548211 0.14907801
-0.62966216 -0.40125394 0.15833557
0.62583333 -0.39989108 0.14901829
-0.65185767 -0.35513815 0.1553483
0.64860469 -0.35429803 0.14892876
-0.65006477 -0.33130956 0.14731705
-0.67573071 -0.24135447 0.15982401
0.67348123 -0.2412115 0.1582756
-0.67424715 -0.21793672 0.15340006
0.67173481 -0.21768707 0.15045261
-0.67276657 -0.19461879 0.14698887
-0.67247051 -0.080694184 0.14570701
-0.67396021 -0.058127552 0.15215755
0.67142469 -0.058032304 0.14906311
-0.67545635 -0.035462379 0.15863621
0.67317277 -0.035422139 0.15689385
-0.65012801 0.055911526 0.14760041
-0.65156984 0.078790709 0.15405917
0.64845669 0.078701138 0.14824212
-0.62875652 0.12445198 0.15413404
0.62502432 0.12417458 0.14512599
-0.60660934 0.17026383 0.15741932
0.60243058 0.16973463 0.14596033
-0.58441293 0.21617731 0.16071165
0.58033532 0.21548375 0.14945138
0.55884695 0.2616159 0.15651846
-0.53612447 0.28366119 0.14703369
0.53451198 0.28375331 0.14812267
0.51220638 0.30679795 0.15094578
-0.49053839 0.32919106 0.14682472
0.49020222 0.33009958 0.15590346
-0.46888325 0.35271063 0.15374458
0.46812204 0.35347769 0.16086221
-0.44712883 0.37634215 0.16071165
-0.39953414 0.39759323 0.14748096
0.39749122 0.39737302 0.14569211
-0.37766322 0.42128003 0.15441895
0.37533459 0.42078435 0.1506319
-0.35568765 0.44507611 0.16137421
0.35310206 0.44427231 0.15557337
-0.30894211 0.46663997 0.15233707
0.30710644 0.46665534 0.15244198
-0.2404402 0.48935956 0.15170872
0.23876256 0.48968682 0.15383434
-0.17256236 0.51363128 0.16074193
-0.14909235 0.51186395 0.14981008
0.14722565 0.51172376 0.14894366
0.17035279 0.51273507 0.15519845
0.010485033 0.53651726 0.16077197
0.033375576 0.53672379 0.16199148
-0.58513683 -0.49376452 0.16432834
0.60863912 -0.47299862 0.17698002
0.63162923 -0.42697513 0.17690384
-0.65687704 -0.38109297 0.17783225
0.65461814 -0.3809537 0.17682779
-0.68022019 -0.31222084 0.17926419
-0.6787172 -0.28849593 0.17275584
0.67700195 -0.28863499 0.17404604
-0.6772207 -0.26487407 0.16627586
0.67523694 -0.26486039 0.16613996
-0.70316738 -0.17405766 0.17894399
-0.70161456 -0.15063593 0.17243731
0.70066983 -0.15091747 0.1770103
-0.70096713 -0.12751871 0.16972435
0.69986254 -0.12772307 0.1735146
-0.70253164 -0.10487144 0.17628014
-0.67695916 -0.012697797 0.16514325
0.67493021 -0.012691956 0.16476572
-0.67846853 0.010166731 0.1716789
0.67669356 0.010159118 0.17266488
-0.67998451 0.033131719 0.17824328
-0.65539849 0.10201626 0.1712091
0.65291089 0.10196308 0.16890681
-0.63315326 0.14806724 0.17453218
0.63013703 0.1478821 0.16972446
-0.61085522 0.19421998 0.1778475
0.60735667 0.19382799 0.17057264
0.58456343 0.23979992 0.17142129
-0.56216729 0.2621927 0.16401172
0.56175715 0.28579822 0.17227042
0.53948128 0.3091298 0.17618906
0.44597015 0.37693581 0.16585302
-0.42526975 0.40008309 0.1676966
0.42374372 0.40047291 0.17086041
-0.40330771 0.42393607 0.17471445
0.40144044 0.42408726 0.17586958
-0.33440894 0.46999729 0.17529202
0.33150232 0.46879804 0.16709197
-0.26425996 0.49104008 0.1626246
0.26280507 0.49189562 0.1681807
-0.19620629 0.5154115 0.17175484
0.19407722 0.51506132 0.16958797
-0.10441121 0.53867525 0.1735146
-0.081353039 0.53824121 0.17095137
-0.058334425 0.53780776 0.16839254
-0.035355277 0.53737515 0.16583788
-0.012415605 0.5369457 0.16330266
0.056346275 0.53760552 0.1671977
