ply
format ascii 1.0
comment PCL generated
element vertex 1342
property float x
property float y
property float z
element camera 0
property float view_px
property float view_py
property float view_pz
property float x_axisx
property float x_axisy
property float x_axisz
property float y_axisx
property float y_axisy
property float y_axisz
property float z_axisx
property float z_axisy
property float z_axisz
property float focal
property float scalex
property float scaley
property float centerx
property float centery
property int viewportx
property int viewporty
property float k1
property float k2
end_header
-0.17976335 -0.2240949 -0.71158183
-0.15486857 -0.22413626 -0.71047407
-0.12718882 -0.22159478 -0.7122044
-0.10470787 -0.22414783 -0.71048951
-0.075620517 -0.22072753 -0.71168542
-0.054548353 -0.22415391 -0.71049762
-0.029468894 -0.22414789 -0.71048951
-0.0063735843 -0.22114435 -0.71236575
0.020690322 -0.22414508 -0.71048582
0.04958874 -0.2233651 -0.71244961
0.070849478 -0.22415081 -0.71049345
0.095928848 -0.22415379 -0.71049732
0.11943191 -0.22065827 -0.71253651
0.14608791 -0.22415385 -0.71049744
0.17577103 -0.21992841 -0.71192104
0.1962485 -0.2241421 -0.71048188
0.22132918 -0.22413638 -0.71047413
0.25076526 -0.22010508 -0.71273553
0.27148789 -0.2241421 -0.71048194
0.29656756 -0.2241421 -0.710482
0.32394183 -0.22305229 -0.71205509
0.34672564 -0.22414789 -0.71048951
0.37180513 -0.22414789 -0.71048951
0.40118688 -0.22502634 -0.71293646
0.42196459 -0.22414789 -0.71048951
0.44704223 -0.22415391 -0.71049762
0.47909403 -0.22203276 -0.71304524
0.4972012 -0.22415385 -0.71049744
0.52228189 -0.22415081 -0.71049345
0.54736274 -0.22414789 -0.71048951
0.57180542 -0.22063264 -0.71226251
-0.55055213 -0.19491318 -0.71242672
-0.53192437 -0.19615671 -0.71050864
-0.5101397 -0.19134083 -0.71168494
-0.48465598 -0.19264475 -0.71052861
-0.46364969 -0.19294235 -0.71174061
-0.43076587 -0.19394228 -0.71138138
-0.40884507 -0.19264314 -0.7105267
-0.38259253 -0.19241461 -0.71106285
-0.3583048 -0.1926401 -0.71052265
-0.33273727 -0.1930922 -0.71108836
-0.30776361 -0.19264027 -0.71052289
-0.28253153 -0.19379506 -0.71111488
-0.25722241 -0.19264016 -0.71052277
-0.23197207 -0.19280604 -0.71155769
-0.20668226 -0.1926342 -0.71051508
-0.180739 -0.19400564 -0.7116065
-0.15614152 -0.19262812 -0.71050715
-0.12961407 -0.19235781 -0.71119738
-0.10559887 -0.19264016 -0.71052277
-0.07778357 -0.1931102 -0.71123517
-0.055057451 -0.19264624 -0.71053064
-0.029787093 -0.19264171 -0.7105248
-0.0057969689 -0.1947104 -0.71176249
0.02075395 -0.19263718 -0.7105189
0.049716145 -0.19283953 -0.71246427
0.071295172 -0.19264022 -0.71052283
0.096565425 -0.19264624 -0.71053064
0.12103957 -0.19151685 -0.71134192
0.14710626 -0.19264624 -0.71053064
0.17489737 -0.19229922 -0.711375
0.19764888 -0.1926342 -0.71051502
0.22292057 -0.19262812 -0.71050715
0.25050139 -0.19343933 -0.71200371
0.27346098 -0.1926342 -0.71051508
0.29873163 -0.19263414 -0.71051496
0.32490802 -0.19398347 -0.71145236
0.34927231 -0.19263712 -0.7105189
0.37454218 -0.19264016 -0.71052283
0.40265071 -0.19277611 -0.71295309
0.42508328 -0.19264016 -0.71052283
0.45035386 -0.19264022 -0.71052283
0.47771114 -0.19134274 -0.71154302
0.50089282 -0.19264624 -0.71053064
0.52616388 -0.19264475 -0.71052861
0.55143631 -0.19264022 -0.71052283
0.57270396 -0.19475451 -0.71183711
-0.54816043 -0.17149663 -0.71143436
-0.53621566 -0.15835267 -0.71338826
-0.50707507 -0.1624808 -0.71132183
-0.47997379 -0.16070965 -0.71056408
-0.45897806 -0.1634098 -0.71135962
-0.42655718 -0.16619274 -0.7118234
-0.40358371 -0.16070342 -0.71055627
-0.37848085 -0.16437382 -0.71233422
-0.35265529 -0.16070342 -0.71055621
-0.33009678 -0.16632441 -0.71241933
-0.30172712 -0.16070342 -0.71055627
-0.2805447 -0.16834751 -0.71250737
-0.25928694 -0.16070333 -0.71055615
-0.233219 -0.16260308 -0.7115826
-0.20835975 -0.16069719 -0.71054834
-0.18172827 -0.16362855 -0.71162879
-0.15743193 -0.16069096 -0.71054065
-0.12950799 -0.16470355 -0.71167195
-0.1065027 -0.16069719 -0.71054846
-0.074321717 -0.16366401 -0.71231288
-0.055573449 -0.16070965 -0.71056426
-0.030109644 -0.16070655 -0.71056026
-0.0071204305 -0.16684538 -0.71301341
0.020818532 -0.16070032 -0.71055233
0.049845248 -0.16209942 -0.71247905
0.071746767 -0.16070342 -0.71055627
0.097210526 -0.16070965 -0.71056426
0.12106821 -0.16276401 -0.71189994
0.14813858 -0.1607095 -0.71056396
0.17739439 -0.1639297 -0.7119655
0.19906819 -0.16069719 -0.71054834
0.22453338 -0.16069096 -0.71054065
0.25255966 -0.16737035 -0.71276885
0.27546096 -0.16069719 -0.71054846
0.3009252 -0.16069719 -0.71054834
0.32746011 -0.16392002 -0.71287489
0.35185373 -0.16069719 -0.71054834
0.3773163 -0.16070333 -0.71055615
0.40413457 -0.16031143 -0.7129699
0.42824453 -0.16070333 -0.71055615
0.45370871 -0.16070348 -0.71055627
0.47837549 -0.16215521 -0.7130748
0.49614668 -0.16070956 -0.71056402
0.52161086 -0.16070965 -0.71056408
0.54707712 -0.16070342 -0.71055639
0.57156181 -0.16408587 -0.71318281
-0.54586816 -0.14802003 -0.71048337
-0.53917152 -0.1357117 -0.71026909
-0.50922775 -0.14057311 -0.71172065
-0.48250258 -0.13912708 -0.71058691
-0.46241111 -0.14175427 -0.71176863
-0.42648333 -0.144254 -0.71225083
-0.40572006 -0.13912073 -0.71057886
-0.37939328 -0.14001316 -0.71190113
-0.3545301 -0.13912076 -0.71057892
-0.33024243 -0.14124513 -0.71196496
-0.30334029 -0.13912073 -0.71057886
-0.28021547 -0.14252284 -0.71203095
-0.25215042 -0.13912073 -0.71057886
-0.23019283 -0.13948083 -0.71261656
-0.20096156 -0.13911435 -0.71057105
-0.17805123 -0.14119607 -0.71271926
-0.15830399 -0.13910809 -0.71056318
-0.12864894 -0.14201951 -0.71224695
-0.10711315 -0.13911438 -0.71057111
-0.076880217 -0.13883746 -0.71174246
-0.055922449 -0.13912708 -0.71058691
-0.030327633 -0.13912395 -0.71058297
-0.0065453947 -0.14005122 -0.71241045
0.020862162 -0.13911754 -0.71057498
0.04993242 -0.14146131 -0.7124905
0.072051972 -0.13912076 -0.71057892
0.097646952 -0.13912076 -0.71057892
0.12144604 -0.14167058 -0.71191508
0.14883614 -0.13912714 -0.71058702
0.17794669 -0.14268997 -0.71198058
0.2000275 -0.13911438 -0.71057111
0.22562346 -0.13910809 -0.71056318
0.25382048 -0.14139053 -0.71351898
0.27681255 -0.13911435 -0.71057105
0.30240744 -0.13911438 -0.71057111
0.3240009 -0.13700965 -0.71288633
0.34506601 -0.13911444 -0.71057123
0.37065929 -0.1391207 -0.7105788
0.39933246 -0.13872191 -0.7121805
0.42184937 -0.13912076 -0.71057892
0.4474442 -0.13912073 -0.71057886
0.47955275 -0.14010283 -0.71308589
0.49863183 -0.13912708 -0.71058691
0.52422673 -0.13912708 -0.71058691
0.54982281 -0.13912392 -0.71058291
0.57298183 -0.14175636 -0.71319908
-0.55545419 -0.11190358 -0.7138471
-0.54003644 -0.11694255 -0.7100547
-0.51064217 -0.11754689 -0.71135348
-0.48505741 -0.11732161 -0.71060985
-0.46219176 -0.11819881 -0.71139008
-0.42883602 -0.11964035 -0.71184629
-0.40787846 -0.11731511 -0.71060193
-0.37982473 -0.11617297 -0.71234953
-0.35642433 -0.11731511 -0.71060193
-0.33126545 -0.1175077 -0.71243453
-0.30497018 -0.11731511 -0.71060193
-0.28153804 -0.11889189 -0.71252269
-0.25351605 -0.11731514 -0.71060193
-0.22990018 -0.11511722 -0.71211857
-0.20206285 -0.11730871 -0.710594
-0.17786431 -0.11614576 -0.71219575
-0.15060925 -0.11730221 -0.71058613
-0.12473536 -0.11722079 -0.71226048
-0.10772975 -0.11730871 -0.71059412
-0.077203184 -0.11799955 -0.71175778
-0.056274757 -0.11732161 -0.71060985
-0.030547887 -0.11731839 -0.71060586
-0.0065893829 -0.11950356 -0.71242195
0.02090624 -0.11731189 -0.71059793
0.050020516 -0.12071165 -0.71250188
0.072360456 -0.11731189 -0.71059793
0.098087311 -0.11731514 -0.71060193
0.1208348 -0.11695352 -0.71259075
0.14954081 -0.11732152 -0.71060985
0.1801227 -0.11815661 -0.71269292
0.20099658 -0.11730871 -0.71059412
0.22672465 -0.11730218 -0.71058613
0.25378668 -0.11415792 -0.7127915
0.2696023 -0.11730871 -0.71059412
0.29532957 -0.11730871 -0.71059412
0.32479382 -0.11536086 -0.71289772
0.34678394 -0.11730871 -0.71059412
0.37250948 -0.11731514 -0.71060193
0.4006539 -0.11685309 -0.71219575
0.42396379 -0.11731508 -0.71060193
0.44969082 -0.11731514 -0.71060193
0.48074204 -0.11793908 -0.71309745
0.50114369 -0.11731842 -0.71060586
0.5268696 -0.11732152 -0.71060985
0.55259913 -0.11731511 -0.71060193
0.5743798 -0.11931434 -0.71322519
-0.53539646 -0.093725681 -0.70947289
-0.50852364 -0.094426781 -0.71211034
-0.47902083 -0.09528327 -0.71062517
-0.46299565 -0.095446289 -0.71217805
-0.42801893 -0.096494973 -0.71226358
-0.41005927 -0.09528327 -0.71062517
-0.38143003 -0.092790902 -0.71192425
-0.35833815 -0.09528321 -0.71062499
-0.33201349 -0.093560815 -0.71198791
-0.30661693 -0.09528318 -0.71062493
-0.28172091 -0.094359428 -0.71205401
-0.25489569 -0.09528321 -0.71062499
-0.23052327 -0.095187426 -0.71213007
-0.2031754 -0.095276684 -0.71061707
-0.17835392 -0.096043915 -0.7122072
-0.15145481 -0.095270008 -0.71060908
-0.12509142 -0.096939802 -0.71227199
-0.10835296 -0.095276684 -0.71061707
-0.075048521 -0.093148917 -0.71234721
-0.05663088 -0.095289886 -0.7106331
-0.030770481 -0.095286578 -0.71062911
-0.0072085559 -0.09359929 -0.71303636
0.020950615 -0.09528321 -0.71062499
0.051208913 -0.094808429 -0.71314549
0.07267195 -0.095279992 -0.71062112
0.098532498 -0.09528327 -0.71062517
0.12221357 -0.092330933 -0.71194589
0.150253 -0.095289886 -0.7106331
0.17906845 -0.092911422 -0.7120114
0.20197561 -0.095276743 -0.71061718
0.21921611 -0.095276684 -0.71061707
0.24842572 -0.093513846 -0.71207172
0.27093869 -0.095270008 -0.71060908
0.29679829 -0.095276684 -0.71061707
0.3255949 -0.093598872 -0.71290928
0.34851968 -0.095276684 -0.71061707
0.37437886 -0.09528321 -0.71062499
0.40198916 -0.094833434 -0.71221113
0.42610013 -0.09528321 -0.71062499
0.45196056 -0.09528321 -0.71062499
0.48194373 -0.095662177 -0.71310896
0.50368065 -0.095286578 -0.71062911
0.52954006 -0.095289797 -0.71063298
0.54678285 -0.09528321 -0.71062499
0.56718844 -0.096767128 -0.71325439
-0.53385168 -0.06616196 -0.71126777
-0.50896227 -0.071503907 -0.71175081
-0.48158419 -0.073021501 -0.71064848
-0.46175158 -0.072058767 -0.71179938
-0.42683089 -0.068488866 -0.71186554
-0.40359771 -0.073021472 -0.71064842
-0.37813178 -0.069008231 -0.71193594
-0.35160667 -0.073021531 -0.71064854
-0.33245844 -0.068389118 -0.71245009
-0.30828083 -0.073021472 -0.71064842
-0.28255212 -0.069134414 -0.71253812
-0.25628987 -0.073021501 -0.71064848
-0.23143908 -0.069907308 -0.71263975
-0.2042993 -0.073018074 -0.71064442
-0.17903012 -0.07070753 -0.71274513
-0.15230928 -0.073008031 -0.71063244
-0.12516415 -0.071541399 -0.7128287
-0.10898255 -0.073014706 -0.71064043
-0.077859536 -0.069565684 -0.71178615
-0.056990847 -0.073021531 -0.71064854
-0.030995175 -0.073028266 -0.71065646
-0.0066788197 -0.068422079 -0.7124452
0.020995557 -0.073021472 -0.71064842
0.050199509 -0.069024354 -0.71252507
0.072986752 -0.073018134 -0.71064448
0.098982185 -0.073021531 -0.71064854
0.12260348 -0.070782602 -0.71195883
0.1509726 -0.073028207 -0.71065634
0.17664015 -0.070317805 -0.71271616
0.19429943 -0.073018193 -0.71064466
0.22029546 -0.073014706 -0.71064043
0.24923515 -0.071668565 -0.71208727
0.27228791 -0.07300812 -0.7106325
0.29828244 -0.073014706 -0.71064043
0.32640433 -0.071721941 -0.71292096
0.35027361 -0.073014706 -0.71064043
0.37626761 -0.073021472 -0.71064842
0.40333825 -0.072660595 -0.71222681
0.42825848 -0.073021531 -0.71064854
0.44558889 -0.073021531 -0.71064854
0.4764117 -0.073187381 -0.71229666
0.49757993 -0.073021472 -0.71064842
0.5235731 -0.073028326 -0.71065658
0.54957336 -0.073014706 -0.71064043
0.56862617 -0.074103266 -0.71327013
-0.5528152 -0.053488582 -0.70897365
-0.52772498 -0.050533146 -0.71068037
-0.51033193 -0.047491342 -0.71212614
-0.48417443 -0.050526261 -0.71067202
-0.46462381 -0.047953784 -0.71219105
-0.42929667 -0.046716779 -0.71147561
-0.40577894 -0.050526261 -0.71067214
-0.37931851 -0.046914637 -0.7115224
-0.35351533 -0.050526261 -0.71067196
-0.32877213 -0.047119975 -0.71156496
-0.3012515 -0.050526261 -0.71067214
-0.28325805 -0.045736253 -0.71207756
-0.25769854 -0.050526261 -0.71067214
-0.23178908 -0.046067476 -0.71215367
-0.20543532 -0.050522804 -0.71066815
-0.17934848 -0.046407908 -0.7122308
-0.15317225 -0.05051589 -0.71065998
-0.12581508 -0.046762854 -0.71229148
-0.10090804 -0.050519347 -0.71066415
-0.071190476 -0.047142297 -0.71237063
-0.057354391 -0.050526261 -0.71067196
-0.031222418 -0.050533086 -0.71068025
-0.006724298 -0.047529578 -0.71245694
0.021040976 -0.050526261 -0.71067214
0.050290346 -0.047929883 -0.71253693
0.073305011 -0.050519347 -0.71066415
0.099436522 -0.050526261 -0.71067214
0.12299725 -0.049080878 -0.71197474
0.15169951 -0.050533146 -0.71068037
0.1770488 -0.048796833 -0.71273214
0.19525379 -0.050522804 -0.71066809
0.22138605 -0.050519347 -0.71066415
0.25005323 -0.049667448 -0.71210301
0.27364993 -0.050519347 -0.71066415
0.29978198 -0.050519347 -0.71066415
0.32722235 -0.049728304 -0.71293283
0.35204595 -0.050519347 -0.71066409
0.37817603 -0.050526261 -0.71067214
0.40054309 -0.050234944 -0.71302766
0.42172921 -0.050526261 -0.71067214
0.44786102 -0.050526261 -0.71067214
0.47801739 -0.05068323 -0.71231234
0.50012481 -0.050526261 -0.71067196
0.52625418 -0.050533086 -0.71068025
0.55238849 -0.050526261 -0.71067214
0.57008171 -0.051315933 -0.71327776
-0.5320133 -0.016307116 -0.71070808
-0.507231 -0.015523881 -0.7114231
-0.47933486 -0.016307056 -0.71070808
-0.46096045 -0.01312539 -0.7116074
-0.42889178 -0.017777413 -0.7116555
-0.40909696 -0.016307116 -0.71070808
-0.3813923 -0.015667379 -0.71154648
-0.35641855 -0.016307116 -0.71070814
-0.33056942 -0.015718728 -0.71158898
-0.3037408 -0.016303509 -0.71070391
-0.28141978 -0.013364702 -0.71181726
-0.25666741 -0.020135969 -0.71070403
-0.23275687 -0.015587121 -0.71217167
-0.20716318 -0.016305327 -0.71070606
-0.18010889 -0.015669584 -0.71224862
-0.1544857 -0.016296357 -0.7106958
-0.12636808 -0.015755624 -0.7123093
-0.10180667 -0.016299963 -0.71069998
-0.071536079 -0.015855849 -0.71238863
-0.057907492 -0.016307116 -0.71070808
-0.03156808 -0.016314119 -0.71071613
-0.0067934096 -0.015952647 -0.712475
0.021110177 -0.016307056 -0.71070796
0.050428569 -0.016050041 -0.71255481
0.073788881 -0.016299903 -0.71069998
0.10012788 -0.016307116 -0.71070808
0.11777148 -0.016158998 -0.71263987
0.14402607 -0.016312361 -0.7107141
0.17767093 -0.016272157 -0.71275008
0.19670537 -0.016303509 -0.71070391
0.22304514 -0.016299903 -0.71069986
0.25129712 -0.016350746 -0.71212947
0.27572376 -0.016299993 -0.71069986
0.29887354 -0.020128816 -0.71069592
0.32509965 -0.014162391 -0.71250296
0.34596205 -0.016299903 -0.71069986
0.37230092 -0.016301721 -0.71070188
0.40206379 -0.01662904 -0.71304572
0.42497814 -0.016307116 -0.71070808
0.45131737 -0.016307116 -0.71070808
0.47901392 -0.01896736 -0.7126596
0.49856025 -0.012478113 -0.71071213
0.52155524 -0.016307056 -0.71070808
0.54789197 -0.016314179 -0.71071625
0.57229429 -0.016900152 -0.71329385
-0.50998855 0.015616894 -0.71144742
-0.48326087 0.018397719 -0.71074474
-0.46044573 0.015709311 -0.7114799
-0.42711514 0.014508337 -0.71191365
-0.40361232 0.018397778 -0.71074468
-0.3778621 0.014656723 -0.71198398
-0.35936305 0.018398017 -0.71074444
-0.33239275 0.016008854 -0.71161062
-0.30626544 0.01840505 -0.71073651
-0.28070575 0.016117781 -0.71165198
-0.25316495 0.018397868 -0.71074462
-0.22841406 0.016223282 -0.71170825
-0.20006585 0.018397868 -0.71074462
-0.18088007 0.015311688 -0.71226692
-0.15581742 0.018405199 -0.71073639
-0.126929 0.015494555 -0.71232748
-0.10271835 0.018408895 -0.71073228
-0.071886867 0.015677154 -0.71240288
-0.058468327 0.018397868 -0.71074462
-0.031918764 0.018394262 -0.71074855
-0.0068634748 0.015863508 -0.71249723
0.021180272 0.018397868 -0.71074462
0.050568849 0.016072661 -0.71257305
0.074279636 0.018405139 -0.71073651
0.10082921 0.018405199 -0.71073651
0.11819208 0.016279757 -0.71265811
0.14507812 0.018397778 -0.71074468
0.1783019 0.016495347 -0.71276832
0.19817764 0.018401474 -0.71074063
0.22472769 0.018405199 -0.71073651
0.25255913 0.017292082 -0.71215379
0.27782702 0.018405199 -0.71073651
0.29552692 0.01840505 -0.71073651
0.32422793 0.017449588 -0.71222484
0.34862626 0.018405199 -0.71073633
0.37517577 0.018405199 -0.71073633
0.40360618 0.017219722 -0.71306413
0.41942328 0.018397719 -0.71074474
0.44597292 0.018397868 -0.71074462
0.47929436 0.017483115 -0.71316886
0.4990719 0.018397868 -0.71074462
0.52562153 0.018398017 -0.71074444
0.55216986 0.018394172 -0.71074861
0.57035625 0.017119348 -0.71587557
-0.52150464 0.041864902 -0.71076918
-0.50813323 0.036666393 -0.71215838
-0.48591566 0.041864902 -0.71076918
-0.46356913 0.038312793 -0.71185988
-0.42688969 0.037606448 -0.71231157
-0.40584034 0.041864902 -0.71076918
-0.37882376 0.038101047 -0.71240526
-0.35245684 0.041864902 -0.71076918
-0.32962191 0.038616836 -0.71248758
-0.30797216 0.041872263 -0.71076107
-0.28174868 0.037594676 -0.71166831
-0.25458834 0.041872263 -0.71076107
-0.22926736 0.037810564 -0.71172458
-0.20120363 0.041864902 -0.71076918
-0.18140158 0.036130995 -0.71227914
-0.15671813 0.041872263 -0.71076101
-0.12730823 0.036493182 -0.71233976
-0.10333477 0.041876078 -0.71075684
-0.072123975 0.036861986 -0.71241504
-0.058847487 0.041864902 -0.71076918
-0.032155693 0.041861147 -0.71077317
-0.0069108903 0.037241757 -0.71250963
0.021227717 0.041864902 -0.71076918
0.05066368 0.037652969 -0.71258533
0.074611485 0.041872263 -0.71076101
0.10130343 0.041872263 -0.71076095
0.11847654 0.038070679 -0.71267039
0.14578924 0.041864842 -0.7107693
0.17872855 0.038505584 -0.71278071
0.19917312 0.041868567 -0.71076506
0.22586554 0.041872263 -0.71076107
0.24939078 0.038971484 -0.71287894
0.27035248 0.041876078 -0.71075684
0.29704386 0.041872263 -0.71076095
0.32533407 0.040258318 -0.71224123
0.35042751 0.041872412 -0.71076077
0.37711942 0.041872263 -0.71076095
0.40464914 0.039950877 -0.71307629
0.42160392 0.041864902 -0.71076918
0.44829577 0.041864842 -0.7107693
0.48052686 0.040477693 -0.71318114
0.5016793 0.041864902 -0.71076918
0.52837092 0.041864902 -0.71076918
0.54616302 0.041857392 -0.71077746
0.5671581 0.0410285 -0.71332234
-0.55315071 0.0550991 -0.71470785
-0.53009307 0.058604509 -0.70993763
-0.50841701 0.061831951 -0.71182358
-0.47965378 0.065584481 -0.71079409
-0.46036631 0.06238687 -0.71187234
-0.4294982 0.062960029 -0.71193844
-0.40809244 0.065584481 -0.71079415
-0.37995923 0.063553572 -0.71200871
-0.35442227 0.065588295 -0.71078998
-0.32956851 0.064173371 -0.71206838
-0.30969706 0.065592289 -0.71078587
-0.28277352 0.060438156 -0.71213442
-0.25602591 0.06559214 -0.71078587
-0.23060027 0.061013937 -0.71221471
-0.20235357 0.065584481 -0.71079409
-0.18108344 0.060295433 -0.71279353
-0.15762857 0.06559214 -0.71078587
-0.12665755 0.0611341 -0.71287709
-0.10395753 0.065596044 -0.71078175
-0.070777416 0.06200096 -0.71297485
-0.050285667 0.065584481 -0.71079409
-0.023449987 0.065576971 -0.71080238
-0.0069587529 0.058746427 -0.71252215
0.02127564 0.065584481 -0.71079409
0.050759405 0.059355855 -0.7126019
0.074946791 0.065592289 -0.71078587
0.10178253 0.06559214 -0.71078587
0.11876404 0.059987903 -0.71268302
0.14650801 0.065584481 -0.71079409
0.17916015 0.060645908 -0.71278912
0.20017943 0.065588385 -0.71078998
0.22701541 0.065592289 -0.71078587
0.25001359 0.061337531 -0.71289128
0.27174157 0.06559214 -0.71078587
0.29857713 0.06559214 -0.71078587
0.32645214 0.063235581 -0.71225768
0.35224843 0.065592289 -0.71078587
0.37013894 0.065592289 -0.71078569
0.39981264 0.063738793 -0.7123183
0.42380804 0.065584481 -0.71079427
0.45064461 0.065588295 -0.71078998
0.4817726 0.063598514 -0.7131936
0.49536949 0.065584481 -0.71079409
0.522205 0.065584481 -0.71079415
0.54904056 0.065584481 -0.71079427
0.56864351 0.064424664 -0.71333498
-0.53658557 0.083905295 -0.70931071
-0.50999606 0.084581584 -0.71217519
-0.48231778 0.089561224 -0.7108193
-0.46372193 0.085598916 -0.7122401
-0.42621231 0.087377593 -0.71195102
-0.40137523 0.089561224 -0.7108193
-0.38023698 0.087737873 -0.71242201
-0.35640901 0.089568958 -0.71081096
-0.33048886 0.084750324 -0.7120809
-0.30244711 0.089568883 -0.71081108
-0.27907589 0.085548863 -0.71214706
-0.25747901 0.089569032 -0.7108109
-0.23100217 0.087438375 -0.71175522
-0.20351595 0.089561224 -0.7108193
-0.17748842 0.088014171 -0.71180636
-0.14955515 0.089569032 -0.7108109
-0.12807868 0.088132575 -0.71236891
-0.10458715 0.089572847 -0.71080679
-0.072605655 0.089064017 -0.71244007
-0.050624698 0.089561224 -0.7108193
-0.023643911 0.089561224 -0.7108193
-0.0074574053 0.083751425 -0.71310395
0.021324128 0.089561224 -0.7108193
0.051706731 0.084965438 -0.71321291
0.075285971 0.089568883 -0.71081108
0.10226694 0.089568883 -0.71081108
0.11865515 0.086232066 -0.71331817
0.14723444 0.089561224 -0.7108193
0.17959604 0.082911089 -0.71280164
0.20119649 0.089565128 -0.71081513
0.22817782 0.089568883 -0.71081108
0.25064337 0.083831906 -0.71290386
0.27314699 0.089572847 -0.71080679
0.30012703 0.089568883 -0.71081108
0.32758218 0.086384028 -0.71227449
0.3540889 0.089568883 -0.71081108
0.37207627 0.089569032 -0.7108109
0.40120107 0.087055013 -0.71233511
0.42603815 0.089569032 -0.71081078
0.45301908 0.089569032 -0.71081084
0.48303312 0.086851612 -0.713202
0.49798489 0.089561224 -0.7108193
0.52496582 0.089561224 -0.7108193
0.55194646 0.089561224 -0.7108193
0.57020903 0.087947488 -0.71333468
-0.53869772 0.11219037 -0.71083939
-0.51124281 0.10995539 -0.71184474
-0.48501056 0.11379883 -0.71084487
-0.46289867 0.11092249 -0.71189767
-0.42852634 0.11254999 -0.71159083
-0.40362751 0.11379875 -0.71084499
-0.38210189 0.11296423 -0.71203417
-0.3584165 0.11380677 -0.71083635
-0.33146259 0.10840032 -0.71251273
-0.30416089 0.11380669 -0.71083641
-0.28080136 0.10978456 -0.71260089
-0.25894779 0.11380669 -0.71083641
-0.23191544 0.11186458 -0.71223795
-0.20469117 0.1137989 -0.71084481
-0.1781736 0.1102272 -0.71182621
-0.15043658 0.11380686 -0.71083629
-0.12847033 0.10951638 -0.71238166
-0.10522401 0.11381473 -0.71082795
-0.072850481 0.11063409 -0.71245283
-0.050967619 0.11380281 -0.71084064
-0.023839802 0.1137989 -0.71084481
-0.0070562065 0.11178805 -0.7125476
0.021373034 0.11379485 -0.71084917
0.050954223 0.11300328 -0.71262735
0.066586077 0.11380669 -0.71083641
0.093713909 0.11380677 -0.71083635
0.11934868 0.11427137 -0.712704
0.14796889 0.1137989 -0.71084476
0.18168342 0.10932715 -0.71347088
0.19318175 0.1137989 -0.71084481
0.22031048 0.11380669 -0.71083647
0.25256032 0.1110108 -0.71361005
0.27456677 0.11381075 -0.71083212
0.3016938 0.11380669 -0.71083641
0.32415497 0.10765646 -0.71301895
0.3469069 0.11380677 -0.71083635
0.37403464 0.11380669 -0.71083641
0.40260464 0.11054522 -0.7123521
0.42829031 0.11380686 -0.71083629
0.44637573 0.11380669 -0.71083641
0.47769111 0.11142327 -0.71242183
0.50062895 0.11379875 -0.71084499
0.52775663 0.11379883 -0.71084487
0.55488449 0.1137989 -0.71084481
0.57176405 0.11160454 -0.71333778
-0.53887391 0.1372561 -0.71040446
-0.5081377 0.13421071 -0.71186227
-0.47864097 0.13830185 -0.7108705
-0.46542853 0.13441712 -0.71225727
-0.42862463 0.13660626 -0.71197659
-0.40590456 0.13830185 -0.7108705
-0.3786453 0.13786957 -0.71204489
-0.35135385 0.13830996 -0.7108621
-0.33235961 0.13488621 -0.71210665
-0.30589333 0.13830996 -0.7108621
-0.28065127 0.13616405 -0.71217257
-0.26043278 0.13830996 -0.71086222
-0.23277442 0.13775989 -0.71178925
-0.205879 0.13830185 -0.7108705
-0.1789982 0.1343196 -0.71233189
-0.15132755 0.13830996 -0.7108621
-0.12744078 0.13478394 -0.71290529
-0.10586715 0.13831401 -0.71085787
-0.071267068 0.13664681 -0.7130003
-0.051314071 0.1383059 -0.71086633
-0.024037853 0.13830185 -0.7108705
-0.0071057081 0.13368432 -0.71256047
0.021422476 0.1382978 -0.71087468
0.051053166 0.13510153 -0.71264023
0.066883028 0.13830996 -0.7108621
0.094159454 0.13830996 -0.71086222
0.11964568 0.13658045 -0.71271694
0.14871141 0.13830177 -0.71087062
0.18048221 0.13811174 -0.71282727
0.19417173 0.13830185 -0.71087062
0.22144839 0.1383059 -0.71086627
0.25192332 0.13972044 -0.71292955
0.27600163 0.13830996 -0.7108621
0.30327785 0.13830996 -0.7108621
0.32617456 0.13526607 -0.71375501
0.34873837 0.13830996 -0.7108621
0.37601465 0.1383101 -0.71086192
0.39984381 0.13216367 -0.71312279
0.42147529 0.13830988 -0.71086222
0.44875169 0.13830996 -0.7108621
0.47937405 0.13526602 -0.71243912
0.50330186 0.13830185 -0.7108705
0.52148598 0.13830185 -0.7108705
0.54876232 0.13830185 -0.7108705
0.57322663 0.13539779 -0.7133615
-0.55083895 0.15825395 -0.7125833
-0.53619599 0.16307458 -0.71089673
-0.50955987 0.16260558 -0.71187365
-0.48134577 0.16308284 -0.71088803
-0.45858425 0.16102296 -0.71157551
-0.42528069 0.16142593 -0.71198541
-0.40820646 0.16307458 -0.71089661
-0.38007453 0.16296473 -0.71166933
-0.35335553 0.16308284 -0.71088821
-0.33272344 0.15917969 -0.71252996
-0.30764487 0.16308284 -0.71088821
-0.28186318 0.16120283 -0.71261805
-0.25279197 0.16308284 -0.71088803
-0.2286879 0.15878505 -0.71226591
-0.20708026 0.16307458 -0.71089661
-0.1795672 0.16124941 -0.71186072
-0.15222827 0.16308284 -0.71088803
-0.1292668 0.16194938 -0.71240747
-0.1065177 0.16308697 -0.71088386
-0.073348209 0.1636259 -0.71247864
-0.051664531 0.16307871 -0.71089232
-0.02423802 0.16307473 -0.71089643
-0.0075564384 0.15969512 -0.71312964
0.021472633 0.16307046 -0.71090078
0.051904708 0.16198598 -0.71323872
0.067183346 0.16308284 -0.71088821
0.094609827 0.16308284 -0.71088821
0.119946 0.15902434 -0.71272999
0.14946237 0.16307871 -0.71089238
0.18093264 0.16077492 -0.71284026
0.19517261 0.16307458 -0.71089661
0.22259939 0.16307871 -0.71089238
0.25257391 0.1626129 -0.7129426
0.26831079 0.16308299 -0.71088803
0.29573715 0.16308284 -0.71088821
0.32584715 0.16453241 -0.71304476
0.35059011 0.16308291 -0.71088803
0.37801635 0.16308284 -0.71088803
0.40242606 0.1603677 -0.71388501
0.42372721 0.16308284 -0.71088809
0.45115387 0.16308284 -0.71088821
0.47775215 0.15739147 -0.71324056
0.49686325 0.16307878 -0.71089232
0.52428854 0.16307458 -0.71089661
0.55171472 0.16307458 -0.71089661
0.57477516 0.15931256 -0.71338296
-0.54880345 0.18317899 -0.71170127
-0.53003776 0.18811733 -0.71092719
-0.50640285 0.18713328 -0.71188807
-0.48407802 0.18812999 -0.71091443
-0.46220708 0.18473086 -0.71193248
-0.42568624 0.18579493 -0.71235996
-0.41053599 0.18812999 -0.71091461
-0.38080961 0.18808514 -0.71206886
-0.35537946 0.18812999 -0.71091443
-0.32905063 0.18641788 -0.71172661
-0.30022305 0.18812999 -0.71091431
-0.28226161 0.18731876 -0.71219873
-0.25425923 0.18812999 -0.71091443
-0.23023465 0.18353467 -0.71272838
-0.20829448 0.18812159 -0.71092284
-0.18005472 0.18648477 -0.7123602
-0.15313902 0.18812999 -0.71091431
-0.12967151 0.18373784 -0.71242058
-0.1071756 0.18813419 -0.71091014
-0.073601186 0.18560073 -0.71249187
-0.052018642 0.18812579 -0.71091866
-0.024440423 0.18812159 -0.71092284
-0.0072063804 0.18752867 -0.71258658
0.021523118 0.18811733 -0.71092725
0.051254451 0.18955171 -0.71266633
0.067486942 0.18812999 -0.71091443
0.095065176 0.18812999 -0.71091461
0.11945164 0.18613547 -0.71335268
0.15022126 0.18812579 -0.71091872
0.18138802 0.1835752 -0.71285343
0.19618458 0.18812144 -0.71092302
0.22376314 0.18812579 -0.71091872
0.2532317 0.18564251 -0.71295565
0.26972741 0.18812999 -0.71091443
0.29730564 0.18812999 -0.71091431
0.3267073 0.18780196 -0.71305782
0.34326935 0.18812999 -0.71091431
0.3708477 0.18812999 -0.71091443
0.40195727 0.1900664 -0.71314907
0.42600411 0.18812999 -0.71091449
0.45358235 0.18812999 -0.71091443
0.47901714 0.18117604 -0.71325362
0.49954611 0.18812999 -0.71091461
0.52712196 0.18812159 -0.71092302
0.54550713 0.18812159 -0.71092302
0.57219332 0.18495549 -0.7125718
-0.55086458 0.2065897 -0.71255642
-0.53305483 0.21343869 -0.71095812
-0.50867724 0.21125343 -0.71222097
-0.48684072 0.21345595 -0.71094114
-0.46204406 0.21089068 -0.71161097
-0.42772293 0.21147084 -0.71201187
-0.40364549 0.21345595 -0.71094108
-0.37728754 0.21339987 -0.71208215
-0.35742593 0.21345595 -0.71094114
-0.33062187 0.21110755 -0.71214598
-0.30196252 0.21345595 -0.71094102
-0.28294861 0.21298675 -0.7126357
-0.25574294 0.21345595 -0.71094102
-0.23001133 0.21071722 -0.71228826
-0.20952222 0.21344724 -0.71094954
-0.1809915 0.21299994 -0.7118988
-0.15405992 0.21345595 -0.71094114
-0.12545881 0.21029824 -0.71243399
-0.098596424 0.21345595 -0.71094114
-0.071773201 0.21210499 -0.71302366
-0.052376866 0.21345595 -0.71094108
-0.024645075 0.21344724 -0.71094954
-0.007257551 0.20984058 -0.71259576
0.021574318 0.21344304 -0.71095377
0.051356792 0.21206138 -0.71267968
0.067793727 0.21344724 -0.71094954
0.095525622 0.21345595 -0.71094114
0.12055653 0.21438326 -0.7127564
0.14174512 0.21345595 -0.71094102
0.17722666 0.21165539 -0.71286464
0.19720772 0.21344724 -0.71094954
0.22493991 0.21345159 -0.71094537
0.25389683 0.20881151 -0.71296901
0.27115989 0.21345595 -0.71094114
0.29889166 0.21345595 -0.71094114
0.32757711 0.21121091 -0.71307135
0.34511125 0.21345595 -0.71094114
0.37284285 0.21345595 -0.71094114
0.40303171 0.21372694 -0.71316224
0.41906261 0.21345595 -0.71094114
0.44679421 0.21345595 -0.71094114
0.48221952 0.20982195 -0.71404248
0.5022577 0.213456 -0.7109409
0.52998674 0.21344724 -0.71094954
0.54847461 0.21344724 -0.71094954
0.5742749 0.20953321 -0.71258676
-0.55299622 0.2367499 -0.71225822
-0.52681428 0.23905647 -0.71097642
-0.5092839 0.23661311 -0.71191478
-0.48033744 0.23906089 -0.71097213
-0.46276018 0.23314753 -0.71228969
-0.42733249 0.23591785 -0.71237773
-0.40597355 0.23906532 -0.71096778
-0.37837395 0.23463906 -0.7120955
-0.35949528 0.23906532 -0.71096772
-0.33158875 0.23755175 -0.71176213
-0.3037214 0.23906532 -0.71096772
-0.28390789 0.23903108 -0.71222538
-0.25724322 0.23906532 -0.71096778
-0.2311264 0.23616843 -0.71274608
-0.21076503 0.23906532 -0.71096784
-0.18171579 0.23612994 -0.71191674
-0.15499118 0.23906532 -0.71096784
-0.12626599 0.23768869 -0.71195412
-0.099217296 0.23906532 -0.71096784
-0.074115843 0.23942652 -0.71251422
-0.052739039 0.23906532 -0.71096772
-0.024851993 0.23905647 -0.71097642
-0.0076587796 0.23646452 -0.71315348
0.021625996 0.23904777 -0.71098512
0.051460177 0.23471275 -0.71269304
0.068103939 0.23905647 -0.71097642
0.095991194 0.23906532 -0.71096778
0.12086689 0.2372454 -0.71276975
0.14246947 0.23906532 -0.71096772
0.17522988 0.23960674 -0.71223986
0.19824243 0.23905647 -0.71097642
0.22612926 0.23905647 -0.71097642
0.25475335 0.23681186 -0.71365386
0.2726084 0.23906532 -0.71096784
0.30049545 0.23906532 -0.71096772
0.32845658 0.23476154 -0.71308452
0.34697372 0.23906532 -0.71096784
0.37486058 0.23906532 -0.71096772
0.40411806 0.2375292 -0.71317559
0.42133874 0.23906517 -0.71096802
0.44922572 0.23906532 -0.71096772
0.4815895 0.2404266 -0.71328032
0.49570394 0.23906532 -0.71096784
0.52358955 0.23906089 -0.71097207
0.55147499 0.23905647 -0.71097642
0.57023925 0.23191738 -0.71341866
0.58865744 0.23905662 -0.71097624
-0.57060498 0.24925631 -0.71448392
-0.55555093 0.25990641 -0.71098423
-0.52985126 0.26496309 -0.71099484
-0.51059824 0.2604447 -0.71222711
-0.48311144 0.264963 -0.71099502
-0.46363211 0.26349437 -0.71229869
-0.43022013 0.2620827 -0.71203893
-0.40832773 0.264963 -0.71099502
-0.37920225 0.25866526 -0.71248055
-0.361588 0.26496294 -0.71099514
-0.3325468 0.26262659 -0.71217293
-0.30550012 0.26496294 -0.71099514
-0.27779165 0.26454836 -0.71248174
-0.24941234 0.26496309 -0.71099484
-0.23136398 0.26321226 -0.71231508
-0.20267215 0.2649585 -0.71099937
-0.17852578 0.26216352 -0.71207088
-0.15647438 0.26650524 -0.71218634
-0.12678917 0.26113045 -0.71197236
-0.099845082 0.26496309 -0.71099484
-0.074377447 0.26182672 -0.71252769
-0.053105295 0.264963 -0.71099502
-0.030400649 0.26557437 -0.71127349
-0.0085437298 0.26503471 -0.71348059
0.021678299 0.26494509 -0.71101224
0.052179098 0.26159093 -0.71327442
0.068417907 0.26495409 -0.71100372
0.094378084 0.26545423 -0.71029383
0.1194638 0.26238966 -0.71268547
0.14253613 0.26607573 -0.713516
0.17582279 0.26372305 -0.71225798
0.19928885 0.26495409 -0.71100372
0.21798465 0.26495409 -0.71100372
0.24862719 0.26675814 -0.71144688
0.27409953 0.26791468 -0.71163106
0.2969681 0.26840246 -0.71338296
0.3233856 0.26062524 -0.71239716
0.34885716 0.26496294 -0.71099514
0.37690097 0.26496294 -0.71099514
0.40521675 0.26147556 -0.71318924
0.42364061 0.26496294 -0.71099514
0.45168453 0.264963 -0.71099502
0.48289734 0.26463637 -0.71329415
0.49842435 0.26496309 -0.71099484
0.52646697 0.2649585 -0.71099943
0.55450934 0.26495409 -0.71100354
0.57134318 0.2612434 -0.71424192
0.59190112 0.26495409 -0.71100372
-0.55151194 0.28425965 -0.71188515
-0.51197892 0.28404471 -0.711806
-0.49274138 0.28432268 -0.71456271
-0.42406851 0.27577472 -0.71308273
-0.40735173 0.27867424 -0.71101385
-0.38551161 0.27734712 -0.71479982
-0.29638863 0.2728599 -0.71067429
-0.28268558 0.27398971 -0.71348304
-0.24846174 0.27613634 -0.70991379
-0.22255363 0.27522647 -0.71225357
0.221118 0.27521792 -0.7122761
0.24704534 0.27612808 -0.70993572
0.32853079 0.27344161 -0.71520144
0.40548873 0.27998334 -0.71538341
0.4384799 0.27892995 -0.710814
0.47625476 0.28376091 -0.71488065
0.5704121 0.29399782 -0.71586102
0.59518135 0.29114458 -0.7110312
-0.55825329 -0.28901139 -0.69411463
-0.53286988 -0.28671715 -0.687931
-0.5035007 -0.28448716 -0.70203602
-0.48497286 -0.28304687 -0.70304447
-0.46567672 -0.28220567 -0.69461191
0.49753714 -0.28281412 -0.69197619
0.529953 -0.28443947 -0.7014178
0.55174685 -0.2861087 -0.70184189
0.57615709 -0.28752461 -0.68611187
0.59439236 -0.28893766 -0.68518001
-0.57022321 -0.2645615 -0.70514762
-0.55759168 -0.26664904 -0.69588655
-0.53162885 -0.26036605 -0.69871676
-0.51116318 -0.26099256 -0.70113981
-0.48311883 -0.26099268 -0.70113981
-0.45234528 -0.2767953 -0.7008971
-0.42941719 -0.27481464 -0.69677341
-0.40573233 -0.27219591 -0.69761372
-0.37693623 -0.27150747 -0.69587183
-0.35817334 -0.27196023 -0.69289345
-0.3314513 -0.26925883 -0.69633651
-0.30555645 -0.26818421 -0.69458002
-0.28144962 -0.26639435 -0.69577664
-0.25278822 -0.26903954 -0.69470996
-0.22601187 -0.26659665 -0.69368714
-0.20245269 -0.26560387 -0.69314188
-0.17729323 -0.26633319 -0.68959183
-0.15344423 -0.26503441 -0.69401193
-0.12708125 -0.2630699 -0.70110506
-0.10059756 -0.265295 -0.69638747
-0.077457666 -0.264559 -0.69364595
-0.051789135 -0.26357695 -0.69552374
-0.025242537 -0.26431385 -0.69368178
-0.0044682324 -0.26336774 -0.6998952
0.021950483 -0.2625936 -0.70149398
0.048161745 -0.26311961 -0.69693238
0.072889656 -0.26442745 -0.69365722
0.09836185 -0.26365617 -0.69552457
0.12504414 -0.26481655 -0.69362074
0.14698216 -0.26414421 -0.69993877
0.17316401 -0.26327154 -0.70150292
0.20007065 -0.26649716 -0.69368893
0.22094494 -0.26558861 -0.69101763
0.24797767 -0.26595977 -0.69309402
0.27355063 -0.26761147 -0.69152522
0.29959995 -0.26736078 -0.69532067
0.31980097 -0.26737687 -0.69518721
0.34646255 -0.2705659 -0.69352573
0.3727842 -0.26905772 -0.69504422
0.39928061 -0.27256188 -0.69693661
0.4218809 -0.2704176 -0.6964426
0.45144379 -0.2724885 -0.69775867
0.47531033 -0.27559629 -0.69668275
0.50002986 -0.27220562 -0.70178169
0.52647603 -0.26099256 -0.70113981
0.54720944 -0.26704481 -0.69990712
0.58135498 -0.2642183 -0.69670737
0.59262168 -0.26406625 -0.69115263
-0.55549395 -0.24162832 -0.69768268
-0.53011167 -0.2359257 -0.69873089
-0.50823331 -0.23518333 -0.70116788
-0.48034599 -0.23518333 -0.70116788
-0.45080066 -0.24442121 -0.69885957
-0.43386704 -0.23518333 -0.70116788
-0.40597978 -0.23518357 -0.70116764
-0.37357795 -0.24153313 -0.69894904
-0.35950077 -0.23518333 -0.70116788
-0.33161345 -0.23518333 -0.70116788
-0.30372608 -0.23518333 -0.70116788
-0.28876448 -0.23876229 -0.69907343
-0.25724581 -0.23517475 -0.70117652
-0.22431806 -0.23612449 -0.69917029
-0.21076728 -0.2351748 -0.7011764
-0.18288001 -0.23517475 -0.70117652
-0.15121302 -0.23992965 -0.69862777
-0.12710629 -0.23518333 -0.70116788
-0.099219024 -0.23518351 -0.7011677
-0.081451729 -0.24124601 -0.69936419
-0.052740023 -0.23518345 -0.70116782
-0.021524295 -0.23871604 -0.69944865
-0.0062609911 -0.2351661 -0.70118499
0.021626145 -0.23516592 -0.70118523
0.046424389 -0.23628989 -0.69953835
0.068104744 -0.23517463 -0.70117658
0.0992302 -0.23869583 -0.69962364
0.12388036 -0.23519203 -0.7011593
0.15082943 -0.24100271 -0.6997
0.17035872 -0.23518333 -0.70116788
0.19824609 -0.23518333 -0.70116788
0.22198683 -0.23750797 -0.70024145
0.2540195 -0.2351748 -0.7011764
0.26829702 -0.24280253 -0.69939548
0.30049819 -0.23517463 -0.70117658
0.32055217 -0.23982194 -0.69948131
0.346977 -0.23517463 -0.70117658
0.3716855 -0.2389237 -0.70037496
0.40275133 -0.23517463 -0.70117658
0.41680884 -0.23864236 -0.70004147
0.4534083 -0.24070647 -0.70010746
0.47711945 -0.23518333 -0.70116788
0.4994548 -0.2397764 -0.6998387
0.52359855 -0.23518333 -0.70116788
0.54751992 -0.24062178 -0.70022935
0.5778774 -0.24259308 -0.69601351
0.58904225 -0.2388148 -0.69289309
-0.553581 -0.21911469 -0.69680727
-0.53314745 -0.21097109 -0.69956988
-0.50533867 -0.20966998 -0.70118707
-0.486848 -0.20966145 -0.70119566
-0.45412928 -0.2147713 -0.6988734
-0.43138385 -0.20966145 -0.70119566
-0.40365165 -0.20966151 -0.70119566
-0.37249151 -0.21777543 -0.69896281
-0.35743126 -0.20966145 -0.70119566
-0.32969922 -0.20966157 -0.70119548
-0.30196708 -0.20966145 -0.70119566
-0.28793672 -0.21525607 -0.6990872
-0.25574559 -0.20965305 -0.70120406
-0.2236456 -0.21285817 -0.699184
-0.20952567 -0.20965305 -0.70120406
-0.18179359 -0.20965305 -0.70120406
-0.15169258 -0.21056804 -0.69927675
-0.12633027 -0.20966151 -0.70119554
-0.098598063 -0.20966145 -0.70119566
-0.081553891 -0.21464452 -0.69877505
-0.05237788 -0.20966151 -0.70119554
-0.021420807 -0.21610919 -0.69946247
-0.0061573982 -0.20964447 -0.70121276
0.021574378 -0.20964441 -0.70121282
0.046320945 -0.21388498 -0.69955212
0.067794383 -0.20965305 -0.70120406
0.097840518 -0.21106026 -0.70015681
0.12325954 -0.20966998 -0.70118707
0.15337408 -0.21590683 -0.69921994
0.16947919 -0.20966145 -0.70119566
0.19721141 -0.20966145 -0.70119566
0.22119355 -0.21443656 -0.7002598
0.25267446 -0.20965305 -0.70120406
0.26865119 -0.21476462 -0.69985437
0.29889452 -0.20965305 -0.70120406
0.32163173 -0.2127817 -0.69991463
0.34511608 -0.20966157 -0.70119548
0.3690874 -0.21515509 -0.69998825
0.4005785 -0.20965305 -0.70120406
0.41453868 -0.21442273 -0.69967228
0.45039481 -0.21356389 -0.70048076
0.47453284 -0.20966145 -0.70119566
0.50195223 -0.21232328 -0.70052165
0.52999723 -0.20966145 -0.70119566
0.5451932 -0.21792373 -0.69992065
0.58099371 -0.21754411 -0.69650602
-0.55113441 -0.20057955 -0.69202316
-0.53112352 -0.18645665 -0.69958854
-0.50247115 -0.18442211 -0.70122296
-0.48408774 -0.18443051 -0.70121437
-0.45405203 -0.18498245 -0.69966561
-0.42892808 -0.18442211 -0.70122296
-0.41054225 -0.18442211 -0.70122296
-0.37601355 -0.18866059 -0.69897646
-0.35538498 -0.18442211 -0.70122296
-0.32780629 -0.18442211 -0.70122296
-0.30022764 -0.18442211 -0.70122296
-0.28711811 -0.19189122 -0.69910085
-0.25426254 -0.18441787 -0.70122725
-0.22298044 -0.18973306 -0.69919765
-0.20829771 -0.1844137 -0.70123148
-0.18071961 -0.18441793 -0.70122713
-0.15123217 -0.18767229 -0.69929039
-0.1347557 -0.18442222 -0.70122266
-0.10717726 -0.18442628 -0.70121866
-0.080937147 -0.18569693 -0.69939178
-0.052019656 -0.18442217 -0.7012229
-0.020277694 -0.19015613 -0.69889104
-0.006055057 -0.18440542 -0.70124018
0.021523237 -0.18440542 -0.70124018
0.046218634 -0.19162127 -0.69956577
0.067487478 -0.18441382 -0.70123136
0.097533494 -0.18793389 -0.70017505
0.12264541 -0.18443051 -0.70121437
0.1532118 -0.1866965 -0.70022315
0.17780238 -0.18442211 -0.70122296
0.19618809 -0.18442211 -0.70122296
0.21873072 -0.19058064 -0.69980127
0.25134426 -0.18441382 -0.70123136
0.26733667 -0.19022843 -0.69941372
0.29730839 -0.1844137 -0.70123148
0.3207621 -0.19141427 -0.69992822
0.34327435 -0.18442222 -0.70122278
0.3690114 -0.18791232 -0.70040601
0.39842987 -0.1844137 -0.70123148
0.42143035 -0.18677744 -0.70045644
0.45625323 -0.19248793 -0.69976938
0.47197473 -0.18442222 -0.70122278
0.50044006 -0.18882146 -0.70019841
0.52713203 -0.18442211 -0.70122296
0.54419953 -0.1881623 -0.6999343
0.57511866 -0.19186702 -0.69625491
-0.55450547 -0.17069575 -0.69257367
-0.53700876 -0.16097012 -0.69754481
-0.50877976 -0.15946051 -0.70125002
-0.48135531 -0.15946871 -0.70124155
-0.4523316 -0.16083512 -0.69968373
-0.42649925 -0.1594606 -0.70124996
-0.40821463 -0.1594606 -0.70124996
-0.37687972 -0.15960991 -0.69974333
-0.35336089 -0.1594606 -0.70125008
-0.33507633 -0.1594606 -0.70125008
-0.30764878 -0.15945646 -0.70125425
-0.28833765 -0.16457263 -0.69839978
-0.25279453 -0.15945241 -0.70125842
-0.22232266 -0.16674682 -0.69921124
-0.2070834 -0.1594525 -0.70125836
-0.17965658 -0.1594525 -0.70125836
-0.15077674 -0.16491547 -0.69930387
-0.13394606 -0.1594606 -0.70125008
-0.10651954 -0.15946472 -0.70124573
-0.080684215 -0.16315994 -0.69940537
-0.051665545 -0.1594606 -0.70125002
-0.021217301 -0.16147089 -0.69948965
-0.0059537888 -0.15944424 -0.70126706
0.021472633 -0.15944415 -0.70126712
0.045190215 -0.16641772 -0.69901675
0.067183793 -0.15945235 -0.70125848
0.098539501 -0.16303363 -0.69966471
0.12203833 -0.15946871 -0.70124155
0.15270582 -0.16387931 -0.70024121
0.1768916 -0.1594606 -0.70124996
0.19517606 -0.1594606 -0.70124978
0.21963316 -0.16279867 -0.70029604
0.25002867 -0.1594525 -0.70125836
0.26722658 -0.16292399 -0.69988155
0.29573995 -0.1594525 -0.70125836
0.31881309 -0.16792867 -0.69950575
0.35059494 -0.15946051 -0.70125008
0.36955953 -0.16590571 -0.69959825
0.39630646 -0.1594606 -0.70124996
0.41800356 -0.16282955 -0.70008028
0.45437276 -0.16556236 -0.7001462
0.46944469 -0.1594606 -0.70124996
0.49835664 -0.16257188 -0.70055801
0.52429825 -0.1594606 -0.70125008
0.54899329 -0.16164926 -0.70059341
0.57682586 -0.16466609 -0.69808191
-0.55039328 -0.14208204 -0.69255716
-0.5370611 -0.13733757 -0.69687617
-0.5059284 -0.13477638 -0.70127255
-0.47865039 -0.13477233 -0.70127678
-0.45480436 -0.13791895 -0.69891405
-0.43319035 -0.13477638 -0.70127255
-0.40591449 -0.13478044 -0.70126826
-0.37544575 -0.13582256 -0.69975841
-0.35135919 -0.13477233 -0.70127678
-0.33317471 -0.13477233 -0.70127678
-0.30589721 -0.13476837 -0.70128101
-0.2855078 -0.13483062 -0.69912785
-0.26043534 -0.13476437 -0.70128518
-0.22621879 -0.13864857 -0.69922036
-0.20588231 -0.13476437 -0.70128518
-0.17860612 -0.13476837 -0.70128101
-0.15032628 -0.14229527 -0.6993174
-0.13314535 -0.13477233 -0.70127678
-0.10586891 -0.13477638 -0.70127243
-0.080434009 -0.14075971 -0.69941872
-0.051315278 -0.13477242 -0.70127672
-0.021117151 -0.13928086 -0.69950306
-0.0058539212 -0.1347563 -0.70129359
0.021422684 -0.13475636 -0.70129359
0.046017349 -0.13786414 -0.69959259
0.066883624 -0.13476437 -0.70128518
0.09692964 -0.13593361 -0.70021099
0.12143779 -0.13478044 -0.70126826
0.1539509 -0.13984624 -0.69975233
0.17599067 -0.13477248 -0.70127666
0.19417518 -0.13477233 -0.70127678
0.21757358 -0.13850161 -0.69982612
0.24872762 -0.13476437 -0.70128518
0.27107209 -0.13720974 -0.69989502
0.30328071 -0.13476437 -0.70128518
0.31905109 -0.14034572 -0.69995522
0.34874332 -0.13477233 -0.70127678
0.37067419 -0.13906807 -0.7000246
0.3942045 -0.13477248 -0.70127666
0.41841245 -0.13681492 -0.70048666
0.45464295 -0.14279583 -0.69978738
0.47603464 -0.13477233 -0.70127678
0.50198823 -0.14116967 -0.69987494
0.52149588 -0.13477233 -0.70127678
0.54615647 -0.13839155 -0.70028347
0.57742304 -0.13837433 -0.69825995
-0.55443192 -0.11299163 -0.69385129
-0.53660434 -0.1125347 -0.69606781
-0.51215088 -0.11036077 -0.70129484
-0.48502141 -0.11035687 -0.70129895
-0.45351732 -0.11444992 -0.69892728
-0.43076593 -0.11036077 -0.70129472
-0.40363741 -0.11036077 -0.70129484
-0.37730771 -0.11314109 -0.69901252
-0.35842276 -0.11035687 -0.70129895
-0.33129364 -0.11035296 -0.70130324
-0.30416471 -0.11034897 -0.70130742
-0.28471583 -0.11187565 -0.69914109
-0.25895056 -0.11034516 -0.70131147
-0.22764151 -0.11057147 -0.69992346
-0.20469531 -0.11035296 -0.70130306
-0.17756703 -0.11035296 -0.70130324
-0.1496948 -0.11611101 -0.69867289
-0.13235341 -0.11035296 -0.70130324
-0.10522547 -0.11035687 -0.70129895
-0.080882818 -0.11450067 -0.69881105
-0.050968781 -0.11035296 -0.70130324
-0.021018192 -0.11722517 -0.69951624
-0.0057548285 -0.1103372 -0.70131987
0.021373093 -0.1103372 -0.70131987
0.045918345 -0.1160104 -0.6996057
0.066586614 -0.11034501 -0.70131177
0.096632689 -0.11335388 -0.70022851
0.12084368 -0.11036077 -0.70129484
0.15171042 -0.11261243 -0.70027667
0.1750997 -0.11035296 -0.70130324
0.19318512 -0.11035296 -0.70130324
0.21810719 -0.11189216 -0.70032877
0.24744046 -0.11034501 -0.70131159
0.27175915 -0.11120164 -0.70037609
0.30169666 -0.11034501 -0.70131177
0.31768489 -0.116568 -0.69952345
0.34691173 -0.11035296 -0.70130306
0.36823213 -0.11518389 -0.69961601
0.40116817 -0.11035296 -0.70130324
0.41761541 -0.11384937 -0.6997053
0.45198363 -0.11615193 -0.70017296
0.47351015 -0.11035302 -0.70130306
0.50098252 -0.11514753 -0.70023865
0.52776664 -0.11035287 -0.7013033
0.55364841 -0.11185512 -0.69509882
0.57646734 -0.11286181 -0.69728374
-0.55187845 -0.092473447 -0.6950677
-0.53617615 -0.092769325 -0.69536966
-0.50931108 -0.086205602 -0.70132107
-0.48232833 -0.086201698 -0.7013253
-0.45224428 -0.091113061 -0.69894034
-0.42836654 -0.086205542 -0.70132113
-0.40138516 -0.086205453 -0.70132124
-0.37623054 -0.090066701 -0.69902569
-0.35641524 -0.086201698 -0.7013253
-0.32943296 -0.086197972 -0.70132935
-0.30245095 -0.086194068 -0.70133352
-0.28393242 -0.089052916 -0.69915414
-0.25748158 -0.086190164 -0.70133775
-0.22676012 -0.087464452 -0.69994086
-0.20352009 -0.086197972 -0.70132935
-0.17653878 -0.086197972 -0.70132935
-0.14944015 -0.087179929 -0.6993435
-0.13156989 -0.086197972 -0.70132935
-0.10458888 -0.086201787 -0.70132518
-0.079941601 -0.08630389 -0.69944525
-0.05062589 -0.086197883 -0.70132941
-0.020012215 -0.09177494 -0.69892651
-0.0056569278 -0.086182654 -0.70134598
0.021324128 -0.086182505 -0.7013461
0.044992149 -0.090561539 -0.69904304
0.075286806 -0.086194068 -0.70133358
0.10240129 -0.089402795 -0.69916266
0.12025619 -0.086205453 -0.70132124
0.15122104 -0.090335399 -0.70029151
0.17421836 -0.086197972 -0.70132935
0.20119968 -0.086197972 -0.70132935
0.22093791 -0.091498941 -0.69985449
0.24616742 -0.086190164 -0.70133787
0.27081251 -0.089156032 -0.70039344
0.30012995 -0.086190164 -0.70133775
0.32361972 -0.088606685 -0.70043361
0.35409385 -0.086197972 -0.70132935
0.36870486 -0.089016348 -0.70005095
0.39906275 -0.086197972 -0.70132935
0.41915947 -0.088246524 -0.70011789
0.4553054 -0.091646135 -0.70018601
0.48000675 -0.086197972 -0.70132935
0.50021583 -0.092409968 -0.69989252
0.52497804 -0.086205542 -0.70132113
0.54634404 -0.091394901 -0.69996578
0.57325172 -0.090695649 -0.6973753
-0.55097598 -0.070874035 -0.69612938
-0.53358662 -0.065812618 -0.69582653
-0.50650162 -0.062310636 -0.70134705
-0.47966433 -0.062306881 -0.70135117
-0.45098493 -0.06790632 -0.69895321
-0.43493855 -0.062310487 -0.70134705
-0.40810239 -0.062310636 -0.70134705
-0.37516493 -0.0671224 -0.69903862
-0.35442927 -0.062306821 -0.70135117
-0.32759237 -0.062302977 -0.70135528
-0.30970171 -0.062303126 -0.70135528
-0.28604144 -0.065005362 -0.69989932
-0.25602847 -0.062295645 -0.7013635
-0.2258883 -0.06453079 -0.69995815
-0.20235762 -0.062302977 -0.70135528
-0.18446688 -0.062302977 -0.70135528
-0.1548616 -0.064071983 -0.70002282
-0.13079499 -0.062303126 -0.70135528
-0.10395952 -0.062310636 -0.70134705
-0.079699501 -0.064300328 -0.69945812
-0.050286874 -0.062302977 -0.70135528
-0.020823404 -0.063662499 -0.69954222
-0.0055600703 -0.062295496 -0.70136368
0.021275729 -0.062288135 -0.70137191
0.045723587 -0.06305325 -0.69963175
0.074947596 -0.062299311 -0.70135939
0.10212585 -0.06247884 -0.69971734
0.11967498 -0.062310636 -0.70134705
0.15284932 -0.066556633 -0.69978958
0.17334643 -0.062303126 -0.70135528
0.2001825 -0.062302977 -0.70135528
0.21813628 -0.067132801 -0.6993686
0.24490815 -0.062295496 -0.70136368
0.268942 -0.065321565 -0.69993418
0.29857999 -0.062295645 -0.7013635
0.32102609 -0.064743906 -0.69999647
0.35225332 -0.062303126 -0.70135528
0.36693352 -0.064814687 -0.69963336
0.39697987 -0.062303126 -0.70135528
0.41612196 -0.064096093 -0.69972271
0.45411867 -0.063127548 -0.70019895
0.4774881 -0.062302977 -0.70135528
0.49835265 -0.066696495 -0.70026463
0.52221715 -0.062310636 -0.70134705
