ply
format ascii 1.0
comment PCL generated
element vertex 1359
property float x
property float y
property float z
element camera 0
property float view_px
property float view_py
property float view_pz
property float x_axisx
property float x_axisy
property float x_axisz
property float y_axisx
property float y_axisy
property float y_axisz
property float z_axisx
property float z_axisy
property float z_axisz
property float focal
property float scalex
property float scaley
property float centerx
property float centery
property int viewportx
property int viewporty
property float k1
property float k2
end_header
0.049350224 -0.20821583 -0.4428564
0.11955091 -0.20353489 -0.43553001
-0.30422825 -0.12860207 -0.43882814
-0.24532694 -0.13823409 -0.45295608
-0.17412072 -0.14279535 -0.46926436
-0.099016704 -0.14028715 -0.47651213
-0.021090247 -0.14131919 -0.47361457
0.054920454 -0.13890995 -0.46150565
0.11797494 -0.13529707 -0.44551811
0.17944276 -0.11499952 -0.43463686
-0.36419886 -0.039761133 -0.44259906
-0.31862018 -0.062219523 -0.44798869
-0.2452963 -0.063862905 -0.47511357
-0.17046282 -0.068852447 -0.48855323
-0.095936261 -0.075994171 -0.48998582
-0.017920025 -0.076448709 -0.48802686
0.055741411 -0.060901597 -0.48018304
0.12738475 -0.069506317 -0.45852372
0.18535674 -0.060212441 -0.44089904
-0.38316977 0.013026452 -0.44344687
-0.32061943 0.0094802212 -0.46842393
-0.25095913 0.0051115062 -0.48985034
-0.18404102 -0.00035044923 -0.49647433
-0.10462715 -0.019061491 -0.49806327
-0.01602184 -0.0092246383 -0.49838459
0.060328394 0.00094302557 -0.48982126
0.12500533 0.0032768119 -0.47604039
0.18749917 0.010261117 -0.45195395
0.24023771 0.020921102 -0.43404827
-0.44168136 0.091693826 -0.43870634
-0.38979018 0.083044179 -0.45318949
-0.32468137 0.082855999 -0.48526943
-0.26667958 0.067940414 -0.49150592
-0.16045362 0.082172439 -0.45923623
0.068351179 0.057123162 -0.49745536
0.1296145 0.077977151 -0.48352101
0.19791263 0.080490753 -0.46004829
0.24826083 0.097154595 -0.44487262
-0.45081988 0.1674576 -0.44080594
-0.39650267 0.15597308 -0.4678781
-0.33953467 0.15046313 -0.49184489
-0.23435384 0.15328425 -0.45425835
-0.17856976 0.1565492 -0.46294761
-0.10489193 0.15015487 -0.48767745
-0.021508493 0.15571396 -0.47938871
0.03268842 0.17529719 -0.47990069
0.14437644 0.15397219 -0.49589175
0.2002217 0.15287903 -0.4713673
0.25539702 0.15709281 -0.44581151
-0.5140903 0.26607642 -0.43064108
-0.45576838 0.23280492 -0.4518204
-0.39721859 0.22847629 -0.48365837
-0.34869072 0.21052246 -0.49519026
-0.2432217 0.2317448 -0.48584324
-0.18832576 0.23357832 -0.49423891
-0.090116821 0.21267088 -0.49501336
-0.020109825 0.21938555 -0.49243981
0.04090599 0.2456547 -0.49621803
0.13499966 0.22405848 -0.49403226
0.20722604 0.23153168 -0.48399243
0.26576766 0.22979692 -0.45163673
-0.51395226 0.32246593 -0.43296155
-0.46319011 0.30240253 -0.45956036
-0.40788904 0.29815122 -0.4890573
-0.17945457 0.31132194 -0.49599433
-0.086165629 0.28459203 -0.49979025
-0.019356027 0.29777268 -0.49229956
0.048219122 0.30567822 -0.49713153
0.12085515 0.29706103 -0.48214537
0.21792865 0.3006393 -0.48964047
0.27119952 0.30403572 -0.45992434
0.32239133 0.33504331 -0.43538857
-0.51493287 0.37710974 -0.43473387
-0.46607831 0.37563756 -0.46956226
-0.41396853 0.36553583 -0.48887581
-0.33134148 0.41213271 -0.47925019
-0.23726082 0.37791836 -0.49979764
0.057624549 0.36639604 -0.49516684
0.13841633 0.36829033 -0.47493917
0.22648427 0.37285274 -0.49314052
0.2759788 0.37906247 -0.46481085
0.3240124 0.38915119 -0.43779701
-0.51928306 0.45316872 -0.44244686
-0.46834663 0.45313013 -0.46974263
-0.40040967 0.45609686 -0.4636268
-0.3239533 0.45615128 -0.48854834
0.22978652 0.43629318 -0.49916619
0.27887166 0.45235407 -0.47168332
0.32595903 0.44671488 -0.43763489
-0.53087401 0.53110105 -0.4430033
-0.47313675 0.52443236 -0.4718672
-0.40573564 0.52182639 -0.47477558
-0.33389428 0.51396775 -0.48930186
0.096728489 0.51900464 -0.49482369
0.27996042 0.52721417 -0.47688344
0.3260361 0.52827978 -0.44549692
-0.53153634 0.60018975 -0.44472441
-0.47238627 0.60137534 -0.4752503
-0.40442276 0.59584969 -0.48195016
-0.33663762 0.59388679 -0.50121462
0.2792328 0.60230041 -0.47906932
0.32911256 0.59918779 -0.44812152
-0.53386718 0.66799152 -0.44861308
-0.47279933 0.66591102 -0.47274131
-0.40066838 0.66069257 -0.47832474
0.20534103 0.6702624 -0.50188494
0.27500254 0.66536498 -0.48181522
0.32991064 0.66464674 -0.44777495
-0.15377221 -0.62842417 -0.35585448
-0.09711992 -0.62974793 -0.36614302
-0.021478489 -0.63611978 -0.36464795
0.056255255 -0.62814933 -0.360156
0.089289196 -0.63197422 -0.35974747
-0.28879923 -0.56057185 -0.35697141
-0.23794669 -0.57429802 -0.3676824
-0.16944292 -0.58917868 -0.37664235
-0.095238157 -0.58358228 -0.37797409
-0.025774419 -0.5877704 -0.37464422
0.036830146 -0.59234095 -0.36216658
-0.23225746 -0.52461147 -0.36198765
-0.16751966 -0.51993209 -0.36641875
-0.094483845 -0.51669431 -0.3677237
-0.022496179 -0.51455259 -0.36283723
-0.23267984 -0.41582313 -0.36547896
-0.17065841 -0.4355399 -0.37269467
-0.095902957 -0.43494618 -0.38019246
-0.021326959 -0.43698111 -0.38062564
0.050348748 -0.43166566 -0.37245691
0.10200128 -0.41607499 -0.3646175
-0.29893208 -0.35527658 -0.36941636
-0.24739388 -0.3601774 -0.38278094
-0.17164719 -0.3660031 -0.39951941
-0.097126178 -0.35855076 -0.40850797
-0.021990389 -0.35996124 -0.40916604
0.05146962 -0.36129901 -0.39608252
0.12277646 -0.36046708 -0.37706348
0.1693188 -0.34113476 -0.36714029
-0.37364644 -0.26048478 -0.36653912
-0.31714004 -0.28704041 -0.38070017
-0.24464688 -0.29039001 -0.40511036
-0.1798082 -0.29424009 -0.41676772
-0.10451735 -0.29252106 -0.42264938
-0.013329804 -0.29325038 -0.4235996
0.060802631 -0.29117864 -0.41524345
0.12331828 -0.29023758 -0.39952475
0.18124837 -0.28406778 -0.37521371
-0.43142095 -0.18725638 -0.3633112
-0.38405618 -0.21090032 -0.37109992
-0.32222804 -0.21458049 -0.40073827
-0.25416967 -0.22329631 -0.41889033
-0.17225009 -0.24166262 -0.42486772
0.071751781 -0.22775042 -0.42229149
0.13460661 -0.21977217 -0.41155007
0.19981825 -0.21693788 -0.38615692
0.24979323 -0.20237964 -0.36139396
-0.44034573 -0.12760092 -0.36514708
-0.39114076 -0.13817661 -0.38804874
-0.32925546 -0.14709774 -0.41613579
0.14440095 -0.14648405 -0.42403784
0.20415589 -0.14590412 -0.40096083
0.2576465 -0.12969403 -0.3716597
-0.44983575 -0.057647537 -0.37251365
-0.3974106 -0.06817954 -0.40400609
-0.34427541 -0.080126829 -0.42164251
0.094590418 -0.039629992 -0.4171184
0.20909695 -0.071667962 -0.41674703
0.26325175 -0.061772004 -0.38716152
-0.51480222 0.013395028 -0.35540664
-0.46223459 0.01334838 -0.38317412
-0.41044575 0.0062846672 -0.41502148
-0.35118607 0.030767204 -0.37230578
0.11510897 -0.023698505 -0.41677788
0.22290149 -0.00022768602 -0.4216232
0.27448496 0.0072795432 -0.39525986
0.31546596 0.018574441 -0.3667224
-0.51647335 0.080539182 -0.36522156
-0.47149131 0.081853561 -0.39469686
-0.41143596 0.078868032 -0.40611017
-0.3172155 0.075856067 -0.40513754
-0.27802718 0.085236885 -0.41469371
0.2366623 0.055336192 -0.42497197
0.28241056 0.080270208 -0.40345383
0.32057947 0.081067666 -0.37082541
-0.52183425 0.15855095 -0.37486571
-0.47680804 0.15138808 -0.40599543
0.20506763 0.14410962 -0.41335237
0.28673878 0.15257438 -0.41164079
0.32976976 0.15150604 -0.38059494
-0.53012317 0.23675564 -0.38512284
-0.48875049 0.22879037 -0.41627616
-0.41443363 0.23523968 -0.40198794
0.2040022 0.22827676 -0.42289132
0.29719272 0.22896737 -0.41636357
0.33869565 0.23232293 -0.38654679
-0.59196383 0.34056646 -0.35749942
-0.53507078 0.30350673 -0.39363489
-0.48807845 0.32208347 -0.40881807
-0.41607401 0.27651811 -0.40359131
0.29579675 0.30544469 -0.42231542
0.34839922 0.30516517 -0.38953796
-0.58752483 0.38883489 -0.36444178
-0.54126871 0.38003519 -0.39387286
-0.4823629 0.38649908 -0.38586736
0.30118898 0.35758317 -0.42349511
0.35244757 0.37746167 -0.39230821
0.39090362 0.37669408 -0.36829841
-0.59036404 0.45876464 -0.37083468
-0.54700732 0.4512389 -0.39893219
-0.47634581 0.45097572 -0.40328845
0.35655418 0.45251986 -0.3966606
0.3938407 0.45405248 -0.37098229
-0.59608555 0.52835232 -0.37381676
-0.55397439 0.52850002 -0.40298703
-0.48671624 0.52560073 -0.40757999
0.35994002 0.52633959 -0.40207624
0.39455697 0.52717757 -0.37507281
-0.59544045 0.59883261 -0.37557721
-0.55059165 0.6009621 -0.40603483
-0.49328849 0.59431404 -0.4131352
0.36268482 0.59899122 -0.40676799
0.39750567 0.59375614 -0.37323636
-0.5978992 0.66693449 -0.38193887
-0.55637813 0.66124755 -0.40516117
-0.4813939 0.66669065 -0.41654515
0.36361963 0.660658 -0.41049761
0.39834565 0.65962887 -0.37482488
-0.15893626 -0.63529742 -0.31262541
-0.096910469 -0.64882457 -0.31410962
-0.021757513 -0.65580279 -0.32052287
0.053154729 -0.65611148 -0.32212564
0.12208191 -0.6529507 -0.3143582
0.18712918 -0.64685184 -0.29744953
0.24289629 -0.63711756 -0.28236014
-0.43704417 -0.55817938 -0.28388387
-0.38307619 -0.5682779 -0.30028775
-0.31593549 -0.58413208 -0.31856743
-0.24373391 -0.60300106 -0.32343704
-0.18624097 -0.61323535 -0.32359698
-0.12716606 -0.62021202 -0.35289934
0.012546256 -0.56666678 -0.35183737
0.063741207 -0.57563734 -0.3442812
0.12571056 -0.58342063 -0.3222712
0.18840706 -0.59339046 -0.2941252
0.24414086 -0.61364919 -0.28102943
-0.43749252 -0.52894193 -0.28712931
-0.38981959 -0.51574242 -0.30533788
-0.31890351 -0.51033127 -0.32850462
-0.24433097 -0.50539994 -0.34546682
-0.15909353 -0.49714154 -0.35087204
-0.098311163 -0.49431884 -0.35216135
-0.025682844 -0.5028882 -0.34894651
0.050015975 -0.50821221 -0.34090856
0.12294307 -0.51046604 -0.3138172
0.1740825 -0.50084841 -0.28894192
-0.37599942 -0.43244442 -0.29337454
-0.3163532 -0.4378643 -0.31991136
-0.24993366 -0.44307891 -0.34341976
-0.16705 -0.45923024 -0.34752578
-0.09977179 -0.45888293 -0.35362321
0.062910095 -0.4526425 -0.33519223
0.12601249 -0.43797615 -0.32321548
0.18754627 -0.43060395 -0.2965678
-0.43362442 -0.3400982 -0.29212797
-0.38769782 -0.36383876 -0.3126758
-0.32854056 -0.36752126 -0.34307274
-0.27705541 -0.38808712 -0.34868371
0.059680004 -0.34221151 -0.33554021
0.14183609 -0.37284657 -0.33624363
0.1953219 -0.36158428 -0.31541407
0.24743935 -0.35370877 -0.2875407
-0.45445952 -0.2806412 -0.29827222
-0.39659038 -0.29129276 -0.33264074
-0.34246141 -0.30390239 -0.34824809
0.11001003 -0.318223 -0.33609933
0.21487424 -0.29445824 -0.32839048
0.25642106 -0.28597248 -0.29868925
-0.50907081 -0.19453271 -0.29095063
-0.46124431 -0.21030533 -0.31179449
-0.41095719 -0.22630917 -0.34245005
0.22752351 -0.23250288 -0.34578609
0.26924157 -0.21386525 -0.31262732
0.31152046 -0.21930398 -0.28217399
-0.51486588 -0.14179048 -0.28978801
-0.46916166 -0.14627576 -0.32517943
-0.39364871 -0.15239567 -0.32806501
-0.35217139 -0.10614944 -0.33028027
0.28413481 -0.14561044 -0.32337308
0.32210928 -0.12204235 -0.29371426
-0.52626854 -0.067097887 -0.29969215
-0.48449132 -0.070875861 -0.33498737
-0.40318024 -0.068330847 -0.31155869
0.29809988 -0.073797345 -0.33596385
0.32728764 -0.059622511 -0.3092593
-0.58224273 0.032291807 -0.2830306
-0.53240973 0.010742212 -0.31542018
-0.48614928 0.0072385874 -0.33764637
-0.40047246 -0.019686924 -0.32569969
0.30498013 -0.0050868317 -0.34783176
0.34111053 0.004935516 -0.31362653
-0.58679205 0.093763262 -0.29118311
-0.54549742 0.080955878 -0.32004359
-0.47734919 0.083259143 -0.29489264
-0.4060263 0.045813605 -0.34749389
0.30602115 0.091293342 -0.35287991
0.35205588 0.077711552 -0.31997955
0.39504987 0.088368796 -0.29156485
-0.58818191 0.16143951 -0.30012742
-0.55533272 0.15484934 -0.33192059
0.36485267 0.15381241 -0.32869321
0.39925584 0.1674903 -0.30098522
-0.59882045 0.23773235 -0.30134416
-0.56338561 0.2335709 -0.33201692
0.37094283 0.22243008 -0.33298561
0.39971071 0.23519957 -0.3067463
-0.60041219 0.30555779 -0.31493202
-0.54838616 0.31021771 -0.32860565
-0.49388 0.33750886 -0.35226977
0.37748921 0.29791021 -0.33684266
0.40474835 0.30444354 -0.31303671
-0.6135121 0.37992969 -0.31583276
-0.54997844 0.37177676 -0.3266736
-0.50097966 0.36603025 -0.35005727
0.37933573 0.36650452 -0.34698206
0.41240394 0.37795311 -0.31804332
-0.65960002 0.47006065 -0.28445765
-0.6210525 0.45332557 -0.31988287
-0.52899814 0.43037879 -0.3375476
0.41752848 0.45089257 -0.318611
-0.65884918 0.53689748 -0.29101452
-0.62533951 0.53052527 -0.32213458
-0.57289106 0.56261617 -0.31079763
0.38301629 0.49950549 -0.34886014
0.42366552 0.52585733 -0.31854478
-0.65634048 0.60220522 -0.29395074
-0.62984943 0.60179001 -0.32234195
0.42494395 0.59901148 -0.31964749
0.46196786 0.61101437 -0.28554493
-0.65837216 0.67161572 -0.28443599
-0.62632537 0.6630854 -0.3279129
-0.56380332 0.65981847 -0.32006538
0.38457862 0.63846588 -0.29669592
0.42926678 0.66293043 -0.31728593
0.46405211 0.67178166 -0.28537536
-0.023509815 -0.69690657 -0.21113418
0.057300314 -0.69723487 -0.21522741
0.12147881 -0.69959068 -0.21585463
0.18659455 -0.69681168 -0.21484986
-0.15504682 -0.6552518 -0.24686258
-0.096195616 -0.67555279 -0.2392901
-0.020840406 -0.68095845 -0.24930163
0.053071365 -0.68475688 -0.25520438
0.13076904 -0.68522835 -0.25386366
0.20516595 -0.67638147 -0.24874349
0.27283227 -0.65643001 -0.24359174
0.34494916 -0.65036458 -0.22236662
0.40133351 -0.62766176 -0.21436448
-0.45913282 -0.55921167 -0.23264007
-0.3953777 -0.5829196 -0.24472155
-0.32342598 -0.6003626 -0.24287637
-0.24734971 -0.57588023 -0.24288173
-0.18507344 -0.57362974 -0.25325575
0.21421903 -0.57839298 -0.26758522
0.27418685 -0.58346432 -0.24690993
0.33830765 -0.59059423 -0.2220903
-0.51657861 -0.51208299 -0.22096619
-0.46797118 -0.5123058 -0.25050926
-0.4118292 -0.49311367 -0.27422678
-0.22805431 -0.51438558 -0.21983361
-0.1709781 -0.54366845 -0.21520053
-0.10596443 -0.53819239 -0.22194776
0.20882612 -0.51089692 -0.26086617
0.27037743 -0.51477617 -0.22857825
0.32611054 -0.52220935 -0.21452114
-0.50780547 -0.46558782 -0.21237017
-0.46641114 -0.43881619 -0.23174754
-0.41238102 -0.43478894 -0.26754069
0.21877921 -0.43988293 -0.26447421
0.26687914 -0.432998 -0.23061211
-0.51509714 -0.34874403 -0.21549007
-0.46732238 -0.36533827 -0.24594922
-0.41294929 -0.3935023 -0.2700755
0.22441897 -0.38049388 -0.27897272
0.27496791 -0.36369887 -0.24400346
0.31737995 -0.32951489 -0.23219819
-0.52068955 -0.29032847 -0.22999722
-0.47986016 -0.29448423 -0.2613861
0.28582472 -0.29436272 -0.25676453
0.32371253 -0.27713048 -0.22725362
-0.53438503 -0.21439792 -0.23703523
-0.48006883 -0.22125433 -0.26027668
-0.41163757 -0.18896472 -0.25537705
0.30177784 -0.22148347 -0.26381335
0.33773762 -0.2132946 -0.23658587
-0.58054787 -0.13231616 -0.21645452
-0.54563689 -0.14061837 -0.24921592
-0.46057186 -0.14612529 -0.24888523
-0.40914911 -0.13813592 -0.28004718
0.30767849 -0.17442802 -0.27666321
0.35039836 -0.14239222 -0.24481951
0.38879526 -0.12703699 -0.21844839
-0.59019315 -0.062223382 -0.21994622
-0.55771601 -0.071231924 -0.25471938
-0.47429821 -0.067517355 -0.24648936
0.36217961 -0.067542881 -0.25268367
0.39484647 -0.062846579 -0.22347252
-0.59554756 0.01261347 -0.23626809
-0.56511241 0.0011921953 -0.27067503
-0.46907607 -0.013320204 -0.27429935
0.37255922 -0.0030404348 -0.26071942
0.40090975 0.011417868 -0.23565643
-0.60738301 0.084618166 -0.23984148
-0.57351464 0.056531236 -0.27208069
-0.49544701 0.061047718 -0.27049679
0.38083237 0.063866913 -0.26591316
0.41140565 0.083797164 -0.24032228
-0.61722082 0.15442576 -0.24465199
0.38154578 0.13733001 -0.2755149
0.42143333 0.15568686 -0.24583863
-0.65581989 0.24951705 -0.21647146
-0.63172555 0.23192295 -0.24173634
-0.55986732 0.24570054 -0.24805726
0.43179756 0.23048246 -0.24320929
0.46323439 0.23811373 -0.20718421
-0.66295934 0.30622438 -0.21751074
-0.63759929 0.30446205 -0.25320911
-0.56615663 0.31965867 -0.26483771
0.43770686 0.30708694 -0.24753763
-0.66137624 0.37797877 -0.2316324
-0.64012051 0.37175539 -0.25498846
-0.56637686 0.3676953 -0.27836779
0.44236743 0.37956625 -0.25106156
0.46264213 0.38286921 -0.22298452
-0.66889077 0.45266744 -0.2413923
-0.64738894 0.44589075 -0.26422295
0.44532305 0.45064664 -0.25529057
0.4651441 0.4484767 -0.22635713
-0.67602104 0.5285148 -0.24145646
-0.65035117 0.52268541 -0.27133483
0.44594604 0.52090311 -0.25463805
0.46533585 0.52965665 -0.23764251
-0.67495298 0.60047042 -0.23937525
-0.64205825 0.61279035 -0.26624614
0.44585881 0.5981487 -0.25576869
0.47299647 0.60425854 -0.23449865
-0.67567295 0.66668838 -0.23931195
-0.6377241 0.66332555 -0.25518462
0.44998252 0.66550738 -0.26583749
0.47453576 0.665443 -0.23453057
-0.07970392 -0.69978148 -0.15903541
-0.01658532 -0.70442402 -0.1638754
0.055114102 -0.70798451 -0.16588961
0.12701282 -0.70908129 -0.16893749
0.19619742 -0.70420241 -0.16591866
0.27178496 -0.70016652 -0.14986578
0.32123813 -0.6983543 -0.1425138
-0.15108737 -0.67361474 -0.169681
-0.097220711 -0.68908763 -0.17331304
-0.029336296 -0.69314504 -0.19564731
0.04383748 -0.69481111 -0.20403676
0.21820778 -0.69212747 -0.19206639
0.27446213 -0.68667084 -0.1864014
0.35121664 -0.67792505 -0.1737566
0.42114222 -0.6545341 -0.1665014
0.48710343 -0.6359098 -0.1490986
-0.51459295 -0.55536908 -0.15693222
-0.46602878 -0.5743984 -0.16978058
-0.39775062 -0.60388011 -0.17124666
-0.3192398 -0.59320837 -0.16737901
-0.2651464 -0.55674899 -0.16692832
0.36344513 -0.57736427 -0.1984133
0.42078975 -0.58572042 -0.18423373
0.49457011 -0.58605605 -0.15953067
0.55429447 -0.57826155 -0.14483717
0.61487079 -0.56036037 -0.13593286
-0.58589882 -0.49882811 -0.14695808
-0.54557484 -0.51834255 -0.17653157
-0.49389264 -0.54696369 -0.18621254
-0.23833463 -0.52525234 -0.16153541
-0.18246698 -0.53448182 -0.17164616
-0.10864849 -0.53176063 -0.17074932
-0.05857747 -0.53709239 -0.14524278
0.29630557 -0.49203563 -0.19489384
0.34976622 -0.50908142 -0.19296099
0.42096457 -0.51311612 -0.17119215
0.49491706 -0.50697333 -0.14999485
0.56636047 -0.51371986 -0.14276224
0.64093637 -0.50170749 -0.13739526
-0.58988154 -0.46223474 -0.14075202
-0.54162461 -0.43683222 -0.16876756
-0.49603274 -0.42983869 -0.19824536
0.29587415 -0.43576676 -0.19855852
0.34921992 -0.43651748 -0.17267035
0.41738689 -0.44074368 -0.14927056
0.48857751 -0.45773047 -0.1397323
0.5664646 -0.46865946 -0.14192197
0.65284586 -0.44551143 -0.13701348
0.7165401 -0.41394231 -0.13499743
-0.53793991 -0.36030403 -0.16973993
-0.49834588 -0.38765579 -0.19210801
0.30639243 -0.37633318 -0.19787253
0.34843689 -0.36066496 -0.16870742
0.38941392 -0.33322656 -0.1476326
0.73626882 -0.37243718 -0.13515025
-0.58642709 -0.28329781 -0.15109415
-0.55524397 -0.29215416 -0.1784499
-0.48281649 -0.27159497 -0.15675062
0.35319981 -0.28867894 -0.17550814
0.38811678 -0.29635382 -0.14579636
0.79361093 -0.28883517 -0.13543399
-0.59634608 -0.21214336 -0.1586903
-0.56228 -0.22303577 -0.18288651
-0.48160538 -0.21325161 -0.18794808
0.36569107 -0.22543716 -0.18411575
0.39318985 -0.21450692 -0.16162339
0.8114627 -0.20750818 -0.1357668
0.84637511 -0.19841853 -0.1342327
-0.60544658 -0.1390668 -0.16519661
-0.54987293 -0.14387965 -0.17950891
-0.49531916 -0.13734153 -0.19918171
0.37708539 -0.1612961 -0.18919377
0.4039233 -0.13879389 -0.16765089
0.81287634 -0.14938642 -0.13723296
0.84876364 -0.12424298 -0.1409674
-0.61797565 -0.066078305 -0.16856284
-0.51201183 -0.090485588 -0.19750661
0.37412238 -0.091384359 -0.19672509
0.41820151 -0.065275684 -0.17278886
0.80282491 -0.074590757 -0.13833167
0.85206586 -0.062871143 -0.14242569
-0.6559006 0.01896281 -0.14434659
-0.62821144 0.0090264287 -0.17431118
0.42943957 0.0014005024 -0.17448172
0.46104532 0.040882498 -0.13610964
0.81329697 0.0097112302 -0.1426761
0.85432863 0.008357225 -0.14046049
-0.66101378 0.089027487 -0.15030612
-0.63664496 0.0770818 -0.17874643
0.44279647 0.077016473 -0.16867252
0.46325377 0.092067569 -0.14781572
0.80998272 0.082423344 -0.13682771
0.84849644 0.075382233 -0.14099571
-0.66503692 0.15850855 -0.15864222
-0.6430887 0.14751691 -0.18992606
0.4457764 0.15452494 -0.18475972
0.46549016 0.15403464 -0.15765665
0.80579793 0.159683 -0.13998303
0.84405053 0.14470129 -0.14318621
-0.67228454 0.23192787 -0.16643921
-0.63301378 0.20857602 -0.19775891
0.45003143 0.22242028 -0.18588287
0.47023478 0.23149481 -0.16646321
0.79241616 0.22779703 -0.13813317
0.84004474 0.22497585 -0.13801844
-0.67928028 0.30598509 -0.16798732
-0.64865643 0.2895554 -0.198098
0.45051178 0.29288492 -0.19226448
0.47362527 0.30575711 -0.1782686
0.74042737 0.32264751 -0.13790354
0.78903407 0.30241612 -0.14010885
-0.68470389 0.38012043 -0.17339392
0.45281592 0.39239305 -0.18962775
0.47614601 0.37686914 -0.17481494
0.71630418 0.3903856 -0.14198981
0.76788151 0.34895664 -0.14603579
-0.69321066 0.45562324 -0.17391536
0.45335433 0.44814077 -0.16472101
0.47303861 0.45460063 -0.16849372
0.66036576 0.46294338 -0.14120615
0.70440352 0.44757909 -0.14063795
-0.70450276 0.52694386 -0.16776094
0.45232955 0.51515448 -0.19334476
0.4862147 0.53519672 -0.16238755
0.58753216 0.53567356 -0.14018868
0.63631725 0.51416397 -0.14036171
-0.72947007 0.56455505 -0.13382371
-0.69643199 0.60065621 -0.17290397
-0.63776368 0.6151706 -0.18305689
0.49565634 0.59934556 -0.1687962
0.55653167 0.58095765 -0.1426332
-0.70132899 0.66515881 -0.17060852
-0.64773268 0.66565472 -0.17937705
0.49008998 0.66093141 -0.17079511
-0.14178628 -0.69847602 -0.073801942
-0.093220033 -0.70471388 -0.091708161
-0.023632616 -0.71454769 -0.097204126
0.053325094 -0.72139031 -0.099372894
0.12374733 -0.72416133 -0.096063197
0.19817194 -0.7212621 -0.09746778
0.27327472 -0.71385115 -0.092579193
0.33820322 -0.70437366 -0.08624088
-0.38098925 -0.6276499 -0.088063292
-0.34895957 -0.628169 -0.08176703
-0.15515602 -0.67965847 -0.10086119
-0.12228101 -0.69107533 -0.10943046
0.37103674 -0.69274747 -0.10665623
0.4226487 -0.68157655 -0.091237262
0.49617866 -0.65668952 -0.094087951
0.55647272 -0.63466406 -0.080787271
-0.5217694 -0.55398452 -0.12622234
-0.45855972 -0.57811773 -0.097951107
-0.40193003 -0.61260027 -0.099318199
-0.31241891 -0.59068543 -0.092559382
-0.26820201 -0.55729204 -0.095378757
-0.067456551 -0.55608106 -0.060701486
-0.047744475 -0.58098394 -0.060867991
0.52434886 -0.61678934 -0.13165674
0.58312482 -0.60562706 -0.10534918
0.64041293 -0.57652211 -0.092556097
0.68836045 -0.55507809 -0.070347868
-0.5883888 -0.49005061 -0.10750859
-0.54260504 -0.51325083 -0.10782072
-0.46740749 -0.5128504 -0.081839614
-0.22955209 -0.53834176 -0.097343013
-0.17602617 -0.52794617 -0.09303429
-0.10318134 -0.5301711 -0.091087557
-0.059305094 -0.53565592 -0.10236794
0.58969587 -0.50898045 -0.12883586
0.64819342 -0.51511067 -0.1198815
0.71689725 -0.50676686 -0.091393717
0.75552726 -0.49099168 -0.060004991
-0.59272885 -0.43804455 -0.085234165
-0.55641568 -0.43416494 -0.11054271
-0.47012714 -0.43579748 -0.087683819
-0.23772633 -0.4438937 -0.11874064
0.44166026 -0.41739446 -0.1200515
0.49796414 -0.42985246 -0.11853018
0.56806844 -0.4350867 -0.11499045
0.64375061 -0.43641239 -0.12073538
0.72045028 -0.44059408 -0.11922046
0.78274667 -0.43376398 -0.08392562
-0.59747434 -0.35662949 -0.084703319
-0.57113391 -0.36973813 -0.11359783
-0.45669112 -0.35979354 -0.084493414
0.41564861 -0.36344764 -0.099732041
0.48361608 -0.38771892 -0.079810396
0.56193566 -0.3888762 -0.073577814
0.6518687 -0.37091348 -0.104258
0.72067308 -0.36548963 -0.12155845
0.79877287 -0.36660057 -0.1080285
0.83953691 -0.35463548 -0.077052951
-0.65519959 -0.25832227 -0.066022575
-0.61464709 -0.28932986 -0.095115542
-0.53963429 -0.28571856 -0.087210387
-0.4772844 -0.30008563 -0.073293306
0.37490359 -0.28748581 -0.12141281
0.40138593 -0.28894401 -0.094475769
0.66424149 -0.29131901 -0.078835003
0.72055614 -0.28937113 -0.1119753
0.78895235 -0.29056516 -0.12147965
0.85599029 -0.28851703 -0.095494837
-0.65953004 -0.20040058 -0.063719332
-0.62776667 -0.21693 -0.098556906
-0.54966998 -0.22317713 -0.094903968
0.41189879 -0.21026245 -0.093546264
0.6709522 -0.20679416 -0.070982777
0.71904439 -0.21468166 -0.1035682
0.78957397 -0.21365862 -0.12315197
0.87245375 -0.21904075 -0.098187163
-0.66229355 -0.1348417 -0.073940895
-0.63799173 -0.14470355 -0.10062894
-0.54345036 -0.17716672 -0.11670328
0.42319545 -0.13962573 -0.096600093
0.67633319 -0.14846778 -0.064552754
0.71970052 -0.14180312 -0.098495893
0.79018128 -0.14213194 -0.1223992
0.87891352 -0.14353235 -0.10334323
0.90953475 -0.13388428 -0.070485704
-0.66630888 -0.062318735 -0.080937065
-0.64436978 -0.072828136 -0.10423376
0.43790972 -0.063013405 -0.097523011
0.71860367 -0.067801759 -0.092613988
0.78806639 -0.067811333 -0.12358325
0.87865204 -0.067420699 -0.1119755
0.91096121 -0.063018955 -0.075733818
-0.66718721 0.010289831 -0.092116527
-0.64695048 0.011771658 -0.12916611
0.44752064 0.0030179787 -0.097203806
0.46287131 0.010253778 -0.085344248
0.73224789 0.0064610895 -0.095009305
0.79723942 0.0069904234 -0.12609379
0.87925529 0.0061730165 -0.11160579
0.90960002 0.0099137295 -0.076609902
-0.67686397 0.082774758 -0.097050972
0.45333493 0.074973784 -0.088524804
0.46617636 0.084598497 -0.084675282
0.72819614 0.08149191 -0.088666134
0.78848237 0.087104283 -0.12565938
0.88012844 0.085039355 -0.10445113
0.90833193 0.079618849 -0.070499972
-0.68654788 0.15586138 -0.094842531
0.4584592 0.13922656 -0.085816599
0.47439066 0.15947558 -0.095040984
0.72730511 0.15609725 -0.089354217
0.79284716 0.15351716 -0.12609586
0.87190264 0.1576612 -0.097688444
-0.69382608 0.22920862 -0.097515173
0.48073062 0.23013288 -0.098184988
0.67649275 0.26209354 -0.064706437
0.72541249 0.232411 -0.095694311
0.79875273 0.2311354 -0.12515576
0.85410678 0.22750965 -0.091717578
-0.70090222 0.30332914 -0.098168045
0.48714635 0.30139157 -0.10034863
0.67526883 0.32733041 -0.067893229
0.71879458 0.3006084 -0.10751785
0.79793459 0.30967587 -0.10896689
0.83954036 0.28150383 -0.090073474
-0.70815581 0.37789407 -0.10016593
0.49243733 0.37794995 -0.10219325
0.60496604 0.41399962 -0.06368953
0.65673989 0.38427377 -0.091134787
0.7243588 0.37636337 -0.12331886
0.78208292 0.37527636 -0.095983207
-0.72916645 0.47917703 -0.084352873
-0.7131201 0.44949433 -0.10009811
0.50337845 0.45274615 -0.097314045
0.57906497 0.45839077 -0.091233909
0.63405412 0.44698855 -0.12080812
0.72175586 0.45664516 -0.10288926
0.7668817 0.42653203 -0.089827649
-0.73270494 0.53266382 -0.08255475
-0.71518248 0.52591896 -0.10011364
0.5078215 0.51853883 -0.12109412
0.568452 0.52573401 -0.12060679
0.65206081 0.53464097 -0.098586753
0.69243777 0.50745273 -0.083509438
-0.73043197 0.59396505 -0.083595596
-0.70766187 0.6061213 -0.10408828
0.52211732 0.60710377 -0.12175358
0.56936193 0.5986954 -0.10022622
0.6248104 0.57780468 -0.091058895
-0.72967649 0.66488141 -0.086960874
-0.70309293 0.66945392 -0.10719844
0.50644654 0.66264892 -0.10019586
0.54198742 0.64558905 -0.079559892
-0.14437822 -0.7019158 -0.02282916
-0.099272467 -0.70880437 -0.020448457
-0.025541581 -0.72046334 -0.027383007
0.051108196 -0.72853661 -0.0224097
0.12395851 -0.73231721 -0.021153007
0.19664437 -0.72976941 -0.022181328
0.27034387 -0.7232821 -0.025582008
0.34927011 -0.71412051 -0.022845622
0.40503564 -0.70061439 -0.01888163
0.50204128 -0.69665504 -0.0024799155
-0.38142952 -0.63145256 -0.025970884
-0.34441251 -0.63054252 -0.019636761
-0.15815061 -0.68473947 -0.020270415
0.44277194 -0.69309753 -0.020753361
0.49289018 -0.6880247 -0.029280294
0.56186837 -0.65308285 -0.020560637
-0.43735215 -0.5631339 -0.036410585
-0.41161111 -0.59289354 -0.020647448
-0.31182346 -0.59672129 -0.020677894
-0.26730904 -0.56273466 -0.024857383
-0.067083128 -0.55538434 -0.017032549
-0.047489204 -0.58049899 -0.0024801353
0.59732199 -0.61471319 -0.022407755
0.64392555 -0.58913928 -0.019455381
0.69192666 -0.56025708 -0.021055181
-0.43778524 -0.4899694 -0.03883129
-0.42085311 -0.51640475 -0.014847661
-0.22868752 -0.53782445 -0.024197817
-0.17408568 -0.52660114 -0.023908876
-0.09766569 -0.52975696 -0.020268191
0.72870058 -0.52172506 -0.022413317
0.7630887 -0.48908281 -0.024421535
-0.60576105 -0.42355314 -0.034066208
-0.4378576 -0.4317655 -0.038426165
-0.4242582 -0.44312158 -0.0070702164
0.79881346 -0.4379251 -0.022388745
-0.61527115 -0.36122745 -0.021619111
-0.43637982 -0.3708863 -0.033037025
-0.42203209 -0.36804906 -0.0072256485
0.42692488 -0.34492743 -0.033234
0.48337004 -0.36790815 -0.042381965
0.57972789 -0.37738287 -0.045023523
0.61805183 -0.35036841 -0.039966315
0.82529819 -0.38978356 -0.020923495
0.84802949 -0.3566277 -0.022373464
-0.66495007 -0.27983266 -0.016032357
-0.63465941 -0.30388325 -0.026703976
-0.5326001 -0.27338079 -0.019390464
-0.46393165 -0.2903147 -0.021810349
-0.42079487 -0.31199959 -0.0024794741
0.40339792 -0.2886385 -0.020160779
0.59366941 -0.28721899 0.0075938925
0.63556796 -0.28465226 -0.014324314
0.87370342 -0.28909159 -0.021182097
-0.67081743 -0.21591474 -0.019987702
-0.64893287 -0.22750393 -0.052197482
0.41060767 -0.22068612 -0.020681888
0.64973325 -0.21875075 -0.015929576
0.89342761 -0.21846791 -0.02048609
0.91162199 -0.17750414 -0.043672256
-0.67716122 -0.14425796 -0.021966722
-0.65053123 -0.14767589 -0.038506638
0.43463987 -0.13794287 -0.021161094
0.65580142 -0.14844204 -0.025133122
0.8967998 -0.14508712 -0.016307887
0.90942997 -0.14292541 -0.024099711
-0.68692768 -0.070064642 -0.018292665
0.44599259 -0.067076892 -0.025376715
0.46115133 -0.049319088 -0.016208965
0.66663682 -0.06210155 -0.016140562
0.69072771 -0.049259461 -0.054899659
0.90136474 -0.065975331 -0.025309198
0.91217649 -0.062069423 -0.027333256
-0.69250065 0.011272913 -0.026063424
0.45149973 -0.0024023224 -0.027283609
0.46616995 0.0067055207 -0.024033058
0.66696906 0.044488631 0.0052841986
0.69532442 0.010330426 -0.046978522
0.90137833 0.034382939 -0.023040209
0.91217971 0.0074229036 -0.027765874
-0.69809711 0.084327139 -0.025367934
0.45740795 0.064761691 -0.023222949
0.47199884 0.084574498 -0.017839946
0.6676448 0.074822366 -0.01728541
0.69537777 0.077273533 -0.028758772
0.89760858 0.091497853 -0.021973606
0.90963703 0.085562862 -0.025365308
-0.70683151 0.15535375 -0.021828488
0.47676104 0.15696275 -0.022567466
0.66955024 0.15444559 -0.010324438
0.69710183 0.15433341 -0.022327084
0.89084375 0.15994394 -0.023297749
0.90683621 0.14162742 -0.018139258
-0.71308476 0.22844103 -0.022156432
0.48652318 0.22580612 -0.026777148
0.67329139 0.22718623 -0.044447366
0.69188094 0.22209492 -0.038835142
0.8761791 0.22750908 -0.022420224
-0.72876048 0.31148383 -0.0069480622
-0.71609879 0.30026793 -0.026596885
0.4924655 0.30404803 -0.025670845
0.65426564 0.30605066 -0.019352973
0.68203139 0.28721306 -0.04475389
0.82315421 0.32131973 -0.044068933
0.85015494 0.30087149 -0.018095888
-0.73025358 0.38637453 -0.016552396
-0.71735066 0.37662101 -0.030177001
0.50062168 0.37687215 -0.026698701
0.5902915 0.38868573 -0.015008473
0.6238991 0.36433828 -0.029503863
0.80257213 0.37830523 -0.023146771
0.84297699 0.35189667 0.00086800754
-0.73338383 0.45397308 -0.022295095
-0.72018838 0.45194125 -0.027795054
0.51408535 0.43578753 -0.024005864
0.55494148 0.43458435 -0.022289615
0.75182515 0.44365209 -0.012110158
0.77351767 0.43371415 -0.011593134
-0.73637241 0.52898222 -0.019344822
-0.71194935 0.51943433 -0.030044045
0.71928388 0.50411218 -0.022244569
-0.73627579 0.60097927 -0.018015049
-0.71506095 0.60269839 -0.031169046
-0.73147827 0.66445893 -0.02453411
-0.70804906 0.65849131 -0.021399409
0.51073384 0.68525928 0.012480574
-0.14319363 -0.69976872 0.052597817
-0.097744592 -0.70933664 0.050354172
-0.022964232 -0.71984607 0.050481584
0.050699312 -0.72752923 0.045170952
0.12484217 -0.73006022 0.04984875
0.19907211 -0.72783351 0.048012469
0.27231419 -0.72123539 0.047088083
0.34441698 -0.71517915 0.046080835
0.40650567 -0.70133424 0.03955619
0.50930816 -0.69749379 0.016339464
-0.37853485 -0.63168454 0.049209692
-0.33889294 -0.6292786 0.051625714
-0.16067743 -0.68465018 0.047598161
-0.13211706 -0.6899125 0.067703724
0.37032998 -0.69455791 0.084281735
0.4314684 -0.68874961 0.056503147
0.4960579 -0.68206364 0.051438637
0.56392848 -0.65197337 0.045005679
-0.40626964 -0.5861721 0.050394848
-0.31544462 -0.60133874 0.054614346
-0.26686144 -0.5638113 0.052632689
-0.06545011 -0.5523386 0.055670839
-0.047295161 -0.58013052 0.055894244
0.59845841 -0.61381114 0.055233859
0.64863819 -0.58495861 0.04879608
0.69324762 -0.56077403 0.044955123
-0.43258849 -0.47520062 0.087696053
-0.41593656 -0.51503706 0.050529879
-0.22809607 -0.53804839 0.050839681
-0.17524824 -0.52673906 0.052225266
-0.097657569 -0.52903444 0.053003438
0.72557169 -0.52232003 0.050689299
0.7634868 -0.48963478 0.046299089
-0.4348149 -0.44485167 0.073660515
-0.42663243 -0.44323254 0.039455932
0.79876083 -0.43708134 0.050327536
-0.62109292 -0.34025094 0.051544525
-0.43343851 -0.35595384 0.07853999
-0.41747931 -0.35774565 0.03707689
0.42423412 -0.3454327 0.058537796
0.48786351 -0.39141479 0.080886714
0.57520515 -0.36918345 0.062697031
0.62208641 -0.33901531 0.067124449
0.8200779 -0.3873733 0.047778104
0.8468253 -0.35547718 0.048641227
-0.66863579 -0.28100872 0.050731268
-0.64132679 -0.30966136 0.063031822
-0.53873754 -0.27094811 0.047358107
-0.46425125 -0.28508925 0.054254081
-0.42312416 -0.3096194 0.035538502
0.37919426 -0.28802001 0.080019362
0.40462211 -0.28910604 0.057477377
0.58363396 -0.30969465 0.022262856
0.63696969 -0.28676721 0.058993466
0.87189943 -0.28648561 0.050266206
-0.67945844 -0.21533218 0.052458476
-0.55847913 -0.24074499 0.084561907
0.40910313 -0.21512833 0.053327557
0.65545911 -0.20978448 0.065328859
0.88933009 -0.22083452 0.052435156
-0.68534809 -0.1401754 0.050004378
-0.64245552 -0.11937533 0.054676153
0.42557189 -0.14185329 0.055247638
0.6613034 -0.13993424 0.060204722
0.69622219 -0.12630957 0.087929234
0.89515007 -0.14641839 0.05986486
0.90902418 -0.13944584 0.046150032
-0.69283098 -0.066556007 0.053360134
-0.64469737 -0.077680595 0.054148149
0.44461983 -0.062768884 0.05475178
0.45979434 -0.047573656 0.024965597
0.66986704 -0.071132869 0.050031126
0.68921256 -0.05437585 0.075567886
0.89902121 -0.065864742 0.062476341
0.91119415 -0.062464304 0.043860175
-0.69753307 0.0092000421 0.053914636
0.45125178 -0.0007147342 0.055905685
0.46508795 0.011910463 0.042438321
0.66894513 0.0048186909 0.036789209
0.69426364 0.0096500982 0.072415441
0.89903051 0.014990201 0.068080887
0.91122943 0.011783449 0.042584971
-0.70348287 0.0814877 0.052843615
0.45690975 0.063276045 0.072308011
0.47118008 0.084054679 0.050960232
0.67841351 0.081851907 0.049070835
0.69817722 0.080503196 0.075901195
0.89607757 0.086940318 0.05884438
0.90833104 0.07991074 0.042896826
-0.71198165 0.15546152 0.047961701
0.47982305 0.1558551 0.054087222
0.67438334 0.1489128 0.036717705
0.69943988 0.15681997 0.073874883
0.89012378 0.15777445 0.052783128
0.90803427 0.13424605 0.036513317
-0.72758269 0.23543772 0.037416931
-0.71551466 0.22892764 0.051427245
0.48835382 0.22919625 0.049723621
0.66881037 0.22683519 0.031075113
0.69354081 0.23122901 0.075966321
0.87637633 0.22967738 0.05222521
-0.72992724 0.3044872 0.044189248
-0.71554863 0.30544066 0.052761462
0.49675769 0.30340976 0.044070438
0.6560353 0.30758744 0.049860105
0.69128799 0.28235161 0.055092178
0.85141885 0.30606616 0.051676307
-0.7306444 0.38598639 0.043684583
-0.71705848 0.37446395 0.057108883
0.50037038 0.37735879 0.045395866
0.5961988 0.39871123 0.038578309
0.62649602 0.3731434 0.05796868
0.81370932 0.38616523 0.052307695
0.8399604 0.35861367 0.043226916
-0.73285413 0.45691928 0.058300693
-0.71295673 0.45230091 0.049430355
-0.45402351 0.4676584 0.079011515
-0.30279773 0.46775487 0.071369775
0.51109928 0.44671014 0.053913377
0.56222433 0.44449985 0.049700432
0.61659044 0.43663546 0.072246857
0.73909926 0.47541091 0.057814948
0.77964681 0.44076514 0.048279312
-0.73478258 0.52661288 0.053528532
-0.7123397 0.51998138 0.048848499
0.65340054 0.53793555 0.075165041
0.71114433 0.50374812 0.056946442
-0.73277926 0.59460616 0.054035954
-0.71098399 0.60481107 0.048224818
0.56763411 0.61578381 0.085363641
0.61482209 0.56611884 0.088428088
-0.73221588 0.67134833 0.058258977
-0.6942817 0.66778082 0.048937913
-0.6366775 0.66287965 0.061921157
0.51308233 0.67051119 0.065901481
-0.14069405 -0.69702649 0.099472865
-0.09328384 -0.7026692 0.12434232
-0.022510372 -0.71257025 0.12753895
0.055041734 -0.71864265 0.12429193
0.12310113 -0.72066486 0.12319209
0.19800907 -0.71665227 0.12284007
0.27378029 -0.70794451 0.12273696
0.33737659 -0.70177358 0.1084829
0.38711575 -0.69756132 0.094086848
-0.37529734 -0.62780732 0.12552421
-0.34076118 -0.62805319 0.12245382
-0.1527473 -0.67862588 0.13316144
-0.11973055 -0.69178599 0.1447174
0.3020224 -0.69152898 0.15286876
0.35878736 -0.68800277 0.13480277
0.42627791 -0.6707238 0.12785025
0.4961229 -0.64888549 0.1201736
0.55525732 -0.63473618 0.10231822
-0.44675192 -0.5743047 0.14244862
-0.41511264 -0.59575135 0.11888175
-0.31608987 -0.59923935 0.13080901
-0.27062401 -0.56652337 0.13061877
-0.064644523 -0.55083549 0.11378038
-0.046615593 -0.57883883 0.11422181
0.51812679 -0.60352641 0.15763092
0.57565939 -0.59633589 0.13389796
0.63729721 -0.57191849 0.12083767
0.69066858 -0.55510587 0.092608616
-0.52207553 -0.50320923 0.15922862
-0.45878109 -0.50929314 0.13405468
-0.42038962 -0.50365609 0.096064061
-0.22908053 -0.53821385 0.12437078
-0.17612118 -0.52805096 0.12648574
-0.093664385 -0.52894694 0.12627493
0.49701887 -0.5021497 0.157474
0.57751429 -0.50761002 0.15495837
0.64623678 -0.50814641 0.14358243
0.71617508 -0.50436056 0.11672013
0.76333708 -0.48507699 0.093431093
-0.55149597 -0.4339827 0.1604723
-0.46405098 -0.43677363 0.13653255
-0.42781326 -0.44464487 0.09038154
0.37911487 -0.40879691 0.15547089
0.43273696 -0.42766455 0.14780122
0.49624181 -0.43287784 0.13553411
0.56726521 -0.43679166 0.1382993
0.64539427 -0.43582276 0.13775028
0.72032046 -0.43591914 0.13549735
0.78309345 -0.43113416 0.11167905
-0.59446955 -0.34680471 0.12401778
-0.56921726 -0.37199065 0.14284112
-0.45673421 -0.36084801 0.13305357
0.36987773 -0.36004859 0.14497443
0.41329429 -0.36829343 0.118434
0.58411956 -0.39092791 0.10247017
0.64631969 -0.36850634 0.11731388
0.72135669 -0.36472592 0.13435432
0.79587764 -0.36547807 0.1221242
0.8410666 -0.3447924 0.099398777
-0.65661395 -0.26166075 0.10328747
-0.62417936 -0.29328713 0.12873918
-0.53063875 -0.26102388 0.11930591
-0.47036132 -0.28779066 0.12129606
0.36981454 -0.29230997 0.13448121
0.39035553 -0.28221777 0.11208099
0.66560465 -0.2893666 0.10110507
0.71587813 -0.2925522 0.12333541
0.79289991 -0.29113063 0.13104698
0.8503654 -0.29068303 0.10669266
-0.66802216 -0.2129539 0.10263064
-0.63177729 -0.21806026 0.13616897
-0.51897895 -0.19194017 0.11173417
-0.48458841 -0.19332874 0.13963747
0.37524736 -0.22940148 0.14316496
0.39734682 -0.21294534 0.11582281
0.72275084 -0.21465497 0.11613476
0.79541099 -0.21204613 0.13079683
0.86074924 -0.21463513 0.11275323
-0.66986364 -0.13620384 0.11079767
-0.63663113 -0.14552061 0.14368224
0.40691027 -0.13857719 0.12696086
0.71684408 -0.14537984 0.10937192
0.79074562 -0.1397453 0.13186063
0.86180073 -0.13831954 0.12029218
-0.6701262 -0.064997315 0.1243971
-0.6365847 -0.083099924 0.1474389
0.42643353 -0.066204138 0.12837949
0.72717482 -0.066147201 0.10981961
0.79042453 -0.068964005 0.13265191
0.86469281 -0.066975795 0.12397808
0.90404224 -0.082685024 0.10375872
-0.67508554 0.0093641784 0.1293302
0.43865696 0.0032706168 0.1250743
0.45964903 0.039664842 0.1050128
0.73200768 0.0083910432 0.10756601
0.79487157 0.0072444994 0.13320075
0.86860031 0.011411889 0.12295965
0.90632629 -0.017261781 0.10585482
-0.68387008 0.082882531 0.12932821
0.44634834 0.073561832 0.13130741
0.46680176 0.097732894 0.10738877
0.73157316 0.079772823 0.10925178
0.78946227 0.086977087 0.13364603
0.8643617 0.083766706 0.12193176
-0.69423592 0.15295875 0.12202884
-0.65186858 0.16317937 0.10458351
0.45186341 0.14229517 0.14794131
0.47042426 0.16220801 0.11345659
0.7353428 0.15543471 0.11261019
0.79696006 0.15651888 0.13654602
0.86194432 0.16155538 0.1159456
-0.69931614 0.23068431 0.12110943
0.45684075 0.20817275 0.15839732
0.47244397 0.23288897 0.12449434
0.73163015 0.22293851 0.11564431
0.79552418 0.22855058 0.13808478
0.84870511 0.23311004 0.1140185
-0.70620674 0.30266848 0.12180519
0.48102239 0.30380186 0.124327
0.72248942 0.30366439 0.12260812
0.79657477 0.30586794 0.130326
0.84105474 0.28558964 0.10475383
-0.73002923 0.3950538 0.099775843
-0.70768207 0.37367606 0.13161889
0.4867754 0.38105938 0.12361541
0.66008157 0.3888661 0.11295546
0.72255749 0.37655956 0.13222954
0.79178947 0.3748872 0.11405761
0.83852321 0.34409112 0.090359457
-0.73166972 0.44952762 0.10892876
-0.71370131 0.45111191 0.1294695
-0.52811623 0.47557113 0.14001392
-0.46645799 0.47041368 0.12247553
-0.40665251 0.46951082 0.13518508
-0.32256025 0.46398568 0.13175716
0.49684495 0.46012545 0.12468786
0.58081841 0.46920151 0.11229703
0.64452368 0.45754594 0.12741391
0.72058427 0.45386177 0.12278118
0.77064335 0.43020955 0.1047821
-0.73018408 0.53594565 0.11150084
-0.70396245 0.52914709 0.12819822
0.50864214 0.52593589 0.13606223
0.56640017 0.52672571 0.13505203
0.64213449 0.53010398 0.11982065
0.70033616 0.50068361 0.10726003
-0.72924042 0.57643449 0.11008567
-0.70619529 0.60317266 0.12896198
0.51276553 0.60530585 0.14107053
0.56527233 0.59267986 0.11784863
0.61131179 0.569673 0.13457693
-0.73096073 0.66816229 0.11046459
-0.7003451 0.66822082 0.12923537
-0.64101923 0.69224966 0.13670926
0.44057295 0.67394048 0.15601745
0.51213646 0.66429543 0.12526236
-0.071731813 -0.69765455 0.17964925
-0.015083663 -0.70294923 0.18745841
0.052087776 -0.70439863 0.19470277
0.12923311 -0.70570737 0.19683483
0.19439566 -0.70267665 0.19006625
0.25847879 -0.69791269 0.17600502
-0.36137953 -0.62244505 0.18019558
-0.15098566 -0.66535354 0.20245817
-0.096850298 -0.68696469 0.20569585
-0.042021044 -0.69170505 0.21724574
0.049398206 -0.69170082 0.22730376
0.13164847 -0.69191194 0.23430796
0.21437067 -0.68922061 0.21248306
0.27414402 -0.6809327 0.20740592
0.34913668 -0.66556674 0.20266244
0.41857153 -0.64600605 0.19026212
0.4780176 -0.63607824 0.17386653
-0.46460494 -0.56809819 0.19984592
-0.39815882 -0.60398579 0.20124853
-0.3211492 -0.6006642 0.20023586
-0.26845068 -0.56273502 0.20363829
0.35778701 -0.58479089 0.22586906
0.41946185 -0.58142567 0.20264554
0.49004546 -0.58840871 0.18040608
0.54644185 -0.58114988 0.16888958
-0.58371937 -0.48630771 0.19882128
-0.5396862 -0.5118472 0.20406303
-0.49374041 -0.53729767 0.19629285
-0.38038099 -0.53319764 0.20911093
-0.23103386 -0.54132307 0.20095965
-0.17876562 -0.53203201 0.19716163
-0.1032071 -0.52859062 0.19907795
0.28923541 -0.50354987 0.22904368
0.35348493 -0.51198471 0.2124836
0.42271647 -0.51010096 0.18779217
0.495709 -0.51503736 0.17420261
0.54807675 -0.5194847 0.16704181
-0.58341849 -0.44965196 0.18653166
-0.54220825 -0.43648231 0.19841111
-0.49434415 -0.4408659 0.18806945
0.28714573 -0.43541896 0.22106677
0.34525096 -0.43958661 0.1941409
0.4147068 -0.44735199 0.17451182
0.47846088 -0.46408328 0.16632286
-0.58034539 -0.34493381 0.17458314
-0.54597515 -0.36339977 0.20333217
-0.4867923 -0.34394473 0.17403224
0.29378611 -0.36679286 0.2209395
0.33383077 -0.36532524 0.18525107
0.38640445 -0.39479899 0.16423824
-0.59465355 -0.28349844 0.18669783
-0.55525017 -0.29119742 0.21280764
-0.48338798 -0.28888676 0.17178619
0.30510089 -0.31278449 0.2232151
0.33761314 -0.28500748 0.1968174
-0.60171145 -0.21472266 0.1957185
-0.55674726 -0.22379388 0.21320336
0.35479593 -0.21451749 0.20586139
0.38970497 -0.18467136 0.16587503
-0.6536997 -0.12884314 0.16809402
-0.61507732 -0.14306439 0.20039302
-0.55891347 -0.15996036 0.20708331
0.37132826 -0.14542346 0.20869036
0.39327246 -0.12941957 0.18288073
-0.65910274 -0.070104688 0.17553812
-0.62474382 -0.071746178 0.20342512
-0.55580842 -0.10128059 0.22239137
0.37547991 -0.077501424 0.2228765
0.39984196 -0.061164796 0.19751784
-0.66209543 0.015104918 0.18286005
-0.63251984 0.0034354199 0.20811135
0.41038653 0.0069823805 0.20472735
-0.66423279 0.083699085 0.18178873
-0.64017934 0.076214999 0.20856488
0.42396817 0.081010364 0.20507517
-0.66766882 0.15675877 0.19129486
-0.64583105 0.14886819 0.22048551
0.43790761 0.1574907 0.20162399
-0.67180753 0.23386672 0.20134009
-0.64582026 0.22534955 0.22539255
0.4449707 0.2304 0.20393732
0.4642781 0.22920471 0.18797725
-0.68015426 0.30561 0.2005671
0.44886687 0.30099556 0.21022061
0.46628672 0.30696648 0.18543974
-0.68715692 0.37708682 0.2006098
0.45164692 0.36953712 0.22224572
0.46895346 0.38120618 0.19436772
-0.68971622 0.45356417 0.19778439
-0.64060414 0.47501549 0.20475249
-0.52948999 0.47558662 0.1670949
-0.45686617 0.4695718 0.17345445
-0.38615209 0.46978962 0.19129112
-0.32808164 0.4712238 0.19864993
0.45584404 0.447604 0.22578332
0.4756822 0.45539993 0.19968688
-0.69457394 0.52828479 0.19780312
-0.63796169 0.52041477 0.2079962
0.47871083 0.52747083 0.20190518
-0.68947542 0.60246092 0.20140855
-0.64424741 0.59859675 0.21876633
0.42417628 0.63348144 0.21338551
0.4873448 0.60238171 0.20498513
-0.69028223 0.66682822 0.20321724
-0.64512372 0.67048991 0.21225013
0.4914836 0.66452688 0.20417346
0.1221247 -0.69751143 0.24215366
-0.14779264 -0.6546886 0.27056196
-0.098840572 -0.66806424 0.277181
-0.019248456 -0.67964238 0.27180606
0.056246493 -0.68130118 0.27534637
0.12664588 -0.67910933 0.27685404
0.19922151 -0.66802692 0.27522883
0.26728842 -0.64859784 0.27099502
0.32784957 -0.64056951 0.24872212
-0.45377168 -0.55736548 0.26777464
-0.3926641 -0.58362186 0.27550158
-0.32156417 -0.60199004 0.27658176
-0.24847317 -0.57334524 0.27517155
-0.16937369 -0.57750458 0.28327715
-0.11941408 -0.56276464 0.25378948
0.20435435 -0.57653344 0.29681334
0.27410549 -0.5875172 0.26891249
0.32972622 -0.58813506 0.24789442
-0.52532935 -0.50867993 0.25504959
-0.48244974 -0.51556516 0.28633133
-0.38916203 -0.51886696 0.23887205
-0.21644026 -0.54454178 0.25111842
-0.18406156 -0.54145211 0.24920121
0.15191068 -0.51235962 0.30739075
0.20203133 -0.5083124 0.28300223
0.27025196 -0.51552367 0.25180528
0.31411389 -0.54052895 0.2447015
-0.52479869 -0.44479787 0.24460387
-0.46689722 -0.43543255 0.2791636
-0.4228448 -0.43263972 0.29907826
0.1625609 -0.46584123 0.31126708
0.2083039 -0.43646055 0.28684336
0.2550523 -0.43311638 0.25489563
-0.51737761 -0.34866217 0.2572937
-0.47341076 -0.36279875 0.28244931
-0.42361751 -0.38315022 0.3038395
0.22162548 -0.36486804 0.29792926
0.26427451 -0.35820213 0.26783258
0.31354901 -0.33254686 0.23953477
-0.52969998 -0.28764439 0.26580179
-0.48826304 -0.29515043 0.29797971
0.23518398 -0.30501598 0.30652434
0.27953422 -0.28835315 0.27879941
0.31967628 -0.27549922 0.2532095
-0.58513129 -0.1899282 0.24823497
-0.53850418 -0.21039571 0.2747297
-0.49927947 -0.23477702 0.30199087
0.29305968 -0.21797825 0.28760946
0.33051896 -0.20791659 0.25926811
-0.5893389 -0.1350691 0.25418639
-0.55167866 -0.14547841 0.27953291
-0.49742404 -0.14787742 0.26984391
0.29782531 -0.15057366 0.30080384
0.33746845 -0.13912706 0.26968068
-0.59282964 -0.061770864 0.2633943
-0.55536848 -0.072978839 0.294386
-0.48778668 -0.081817389 0.30228841
0.35134101 -0.066568509 0.2758894
0.38994789 -0.036053445 0.25749058
-0.60322469 0.011887444 0.26906386
-0.56879175 -0.0025891252 0.30167896
0.36559775 -0.00027222373 0.28079319
0.39484882 0.019525615 0.2548081
-0.61203969 0.083112866 0.27529058
0.37189543 0.076631106 0.29637691
0.39946726 0.084340617 0.26189131
-0.62170655 0.15585047 0.27282137
0.3778007 0.15369558 0.30378616
0.40630847 0.15659033 0.26953661
-0.65825319 0.23292989 0.25612563
-0.63094026 0.23064077 0.27910513
0.41497323 0.22726038 0.27322826
-0.65834373 0.31091917 0.26606122
-0.63572639 0.29712629 0.28252611
0.42355636 0.30094242 0.27575383
-0.6636253 0.37719613 0.25967866
-0.63504469 0.37450802 0.2869761
-0.57247239 0.40030757 0.29234603
0.43232879 0.37675488 0.27857122
0.46417338 0.41430038 0.26034325
-0.6658836 0.44974062 0.26483104
-0.63510758 0.45668972 0.28722379
-0.57080579 0.43674996 0.30330092
-0.36115494 0.4839609 0.27935565
-0.32930562 0.48128948 0.27196023
0.43860593 0.45139319 0.28444242
0.46640047 0.44862649 0.24988167
-0.66886622 0.53160369 0.27696446
-0.62307012 0.52919239 0.2746748
0.44702521 0.52105814 0.2786797
0.46506125 0.53369278 0.26327094
-0.6704275 0.60037786 0.27359486
-0.62614477 0.60311818 0.28196993
0.44826239 0.60031539 0.29256949
0.468734 0.60572904 0.2656987
-0.67035902 0.66425395 0.27180302
-0.63067847 0.66698605 0.27815253
0.44310507 0.66216171 0.28361598
0.47295281 0.66374761 0.26605284
-0.15044323 -0.63319361 0.34079641
-0.093457557 -0.64447987 0.34843197
