ply
format ascii 1.0
comment PCL generated
element vertex 1323
property float x
property float y
property float z
element camera 0
property float view_px
property float view_py
property float view_pz
property float x_axisx
property float x_axisy
property float x_axisz
property float y_axisx
property float y_axisy
property float y_axisz
property float z_axisx
property float z_axisy
property float z_axisz
property float focal
property float scalex
property float scaley
property float centerx
property float centery
property int viewportx
property int viewporty
property float k1
property float k2
end_header
0.094817743 0.81012827 -0.17782629
0.071112521 -0.70028645 -0.16321373
0.071112521 -0.67624372 -0.16321373
0.071112521 -0.652201 -0.16321373
0.071112521 -0.62815827 -0.16321373
0.071112521 -0.60411572 -0.16321373
0.071112521 -0.580073 -0.16321373
0.071112521 -0.55603027 -0.16321373
0.071112521 -0.53198767 -0.16321373
0.071112521 -0.507945 -0.16321361
0.071112521 -0.48390228 -0.16321373
0.071112521 -0.45985955 -0.16321373
0.071112521 -0.43581682 -0.16321373
0.071112521 -0.41177416 -0.16321373
0.071112521 -0.38773155 -0.16321373
0.071112521 -0.36368877 -0.16321373
0.071112521 -0.33964616 -0.16321373
0.071112521 -0.31560349 -0.16321373
0.071112521 -0.29156074 -0.16321373
0.071112521 -0.26751804 -0.16321373
0.071112521 -0.24347533 -0.16321373
0.071112521 -0.21943271 -0.16321373
0.071112521 -0.19538997 -0.16321373
0.071112521 -0.17134725 -0.16321373
0.071112521 -0.14730467 -0.16321373
0.071112521 -0.12326194 -0.16321361
0.071112521 -0.09921921 -0.16321373
0.071112521 -0.075176537 -0.16321373
0.071112521 -0.051133804 -0.16321373
0.071112521 -0.027091227 -0.16321373
0.071112521 -0.0030485019 -0.16321373
0.071112521 0.020994231 -0.16321373
0.071112521 0.045036852 -0.16321373
0.071112521 0.069079578 -0.16321373
0.071112521 0.093122363 -0.16321373
0.071112521 0.11716488 -0.16321373
0.071112521 0.14120772 -0.16321373
0.071112521 0.16525041 -0.16321373
0.071112521 0.18929298 -0.16321373
0.071112521 0.21333571 -0.16321373
0.071112521 0.23737843 -0.16321373
0.071112521 0.26142097 -0.16321373
0.071112521 0.28546381 -0.16321373
0.071112521 0.30950654 -0.16321373
0.071112521 0.33354914 -0.16321373
0.071112521 0.35759181 -0.16321373
0.071112521 0.38163447 -0.16321361
0.071112521 0.4056772 -0.16321373
0.071112521 0.42971987 -0.16321373
0.071112521 0.45376259 -0.16321361
0.071112521 0.47780538 -0.16321373
0.071112521 0.50184792 -0.16321373
0.071112521 0.52589071 -0.16321373
0.071112521 0.54993343 -0.16321373
0.071112521 0.57397592 -0.16321373
0.071112521 0.59801871 -0.16321373
0.071112521 0.62206149 -0.16321373
0.071112521 0.64610404 -0.16321373
0.071112521 0.67014682 -0.16321373
0.071112521 0.69418949 -0.16321361
0.071112521 0.71823215 -0.16321373
0.071112521 0.74227482 -0.16321373
0.071112521 0.76631755 -0.16321361
0.071112521 0.79036021 -0.16321373
0.071112521 0.81440294 -0.16321373
0.071314283 -0.72695208 -0.15010881
0.047183514 -0.70312852 -0.1484462
0.11972718 -0.70359445 -0.14602458
0.047183514 -0.67897207 -0.14844632
0.11972718 -0.67941946 -0.1460247
0.047183514 -0.65481567 -0.1484462
0.11972718 -0.65524435 -0.14602482
0.047183514 -0.63065928 -0.14844632
0.11972718 -0.63106942 -0.1460247
0.047183514 -0.60650301 -0.1484462
0.11972718 -0.60689437 -0.14602482
0.047183514 -0.5823465 -0.14844644
0.11972718 -0.58271939 -0.1460247
0.047183514 -0.55819029 -0.1484462
0.11972769 -0.55854684 -0.1460079
0.047183514 -0.53403395 -0.1484462
0.11972769 -0.53437179 -0.1460079
0.047183514 -0.50987744 -0.1484462
0.11972769 -0.51019657 -0.1460079
0.047183514 -0.48572117 -0.1484462
0.11972769 -0.4860214 -0.1460079
0.047183514 -0.46156472 -0.1484462
0.11972769 -0.46184635 -0.1460079
0.047183514 -0.43740839 -0.1484462
0.11972769 -0.43767118 -0.1460079
0.047183514 -0.413252 -0.14844644
0.11972769 -0.41349596 -0.1460079
0.047183514 -0.38909566 -0.1484462
0.11972769 -0.38932097 -0.1460079
0.047183514 -0.36493933 -0.1484462
0.11972769 -0.3651458 -0.1460079
0.047183514 -0.34078294 -0.1484462
0.11972769 -0.34097064 -0.1460079
0.047183514 -0.31662664 -0.1484462
0.11972769 -0.31679547 -0.1460079
0.047183514 -0.2924701 -0.1484462
0.11972769 -0.29262033 -0.1460079
0.047183514 -0.26831388 -0.1484462
0.11972769 -0.26844513 -0.1460079
0.047183514 -0.24415742 -0.1484462
0.11972822 -0.24427085 -0.14599109
0.047183514 -0.22000107 -0.1484462
0.11972822 -0.2200956 -0.14599109
0.047183514 -0.19584462 -0.14844644
0.11972822 -0.19592035 -0.14599097
0.047183514 -0.17168838 -0.1484462
0.11972822 -0.17174505 -0.14599097
0.047183514 -0.14753202 -0.14844608
0.11972822 -0.14756975 -0.14599097
0.047183514 -0.12337556 -0.1484462
0.11972822 -0.1233945 -0.14599121
0.047183514 -0.099219315 -0.1484462
0.11972822 -0.099219263 -0.14599109
0.047183514 -0.075062804 -0.1484462
0.11972822 -0.075043917 -0.14599109
0.047183514 -0.050906505 -0.1484462
0.11972822 -0.050868668 -0.14599097
0.047183514 -0.026750103 -0.14844644
0.11972822 -0.026693523 -0.14599097
0.047183514 -0.0025937483 -0.1484462
0.11972822 -0.0025182292 -0.14599097
0.047183514 0.021562755 -0.14844632
0.11972822 0.021657072 -0.14599121
0.047183514 0.045719057 -0.1484462
0.11972822 0.045832425 -0.14599097
0.047183514 0.0698753 -0.1484462
0.11972874 0.070008397 -0.14597416
0.047183514 0.094031751 -0.1484462
0.11972874 0.094183892 -0.14597428
0.047183514 0.11818801 -0.1484462
0.11972874 0.11835925 -0.14597416
0.047183514 0.14234442 -0.1484462
0.11972874 0.1425347 -0.14597428
0.047183514 0.16650091 -0.14844608
0.11972874 0.16671006 -0.14597416
0.047183514 0.19065727 -0.14844632
0.11972874 0.19088556 -0.14597416
0.047183514 0.21481358 -0.1484462
0.11972874 0.2150609 -0.14597416
0.047183514 0.23896988 -0.1484462
0.11972874 0.23923637 -0.14597428
0.047183514 0.26312619 -0.1484462
0.11972874 0.2634117 -0.14597416
0.047183514 0.28728253 -0.1484462
0.11972874 0.28758723 -0.14597416
0.047183514 0.31143916 -0.1484462
0.11972874 0.31176251 -0.14597416
0.047183514 0.33559537 -0.14844608
0.11972874 0.33593804 -0.14597416
0.047183514 0.35975176 -0.1484462
0.11972874 0.36011314 -0.14597416
0.047183514 0.38390815 -0.1484462
0.11972874 0.38428867 -0.14597428
0.047183514 0.40806454 -0.14844632
0.11972925 0.40846682 -0.14595723
0.047183514 0.43222076 -0.1484462
0.11972925 0.43264228 -0.14595735
0.047183514 0.45637733 -0.14844596
0.11972925 0.45681798 -0.14595723
0.047183514 0.48053372 -0.1484462
0.11972925 0.48099333 -0.14595747
0.047183514 0.50468993 -0.14844608
0.11972925 0.50516909 -0.14595735
0.047183514 0.52884638 -0.1484462
0.11972925 0.5293445 -0.14595747
0.047183514 0.55300266 -0.1484462
0.11972925 0.55352002 -0.14595723
0.047183514 0.57715911 -0.14844632
0.11972925 0.57769555 -0.14595723
0.047183514 0.6013155 -0.1484462
0.11972925 0.60187101 -0.14595747
0.047183514 0.62547195 -0.1484462
0.11972925 0.6260466 -0.14595747
0.047183514 0.64962822 -0.1484462
0.11972925 0.65022212 -0.14595747
0.047183514 0.67378449 -0.14844608
0.11972925 0.67439777 -0.14595747
0.047183514 0.69794089 -0.1484462
0.11972925 0.69857305 -0.14595723
0.047183514 0.72209722 -0.1484462
0.11972925 0.72274876 -0.14595723
0.047183514 0.74625361 -0.14844632
0.11972925 0.74692422 -0.14595747
0.047183514 0.77041006 -0.1484462
0.11972925 0.77109987 -0.14595735
0.047183514 0.79456645 -0.1484462
0.11972925 0.79527533 -0.14595747
0.047183514 0.81872272 -0.1484462
0.11972925 0.81945091 -0.14595723
0.023027144 -0.70599425 -0.13355541
0.023027144 -0.68172306 -0.13355541
0.023027144 -0.65745211 -0.13355541
0.023027144 -0.6331811 -0.13355541
0.023027144 -0.60891014 -0.13355541
0.023027144 -0.58463913 -0.13355553
0.023027144 -0.56036812 -0.13355553
0.023027144 -0.53609711 -0.13355553
0.023027144 -0.5118261 -0.13355553
0.023027144 -0.48755521 -0.13355541
0.023027144 -0.46328419 -0.13355541
0.023027144 -0.43901318 -0.13355541
0.023027144 -0.41474223 -0.13355541
0.023027144 -0.39047122 -0.13355541
0.023027144 -0.36620021 -0.13355553
0.023027144 -0.3419292 -0.13355553
0.023027144 -0.31765819 -0.13355553
0.023027144 -0.29338717 -0.13355553
0.023027144 -0.26911622 -0.13355553
0.023027144 -0.2448453 -0.13355541
0.023027144 -0.22057429 -0.13355541
0.023027144 -0.19630332 -0.13355541
0.023027144 -0.1720323 -0.13355553
0.023027144 -0.14776124 -0.13355541
0.023027144 -0.12349017 -0.13355541
0.023027144 -0.099219158 -0.13355541
0.023027144 -0.074948192 -0.13355541
0.023027144 -0.05067718 -0.13355553
0.023027144 -0.026406169 -0.13355553
0.023027144 -0.0021353066 -0.13355541
0.023027144 0.0221356 -0.13355553
0.023027144 0.046406776 -0.13355541
0.023027144 0.070677683 -0.13355553
0.023027144 0.094948754 -0.13355541
0.023027144 0.11921982 -0.13355529
0.023027144 0.14349073 -0.13355553
0.023027144 0.16776185 -0.13355541
0.023027144 0.19203271 -0.13355553
0.023027144 0.21630387 -0.13355541
0.023027144 0.24057464 -0.13355541
0.023027144 0.26484573 -0.13355529
0.023027144 0.28911668 -0.13355541
0.023027144 0.31338781 -0.13355529
0.023027144 0.3376587 -0.13355541
0.023027144 0.36192971 -0.13355541
0.023027144 0.38620061 -0.13355553
0.023027144 0.4104718 -0.13355553
0.023027144 0.43474269 -0.13355553
0.023027144 0.45901382 -0.13355553
0.023027144 0.48328465 -0.13355541
0.023027144 0.50755566 -0.13355529
0.023027144 0.53182656 -0.13355541
0.023027144 0.55609769 -0.13355529
0.023027144 0.58036864 -0.13355553
0.023027144 0.60463977 -0.13355541
0.023027144 0.62891078 -0.13355529
0.023027144 0.65318167 -0.13355553
0.023027144 0.6774528 -0.13355553
0.023027144 0.70172375 -0.13355553
0.023027144 0.72599477 -0.13355529
0.023027144 0.75026566 -0.13355529
0.023027144 0.77453667 -0.13355529
0.023027144 0.79880756 -0.13355541
0.023027144 0.82307881 -0.13355529
0.047427185 -0.73362029 -0.11679196
-0.0013595764 -0.70888716 -0.11852264
-0.0013595764 -0.68450058 -0.11852264
-0.0013595764 -0.66011381 -0.11852264
-0.0013595764 -0.63572705 -0.11852264
-0.0013595764 -0.61134028 -0.11852288
-0.0013595764 -0.58695358 -0.11852276
-0.0013595764 -0.56256688 -0.11852264
-0.0013595764 -0.53818023 -0.11852276
-0.0013595764 -0.51379353 -0.11852264
-0.0013595764 -0.48940676 -0.11852264
-0.0013595764 -0.46502 -0.11852264
-0.0013595764 -0.44063336 -0.11852252
-0.0013595764 -0.41624653 -0.11852276
-0.0013595764 -0.39185983 -0.11852276
-0.0013595764 -0.36747319 -0.11852276
-0.0013595764 -0.34308642 -0.11852276
-0.0013595764 -0.31869969 -0.11852264
-0.0013595764 -0.29431307 -0.11852264
-0.0013595764 -0.26992637 -0.11852264
-0.0013595764 -0.24553958 -0.11852264
-0.0013595764 -0.22115275 -0.11852276
-0.0013595764 -0.19676608 -0.11852264
-0.0013595764 -0.17237937 -0.11852264
-0.0013595764 -0.1479926 -0.11852264
-0.0013595764 -0.12360598 -0.11852264
-0.0013595764 -0.099219263 -0.11852264
-0.0013595764 -0.074832544 -0.11852264
-0.0013595764 -0.050445877 -0.11852264
-0.0013595764 -0.026059002 -0.11852276
-0.0013595764 -0.0016722828 -0.11852276
-0.0013595764 0.022714332 -0.11852276
-0.0013595764 0.047101155 -0.11852264
-0.0013595764 0.071487769 -0.11852264
-0.0013595764 0.095874503 -0.11852264
-0.0013595764 0.12026131 -0.11852252
-0.0013595764 0.14464793 -0.11852264
-0.0013595764 0.16903464 -0.11852288
-0.0013595764 0.19342153 -0.11852264
-0.0013595764 0.21780814 -0.11852264
-0.0013595764 0.24219476 -0.11852264
-0.0013595764 0.26658165 -0.11852264
-0.0013595764 0.29096818 -0.11852264
-0.0013595764 0.31535488 -0.11852264
-0.0013595764 0.33974177 -0.11852252
-0.0013595764 0.36412835 -0.11852264
-0.0013595764 0.38851511 -0.11852288
-0.0013595764 0.41290188 -0.11852264
-0.0013595764 0.43728864 -0.11852264
-0.0013595764 0.46167529 -0.11852264
-0.0013595764 0.48606205 -0.11852264
-0.0013595764 0.51044875 -0.11852264
-0.0013595764 0.53483552 -0.11852252
-0.0013595764 0.55922222 -0.11852252
-0.0013595764 0.58360898 -0.11852276
-0.0013595764 0.60799575 -0.11852264
-0.0013595764 0.63238245 -0.11852264
-0.0013595764 0.65676898 -0.11852264
-0.0013595764 0.68115586 -0.11852264
-0.0013595764 0.7055425 -0.11852264
-0.0013595764 0.72992915 -0.11852264
-0.0013595764 0.75431597 -0.11852252
-0.0013595764 0.77870274 -0.11852264
-0.0013595764 0.80308944 -0.11852276
0.14559549 -0.76108837 -0.10203135
-0.025979958 -0.71180803 -0.10334575
0.14551896 -0.71167833 -0.10401988
-0.025979958 -0.68730438 -0.10334587
0.14551896 -0.68717986 -0.10402012
-0.025979958 -0.66280091 -0.10334587
0.14551896 -0.66268152 -0.10402
-0.025979958 -0.63829732 -0.10334587
0.14551896 -0.63818312 -0.10402012
-0.025979958 -0.61379385 -0.10334587
0.14551896 -0.61368477 -0.10402
-0.025979958 -0.5892902 -0.10334575
0.14551896 -0.58918643 -0.10402
-0.025979958 -0.56478673 -0.10334575
0.14551896 -0.56468809 -0.10402012
-0.025979958 -0.5402832 -0.10334575
0.14551896 -0.54018968 -0.10402
-0.025979958 -0.51577955 -0.10334587
0.14551896 -0.5156914 -0.10402
-0.025979958 -0.49127609 -0.10334587
0.14551896 -0.49119306 -0.10402012
-0.025979958 -0.46677244 -0.10334587
0.14551896 -0.46669465 -0.10402
-0.025979958 -0.44226891 -0.10334587
0.14551896 -0.44219631 -0.10402
-0.025979958 -0.41776538 -0.10334575
0.14551896 -0.41769797 -0.10402
-0.025979958 -0.39326185 -0.10334575
0.14551961 -0.39320123 -0.10400259
-0.025979958 -0.36875838 -0.10334587
0.14551961 -0.36870265 -0.10400283
-0.025979958 -0.34425467 -0.10334587
0.14551961 -0.34420425 -0.10400271
-0.025979958 -0.3197512 -0.10334587
0.14551961 -0.31970572 -0.10400259
-0.025979958 -0.29524761 -0.10334587
0.14551961 -0.29520714 -0.10400271
-0.025979958 -0.27074409 -0.10334587
0.14551961 -0.27070868 -0.10400259
-0.025979958 -0.24624062 -0.10334587
0.14551961 -0.24621017 -0.10400271
-0.025979958 -0.221737 -0.10334575
0.14551961 -0.22171165 -0.10400271
-0.025979958 -0.19723353 -0.10334563
0.14551961 -0.19721323 -0.10400271
-0.025979958 -0.17272982 -0.10334587
0.14551961 -0.17271471 -0.10400271
-0.025979958 -0.14822635 -0.10334587
0.14551961 -0.14821625 -0.10400259
-0.025979958 -0.12372283 -0.10334587
0.14551961 -0.12371778 -0.10400259
-0.025979958 -0.09921921 -0.10334587
0.14551961 -0.099219263 -0.10400271
-0.025979958 -0.074715748 -0.10334587
0.1455203 -0.074720591 -0.10398543
-0.025979958 -0.050212126 -0.10334575
0.1455203 -0.050221965 -0.10398543
-0.025979958 -0.02570866 -0.10334563
0.1455203 -0.025723442 -0.10398531
-0.025979958 -0.0012049377 -0.10334587
0.1455203 -0.0012247711 -0.10398543
-0.025979958 0.023298524 -0.10334587
0.1455203 0.02327396 -0.10398543
-0.025979958 0.047802046 -0.10334587
0.1455203 0.047772482 -0.10398555
-0.025979958 0.072305664 -0.10334587
0.1455203 0.072271153 -0.10398531
-0.025979958 0.096809238 -0.10334575
0.1455203 0.096769735 -0.10398543
-0.025979958 0.12131265 -0.10334575
0.1455203 0.12126841 -0.10398543
-0.025979958 0.14581621 -0.10334563
0.1455203 0.14576703 -0.10398531
-0.025979958 0.17031993 -0.10334587
0.1455203 0.17026566 -0.10398543
-0.025979958 0.1948234 -0.10334587
0.1455203 0.19476433 -0.10398543
-0.025979958 0.21932693 -0.10334587
0.1455203 0.21926279 -0.10398543
-0.025979958 0.24383058 -0.10334587
0.14552096 0.24376334 -0.10396814
-0.025979958 0.26833397 -0.10334587
0.14552096 0.26826209 -0.10396802
-0.025979958 0.29283756 -0.10334587
0.14552096 0.29276097 -0.10396791
-0.025979958 0.31734115 -0.10334563
0.14552096 0.31725967 -0.10396791
-0.025979958 0.34184486 -0.10334587
0.14552096 0.34175843 -0.10396791
-0.025979958 0.36634827 -0.10334587
0.14552096 0.36625731 -0.10396814
-0.025979958 0.39085186 -0.10334587
0.14552096 0.39075601 -0.10396814
-0.025979958 0.4153555 -0.10334575
0.14552096 0.41525477 -0.10396814
-0.025979958 0.43985885 -0.10334587
0.14552096 0.43975353 -0.10396814
-0.025979958 0.46436244 -0.10334575
0.14552096 0.46425229 -0.10396814
-0.025979958 0.48886603 -0.10334563
0.14552096 0.48875111 -0.10396814
-0.025979958 0.51336956 -0.10334599
0.14552096 0.51324987 -0.10396814
-0.025979958 0.53787315 -0.10334587
0.14552096 0.53774863 -0.10396814
-0.025979958 0.56237674 -0.10334587
0.14552096 0.56224734 -0.10396814
-0.025979958 0.58688033 -0.10334575
0.14552096 0.5867461 -0.10396814
-0.025979958 0.61138374 -0.10334587
0.14552096 0.61124486 -0.10396814
-0.025979958 0.63588732 -0.10334575
0.14552096 0.63574356 -0.10396814
-0.025979958 0.66039097 -0.10334563
0.14552096 0.6602422 -0.10396814
-0.025979958 0.68489444 -0.10334587
0.14552096 0.6847412 -0.10396802
-0.025979958 0.70939797 -0.10334587
0.14552096 0.7092399 -0.10396802
-0.025979958 0.73390162 -0.10334575
0.14552096 0.73373866 -0.10396802
-0.025979958 0.75840503 -0.10334587
0.14552096 0.75823742 -0.10396802
-0.025979958 0.78290856 -0.10334575
0.14552096 0.78273612 -0.10396791
-0.025979958 0.80741215 -0.10334575
0.14552096 0.80723476 -0.10396802
0.023027144 -0.7404353 -0.082742333
-0.050837785 -0.71476018 -0.088005304
-0.050837785 -0.69013864 -0.088005304
-0.050837785 -0.66551703 -0.088005543
-0.050837785 -0.64089531 -0.088005424
-0.050837785 -0.6162737 -0.088005304
-0.050837785 -0.59165198 -0.088005543
-0.050837785 -0.56703049 -0.088005424
-0.050837785 -0.54240882 -0.088005424
-0.050837785 -0.5177871 -0.088005424
-0.050837785 -0.49316555 -0.088005424
-0.050837785 -0.46854389 -0.088005304
-0.050837785 -0.44392216 -0.088005424
-0.050837785 -0.41930062 -0.088005424
-0.050837785 -0.39467895 -0.088005304
-0.050837785 -0.37005728 -0.088005424
-0.050837785 -0.34543562 -0.088005424
-0.050837785 -0.32081407 -0.088005424
-0.050837785 -0.29619241 -0.088005424
-0.050837785 -0.27157074 -0.088005424
-0.050837785 -0.24694915 -0.088005304
-0.050837785 -0.22232738 -0.088005424
-0.050837785 -0.19770584 -0.088005424
-0.050837785 -0.17308415 -0.088005304
-0.050837785 -0.14846249 -0.088005424
-0.050837785 -0.12384093 -0.088005304
-0.050837785 -0.099219263 -0.088005304
-0.050837785 -0.074597545 -0.088005424
-0.050837785 -0.049975928 -0.088005304
-0.050837785 -0.025354363 -0.088005304
-0.050837785 -0.00073264539 -0.088005424
-0.050837785 0.023888916 -0.088005424
-0.050837785 0.048510745 -0.088005424
-0.050837785 0.073132306 -0.088005304
-0.050837785 0.097753912 -0.088005304
-0.050837785 0.12237558 -0.088005543
-0.050837785 0.14699714 -0.088005424
-0.050837785 0.17161886 -0.088005304
-0.050837785 0.19624059 -0.088005424
-0.050837785 0.22086211 -0.088005424
-0.050837785 0.24548365 -0.088005424
-0.050837785 0.2701053 -0.088005424
-0.050837785 0.29472715 -0.088005304
-0.050837785 0.31934869 -0.088005304
-0.050837785 0.34397036 -0.088005424
-0.050837785 0.36859196 -0.088005424
-0.050837785 0.39321357 -0.088005304
-0.050837785 0.41783535 -0.088005424
-0.050837785 0.4424569 -0.088005424
-0.050837785 0.46707851 -0.088005304
-0.050837785 0.49170017 -0.088005424
-0.050837785 0.51632172 -0.088005424
-0.050837785 0.5409435 -0.088005304
-0.050837785 0.56556523 -0.088005424
-0.050837785 0.59018672 -0.088005304
-0.050837785 0.61480826 -0.088005304
-0.050837785 0.63942999 -0.088005424
-0.050837785 0.66405177 -0.088005304
-0.050837785 0.68867332 -0.088005304
-0.050837785 0.71329498 -0.088005424
-0.050837785 0.73791659 -0.088005304
-0.050837785 0.76253825 -0.088005424
-0.050837785 0.78715992 -0.088005304
-0.050837785 0.81178153 -0.088005304
0.12214013 -0.76823193 -0.067661881
-0.10127784 -0.72074419 -0.056912303
-0.075935818 -0.71773767 -0.072534084
0.1720092 -0.7199778 -0.060894132
-0.10127784 -0.6958831 -0.056912422
0.1720092 -0.69514745 -0.060894012
-0.075935818 -0.69299692 -0.072534084
-0.10127784 -0.67102218 -0.056912184
-0.075935818 -0.66825622 -0.072534084
0.1720092 -0.67031717 -0.060894251
-0.10127784 -0.6461612 -0.056912303
-0.075935818 -0.64351553 -0.072533965
0.1720092 -0.64548683 -0.060894132
-0.10127784 -0.6213001 -0.056912303
-0.075935818 -0.61877471 -0.072533965
0.1720092 -0.62065655 -0.060894132
-0.10127784 -0.59643912 -0.056912303
-0.075935818 -0.59403402 -0.072534084
0.1720092 -0.59582609 -0.060894251
-0.10127784 -0.57157826 -0.056912303
0.1720092 -0.57099587 -0.060894132
-0.075935818 -0.56929332 -0.072533965
-0.10127784 -0.54671717 -0.056912303
-0.075935818 -0.54455262 -0.072534084
0.17201003 -0.54616791 -0.060876489
-0.10127784 -0.52185619 -0.056912303
-0.075935818 -0.51981187 -0.072534084
0.17201003 -0.52133751 -0.060876369
-0.10127784 -0.49699521 -0.056912422
-0.075935818 -0.49507111 -0.072533846
0.17201003 -0.49650693 -0.060876489
-0.10127784 -0.47213417 -0.056912184
-0.075935818 -0.4703303 -0.072534204
0.17201003 -0.47167641 -0.060876489
-0.10127784 -0.44727325 -0.056912184
-0.075935818 -0.44558954 -0.072534084
0.17201003 -0.44684607 -0.06087625
-0.10127784 -0.42241222 -0.056912303
-0.075935818 -0.42084879 -0.072534084
0.17201003 -0.42201549 -0.060876369
-0.10127784 -0.39755118 -0.056912303
0.17201003 -0.39718503 -0.060876369
-0.075935818 -0.39610809 -0.072534084
-0.10127784 -0.37269026 -0.056912184
-0.075935818 -0.37136734 -0.072534084
0.17201003 -0.37235451 -0.060876489
-0.10127784 -0.34782928 -0.056912184
-0.075935818 -0.34662658 -0.072534084
0.17201003 -0.34752411 -0.06087625
-0.10127784 -0.32296818 -0.056912184
-0.075935818 -0.32188594 -0.072534084
0.17201003 -0.32269359 -0.060876369
-0.10127784 -0.29810721 -0.056912303
-0.075935818 -0.29714519 -0.072534084
0.17201003 -0.2978631 -0.060876369
-0.10127784 -0.27324632 -0.056912184
-0.075935818 -0.27240437 -0.072533846
0.17201003 -0.27303267 -0.06087625
-0.10127784 -0.24838524 -0.056912184
-0.075935818 -0.24766374 -0.072533965
0.17201003 -0.24820217 -0.060876369
-0.10127784 -0.22352424 -0.056912303
-0.075935818 -0.22292298 -0.072533965
0.17201003 -0.22337164 -0.060876489
-0.10127784 -0.1986632 -0.056912422
-0.075935818 -0.19818223 -0.072534204
0.17201084 -0.19854167 -0.060858607
-0.10127784 -0.17380217 -0.056912422
-0.075935818 -0.17344141 -0.072534084
0.17201084 -0.17371103 -0.060858607
-0.10127784 -0.14894128 -0.056912184
-0.075935818 -0.14870067 -0.072534084
0.17201084 -0.1488805 -0.060858607
-0.10127784 -0.1240802 -0.056912184
-0.075935818 -0.12395997 -0.072534084
0.17201084 -0.12404985 -0.060858607
-0.10127784 -0.09921921 -0.056912303
-0.075935818 -0.09921921 -0.072534084
0.17201084 -0.09921921 -0.060858488
-0.10127784 -0.074358225 -0.056912303
-0.075935818 -0.074478507 -0.072534084
0.17201084 -0.074388571 -0.060858488
-0.10127784 -0.049497239 -0.056912065
-0.075935818 -0.049737755 -0.072533965
0.17201084 -0.04955798 -0.060858488
-0.10127784 -0.024636254 -0.056912184
-0.075935818 -0.024997003 -0.072533965
0.17201084 -0.024727441 -0.060858607
-0.10127784 0.00022478402 -0.056912422
-0.075935818 -0.00025624782 -0.072533846
0.17201084 0.00010319799 -0.060858607
-0.10127784 0.025085725 -0.056912422
-0.075935818 0.024484508 -0.072533846
0.17201084 0.024933949 -0.060858488
-0.10127784 0.049946651 -0.056912184
-0.075935818 0.049225047 -0.072534084
0.17201084 0.049764544 -0.060858488
-0.10127784 0.074807793 -0.056912184
-0.075935818 0.073965967 -0.072534084
0.17201084 0.074595124 -0.060858488
-0.10127784 0.099668846 -0.056912184
-0.075935818 0.098706722 -0.072534084
0.17201084 0.099425763 -0.060858488
-0.10127784 0.12452976 -0.056912422
-0.075935818 0.12344748 -0.072534084
0.17201167 0.12425765 -0.060840845
-0.10127784 0.14939065 -0.056912184
-0.075935818 0.14818822 -0.072534084
0.17201167 0.14908825 -0.060840845
-0.10127784 0.17425163 -0.056912184
-0.075935818 0.17292903 -0.072534084
0.17201167 0.17391916 -0.060840845
-0.075935818 0.19766958 -0.072534084
-0.10127784 0.19911258 -0.056912303
0.17201167 0.1987498 -0.060840845
-0.10127784 0.22397383 -0.056912184
-0.075935818 0.22241034 -0.072534084
0.17201167 0.22358055 -0.060840607
-0.10127784 0.24883471 -0.056912184
-0.075935818 0.24715115 -0.072533965
0.17201167 0.24841143 -0.060840845
-0.10127784 0.27369577 -0.056912184
-0.075935818 0.27189189 -0.072533965
0.17201167 0.27324206 -0.060840845
-0.10127784 0.29855663 -0.056912303
-0.075935818 0.29663271 -0.072533965
0.17201167 0.29807293 -0.060840845
-0.10127784 0.32341766 -0.056912422
-0.075935818 0.32137316 -0.072533846
0.17201167 0.32290351 -0.060840845
-0.10127784 0.34827864 -0.056912422
-0.075935818 0.3461141 -0.072534084
0.17201167 0.34773427 -0.060840726
-0.075935818 0.37085479 -0.072534084
-0.10127784 0.3731398 -0.056912184
0.17201167 0.37256521 -0.060840845
-0.10127784 0.39800066 -0.056912184
-0.075935818 0.39559567 -0.072534084
0.17201167 0.39739579 -0.060840845
-0.10127784 0.42286175 -0.056912303
-0.075935818 0.42033637 -0.072534084
0.17201167 0.42222655 -0.060840607
-0.10127784 0.44772273 -0.056912422
-0.075935818 0.44507718 -0.072533965
0.17201167 0.44705725 -0.060840845
-0.10127784 0.47258365 -0.056912184
-0.075935818 0.4698177 -0.072534084
0.17201167 0.47188812 -0.060840845
-0.075935818 0.49455851 -0.072534084
-0.10127784 0.49744463 -0.056912184
0.17201167 0.49671894 -0.060840845
-0.10127784 0.52230579 -0.056912184
-0.075935818 0.51929921 -0.072533965
0.17201167 0.52154958 -0.060840845
-0.075935818 0.54404002 -0.072533846
0.17201167 0.5463804 -0.060840607
-0.10127784 0.54716676 -0.056912303
-0.10127784 0.57202768 -0.056912184
-0.075935818 0.56878072 -0.072533846
0.17201167 0.57121116 -0.060840845
-0.10127784 0.59688866 -0.056912184
-0.075935818 0.59352136 -0.072533965
0.17201167 0.59604186 -0.060840845
-0.10127784 0.62174964 -0.056912303
-0.075935818 0.61826229 -0.072534084
0.17201167 0.6208728 -0.060840845
-0.10127784 0.64661062 -0.056912422
-0.075935818 0.64300299 -0.072534084
0.17201167 0.64570338 -0.060840845
-0.075935818 0.6677438 -0.072534084
-0.10127784 0.67147171 -0.056912184
0.17201167 0.67053413 -0.060840607
-0.10127784 0.69633275 -0.056912184
-0.075935818 0.6924845 -0.072533965
0.17201167 0.69536489 -0.060840845
-0.10127784 0.72119367 -0.056912184
-0.075935818 0.71722525 -0.072533965
0.17201167 0.72019571 -0.060840726
-0.10127784 0.74605465 -0.056912303
-0.075935818 0.74196589 -0.072534084
0.17201167 0.74502653 -0.060840845
-0.10127784 0.77091551 -0.056912184
-0.075935818 0.76670665 -0.072534084
0.17201167 0.76985717 -0.060840845
-0.075935818 0.7914474 -0.072533965
-0.10127784 0.79577655 -0.056912303
0.17201167 0.79468793 -0.060840607
-0.10127784 0.8206377 -0.056912184
-0.075935818 0.81618816 -0.072533846
0.17201167 0.8195188 -0.060840726
-0.0019028205 -0.74739826 -0.047953129
-0.12686744 -0.69879746 -0.041138053
-0.12686744 -0.67381501 -0.041137934
-0.12686744 -0.64883274 -0.041137815
-0.12686744 -0.62385017 -0.041137934
-0.12686744 -0.59886777 -0.041137815
-0.12686744 -0.57388538 -0.041137934
-0.12686744 -0.54890293 -0.041137934
-0.12686744 -0.52392054 -0.041137934
-0.12686744 -0.49893808 -0.041137934
-0.12686744 -0.47395569 -0.041137934
-0.12686744 -0.44897312 -0.041137934
-0.12686744 -0.42399079 -0.041137934
-0.12686744 -0.39900833 -0.041137815
-0.12686744 -0.37402594 -0.041137934
-0.12686744 -0.34904352 -0.041137934
-0.12686744 -0.32406101 -0.041137934
-0.12686744 -0.2990787 -0.041137934
-0.12686744 -0.27409628 -0.041137815
-0.12686744 -0.24911375 -0.041137934
-0.12686744 -0.22413139 -0.041137815
-0.12686744 -0.19914886 -0.041138053
-0.12686744 -0.17416646 -0.041137815
-0.12686744 -0.14918414 -0.041137815
-0.12686744 -0.12420163 -0.041137934
-0.12686744 -0.099219315 -0.041137934
-0.12686744 -0.074236795 -0.041137934
-0.12686744 -0.049254432 -0.041137934
-0.12686744 -0.024271965 -0.041137695
-0.12686744 0.00071050227 -0.041137934
-0.12686744 0.025692821 -0.041137934
-0.12686744 0.050675437 -0.041137934
-0.12686744 0.075657755 -0.041137934
-0.12686744 0.10064006 -0.041137934
-0.12686744 0.12562269 -0.041137934
-0.12686744 0.15060501 -0.041137934
-0.12686744 0.17558752 -0.041137934
-0.12686744 0.20057003 -0.041137934
-0.12686744 0.22555231 -0.041137695
-0.12686744 0.25053477 -0.041137934
-0.12686744 0.27551711 -0.041137934
-0.12686744 0.30049968 -0.041137934
-0.12686744 0.32548207 -0.041137934
-0.12686744 0.35046434 -0.041137934
-0.12686744 0.37544698 -0.041137934
-0.12686744 0.40042925 -0.041137934
-0.12686744 0.42541176 -0.041138053
-0.12686744 0.45039421 -0.041137934
-0.12686744 0.47537661 -0.041137815
-0.12686744 0.50035906 -0.041137934
-0.12686744 0.52534151 -0.041137815
-0.12686744 0.55032396 -0.041137934
-0.12686744 0.57530624 -0.041137934
-0.12686744 0.60028881 -0.041137695
-0.12686744 0.6252712 -0.041137934
-0.12686744 0.65025353 -0.041137934
-0.12686744 0.67523611 -0.041137934
-0.12686744 0.7002185 -0.041137934
-0.12686744 0.72520083 -0.041137815
-0.12686744 0.7501834 -0.041137934
-0.12686744 0.77516586 -0.041137815
-0.12686744 0.80014813 -0.041137934
-0.12686744 0.82513058 -0.041137934
0.098172933 -0.77553129 -0.032542586
-0.12746748 -0.72628027 -0.028146148
-0.15270919 -0.70174378 -0.025190592
-0.15270919 -0.67663854 -0.025190592
-0.15270919 -0.65153342 -0.025190592
-0.15270919 -0.62642819 -0.025190592
-0.15270919 -0.60132301 -0.025190592
-0.15270919 -0.57621789 -0.025190592
-0.15270919 -0.55111265 -0.025190592
-0.15270919 -0.52600741 -0.025190592
-0.15270919 -0.5009023 -0.025190473
-0.15270919 -0.47579706 -0.025190592
-0.15270919 -0.45069194 -0.025190592
-0.15270919 -0.4255867 -0.025190592
-0.15270919 -0.40048152 -0.025190592
-0.15270919 -0.37537634 -0.025190592
-0.15270919 -0.35027111 -0.025190592
-0.15270919 -0.32516599 -0.025190592
-0.15270919 -0.30006075 -0.025190592
-0.15270919 -0.27495554 -0.025190592
-0.15270919 -0.24985041 -0.025190473
-0.15270919 -0.22474515 -0.025190592
-0.15270919 -0.19964007 -0.025190592
-0.15270919 -0.17453475 -0.025190592
-0.15270919 -0.1494296 -0.025190592
-0.15270919 -0.12432446 -0.025190592
-0.15270919 -0.099219158 -0.025190592
-0.15270919 -0.07411401 -0.025190473
-0.15270919 -0.049008708 -0.025190592
-0.15270919 -0.023903564 -0.025190473
-0.15270919 0.0012013763 -0.025190592
-0.15270919 0.026306674 -0.025190592
-0.15270919 0.051411822 -0.025190592
-0.15270919 0.07651706 -0.025190592
-0.15270919 0.10162227 -0.025190592
-0.15270919 0.12672742 -0.025190592
-0.15270919 0.15183271 -0.025190592
-0.15270919 0.17693792 -0.025190473
-0.15270919 0.20204301 -0.025190473
-0.15270919 0.22714831 -0.025190473
-0.15270919 0.25225353 -0.025190473
-0.15270919 0.27735859 -0.025190592
-0.15270919 0.30246371 -0.025190592
-0.15270919 0.32756889 -0.025190473
-0.15270919 0.35267419 -0.025190592
-0.15270919 0.37777942 -0.025190592
-0.15270919 0.4028846 -0.025190592
-0.15270919 0.42798978 -0.025190592
-0.15270919 0.45309496 -0.025190473
-0.15270919 0.47820014 -0.025190592
-0.15270919 0.50330538 -0.025190473
-0.15270919 0.52841067 -0.025190592
-0.15270919 0.55351567 -0.025190592
-0.15270919 0.57862073 -0.025190473
-0.15270919 0.60372603 -0.025190592
-0.15270919 0.62883127 -0.025190473
-0.15270919 0.65393656 -0.025190592
-0.15270919 0.67904162 -0.025190592
-0.15270919 0.70414686 -0.025190473
-0.15270919 0.72925216 -0.025190592
-0.15270919 0.75435722 -0.025190473
-0.15270919 0.77946258 -0.025190473
-0.15270919 0.80456769 -0.025190473
0.19923517 -0.80405134 -0.016437292
-0.027380161 -0.75451416 -0.012399793
-0.17880505 -0.70471579 -0.0091040134
0.19922829 -0.70333731 -0.016565084
-0.17880505 -0.67948675 -0.0091040134
0.19922829 -0.67816579 -0.016565084
-0.17880505 -0.65425783 -0.0091040134
0.19922829 -0.65299416 -0.016565084
-0.17880505 -0.6290288 -0.0091040134
0.19922829 -0.62782264 -0.016565084
-0.17880505 -0.6037997 -0.0091040134
0.19922829 -0.60265106 -0.016565084
-0.17880505 -0.57857066 -0.0091040134
0.19922829 -0.57747942 -0.016565084
-0.17880505 -0.55334175 -0.0091040134
0.19922829 -0.5523079 -0.016565084
-0.17880505 -0.52811265 -0.0091040134
0.19922829 -0.52713627 -0.016565084
-0.17880505 -0.50288361 -0.0091040134
0.19922829 -0.50196475 -0.016564965
-0.17880505 -0.47765458 -0.0091040134
0.19922829 -0.47679311 -0.016564965
-0.17880505 -0.4524256 -0.0091040134
0.19922829 -0.45162153 -0.016564965
-0.17880505 -0.42719662 -0.0091040134
0.19922829 -0.42644995 -0.016565084
-0.17880505 -0.40196759 -0.0091038942
0.19922829 -0.40127826 -0.016565084
-0.17880505 -0.37673855 -0.0091038942
0.19922829 -0.37610668 -0.016565084
-0.17880505 -0.35150951 -0.0091040134
0.19922924 -0.35093653 -0.016546845
-0.17880505 -0.32628042 -0.0091040134
0.19922924 -0.32576478 -0.016546845
-0.17880505 -0.30105138 -0.0091040134
0.19922924 -0.30059314 -0.016546845
-0.17880505 -0.27582237 -0.0091040134
0.19922924 -0.27542132 -0.016546965
-0.17880505 -0.25059339 -0.0091040134
0.19922924 -0.25024971 -0.016546845
-0.17880505 -0.22536437 -0.0091040134
0.19922924 -0.22507785 -0.016546845
-0.17880505 -0.20013535 -0.0091040134
0.19922924 -0.19990614 -0.016546845
-0.17880505 -0.17490633 -0.0091040134
0.19922924 -0.17473441 -0.016546845
-0.17880505 -0.14967741 -0.0091040134
0.19922924 -0.1495627 -0.016546845
-0.17880505 -0.12444828 -0.0091040134
0.19922924 -0.12439103 -0.016546845
0.19922924 -0.09921921 -0.016546965
-0.17880505 -0.099219158 -0.0091040134
-0.17880505 -0.073990136 -0.0091040134
0.19922924 -0.074047543 -0.016546845
-0.17880505 -0.048761219 -0.0091040134
0.19922924 -0.048875827 -0.016546965
-0.17880505 -0.023532197 -0.0091040134
0.19922924 -0.023704112 -0.016546845
-0.17880505 0.0016968772 -0.0091040134
0.19923022 0.001468122 -0.016528487
-0.17880505 0.026925907 -0.0091040134
0.19923022 0.026640102 -0.016528487
-0.17880505 0.052154928 -0.0091038942
0.19923022 0.051811978 -0.016528487
-0.17880505 0.077383995 -0.0091038942
0.19923022 0.076983795 -0.016528726
-0.17880505 0.10261285 -0.0091040134
0.19923022 0.10215582 -0.016528726
0.19923022 0.12732755 -0.016528487
-0.17880505 0.12784199 -0.0091040134
-0.17880505 0.153071 -0.0091040134
0.19923022 0.15249936 -0.016528606
-0.17880505 0.1783001 -0.0091040134
0.19923022 0.17767139 -0.016528487
-0.17880505 0.20352904 -0.0091040134
0.19923022 0.20284317 -0.016528726
-0.17880505 0.22875814 -0.0091038942
0.19923022 0.2280152 -0.016528487
-0.17880505 0.25398713 -0.0091040134
0.19923022 0.25318694 -0.016528487
-0.17880505 0.27921623 -0.0091040134
0.19923022 0.27835876 -0.016528606
-0.17880505 0.30444509 -0.0091040134
0.19923022 0.30353081 -0.016528487
-0.17880505 0.32967407 -0.0091040134
0.19923022 0.32870263 -0.016528726
0.19923022 0.35387439 -0.016528487
-0.17880505 0.35490316 -0.0091038942
-0.17880505 0.3801322 -0.0091040134
0.19923022 0.37904638 -0.016528487
-0.17880505 0.40536129 -0.0091040134
0.19923022 0.4042182 -0.016528606
-0.17880505 0.43059039 -0.0091040134
0.19923022 0.42939007 -0.016528726
-0.17880505 0.45581943 -0.0091040134
0.19923022 0.45456195 -0.016528487
-0.17880505 0.48104846 -0.0091040134
0.19923022 0.47973371 -0.016528487
-0.17880505 0.50627732 -0.0091040134
0.19923022 0.50490564 -0.016528726
-0.17880505 0.5315063 -0.0091040134
0.19923022 0.53007764 -0.016528606
-0.17880505 0.5567354 -0.0091040134
0.19923022 0.55524939 -0.016528726
0.19923022 0.58042115 -0.016528487
-0.17880505 0.58196437 -0.0091038942
-0.17880505 0.60719353 -0.0091040134
0.19923022 0.6055932 -0.016528487
-0.17880505 0.63242257 -0.0091040134
0.19923022 0.63076496 -0.016528726
-0.17880505 0.6576516 -0.0091040134
0.19923022 0.65593684 -0.016528726
-0.17880505 0.6828807 -0.0091040134
0.19923022 0.68110877 -0.016528487
-0.17880505 0.7081095 -0.0091040134
0.19923022 0.70628065 -0.016528487
-0.17880505 0.73333853 -0.0091040134
0.19923022 0.73145258 -0.016528487
-0.17880505 0.75856763 -0.0091040134
0.19923022 0.7566244 -0.016528487
-0.17880505 0.78379667 -0.0091040134
0.19923022 0.78179634 -0.016528726
0.19923022 0.80696815 -0.016528487
-0.17880505 0.80902565 -0.0091038942
0.073676959 -0.78299189 0.0033516884
-0.15448937 -0.73320681 0.007845521
-0.20515963 -0.70771736 0.0071419477
-0.20515963 -0.68236321 0.0071419477
-0.20515963 -0.65700907 0.0071419477
-0.20515963 -0.6316551 0.0071419477
-0.20515963 -0.60630095 0.0071419477
-0.20515963 -0.5809468 0.0071419477
-0.20515963 -0.55559289 0.007142067
-0.20515963 -0.53023881 0.0071419477
-0.20515963 -0.50488466 0.007142067
-0.20515963 -0.47953057 0.007142067
-0.20515963 -0.45417655 0.0071419477
-0.20515963 -0.4288224 0.0071419477
-0.20515963 -0.40346831 0.007142067
-0.20515963 -0.37811416 0.0071419477
-0.20515963 -0.35276014 0.0071419477
-0.20515963 -0.32740602 0.0071419477
-0.20515963 -0.30205187 0.0071419477
-0.20515963 -0.27669787 0.0071421862
-0.20515963 -0.25134385 0.0071419477
-0.20515963 -0.22598968 0.0071419477
-0.20515963 -0.20063558 0.007142067
-0.20515963 -0.17528155 0.0071419477
-0.20515963 -0.14992745 0.0071419477
-0.20515963 -0.12457331 0.0071419477
-0.20515963 -0.099219158 0.007142067
-0.20515963 -0.073865063 0.007142067
-0.20515963 -0.048511125 0.0071418285
-0.20515963 -0.023156978 0.0071418285
-0.20515963 0.0021970123 0.007142067
-0.20515963 0.027551159 0.0071421862
-0.20515963 0.052905262 0.0071421862
-0.20515963 0.078259349 0.0071419477
-0.20515963 0.10361348 0.0071419477
-0.20515963 0.1289676 0.007142067
-0.20515963 0.1543216 0.0071419477
-0.20515963 0.17967574 0.0071419477
-0.20515963 0.20502983 0.0071419477
-0.20515963 0.23038398 0.0071419477
-0.20515963 0.25573814 0.0071419477
-0.20515963 0.28109199 0.0071421862
-0.20515963 0.30644614 0.0071421862
-0.20515963 0.33180016 0.007142067
-0.20515963 0.35715431 0.007142067
-0.20515963 0.38250846 0.007142067
-0.20515963 0.40786242 0.0071419477
-0.20515963 0.43321657 0.0071419477
-0.20515963 0.45857072 0.0071419477
-0.20515963 0.48392487 0.0071419477
-0.20515963 0.50927877 0.0071419477
-0.20515963 0.53463292 0.0071419477
-0.20515963 0.55998689 0.0071421862
-0.20515963 0.58534104 0.007142067
-0.20515963 0.61069518 0.0071421862
-0.20515963 0.63604933 0.0071421862
-0.20515963 0.66140348 0.0071421862
-0.20515963 0.68675733 0.0071419477
-0.20515963 0.71211147 0.0071419477
-0.20515963 0.73746562 0.0071419477
-0.20515963 0.76281971 0.0071419477
-0.20515963 0.78817391 0.0071419477
-0.20515963 0.81352806 0.0071419477
0.17571029 -0.81174058 0.019236803
-0.053423114 -0.76178807 0.02394259
-0.23177677 -0.71074861 0.023549914
0.22720474 -0.711752 0.028980494
-0.23177677 -0.68526828 0.023549914
0.22720474 -0.68622988 0.028980494
-0.23177677 -0.65978789 0.023549795
0.22720474 -0.66070753 0.028980494
-0.23177677 -0.6343075 0.023549914
0.22720474 -0.63518542 0.028980494
-0.23177677 -0.60882711 0.023549795
0.22720474 -0.60966331 0.028980613
-0.23177677 -0.58334678 0.023550034
0.22720474 -0.58414102 0.028980494
-0.23177677 -0.55786639 0.023550034
0.22720474 -0.5586189 0.028980494
-0.23177677 -0.53238595 0.023549914
0.22720474 -0.53309661 0.028980494
-0.23177677 -0.50690556 0.023549914
0.2272059 -0.5075767 0.028999329
-0.23177677 -0.48142511 0.023549914
0.2272059 -0.48205453 0.028999448
-0.23177677 -0.45594472 0.023549795
0.2272059 -0.45653206 0.028999448
-0.23177677 -0.43046433 0.023549795
0.2272059 -0.43100971 0.028999329
-0.23177677 -0.40498406 0.023549914
0.2272059 -0.40548736 0.028999329
-0.23177677 -0.37950361 0.023550034
0.2272059 -0.37996501 0.028999329
-0.23177677 -0.35402322 0.023550034
0.2272059 -0.35444272 0.028999448
-0.23177677 -0.32854283 0.023549914
0.2272059 -0.32892036 0.028999329
-0.23177677 -0.30306235 0.023549914
0.2272059 -0.30339801 0.028999329
-0.23177677 -0.27758199 0.023549914
0.2272059 -0.27787563 0.028999329
-0.23177677 -0.2521016 0.023549795
0.2272059 -0.25235325 0.028999329
-0.23177677 -0.2266213 0.023550034
0.2272059 -0.226831 0.028999329
-0.23177677 -0.20114088 0.023549914
0.2272059 -0.20130858 0.028999329
-0.23177677 -0.17566046 0.023549914
0.2272059 -0.17578626 0.028999329
-0.23177677 -0.15018 0.023550034
0.22720706 -0.15026431 0.029018044
-0.23177677 -0.12469963 0.023549914
0.22720706 -0.12474179 0.029018164
0.22720706 -0.09921921 0.029018044
-0.23177677 -0.099219158 0.023549914
-0.23177677 -0.073738791 0.023549795
0.22720706 -0.073696688 0.029018044
-0.23177677 -0.048258428 0.023550034
0.22720706 -0.048174214 0.029018044
-0.23177677 -0.022778012 0.023550034
0.22720706 -0.022651739 0.029018164
-0.23177677 0.0027023554 0.023550034
0.22720706 0.0028707311 0.029018283
-0.23177677 0.028182819 0.023550034
0.22720706 0.028393209 0.029018283
-0.23177677 0.05366303 0.023549914
0.22720706 0.053915828 0.029018164
-0.23177677 0.079143509 0.023549795
0.22720706 0.07943815 0.029018044
-0.23177677 0.10462387 0.023549795
0.22720706 0.10496058 0.029018044
-0.23177677 0.13010423 0.023550034
0.22720706 0.13048309 0.029018044
-0.23177677 0.15558459 0.023550034
0.22720706 0.15600558 0.029018164
-0.23177677 0.18106507 0.023550034
0.22720706 0.18152811 0.029018283
-0.23177677 0.20654549 0.023549914
0.22720706 0.20705067 0.029018044
-0.23177677 0.23202597 0.023549914
0.22720706 0.23257308 0.029018044
-0.23177677 0.25750625 0.023549795
0.22720706 0.25809568 0.029018044
-0.23177677 0.28298676 0.023549914
0.22720706 0.28361809 0.029018044
-0.23177677 0.30846715 0.023549914
0.22720706 0.30914068 0.029018164
-0.23177677 0.33394748 0.023550034
0.22720706 0.33466309 0.029018283
-0.23177677 0.35942793 0.023550034
0.22720706 0.36018562 0.029018283
-0.23177677 0.38490838 0.023550034
0.22720706 0.38570821 0.029018164
-0.23177677 0.41038871 0.023550034
0.22720706 0.4112305 0.029018044
-0.23177677 0.43586892 0.023549795
0.22720706 0.43675297 0.029018044
-0.23177677 0.46134943 0.023549795
0.22720706 0.46227551 0.029018044
-0.23177677 0.48682982 0.023549795
0.22720706 0.48779792 0.029018164
-0.23177677 0.51231021 0.023550034
0.22720706 0.51332039 0.029018283
-0.23177677 0.5377906 0.023550034
0.22720706 0.53884304 0.029018044
-0.23177677 0.56327099 0.023549914
0.22720706 0.56436551 0.029018044
-0.23177677 0.58875138 0.023550034
0.22720706 0.58988804 0.029018044
-0.23177677 0.61423188 0.023549914
0.22720706 0.61541045 0.029018164
-0.23177677 0.63971227 0.023549914
0.22720706 0.64093304 0.029018164
-0.23177677 0.66519278 0.023549914
0.22720706 0.66645545 0.029018283
-0.23177677 0.69067293 0.023550034
0.22720706 0.69197792 0.029018283
-0.23177677 0.71615338 0.023550034
0.22720706 0.71750057 0.029018044
-0.23177677 0.74163383 0.023550034
0.22720706 0.74302298 0.029018283
-0.23177677 0.76711428 0.023550034
0.22720706 0.76854533 0.029018044
-0.23177677 0.79259473 0.023550034
0.22720706 0.79406774 0.029018164
-0.23177677 0.81807494 0.023549795
0.22720706 0.81959027 0.029018164
0.048634529 -0.79061878 0.040046573
-0.1821149 -0.74028808 0.044641376
-0.2586621 -0.71381402 0.040140986
-0.2586621 -0.68820572 0.040140986
-0.2586621 -0.66259772 0.040140986
-0.2586621 -0.63698953 0.040140986
-0.2586621 -0.61138153 0.040140986
-0.2586621 -0.58577341 0.040140986
-0.2586621 -0.56016535 0.040140986
-0.2586621 -0.53455716 0.040140986
-0.2586621 -0.5089491 0.040140986
-0.2586621 -0.48334086 0.040140986
-0.2586621 -0.45773286 0.040140986
-0.2586621 -0.43212473 0.040140986
-0.2586621 -0.40651661 0.040140867
-0.2586621 -0.38090849 0.040140986
-0.2586621 -0.35530043 0.040140986
-0.2586621 -0.32969224 0.040140986
-0.2586621 -0.30408418 0.040140986
-0.2586621 -0.278476 0.040140986
-0.2586621 -0.25286788 0.040140986
-0.2586621 -0.22725989 0.040140986
-0.2586621 -0.20165163 0.040140986
-0.2586621 -0.1760436 0.040140986
-0.2586621 -0.15043551 0.040141106
-0.2586621 -0.12482736 0.040140986
-0.2586621 -0.099219315 0.040140986
-0.2586621 -0.073611118 0.040140867
-0.2586621 -0.048003025 0.040140986
-0.2586621 -0.022394933 0.040140986
-0.2586621 0.0032133162 0.040140986
-0.2586621 0.02882126 0.040140986
-0.2586621 0.054429352 0.040140986
-0.2586621 0.080037579 0.040140986
-0.2586621 0.10564575 0.040140986
-0.2586621 0.13125378 0.040140986
-0.2586621 0.15686183 0.040140986
-0.2586621 0.18246998 0.040140986
-0.2586621 0.20807816 0.040140986
-0.2586621 0.23368631 0.040140986
-0.2586621 0.25929427 0.040140986
-0.2586621 0.28490245 0.040140986
-0.2586621 0.31051058 0.040140986
-0.2586621 0.33611882 0.040140986
-0.2586621 0.3617267 0.040140986
-0.2586621 0.38733488 0.040140986
-0.2586621 0.41294312 0.040140986
-0.2586621 0.43855125 0.040140986
-0.2586621 0.46415913 0.040140986
-0.2586621 0.48976743 0.040140986
-0.2586621 0.51537549 0.040140986
-0.2586621 0.54098374 0.040140986
-0.2586621 0.5665918 0.040140986
-0.2586621 0.5921998 0.040140986
-0.2586621 0.61780804 0.040140986
-0.2586621 0.64341605 0.040140986
-0.2586621 0.66902417 0.040141106
-0.2586621 0.69463217 0.040140986
-0.2586621 0.72024035 0.040140986
-0.2586621 0.74584854 0.040140986
-0.2586621 0.77145666 0.040140986
-0.2586621 0.79706454 0.040140986
-0.2586621 0.82267284 0.040140986
0.15168926 -0.81972706 0.056289077
-0.080050707 -0.76922536 0.061100841
-0.28581652 -0.71690655 0.056880236
-0.28581652 -0.69116962 0.056880236
-0.28581652 -0.66543257 0.056879997
-0.28581652 -0.63969564 0.056880355
-0.28581652 -0.61395866 0.056880355
-0.28581652 -0.58822173 0.056880116
-0.28581652 -0.56248462 0.056880116
-0.28581652 -0.53674769 0.056880116
-0.28581652 -0.51101077 0.056880236
-0.28581652 -0.48527384 0.056880236
-0.28581652 -0.45953685 0.056880236
-0.28581652 -0.43379986 0.056880116
-0.28581652 -0.40806293 0.056880355
-0.28581652 -0.38232595 0.056880116
-0.28581652 -0.3565889 0.056880116
-0.28581652 -0.33085194 0.056880116
-0.28581652 -0.30511504 0.056880236
-0.28581652 -0.27937812 0.056880236
-0.28581652 -0.25364107 0.056880236
-0.28581652 -0.22790414 0.056880116
-0.28581652 -0.20216718 0.056880355
-0.28581652 -0.17643011 0.056880236
-0.28581652 -0.15069319 0.056880116
-0.28581652 -0.12495618 0.056880236
-0.28581652 -0.09921921 0.056880116
-0.28581652 -0.073482402 0.056880236
-0.28581652 -0.04774528 0.056880355
-0.28581652 -0.022008263 0.056880116
-0.28581652 0.0037286505 0.056880116
-0.28581652 0.029465511 0.056880355
-0.28581652 0.055202633 0.056880236
-0.28581652 0.080939591 0.056880116
-0.28581652 0.1066765 0.056880116
-0.28581652 0.13241333 0.056880236
-0.28581652 0.15815054 0.056880355
-0.28581652 0.1838875 0.056880116
-0.28581652 0.20962436 0.056880116
-0.28581652 0.23536144 0.056880355
-0.28581652 0.26109838 0.056880236
-0.28581652 0.28683525 0.056880236
-0.28581652 0.3125723 0.056880116
-0.28581652 0.33830947 0.056880116
-0.28581652 0.36404622 0.056880355
-0.28581652 0.3897832 0.056880355
-0.28581652 0.41552013 0.056880116
-0.28581652 0.44125724 0.056880116
-0.28581652 0.46699411 0.056880236
-0.28581652 0.49273109 0.056880236
-0.28581652 0.51846808 0.056880116
-0.28581652 0.54420513 0.056880116
-0.28581652 0.569942 0.056880355
-0.28581652 0.59567899 0.056880236
-0.28581652 0.62141585 0.056880116
-0.28581652 0.64715302 0.056880116
-0.28581652 0.67289001 0.056880116
-0.28581652 0.69862676 0.056880236
-0.28581652 0.72436392 0.056880355
-0.28581652 0.75010091 0.056880116
-0.28581652 0.77583778 0.056880116
-0.28581652 0.80157459 0.056880236
0.22969875 -0.90007174 0.069478393
0.22969994 -0.87424225 0.069497466
0.22969994 -0.8484081 0.069497466
0.22997013 -0.82351959 0.073884845
0.25597695 -0.82395196 0.075890183
0.023027144 -0.79841775 0.077569485
-0.21036455 -0.74752945 0.082268357
-0.31324556 -0.72003049 0.073788643
0.25597158 -0.72040439 0.075812936
-0.31324556 -0.69416332 0.073788643
0.25597158 -0.69452167 0.075812936
-0.31324556 -0.6682961 0.073788762
0.25597158 -0.66863894 0.075812936
-0.31324556 -0.64242893 0.073788643
0.25597292 -0.64275938 0.075832129
-0.31324556 -0.61656195 0.073788643
0.25597292 -0.61687648 0.075832248
-0.31324556 -0.59069473 0.073788524
0.25597292 -0.59099364 0.075832248
-0.31324556 -0.56482768 0.073788643
0.25597292 -0.56511086 0.075832248
-0.31324556 -0.5389604 0.073788643
0.25597292 -0.53922802 0.075832248
-0.31324556 -0.51309335 0.073788643
0.25597292 -0.513345 0.075832129
-0.31324556 -0.48722625 0.073788643
0.25597292 -0.4874621 0.075832248
-0.31324556 -0.46135908 0.073788643
0.25597292 -0.46157938 0.075832129
-0.31324556 -0.43549204 0.073788643
0.25597292 -0.43569654 0.075832248
-0.31324556 -0.40962481 0.073788643
0.25597292 -0.40981358 0.075832248
-0.31324556 -0.38375771 0.073788762
0.25597292 -0.38393086 0.075832248
-0.31324556 -0.35789049 0.073788643
0.25597292 -0.35804784 0.075832129
-0.31324556 -0.33202341 0.073788643
0.25597292 -0.332165 0.075832248
-0.31324556 -0.30615628 0.073788524
0.25597426 -0.30628335 0.07585156
-0.31324556 -0.28028917 0.073788643
0.25597426 -0.28040034 0.07585156
-0.31324556 -0.2544221 0.073788762
0.25597426 -0.25451738 0.07585156
-0.31324556 -0.22855486 0.073788643
0.25597426 -0.22863428 0.07585144
-0.31324556 -0.20268777 0.073788643
0.25597426 -0.20275131 0.07585156
-0.31324556 -0.17682058 0.073788643
0.25597426 -0.17686826 0.07585156
-0.31324556 -0.15095353 0.073788643
0.25597426 -0.15098529 0.07585156
-0.31324556 -0.12508635 0.073788643
0.25597426 -0.12510222 0.07585156
-0.31324556 -0.099219263 0.073788643
0.25597426 -0.099219367 0.07585156
-0.31324556 -0.073352069 0.073788643
