ply
format ascii 1.0
comment PCL generated
element vertex 1345
property float x
property float y
property float z
element camera 0
property float view_px
property float view_py
property float view_pz
property float x_axisx
property float x_axisy
property float x_axisz
property float y_axisx
property float y_axisy
property float y_axisz
property float z_axisx
property float z_axisy
property float z_axisz
property float focal
property float scalex
property float scaley
property float centerx
property float centery
property int viewportx
property int viewporty
property float k1
property float k2
end_header
0.20264533 -0.50536823 -0.30637717
0.22327647 -0.50536823 -0.30637717
0.2439076 -0.50536823 -0.30637717
0.26453871 -0.50536823 -0.30637717
-0.25129083 -0.44358131 -0.30586517
-0.23065573 -0.44358131 -0.30586517
-0.21002069 -0.44358131 -0.30586517
-0.18938559 -0.44358131 -0.30586517
-0.16875052 -0.44358131 -0.30586517
-0.14811546 -0.44358131 -0.30586517
-0.12748036 -0.44358131 -0.30586517
-0.1068453 -0.44358131 -0.30586517
-0.086210229 -0.44358131 -0.30586517
-0.065575153 -0.44358131 -0.30586517
-0.044940077 -0.44358131 -0.30586517
-0.024305005 -0.44358131 -0.30586517
-0.0036699306 -0.44358131 -0.30586517
0.016965143 -0.44358131 -0.30586517
0.037600219 -0.44358131 -0.30586517
0.058235291 -0.44358131 -0.30586517
0.078870364 -0.44358131 -0.30586517
0.099505439 -0.44358131 -0.30586517
0.12014052 -0.44358131 -0.30586517
0.14077559 -0.44358131 -0.30586517
0.16141066 -0.44358131 -0.30586517
0.18204573 -0.44358131 -0.30586517
0.20268083 -0.44358131 -0.30586517
0.22331589 -0.44358131 -0.30586517
0.24395096 -0.44358131 -0.30586517
0.26458603 -0.44358131 -0.30586517
-0.25242347 -0.42521146 -0.29454696
-0.23170128 -0.42521146 -0.29454696
-0.21097907 -0.42521146 -0.29454696
-0.19025689 -0.42521146 -0.29454696
-0.16953468 -0.42521146 -0.29454696
-0.14881247 -0.42521146 -0.29454696
-0.12809026 -0.42521146 -0.29454696
-0.10736807 -0.42521146 -0.29454696
-0.086645871 -0.42521146 -0.29454696
-0.065923661 -0.42521146 -0.29454696
-0.045201465 -0.42521146 -0.29454696
-0.024479259 -0.42521146 -0.29454696
-0.0037570577 -0.42521146 -0.29454696
0.016965143 -0.42521146 -0.29454696
0.037687346 -0.42521146 -0.29454696
0.058409546 -0.42521146 -0.29454696
0.079131752 -0.42521146 -0.29454696
0.099853948 -0.42521146 -0.29454696
0.12057616 -0.42521146 -0.29454696
0.14129835 -0.42521146 -0.29454696
0.16202056 -0.42521146 -0.29454696
0.18274274 -0.42521146 -0.29454696
0.20346496 -0.42521146 -0.29454696
0.22418717 -0.42521146 -0.29454696
0.24490938 -0.42521146 -0.29454696
0.26563159 -0.42521146 -0.29454696
-0.25356707 -0.40668848 -0.28311968
-0.23275688 -0.40668848 -0.28311968
-0.21194673 -0.40668848 -0.28311968
-0.19113657 -0.40668848 -0.28311968
-0.17032638 -0.40668848 -0.28311968
-0.14951622 -0.40668848 -0.28311968
-0.12870604 -0.40668848 -0.28311968
-0.10789587 -0.40668848 -0.28311968
-0.087085702 -0.40668848 -0.28311968
-0.066275537 -0.40668848 -0.28311968
-0.045465361 -0.40668848 -0.28311968
-0.024655197 -0.40668848 -0.28311968
-0.0038450267 -0.40668848 -0.28311968
0.016965143 -0.40668848 -0.28311968
0.037775315 -0.40668848 -0.28311968
0.058585484 -0.40668848 -0.28311968
0.079395652 -0.40668848 -0.28311968
0.10020582 -0.40668848 -0.28311968
0.12101599 -0.40668848 -0.28311968
0.14182615 -0.40668848 -0.28311968
0.16263634 -0.40668848 -0.28311968
0.1834465 -0.40668848 -0.28311968
0.20425665 -0.40668848 -0.28311968
0.22506684 -0.40668848 -0.28311968
0.245877 -0.40668848 -0.28311968
0.26668715 -0.40668848 -0.28311968
-0.25471905 -0.38800517 -0.27160811
-0.23382026 -0.38800517 -0.27160811
-0.21292147 -0.38800517 -0.27160811
-0.19202271 -0.38800517 -0.27160811
-0.17112392 -0.38800517 -0.27160811
-0.15022513 -0.38800517 -0.27160811
-0.12932634 -0.38800517 -0.27160811
-0.10842756 -0.38800517 -0.27160811
-0.08752878 -0.38800517 -0.27160811
-0.066629998 -0.38800517 -0.27160811
-0.045731209 -0.38800517 -0.27160811
-0.024832428 -0.38800517 -0.27160811
-0.0039336421 -0.38800517 -0.27160811
0.016965143 -0.38800517 -0.27160811
0.037863929 -0.38800517 -0.27160811
0.058762714 -0.38800517 -0.27160811
0.079661496 -0.38800517 -0.27160811
0.10056029 -0.38800517 -0.27160811
0.12145907 -0.38800517 -0.27160811
0.14235786 -0.38800517 -0.27160811
0.16325665 -0.38800517 -0.27160811
0.18415543 -0.38800517 -0.27160811
0.20505419 -0.38800517 -0.27160811
0.22595298 -0.38800517 -0.27160811
0.24685177 -0.38800517 -0.27160811
-0.25673482 -0.53910345 -0.25146544
-0.235681 -0.53910345 -0.25146544
-0.21462715 -0.53910345 -0.25146544
-0.1935733 -0.53910345 -0.25146544
-0.17251945 -0.53910345 -0.25146544
-0.15146559 -0.53910345 -0.25146544
-0.13041177 -0.53910345 -0.25146544
-0.10935793 -0.53910345 -0.25146544
-0.088304073 -0.53910345 -0.25146544
-0.067250229 -0.53910345 -0.25146544
-0.046196394 -0.53910345 -0.25146544
-0.025142543 -0.53910345 -0.25146544
-0.0040886998 -0.53910345 -0.25146544
0.016965143 -0.53910345 -0.25146544
0.038018987 -0.53910345 -0.25146544
0.05907283 -0.53910345 -0.25146544
0.08012668 -0.53910345 -0.25146544
0.10118052 -0.53910345 -0.25146544
0.12223436 -0.53910345 -0.25146544
0.14328822 -0.53910345 -0.25146544
0.16434205 -0.53910345 -0.25146544
0.18539587 -0.53910345 -0.25146544
0.20644975 -0.53910345 -0.25146544
0.22750357 -0.53910345 -0.25146544
0.24855742 -0.53910345 -0.25146544
-0.25588223 -0.36916432 -0.25998485
-0.23489398 -0.36916432 -0.25998485
-0.21390572 -0.36916432 -0.25998485
-0.19291747 -0.36916432 -0.25998485
-0.17192921 -0.36916432 -0.25998485
-0.15094092 -0.36916432 -0.25998485
-0.12995267 -0.36916432 -0.25998485
-0.10896442 -0.36916432 -0.25998485
-0.087976158 -0.36916432 -0.25998485
-0.066987894 -0.36916432 -0.25998485
-0.045999639 -0.36916432 -0.25998485
-0.025011376 -0.36916432 -0.25998485
-0.0040231142 -0.36916432 -0.25998485
0.016965143 -0.36916432 -0.25998485
0.037953399 -0.36916432 -0.25998485
0.058941662 -0.36916432 -0.25998485
0.079929926 -0.36916432 -0.25998485
0.10091818 -0.36916432 -0.25998485
0.12190644 -0.36916432 -0.25998485
0.14289472 -0.36916432 -0.25998485
0.16388297 -0.36916432 -0.25998485
0.18487123 -0.36916432 -0.25998485
0.20585948 -0.36916432 -0.25998485
0.22684774 -0.36916432 -0.25998485
0.24783599 -0.36916432 -0.25998485
-0.25705543 -0.35016134 -0.24826181
-0.2359769 -0.35016134 -0.24826181
-0.21489841 -0.35016134 -0.24826181
-0.19381991 -0.35016134 -0.24826181
-0.17274141 -0.35016134 -0.24826181
-0.15166292 -0.35016134 -0.24826181
-0.13058439 -0.35016134 -0.24826181
-0.10950588 -0.35016134 -0.24826181
-0.08842738 -0.35016134 -0.24826181
-0.067348883 -0.35016134 -0.24826181
-0.04627037 -0.35016134 -0.24826181
-0.02519187 -0.35016134 -0.24826181
-0.0041133631 -0.35016134 -0.24826181
0.016965143 -0.35016134 -0.24826181
0.038043648 -0.35016134 -0.24826181
0.059122156 -0.35016134 -0.24826181
0.080200657 -0.35016134 -0.24826181
0.10127917 -0.35016134 -0.24826181
0.12235767 -0.35016134 -0.24826181
0.14343616 -0.35016134 -0.24826181
0.16451469 -0.35016134 -0.24826181
0.18559319 -0.35016134 -0.24826181
0.20667168 -0.35016134 -0.24826181
0.22775018 -0.35016134 -0.24826181
0.24882871 -0.35016134 -0.24826181
-0.25823739 -0.33099225 -0.23645067
-0.23706797 -0.33099225 -0.23645067
-0.21589854 -0.33099225 -0.23645067
-0.19472912 -0.33099225 -0.23645067
-0.1735597 -0.33099225 -0.23645067
-0.15239027 -0.33099225 -0.23645067
-0.13122085 -0.33099225 -0.23645067
-0.11005142 -0.33099225 -0.23645067
-0.088881984 -0.33099225 -0.23645067
-0.06771256 -0.33099225 -0.23645067
-0.046543136 -0.33099225 -0.23645067
-0.025373708 -0.33099225 -0.23645067
-0.0042042825 -0.33099225 -0.23645067
0.016965143 -0.33099225 -0.23645067
0.038134567 -0.33099225 -0.23645067
0.059303995 -0.33099225 -0.23645067
0.080473423 -0.33099225 -0.23645067
0.10164285 -0.33099225 -0.23645067
0.12281227 -0.33099225 -0.23645067
0.1439817 -0.33099225 -0.23645067
0.16515112 -0.33099225 -0.23645067
0.18632054 -0.33099225 -0.23645067
0.20748997 -0.33099225 -0.23645067
0.22865939 -0.33099225 -0.23645067
0.24982885 -0.33099225 -0.23645067
-0.25943097 -0.31165907 -0.2245239
-0.23816973 -0.31165907 -0.2245239
-0.21690848 -0.31165907 -0.2245239
-0.19564724 -0.31165907 -0.2245239
-0.17438599 -0.31165907 -0.2245239
-0.15312478 -0.31165907 -0.2245239
-0.13186353 -0.31165907 -0.2245239
-0.1106023 -0.31165907 -0.2245239
-0.089341052 -0.31165907 -0.2245239
-0.068079814 -0.31165907 -0.2245239
-0.046818577 -0.31165907 -0.2245239
-0.025557335 -0.31165907 -0.2245239
-0.004296096 -0.31165907 -0.2245239
0.016965143 -0.31165907 -0.2245239
0.038226381 -0.31165907 -0.2245239
0.059487622 -0.31165907 -0.2245239
0.080748864 -0.31165907 -0.2245239
0.1020101 -0.31165907 -0.2245239
0.12327134 -0.31165907 -0.2245239
0.14453259 -0.31165907 -0.2245239
0.16579381 -0.31165907 -0.2245239
0.18705505 -0.31165907 -0.2245239
0.2083163 -0.31165907 -0.2245239
0.22957754 -0.31165907 -0.2245239
0.25083879 -0.31165907 -0.2245239
-0.26063356 -0.2921555 -0.21250689
-0.23927981 -0.2921555 -0.21250689
-0.21792608 -0.2921555 -0.21250689
-0.19657233 -0.2921555 -0.21250689
-0.17521858 -0.2921555 -0.21250689
-0.15386483 -0.2921555 -0.21250689
-0.13251108 -0.2921555 -0.21250689
-0.11115734 -0.2921555 -0.21250689
-0.089803591 -0.2921555 -0.21250689
-0.06844984 -0.2921555 -0.21250689
-0.047096096 -0.2921555 -0.21250689
-0.025742348 -0.2921555 -0.21250689
-0.0043886025 -0.2921555 -0.21250689
0.016965143 -0.2921555 -0.21250689
0.038318887 -0.2921555 -0.21250689
0.059672635 -0.2921555 -0.21250689
0.081026383 -0.2921555 -0.21250689
0.10238013 -0.2921555 -0.21250689
0.12373388 -0.2921555 -0.21250689
0.14508763 -0.2921555 -0.21250689
0.16644138 -0.2921555 -0.21250689
0.1877951 -0.2921555 -0.21250689
0.20914885 -0.2921555 -0.21250689
0.23050261 -0.2921555 -0.21250689
0.25185636 -0.2921555 -0.21250689
-0.26246136 -0.57425338 -0.19424212
-0.24096704 -0.57425338 -0.19424212
-0.21947268 -0.57425338 -0.19424212
-0.19797835 -0.57425338 -0.19424212
-0.17648399 -0.57425338 -0.19424212
-0.15498963 -0.57425338 -0.19424212
-0.1334953 -0.57425338 -0.19424212
-0.11200095 -0.57425338 -0.19424212
-0.090506598 -0.57425338 -0.19424212
-0.069012247 -0.57425338 -0.19424212
-0.047517903 -0.57425338 -0.19424212
-0.026023552 -0.57425338 -0.19424212
-0.0045292042 -0.57425338 -0.19424212
0.016965143 -0.57425338 -0.19424212
0.038459491 -0.57425338 -0.19424212
0.059953839 -0.57425338 -0.19424212
0.08144819 -0.57425338 -0.19424212
0.10294253 -0.57425338 -0.19424212
0.12443689 -0.57425338 -0.19424212
0.14593124 -0.57425338 -0.19424212
0.16742557 -0.57425338 -0.19424212
0.18891993 -0.57425338 -0.19424212
0.21041426 -0.57425338 -0.19424212
0.23190862 -0.57425338 -0.19424212
0.25340298 -0.57425338 -0.19424212
-0.26184803 -0.27248335 -0.20037079
-0.24040088 -0.27248335 -0.20037079
-0.2189537 -0.27248335 -0.20037079
-0.19750655 -0.27248335 -0.20037079
-0.17605937 -0.27248335 -0.20037079
-0.15461221 -0.27248335 -0.20037079
-0.13316503 -0.27248335 -0.20037079
-0.11171787 -0.27248335 -0.20037079
-0.090270706 -0.27248335 -0.20037079
-0.068823531 -0.27248335 -0.20037079
-0.047376364 -0.27248335 -0.20037079
-0.025929194 -0.27248335 -0.20037079
-0.0044820253 -0.27248335 -0.20037079
0.016965143 -0.27248335 -0.20037079
0.03841231 -0.27248335 -0.20037079
0.059859481 -0.27248335 -0.20037079
0.081306651 -0.27248335 -0.20037079
0.10275382 -0.27248335 -0.20037079
0.12420099 -0.27248335 -0.20037079
0.14564815 -0.27248335 -0.20037079
0.16709533 -0.27248335 -0.20037079
0.18854252 -0.27248335 -0.20037079
0.20998967 -0.27248335 -0.20037079
0.23143685 -0.27248335 -0.20037079
0.252884 -0.27248335 -0.20037079
-0.26307324 -0.25263822 -0.18812835
-0.24153179 -0.25263822 -0.18812835
-0.2199904 -0.25263822 -0.18812835
-0.19844899 -0.25263822 -0.18812835
-0.1769076 -0.25263822 -0.18812835
-0.15536615 -0.25263822 -0.18812835
-0.13382474 -0.25263822 -0.18812835
-0.11228333 -0.25263822 -0.18812835
-0.090741917 -0.25263822 -0.18812835
-0.069200508 -0.25263822 -0.18812835
-0.047659092 -0.25263822 -0.18812835
-0.026117682 -0.25263822 -0.18812835
-0.0045762695 -0.25263822 -0.18812835
0.016965143 -0.25263822 -0.18812835
0.038506556 -0.25263822 -0.18812835
0.060047969 -0.25263822 -0.18812835
0.081589378 -0.25263822 -0.18812835
0.1031308 -0.25263822 -0.18812835
0.1246722 -0.25263822 -0.18812835
0.14621362 -0.25263822 -0.18812835
0.16775504 -0.25263822 -0.18812835
0.18929645 -0.25263822 -0.18812835
0.21083787 -0.25263822 -0.18812835
0.23237926 -0.25263822 -0.18812835
0.25392067 -0.25263822 -0.18812835
-0.26430777 -0.23261636 -0.17579174
-0.24267143 -0.23261636 -0.17579174
-0.22103503 -0.23261636 -0.17579174
-0.19939867 -0.23261636 -0.17579174
-0.17776227 -0.23261636 -0.17579174
-0.1561259 -0.23261636 -0.17579174
-0.13448951 -0.23261636 -0.17579174
-0.11285315 -0.23261636 -0.17579174
-0.091216758 -0.23261636 -0.17579174
-0.069580376 -0.23261636 -0.17579174
-0.047944002 -0.23261636 -0.17579174
-0.026307616 -0.23261636 -0.17579174
-0.0046712365 -0.23261636 -0.17579174
0.016965143 -0.23261636 -0.17579174
0.038601525 -0.23261636 -0.17579174
0.060237903 -0.23261636 -0.17579174
0.081874289 -0.23261636 -0.17579174
0.10351066 -0.23261636 -0.17579174
0.12514704 -0.23261636 -0.17579174
0.14678344 -0.23261636 -0.17579174
0.16841981 -0.23261636 -0.17579174
0.19005617 -0.23261636 -0.17579174
0.21169257 -0.23261636 -0.17579174
0.23332894 -0.23261636 -0.17579174
0.25496534 -0.23261636 -0.17579174
-0.2438224 -0.21241874 -0.16333187
-0.22209013 -0.21241874 -0.16333187
-0.20035782 -0.21241874 -0.16333187
-0.17862552 -0.21241874 -0.16333187
-0.15689322 -0.21241874 -0.16333187
-0.13516092 -0.21241874 -0.16333187
-0.11342863 -0.21241874 -0.16333187
-0.091696344 -0.21241874 -0.16333187
-0.069964044 -0.21241874 -0.16333187
-0.048231743 -0.21241874 -0.16333187
-0.02649945 -0.21241874 -0.16333187
-0.0047671553 -0.21241874 -0.16333187
0.016965143 -0.21241874 -0.16333187
0.038697444 -0.21241874 -0.16333187
0.060429737 -0.21241874 -0.16333187
0.08216203 -0.21241874 -0.16333187
0.10389433 -0.21241874 -0.16333187
0.12562662 -0.21241874 -0.16333187
0.14735892 -0.21241874 -0.16333187
0.16909122 -0.21241874 -0.16333187
0.19082353 -0.21241874 -0.16333187
0.21255583 -0.21241874 -0.16333187
0.23428813 -0.21241874 -0.16333187
0.25602043 -0.21241874 -0.16333187
-0.24498236 -0.1920397 -0.15077507
-0.22315338 -0.1920397 -0.15077507
-0.20132443 -0.1920397 -0.15077507
-0.17949548 -0.1920397 -0.15077507
-0.15766653 -0.1920397 -0.15077507
-0.13583755 -0.1920397 -0.15077507
-0.11400861 -0.1920397 -0.15077507
-0.092179649 -0.1920397 -0.15077507
-0.070350692 -0.1920397 -0.15077507
-0.048521735 -0.1920397 -0.15077507
-0.026692774 -0.1920397 -0.15077507
-0.0048638154 -0.1920397 -0.15077507
0.016965143 -0.1920397 -0.15077507
0.0387941 -0.1920397 -0.15077507
0.060623061 -0.1920397 -0.15077507
0.082452022 -0.1920397 -0.15077507
0.10428098 -0.1920397 -0.15077507
0.12610993 -0.1920397 -0.15077507
0.14793891 -0.1920397 -0.15077507
0.16976786 -0.1920397 -0.15077507
0.19159681 -0.1920397 -0.15077507
0.21342576 -0.1920397 -0.15077507
0.23525473 -0.1920397 -0.15077507
0.25708368 -0.1920397 -0.15077507
-0.24647766 -0.61090207 -0.13458776
-0.22452411 -0.61090207 -0.13458776
-0.20257053 -0.61090207 -0.13458776
-0.18061697 -0.61090207 -0.13458776
-0.15866339 -0.61090207 -0.13458776
-0.13670984 -0.61090207 -0.13458776
-0.11475626 -0.61090207 -0.13458776
-0.092802696 -0.61090207 -0.13458776
-0.070849128 -0.61090207 -0.13458776
-0.04889556 -0.61090207 -0.13458776
-0.026941992 -0.61090207 -0.13458776
-0.0049884245 -0.61090207 -0.13458776
0.016965143 -0.61090207 -0.13458776
0.038918711 -0.61090207 -0.13458776
0.060872279 -0.61090207 -0.13458776
0.082825847 -0.61090207 -0.13458776
0.10477941 -0.61090207 -0.13458776
0.12673298 -0.61090207 -0.13458776
0.14868656 -0.61090207 -0.13458776
0.17064011 -0.61090207 -0.13458776
0.19259366 -0.61090207 -0.13458776
0.21454725 -0.61090207 -0.13458776
0.23650083 -0.61090207 -0.13458776
0.25845438 -0.61090207 -0.13458776
-0.24615401 -0.17148006 -0.13809156
-0.2242274 -0.17148006 -0.13809156
-0.20230079 -0.17148006 -0.13809156
-0.18037421 -0.17148006 -0.13809156
-0.15844762 -0.17148006 -0.13809156
-0.13652101 -0.17148006 -0.13809156
-0.11459444 -0.17148006 -0.13809156
-0.092667826 -0.17148006 -0.13809156
-0.070741236 -0.17148006 -0.13809156
-0.048814647 -0.17148006 -0.13809156
-0.026888046 -0.17148006 -0.13809156
-0.0049614515 -0.17148006 -0.13809156
0.016965143 -0.17148006 -0.13809156
0.03889174 -0.17148006 -0.13809156
0.060818333 -0.17148006 -0.13809156
0.082744934 -0.17148006 -0.13809156
0.10467152 -0.17148006 -0.13809156
0.12659812 -0.17148006 -0.13809156
0.14852473 -0.17148006 -0.13809156
0.17045131 -0.17148006 -0.13809156
0.1923779 -0.17148006 -0.13809156
0.21430451 -0.17148006 -0.13809156
0.23623109 -0.17148006 -0.13809156
0.25815767 -0.17148006 -0.13809156
-0.24733615 -0.15073556 -0.12529445
-0.22531107 -0.15073556 -0.12529445
-0.20328593 -0.15073556 -0.12529445
-0.18126082 -0.15073556 -0.12529445
-0.15923572 -0.15073556 -0.12529445
-0.13721061 -0.15073556 -0.12529445
-0.11518551 -0.15073556 -0.12529445
-0.093160391 -0.15073556 -0.12529445
-0.07113529 -0.15073556 -0.12529445
-0.049110182 -0.15073556 -0.12529445
-0.027085073 -0.15073556 -0.12529445
-0.005059965 -0.15073556 -0.12529445
0.016965143 -0.15073556 -0.12529445
0.038990252 -0.15073556 -0.12529445
0.06101536 -0.15073556 -0.12529445
0.083040468 -0.15073556 -0.12529445
0.10506558 -0.15073556 -0.12529445
0.12709068 -0.15073556 -0.12529445
0.1491158 -0.15073556 -0.12529445
0.17114091 -0.15073556 -0.12529445
0.19316602 -0.15073556 -0.12529445
0.21519113 -0.15073556 -0.12529445
0.2372162 -0.15073556 -0.12529445
0.25924134 -0.15073556 -0.12529445
-0.24852762 -0.12980273 -0.11239636
-0.22640324 -0.12980273 -0.11239636
-0.20427883 -0.12980273 -0.11239636
-0.18215445 -0.12980273 -0.11239636
-0.16003004 -0.12980273 -0.11239636
-0.13790566 -0.12980273 -0.11239636
-0.11578124 -0.12980273 -0.11239636
-0.093656845 -0.12980273 -0.11239636
-0.071532451 -0.12980273 -0.11239636
-0.049408048 -0.12980273 -0.11239636
-0.027283654 -0.12980273 -0.11239636
-0.0051592551 -0.12980273 -0.11239636
0.016965143 -0.12980273 -0.11239636
0.039089542 -0.12980273 -0.11239636
0.06121394 -0.12980273 -0.11239636
0.083338335 -0.12980273 -0.11239636
0.10546274 -0.12980273 -0.11239636
0.12758714 -0.12980273 -0.11239636
0.14971152 -0.12980273 -0.11239636
0.17183593 -0.12980273 -0.11239636
0.19396034 -0.12980273 -0.11239636
0.21608472 -0.12980273 -0.11239636
0.23820913 -0.12980273 -0.11239636
0.26033354 -0.12980273 -0.11239636
-0.24973124 -0.1086813 -0.099366665
-0.22750658 -0.1086813 -0.099366665
-0.20528188 -0.1086813 -0.099366665
-0.18305716 -0.1086813 -0.099366665
-0.16083246 -0.1086813 -0.099366665
-0.13860777 -0.1086813 -0.099366665
-0.11638305 -0.1086813 -0.099366665
-0.094158366 -0.1086813 -0.099366665
-0.071933657 -0.1086813 -0.099366665
-0.049708955 -0.1086813 -0.099366665
-0.027484257 -0.1086813 -0.099366665
-0.0052595567 -0.1086813 -0.099366665
0.016965143 -0.1086813 -0.099366665
0.039189845 -0.1086813 -0.099366665
0.061414544 -0.1086813 -0.099366665
0.083639242 -0.1086813 -0.099366665
0.10586394 -0.1086813 -0.099366665
0.12808865 -0.1086813 -0.099366665
0.15031335 -0.1086813 -0.099366665
0.17253804 -0.1086813 -0.099366665
0.19476274 -0.1086813 -0.099366665
0.21698746 -0.1086813 -0.099366665
0.23921216 -0.1086813 -0.099366665
0.26143685 -0.1086813 -0.099366665
-0.25094447 -0.087366484 -0.086233139
-0.22861868 -0.087366484 -0.086233139
-0.2062929 -0.087366484 -0.086233139
-0.18396708 -0.087366484 -0.086233139
-0.1616413 -0.087366484 -0.086233139
-0.13931546 -0.087366484 -0.086233139
-0.11698966 -0.087366484 -0.086233139
-0.094663873 -0.087366484 -0.086233139
-0.072338067 -0.087366484 -0.086233139
-0.050012261 -0.087366484 -0.086233139
-0.027686462 -0.087366484 -0.086233139
-0.0053606611 -0.087366484 -0.086233139
0.016965143 -0.087366484 -0.086233139
0.03929095 -0.087366484 -0.086233139
0.061616749 -0.087366484 -0.086233139
0.083942547 -0.087366484 -0.086233139
0.10626835 -0.087366484 -0.086233139
0.12859416 -0.087366484 -0.086233139
0.15091994 -0.087366484 -0.086233139
0.17324576 -0.087366484 -0.086233139
0.19557157 -0.087366484 -0.086233139
0.21789736 -0.087366484 -0.086233139
0.24022317 -0.087366484 -0.086233139
0.26254898 -0.087366484 -0.086233139
-0.25223032 -0.64915472 -0.072313666
-0.22979736 -0.64915472 -0.072313666
-0.20736441 -0.64915472 -0.072313666
-0.18493143 -0.64915472 -0.072313666
-0.16249847 -0.64915472 -0.072313666
-0.14006552 -0.64915472 -0.072313666
-0.11763259 -0.64915472 -0.072313666
-0.09519963 -0.64915472 -0.072313666
-0.072766669 -0.64915472 -0.072313666
-0.050333723 -0.64915472 -0.072313666
-0.027900763 -0.64915472 -0.072313666
-0.0054678097 -0.64915472 -0.072313666
0.016965143 -0.64915472 -0.072313666
0.039398097 -0.64915472 -0.072313666
0.06183105 -0.64915472 -0.072313666
0.08426401 -0.64915472 -0.072313666
0.10669696 -0.64915472 -0.072313666
0.12912992 -0.64915472 -0.072313666
0.15156287 -0.64915472 -0.072313666
0.17399582 -0.64915472 -0.072313666
0.19642878 -0.64915472 -0.072313666
0.21886173 -0.64915472 -0.072313666
0.24129468 -0.64915472 -0.072313666
0.26372764 -0.64915472 -0.072313666
-0.25217018 -0.06585782 -0.072964549
-0.22974223 -0.06585782 -0.072964549
-0.20731428 -0.06585782 -0.072964549
-0.18488637 -0.06585782 -0.072964549
-0.16245842 -0.06585782 -0.072964549
-0.14003047 -0.06585782 -0.072964549
-0.11760252 -0.06585782 -0.072964549
-0.095174573 -0.06585782 -0.072964549
-0.072746634 -0.06585782 -0.072964549
-0.050318688 -0.06585782 -0.072964549
-0.027890746 -0.06585782 -0.072964549
-0.0054628011 -0.06585782 -0.072964549
0.016965143 -0.06585782 -0.072964549
0.03939309 -0.06585782 -0.072964549
0.061821032 -0.06585782 -0.072964549
0.084248975 -0.06585782 -0.072964549
0.10667692 -0.06585782 -0.072964549
0.12910485 -0.06585782 -0.072964549
0.1515328 -0.06585782 -0.072964549
0.17396075 -0.06585782 -0.072964549
0.19638869 -0.06585782 -0.072964549
0.21881667 -0.06585782 -0.072964549
0.24124458 -0.06585782 -0.072964549
0.26367253 -0.06585782 -0.072964549
-0.25340715 -0.044151507 -0.05957377
-0.23087615 -0.044151507 -0.05957377
-0.20834512 -0.044151507 -0.05957377
-0.18581408 -0.044151507 -0.05957377
-0.16328305 -0.044151507 -0.05957377
-0.14075202 -0.044151507 -0.05957377
-0.11822101 -0.044151507 -0.05957377
-0.09568999 -0.044151507 -0.05957377
-0.073158957 -0.044151507 -0.05957377
-0.050627932 -0.044151507 -0.05957377
-0.028096907 -0.044151507 -0.05957377
-0.0055658817 -0.044151507 -0.05957377
0.016965143 -0.044151507 -0.05957377
0.039496168 -0.044151507 -0.05957377
0.062027194 -0.044151507 -0.05957377
0.084558219 -0.044151507 -0.05957377
0.10708924 -0.044151507 -0.05957377
0.12962028 -0.044151507 -0.05957377
0.15215129 -0.044151507 -0.05957377
0.17468232 -0.044151507 -0.05957377
0.19721335 -0.044151507 -0.05957377
0.21974438 -0.044151507 -0.05957377
0.24227542 -0.044151507 -0.05957377
0.26480642 -0.044151507 -0.05957377
-0.25465411 -0.022243924 -0.046074986
-0.23201922 -0.022243924 -0.046074986
-0.20938426 -0.022243924 -0.046074986
-0.18674931 -0.022243924 -0.046074986
-0.16411439 -0.022243924 -0.046074986
-0.14147943 -0.022243924 -0.046074986
-0.11884449 -0.022243924 -0.046074986
-0.096209556 -0.022243924 -0.046074986
-0.07357461 -0.022243924 -0.046074986
-0.050939672 -0.022243924 -0.046074986
-0.028304733 -0.022243924 -0.046074986
-0.005669795 -0.022243924 -0.046074986
0.016965143 -0.022243924 -0.046074986
0.039600082 -0.022243924 -0.046074986
0.06223502 -0.022243924 -0.046074986
0.084869958 -0.022243924 -0.046074986
0.1075049 -0.022243924 -0.046074986
0.13013984 -0.022243924 -0.046074986
0.15277478 -0.022243924 -0.046074986
0.1754097 -0.022243924 -0.046074986
0.19804466 -0.022243924 -0.046074986
0.22067958 -0.022243924 -0.046074986
0.24331453 -0.022243924 -0.046074986
0.26594949 -0.022243924 -0.046074986
-0.25591406 -0.00013399124 -0.032435536
-0.23317415 -0.00013399124 -0.032435536
-0.21043423 -0.00013399124 -0.032435536
-0.18769428 -0.00013399124 -0.032435536
-0.16495433 -0.00013399124 -0.032435536
-0.14221442 -0.00013399124 -0.032435536
-0.11947446 -0.00013399124 -0.032435536
-0.096734539 -0.00013399124 -0.032435536
-0.073994599 -0.00013399124 -0.032435536
-0.05125466 -0.00013399124 -0.032435536
-0.028514728 -0.00013399124 -0.032435536
-0.0057747923 -0.00013399124 -0.032435536
0.016965143 -0.00013399124 -0.032435536
0.039705079 -0.00013399124 -0.032435536
0.062445015 -0.00013399124 -0.032435536
0.085184947 -0.00013399124 -0.032435536
0.10792489 -0.00013399124 -0.032435536
0.13066483 -0.00013399124 -0.032435536
0.15340474 -0.00013399124 -0.032435536
0.17614469 -0.00013399124 -0.032435536
0.19888464 -0.00013399124 -0.032435536
0.22162458 -0.00013399124 -0.032435536
0.2443645 -0.00013399124 -0.032435536
-0.25718433 0.022182636 -0.018684626
-0.23433855 0.022182636 -0.018684626
-0.21149278 0.022182636 -0.018684626
-0.18864697 0.022182636 -0.018684626
-0.1658012 0.022182636 -0.018684626
-0.14295539 0.022182636 -0.018684626
-0.1201096 0.022182636 -0.018684626
-0.097263813 0.022182636 -0.018684626
-0.074418023 0.022182636 -0.018684626
-0.051572226 0.022182636 -0.018684626
-0.02872644 0.022182636 -0.018684626
-0.0058806483 0.022182636 -0.018684626
0.016965143 0.022182636 -0.018684626
0.039810933 0.022182636 -0.018684626
0.06265673 0.022182636 -0.018684626
0.085502513 0.022182636 -0.018684626
0.10834831 0.022182636 -0.018684626
0.1311941 0.022182636 -0.018684626
0.15403989 0.022182636 -0.018684626
0.17688566 0.022182636 -0.018684626
0.19973147 0.022182636 -0.018684626
0.22257727 0.022182636 -0.018684626
0.24542305 0.022182636 -0.018684626
-0.25823978 -0.68911535 -0.0072592497
-0.23530602 -0.68911535 -0.0072592497
-0.21237227 -0.68911535 -0.0072592497
-0.18943855 -0.68911535 -0.0072592497
-0.1665048 -0.68911535 -0.0072592497
-0.14357105 -0.68911535 -0.0072592497
-0.12063732 -0.68911535 -0.0072592497
-0.097703569 -0.68911535 -0.0072592497
-0.074769825 -0.68911535 -0.0072592497
-0.051836088 -0.68911535 -0.0072592497
-0.028902341 -0.68911535 -0.0072592497
-0.0059685986 -0.68911535 -0.0072592497
0.016965143 -0.68911535 -0.0072592497
0.039898887 -0.68911535 -0.0072592497
0.062832624 -0.68911535 -0.0072592497
0.085766375 -0.68911535 -0.0072592497
0.10870011 -0.68911535 -0.0072592497
0.13163385 -0.68911535 -0.0072592497
0.1545676 -0.68911535 -0.0072592497
0.17750135 -0.68911535 -0.0072592497
0.20043507 -0.68911535 -0.0072592497
0.22336885 -0.68911535 -0.0072592497
0.24630257 -0.68911535 -0.0072592497
-0.25846794 0.044707507 -0.0047893524
-0.23551518 0.044707507 -0.0047893524
-0.21256244 0.044707507 -0.0047893524
-0.18960968 0.044707507 -0.0047893524
-0.16665691 0.044707507 -0.0047893524
-0.14370418 0.044707507 -0.0047893524
-0.1207514 0.044707507 -0.0047893524
-0.097798645 0.044707507 -0.0047893524
-0.074845888 0.044707507 -0.0047893524
-0.05189313 0.044707507 -0.0047893524
-0.028940372 0.044707507 -0.0047893524
-0.0059876144 0.044707507 -0.0047893524
0.016965143 0.044707507 -0.0047893524
0.039917901 0.044707507 -0.0047893524
0.062870659 0.044707507 -0.0047893524
0.085823417 0.044707507 -0.0047893524
0.10877617 0.044707507 -0.0047893524
0.13172893 0.044707507 -0.0047893524
0.15468168 0.044707507 -0.0047893524
0.17763445 0.044707507 -0.0047893524
0.20058721 0.044707507 -0.0047893524
0.22353995 0.044707507 -0.0047893524
0.24649271 0.044707507 -0.0047893524
-0.25976363 0.067444198 0.0092368126
-0.23670289 0.067444198 0.0092368126
-0.21364218 0.067444198 0.0092368126
-0.19058144 0.067444198 0.0092368126
-0.16752067 0.067444198 0.0092368126
-0.14445996 0.067444198 0.0092368126
-0.12139925 0.067444198 0.0092368126
-0.098338515 0.067444198 0.0092368126
-0.075277776 0.067444198 0.0092368126
-0.052217051 0.067444198 0.0092368126
-0.029156316 0.067444198 0.0092368126
-0.0060955863 0.067444198 0.0092368126
0.016965143 0.067444198 0.0092368126
0.040025875 0.067444198 0.0092368126
0.063086599 0.067444198 0.0092368126
0.086147338 0.067444198 0.0092368126
0.10920806 0.067444198 0.0092368126
0.1322688 0.067444198 0.0092368126
0.15532953 0.067444198 0.0092368126
0.17839026 0.067444198 0.0092368126
0.20145097 0.067444198 0.0092368126
0.22451171 0.067444198 0.0092368126
0.24757245 0.067444198 0.0092368126
-0.26107004 0.090396106 0.023379564
-0.23790044 0.090396106 0.023379564
-0.21473086 0.090396106 0.023379564
-0.19156125 0.090396106 0.023379564
-0.16839164 0.090396106 0.023379564
-0.14522207 0.090396106 0.023379564
-0.12205245 0.090396106 0.023379564
-0.098882861 0.090396106 0.023379564
-0.075713255 0.090396106 0.023379564
-0.052543655 0.090396106 0.023379564
-0.029374056 0.090396106 0.023379564
-0.0062044561 0.090396106 0.023379564
0.016965143 0.090396106 0.023379564
0.040134743 0.090396106 0.023379564
0.063304342 0.090396106 0.023379564
0.086473942 0.090396106 0.023379564
0.10964354 0.090396106 0.023379564
0.13281316 0.090396106 0.023379564
0.15598273 0.090396106 0.023379564
0.17915234 0.090396106 0.023379564
0.20232195 0.090396106 0.023379564
0.22549155 0.090396106 0.023379564
0.24866116 0.090396106 0.023379564
-0.26239038 0.11356577 0.0376724
-0.23911074 0.11356577 0.0376724
-0.21583113 0.11356577 0.0376724
-0.19255152 0.11356577 0.0376724
-0.16927189 0.11356577 0.0376724
-0.14599225 0.11356577 0.0376724
-0.12271262 0.11356577 0.0376724
-0.09943299 0.11356577 0.0376724
-0.076153368 0.11356577 0.0376724
-0.052873738 0.11356577 0.0376724
-0.029594112 0.11356577 0.0376724
-0.0063144844 0.11356577 0.0376724
0.016965143 0.11356577 0.0376724
0.040244773 0.11356577 0.0376724
0.063524395 0.11356577 0.0376724
0.086804025 0.11356577 0.0376724
0.11008365 0.11356577 0.0376724
0.13336328 0.11356577 0.0376724
0.15664291 0.11356577 0.0376724
0.17992252 0.11356577 0.0376724
0.20320216 0.11356577 0.0376724
0.2264818 0.11356577 0.0376724
0.2497614 0.11356577 0.0376724
-0.26372179 0.13695632 0.052085519
-0.2403312 0.13695632 0.052085519
-0.21694064 0.13695632 0.052085519
-0.19355008 0.13695632 0.052085519
-0.17015946 0.13695632 0.052085519
-0.1467689 0.13695632 0.052085519
-0.12337833 0.13695632 0.052085519
-0.099987753 0.13695632 0.052085519
-0.076597169 0.13695632 0.052085519
-0.053206593 0.13695632 0.052085519
-0.029816013 0.13695632 0.052085519
-0.0064254347 0.13695632 0.052085519
0.016965143 0.13695632 0.052085519
0.04035572 0.13695632 0.052085519
0.063746303 0.13695632 0.052085519
0.08713688 0.13695632 0.052085519
0.11052746 0.13695632 0.052085519
0.13391805 0.13695632 0.052085519
0.15730861 0.13695632 0.052085519
0.1806992 0.13695632 0.052085519
0.20408976 0.13695632 0.052085519
0.22748035 0.13695632 0.052085519
0.25087094 0.13695632 0.052085519
-0.26452217 -0.73089623 0.060749412
-0.24106488 -0.73089623 0.060749412
-0.21760762 -0.73089623 0.060749412
-0.19415036 -0.73089623 0.060749412
-0.17069307 -0.73089623 0.060749412
-0.14723578 -0.73089623 0.060749412
-0.12377851 -0.73089623 0.060749412
-0.10032124 -0.73089623 0.060749412
-0.076863959 -0.73089623 0.060749412
-0.053406686 -0.73089623 0.060749412
-0.029949408 -0.73089623 0.060749412
-0.0064921323 -0.73089623 0.060749412
0.016965143 -0.73089623 0.060749412
0.040422417 -0.73089623 0.060749412
0.063879699 -0.73089623 0.060749412
0.087336972 -0.73089623 0.060749412
0.11079425 -0.73089623 0.060749412
0.13425153 -0.73089623 0.060749412
0.15770879 -0.73089623 0.060749412
0.18116608 -0.73089623 0.060749412
0.20462334 -0.73089623 0.060749412
0.22808063 -0.73089623 0.060749412
0.25153792 -0.73089623 0.060749412
-0.26506749 0.1605712 0.066653013
-0.24156478 0.1605712 0.066653013
-0.21806207 0.1605712 0.066653013
-0.19455934 0.1605712 0.066653013
-0.1710566 0.1605712 0.066653013
-0.14755389 0.1605712 0.066653013
-0.12405118 0.1605712 0.066653013
-0.10054846 0.1605712 0.066653013
-0.077045731 0.1605712 0.066653013
-0.053543016 0.1605712 0.066653013
-0.030040294 0.1605712 0.066653013
-0.0065375753 0.1605712 0.066653013
0.016965143 0.1605712 0.066653013
0.040467862 0.1605712 0.066653013
0.063970581 0.1605712 0.066653013
0.087473303 0.1605712 0.066653013
0.11097602 0.1605712 0.066653013
0.13447875 0.1605712 0.066653013
0.15798146 0.1605712 0.066653013
0.18148416 0.1605712 0.066653013
0.20498687 0.1605712 0.066653013
0.22848964 0.1605712 0.066653013
0.25199234 0.1605712 0.066653013
-0.24280879 0.18441327 0.081344128
-0.21919298 0.18441327 0.081344128
-0.19557717 0.18441327 0.081344128
-0.17196137 0.18441327 0.081344128
-0.14834553 0.18441327 0.081344128
-0.12472973 0.18441327 0.081344128
-0.10111392 0.18441327 0.081344128
-0.077498108 0.18441327 0.081344128
-0.053882293 0.18441327 0.081344128
-0.030266482 0.18441327 0.081344128
-0.0066506695 0.18441327 0.081344128
0.016965143 0.18441327 0.081344128
0.040580958 0.18441327 0.081344128
0.064196765 0.18441327 0.081344128
0.08781258 0.18441327 0.081344128
0.11142839 0.18441327 0.081344128
0.13504422 0.18441327 0.081344128
0.15866002 0.18441327 0.081344128
0.18227583 0.18441327 0.081344128
0.20589167 0.18441327 0.081344128
0.22950745 0.18441327 0.081344128
0.25312328 0.18441327 0.081344128
-0.24406627 0.20848629 0.096194506
-0.22033617 0.20848629 0.096194506
-0.19660601 0.20848629 0.096194506
-0.17287591 0.20848629 0.096194506
-0.14914578 0.20848629 0.096194506
-0.12541562 0.20848629 0.096194506
-0.10168551 0.20848629 0.096194506
-0.07795538 0.20848629 0.096194506
-0.054225244 0.20848629 0.096194506
-0.030495118 0.20848629 0.096194506
-0.0067649875 0.20848629 0.096194506
0.016965143 0.20848629 0.096194506
0.040695272 0.20848629 0.096194506
0.064425409 0.20848629 0.096194506
0.08815553 0.20848629 0.096194506
0.11188567 0.20848629 0.096194506
0.1356158 0.20848629 0.096194506
0.15934592 0.20848629 0.096194506
0.18307605 0.20848629 0.096194506
0.20680618 0.20848629 0.096194506
0.23053631 0.20848629 0.096194506
0.25426644 0.20848629 0.096194506
-0.245336 0.23279345 0.11118901
-0.22149044 0.23279345 0.11118901
-0.19764489 0.23279345 0.11118901
-0.17379931 0.23279345 0.11118901
-0.14995375 0.23279345 0.11118901
-0.1261082 0.23279345 0.11118901
-0.10226265 0.23279345 0.11118901
-0.078417093 0.23279345 0.11118901
-0.054571532 0.23279345 0.11118901
-0.030725975 0.23279345 0.11118901
-0.0068804156 0.23279345 0.11118901
0.016965143 0.23279345 0.11118901
0.040810704 0.23279345 0.11118901
0.064656258 0.23279345 0.11118901
0.088501818 0.23279345 0.11118901
0.11234738 0.23279345 0.11118901
0.13619293 0.23279345 0.11118901
0.1600385 0.23279345 0.11118901
0.18388405 0.23279345 0.11118901
0.20772961 0.23279345 0.11118901
0.23157516 0.23279345 0.11118901
0.25542071 0.23279345 0.11118901
-0.24661666 0.25733757 0.12631297
-0.2226547 0.25733757 0.12631297
-0.19869271 0.25733757 0.12631297
-0.17473072 0.25733757 0.12631297
-0.15076873 0.25733757 0.12631297
-0.12680677 0.25733757 0.12631297
-0.10284477 0.25733757 0.12631297
-0.078882791 0.25733757 0.12631297
-0.054920807 0.25733757 0.12631297
-0.030958824 0.25733757 0.12631297
-0.0069968384 0.25733757 0.12631297
0.016965143 0.25733757 0.12631297
0.040927127 0.25733757 0.12631297
0.064889111 0.25733757 0.12631297
0.088851094 0.25733757 0.12631297
0.11281308 0.25733757 0.12631297
0.13677506 0.25733757 0.12631297
0.16073704 0.25733757 0.12631297
0.18469903 0.25733757 0.12631297
0.20866102 0.25733757 0.12631297
0.23262298 0.25733757 0.12631297
0.25658497 0.25733757 0.12631297
-0.24791139 0.28212348 0.14160287
-0.22383168 0.28212348 0.14160287
-0.19975203 0.28212348 0.14160287
-0.17567232 0.28212348 0.14160287
-0.15159264 0.28212348 0.14160287
-0.12751296 0.28212348 0.14160287
-0.10343327 0.28212348 0.14160287
-0.079353593 0.28212348 0.14160287
-0.055273905 0.28212348 0.14160287
-0.031194225 0.28212348 0.14160287
-0.0071145408 0.28212348 0.14160287
0.016965143 0.28212348 0.14160287
0.041044828 0.28212348 0.14160287
0.065124512 0.28212348 0.14160287
0.089204192 0.28212348 0.14160287
0.11328388 0.28212348 0.14160287
0.13736355 0.28212348 0.14160287
0.16144323 0.28212348 0.14160287
0.18552291 0.28212348 0.14160287
0.20960262 0.28212348 0.14160287
0.2336823 0.28212348 0.14160287
0.25776199 0.28212348 0.14160287
-0.24921739 0.30715299 0.15702605
-0.22501898 0.30715299 0.15702605
-0.20082057 0.30715299 0.15702605
-0.17662215 0.30715299 0.15702605
-0.15242374 0.30715299 0.15702605
-0.12822533 0.30715299 0.15702605
-0.10402692 0.30715299 0.15702605
-0.079828501 0.30715299 0.15702605
-0.055630088 0.30715299 0.15702605
-0.031431679 0.30715299 0.15702605
-0.0072332677 0.30715299 0.15702605
0.016965143 0.30715299 0.15702605
0.041163556 0.30715299 0.15702605
0.065361962 0.30715299 0.15702605
0.089560375 0.30715299 0.15702605
0.11375879 0.30715299 0.15702605
0.13795722 0.30715299 0.15702605
0.1621556 0.30715299 0.15702605
0.18635401 0.30715299 0.15702605
0.21055242 0.30715299 0.15702605
0.23475087 0.30715299 0.15702605
0.25894928 0.30715299 0.15702605
-0.25053781 0.33243173 0.17261982
-0.22621939 0.33243173 0.17261982
-0.20190096 0.33243173 0.17261982
-0.1775825 0.33243173 0.17261982
-0.15326402 0.33243173 0.17261982
-0.12894556 0.33243173 0.17261982
-0.10462712 0.33243173 0.17261982
-0.080308668 0.33243173 0.17261982
-0.055990212 0.33243173 0.17261982
-0.031671762 0.33243173 0.17261982
-0.0073533095 0.33243173 0.17261982
0.016965143 0.33243173 0.17261982
0.041283596 0.33243173 0.17261982
0.065602049 0.33243173 0.17261982
0.089920498 0.33243173 0.17261982
0.11423896 0.33243173 0.17261982
0.1385574 0.33243173 0.17261982
0.16287586 0.33243173 0.17261982
0.18719429 0.33243173 0.17261982
0.21151277 0.33243173 0.17261982
0.23583123 0.33243173 0.17261982
0.26014969 0.33243173 0.17261982
-0.25187147 0.35796261 0.18836904
-0.22743177 0.35796261 0.18836904
-0.20299208 0.35796261 0.18836904
-0.17855239 0.35796261 0.18836904
-0.1541127 0.35796261 0.18836904
-0.129673 0.35796261 0.18836904
-0.10523332 0.35796261 0.18836904
-0.080793619 0.35796261 0.18836904
-0.056353934 0.35796261 0.18836904
-0.031914238 0.35796261 0.18836904
-0.0074745473 0.35796261 0.18836904
0.016965143 0.35796261 0.18836904
0.041404836 0.35796261 0.18836904
0.065844521 0.35796261 0.18836904
0.090284221 0.35796261 0.18836904
0.11472391 0.35796261 0.18836904
0.13916361 0.35796261 0.18836904
0.16360331 0.35796261 0.18836904
0.18804297 0.35796261 0.18836904
0.21248266 0.35796261 0.18836904
0.23692238 0.35796261 0.18836904
0.26136208 0.35796261 0.18836904
-0.25321689 0.38374782 0.20425797
-0.22865489 0.38374782 0.20425797
-0.20409289 0.38374782 0.20425797
-0.17953089 0.38374782 0.20425797
-0.15496889 0.38374782 0.20425797
-0.13040689 0.38374782 0.20425797
-0.10584487 0.38374782 0.20425797
-0.081282876 0.38374782 0.20425797
-0.056720868 0.38374782 0.20425797
-0.032158867 0.38374782 0.20425797
-0.0075968616 0.38374782 0.20425797
0.016965143 0.38374782 0.20425797
0.041527148 0.38374782 0.20425797
0.066089153 0.38374782 0.20425797
0.090651155 0.38374782 0.20425797
0.11521316 0.38374782 0.20425797
0.13977516 0.38374782 0.20425797
0.16433716 0.38374782 0.20425797
0.18889919 0.38374782 0.20425797
0.21346119 0.38374782 0.20425797
0.23802319 0.38374782 0.20425797
0.26258516 0.38374782 0.20425797
-0.25457743 0.40979385 0.22032523
-0.22989175 0.40979385 0.22032523
-0.20520607 0.40979385 0.22032523
-0.18052039 0.40979385 0.22032523
-0.15583467 0.40979385 0.22032523
-0.13114899 0.40979385 0.22032523
-0.10646331 0.40979385 0.22032523
-0.081777617 0.40979385 0.22032523
-0.057091922 0.40979385 0.22032523
-0.032406237 0.40979385 0.22032523
-0.0077205468 0.40979385 0.22032523
0.016965143 0.40979385 0.22032523
0.041650832 0.40979385 0.22032523
0.066336527 0.40979385 0.22032523
0.091022208 0.40979385 0.22032523
0.1157079 0.40979385 0.22032523
0.14039358 0.40979385 0.22032523
0.16507927 0.40979385 0.22032523
0.18976498 0.40979385 0.22032523
0.21445066 0.40979385 0.22032523
0.23913634 0.40979385 0.22032523
0.26382205 0.40979385 0.22032523
-0.25595018 0.43610206 0.2365365
-0.23113969 0.43610206 0.2365365
-0.20632923 0.43610206 0.2365365
-0.18151873 0.43610206 0.2365365
-0.15670824 0.43610206 0.2365365
-0.13189775 0.43610206 0.2365365
-0.10708727 0.43610206 0.2365365
-0.082276791 0.43610206 0.2365365
-0.057466306 0.43610206 0.2365365
-0.032655824 0.43610206 0.2365365
-0.0078453403 0.43610206 0.2365365
0.016965143 0.43610206 0.2365365
0.041775629 0.43610206 0.2365365
0.066586107 0.43610206 0.2365365
0.091396593 0.43610206 0.2365365
0.11620708 0.43610206 0.2365365
0.14101756 0.43610206 0.2365365
0.16582805 0.43610206 0.2365365
0.19063851 0.43610206 0.2365365
0.21544901 0.43610206 0.2365365
0.2402595 0.43610206 0.2365365
-0.25733843 0.46267942 0.252931
-0.23240176 0.46267942 0.252931
-0.20746505 0.46267942 0.252931
-0.18252838 0.46267942 0.252931
-0.1575917 0.46267942 0.252931
-0.13265499 0.46267942 0.252931
-0.10771831 0.46267942 0.252931
-0.08278162 0.46267942 0.252931
-0.057844929 0.46267942 0.252931
-0.032908238 0.46267942 0.252931
-0.0079715475 0.46267942 0.252931
0.016965143 0.46267942 0.252931
0.041901834 0.46267942 0.252931
0.066838525 0.46267942 0.252931
0.091775216 0.46267942 0.252931
0.11671191 0.46267942 0.252931
0.14164859 0.46267942 0.252931
0.1665853 0.46267942 0.252931
0.19152197 0.46267942 0.252931
0.21645868 0.46267942 0.252931
0.24139535 0.46267942 0.252931
-0.2587409 0.48952848 0.26949358
-0.23367673 0.48952848 0.26949358
-0.20861253 0.48952848 0.26949358
-0.18354836 0.48952848 0.26949358
-0.15848416 0.48952848 0.26949358
-0.13341999 0.48952848 0.26949358
-0.1083558 0.48952848 0.26949358
-0.083291605 0.48952848 0.26949358
-0.05822742 0.48952848 0.26949358
-0.033163231 0.48952848 0.26949358
-0.0080990437 0.48952848 0.26949358
0.016965143 0.48952848 0.26949358
0.042029329 0.48952848 0.26949358
0.067093521 0.48952848 0.26949358
0.092157707 0.48952848 0.26949358
0.11722189 0.48952848 0.26949358
0.14228609 0.48952848 0.26949358
0.16735026 0.48952848 0.26949358
0.19241446 0.48952848 0.26949358
0.21747863 0.48952848 0.26949358
0.2425428 0.48952848 0.26949358
-0.26015618 0.51665127 0.28620696
-0.23496333 0.51665127 0.28620696
-0.2097705 0.51665127 0.28620696
-0.18457764 0.51665127 0.28620696
-0.15938479 0.51665127 0.28620696
-0.13419193 0.51665127 0.28620696
-0.1089991 0.51665127 0.28620696
-0.083806247 0.51665127 0.28620696
-0.058613397 0.51665127 0.28620696
-0.033420552 0.51665127 0.28620696
-0.0082277022 0.51665127 0.28620696
0.016965143 0.51665127 0.28620696
0.042157989 0.51665127 0.28620696
0.067350835 0.51665127 0.28620696
0.092543684 0.51665127 0.28620696
0.11773653 0.51665127 0.28620696
0.14292938 0.51665127 0.28620696
0.16812223 0.51665127 0.28620696
0.19331509 0.51665127 0.28620696
0.21850795 0.51665127 0.28620696
0.24370077 0.51665127 0.28620696
-0.26158768 0.54405636 0.30311215
-0.23626468 0.54405636 0.30311215
-0.2109417 0.54405636 0.30311215
-0.18561873 0.54405636 0.30311215
-0.16029575 0.54405636 0.30311215
-0.13497275 0.54405636 0.30311215
-0.10964977 0.54405636 0.30311215
-0.084326789 0.54405636 0.30311215
-0.059003808 0.54405636 0.30311215
-0.033680823 0.54405636 0.30311215
-0.0083578397 0.54405636 0.30311215
0.016965143 0.54405636 0.30311215
0.042288125 0.54405636 0.30311215
0.067611113 0.54405636 0.30311215
0.092934094 0.54405636 0.30311215
0.11825708 0.54405636 0.30311215
0.14358005 0.54405636 0.30311215
0.16890305 0.54405636 0.30311215
0.19422603 0.54405636 0.30311215
0.21954903 0.54405636 0.30311215
0.244872 0.54405636 0.30311215
-0.26303238 0.57174343 0.3201735
-0.23757806 0.57174343 0.3201735
-0.21212375 0.57174343 0.3201735
-0.18666944 0.57174343 0.3201735
-0.16121513 0.57174343 0.3201735
-0.13576078 0.57174343 0.3201735
-0.11030646 0.57174343 0.3201735
-0.084852144 0.57174343 0.3201735
-0.059397824 0.57174343 0.3201735
-0.0339435 0.57174343 0.3201735
-0.0084891785 0.57174343 0.3201735
0.016965143 0.57174343 0.3201735
0.042419463 0.57174343 0.3201735
0.067873791 0.57174343 0.3201735
0.093328111 0.57174343 0.3201735
0.11878243 0.57174343 0.3201735
0.14423674 0.57174343 0.3201735
0.16969109 0.57174343 0.3201735
0.1951454 0.57174343 0.3201735
0.22059971 0.57174343 0.3201735
0.24605405 0.57174343 0.3201735
-0.26449382 0.59972221 0.3374325
-0.23890665 0.59972221 0.3374325
-0.21331948 0.59972221 0.3374325
-0.18773231 0.59972221 0.3374325
-0.16214511 0.59972221 0.3374325
-0.13655794 0.59972221 0.3374325
-0.11097076 0.59972221 0.3374325
-0.085383579 0.59972221 0.3374325
-0.0597964 0.59972221 0.3374325
-0.034209218 0.59972221 0.3374325
-0.0086220372 0.59972221 0.3374325
0.016965143 0.59972221 0.3374325
0.042552322 0.59972221 0.3374325
0.068139508 0.59972221 0.3374325
0.093726687 0.59972221 0.3374325
0.11931387 0.59972221 0.3374325
0.14490104 0.59972221 0.3374325
0.17048824 0.59972221 0.3374325
0.19607538 0.59972221 0.3374325
0.22166258 0.59972221 0.3374325
0.24724978 0.59972221 0.3374325
-0.26597065 0.62799436 0.35487247
-0.24024919 0.62799436 0.35487247
-0.21452776 0.62799436 0.35487247
-0.18880633 0.62799436 0.35487247
-0.16308489 0.62799436 0.35487247
-0.13736346 0.62799436 0.35487247
-0.11164203 0.62799436 0.35487247
-0.085920595 0.62799436 0.35487247
-0.060199156 0.62799436 0.35487247
-0.034477726 0.62799436 0.35487247
-0.0087562911 0.62799436 0.35487247
0.016965143 0.62799436 0.35487247
0.042686578 0.62799436 0.35487247
0.068408012 0.62799436 0.35487247
0.094129443 0.62799436 0.35487247
0.11985088 0.62799436 0.35487247
0.1455723 0.62799436 0.35487247
0.17129374 0.62799436 0.35487247
0.19701517 0.62799436 0.35487247
0.22273663 0.62799436 0.35487247
0.24845806 0.62799436 0.35487247
-0.26746127 0.65656155 0.37247634
-0.24160433 0.65656155 0.37247634
-0.21574739 0.65656155 0.37247634
-0.18989044 0.65656155 0.37247634
-0.1640335 0.65656155 0.37247634
-0.13817656 0.65656155 0.37247634
-0.1123196 0.65656155 0.37247634
-0.086462654 0.65656155 0.37247634
-0.060605705 0.65656155 0.37247634
-0.034748755 0.65656155 0.37247634
-0.008891806 0.65656155 0.37247634
0.016965143 0.65656155 0.37247634
0.042822093 0.65656155 0.37247634
0.068679042 0.65656155 0.37247634
0.094535992 0.65656155 0.37247634
0.12039294 0.65656155 0.37247634
0.14624989 0.65656155 0.37247634
0.17210683 0.65656155 0.37247634
0.1979638 0.65656155 0.37247634
0.22382075 0.65656155 0.37247634
0.24967766 0.65656155 0.37247634
-0.24297541 0.68543488 0.39028704
-0.21698135 0.68543488 0.39028704
-0.19098732 0.68543488 0.39028704
-0.16499326 0.68543488 0.39028704
-0.13899919 0.68543488 0.39028704
-0.11300514 0.68543488 0.39028704
-0.087011084 0.68543488 0.39028704
-0.061017022 0.68543488 0.39028704
-0.03502297 0.68543488 0.39028704
-0.0090289135 0.68543488 0.39028704
0.016965143 0.68543488 0.39028704
0.042959198 0.68543488 0.39028704
0.068953261 0.68543488 0.39028704
0.094947308 0.68543488 0.39028704
0.12094137 0.68543488 0.39028704
0.14693543 0.68543488 0.39028704
0.17292947 0.68543488 0.39028704
0.19892353 0.68543488 0.39028704
0.22491759 0.68543488 0.39028704
0.25091165 0.68543488 0.39028704
-0.24435952 0.71461231 0.40826702
-0.21822706 0.71461231 0.40826702
-0.19209456 0.71461231 0.40826702
-0.16596213 0.71461231 0.40826702
-0.13982964 0.71461231 0.40826702
-0.11369719 0.71461231 0.40826702
-0.087564714 0.71461231 0.40826702
-0.06143225 0.71461231 0.40826702
-0.035299785 0.71461231 0.40826702
-0.009167321 0.71461231 0.40826702
0.016965143 0.71461231 0.40826702
0.043097608 0.71461231 0.40826702
0.069230072 0.71461231 0.40826702
0.095362537 0.71461231 0.40826702
0.121495 0.71461231 0.40826702
0.14762747 0.71461231 0.40826702
0.17375994 0.71461231 0.40826702
0.1998924 0.71461231 0.40826702
0.22602487 0.71461231 0.40826702
0.25215733 0.71461231 0.40826702
-0.24576002 0.74410623 0.42646039
-0.21948752 0.74410623 0.42646039
-0.19321498 0.74410623 0.42646039
-0.16694248 0.74410623 0.42646039
-0.14066997 0.74410623 0.42646039
-0.11439744 0.74410623 0.42646039
-0.088124923 0.74410623 0.42646039
-0.06185241 0.74410623 0.42646039
-0.03557989 0.74410623 0.42646039
-0.0093073733 0.74410623 0.42646039
0.016965143 0.74410623 0.42646039
0.04323766 0.74410623 0.42646039
0.069510177 0.74410623 0.42646039
0.095782697 0.74410623 0.42646039
0.12205521 0.74410623 0.42646039
0.14832774 0.74410623 0.42646039
0.17460024 0.74410623 0.42646039
0.20087278 0.74410623 0.42646039
0.22714528 0.74410623 0.42646039
0.25341779 0.74410623 0.42646039
-0.24717566 0.77391762 0.44484973
