ply
format ascii 1.0
comment PCL generated
element vertex 1334
property float x
property float y
property float z
element camera 0
property float view_px
property float view_py
property float view_pz
property float x_axisx
property float x_axisy
property float x_axisz
property float y_axisx
property float y_axisy
property float y_axisz
property float z_axisx
property float z_axisy
property float z_axisz
property float focal
property float scalex
property float scaley
property float centerx
property float centery
property int viewportx
property int viewporty
property float k1
property float k2
end_header
-0.089934558 0.1841116 -0.075194657
-0.089934558 0.2021465 -0.075194478
-0.089934558 0.22018135 -0.075194597
-0.089934558 0.23821621 -0.075194657
-0.089934558 0.25625116 -0.075194478
-0.089934558 0.274286 -0.075194597
-0.089933917 0.2923196 -0.075206578
-0.089933261 0.3103528 -0.075218618
-0.089932621 0.32838598 -0.07523042
-0.089932621 0.34642062 -0.07523042
-0.089933261 0.36445692 -0.075218558
-0.089933261 0.38249171 -0.075218439
-0.089933261 0.40052634 -0.075218439
-0.089933917 0.41856313 -0.075206459
-0.089934558 0.43659997 -0.075194597
-0.089933917 0.45463258 -0.075206578
-0.089933917 0.4726674 -0.075206578
-0.089933917 0.4907023 -0.075206578
-0.089933917 0.50873709 -0.075206459
-0.089933917 0.5267719 -0.075206578
-0.089933261 0.54480398 -0.075218558
-0.089932621 0.56283581 -0.075230479
0.054368421 0.56356096 -0.072090864
-0.089932621 0.58087045 -0.075230479
-0.089933261 0.59890801 -0.075218558
-0.089933917 0.61694574 -0.075206459
-0.1086805 -0.59441054 -0.063648522
-0.10867974 -0.57628357 -0.063660681
-0.108679 -0.55815697 -0.0636729
-0.108679 -0.54003334 -0.0636729
-0.108679 -0.52190983 -0.063672721
-0.108679 -0.50378621 -0.063672721
-0.108679 -0.48566267 -0.063672841
-0.108679 -0.46753907 -0.063672841
-0.108679 -0.4494155 -0.063672841
-0.108679 -0.43129194 -0.063672841
-0.10867974 -0.41317061 -0.063660622
-0.10867974 -0.39504683 -0.063660741
-0.10867974 -0.37692323 -0.063660741
-0.1086805 -0.35880157 -0.063648522
-0.1086805 -0.34067768 -0.063648641
-0.10867974 -0.3225522 -0.063660622
-0.10867974 -0.30442855 -0.063660681
-0.10868125 -0.28630808 -0.063636482
-0.10868199 -0.26818562 -0.063624322
-0.10867974 -0.25005752 -0.063660741
-0.10867825 -0.23193121 -0.063684881
-0.10867974 -0.21381016 -0.063660681
-0.10868125 -0.19568875 -0.063636541
-0.1086805 -0.17756383 -0.063648522
-0.10867974 -0.15943913 -0.063660681
-0.10867974 -0.14131546 -0.063660681
-0.1086805 -0.12319247 -0.063648701
-0.10868125 -0.10506939 -0.063636541
-0.10867974 -0.086944513 -0.063660622
-0.10867825 -0.068819806 -0.063684881
-0.108679 -0.050696723 -0.063672721
-0.10867974 -0.032573365 -0.063660681
-0.1086805 -0.014449997 -0.063648641
-0.1086805 0.003673818 -0.063648641
-0.10867974 0.021797592 -0.063660681
-0.1086805 0.039921407 -0.063648641
-0.10868125 0.05804538 -0.063636482
-0.10868125 0.0761692 -0.063636541
-0.10868125 0.094293013 -0.063636482
-0.10868125 0.11241691 -0.063636482
-0.10868125 0.1305408 -0.063636482
-0.10868125 0.14866461 -0.063636541
-0.10868125 0.16678843 -0.063636422
0.27255291 0.16717803 -0.057310402
-0.10868125 0.18491235 -0.063636482
-0.10868125 0.20303625 -0.063636482
-0.10868125 0.22116016 -0.063636541
-0.10868125 0.23928405 -0.063636541
-0.10868125 0.2574077 -0.063636482
-0.10868125 0.27553159 -0.063636541
-0.1086805 0.29365405 -0.063648522
-0.10867974 0.31177628 -0.063660681
-0.108679 0.32989845 -0.063672721
-0.108679 0.34802207 -0.063672662
-0.10867974 0.36614746 -0.063660741
-0.1086805 0.38427293 -0.063648641
-0.10867974 0.40239474 -0.063660681
-0.1086805 0.4205206 -0.063648641
-0.10868125 0.43864638 -0.063636482
-0.1086805 0.45676798 -0.063648641
-0.1086805 0.47489178 -0.063648522
-0.1086805 0.49301553 -0.063648641
-0.1086805 0.51113927 -0.063648641
-0.1086805 0.5292632 -0.063648641
-0.10867974 0.54738414 -0.063660622
-0.108679 0.56550515 -0.063672721
-0.108679 0.58362865 -0.063672841
0.018174421 0.58398938 -0.062161088
-0.108679 0.6017521 -0.063672721
-0.10867974 0.61987889 -0.063660681
-0.1086805 0.63800567 -0.063648522
-0.12761381 -0.59746873 -0.051963747
-0.14673409 -0.58224672 -0.04018712
0.2734648 -0.58021164 -0.048198223
-0.12761296 -0.57925195 -0.051976085
-0.1467322 -0.56393629 -0.040211916
-0.12761126 -0.56103235 -0.052000403
0.2734648 -0.56196886 -0.048198342
-0.1467322 -0.54563206 -0.040211678
-0.12761126 -0.54281884 -0.052000523
0.2734648 -0.54372621 -0.048198342
-0.1467322 -0.5273279 -0.040211797
0.27346602 -0.52548629 -0.048185945
-0.12761126 -0.52460539 -0.052000523
-0.1467322 -0.50902373 -0.040211797
-0.12761126 -0.50639194 -0.052000523
0.27346727 -0.50724626 -0.048173785
-0.1467322 -0.49071953 -0.040211797
-0.12761126 -0.48817858 -0.052000344
0.27347094 -0.48901138 -0.04813695
-0.1467322 -0.47241542 -0.040211916
0.27346602 -0.47075793 -0.048185945
-0.12761126 -0.46996516 -0.052000403
-0.1467322 -0.45411116 -0.040211916
-0.12761126 -0.45175168 -0.052000403
0.27346602 -0.45251518 -0.048185945
-0.14673315 -0.43580943 -0.040199518
-0.12761126 -0.43353829 -0.052000523
0.27346602 -0.43427238 -0.048185945
-0.14673315 -0.41750512 -0.040199399
0.27346602 -0.41602963 -0.048185945
-0.12761211 -0.41532707 -0.051988363
-0.14673315 -0.39920077 -0.040199399
-0.12761211 -0.39711356 -0.051988304
0.27346602 -0.39778674 -0.048185945
-0.14673409 -0.38089862 -0.04018712
-0.12761211 -0.37890002 -0.051988363
0.27346602 -0.37954399 -0.048185945
-0.14673409 -0.36259422 -0.04018712
0.27346602 -0.36130121 -0.048185945
-0.12761296 -0.36068848 -0.051976085
-0.14673409 -0.34428984 -0.040187001
-0.12761296 -0.34247488 -0.051975965
0.27346602 -0.34305841 -0.048185945
-0.14673315 -0.3259837 -0.040199518
-0.12761211 -0.32425946 -0.051988184
0.27346602 -0.3248156 -0.048185945
-0.14673315 -0.30767941 -0.040199518
0.27346602 -0.30657277 -0.048186064
-0.12761211 -0.30604592 -0.051988184
-0.14673409 -0.2893768 -0.04018712
-0.12761381 -0.28783554 -0.051963925
0.27346602 -0.28832996 -0.048185945
-0.14673504 -0.27107388 -0.040174842
-0.12761466 -0.26962334 -0.051951706
0.27346602 -0.27008721 -0.048185945
-0.14673409 -0.25276795 -0.04018712
0.27346727 -0.25184581 -0.048173785
-0.12761211 -0.25140527 -0.051988363
-0.14673126 -0.23445967 -0.040224195
-0.12761042 -0.23318914 -0.052012742
0.27347094 -0.23360687 -0.04813695
-0.14673315 -0.21615809 -0.040199399
-0.12761211 -0.21497825 -0.051988304
0.27346849 -0.21536122 -0.048161507
-0.14673504 -0.19785607 -0.040174842
0.2734648 -0.19711481 -0.048198342
-0.12761381 -0.196767 -0.051963747
-0.14673409 -0.17955059 -0.04018712
-0.12761296 -0.17855224 -0.051976085
0.2734648 -0.17887212 -0.048198223
-0.14673315 -0.16124523 -0.040199399
-0.12761211 -0.16033773 -0.051988184
0.2734648 -0.16062948 -0.048198223
-0.14673315 -0.14294092 -0.040199399
0.2734648 -0.14238681 -0.048198104
-0.12761211 -0.14212421 -0.051988184
-0.14673409 -0.12463746 -0.04018712
-0.12761296 -0.12391142 -0.051975965
0.27346358 -0.12414325 -0.048210502
-0.14673504 -0.10633365 -0.040174842
-0.12761381 -0.10569838 -0.051963925
0.27346358 -0.1059007 -0.048210502
-0.14673409 -0.08802861 -0.04018712
0.27346358 -0.08765807 -0.048210502
-0.12761211 -0.087483607 -0.051988184
-0.1467322 -0.069723293 -0.040211797
-0.12761042 -0.069269083 -0.052012563
0.27346358 -0.069415398 -0.048210502
-0.1467322 -0.051419154 -0.040211797
-0.12761126 -0.051056109 -0.052000403
0.27346358 -0.051172763 -0.048210382
-0.14673315 -0.033115223 -0.040199518
0.27346358 -0.032930218 -0.048210502
-0.12761211 -0.032842927 -0.051988184
-0.14673409 -0.01481113 -0.04018724
-0.12761296 -0.014629627 -0.051976144
0.2734648 -0.014687831 -0.048198223
-0.14673504 0.0034930892 -0.040174842
-0.12761296 0.0035839621 -0.051975965
0.27346602 0.0035547987 -0.048185945
-0.14673315 0.021797551 -0.040199399
-0.12761211 0.021797592 -0.051988184
0.27346602 0.021797674 -0.048185945
-0.14673409 0.04010193 -0.040187001
-0.12761296 0.040011302 -0.051975965
0.27346236 0.040040098 -0.04822278
-0.14673504 0.058406517 -0.040174842
-0.12761381 0.058225013 -0.051963747
0.27346602 0.058283217 -0.048185945
-0.12761381 0.076438762 -0.051963925
-0.14673504 0.076710939 -0.040174723
0.27346602 0.076526016 -0.048185945
-0.14673504 0.095015526 -0.040174842
-0.12761381 0.094652474 -0.051963925
0.27346602 0.094768807 -0.048185945
-0.14673504 0.11331991 -0.040174842
-0.12761381 0.11286615 -0.051963866
0.27346602 0.11301156 -0.048185945
-0.12761381 0.1310799 -0.051963866
-0.14673504 0.1316244 -0.040174842
0.27346602 0.13125443 -0.048185945
-0.14673504 0.14992894 -0.040174842
-0.12761381 0.14929365 -0.051963866
0.27346602 0.14949711 -0.048185945
-0.14673504 0.16823334 -0.040174842
-0.12761381 0.16750735 -0.051963747
-0.12761381 0.1857211 -0.051963747
-0.14673504 0.18653782 -0.040174842
0.27346602 0.18598276 -0.048186064
-0.14673504 0.2048423 -0.040174842
-0.12761381 0.20393482 -0.051963747
0.27346602 0.20422553 -0.048185945
-0.14673504 0.22314684 -0.040174842
-0.12761381 0.22214848 -0.051963747
0.27346602 0.22246839 -0.048185945
-0.12761381 0.24036224 -0.051963747
-0.14673504 0.24145114 -0.040174842
0.27346602 0.24071115 -0.048185945
-0.14673504 0.25975564 -0.040174842
-0.12761381 0.25857601 -0.051963747
0.27346602 0.25895405 -0.048185945
-0.14673504 0.27806011 -0.040174842
-0.12761381 0.2767897 -0.051963866
0.27346602 0.27719682 -0.048185945
-0.12761296 0.29500198 -0.051976085
-0.14673409 0.29636329 -0.04018712
0.27346602 0.29543954 -0.048185945
-0.14673315 0.31466597 -0.040199399
-0.12761211 0.31321406 -0.051988304
0.27346358 0.31367949 -0.048210502
-0.1467322 0.33296868 -0.040211678
-0.12761126 0.33142599 -0.052000344
0.27346727 0.33192676 -0.048173666
-0.12761126 0.34963942 -0.052000403
-0.14673315 0.35127458 -0.040199399
0.27346849 0.35017145 -0.048161507
-0.14673315 0.36957893 -0.040199399
-0.12761211 0.36785454 -0.051988184
0.27346849 0.36841446 -0.048161507
-0.14673409 0.38788503 -0.04018712
-0.12761296 0.38607016 -0.051975965
0.27346727 0.38665545 -0.048173666
-0.12761211 0.40428165 -0.051988184
-0.14673315 0.40618736 -0.040199518
0.27346602 0.40489641 -0.048185945
-0.14673409 0.42449382 -0.040187001
-0.12761296 0.42249736 -0.051975906
0.27346602 0.42313915 -0.048186064
-0.14673504 0.44280028 -0.040174842
-0.12761381 0.44071314 -0.051963747
0.27346602 0.44138187 -0.048185945
-0.12761296 0.45892459 -0.051975965
-0.14673409 0.46110266 -0.04018712
0.27346727 0.459627 -0.048173666
-0.14673315 0.47940463 -0.040199399
-0.12761296 0.47713819 -0.051976085
-0.14673315 0.49770889 -0.040199399
-0.12761296 0.49535182 -0.051975965
-0.12761296 0.51356536 -0.051975965
-0.14673504 0.51601821 -0.040174603
-0.14673409 0.53432018 -0.04018712
-0.12761296 0.53177911 -0.051975965
-0.14673315 0.55262172 -0.040199518
-0.12761211 0.54999 -0.051988125
-0.12761126 0.56820077 -0.052000403
-0.1467322 0.57092309 -0.040211916
-0.1467322 0.58922738 -0.040211797
-0.12761126 0.58641416 -0.052000403
-0.1467322 0.60753155 -0.040211797
-0.12761126 0.60462767 -0.052000403
-0.018327281 0.60459149 -0.052146912
-0.12761211 0.6228441 -0.051988184
-0.14673315 0.62583876 -0.040199399
-0.055140626 0.62536943 -0.042047381
-0.14673315 0.6441431 -0.040199399
-0.12761296 0.64106083 -0.051975965
-0.14673409 0.66245061 -0.040187001
-0.16604672 -0.58527148 -0.028280139
-0.16604462 -0.56686932 -0.028305054
-0.16604462 -0.54847342 -0.028305054
-0.16604462 -0.53007764 -0.028305054
-0.16604462 -0.5116818 -0.028305054
-0.16604462 -0.49328592 -0.028305054
-0.16604462 -0.47489011 -0.028305054
-0.16604568 -0.45649678 -0.028292537
-0.16604568 -0.4381009 -0.028292656
-0.16604462 -0.41970265 -0.028305054
-0.16604568 -0.40130892 -0.028292656
-0.16604672 -0.38291517 -0.028280139
-0.16604672 -0.36451912 -0.028280139
-0.16604672 -0.34612316 -0.028280139
-0.16604672 -0.32772711 -0.028280139
-0.16604568 -0.30932924 -0.028292656
-0.16604672 -0.29093501 -0.028280139
-0.16604778 -0.27254051 -0.028267622
-0.16604672 -0.25414297 -0.028280139
-0.16604356 -0.23574287 -0.028317451
-0.16604568 -0.21734965 -0.028292537
-0.16604778 -0.19895592 -0.028267741
-0.16604778 -0.1805598 -0.028267741
-0.16604672 -0.1621628 -0.028280139
-0.16604568 -0.14376587 -0.028292656
-0.16604672 -0.1253707 -0.028280139
-0.16604778 -0.10697531 -0.028267622
-0.16604672 -0.088578664 -0.028280139
-0.16604462 -0.070181578 -0.028305173
-0.16604462 -0.051785752 -0.028305054
-0.16604568 -0.033390209 -0.028292656
-0.16604672 -0.014994508 -0.028280139
-0.16604672 0.0034015626 -0.028280139
-0.16604672 0.021797592 -0.028280139
-0.16604672 0.04019358 -0.028280139
-0.16604778 0.058589853 -0.028267741
-0.16604778 0.076985925 -0.028267741
-0.16604778 0.095382161 -0.028267741
-0.16604778 0.11377827 -0.028267741
-0.16604778 0.13217434 -0.028267741
-0.16604778 0.15057048 -0.028267741
-0.16604778 0.16896671 -0.028267741
-0.16604778 0.18736275 -0.028267741
-0.16604778 0.20575882 -0.028267741
-0.16604778 0.2241551 -0.028267741
-0.16604778 0.24255112 -0.028267741
-0.16604778 0.2609472 -0.028267741
-0.16604778 0.27934346 -0.028267741
-0.16604672 0.29773799 -0.028280139
-0.16604568 0.31613255 -0.028292656
-0.16604462 0.3345269 -0.028305054
-0.16604568 0.3529245 -0.028292656
-0.16604672 0.37132218 -0.028280139
-0.16604672 0.38971826 -0.028280139
-0.16604568 0.40811232 -0.028292656
-0.16604672 0.42651036 -0.028280139
-0.16604778 0.44490859 -0.02826786
-0.16604672 0.46330234 -0.028280139
-0.16604568 0.48169613 -0.028292656
-0.16604568 0.50009197 -0.028292537
-0.16604778 0.51849324 -0.028267741
-0.16604672 0.53688657 -0.028280139
-0.16604568 0.55527973 -0.028292537
-0.16604462 0.57367283 -0.028305054
-0.16604462 0.59206873 -0.028305054
-0.16604568 0.61046761 -0.028292656
-0.16604568 0.62886363 -0.028292537
-0.16604568 0.64725953 -0.028292656
-0.092269629 0.64632559 -0.031861067
-0.16604672 0.66565877 -0.028280139
-0.18555374 -0.58832663 -0.016253352
-0.18555258 -0.56983501 -0.016265988
-0.18555143 -0.5513435 -0.016278625
-0.18555143 -0.53285497 -0.016278505
-0.18555143 -0.51436663 -0.016278625
-0.18555143 -0.49587819 -0.016278505
-0.18555143 -0.47738984 -0.016278505
-0.18555258 -0.45890391 -0.016265988
-0.18555143 -0.44041297 -0.016278505
-0.18555258 -0.42192692 -0.016265869
-0.18555258 -0.40343836 -0.016265988
-0.18555374 -0.38495198 -0.016253471
-0.18555374 -0.36646339 -0.016253352
-0.18555374 -0.34797475 -0.016253352
-0.18555374 -0.3294861 -0.016253352
-0.18555374 -0.31099749 -0.016253352
-0.18555374 -0.2925089 -0.016253352
-0.18555491 -0.27402186 -0.016240716
-0.18555374 -0.25553161 -0.016253352
-0.18555143 -0.23704028 -0.016278625
-0.18555258 -0.21855311 -0.016265988
-0.18555491 -0.20006692 -0.016240835
-0.18555491 -0.18157819 -0.016240835
-0.18555491 -0.16308953 -0.016240835
-0.18555258 -0.14459905 -0.016265988
-0.18555258 -0.12611055 -0.016265988
-0.18555374 -0.10762266 -0.016253352
-0.18555491 -0.089134701 -0.016240716
-0.18555258 -0.07064499 -0.016265988
-0.18555027 -0.052155681 -0.016291142
-0.18555258 -0.033668004 -0.016265988
-0.18555374 -0.015179677 -0.016253233
-0.18555374 0.0033089779 -0.016253352
-0.18555374 0.021797633 -0.016253352
-0.18555374 0.040286288 -0.016253352
-0.18555491 0.058774941 -0.016240716
-0.18555491 0.07726372 -0.016240716
-0.18555491 0.095752463 -0.016240835
-0.18555491 0.1142412 -0.016240835
-0.18555491 0.13272989 -0.016240835
-0.18555491 0.15121858 -0.016240835
-0.18555491 0.16970731 -0.016240835
-0.18555491 0.18819602 -0.016240835
-0.18555491 0.20668478 -0.016240716
-0.18555491 0.2251734 -0.016240835
-0.18555491 0.24366213 -0.016240835
-0.18555491 0.26215091 -0.016240716
-0.18555491 0.28063962 -0.016240716
-0.18555374 0.2991268 -0.016253352
-0.18555258 0.3176139 -0.01626575
-0.18555143 0.33610073 -0.016278505
-0.18555258 0.35459086 -0.016265988
-0.18555374 0.37308121 -0.016253352
-0.18555374 0.39156991 -0.016253352
-0.18555258 0.41005662 -0.016265988
-0.18555374 0.42854714 -0.016253352
-0.18555491 0.44703791 -0.016240716
-0.18555374 0.46552429 -0.016253352
-0.18555258 0.48401046 -0.016265988
-0.18555258 0.5024991 -0.016265988
-0.18555491 0.52099288 -0.016240835
-0.18555374 0.53947884 -0.016253352
-0.18555258 0.55796468 -0.016265988
-0.18555143 0.57645029 -0.016278625
-0.18555258 0.59494174 -0.016265988
-0.18555258 0.6134302 -0.016265869
-0.18555374 0.63192201 -0.016253233
-0.18555374 0.65041059 -0.016253352
-0.18555374 0.66889918 -0.016253352
-0.12971836 0.66746217 -0.021587133
-0.2052594 -0.59141606 -0.0040922165
0.29559019 -0.58936375 -0.012171388
-0.20525685 -0.57282752 -0.0041176081
0.29559156 -0.5708468 -0.012158513
-0.20525557 -0.55424243 -0.0041302443
0.29559019 -0.55232358 -0.012171268
-0.2052543 -0.53565764 -0.0041431189
0.29559019 -0.53380364 -0.012171268
-0.20525557 -0.51707858 -0.0041303635
0.29559156 -0.51528639 -0.012158513
-0.20525557 -0.49849668 -0.0041303635
0.2955929 -0.49676898 -0.012145996
-0.20525557 -0.4799147 -0.0041303635
0.29559427 -0.47825143 -0.01213336
-0.20525685 -0.46133539 -0.0041176081
0.29559565 -0.45973364 -0.012120724
-0.20525557 -0.4427509 -0.0041302443
0.29559565 -0.44121313 -0.012120724
-0.20525685 -0.42417133 -0.0041176081
0.29559565 -0.42269269 -0.012120724
-0.2052581 -0.40559155 -0.0041049719
0.29559565 -0.40417227 -0.012120724
-0.2052581 -0.38700944 -0.0041048527
0.29559565 -0.38565183 -0.012120724
-0.2052581 -0.36842719 -0.0041048527
0.29559565 -0.36713141 -0.012120724
-0.2052581 -0.34984511 -0.0041048527
0.29559565 -0.348611 -0.012120724
-0.2052581 -0.33126292 -0.0041049719
0.29559565 -0.33009061 -0.012120724
-0.2052581 -0.31268084 -0.0041048527
0.29559565 -0.31157008 -0.012120843
-0.2052581 -0.29409868 -0.0041049719
0.29559565 -0.29304972 -0.012120724
-0.2052594 -0.27551815 -0.0040922165
0.29559565 -0.27452931 -0.012120724
-0.2052581 -0.25693437 -0.0041048527
0.29559019 -0.25600302 -0.012171149
-0.20525557 -0.23834956 -0.0041302443
0.29558885 -0.23748156 -0.012183905
-0.20525685 -0.2197689 -0.0041176081
0.29558885 -0.21896169 -0.012183785
-0.2052581 -0.20118801 -0.0041048527
0.29558885 -0.20044176 -0.012183785
-0.2052594 -0.182607 -0.0040922165
0.29558885 -0.18192177 -0.012183785
-0.2052594 -0.16402476 -0.0040922165
0.29558885 -0.16340181 -0.012183785
-0.2052581 -0.14544156 -0.0041049719
0.29558885 -0.14488189 -0.012183905
-0.20525685 -0.12685873 -0.0041176081
0.29558885 -0.12636188 -0.012183905
-0.2052581 -0.10827731 -0.0041049719
0.29558885 -0.10784205 -0.012183785
-0.2052594 -0.089695752 -0.0040922165
0.29558885 -0.089322075 -0.012183905
-0.2052581 -0.07111305 -0.0041048527
0.29558885 -0.070802055 -0.012183905
-0.20525557 -0.052530095 -0.0041303635
0.29558885 -0.052282199 -0.012183905
-0.20525557 -0.03394825 -0.0041302443
0.29559019 -0.033762507 -0.012171268
-0.2052581 -0.015366679 -0.0041048527
0.29559156 -0.015242731 -0.012158513
-0.2052581 0.0032154974 -0.0041049719
0.29559019 0.0032774918 -0.012171149
-0.2052581 0.021797592 -0.0041048527
0.2955929 0.021797551 -0.012145877
-0.2052581 0.04037977 -0.0041049719
0.29558748 0.040317491 -0.012196541
-0.2052594 0.058962107 -0.0040922165
0.29559156 0.058837876 -0.012158513
-0.2052594 0.077544287 -0.0040920973
0.29559156 0.077357978 -0.012158632
-0.2052594 0.096126504 -0.0040920973
0.29559156 0.095878117 -0.012158632
-0.2052594 0.11470877 -0.0040922165
0.29559156 0.11439835 -0.012158632
-0.2052594 0.13329102 -0.0040922165
0.29559156 0.1329184 -0.012158513
-0.2052594 0.15187319 -0.0040923357
0.29559156 0.15143849 -0.012158513
-0.2052594 0.1704554 -0.0040923357
0.29559156 0.16995871 -0.012158513
-0.2052594 0.18903762 -0.0040920973
0.29559156 0.18847887 -0.012158513
-0.2052594 0.20761997 -0.0040920973
0.29559156 0.20699891 -0.012158632
-0.2052594 0.22620222 -0.0040920973
0.29559156 0.22551906 -0.012158513
-0.2052594 0.24478449 -0.0040920973
0.29559156 0.24403924 -0.012158632
-0.2052594 0.2633667 -0.0040922165
0.29559156 0.26255938 -0.012158513
0.29559156 0.28107956 -0.012158632
-0.2052594 0.28194889 -0.0040920973
-0.2052581 0.30052963 -0.0041048527
0.29559156 0.29959971 -0.012158513
-0.2052581 0.31911168 -0.0041048527
0.29558885 0.31811672 -0.012183785
-0.20525557 0.33769059 -0.0041302443
0.29559702 0.33664668 -0.012108088
-0.20525685 0.35627422 -0.0041176081
0.29559565 0.35516542 -0.012120724
-0.2052581 0.37485814 -0.0041049719
0.29559427 0.37368402 -0.01213336
-0.2052581 0.39344022 -0.0041048527
0.29559427 0.39220414 -0.01213336
-0.20525685 0.41202042 -0.0041177273
0.2955929 0.41072246 -0.012145877
-0.2052581 0.43060452 -0.0041048527
0.2955929 0.4292427 -0.012145877
-0.2052581 0.44918677 -0.0041049719
0.29559156 0.44776079 -0.012158632
-0.2052581 0.46776873 -0.0041048527
-0.20525685 0.48634851 -0.0041176081
-0.20525685 0.5049305 -0.0041176081
-0.2052594 0.52351797 -0.0040920973
-0.2052581 0.54209733 -0.0041048527
-0.20525685 0.56067663 -0.0041176081
-0.20525557 0.57925588 -0.0041302443
-0.20525685 0.59784073 -0.0041176081
-0.20525685 0.61642283 -0.0041177273
-0.2052581 0.6350081 -0.0041048527
-0.2052581 0.65359026 -0.0041048527
-0.16743326 0.68859255 -0.011906147
-0.16743326 0.7071147 -0.011906147
-0.16743326 0.72563678 -0.011906147
-0.16743326 0.74415874 -0.011906147
-0.16743326 0.76268089 -0.011906147
-0.22516422 -0.59453368 0.0081800222
-0.22516282 -0.57585377 0.0081671476
-0.22516005 -0.55717099 0.0081415176
-0.22515868 -0.53849167 0.0081285238
-0.22515868 -0.51981527 0.008128643
-0.22516005 -0.50114185 0.0081415176
-0.22516145 -0.4824681 0.0081541538
-0.22516005 -0.46378896 0.0081413984
-0.22516005 -0.44511256 0.0081413984
-0.22516145 -0.42643848 0.0081541538
-0.22516282 -0.40776435 0.0081671476
-0.22516282 -0.38908771 0.0081670284
-0.22516282 -0.37041107 0.0081671476
-0.22516282 -0.35173455 0.0081670284
-0.22516282 -0.33305785 0.0081670284
-0.22516282 -0.3143813 0.0081670284
-0.22516282 -0.29570472 0.0081671476
-0.22516422 -0.27702963 0.0081800222
-0.22516282 -0.25835145 0.0081671476
-0.22516005 -0.23967215 0.0081413984
-0.22516282 -0.22099821 0.0081670284
-0.22516282 -0.20232163 0.0081670284
-0.22516282 -0.18364505 0.0081671476
-0.22516422 -0.1649695 0.008179903
-0.22516422 -0.1462927 0.008179903
-0.22516282 -0.12761526 0.0081671476
-0.22516145 -0.10893793 0.0081541538
-0.22516282 -0.090261973 0.0081670284
-0.22516422 -0.071585871 0.008179903
-0.22516145 -0.052908421 0.008154273
-0.22516005 -0.034231581 0.0081415176
-0.22516145 -0.015555354 0.008154273
-0.22516282 0.0031209569 0.0081672668
-0.22516282 0.021797674 0.0081671476
-0.22516282 0.040474229 0.0081670284
-0.22516422 0.059150942 0.008179903
-0.22516422 0.077827744 0.0081797838
-0.22516422 0.096504383 0.008179903
-0.22516422 0.11518114 0.008179903
-0.22516422 0.13385789 0.008179903
-0.22516422 0.15253453 0.008179903
-0.22516422 0.17121126 0.008179903
-0.22516422 0.18988788 0.0081797838
-0.22516422 0.20856468 0.0081800222
-0.22516422 0.22724135 0.008179903
-0.22516422 0.24591807 0.0081797838
-0.22516422 0.26459467 0.008179903
-0.22516422 0.28327149 0.008179903
-0.22516282 0.30194673 0.0081670284
-0.22516282 0.32062319 0.0081670284
-0.22516005 0.33929658 0.0081413984
-0.22516282 0.3579765 0.0081670284
-0.22516282 0.37665313 0.0081672668
-0.22516282 0.39532959 0.0081671476
-0.22516145 0.41400424 0.0081543922
-0.22516282 0.43268293 0.0081671476
-0.22516282 0.45135957 0.0081672668
-0.22516282 0.47003606 0.0081670284
0.29737467 0.46933758 0.0043867826
-0.22516145 0.48871025 0.0081543922
-0.22516282 0.50738937 0.0081672668
-0.22516422 0.52606863 0.008179903
-0.22516282 0.54474252 0.0081670284
-0.22516145 0.56341624 0.0081541538
-0.22516005 0.58208978 0.0081415176
-0.22516282 0.60077232 0.0081670284
-0.22516422 0.61945212 0.0081800222
-0.22516422 0.63812882 0.008179903
-0.24527244 -0.59768295 0.02057755
0.31839871 -0.57999235 0.024968028
-0.24527098 -0.57890767 0.020564437
-0.24526797 -0.56012952 0.020538568
0.31839871 -0.56118655 0.024968147
-0.24526645 -0.5413546 0.020525575
0.3184002 -0.54238355 0.024981141
-0.24526645 -0.52258283 0.020525575
0.31839871 -0.52357459 0.024968028
-0.24526797 -0.50381398 0.020538568
0.3184002 -0.50477153 0.024981141
-0.24526946 -0.48504481 0.020551562
0.31840172 -0.48596808 0.024994016
-0.24526797 -0.46627021 0.020538449
0.31840321 -0.46716455 0.025007129
-0.24526797 -0.44749844 0.020538568
0.3184047 -0.44836095 0.025020123
0.31839871 -0.42954496 0.024968028
-0.24526946 -0.428729 0.020551562
-0.24527098 -0.40995938 0.020564437
0.3184047 -0.41074821 0.025020242
-0.24527098 -0.39118731 0.020564556
0.3184047 -0.39194185 0.025020123
-0.24527098 -0.37241524 0.020564437
0.3184047 -0.37313554 0.025020003
-0.24527098 -0.35364324 0.020564437
0.3184047 -0.35432923 0.025020003
-0.24527098 -0.33487117 0.020564556
0.3184047 -0.33552289 0.025020003
-0.24527098 -0.31609911 0.020564437
0.3184047 -0.31671652 0.025020003
-0.24527098 -0.29732704 0.020564437
0.31840172 -0.29790676 0.024994016
0.3184002 -0.27909905 0.024981022
-0.24527244 -0.27855667 0.02057755
-0.24527098 -0.25978306 0.020564556
0.31839722 -0.26028997 0.024955034
-0.24526946 -0.24100956 0.020551562
0.31839722 -0.24148417 0.024955034
-0.24527098 -0.22223893 0.020564437
0.31839722 -0.22267835 0.024955034
-0.24527098 -0.20346691 0.020564556
0.31839722 -0.20387243 0.024955034
-0.24527098 -0.18469486 0.020564556
0.31839722 -0.18506663 0.024955034
-0.24527098 -0.16592276 0.020564556
0.31839722 -0.16626081 0.024955153
-0.24527244 -0.14715171 0.02057755
0.31839722 -0.14745493 0.024955034
0.31839722 -0.12864909 0.024955153
-0.24527244 -0.12837952 0.020577431
-0.24527098 -0.10960663 0.020564437
0.31839722 -0.10984328 0.024955153
-0.24527098 -0.090834595 0.020564437
0.31839722 -0.091037363 0.024954915
-0.24527244 -0.072063096 0.020577431
0.31839722 -0.072231606 0.024955034
-0.24527098 -0.053290576 0.020564556
0.31839722 -0.053425804 0.024955034
-0.24526797 -0.034517892 0.020538568
0.3184002 -0.034620494 0.024981141
-0.24526946 -0.015746308 0.020551562
0.3184002 -0.015814452 0.024981022
-0.24527098 0.0030256007 0.020564556
0.3184002 0.0029915906 0.024981141
-0.24527098 0.021797592 0.020564556
0.3184002 0.021797633 0.024981022
-0.24527098 0.040569663 0.020564437
0.31839722 0.040603429 0.024955034
-0.24527244 0.059341855 0.02057755
0.3184002 0.059409715 0.024981141
-0.24527244 0.078113928 0.02057755
0.3184002 0.078215763 0.024981022
-0.24527244 0.096886128 0.020577431
0.3184002 0.097021803 0.024981022
-0.24527244 0.11565837 0.020577431
0.3184002 0.11582785 0.024981022
-0.24527244 0.13443042 0.02057755
0.3184002 0.13463388 0.024981022
-0.24527244 0.15320253 0.020577431
0.31822601 0.15335858 0.023472428
-0.24527244 0.17197469 0.02057755
0.31731197 0.17166558 0.015556693
-0.24527244 0.1907468 0.020577431
0.3184002 0.19105186 0.024981141
-0.24527244 0.20951904 0.020577431
0.3184002 0.20985794 0.024981141
-0.24527244 0.22829106 0.02057755
0.3184002 0.22866394 0.024981141
-0.24527244 0.24706331 0.020577431
0.3184002 0.24747007 0.024981141
-0.24527244 0.26583531 0.02057755
0.3184002 0.266276 0.024981141
-0.24527244 0.28460756 0.02057755
0.31840172 0.28508353 0.024994135
-0.24527098 0.30337822 0.020564675
0.3184002 0.30388811 0.024981141
-0.24527098 0.32215029 0.020564556
0.31839871 0.32269269 0.024968147
-0.24527098 0.3409223 0.020564556
0.31840172 0.34150195 0.024994016
-0.24527098 0.3596943 0.020564556
0.31840321 0.36030999 0.025007129
-0.24527244 0.37846819 0.020577431
0.31840321 0.37911618 0.02500701
-0.24527098 0.39723849 0.020564556
0.31840321 0.39792237 0.025007129
-0.24526946 0.41600838 0.020551562
0.31840172 0.41672644 0.024994135
-0.24526946 0.43478024 0.020551562
0.31840172 0.43553257 0.024994135
-0.24527098 0.4535546 0.020564556
0.31840172 0.45433879 0.024994016
-0.24527098 0.47232658 0.020564556
-0.24526946 0.49109617 0.020551562
0.26105788 0.49002299 0.014975905
-0.24527098 0.50987071 0.020564556
0.22442216 0.51089001 0.025658011
-0.24527244 0.52864546 0.02057755
-0.24527098 0.54741478 0.020564556
-0.24527098 0.56618679 0.020564556
-0.24527244 0.58496183 0.020577431
-0.24527244 0.60373402 0.02057755
-0.24527244 0.62250608 0.020577431
-0.24527244 0.64127821 0.02057755
-0.15097558 0.69602442 0.014911413
-0.15097558 0.71475303 0.014911413
-0.15097558 0.73348153 0.014911175
-0.15097558 0.75221002 0.014911175
-0.26558566 -0.58199298 0.03308928
-0.26558244 -0.56311828 0.033063173
-0.26558083 -0.54424703 0.033049941
-0.26558244 -0.52538174 0.033063054
-0.26558244 -0.50651342 0.033063054
-0.26558405 -0.48764804 0.033076167
-0.26558405 -0.46877965 0.033076167
-0.26558244 -0.44990873 0.033063054
-0.26558405 -0.43104294 0.033076167
-0.26558566 -0.41217694 0.03308928
-0.26558566 -0.3933084 0.03308928
-0.26558566 -0.37444001 0.03308928
-0.26558566 -0.35557145 0.033089161
-0.26558566 -0.33670303 0.03308928
-0.26558566 -0.31783468 0.03308928
-0.26558566 -0.29896614 0.03308928
-0.2655873 -0.2800993 0.033102274
-0.26558566 -0.26122925 0.03308928
-0.26558405 -0.24235937 0.033076167
-0.26558566 -0.22349237 0.03308928
-0.26558405 -0.20462266 0.033076167
-0.26558566 -0.18575548 0.03308928
-0.26558566 -0.16688699 0.03308928
-0.2655873 -0.14801943 0.033102393
-0.2655873 -0.12915087 0.033102393
-0.2655873 -0.11028225 0.033102393
-0.26558405 -0.091412589 0.033076167
-0.26558566 -0.072544672 0.03308928
-0.2655873 -0.053676635 0.033102393
-0.26558405 -0.034807496 0.033076167
-0.26558405 -0.015939137 0.033076286
-0.26558566 0.0029291473 0.03308928
-0.26558566 0.021797633 0.03308928
-0.26558566 0.040666077 0.03308928
-0.2655873 0.059534684 0.033102393
-0.2655873 0.078403294 0.033102393
-0.2655873 0.097271822 0.033102393
-0.2655873 0.11614043 0.033102393
-0.2655873 0.13500899 0.033102393
-0.2655873 0.15387748 0.033102274
-0.2655873 0.17274596 0.033102393
-0.2655873 0.19161452 0.033102393
-0.2655873 0.21048318 0.033102393
-0.2655873 0.22935174 0.033102393
-0.2655873 0.24822028 0.033102393
-0.2655873 0.26708886 0.033102393
-0.2655873 0.28595749 0.033102393
-0.26558566 0.30482438 0.033089161
-0.26558566 0.32369292 0.03308928
-0.26558566 0.34256136 0.03308928
-0.26558566 0.36142984 0.03308928
-0.2655873 0.38030016 0.033102393
-0.26558566 0.3991667 0.033089161
-0.26558405 0.41803303 0.033076167
-0.26558405 0.43690142 0.033076167
-0.26558566 0.45577207 0.03308928
-0.26558566 0.47464052 0.03308928
-0.26558405 0.49350655 0.033076167
-0.26558566 0.51237756 0.03308928
-0.2655873 0.53124863 0.033102393
0.1874633 0.53194112 0.036434412
-0.2655873 0.55011714 0.033102393
-0.2655873 0.5689857 0.033102393
-0.2655873 0.58785433 0.033102393
-0.2655873 0.60672289 0.033102393
-0.2655873 0.6255914 0.033102512
-0.28611183 -0.58511335 0.045756578
-0.28610837 -0.56614113 0.045730233
-0.28610492 -0.54716915 0.04570365
-0.28610837 -0.52820963 0.045730114
-0.28610665 -0.50924093 0.045716882
-0.28610837 -0.49027804 0.045730114
-0.28610837 -0.47131234 0.045730233
-0.28610665 -0.452344 0.045716763
-0.28610837 -0.43338075 0.045730114
-0.2861101 -0.41441736 0.045743346
-0.2861101 -0.39545155 0.045743346
-0.2861101 -0.37648565 0.045743346
-0.2861101 -0.35751975 0.045743346
-0.2861101 -0.33855388 0.045743465
-0.2861101 -0.31958804 0.045743346
-0.2861101 -0.30062214 0.045743346
-0.2861101 -0.28165624 0.045743346
-0.28610837 -0.26268893 0.045730233
-0.28610837 -0.24372309 0.045730114
-0.2861101 -0.22475861 0.045743346
-0.28610837 -0.20579162 0.045730233
-0.28610837 -0.18682578 0.045730114
-0.2861101 -0.1678611 0.045743346
-0.2861101 -0.14889528 0.045743465
-0.28611183 -0.1299302 0.045756698
-0.28611183 -0.11096425 0.045756698
-0.2861101 -0.091997586 0.045743346
-0.2861101 -0.073031753 0.045743346
-0.28611183 -0.054066204 0.045756459
-0.2861101 -0.035099916 0.045743346
-0.28610837 -0.016133958 0.045730114
-0.2861101 0.0028317142 0.045743346
-0.28611183 0.021797674 0.045756578
-0.2861101 0.040763386 0.045743465
-0.28611183 0.059729591 0.045756698
-0.28611183 0.078695551 0.045756578
-0.28611183 0.097661555 0.045756578
-0.28611183 0.11662743 0.045756578
-0.28611183 0.13559343 0.045756698
-0.28611183 0.15455934 0.045756459
0.34074479 0.15498796 0.053710461
-0.28611183 0.17352539 0.045756698
0.34074643 0.174016 0.053723693
-0.28611183 0.19249129 0.045756578
0.34074315 0.19304138 0.053697109
-0.28611183 0.2114573 0.045756698
-0.28611183 0.23042321 0.045756578
-0.28611183 0.24938926 0.045756698
-0.28611183 0.26835519 0.045756698
-0.28611183 0.28732121 0.045756698
-0.2861101 0.3062855 0.045743346
-0.2861101 0.32525143 0.045743346
-0.2861101 0.34421733 0.045743346
-0.28610837 0.36318129 0.045730233
-0.28611183 0.38215098 0.045756698
-0.2861101 0.40111497 0.045743346
-0.28610837 0.42007869 0.045730114
-0.28610837 0.43904454 0.045730233
-0.2861101 0.45801252 0.045743346
-0.28610837 0.47697607 0.045730233
-0.28610837 0.49594176 0.045730114
-0.2861101 0.51491016 0.045743346
-0.28611183 0.5338788 0.045756698
-0.28611183 0.55284464 0.045756698
0.15017702 0.55317873 0.047306061
-0.28611183 0.57181072 0.045756698
-0.28611183 0.59077656 0.045756698
-0.28611183 0.60974264 0.045756698
-0.13414507 0.70361656 0.0423069
-0.13414507 0.72255594 0.0423069
-0.13414507 0.74149537 0.042307019
-0.13414507 0.76043469 0.042306781
-0.30684942 -0.58826298 0.058542132
0.34192413 -0.58943135 0.063285351
-0.30684757 -0.56919539 0.058528781
0.34192246 -0.57032728 0.063271999
-0.30684388 -0.55012482 0.058502078
0.34192413 -0.55122966 0.06328547
-0.30684569 -0.5310638 0.058515429
0.34192577 -0.53213167 0.063298821
-0.30684388 -0.51199675 0.058502078
0.34192246 -0.51302481 0.063271999
-0.30684569 -0.49293545 0.058515429
0.34192413 -0.49392685 0.063285351
-0.30684569 -0.47387123 0.058515429
0.34192577 -0.47482866 0.063298941
-0.30684388 -0.45480445 0.058502078
0.34192744 -0.45573023 0.063312173
-0.30684569 -0.43574286 0.058515429
0.34192908 -0.43663162 0.063325644
-0.30684757 -0.41668111 0.058528781
0.34192908 -0.41753042 0.063325763
-0.30684757 -0.39761677 0.058528781
0.34192246 -0.3984201 0.063271999
-0.30684757 -0.3785525 0.058528781
0.34192246 -0.37931928 0.063271999
-0.30684757 -0.35948819 0.058528781
0.34192908 -0.36022675 0.063325763
-0.30684757 -0.34042391 0.058528781
0.34192744 -0.34112361 0.063312411
-0.30684757 -0.32135957 0.058528781
0.34192577 -0.32202062 0.063298941
-0.30684757 -0.30229533 0.058528781
0.34192082 -0.30291426 0.063258529
-0.30684757 -0.28323102 0.058528781
0.34192577 -0.28381857 0.063298821
-0.30684569 -0.26416522 0.058515429
0.34192744 -0.26471907 0.063312173
-0.30684569 -0.24510106 0.058515429
0.34192577 -0.24561653 0.063298821
-0.30684569 -0.22603686 0.058515429
0.34192246 -0.22651286 0.063271999
-0.30684388 -0.20697142 0.058502078
0.34192082 -0.20741086 0.063258648
-0.30684569 -0.18790847 0.058515429
0.34192082 -0.1883101 0.063258648
-0.30684569 -0.16884422 0.058515429
0.34192082 -0.16920939 0.063258648
-0.30684757 -0.14978103 0.058528781
0.34192082 -0.15010865 0.063258529
-0.30684757 -0.13071679 0.058528781
0.34192082 -0.13100801 0.063258648
-0.30684942 -0.11165311 0.058542132
0.34192082 -0.11190733 0.063258648
-0.30684942 -0.092588738 0.058542132
0.34192082 -0.092806578 0.063258648
-0.30684757 -0.073523887 0.058528781
0.34192082 -0.073705874 0.063258648
-0.30684757 -0.054459512 0.058528781
0.34192246 -0.054605618 0.063271999
-0.30684942 -0.035395555 0.058542132
0.34192577 -0.035505407 0.063298821
-0.30684569 -0.016330739 0.058515429
0.34192413 -0.016404299 0.06328547
-0.30684757 0.0027333051 0.058528781
0.34192413 0.0026966855 0.063285351
-0.30684942 0.021797633 0.058542132
0.34192082 0.021797633 0.063258529
-0.30684757 0.040861879 0.058528781
0.34192082 0.040898256 0.063258648
-0.30684942 0.059926368 0.058542132
0.34192413 0.059999362 0.06328547
-0.30684942 0.078990817 0.058542132
0.34192413 0.079100311 0.063285351
-0.30684942 0.098055191 0.058542132
0.34192413 0.098201297 0.06328547
-0.30684942 0.11711956 0.058542132
0.34192413 0.1173022 0.063285351
-0.30684942 0.13618384 0.058542252
0.34192413 0.1364031 0.06328547
-0.30684942 0.15524833 0.058542132
-0.30684942 0.17431273 0.058542132
-0.30684942 0.19337715 0.058542252
-0.30684942 0.21244156 0.058542132
0.34192413 0.21280673 0.06328547
-0.30684942 0.23150589 0.058542132
0.34192413 0.2319075 0.06328547
-0.30684942 0.25057039 0.058542132
0.34192413 0.25100842 0.063285351
-0.30684942 0.26963472 0.058542132
0.34192413 0.27010933 0.063285351
-0.30684942 0.288699 0.058542252
0.34192577 0.28921166 0.063298821
-0.30684757 0.30776191 0.058528781
0.34192413 0.30831113 0.063285351
-0.30684757 0.32682616 0.058528781
0.34192413 0.32741201 0.06328547
-0.30684757 0.34589052 0.058528781
0.34192577 0.34651476 0.063298941
-0.30684757 0.36495483 0.058528781
0.34192082 0.36561015 0.063258648
-0.30684757 0.38401914 0.058528781
0.34192744 0.38471878 0.063312411
-0.30684942 0.40308541 0.058542132
0.34192246 0.40381363 0.063272119
-0.30684569 0.42214555 0.058515549
0.34192082 0.4229123 0.063258648
-0.30684757 0.441212 0.058528781
0.34191751 0.44200853 0.063231826
-0.30684757 0.46027625 0.058528781
0.34192577 0.46112087 0.063298821
-0.30684757 0.47934052 0.0585289
-0.30684569 0.49840227 0.058515429
-0.30684942 0.51747173 0.058542132
-0.30684942 0.53653628 0.058542252
-0.30684942 0.55560058 0.058542132
-0.30684942 0.57466513 0.058542132
0.11255898 0.57460535 0.058274746
-0.30684942 0.59372938 0.058542252
0.07460469 0.59622335 0.069341302
-0.32780337 -0.59144533 0.071461201
-0.32780141 -0.5722782 0.071447611
-0.32779941 -0.55311143 0.07143414
-0.32780141 -0.53395081 0.071447611
-0.32779941 -0.51478416 0.07143414
-0.32779941 -0.49562052 0.07143414
-0.32779941 -0.47645688 0.071434021
-0.32779747 -0.45729062 0.07142055
-0.32779941 -0.43812966 0.07143414
-0.32780141 -0.41896835 0.071447611
-0.32780141 -0.39980468 0.071447611
-0.32780141 -0.38064101 0.071447611
-0.32780141 -0.36147717 0.071447611
-0.32780141 -0.34231344 0.071447611
-0.32780141 -0.32314974 0.071447611
-0.32780141 -0.30398601 0.071447611
-0.32780141 -0.28482226 0.071447611
-0.32779941 -0.26565689 0.07143414
-0.32779941 -0.24649322 0.07143414
-0.32779747 -0.22732829 0.07142055
-0.32779747 -0.20816481 0.07142055
-0.32779747 -0.18900125 0.07142055
-0.32779941 -0.16983876 0.07143414
-0.32779941 -0.15067516 0.07143414
-0.32780141 -0.13151225 0.071447611
-0.32780141 -0.11234858 0.071447611
-0.32780337 -0.09318547 0.071461201
-0.32780337 -0.074021637 0.071461201
-0.32780141 -0.054857433 0.071447611
-0.32780337 -0.035693958 0.071461201
-0.32780141 -0.016529879 0.071447492
-0.32780141 0.0026338361 0.071447611
-0.32780337 0.021797674 0.071461082
-0.32780141 0.040961348 0.071447611
-0.32780337 0.060125306 0.071461082
-0.32780337 0.079289101 0.071461082
-0.32780337 0.098453067 0.071461082
-0.32780337 0.11761674 0.071461082
-0.32780337 0.13678074 0.071461082
-0.32780337 0.15594441 0.071461082
-0.32780337 0.17510837 0.071461082
-0.32780337 0.19427209 0.071461082
-0.32780337 0.21343604 0.071461082
-0.32780337 0.23259988 0.071461201
-0.32780337 0.25176373 0.071461082
-0.32780337 0.27092755 0.071461201
-0.32780337 0.2900914 0.071461082
-0.32780337 0.30925524 0.071461201
-0.32780337 0.32841918 0.071461201
-0.32780337 0.34758288 0.071461201
-0.32780337 0.36674681 0.071461201
-0.32780141 0.38590857 0.071447611
-0.32780337 0.40507445 0.071461201
-0.32780141 0.42423606 0.071447611
-0.32780141 0.44339982 0.071447611
-0.32780337 0.46256602 0.071461201
-0.32780141 0.48172721 0.071447611
-0.32780141 0.50089091 0.071447611
-0.32780337 0.52005756 0.071461201
-0.32780337 0.53922141 0.071461201
-0.32780337 0.55838519 0.071461082
-0.32780337 0.57754904 0.071461201
0.036309641 0.61803538 0.080507398
-0.11693121 0.69222641 0.070326567
-0.11693121 0.71138149 0.070326567
-0.11693121 0.73053658 0.070326567
-0.11693121 0.74969178 0.070326567
-0.11693121 0.76884681 0.070326567
-0.34897706 -0.59466112 0.084515572
-0.348975 -0.5753935 0.084501863
-0.34897286 -0.55612612 0.084488153
-0.348975 -0.536865 0.084501863
-0.34897286 -0.51759785 0.084488273
-0.34897286 -0.49833378 0.084488273
-0.34897286 -0.47906968 0.084488273
-0.3489708 -0.45980287 0.084474564
-0.34897286 -0.44054145 0.084488273
-0.34897286 -0.42127731 0.084488273
-0.348975 -0.40201548 0.084501743
-0.348975 -0.3827512 0.084501863
-0.348975 -0.36348704 0.084501863
-0.348975 -0.34422284 0.084501863
-0.348975 -0.32495859 0.084501863
-0.34897286 -0.30569252 0.084488273
-0.348975 -0.28643009 0.084501863
-0.34897286 -0.26716429 0.084488273
-0.34897286 -0.24790016 0.084488273
-0.34897286 -0.22863606 0.084488273
-0.3489708 -0.20937063 0.084474564
-0.3489708 -0.19010672 0.084474683
-0.3489708 -0.1708426 0.084474564
-0.34897286 -0.15157954 0.084488153
-0.34897286 -0.13231543 0.084488153
-0.348975 -0.11305206 0.084501863
-0.348975 -0.093787782 0.084501863
-0.34897706 -0.07452403 0.084515572
-0.34897706 -0.055259742 0.084515572
-0.348975 -0.035995059 0.084501863
-0.34897706 -0.016731096 0.084515572
-0.34897286 0.0025334302 0.084488273
-0.348975 0.021797592 0.084501863
-0.348975 0.041061834 0.084501743
-0.34897706 0.060326241 0.084515572
-0.34897706 0.079590566 0.084515572
-0.34897706 0.098854855 0.084515572
-0.34897706 0.11811934 0.084515572
-0.34897706 0.13738365 0.084515572
-0.34897706 0.15664791 0.084515572
0.36492226 0.15710875 0.093065739
-0.34897706 0.17591223 0.084515572
0.36492586 0.17644048 0.093093276
-0.34897706 0.19517668 0.084515572
0.36491686 0.19576611 0.093024373
-0.34897706 0.214441 0.084515572
-0.34897706 0.23370524 0.084515572
-0.34897706 0.25296953 0.084515572
-0.34897706 0.27223402 0.084515572
-0.34897706 0.2914983 0.084515452
-0.34897706 0.31076258 0.084515572
-0.34897706 0.33002687 0.084515572
-0.34897706 0.34929138 0.084515572
-0.34897706 0.36855567 0.084515572
-0.34897706 0.38782004 0.084515452
-0.34897706 0.4070842 0.084515572
-0.348975 0.42634642 0.084501863
-0.348975 0.44561076 0.084501863
-0.348975 0.4648748 0.084501863
-0.348975 0.48413914 0.084501863
-0.34897706 0.50340605 0.084515572
-0.34897706 0.52267045 0.084515572
-0.34897706 0.54193473 0.084515572
-0.34897706 0.56119901 0.084515452
-0.0023394525 0.64018309 0.092337251
0.36619747 -0.57976252 0.10281003
-0.37037179 -0.57854164 0.097693801
-0.37037179 -0.55917585 0.097693801
0.36619565 -0.56035417 0.1027962
-0.37037402 -0.5398131 0.097707748
0.36619747 -0.54095227 0.10281014
-0.37036955 -0.52044135 0.097679973
0.3662011 -0.5215531 0.1028378
-0.37036955 -0.50107563 0.097679973
0.36619565 -0.50213903 0.1027962
-0.37036955 -0.48170999 0.097679973
0.36619928 -0.4827396 0.10282397
-0.37036735 -0.46234164 0.097666144
0.36619928 -0.46333423 0.10282397
-0.37036955 -0.44297868 0.097679973
0.3662011 -0.44393158 0.1028378
-0.37036955 -0.42361292 0.097679973
0.3662011 -0.4245261 0.1028378
-0.37037179 -0.40424967 0.097693801
0.36620289 -0.40512311 0.10285163
-0.37037179 -0.38488382 0.09769392
0.36620289 -0.38571766 0.10285163
-0.37037179 -0.36551806 0.09769392
0.36619565 -0.36630365 0.1027962
-0.37037179 -0.34615228 0.09769392
0.36619565 -0.34689856 0.1027962
-0.37037179 -0.32678649 0.097693801
0.36619747 -0.32749546 0.10281003
-0.37036955 -0.30741885 0.097679973
0.3662011 -0.30809391 0.1028378
-0.37036955 -0.28805324 0.097680092
0.36620289 -0.28869024 0.10285163
-0.37036735 -0.26868597 0.097666264
0.36620471 -0.2692863 0.10286546
-0.37036955 -0.24932188 0.097679973
0.3662011 -0.24987772 0.1028378
-0.37036955 -0.22995612 0.097679973
0.36619747 -0.23046961 0.10281014
-0.37036735 -0.2105892 0.097666144
0.36619565 -0.21106316 0.1027962
-0.37036735 -0.1912237 0.097666264
0.36619747 -0.19165921 0.10281003
-0.37036735 -0.17185815 0.097666264
0.36619565 -0.17225297 0.1027962
-0.37036955 -0.15249349 0.097679973
0.36619383 -0.15284698 0.10278237
-0.37036955 -0.13312775 0.097679973
0.36619204 -0.13344115 0.10276854
-0.37036955 -0.11376212 0.097680092
0.36619204 -0.11403628 0.10276854
-0.37037179 -0.094397061 0.09769392
0.36619204 -0.094631433 0.10276854
-0.37037179 -0.075031355 0.09769392
0.36619383 -0.075227194 0.10278249
-0.37037402 -0.055665933 0.09770751
0.36619747 -0.055823036 0.10281003
-0.37037179 -0.036299773 0.09769392
0.36619747 -0.036417939 0.10281014
-0.37037402 -0.01693411 0.097707629
0.36619565 -0.017012479 0.1027962
-0.37037179 0.0024318844 0.097693682
0.36619928 0.002392292 0.10282397
-0.37037179 0.021797592 0.097693682
0.36619204 0.021797592 0.10276854
-0.37037179 0.041163381 0.09769392
0.36619383 0.041202568 0.10278249
-0.37037402 0.060529374 0.09770751
0.36619747 0.06060791 0.10281026
-0.37037402 0.079895243 0.09770751
0.36619747 0.080013126 0.10281026
-0.37037402 0.099261157 0.097707748
0.36619747 0.099418305 0.10281003
-0.37037402 0.11862707 0.097707629
0.36619747 0.11882348 0.10281014
-0.37037402 0.13799286 0.097707629
0.36619747 0.13822858 0.10281014
-0.37037402 0.15735884 0.09770751
-0.37037402 0.17672463 0.09770751
-0.37037402 0.19609062 0.097707629
-0.37037402 0.21545641 0.097707629
0.36619747 0.21584928 0.10281003
-0.37037402 0.23482245 0.09770751
0.36619747 0.23525447 0.10281014
-0.37037402 0.25418824 0.097707629
0.36619747 0.25465953 0.10281003
-0.37037402 0.27355424 0.097707629
0.36619747 0.27406472 0.10281026
-0.37037402 0.29291999 0.097707748
0.36619928 0.29347143 0.10282397
-0.37037402 0.31228584 0.097707748
0.36619565 0.31287357 0.10279632
-0.37037402 0.3316519 0.097707629
0.36619928 0.33228201 0.10282409
-0.37037402 0.35101762 0.097707629
0.36619747 0.3516854 0.10281026
-0.37037402 0.37038368 0.097707629
0.36619747 0.3710905 0.10281014
-0.37037402 0.38974941 0.097707629
0.36619565 0.39049372 0.10279632
-0.37037402 0.40911546 0.097707629
0.36619204 0.40989456 0.10276854
-0.37037402 0.42848125 0.097707629
0.36619204 0.42929938 0.10276866
-0.37037179 0.44784483 0.09769392
0.36619928 0.44871366 0.10282385
-0.37037402 0.46721303 0.097707748
-0.37037179 0.48657638 0.09769392
-0.37037402 0.50594485 0.097707748
-0.37037402 0.52531064 0.097707748
-0.37037402 0.5446766 0.097707748
-0.041339193 0.66240042 0.10372496
-0.099321514 0.69995344 0.099005461
-0.099321514 0.71932924 0.099005461
-0.099321514 0.73870516 0.09900558
-0.099321514 0.75808108 0.09900558
-0.39199772 -0.58172643 0.11103952
-0.39199537 -0.56225467 0.11102569
-0.39199772 -0.54278934 0.11103952
-0.39199537 -0.52331781 0.11102557
-0.39199302 -0.50384659 0.11101162
-0.39199302 -0.48437825 0.11101174
-0.39199302 -0.46490994 0.11101162
-0.39199302 -0.44544169 0.11101162
-0.39199302 -0.4259733 0.11101162
-0.39199537 -0.40650746 0.11102569
-0.39199537 -0.38703895 0.11102545
-0.39199537 -0.36757058 0.11102557
-0.39199537 -0.34810224 0.11102557
-0.39199537 -0.32863382 0.11102569
-0.39199302 -0.3091636 0.11101174
-0.39199302 -0.28969523 0.11101174
-0.39199066 -0.27022532 0.1109978
-0.39199302 -0.25075868 0.11101174
-0.39199302 -0.23129037 0.11101162
-0.39199302 -0.211822 0.11101162
-0.39199302 -0.19235374 0.11101162
-0.39199302 -0.17288542 0.11101151
-0.39199066 -0.15341613 0.11099756
-0.39199302 -0.1339488 0.11101162
-0.39199302 -0.11448047 0.11101151
-0.39199302 -0.095012248 0.11101174
-0.39199537 -0.075544462 0.11102569
-0.39199537 -0.056076027 0.11102569
-0.39199772 -0.036607876 0.11103952
-0.39199537 -0.017139239 0.11102557
-0.39199772 0.0023291167 0.11103952
-0.39199537 0.021797551 0.11102569
-0.39199537 0.041265987 0.11102569
-0.39199772 0.060734622 0.11103952
-0.39199772 0.080203146 0.11103952
-0.39199772 0.099671662 0.11103952
-0.39199772 0.11914006 0.11103952
-0.39199772 0.13860874 0.11103964
-0.39199772 0.15807724 0.11103952
-0.39199772 0.17754562 0.11103952
-0.39199772 0.19701432 0.11103952
-0.39199772 0.21648276 0.11103964
-0.39199772 0.23595123 0.11103952
-0.39199772 0.25541976 0.11103952
-0.39199772 0.27488834 0.11103964
-0.39199772 0.29435682 0.11103952
-0.39199772 0.31382534 0.11103952
-0.39199772 0.33329377 0.11103952
-0.39199772 0.35276246 0.11103952
-0.39199772 0.37223086 0.11103964
-0.39199772 0.39169937 0.11103952
-0.39199537 0.41116568 0.11102569
-0.39199772 0.43063644 0.11103964
-0.39199537 0.45010263 0.11102569
-0.39199772 0.46957338 0.11103964
-0.39199772 0.48904204 0.11103952
-0.39199772 0.50851059 0.11103952
-0.39199772 0.52797902 0.11103964
-0.0806918 0.68480569 0.11516047
-0.41385189 -0.5849418 0.12451351
-0.41384938 -0.56536633 0.12449932
-0.41385436 -0.54580051 0.12452769
-0.41384938 -0.52622211 0.12449944
-0.41384691 -0.50664705 0.12448525
-0.41384691 -0.48707506 0.12448525
-0.41384691 -0.46750295 0.12448525
-0.41384691 -0.44793096 0.12448525
-0.41384691 -0.42835894 0.12448525
-0.41384938 -0.40878931 0.12449944
