ply
format ascii 1.0
comment PCL generated
element vertex 1357
property float x
property float y
property float z
element camera 0
property float view_px
property float view_py
property float view_pz
property float x_axisx
property float x_axisy
property float x_axisz
property float y_axisx
property float y_axisy
property float y_axisz
property float z_axisx
property float z_axisy
property float z_axisz
property float focal
property float scalex
property float scaley
property float centerx
property float centery
property int viewportx
property int viewporty
property float k1
property float k2
end_header
0.21502161 -0.064769819 -0.13533401
0.23221496 -0.064769819 -0.13533401
0.2494083 -0.064769819 -0.13533401
-0.25129163 -0.48117712 -0.11721063
-0.23395877 -0.48117712 -0.11721063
-0.21662699 -0.4811793 -0.11719996
-0.19929402 -0.4811793 -0.11719996
-0.18196198 -0.48118165 -0.11718917
-0.16462977 -0.4811838 -0.1171785
-0.14729369 -0.48117492 -0.1172213
-0.12996091 -0.48117492 -0.1172213
-0.11262812 -0.48117492 -0.1172213
-0.095295332 -0.48117492 -0.1172213
-0.077962548 -0.48117492 -0.1172213
-0.060629766 -0.48117492 -0.1172213
-0.043261081 -0.48085177 -0.1187759
-0.025940426 -0.480854 -0.11876523
-0.0086195255 -0.480854 -0.11876523
0.0087013738 -0.4808563 -0.11875439
0.026022356 -0.4808563 -0.11875439
0.043343503 -0.48085853 -0.11874372
0.060664564 -0.48085853 -0.11874372
0.077985965 -0.48086068 -0.11873311
0.095307112 -0.48086068 -0.11873311
0.11262876 -0.48086289 -0.11872244
0.12994999 -0.48086289 -0.11872244
0.14727122 -0.48086289 -0.11872244
0.16459318 -0.48086521 -0.11871153
0.18191451 -0.48086521 -0.11871153
0.19923671 -0.48086736 -0.11870092
0.21655811 -0.48086736 -0.11870092
0.23387951 -0.48086736 -0.11870092
0.25120091 -0.48086736 -0.11870092
-0.25041133 -0.047738098 -0.12483406
-0.23313718 -0.047738098 -0.12483406
-0.21586299 -0.047738098 -0.12483406
-0.1985888 -0.047738098 -0.12483406
-0.18131553 -0.047738314 -0.12482333
-0.16404127 -0.047738314 -0.12482333
-0.14676701 -0.047738314 -0.12482333
-0.12949274 -0.047738314 -0.12482333
-0.11221847 -0.047738314 -0.12482333
-0.094944209 -0.047738314 -0.12482333
-0.077669941 -0.047738314 -0.12482333
-0.060395684 -0.047738314 -0.12482333
-0.04312142 -0.047738314 -0.12482333
-0.025847156 -0.047738314 -0.12482333
-0.0085728904 -0.047738314 -0.12482333
0.0087013738 -0.047738314 -0.12482333
0.025975637 -0.047738314 -0.12482333
0.043249901 -0.047738314 -0.12482333
0.060524166 -0.047738314 -0.12482333
0.077798434 -0.047738314 -0.12482333
0.095072694 -0.047738314 -0.12482333
0.11234696 -0.047738314 -0.12482333
0.12962122 -0.047738314 -0.12482333
0.14689548 -0.047738314 -0.12482333
0.16416974 -0.047738314 -0.12482333
0.181444 -0.047738314 -0.12482333
0.19871737 -0.047738098 -0.12483406
0.21599154 -0.047738098 -0.12483406
0.23326573 -0.047738098 -0.12483406
0.25053993 -0.047738098 -0.12483406
-0.25163522 -0.03054549 -0.11423492
-0.23427947 -0.03054549 -0.11423492
-0.21692368 -0.03054549 -0.11423492
-0.19956791 -0.03054549 -0.11423492
-0.18221305 -0.030545615 -0.11422408
-0.16485721 -0.030545615 -0.11422408
-0.14750136 -0.030545615 -0.11422408
-0.13014549 -0.030545615 -0.11422408
-0.11278962 -0.030545615 -0.11422408
-0.095433757 -0.030545615 -0.11422408
-0.078077912 -0.030545615 -0.11422408
-0.060722057 -0.030545615 -0.11422408
-0.043366194 -0.030545615 -0.11422408
-0.026010342 -0.030545615 -0.11422408
-0.0086544836 -0.030545615 -0.11422408
0.0087013738 -0.030545615 -0.11422408
0.026057232 -0.030545615 -0.11422408
0.043413088 -0.030545615 -0.11422408
0.06076894 -0.030545615 -0.11422408
0.078124806 -0.030545615 -0.11422408
0.095480666 -0.030545615 -0.11422408
0.11283651 -0.030545615 -0.11422408
0.13019237 -0.030545615 -0.11422408
0.14754823 -0.030545615 -0.11422408
0.1649041 -0.030545615 -0.11422408
0.18225995 -0.030545615 -0.11422408
0.19961579 -0.030545615 -0.11422408
0.21697065 -0.03054549 -0.11423492
0.23432642 -0.03054549 -0.11423492
0.25168222 -0.03054549 -0.11423492
-0.1831191 -0.013189717 -0.10352421
-0.16568087 -0.013189717 -0.10352421
-0.14824265 -0.013189717 -0.10352421
-0.13080443 -0.013189717 -0.10352421
-0.11336619 -0.013189717 -0.10352421
-0.095927976 -0.013189717 -0.10352421
-0.078489743 -0.013189717 -0.10352421
-0.061051529 -0.013189717 -0.10352421
-0.043613303 -0.013189717 -0.10352421
-0.026175078 -0.013189717 -0.10352421
-0.0087368516 -0.013189717 -0.10352421
0.0087013738 -0.013189717 -0.10352421
0.026139598 -0.013189717 -0.10352421
0.043577824 -0.013189717 -0.10352421
0.061016049 -0.013189717 -0.10352421
0.078454278 -0.013189717 -0.10352421
0.095892496 -0.013189717 -0.10352421
0.11333073 -0.013189717 -0.10352421
0.13076894 -0.013189717 -0.10352421
0.14820717 -0.013189717 -0.10352421
0.16564539 -0.013189717 -0.10352421
0.18308361 -0.013189717 -0.10352421
0.20052184 -0.013189717 -0.10352421
0.21796007 -0.013189717 -0.10352421
-0.25287074 -0.013189675 -0.10353506
-0.2354326 -0.013189675 -0.10353506
-0.21799447 -0.013189675 -0.10353506
-0.20055632 -0.013189675 -0.10353506
0.2353972 -0.013189675 -0.10353506
0.25283533 -0.013189675 -0.10353506
-0.25411803 0.0043316279 -0.092733383
-0.23659673 0.0043316279 -0.092733383
-0.21907546 0.0043316279 -0.092733383
-0.20155415 0.0043316279 -0.092733383
-0.1840338 0.0043316279 -0.092722297
-0.1665124 0.0043316279 -0.092722297
-0.14899102 0.0043316279 -0.092722297
-0.13146965 0.0043316279 -0.092722297
-0.11394826 0.0043316279 -0.092722297
-0.096426889 0.0043316279 -0.092722297
-0.078905508 0.0043316279 -0.092722297
-0.061384138 0.0043316279 -0.092722297
-0.04386276 0.0043316279 -0.092722297
-0.026341382 0.0043316279 -0.092722297
-0.0088200038 0.0043316279 -0.092722297
0.0087013738 0.0043316279 -0.092722297
0.026222751 0.0043316279 -0.092722297
0.043744128 0.0043316279 -0.092722297
0.061265506 0.0043316279 -0.092722297
0.078786887 0.0043316279 -0.092722297
0.096308261 0.0043316279 -0.092722297
0.11382964 0.0043316279 -0.092722297
0.13135101 0.0043316279 -0.092722297
0.14887239 0.0043316279 -0.092722297
0.16639376 0.0043316279 -0.092722297
0.18391514 0.0043316279 -0.092722297
0.20143653 0.0043316279 -0.092722297
0.2189579 0.0043316279 -0.092722297
0.23647819 0.0043316279 -0.092733383
0.25399947 0.0043316279 -0.092733383
-0.25631097 -0.50787944 -0.073741794
-0.2386435 -0.50787944 -0.073741794
-0.22097711 -0.50788188 -0.073730767
-0.20331058 -0.50788426 -0.073719561
-0.18564293 -0.50788426 -0.073719561
-0.16797611 -0.50788665 -0.073708475
-0.15030836 -0.50788665 -0.073708475
-0.1326413 -0.50788909 -0.073697209
-0.11497165 -0.50788188 -0.073730767
-0.097304083 -0.50788188 -0.073730767
-0.079636499 -0.50788188 -0.073730767
-0.061968934 -0.50788188 -0.073730767
-0.04426457 -0.50753856 -0.075323582
-0.026609428 -0.50754094 -0.075312376
-0.0089540267 -0.50754094 -0.075312376
0.0087013738 -0.50754339 -0.07530123
0.026356857 -0.50754339 -0.07530123
0.044012342 -0.50754339 -0.07530123
0.061668087 -0.50754571 -0.075290084
0.079323664 -0.50754571 -0.075290084
0.096979663 -0.50754815 -0.075278997
0.11463532 -0.50754815 -0.075278997
0.13229157 -0.5075506 -0.075267851
0.1499473 -0.5075506 -0.075267851
0.16760382 -0.50755298 -0.075256646
0.18525964 -0.50755298 -0.075256646
0.20291549 -0.50755298 -0.075256646
0.22057131 -0.50755298 -0.075256646
0.23822826 -0.50755525 -0.075245678
0.25588417 -0.50755525 -0.075245678
-0.25537723 0.022020774 -0.081827879
-0.23777203 0.022020774 -0.081827879
-0.22016679 0.022020774 -0.081827879
-0.20256256 0.022020983 -0.081816912
-0.18495725 0.022020983 -0.081816912
-0.16735192 0.022020983 -0.081816912
-0.1497466 0.022020983 -0.081816912
-0.13214126 0.022020983 -0.081816912
-0.11453591 0.022020983 -0.081816912
-0.096930586 0.022020983 -0.081816912
-0.079325266 0.022020983 -0.081816912
-0.061719935 0.022020983 -0.081816912
-0.044114608 0.022020983 -0.081816912
-0.026509281 0.022020983 -0.081816912
-0.0089039532 0.022020983 -0.081816912
0.0087013738 0.022020983 -0.081816912
0.0263067 0.022020983 -0.081816912
0.043912027 0.022020983 -0.081816912
0.061517354 0.022020983 -0.081816912
0.079122685 0.022020983 -0.081816912
0.096728019 0.022020983 -0.081816912
0.11433334 0.022020983 -0.081816912
0.13193867 0.022020983 -0.081816912
0.149544 0.022020983 -0.081816912
0.16714934 0.022020983 -0.081816912
0.18475465 0.022020983 -0.081816912
0.20235999 0.022020983 -0.081816912
0.21996529 0.022020983 -0.081816912
0.23757063 0.022020983 -0.081816912
0.25517479 0.022020774 -0.081827879
-0.25664863 0.039880231 -0.07081759
-0.23895863 0.039880231 -0.07081759
-0.22126862 0.039880231 -0.07081759
-0.20357966 0.039880566 -0.070806444
-0.18588959 0.039880566 -0.070806444
-0.16819949 0.039880566 -0.070806444
-0.1505094 0.039880566 -0.070806444
-0.13281931 0.039880566 -0.070806444
-0.11512923 0.039880566 -0.070806444
-0.09743914 0.039880566 -0.070806444
-0.079749055 0.039880566 -0.070806444
-0.062058967 0.039880566 -0.070806444
-0.044368885 0.039880566 -0.070806444
-0.026678797 0.039880566 -0.070806444
-0.0089887111 0.039880566 -0.070806444
0.0087013738 0.039880566 -0.070806444
0.026391458 0.039880566 -0.070806444
0.044081543 0.039880566 -0.070806444
0.061771631 0.039880566 -0.070806444
0.079461716 0.039880566 -0.070806444
0.097151808 0.039880566 -0.070806444
0.11484189 0.039880566 -0.070806444
0.13253199 0.039880566 -0.070806444
0.15022205 0.039880566 -0.070806444
0.16791214 0.039880566 -0.070806444
0.18560223 0.039880566 -0.070806444
0.20329233 0.039880566 -0.070806444
0.2209824 0.039880566 -0.070806444
0.23867249 0.039880566 -0.070806444
0.25636259 0.039880566 -0.070806444
-0.25793228 0.05791261 -0.059700727
-0.24015673 0.05791261 -0.059700727
-0.22238228 0.057912946 -0.059689522
-0.20460661 0.057912946 -0.059689522
-0.18683094 0.057912946 -0.059689522
-0.16905527 0.057912946 -0.059689522
-0.15127961 0.057912946 -0.059689522
-0.13350394 0.057912946 -0.059689522
-0.11572827 0.057912946 -0.059689522
-0.097952612 0.057912946 -0.059689522
-0.080176942 0.057912946 -0.059689522
-0.062401284 0.057912946 -0.059689522
-0.044625621 0.057912946 -0.059689522
-0.026849955 0.057912946 -0.059689522
-0.0090742903 0.057912946 -0.059689522
0.0087013738 0.057912946 -0.059689522
0.026477039 0.057912946 -0.059689522
0.044252701 0.057912946 -0.059689522
0.062028367 0.057912946 -0.059689522
0.079804033 0.057912946 -0.059689522
0.097579695 0.057912946 -0.059689522
0.11535536 0.057912946 -0.059689522
0.13313103 0.057912946 -0.059689522
0.15090668 0.057912946 -0.059689522
0.16868235 0.057912946 -0.059689522
0.18645801 0.057912946 -0.059689522
0.20423368 0.057912946 -0.059689522
0.22200935 0.057912946 -0.059689522
0.23978502 0.057912946 -0.059689522
0.25756067 0.057912946 -0.059689522
-0.25922841 0.076120175 -0.048475862
-0.24136646 0.076120175 -0.048475862
-0.22350562 0.0761206 -0.048464358
-0.20564353 0.0761206 -0.048464358
-0.18778147 0.0761206 -0.048464358
-0.16991939 0.0761206 -0.048464358
-0.1520573 0.0761206 -0.048464358
-0.13419522 0.0761206 -0.048464358
-0.11633315 0.0761206 -0.048464358
-0.098471075 0.0761206 -0.048464358
-0.080609001 0.0761206 -0.048464358
-0.062746927 0.0761206 -0.048464358
-0.044884853 0.0761206 -0.048464358
-0.027022779 0.0761206 -0.048464358
-0.0091607003 0.0761206 -0.048464358
0.0087013738 0.0761206 -0.048464358
0.026563447 0.0761206 -0.048464358
0.044425525 0.0761206 -0.048464358
0.062287599 0.0761206 -0.048464358
0.08014968 0.0761206 -0.048464358
0.098011754 0.0761206 -0.048464358
0.11587383 0.0761206 -0.048464358
0.1337359 0.0761206 -0.048464358
0.15159796 0.0761206 -0.048464358
0.16946004 0.0761206 -0.048464358
0.18732212 0.0761206 -0.048464358
0.20518421 0.0761206 -0.048464358
0.22304627 0.0761206 -0.048464358
0.24090835 0.0761206 -0.048464358
0.25877044 0.0761206 -0.048464358
-0.26053858 0.094506241 -0.037129641
-0.24258925 0.094506241 -0.037129641
-0.22463992 0.094506241 -0.037129641
-0.20669058 0.094506241 -0.037129641
-0.18874127 0.094506241 -0.037129641
-0.17079192 0.094506241 -0.037129641
-0.1528426 0.094506241 -0.037129641
-0.13489327 0.094506241 -0.037129641
-0.11694393 0.094506241 -0.037129641
-0.098994598 0.094506241 -0.037129641
-0.08104527 0.094506241 -0.037129641
-0.063095942 0.094506241 -0.037129641
-0.045146614 0.094506241 -0.037129641
-0.027197286 0.094506241 -0.037129641
-0.0092479559 0.094506241 -0.037129641
0.0087013738 0.094506241 -0.037129641
0.026650704 0.094506241 -0.037129641
0.044600032 0.094506241 -0.037129641
0.06254936 0.094506241 -0.037129641
0.080498695 0.094506241 -0.037129641
0.098448463 0.094506785 -0.037118256
0.11639735 0.094506241 -0.037129641
0.13434668 0.094506241 -0.037129641
0.15229601 0.094506241 -0.037129641
0.17024533 0.094506241 -0.037129641
0.18819466 0.094506241 -0.037129641
0.20614401 0.094506241 -0.037129641
0.22409332 0.094506241 -0.037129641
0.24204266 0.094506241 -0.037129641
0.259992 0.094506241 -0.037129641
-0.26152796 -0.53563303 -0.028561592
-0.24351268 -0.53563303 -0.028561592
-0.22549854 -0.53563565 -0.028550029
-0.20748423 -0.53563833 -0.028538465
-0.18946876 -0.53563833 -0.028538465
-0.17145418 -0.53564084 -0.028526783
-0.15343943 -0.53564346 -0.02851522
-0.13542378 -0.53564346 -0.02851522
-0.11740876 -0.53564602 -0.028503537
-0.09939196 -0.53564084 -0.028526783
-0.081376396 -0.53564084 -0.028526783
-0.063360848 -0.53564084 -0.028526783
-0.045307577 -0.53527623 -0.03015995
-0.027304593 -0.53527623 -0.03015995
-0.0093017006 -0.5352788 -0.030148268
0.0087013738 -0.5352788 -0.030148268
0.026704535 -0.53528142 -0.030136704
0.044707697 -0.53528142 -0.030136704
0.062711127 -0.53528404 -0.030125082
0.080714382 -0.53528404 -0.030125082
0.098718084 -0.53528661 -0.030113697
0.11672142 -0.53528661 -0.030113697
0.13472538 -0.53528917 -0.030102015
0.15272881 -0.53528917 -0.030102015
0.17073224 -0.53528917 -0.030102015
0.18873654 -0.53529179 -0.030090451
0.20674007 -0.53529179 -0.030090451
0.22474359 -0.53529179 -0.030090451
0.24274711 -0.53529179 -0.030090451
0.2607519 -0.53529441 -0.030078828
-0.26185891 0.11307177 -0.025695443
-0.2438228 0.11307237 -0.025683761
-0.22578536 0.11307237 -0.025683761
-0.20774794 0.11307237 -0.025683761
-0.1897105 0.11307237 -0.025683761
-0.17167303 0.11307237 -0.025683761
-0.15363561 0.11307237 -0.025683761
-0.13559817 0.11307237 -0.025683761
-0.11756071 0.11307237 -0.025683761
-0.099523805 0.11307304 -0.025672138
-0.081486277 0.11307304 -0.025672138
-0.063448749 0.11307304 -0.025672138
-0.045411218 0.11307304 -0.025672138
-0.02737369 0.11307304 -0.025672138
-0.0093361577 0.11307304 -0.025672138
0.0087013738 0.11307304 -0.025672138
0.026738904 0.11307304 -0.025672138
0.044776436 0.11307304 -0.025672138
0.062813967 0.11307304 -0.025672138
0.080851503 0.11307304 -0.025672138
0.098889031 0.11307304 -0.025672138
0.11692656 0.11307304 -0.025672138
0.13496345 0.11307237 -0.025683761
0.15300091 0.11307237 -0.025683761
0.17103834 0.11307237 -0.025683761
0.18907577 0.11307237 -0.025683761
0.20711324 0.11307237 -0.025683761
0.22515067 0.11307237 -0.025683761
0.2431881 0.11307237 -0.025683761
-0.24506854 0.13182163 -0.014124751
-0.22694212 0.13182163 -0.014124751
-0.20881569 0.13182163 -0.014124751
-0.19068927 0.13182163 -0.014124751
-0.17256285 0.13182163 -0.014124751
-0.15443642 0.13182163 -0.014124751
-0.13631001 0.13182163 -0.014124751
-0.11818358 0.13182163 -0.014124751
-0.10005769 0.13182241 -0.014113009
-0.081931189 0.13182241 -0.014113009
-0.063804671 0.13182241 -0.014113009
-0.045678161 0.13182241 -0.014113009
-0.027551651 0.13182241 -0.014113009
-0.0094251381 0.13182241 -0.014113009
0.0087013738 0.13182241 -0.014113009
0.026827887 0.13182241 -0.014113009
0.044954397 0.13182241 -0.014113009
0.063080907 0.13182241 -0.014113009
0.081207424 0.13182241 -0.014113009
0.099333942 0.13182241 -0.014113009
0.11746044 0.13182241 -0.014113009
0.13558696 0.13182241 -0.014113009
0.15371275 0.13182163 -0.014124751
0.17183916 0.13182163 -0.014124751
0.18996559 0.13182163 -0.014124751
0.208092 0.13182163 -0.014124751
0.22621843 0.13182163 -0.014124751
0.24434486 0.13182163 -0.014124751
-0.24632661 0.1507569 -0.0024513602
-0.22811034 0.1507569 -0.0024513602
-0.20989405 0.1507569 -0.0024513602
-0.19167775 0.1507569 -0.0024513602
-0.17346148 0.1507569 -0.0024513602
-0.1552452 0.1507569 -0.0024513602
-0.1370289 0.1507569 -0.0024513602
-0.11881325 0.1507576 -0.0024393201
-0.10059687 0.1507576 -0.0024393201
-0.082380503 0.1507576 -0.0024393201
-0.064164132 0.1507576 -0.0024393201
-0.045947753 0.1507576 -0.0024393201
-0.027731381 0.1507576 -0.0024393201
-0.0095150033 0.1507576 -0.0024393201
0.0087013738 0.1507576 -0.0024393201
0.026917752 0.1507576 -0.0024393201
0.045134127 0.1507576 -0.0024393201
0.063350499 0.1507576 -0.0024393201
0.081566885 0.1507576 -0.0024393201
0.099783257 0.1507576 -0.0024393201
0.11799963 0.1507576 -0.0024393201
0.136216 0.1507576 -0.0024393201
0.15443164 0.1507569 -0.0024513602
0.17264794 0.1507569 -0.0024513602
0.19086422 0.1507569 -0.0024513602
0.20908049 0.1507569 -0.0024513602
0.22729678 0.1507569 -0.0024513602
0.24551308 0.1507569 -0.0024513602
-0.24759723 0.16988063 0.0093386173
-0.2292902 0.16988063 0.0093386173
-0.21098314 0.16988063 0.0093386173
-0.19267611 0.16988063 0.0093386173
-0.17436907 0.16988063 0.0093386173
-0.15606202 0.16988063 0.0093386173
-0.13775499 0.16988063 0.0093386173
-0.11944858 0.16988172 0.0093505383
-0.10114144 0.16988172 0.0093505383
-0.082834296 0.16988172 0.0093505383
-0.064527161 0.16988172 0.0093505383
-0.046220034 0.16988172 0.0093505383
-0.027912896 0.16988172 0.0093505383
-0.0096057607 0.16988172 0.0093505383
0.0087013738 0.16988172 0.0093505383
0.027008507 0.16988172 0.0093505383
0.045315642 0.16988172 0.0093505383
0.06362278 0.16988172 0.0093505383
0.081929915 0.16988172 0.0093505383
0.10023705 0.16988172 0.0093505383
0.11854419 0.16988172 0.0093505383
0.13685133 0.16988172 0.0093505383
0.15515845 0.16988172 0.0093505383
0.17346476 0.16988063 0.0093386173
0.19177181 0.16988063 0.0093386173
0.21007885 0.16988063 0.0093386173
0.22838588 0.16988063 0.0093386173
0.24669294 0.16988063 0.0093386173
-0.24857868 -0.56450409 0.018445253
-0.23020154 -0.56450409 0.018445253
-0.2118255 -0.56450689 0.018457353
-0.19344826 -0.56450689 0.018457353
-0.17507195 -0.56450969 0.018469453
-0.15669546 -0.56451249 0.018481553
-0.13831803 -0.56451249 0.018481553
-0.11994124 -0.56451523 0.018493474
-0.10156373 -0.56451523 0.018493474
-0.083186679 -0.56451803 0.018505514
-0.064808697 -0.56451523 0.018493474
-0.046392497 -0.56412834 0.016818166
-0.028027873 -0.56412834 0.016818166
-0.0096633406 -0.56413114 0.016830325
0.0087013738 -0.56413114 0.016830325
0.027066182 -0.56413394 0.016842365
0.045430988 -0.56413394 0.016842365
0.063796073 -0.56413674 0.016854405
0.08216098 -0.56413674 0.016854405
0.10052634 -0.56413949 0.016866446
0.11889134 -0.56413949 0.016866446
0.13725631 -0.56413949 0.016866446
0.15562205 -0.56414229 0.016878426
0.17398715 -0.56414229 0.016878426
0.19235222 -0.56414229 0.016878426
0.21071731 -0.56414229 0.016878426
0.22908351 -0.56414509 0.016890585
0.24744868 -0.56414509 0.016890585
-0.24888058 0.18919617 0.021246493
-0.23048186 0.18919617 0.021246493
-0.21208316 0.18919617 0.021246493
-0.19368444 0.18919617 0.021246493
-0.17528573 0.18919617 0.021246493
-0.15688701 0.18919617 0.021246493
-0.13848907 0.18919714 0.021258712
-0.12009025 0.18919714 0.021258712
-0.10169145 0.18919714 0.021258712
-0.083292648 0.18919714 0.021258712
-0.064893842 0.18919714 0.021258712
-0.046495039 0.18919714 0.021258712
-0.028096236 0.18919714 0.021258712
-0.0096974308 0.18919714 0.021258712
0.0087013738 0.18919714 0.021258712
0.027100179 0.18919714 0.021258712
0.045498982 0.18919714 0.021258712
0.063897789 0.18919714 0.021258712
0.082296595 0.18919714 0.021258712
0.1006954 0.18919714 0.021258712
0.1190942 0.18919714 0.021258712
0.137493 0.18919714 0.021258712
0.15589181 0.18919714 0.021258712
0.1742906 0.18919714 0.021258712
0.19268847 0.18919617 0.021246493
0.21108718 0.18919617 0.021246493
0.2294859 0.18919617 0.021246493
0.2478846 0.18919617 0.021246493
-0.25017682 0.20870578 0.033274293
-0.23168553 0.20870578 0.033274293
-0.21319424 0.20870578 0.033274293
-0.19470292 0.20870578 0.033274293
-0.17621164 0.20870578 0.033274293
-0.15772034 0.20870578 0.033274293
-0.13922979 0.20870692 0.033286452
-0.12073838 0.20870692 0.033286452
-0.10224699 0.20870692 0.033286452
-0.08375559 0.20870692 0.033286452
-0.065264203 0.20870692 0.033286452
-0.046772812 0.20870692 0.033286452
-0.028281417 0.20870692 0.033286452
-0.009790021 0.20870692 0.033286452
0.0087013738 0.20870692 0.033286452
0.027192768 0.20870692 0.033286452
0.045684163 0.20870692 0.033286452
0.064175561 0.20870692 0.033286452
0.082666956 0.20870692 0.033286452
0.10115834 0.20870692 0.033286452
0.11964975 0.20870692 0.033286452
0.13814113 0.20870692 0.033286452
0.15663253 0.20870692 0.033286452
0.17512392 0.20870692 0.033286452
0.19361438 0.20870578 0.033274293
0.21210566 0.20870578 0.033274293
0.23059697 0.20870578 0.033274293
0.24908827 0.20870578 0.033274293
-0.25148621 0.22841291 0.045423865
-0.23290138 0.22841291 0.045423865
-0.21431655 0.22841291 0.045423865
-0.19573173 0.22841291 0.045423865
-0.1771469 0.22841291 0.045423865
-0.15856293 0.22841425 0.045436144
-0.13997801 0.22841425 0.045436144
-0.12139308 0.22841425 0.045436144
-0.10280816 0.22841425 0.045436144
-0.084223241 0.22841425 0.045436144
-0.065638311 0.22841425 0.045436144
-0.047053393 0.22841425 0.045436144
-0.028468471 0.22841425 0.045436144
-0.00988355 0.22841425 0.045436144
0.0087013738 0.22841425 0.045436144
0.027286299 0.22841425 0.045436144
0.045871217 0.22841425 0.045436144
0.064456142 0.22841425 0.045436144
0.083041064 0.22841425 0.045436144
0.10162599 0.22841425 0.045436144
0.12021091 0.22841425 0.045436144
0.13879582 0.22841425 0.045436144
0.15738074 0.22841425 0.045436144
0.17596567 0.22841425 0.045436144
0.1945506 0.22841425 0.045436144
0.21313447 0.22841291 0.045423865
0.23171929 0.22841291 0.045423865
0.25030413 0.22841291 0.045423865
-0.25385103 -0.5945558 0.067366719
-0.2350973 -0.5945558 0.067366719
-0.21634471 -0.59455878 0.067379236
-0.19759087 -0.59455878 0.067379236
-0.17883798 -0.59456176 0.067391753
-0.16008493 -0.59456486 0.06740427
-0.1413309 -0.59456486 0.06740427
-0.12257754 -0.59456772 0.067417026
-0.10382398 -0.59457082 0.067429423
-0.085069761 -0.59457082 0.067429423
-0.066315919 -0.5945738 0.06744194
-0.047521885 -0.59416336 0.065722466
-0.028780799 -0.59416336 0.065722466
-0.010039809 -0.59416646 0.065735102
0.0087013738 -0.59416646 0.065735102
0.027442653 -0.59416944 0.065747499
0.046183933 -0.59416944 0.065747499
0.064925216 -0.59416944 0.065747499
0.083666883 -0.59417242 0.065760136
0.10240826 -0.59417242 0.065760136
0.12115021 -0.5941754 0.065772653
0.13989167 -0.5941754 0.065772653
0.15863316 -0.5941754 0.065772653
0.1773755 -0.59417844 0.06578517
0.19611706 -0.59417844 0.06578517
0.21485864 -0.59417844 0.06578517
0.2336002 -0.59417844 0.06578517
0.25234303 -0.59418142 0.065797806
-0.25280887 0.24832049 0.0576967
-0.23412959 0.24832049 0.0576967
-0.21545027 0.24832049 0.0576967
-0.19677098 0.24832049 0.0576967
-0.17809263 0.24832183 0.057709217
-0.15941323 0.24832183 0.057709217
-0.14073384 0.24832183 0.057709217
-0.12205444 0.24832183 0.057709217
-0.10337503 0.24832183 0.057709217
-0.084695622 0.24832183 0.057709217
-0.066016227 0.24832183 0.057709217
-0.047336828 0.24832183 0.057709217
-0.028657429 0.24832183 0.057709217
-0.0099780271 0.24832183 0.057709217
0.0087013738 0.24832183 0.057709217
0.027380776 0.24832183 0.057709217
0.046060175 0.24832183 0.057709217
0.064739577 0.24832183 0.057709217
0.08341898 0.24832183 0.057709217
0.10209838 0.24832183 0.057709217
0.12077778 0.24832183 0.057709217
0.13945718 0.24832183 0.057709217
0.15813658 0.24832183 0.057709217
0.17681597 0.24832183 0.057709217
0.19549537 0.24832183 0.057709217
0.21417478 0.24832183 0.057709217
0.23285301 0.24832049 0.0576967
0.25153235 0.24832049 0.0576967
-0.25414509 0.26843154 0.070095062
-0.23537034 0.26843154 0.070095062
-0.21659561 0.26843154 0.070095062
-0.19782193 0.26843286 0.070107698
-0.17904706 0.26843286 0.070107698
-0.16027223 0.26843286 0.070107698
-0.14149737 0.26843286 0.070107698
-0.12272253 0.26843286 0.070107698
-0.10394769 0.26843286 0.070107698
-0.085172839 0.26843286 0.070107698
-0.066397995 0.26843286 0.070107698
-0.047623161 0.26843286 0.070107698
-0.028848313 0.26843286 0.070107698
-0.010073469 0.26843286 0.070107698
0.0087013738 0.26843286 0.070107698
0.027476218 0.26843286 0.070107698
0.046251059 0.26843286 0.070107698
0.065025911 0.26843286 0.070107698
0.083800748 0.26843286 0.070107698
0.10257559 0.26843286 0.070107698
0.12135044 0.26843286 0.070107698
0.14012527 0.26843286 0.070107698
0.15890011 0.26843286 0.070107698
0.17767496 0.26843286 0.070107698
0.1964498 0.26843286 0.070107698
0.21522467 0.26843286 0.070107698
0.23399951 0.26843286 0.070107698
0.25277308 0.26843154 0.070095062
-0.25549498 0.28874901 0.082620978
-0.23662385 0.28874901 0.082620978
-0.21775267 0.28874901 0.082620978
-0.19888258 0.28875047 0.082633495
-0.18001132 0.28875047 0.082633495
-0.16114004 0.28875047 0.082633495
-0.14226879 0.28875047 0.082633495
-0.12339751 0.28875047 0.082633495
-0.10452623 0.28875047 0.082633495
-0.085654967 0.28875047 0.082633495
-0.066783696 0.28875047 0.082633495
-0.04791243 0.28875047 0.082633495
-0.029041164 0.28875047 0.082633495
-0.010169894 0.28875047 0.082633495
0.0087013738 0.28875047 0.082633495
0.027572643 0.28875047 0.082633495
0.046443909 0.28875047 0.082633495
0.06531518 0.28875047 0.082633495
0.08418645 0.28875047 0.082633495
0.10305772 0.28875047 0.082633495
0.12192898 0.28875047 0.082633495
0.14080025 0.28875047 0.082633495
0.15967153 0.28875047 0.082633495
0.17854278 0.28875047 0.082633495
0.19741406 0.28875047 0.082633495
0.21628532 0.28875047 0.082633495
0.23515658 0.28875047 0.082633495
0.25402659 0.28874901 0.082620978
-0.25685886 0.30927619 0.095275879
-0.23789029 0.30927619 0.095275879
-0.21892169 0.30927619 0.095275879
-0.1999542 0.30927795 0.095288873
-0.18098551 0.30927795 0.095288873
-0.16201682 0.30927795 0.095288873
-0.14304814 0.30927795 0.095288873
-0.12407944 0.30927795 0.095288873
-0.10511076 0.30927795 0.095288873
-0.086142063 0.30927795 0.095288873
-0.067173377 0.30927795 0.095288873
-0.048204694 0.30927795 0.095288873
-0.029236004 0.30927795 0.095288873
-0.010267315 0.30927795 0.095288873
0.0087013738 0.30927795 0.095288873
0.027670063 0.30927795 0.095288873
0.04663875 0.30927795 0.095288873
0.065607443 0.30927795 0.095288873
0.08457613 0.30927795 0.095288873
0.10354482 0.30927795 0.095288873
0.12251351 0.30927795 0.095288873
0.14148219 0.30927795 0.095288873
0.16045088 0.30927795 0.095288873
0.17941956 0.30927795 0.095288873
0.19838825 0.30927795 0.095288873
0.21735694 0.30927795 0.095288873
0.23632564 0.30927795 0.095288873
0.25529432 0.30927795 0.095288873
-0.25823689 0.33001664 0.10806239
-0.23916988 0.33001664 0.10806239
-0.22010285 0.33001664 0.10806239
-0.20103694 0.33001843 0.10807538
-0.18196984 0.33001843 0.10807538
-0.1629027 0.33001843 0.10807538
-0.14383559 0.33001843 0.10807538
-0.12476846 0.33001843 0.10807538
-0.10570133 0.33001843 0.10807538
-0.086634226 0.33001843 0.10807538
-0.067567095 0.33001843 0.10807538
-0.048499983 0.33001843 0.10807538
-0.029432863 0.33001843 0.10807538
-0.010365746 0.33001843 0.10807538
0.0087013738 0.33001843 0.10807538
0.027768493 0.33001843 0.10807538
0.046835609 0.33001843 0.10807538
0.065902732 0.33001843 0.10807538
0.084969848 0.33001843 0.10807538
0.10403698 0.33001843 0.10807538
0.12310409 0.33001843 0.10807538
0.1421712 0.33001843 0.10807538
0.16123833 0.33001843 0.10807538
0.18030544 0.33001843 0.10807538
0.19937257 0.33001843 0.10807538
0.21843968 0.33001843 0.10807538
0.23750679 0.33001843 0.10807538
0.25657392 0.33001843 0.10807538
-0.048698556 -0.62545562 0.11667359
-0.029565245 -0.62545562 0.11667359
-0.010431935 -0.62545562 0.11667359
0.0087013738 -0.62545884 0.1166867
0.027834784 -0.62545884 0.1166867
0.046968393 -0.62546211 0.1166997
0.066101909 -0.62546211 0.1166997
0.085235819 -0.62546527 0.11671281
0.10436943 -0.62546527 0.11671281
0.12350304 -0.62546527 0.11671281
0.14263736 -0.62546849 0.11672604
0.16177104 -0.62546849 0.11672604
0.18090478 -0.62546849 0.11672604
0.20003849 -0.62546849 0.11672604
0.21917331 -0.62547171 0.11673903
0.23830712 -0.62547171 0.11673903
0.25744095 -0.62547171 0.11673903
-0.25962928 0.35097337 0.12098217
-0.24046281 0.35097337 0.12098217
-0.22129634 0.35097337 0.12098217
-0.20213097 0.35097519 0.12099516
-0.1829644 0.35097519 0.12099516
-0.16379783 0.35097519 0.12099516
-0.14463125 0.35097519 0.12099516
-0.12546466 0.35097519 0.12099516
-0.10629808 0.35097519 0.12099516
-0.087131508 0.35097519 0.12099516
-0.067964934 0.35097519 0.12099516
-0.048798356 0.35097519 0.12099516
-0.029631782 0.35097519 0.12099516
-0.010465204 0.35097519 0.12099516
0.0087013738 0.35097519 0.12099516
0.02786795 0.35097519 0.12099516
0.047034528 0.35097519 0.12099516
0.066201106 0.35097519 0.12099516
0.085367687 0.35097519 0.12099516
0.10453426 0.35097519 0.12099516
0.12370083 0.35097519 0.12099516
0.1428674 0.35097519 0.12099516
0.16203399 0.35097519 0.12099516
0.18120056 0.35097519 0.12099516
0.20036714 0.35097519 0.12099516
0.21953371 0.35097519 0.12099516
0.23870029 0.35097519 0.12099516
0.25786689 0.35097519 0.12099516
-0.24176668 -0.62972641 0.13401091
-0.22250111 -0.62972969 0.13402414
-0.20323536 -0.62973291 0.13403738
-0.18396838 -0.62973291 0.13403738
-0.16470233 -0.62973619 0.13405073
-0.14543526 -0.62973619 0.13405073
-0.12616889 -0.62973946 0.13406384
-0.10690231 -0.62974274 0.13407731
-0.087635033 -0.62974274 0.13407731
-0.068367749 -0.62974274 0.13407731
-0.26103628 0.3721498 0.13403738
-0.2417693 0.3721498 0.13403738
-0.22250356 0.37215179 0.13405073
-0.20323648 0.37215179 0.13405073
-0.18396941 0.37215179 0.13405073
-0.16470233 0.37215179 0.13405073
-0.14543526 0.37215179 0.13405073
-0.12616818 0.37215179 0.13405073
-0.10690109 0.37215179 0.13405073
-0.087634012 0.37215179 0.13405073
-0.068366937 0.37215179 0.13405073
-0.049099859 0.37215179 0.13405073
-0.029832784 0.37215179 0.13405073
-0.010565705 0.37215179 0.13405073
0.0087013738 0.37215179 0.13405073
0.027968451 0.37215179 0.13405073
0.04723553 0.37215179 0.13405073
0.066502608 0.37215179 0.13405073
0.085769691 0.37215179 0.13405073
0.10503677 0.37215179 0.13405073
0.12430384 0.37215179 0.13405073
0.14357091 0.37215179 0.13405073
0.162838 0.37215179 0.13405073
0.18210506 0.37215179 0.13405073
0.20137215 0.37215179 0.13405073
0.22063921 0.37215179 0.13405073
0.2399063 0.37215179 0.13405073
0.25917339 0.37215179 0.13405073
-0.26245809 0.3935495 0.14723039
-0.24308957 0.3935495 0.14723039
-0.22372228 0.39355168 0.14724374
-0.20435365 0.39355168 0.14724374
-0.18498501 0.39355168 0.14724374
-0.16561638 0.39355168 0.14724374
-0.14624773 0.39355168 0.14724374
-0.1268791 0.39355168 0.14724374
-0.10751045 0.39355168 0.14724374
-0.088141814 0.39355168 0.14724374
-0.068773173 0.39355168 0.14724374
-0.049404539 0.39355168 0.14724374
-0.030035902 0.39355168 0.14724374
-0.010667264 0.39355168 0.14724374
0.0087013738 0.39355168 0.14724374
0.02807001 0.39355168 0.14724374
0.047438648 0.39355168 0.14724374
0.066807285 0.39355168 0.14724374
0.086175926 0.39355168 0.14724374
0.10554457 0.39355168 0.14724374
0.1249132 0.39355168 0.14724374
0.14428183 0.39355168 0.14724374
0.16365047 0.39355168 0.14724374
0.18301912 0.39355168 0.14724374
0.20238775 0.39355168 0.14724374
0.22175638 0.39355168 0.14724374
0.24112502 0.39355168 0.14724374
-0.24442519 0.41517839 0.1605767
-0.22495393 0.41517839 0.1605767
-0.20548266 0.41517839 0.1605767
-0.18601137 0.41517839 0.1605767
-0.16654009 0.41517839 0.1605767
-0.14706881 0.41517839 0.1605767
-0.12759754 0.41517839 0.1605767
-0.10812628 0.41517839 0.1605767
-0.088654995 0.41517839 0.1605767
-0.069183715 0.41517839 0.1605767
-0.049712453 0.41517839 0.1605767
-0.030241173 0.41517839 0.1605767
-0.010769899 0.41517839 0.1605767
0.0087013738 0.41517839 0.1605767
0.028172646 0.41517839 0.1605767
0.047643919 0.41517839 0.1605767
0.067115203 0.41517839 0.1605767
0.086586468 0.41517839 0.1605767
0.10605775 0.41517839 0.1605767
0.12552902 0.41517839 0.1605767
0.14500028 0.41517839 0.1605767
0.16447155 0.41517839 0.1605767
0.18394282 0.41517839 0.1605767
0.20341411 0.41517839 0.1605767
0.2228854 0.41517839 0.1605767
0.24235667 0.41517839 0.1605767
-0.030383226 -0.65808558 0.1698029
-0.010840925 -0.65808558 0.1698029
0.0087013738 -0.65808904 0.16981661
0.028243776 -0.65808904 0.16981661
0.047786392 -0.65809256 0.1698302
0.0673289 -0.65809256 0.1698302
0.086871415 -0.65809256 0.1698302
0.10641444 -0.65809608 0.16984403
0.12595706 -0.65809608 0.16984403
0.14549968 -0.65809608 0.16984403
0.16504312 -0.65809947 0.16985762
0.18458584 -0.65809947 0.16985762
0.20412856 -0.65809947 0.16985762
0.22367129 -0.65809947 0.16985762
0.24321526 -0.65810293 0.16987133
-0.24577369 0.43703544 0.17405152
-0.22619869 0.43703544 0.17405152
-0.20662369 0.43703544 0.17405152
-0.18704867 0.43703544 0.17405152
-0.16747367 0.43703544 0.17405152
-0.14789866 0.43703544 0.17405152
-0.12832366 0.43703544 0.17405152
-0.10874865 0.43703544 0.17405152
-0.089173645 0.43703544 0.17405152
-0.069598638 0.43703544 0.17405152
-0.050023641 0.43703544 0.17405152
-0.030448634 0.43703544 0.17405152
-0.01087363 0.43703544 0.17405152
0.0087013738 0.43703544 0.17405152
0.028276376 0.43703544 0.17405152
0.04785138 0.43703544 0.17405152
0.067426391 0.43703544 0.17405152
0.087001391 0.43703544 0.17405152
0.1065764 0.43703544 0.17405152
0.1261514 0.43703544 0.17405152
0.1457264 0.43703544 0.17405152
0.1653014 0.43703544 0.17405152
0.18487641 0.43703544 0.17405152
0.20445141 0.43703544 0.17405152
0.22402643 0.43703544 0.17405152
0.24360143 0.43703544 0.17405152
-0.24712278 -0.66258949 0.18753254
-0.22744399 -0.66258949 0.18753254
-0.2077664 -0.66259301 0.18754637
-0.18808857 -0.66259652 0.1875602
-0.16840957 -0.66259652 0.1875602
-0.14873143 -0.66260004 0.18757403
-0.12905234 -0.66260004 0.18757403
-0.10937387 -0.6626035 0.18758774
-0.089694656 -0.6626035 0.18758774
-0.070015021 -0.66260004 0.18757403
-0.050335608 -0.66259652 0.1875602
-0.24713664 0.4591265 0.18767083
-0.22745678 0.4591265 0.18767083
-0.20777693 0.4591265 0.18767083
-0.18809709 0.4591265 0.18767083
-0.16841723 0.4591265 0.18767083
-0.1487374 0.4591265 0.18767083
-0.12905756 0.4591265 0.18767083
-0.1093777 0.4591265 0.18767083
-0.089697853 0.4591265 0.18767083
-0.070018008 0.4591265 0.18767083
-0.050338164 0.4591265 0.18767083
-0.03065832 0.4591265 0.18767083
-0.010978472 0.4591265 0.18767083
0.0087013738 0.4591265 0.18767083
0.028381221 0.4591265 0.18767083
0.048061065 0.4591265 0.18767083
0.06774091 0.4591265 0.18767083
0.087420762 0.4591265 0.18767083
0.10710061 0.4591265 0.18767083
0.12678045 0.4591265 0.18767083
0.14646029 0.4591265 0.18767083
0.16614014 0.4591265 0.18767083
0.18581997 0.4591265 0.18767083
0.20549983 0.4591265 0.18767083
0.22517967 0.4591265 0.18767083
0.24485952 0.4591265 0.18767083
-0.24851425 0.48145565 0.20143688
-0.22872843 0.48145565 0.20143688
-0.20894259 0.48145565 0.20143688
-0.1891568 0.48145565 0.20143688
-0.16937098 0.48145565 0.20143688
-0.14958517 0.48145565 0.20143688
-0.12979934 0.48145565 0.20143688
-0.11001352 0.48145565 0.20143688
-0.090227708 0.48145565 0.20143688
-0.070441887 0.48145565 0.20143688
-0.050656077 0.48145565 0.20143688
-0.030870259 0.48145565 0.20143688
-0.011084442 0.48145565 0.20143688
0.0087013738 0.48145565 0.20143688
0.028487191 0.48145565 0.20143688
0.048273005 0.48145565 0.20143688
0.068058826 0.48145565 0.20143688
0.08784464 0.48145565 0.20143688
0.10763046 0.48145565 0.20143688
0.12741627 0.48145565 0.20143688
0.14720207 0.48145565 0.20143688
0.16698791 0.48145565 0.20143688
0.18677372 0.48145565 0.20143688
0.20655954 0.48145565 0.20143688
0.22634533 0.48145565 0.20143688
0.24613117 0.48145565 0.20143688
-0.24990676 0.50402653 0.21535182
-0.23001383 0.50402653 0.21535182
-0.2101209 0.50402653 0.21535182
-0.19022797 0.50402653 0.21535182
-0.17033504 0.50402653 0.21535182
-0.15044211 0.50402653 0.21535182
-0.13054916 0.50402653 0.21535182
-0.11065622 0.50402653 0.21535182
-0.090763293 0.50402653 0.21535182
-0.070870355 0.50402653 0.21535182
-0.050977428 0.50402653 0.21535182
-0.031084493 0.50402653 0.21535182
-0.011191559 0.50402653 0.21535182
0.0087013738 0.50402653 0.21535182
0.028594308 0.50402653 0.21535182
0.048487239 0.50402653 0.21535182
0.068380177 0.50402653 0.21535182
0.088273108 0.50402653 0.21535182
0.10816605 0.50402653 0.21535182
0.12805897 0.50402653 0.21535182
0.1479519 0.50402653 0.21535182
0.16784485 0.50402653 0.21535182
0.18773875 0.50402933 0.21536577
0.20763071 0.50402653 0.21535182
0.22752364 0.50402653 0.21535182
0.24741657 0.50402653 0.21535182
-0.031236939 -0.69214106 0.22525334
-0.011267782 -0.69214106 0.22525334
0.0087013738 -0.69214487 0.22526765
0.028670639 -0.69214487 0.22526765
0.048640124 -0.69214851 0.22528195
0.068609498 -0.69214851 0.22528195
0.08857888 -0.69214851 0.22528195
0.10854826 -0.69214851 0.22528195
0.12851828 -0.69215226 0.22529614
0.14848778 -0.69215226 0.22529614
0.16845725 -0.69215226 0.22529614
0.18842675 -0.69215226 0.22529614
0.20839731 -0.69215602 0.22531044
0.22836691 -0.69215602 0.22531044
0.24833652 -0.69215602 0.22531044
-0.25131443 0.52684301 0.2294184
-0.23131324 0.52684301 0.2294184
-0.21131203 0.52684301 0.2294184
-0.19131081 0.52684301 0.2294184
-0.17130959 0.52684301 0.2294184
-0.15130836 0.52684301 0.2294184
-0.13130715 0.52684301 0.2294184
-0.11130593 0.52684301 0.2294184
-0.091304712 0.52684301 0.2294184
-0.071303494 0.52684301 0.2294184
-0.05130228 0.52684301 0.2294184
-0.031301063 0.52684301 0.2294184
-0.011299844 0.52684301 0.2294184
0.0087013738 0.52684301 0.2294184
0.028702591 0.52684301 0.2294184
0.048703808 0.52684301 0.2294184
0.06870503 0.52684301 0.2294184
0.088706248 0.52684301 0.2294184
0.10870747 0.52684301 0.2294184
0.12870868 0.52684301 0.2294184
0.14870989 0.52684301 0.2294184
0.1687111 0.52684301 0.2294184
0.18871331 0.52684599 0.22943258
0.20871355 0.52684301 0.2294184
0.22871476 0.52684301 0.2294184
0.24871598 0.52684301 0.2294184
-0.25271153 -0.69688505 0.24337888
-0.23260419 -0.69688892 0.2433933
-0.2124954 -0.69688892 0.2433933
-0.19238771 -0.69689262 0.24340773
-0.17227879 -0.69689262 0.24340773
-0.15217079 -0.69689643 0.24342215
-0.13206176 -0.69689643 0.24342215
-0.11195274 -0.69689643 0.24342215
-0.091843165 -0.69689262 0.24340773
-0.071734257 -0.69689262 0.24340773
-0.051625017 -0.69688892 0.2433933
-0.25273752 0.54990953 0.24363875
-0.23262687 0.54990953 0.24363875
-0.21251617 0.54990953 0.24363875
-0.19240551 0.54990953 0.24363875
-0.17229481 0.54990953 0.24363875
-0.15218413 0.54990953 0.24363875
-0.13207343 0.54990953 0.24363875
-0.11196274 0.54990953 0.24363875
-0.091852061 0.54990953 0.24363875
-0.071741372 0.54990953 0.24363875
-0.051630687 0.54990953 0.24363875
-0.031520002 0.54990953 0.24363875
-0.011409313 0.54990953 0.24363875
0.0087013738 0.54990953 0.24363875
0.028812062 0.54990953 0.24363875
0.048922747 0.54990953 0.24363875
0.069033436 0.54990953 0.24363875
0.089144126 0.54990953 0.24363875
0.10925481 0.54990953 0.24363875
0.12936549 0.54990953 0.24363875
0.14947617 0.54990953 0.24363875
0.16958687 0.54990953 0.24363875
0.18969755 0.54990953 0.24363875
0.20980935 0.54991263 0.2436533
0.22991891 0.54990953 0.24363875
0.25002962 0.54990953 0.24363875
-0.25417629 0.57322979 0.25801587
-0.23395497 0.57322979 0.25801587
-0.2137336 0.57322979 0.25801587
-0.19351225 0.57322979 0.25801587
-0.17329088 0.57322979 0.25801587
-0.15306953 0.57322979 0.25801587
-0.13284817 0.57322979 0.25801587
-0.11262679 0.57322979 0.25801587
-0.092405431 0.57322979 0.25801587
-0.072184071 0.57322979 0.25801587
-0.051962711 0.57322979 0.25801587
-0.031741351 0.57322979 0.25801587
-0.011519988 0.57322979 0.25801587
0.0087013738 0.57322979 0.25801587
0.028922737 0.57322979 0.25801587
0.049144097 0.57322979 0.25801587
0.069365457 0.57322979 0.25801587
0.089586824 0.57322979 0.25801587
0.10980818 0.57322979 0.25801587
0.13002954 0.57322979 0.25801587
0.15025091 0.57322979 0.25801587
0.17047226 0.57322979 0.25801587
0.19069362 0.57322979 0.25801587
0.2109161 0.57323301 0.2580303
0.23113757 0.57323301 0.2580303
0.2513577 0.57322979 0.25801587
-0.255631 0.59680808 0.27255201
-0.23529775 0.59680808 0.27255201
-0.21496448 0.59680808 0.27255201
-0.19463122 0.59680808 0.27255201
-0.17429797 0.59680808 0.27255201
-0.15396471 0.59680808 0.27255201
-0.13363145 0.59680808 0.27255201
-0.11329819 0.59680808 0.27255201
-0.092964917 0.59680808 0.27255201
-0.072631665 0.59680808 0.27255201
-0.052298408 0.59680808 0.27255201
-0.031965148 0.59680808 0.27255201
-0.011631886 0.59680808 0.27255201
0.0087013738 0.59680808 0.27255201
0.029034633 0.59680808 0.27255201
0.049367893 0.59680808 0.27255201
0.069701158 0.59680808 0.27255201
0.090034418 0.59680808 0.27255201
0.11036767 0.59680808 0.27255201
0.13070093 0.59680808 0.27255201
0.15103419 0.59680808 0.27255201
0.17136745 0.59680808 0.27255201
0.19170071 0.59680808 0.27255201
0.21203512 0.59681141 0.27256668
0.23236848 0.59681141 0.27256668
0.25270051 0.59680808 0.27255201
-0.032128554 -0.72771358 0.28316557
-0.011713703 -0.72771752 0.28318036
0.0087013738 -0.72771752 0.28318036
0.029116567 -0.72772145 0.28319514
0.049531758 -0.72772145 0.28319514
0.069946952 -0.72772145 0.28319514
0.090362608 -0.72772545 0.28321004
0.11077791 -0.72772545 0.28321004
0.13119322 -0.72772545 0.28321004
0.15160851 -0.72772545 0.28321004
0.17202474 -0.72772944 0.28322494
0.19244017 -0.72772944 0.28322494
0.21285559 -0.72772944 0.28322494
0.23327102 -0.72772944 0.28322494
0.2536878 -0.72773355 0.28323984
-0.25710189 0.6206488 0.28724992
-0.23665547 0.6206488 0.28724992
-0.21620908 0.6206488 0.28724992
-0.19576266 0.6206488 0.28724992
-0.17531626 0.6206488 0.28724992
-0.15486987 0.6206488 0.28724992
-0.13442346 0.6206488 0.28724992
-0.11397704 0.6206488 0.28724992
-0.09353064 0.6206488 0.28724992
-0.073084243 0.6206488 0.28724992
-0.052637838 0.6206488 0.28724992
-0.032191437 0.6206488 0.28724992
-0.011745031 0.6206488 0.28724992
0.0087013738 0.6206488 0.28724992
0.029147778 0.6206488 0.28724992
0.049594183 0.6206488 0.28724992
0.070040584 0.6206488 0.28724992
0.090486996 0.6206488 0.28724992
0.11093339 0.6206488 0.28724992
0.1313798 0.6206488 0.28724992
0.1518262 0.6206488 0.28724992
0.17227261 0.6206488 0.28724992
0.192719 0.6206488 0.28724992
0.21316655 0.62065232 0.28726459
0.23361307 0.62065232 0.28726459
0.25405961 0.62065232 0.28726459
-0.25854993 -0.73271251 0.30171967
-0.23799354 -0.73271662 0.30173469
-0.21743691 -0.73272073 0.30174971
-0.1968789 -0.73272073 0.30174971
-0.17632189 -0.73272473 0.30176485
-0.15576378 -0.73272473 0.30176485
-0.13520481 -0.73272073 0.30174971
-0.11464608 -0.73271662 0.30173469
-0.094088174 -0.73271662 0.30173469
-0.073529795 -0.73271251 0.30171967
-0.052972008 -0.73271251 0.30171967
-0.25858921 0.64475632 0.3021121
-0.23802842 0.64475632 0.3021121
-0.21746759 0.64475632 0.3021121
-0.19690678 0.64475632 0.3021121
-0.17634597 0.64475632 0.3021121
-0.15578514 0.64475632 0.3021121
-0.13522433 0.64475632 0.3021121
-0.11466352 0.64475632 0.3021121
-0.094102696 0.64475632 0.3021121
-0.07354188 0.64475632 0.3021121
-0.052981075 0.64475632 0.3021121
-0.032420255 0.64475632 0.3021121
-0.01185944 0.64475632 0.3021121
0.0087013738 0.64475632 0.3021121
0.029262189 0.64475632 0.3021121
0.049823001 0.64475632 0.3021121
0.070383824 0.64475632 0.3021121
0.090944633 0.64475632 0.3021121
0.11150545 0.64475632 0.3021121
0.13206626 0.64475632 0.3021121
0.15262707 0.64475632 0.3021121
0.17318788 0.64475632 0.3021121
0.19374871 0.64475632 0.3021121
0.21431068 0.64476007 0.30212724
0.23487161 0.64476007 0.30212724
0.25543255 0.64476007 0.30212724
-0.26009327 0.66913521 0.31714165
-0.23941678 0.66913521 0.31714165
-0.21874028 0.66913521 0.31714165
-0.19806376 0.66913521 0.31714165
-0.17738724 0.66913521 0.31714165
-0.15671074 0.66913521 0.31714165
-0.13603422 0.66913521 0.31714165
-0.1153577 0.66913521 0.31714165
-0.094681188 0.66913521 0.31714165
-0.07400468 0.66913521 0.31714165
-0.053328164 0.66913521 0.31714165
-0.032651655 0.66913521 0.31714165
-0.01197514 0.66913521 0.31714165
0.0087013738 0.66913521 0.31714165
0.029377889 0.66913521 0.31714165
0.050054401 0.66913521 0.31714165
0.07073091 0.66913521 0.31714165
0.091407433 0.66913521 0.31714165
0.11208394 0.66913521 0.31714165
0.13276045 0.66913521 0.31714165
0.15343696 0.66913521 0.31714165
0.17411348 0.66913521 0.31714165
0.19478998 0.66913521 0.31714165
0.2154665 0.66913521 0.31714165
0.2361443 0.66913909 0.31715703
0.25682092 0.66913909 0.31715703
-0.26161438 0.69379002 0.33234143
-0.24082088 0.69379002 0.33234143
-0.22002734 0.69379002 0.33234143
-0.19923383 0.69379002 0.33234143
-0.17844032 0.69379002 0.33234143
-0.15764679 0.69379002 0.33234143
-0.13685326 0.69379002 0.33234143
-0.11605975 0.69379002 0.33234143
-0.095266223 0.69379002 0.33234143
-0.074472703 0.69379002 0.33234143
-0.053679191 0.69379002 0.33234143
-0.032885667 0.69379002 0.33234143
-0.012092146 0.69379002 0.33234143
0.0087013738 0.69379002 0.33234143
0.029494893 0.69379002 0.33234143
0.050288413 0.69379002 0.33234143
0.071081936 0.69379002 0.33234143
0.091875456 0.69379002 0.33234143
0.11266898 0.69379002 0.33234143
0.1334625 0.69379002 0.33234143
0.154256 0.69379002 0.33234143
0.17504953 0.69379002 0.33234143
0.19584306 0.69379002 0.33234143
0.21663657 0.69379002 0.33234143
0.23743141 0.69379389 0.33235693
0.25822505 0.69379389 0.33235693
-0.033061124 -0.76491481 0.34373784
-0.012179996 -0.76491904 0.34375334
0.0087013738 -0.76491904 0.34375334
0.029582743 -0.76491904 0.34375334
0.050464351 -0.76492333 0.34376884
0.071345843 -0.76492333 0.34376884
0.092227332 -0.76492333 0.34376884
0.11310942 -0.76492774 0.34378457
0.13399103 -0.76492774 0.34378457
0.15487264 -0.76492774 0.34378457
0.17575423 -0.76492774 0.34378457
0.19663693 -0.76493198 0.34380007
0.21751867 -0.76493198 0.34380007
0.23840038 -0.76493198 0.34380007
0.25928214 -0.76493198 0.34380007
-0.26315278 0.71872538 0.3477143
-0.24224095 0.71872538 0.3477143
-0.22132908 0.71872538 0.3477143
-0.20041724 0.71872538 0.3477143
-0.17950536 0.71872538 0.3477143
-0.15859352 0.71872538 0.3477143
-0.13768165 0.71872538 0.3477143
-0.11676978 0.71872538 0.3477143
-0.095857926 0.71872538 0.3477143
-0.074946061 0.71872538 0.3477143
-0.054034207 0.71872538 0.3477143
-0.033122346 0.71872538 0.3477143
-0.012210486 0.71872538 0.3477143
0.0087013738 0.71872538 0.3477143
0.029613234 0.71872538 0.3477143
0.050525092 0.71872538 0.3477143
0.071436957 0.71872538 0.3477143
0.092348814 0.71872538 0.3477143
0.11326068 0.71872538 0.3477143
0.13417253 0.71872538 0.3477143
0.15508439 0.71872538 0.3477143
0.17599626 0.71872538 0.3477143
0.1969081 0.71872538 0.3477143
0.21781997 0.71872538 0.3477143
0.23873314 0.71872956 0.34772992
0.25964513 0.71872956 0.34772992
-0.24362914 -0.77018124 0.36274171
-0.22260293 -0.77018571 0.36275756
-0.20157649 -0.77019 0.36277318
-0.1805476 -0.77018571 0.36275756
-0.15951897 -0.77018124 0.36274171
-0.13849142 -0.77018124 0.36274171
-0.11746315 -0.77017689 0.36272585
-0.096435726 -0.77017689 0.36272585
-0.075407818 -0.77017236 0.36271012
-0.05438016 -0.77016819 0.36269438
-0.24367727 0.74394619 0.36326289
-0.22264706 0.74395066 0.36327875
-0.20161539 0.74395066 0.36327875
-0.18058372 0.74395066 0.36327875
-0.15955204 0.74395066 0.36327875
-0.13852036 0.74395066 0.36327875
-0.11748867 0.74395066 0.36327875
-0.096457005 0.74395066 0.36327875
-0.075425327 0.74395066 0.36327875
-0.054393653 0.74395066 0.36327875
-0.033361979 0.74395066 0.36327875
-0.012330302 0.74395066 0.36327875
0.0087013738 0.74395066 0.36327875
0.029733051 0.74395066 0.36327875
0.050764725 0.74395066 0.36327875
0.071796402 0.74395066 0.36327875
0.09282808 0.74395066 0.36327875
0.11385976 0.74395066 0.36327875
0.13489142 0.74395066 0.36327875
0.1559231 0.74395066 0.36327875
0.17695478 0.74395066 0.36327875
0.19798645 0.74395066 0.36327875
0.21901813 0.74395066 0.36327875
0.24004979 0.74395066 0.36327875
