ply
format ascii 1.0
comment PCL generated
element vertex 339
property float x
property float y
property float z
element camera 1
property float view_px
property float view_py
property float view_pz
property float x_axisx
property float x_axisy
property float x_axisz
property float y_axisx
property float y_axisy
property float y_axisz
property float z_axisx
property float z_axisy
property float z_axisz
property float focal
property float scalex
property float scaley
property float centerx
property float centery
property int viewportx
property int viewporty
property float k1
property float k2
end_header
-0.13028654 -0.73204303 -0.27461052
-0.086950026 -0.72730786 -0.29218578
-0.14204773 -0.67359751 -0.28068542
-0.065699928 -0.67406917 -0.29523849
-0.13912481 -0.58041412 -0.27776623
-0.065370284 -0.58269888 -0.29139519
-0.13819453 -0.48632109 -0.28474808
-0.070693843 -0.49188572 -0.29390907
-0.14957753 -0.3948361 -0.31349182
-0.075984351 -0.40071639 -0.29998302
-0.21959111 -0.30338523 -0.32787037
-0.15765795 -0.31406632 -0.32447243
-0.074739628 -0.31003261 -0.29522228
-0.23396823 -0.21438852 -0.33829212
-0.15766606 -0.22073075 -0.32410622
-0.077982672 -0.21690868 -0.29269505
-0.23837402 -0.12634939 -0.34443283
-0.15785372 -0.12747622 -0.32181072
-0.076652817 -0.12919687 -0.28736687
-0.24909168 -0.03832446 -0.34117985
-0.15727335 -0.035806395 -0.31838894
-0.076836668 -0.045136388 -0.2838583
-0.24748734 0.056044038 -0.33929443
-0.15923357 0.057037383 -0.31719208
-0.080101974 0.044731006 -0.2835331
-0.24983335 0.14185026 -0.33511639
-0.15843704 0.14283508 -0.31489086
-0.0872292 0.14421847 -0.2872324
-0.24230179 0.23236012 -0.33317757
-0.1586566 0.2367433 -0.31229019
-0.087351553 0.22852138 -0.28511524
-0.23636818 0.32471651 -0.32629871
-0.15886036 0.33081067 -0.30989456
-0.087474622 0.32348976 -0.28296661
-0.22141486 0.40371582 -0.31094742
-0.15904129 0.41454294 -0.30788898
-0.087553777 0.41848594 -0.28157425
-0.14721754 0.49738926 -0.3000021
-0.087556891 0.50280046 -0.28151989
-0.13215342 0.59006673 -0.277771
-0.089036696 0.594082 -0.27643871
-0.12018587 0.69604456 -0.26733685
-0.092020355 0.68227327 -0.26588249
-0.12004713 0.76964313 -0.26933956
-0.099207185 0.77113312 -0.26397419
-0.23325032 -0.72976029 -0.20260143
-0.16623104 -0.7456913 -0.2239542
-0.057136945 -0.73696882 -0.25632954
-0.016039729 -0.72797102 -0.20943832
-0.30055472 -0.66911483 -0.18418026
-0.24244291 -0.67201978 -0.21725655
-0.18508959 -0.67402995 -0.25276279
-0.0013956577 -0.6668613 -0.2134676
-0.30448741 -0.58222848 -0.18206406
-0.24214652 -0.58516747 -0.21979713
-0.18506247 -0.57812881 -0.25305557
0.0057481155 -0.58021235 -0.20874405
-0.30104581 -0.48422438 -0.1804266
-0.24531063 -0.49416852 -0.21285152
-0.18116465 -0.49574965 -0.24926186
-0.035729751 -0.47046971 -0.25987911
-0.0038538128 -0.49404281 -0.21347141
-0.30188879 -0.40866816 -0.17398548
-0.24495453 -0.40247867 -0.20673084
-0.18529779 -0.44012234 -0.25050831
-0.035883367 -0.40732604 -0.25588799
-0.0063888431 -0.39878634 -0.2084446
-0.3019031 -0.31013659 -0.17387581
-0.2690016 -0.32324836 -0.19263363
-0.036067478 -0.31214416 -0.25110531
-0.0053781793 -0.30704808 -0.20133209
-0.30218133 -0.22267705 -0.17175007
-0.036241233 -0.21661834 -0.24659061
-0.0055212453 -0.22070758 -0.19596863
-0.036444083 -0.13150063 -0.24132061
-0.0056467652 -0.13399975 -0.19137478
-0.036635153 -0.046047285 -0.23635674
-0.012098007 -0.053421494 -0.19499779
-0.042609684 0.059433047 -0.23884487
-0.016450688 0.05098762 -0.19609261
-0.047065854 0.14650168 -0.24159622
-0.01660002 0.14902233 -0.19124222
-0.047166951 0.23223659 -0.23916912
-0.016684175 0.23632587 -0.18850994
-0.27958366 0.35757026 -0.17723846
-0.048403814 0.3238847 -0.23808861
-0.016740873 0.32370204 -0.1866684
-0.30242267 0.38040897 -0.16990566
-0.26938879 0.41593567 -0.18419933
-0.046270341 0.4199158 -0.23220634
-0.016810849 0.41125607 -0.18439579
-0.24693748 0.5072524 -0.19667721
-0.18618655 0.5422352 -0.24088764
-0.047538526 0.51205957 -0.23034096
-0.016929038 0.49922374 -0.18055725
-0.24714682 0.59899962 -0.19662094
-0.17682344 0.59975493 -0.24342442
-0.047619656 0.59835339 -0.22840977
-0.017015353 0.5981434 -0.1777544
-0.24442729 0.69132435 -0.19942856
-0.16271472 0.68392116 -0.2468214
-0.056186177 0.69215512 -0.23198128
-0.017122716 0.67552346 -0.17426682
-0.23873913 0.76846343 -0.20173645
-0.16114423 0.77612102 -0.24587154
-0.06246797 0.77679139 -0.22205162
-0.080159046 0.82528841 -0.2238245
-0.34048939 -0.73829192 -0.11876011
-0.2830494 -0.7437638 -0.1491003
0.015120197 -0.73417395 -0.14351749
-0.41732603 -0.675394 -0.09503746
-0.34621349 -0.67094606 -0.14796162
0.038923651 -0.67259121 -0.14306831
0.070486255 -0.66887552 -0.090763092
-0.42433921 -0.588431 -0.098181725
-0.35132161 -0.57689422 -0.1498251
0.048302583 -0.58036435 -0.13770866
0.070486255 -0.58824611 -0.099126816
-0.42441764 -0.4985584 -0.097714424
-0.34929255 -0.48950344 -0.14997292
0.037370667 -0.49025133 -0.14552975
0.070486255 -0.49974352 -0.090704918
-0.41201952 -0.40764609 -0.10435486
-0.34620497 -0.39890048 -0.14791298
0.037281755 -0.40291107 -0.13749695
0.070486255 -0.42219037 -0.081583977
-0.4122214 -0.31801707 -0.10313225
-0.35019454 -0.31349081 -0.14375496
0.037205454 -0.31489897 -0.13098621
-0.4119814 -0.2281049 -0.10460854
-0.34979483 -0.22472587 -0.14649963
0.037134394 -0.22646882 -0.12470245
-0.41198933 -0.13835827 -0.10453415
-0.3462081 -0.13871744 -0.14784813
0.037077609 -0.13758527 -0.11969757
-0.41057476 -0.04236418 -0.10555744
-0.35189116 -0.0435647 -0.14374828
0.027870215 -0.037037697 -0.12786579
-0.41344562 0.057370603 -0.10326862
-0.34543824 0.051764026 -0.14595795
0.026087925 0.05894459 -0.1244688
-0.41275853 0.15359572 -0.099921227
-0.35056666 0.15153877 -0.14110279
0.026027482 0.15262188 -0.11934662
-0.41333815 0.24377349 -0.096432686
-0.34711584 0.24265073 -0.14155579
0.025987938 0.24211317 -0.11690807
-0.41409731 0.33430204 -0.091795921
-0.33893746 0.32829186 -0.14554691
0.015008304 0.32968828 -0.1330452
-0.41356659 0.42397159 -0.094983101
-0.34182036 0.41965246 -0.14089966
0.014950439 0.41899759 -0.13003922
-0.41333327 0.51378763 -0.096408844
-0.33938268 0.50583547 -0.1422596
0.014908876 0.50834513 -0.12786484
-0.4134391 0.60392296 -0.095763206
-0.33932263 0.59432751 -0.14281368
0.014878381 0.597651 -0.12649536
-0.41371083 0.69433844 -0.094146729
-0.33731225 0.68602329 -0.14330578
0.0083426572 0.69472843 -0.13004494
-0.40979463 0.75786692 -0.095122337
-0.34354696 0.76461959 -0.13449478
-0.28144506 0.79934543 -0.16212559
-0.0026282147 0.77154821 -0.12436485
-0.47404116 -0.74122554 -0.07211113
-0.430704 -0.74426079 -0.060162544
0.070486255 -0.72025979 -0.065115929
-0.47409475 -0.69591707 -0.071821213
-0.462174 -0.68759418 -0.075007439
0.10510164 -0.67170948 -0.028832436
-0.47410965 -0.59382463 -0.07174015
-0.4739846 -0.62771577 -0.072417259
0.10498004 -0.57752192 -0.039171219
0.10511203 -0.48761427 -0.027741432
-0.45044315 -0.41150305 -0.07724762
0.10134745 -0.39450538 -0.025898933
-0.45083153 -0.32115099 -0.075053215
0.091896646 -0.30688497 -0.036135674
-0.45095623 -0.23054801 -0.074349403
0.08590287 -0.21416374 -0.04131794
-0.45115709 -0.13991995 -0.073214531
0.082023107 -0.11857049 -0.041501045
-0.45086569 -0.049170922 -0.074860573
0.082044996 -0.02693389 -0.0359869
-0.45087528 0.052845385 -0.074807167
0.082067817 0.053531397 -0.030127525
-0.45181721 0.14376003 -0.069486618
0.082088128 0.13430642 -0.024717331
-0.45242846 0.22349602 -0.066033363
0.082098916 0.22670157 -0.022100449
-0.45252299 0.31448454 -0.065500259
0.047838047 0.33590859 -0.077363968
0.082109869 0.31924632 -0.019740105
-0.45221514 0.40519765 -0.067239761
0.047821067 0.42681348 -0.075158119
0.082120039 0.41196537 -0.01709938
-0.45170379 0.49563092 -0.070127487
0.047802575 0.50654691 -0.07275486
0.082129896 0.50480622 -0.014726639
-0.45196682 0.58674592 -0.068641663
0.047790937 0.59757161 -0.071243286
0.082125843 0.59734327 -0.014603615
-0.45244855 0.67823118 -0.06592083
0.047774229 0.6888938 -0.069073677
0.080461696 0.68441194 -0.016834259
-0.4393459 0.77219284 -0.062982559
0.03853314 0.77533472 -0.050855637
0.070486255 0.76098889 -0.0078287125
0.14095972 -0.67376828 0.032138824
0.1658324 -0.67190647 0.077004433
0.14079809 -0.59014791 0.025138855
0.16560715 -0.57510114 0.069689751
0.1410307 -0.49803883 0.035211563
0.16594914 -0.48172882 0.080795288
0.14120466 -0.4050144 0.042744637
0.16611107 -0.39889163 0.086054802
0.14137039 -0.31146282 0.049921036
0.16634198 -0.31599417 0.093553543
0.13108131 -0.21105832 0.03768158
0.16650376 -0.22052671 0.098807335
0.12945306 -0.12203188 0.040302277
0.12956157 -0.039685789 0.04590416
0.12965751 0.042966861 0.051010132
0.12975156 0.13772777 0.056052208
0.12983312 0.23271585 0.060069084
0.12988646 0.3278321 0.062882423
0.12818101 0.41755667 0.062418938
0.12997748 0.50647634 0.06764698
0.13169733 0.59499842 0.068833351
0.12594587 0.68986744 0.060993195
0.098941788 0.77286142 0.04956913
0.1921178 -0.72228903 0.14062691
0.20621464 -0.6672098 0.14321041
0.20242545 -0.58231205 0.1357336
0.20461589 -0.49209842 0.14651871
0.20493525 -0.39556977 0.15402317
0.20522586 -0.31075731 0.16087914
0.20547992 -0.2255068 0.16688251
0.18396869 -0.13017881 0.13535881
0.17977324 -0.041028287 0.13295364
0.17992991 0.043964978 0.13743782
0.18010145 0.14138132 0.14238071
0.18026617 0.23909172 0.14717484
0.18035907 0.32465899 0.14977932
0.18043707 0.41034052 0.15206623
0.18050349 0.5083046 0.15399075
0.17858306 0.59976083 0.14886951
0.18223998 0.68450886 0.15384579
0.13488406 0.77986747 0.11605835
0.16828728 0.75326467 0.1567297
0.24471381 -0.67701441 0.21380806
0.27243721 -0.67410171 0.25982094
0.24446681 -0.57657814 0.2092247
0.27224359 -0.58517015 0.25667858
0.24467447 -0.49016678 0.21307755
0.27248034 -0.48483947 0.26052189
0.24516305 -0.40421641 0.22214413
0.27292562 -0.39736977 0.2677536
0.24552089 -0.3050499 0.22878742
0.27330977 -0.30939296 0.27399063
0.24585977 -0.21797374 0.23507309
0.27374217 -0.22115152 0.28101254
0.23453888 -0.1244178 0.22187614
0.27387327 -0.17046347 0.28314209
0.2328364 -0.029932544 0.22339439
0.23309821 0.057515848 0.22859001
0.23334751 0.14524101 0.2335968
0.23350251 0.23309937 0.23670101
0.2336328 0.32107562 0.23928642
0.23187178 0.41608128 0.23993206
0.2358495 0.50328523 0.24770451
0.23380929 0.5976277 0.24275684
0.2339811 0.68622786 0.24589825
0.20032287 0.76573098 0.22106743
0.27575618 -0.73660398 0.31371689
0.31378984 -0.67052191 0.33140755
0.31765732 -0.57880521 0.33386612
0.31351015 -0.48934025 0.32754612
0.31828129 -0.39909995 0.34229088
0.31177759 -0.31551749 0.33764458
0.30243194 -0.22443981 0.32839584
0.29054597 -0.12817742 0.31428146
0.29099751 -0.036521345 0.32105446
0.28726929 0.051634666 0.32017326
0.28765494 0.14359209 0.32613373
0.29203796 0.2326093 0.33683968
0.28810576 0.3245216 0.33305454
0.29245827 0.41422451 0.34316063
0.28845131 0.50595844 0.33835411
0.29263756 0.59587836 0.34580708
0.27657923 0.69027025 0.32708073
0.24095023 0.77442074 0.3015213
0.27842057 0.76126164 0.35698032
0.33344671 -0.72878969 0.3965044
0.37673107 -0.67126107 0.43878555
0.37418535 -0.58447677 0.43142414
0.37338188 -0.50251681 0.43096256
0.36161765 -0.40270463 0.41864491
0.33186632 -0.28001806 0.37597466
0.36236471 -0.31090215 0.42746735
0.33236101 -0.21507154 0.38240051
0.3631376 -0.21861608 0.43659496
0.33280671 -0.1236499 0.38818932
0.36373496 -0.12578939 0.44364929
0.33331355 -0.045051735 0.39477444
0.3643758 -0.032546911 0.4512167
0.33383238 0.047020495 0.40151501
0.36506811 0.061069876 0.4593935
0.33437723 0.13945536 0.40859222
0.36550349 0.1147791 0.46453476
0.33467785 0.23207226 0.41249752
0.33509076 0.32503149 0.41786098
0.33541334 0.41814691 0.42205238
0.33559793 0.51121444 0.42444897
0.33572626 0.59103364 0.42611599
0.32373491 0.68758285 0.41614151
0.29902449 0.77206773 0.40553474
0.39394572 -0.72028381 0.48209858
0.42494461 -0.67418343 0.52250957
0.42526397 -0.57922328 0.52570057
0.40395707 -0.47918642 0.49171257
0.39359817 -0.39637348 0.47833729
0.39425564 -0.31626409 0.48545456
0.39516407 -0.22245602 0.4952879
0.39611146 -0.12815921 0.50554276
0.39700428 -0.033289719 0.5152092
0.39811492 0.062123574 0.52723122
0.38580626 0.14874274 0.51024818
0.38070688 0.2322495 0.50512505
0.38013101 0.31681791 0.50744057
0.36708525 0.41196159 0.48321438
0.36760858 0.50722438 0.48939419
0.36782339 0.60218495 0.49193287
0.36915702 0.68633419 0.5076828
0.34033591 0.77663749 0.4859972
0.37136474 0.75973397 0.5337534
0.40179545 0.35263917 0.56707573
0 0 0 1 0 0 0 1 0 0 0 1 0 0 0 0 0 339 1 0 0
