ply
format ascii 1.0
comment PCL generated
element vertex 759
property float x
property float y
property float z
element camera 1
property float view_px
property float view_py
property float view_pz
property float x_axisx
property float x_axisy
property float x_axisz
property float y_axisx
property float y_axisy
property float y_axisz
property float z_axisx
property float z_axisy
property float z_axisz
property float focal
property float scalex
property float scaley
property float centerx
property float centery
property int viewportx
property int viewporty
property float k1
property float k2
end_header
-0.033314988 -0.1302119 -0.34857464
0.05096326 -0.1301993 -0.34898186
0.096910521 -0.13017428 -0.34979773
0.1581147 -0.13014081 -0.35088301
0.21932837 -0.13013518 -0.35106325
0.27285075 -0.13012466 -0.351408
0.32628876 -0.13009621 -0.3523283
0.38734466 -0.13007328 -0.35307169
0.4406687 -0.13004208 -0.35408974
0.49388254 -0.13000369 -0.35533619
0.554914 -0.1299971 -0.35554886
0.60079986 -0.13000579 -0.35526848
-0.62268704 -0.099542245 -0.35015202
-0.57676375 -0.10720189 -0.35012197
-0.52017564 -0.10260986 -0.34992313
-0.45892662 -0.093417019 -0.34991026
-0.40805531 -0.091870762 -0.35134506
-0.34670085 -0.099523067 -0.35201979
-0.29289973 -0.099503979 -0.3534584
-0.23926367 -0.09949141 -0.35433054
-0.17803971 -0.099477798 -0.35523701
-0.12315178 -0.093899757 -0.35564709
-0.069173917 -0.097084835 -0.35798597
-0.010429651 -0.093323529 -0.35827351
0.043462977 -0.09386462 -0.35920095
0.096807957 -0.091781087 -0.35884285
0.15766641 -0.09502165 -0.36146975
0.21994789 -0.09326528 -0.3633275
0.27307802 -0.096305557 -0.36435032
0.32573658 -0.094990782 -0.3652463
0.38425237 -0.094982222 -0.36578608
0.44251317 -0.091709644 -0.36753845
0.49616444 -0.095495909 -0.36841345
0.55197042 -0.093199193 -0.36978149
0.6038242 -0.09378998 -0.36732721
-0.079169512 -0.068921082 -0.35012913
-0.0023983717 -0.068921141 -0.35562372
0.043405309 -0.068921141 -0.35552454
0.15783671 -0.068921141 -0.35753441
0.19588652 -0.068921141 -0.35894108
0.26393744 -0.068921141 -0.36457348
0.32185078 -0.061261561 -0.35740471
0.39426267 -0.059738848 -0.3575387
0.447258 -0.057472795 -0.35943842
0.49457723 -0.056711838 -0.35921192
0.55163443 -0.056739282 -0.36280346
0.60653245 -0.058775444 -0.36232185
-0.23317946 -0.24216789 -0.29310131
-0.17791666 -0.24207583 -0.29418802
-0.12274477 -0.24200484 -0.29502773
-0.067529291 -0.2418313 -0.29707718
-0.012550533 -0.24191555 -0.29608059
0.042499222 -0.24185628 -0.29678202
0.097523272 -0.24184254 -0.29694557
0.16037749 -0.24179834 -0.29746675
0.21532165 -0.24171686 -0.29842854
0.27021253 -0.24164066 -0.29932785
0.32516468 -0.24163634 -0.2993784
0.3856777 -0.24706167 -0.29733086
0.44323331 -0.24965367 -0.29767418
0.49820763 -0.24964324 -0.29779816
0.54825991 -0.24483845 -0.29876423
0.60551369 -0.24821457 -0.29609442
-0.6290884 -0.21176866 -0.30048418
-0.5744651 -0.2086181 -0.30266762
-0.51639748 -0.21155474 -0.30143499
-0.46166295 -0.20834619 -0.30459452
-0.40372264 -0.20991063 -0.30460787
-0.34879118 -0.20987183 -0.30516529
-0.29384631 -0.20981231 -0.30599833
-0.23582624 -0.21133146 -0.30665588
-0.18177007 -0.20817798 -0.30900717
-0.121373 -0.20958084 -0.3093071
-0.066561893 -0.20945981 -0.31103659
-0.011897877 -0.20942494 -0.31157207
0.042737734 -0.20937073 -0.31235552
0.097340122 -0.20932665 -0.31303215
0.1597169 -0.20931593 -0.31317043
0.21426964 -0.20928547 -0.31359196
0.26875001 -0.20922065 -0.31454372
0.33100671 -0.20917609 -0.31518984
0.3854807 -0.20915225 -0.31554317
0.43970525 -0.20904076 -0.31715679
0.49710619 -0.20742401 -0.31802559
0.55107397 -0.21054304 -0.31590271
0.60374528 -0.2092016 -0.31488943
-0.62873727 -0.15256968 -0.32844496
-0.57165635 -0.15633661 -0.3285141
-0.51801574 -0.15182966 -0.33046246
-0.45973885 -0.15406919 -0.32956314
-0.40553707 -0.15405965 -0.32981014
-0.3511765 -0.15401627 -0.33089495
-0.29079384 -0.15553784 -0.33136606
-0.23705094 -0.15209147 -0.33442497
-0.18074639 -0.15388861 -0.33392429
-0.12047412 -0.15540379 -0.33456135
-0.067126006 -0.15198866 -0.33693743
-0.0093345866 -0.15533975 -0.33593559
0.041557141 -0.15844725 -0.33512974
0.097089373 -0.16155182 -0.33435726
0.15877432 -0.16150403 -0.33542013
0.21577108 -0.15992537 -0.33627319
0.26878893 -0.16288246 -0.33588696
0.32820743 -0.16141999 -0.33722115
0.38502789 -0.15982604 -0.33842182
0.43796104 -0.16276515 -0.33836079
0.49729812 -0.16132869 -0.33922768
0.5540157 -0.15974641 -0.34017992
0.60503656 -0.15825374 -0.339252
-0.63229686 -0.09040875 -0.33585501
-0.58050108 -0.079159647 -0.33868599
-0.51481986 -0.09107592 -0.33792305
-0.46709788 -0.099595077 -0.34233665
-0.40798086 -0.10570964 -0.34526587
-0.35201842 -0.068921313 -0.33904362
-0.29523081 -0.068921365 -0.34087133
-0.23286508 -0.068921477 -0.34626579
-0.18219642 -0.068921313 -0.34271049
-0.56109023 -0.068921141 -0.32701492
-0.5211615 -0.061054364 -0.30427933
-0.45879149 -0.061071049 -0.31353188
-0.40403962 -0.058478635 -0.3142395
-0.3470391 -0.057178047 -0.31358099
-0.29327917 -0.053295847 -0.30923891
-0.24089278 -0.061114781 -0.32735348
-0.18149881 -0.056420974 -0.31591702
-0.12521233 -0.056422621 -0.31720448
-0.066304281 -0.053341173 -0.31513882
-0.0089570805 -0.048121992 -0.31918526
0.042759694 -0.045473419 -0.31377602
0.09728238 -0.045549467 -0.31920004
0.15933719 -0.045574203 -0.32214499
0.21336007 -0.045632653 -0.3267169
0.26744395 -0.045638975 -0.3279295
0.33045477 -0.037723802 -0.3195014
0.3793062 -0.041833773 -0.33077574
0.44558203 -0.032487266 -0.31365824
0.49814785 -0.031092171 -0.31921721
0.55270219 -0.028774928 -0.31411552
0.60549355 -0.035137236 -0.31781101
-0.12026058 -0.36022913 -0.23671293
-0.063607857 -0.36020306 -0.23690128
-0.0069226325 -0.36003551 -0.23811102
0.041606922 -0.35993728 -0.2388196
0.098191068 -0.35987109 -0.23929691
0.15481408 -0.36005318 -0.2379837
0.21130815 -0.35982573 -0.23962402
0.26782119 -0.35973746 -0.24026203
0.32422042 -0.35956803 -0.24148417
0.38064986 -0.35948443 -0.24208784
0.43684512 -0.35924459 -0.24381924
0.4934653 -0.35936165 -0.2429738
0.55024773 -0.35954338 -0.2416625
0.59837425 -0.35937634 -0.24286699
-0.62976593 -0.32845786 -0.24410391
-0.57353204 -0.32506001 -0.24674463
-0.5189721 -0.32837003 -0.24601889
-0.4629786 -0.32499129 -0.24847364
-0.40579706 -0.32815909 -0.24772739
-0.34989488 -0.32473376 -0.25058556
-0.29280525 -0.32795018 -0.24942875
-0.2370341 -0.3244642 -0.25276709
-0.17997552 -0.32771561 -0.25130796
-0.12442748 -0.32422572 -0.25471497
-0.06736204 -0.32750964 -0.25296164
-0.012098581 -0.32419729 -0.25495148
0.041852619 -0.3256793 -0.25475693
0.097995892 -0.32556668 -0.25567245
0.15992135 -0.32400224 -0.2565484
0.21505278 -0.32716325 -0.25578547
0.2742219 -0.32532477 -0.25767279
0.33018631 -0.32520929 -0.25860167
0.38614261 -0.3251327 -0.25922632
0.44183517 -0.32488719 -0.26120853
0.49806124 -0.32503593 -0.25999403
0.55444777 -0.32523453 -0.25841904
0.60266334 -0.32531008 -0.25778866
-0.62992275 -0.26540154 -0.2743516
-0.57366872 -0.2701014 -0.27271605
-0.51817936 -0.26523688 -0.27605057
-0.46161932 -0.26983789 -0.27542925
-0.40644121 -0.26500744 -0.27848816
-0.34817815 -0.26894778 -0.27753782
-0.29296792 -0.26525849 -0.2804513
-0.23552652 -0.27527487 -0.2774601
-0.1799549 -0.27525589 -0.27766466
-0.12427157 -0.27510422 -0.27916384
-0.068750128 -0.27508435 -0.27941513
-0.013269022 -0.27510598 -0.27916813
0.042232215 -0.27508742 -0.27934694
0.09771353 -0.27501157 -0.28009987
0.16108257 -0.27493468 -0.28086662
0.21643429 -0.27478564 -0.28234577
0.27178013 -0.27471384 -0.28306532
0.32715541 -0.27469587 -0.28321791
0.37951481 -0.2779386 -0.28239346
0.43825227 -0.28276914 -0.28144312
0.49393052 -0.28289467 -0.28024006
0.55648202 -0.27463558 -0.28378296
0.60934478 -0.27990484 -0.27619553
-0.62598151 -0.038512722 -0.26764774
-0.57509458 -0.038664021 -0.26567221
-0.52057153 -0.043433785 -0.27390146
-0.4605664 -0.029869158 -0.25289536
-0.40302026 -0.027584072 -0.25386953
-0.34619212 -0.03002945 -0.2624712
-0.286367 -0.028812371 -0.25845957
-0.23327036 -0.03016546 -0.26957273
-0.18104465 -0.029016096 -0.26884937
-0.12513857 -0.029040236 -0.27014685
-0.069595233 -0.028980177 -0.26724195
-0.016473085 -0.02630946 -0.26594353
0.041914295 -0.020912308 -0.2602005
0.097769231 -0.021223493 -0.27367258
0.16165048 -0.021085545 -0.2677021
0.21727657 -0.021142714 -0.27017403
0.27243483 -0.021274097 -0.27586174
0.31093019 -0.021524124 -0.28668261
0.38203311 -0.021527443 -0.28683329
0.42912233 -0.021563176 -0.28837729
0.11427043 -0.004393205 -0.24343824
0.15471086 -0.0043133572 -0.24084759
0.21128878 -0.00428956 -0.24006939
0.26795202 -0.0042542964 -0.23892593
0.32304871 -0.0046197101 -0.25079393
0.38625222 -0.0048610494 -0.25863123
0.44183099 -0.0049369335 -0.26109552
0.49721628 -0.0050305426 -0.26413345
0.55230397 -0.0051395074 -0.26767635
0.6013273 -0.0049992502 -0.26311827
-0.29178447 -0.46789813 -0.17952108
-0.23345296 -0.46770194 -0.18058348
-0.17525263 -0.46763414 -0.18095064
-0.12536985 -0.46754837 -0.1814146
-0.067178741 -0.46737725 -0.18233967
-0.0090423375 -0.46725208 -0.18301868
0.040755041 -0.46716377 -0.183496
0.098821707 -0.46700582 -0.18435049
0.15686318 -0.46694109 -0.18470097
0.21486214 -0.46681404 -0.18538857
0.27282071 -0.46667317 -0.1861515
0.33074707 -0.4721123 -0.18668509
0.38051581 -0.47080246 -0.18626499
0.43874401 -0.47519594 -0.18498135
0.49678278 -0.47520086 -0.18495417
0.55041307 -0.47082868 -0.18614101
0.60424083 -0.47079045 -0.1863389
-0.63102686 -0.43422967 -0.19113636
-0.57341707 -0.43063578 -0.19374466
-0.52050203 -0.43223596 -0.19403315
-0.46223348 -0.43191209 -0.19594717
-0.40446901 -0.43190131 -0.19602346
-0.34893036 -0.43336573 -0.19622993
-0.29183263 -0.42981225 -0.19863796
-0.23916663 -0.43151274 -0.19831181
-0.18140049 -0.43138918 -0.19904375
-0.12369615 -0.43130198 -0.19954967
-0.06597662 -0.43111002 -0.2006979
-0.0083316565 -0.4309741 -0.20150614
0.041039225 -0.43091542 -0.20185184
0.098618694 -0.43089184 -0.20197153
0.15613855 -0.43063143 -0.20352173
0.21362406 -0.43050063 -0.20431089
0.27114591 -0.43050528 -0.20428085
0.32836366 -0.43009529 -0.2066741
0.38576007 -0.43001699 -0.20716429
0.44069004 -0.42827019 -0.20865107
0.49751997 -0.43181387 -0.2062645
0.55313015 -0.42836958 -0.20720387
0.60144424 -0.4322679 -0.20597267
-0.63099062 -0.37738335 -0.21925068
-0.57578939 -0.38078037 -0.21834135
-0.51876992 -0.37717944 -0.22163296
-0.46089733 -0.38041991 -0.22077894
-0.40426272 -0.37691349 -0.22345352
-0.34940809 -0.37833592 -0.22386217
-0.29235464 -0.37828332 -0.22423935
-0.23522066 -0.37813246 -0.22527838
-0.17821918 -0.3780688 -0.22571325
-0.12165926 -0.38679507 -0.22157907
-0.064531326 -0.38660276 -0.222857
-0.0074545965 -0.38639003 -0.22427464
0.041395124 -0.38626257 -0.22511673
0.09835808 -0.38627991 -0.22501755
0.15532033 -0.38632116 -0.22472572
0.21213225 -0.38596666 -0.22708416
0.26899281 -0.38589296 -0.22757769
0.32577485 -0.38576192 -0.22845411
0.38256139 -0.38567623 -0.2290163
0.43918604 -0.3854827 -0.23030806
0.49605089 -0.38551962 -0.23006773
0.5531553 -0.38570347 -0.22883987
0.61283433 -0.38252053 -0.22694159
-0.65495706 -0.020327985 -0.23489189
-0.55852377 -0.020270035 -0.23238182
-0.51876485 -0.020206291 -0.2296257
-0.31467271 -0.02034428 -0.23559952
-0.63265234 -0.0031947717 -0.20451689
-0.57766604 -0.0029308647 -0.19594431
-0.52050769 -0.0028733239 -0.19407845
-0.46124279 -0.0030508414 -0.19984245
-0.40328938 -0.003098242 -0.20138025
-0.35238171 -0.0033325627 -0.20898914
-0.29575014 -0.0031951293 -0.20452738
-0.23761849 -0.0033305436 -0.20892668
-0.17485619 -0.00011468679 -0.21243095
-0.12345624 0.0051800758 -0.20199871
-0.065842554 0.0051447824 -0.20297337
-0.0083010346 0.0051749721 -0.20210743
0.041099574 0.0050151497 -0.20668793
0.09305992 0.0074823126 -0.21360064
0.15605897 0.013203956 -0.20536995
0.21356331 0.013189524 -0.20574713
0.27086163 0.01313363 -0.20720196
0.33341962 0.018536352 -0.21023273
0.38555956 0.021354578 -0.20864916
0.43895167 0.02006682 -0.21112871
0.49578047 0.022556692 -0.20775604
0.55225551 0.019811146 -0.21728897
0.60200411 0.022988625 -0.20851612
-0.63041514 -0.53569353 -0.13423061
-0.57116884 -0.53580135 -0.13372898
-0.51777798 -0.5253883 -0.142869
-0.46381754 -0.53646511 -0.13632393
-0.40466887 -0.53306901 -0.14092827
-0.34918982 -0.53439122 -0.14039087
-0.29360223 -0.53564346 -0.14018393
-0.23502921 -0.53241873 -0.14400387
-0.1797459 -0.5340488 -0.14201212
-0.12408052 -0.53503937 -0.14302969
-0.065901414 -0.53191936 -0.14636993
-0.010496043 -0.53336716 -0.14522886
0.040177107 -0.53318286 -0.14609718
0.099254303 -0.53299683 -0.14697647
0.15827233 -0.5327599 -0.14808846
0.21724309 -0.53256756 -0.14899588
0.2762095 -0.53246707 -0.14946604
0.32668316 -0.53230834 -0.15023232
0.38573575 -0.53241837 -0.14971209
0.44452715 -0.53217983 -0.15083361
0.49481577 -0.5319013 -0.15213394
0.55378866 -0.53195798 -0.15185452
0.59968728 -0.52758795 -0.15932512
-0.62959367 -0.48774788 -0.16305017
-0.57592708 -0.48939696 -0.16320372
-0.51756257 -0.48562121 -0.16619396
-0.46115154 -0.48701918 -0.16684103
-0.40482134 -0.48846853 -0.16716862
-0.34691894 -0.48484224 -0.16946697
-0.2944631 -0.495958 -0.16371298
-0.23567064 -0.49570385 -0.16500568
-0.17701568 -0.49557358 -0.16567516
-0.12677538 -0.49546143 -0.16623116
-0.068123296 -0.49512738 -0.16793013
-0.0096111074 -0.49508283 -0.16816759
0.040528595 -0.49495563 -0.16881275
0.098996587 -0.49483737 -0.16941833
0.15743887 -0.49476922 -0.16975832
0.21581167 -0.49455342 -0.17085695
0.27418524 -0.49445206 -0.17138577
0.32007056 -0.49860588 -0.17143297
0.38600481 -0.49534702 -0.17287683
0.4413473 -0.50312787 -0.16962004
0.49970084 -0.50303108 -0.17010403
0.56128067 -0.49620035 -0.17097235
0.60772073 -0.49594352 -0.17225409
-0.62646842 0.023968413 -0.14646006
-0.57509029 0.021049038 -0.14908886
-0.51413774 0.022397555 -0.14375496
-0.46927494 0.022241876 -0.14764738
-0.40309238 0.01476381 -0.16484833
-0.34698623 0.023757659 -0.15186214
-0.29242325 0.025167309 -0.14699984
-0.23368703 0.022512995 -0.15310144
-0.18177269 0.02535262 -0.15351772
-0.12836988 0.032233924 -0.14897394
-0.069499567 0.032351583 -0.14642715
-0.010545336 0.032466009 -0.14395094
0.0402987 0.031969093 -0.15470552
0.099041514 0.031512387 -0.1645956
0.15763927 0.031536281 -0.16407919
0.21607341 0.031390183 -0.16724205
0.2739768 0.031100839 -0.17350483
0.31520265 0.03091234 -0.17758465
0.16764182 0.050344668 -0.12574577
0.20153083 0.05014503 -0.12945366
0.26942885 0.050092034 -0.13043642
0.32804579 0.04966592 -0.13834333
0.37871993 0.049595423 -0.13965082
0.43697554 0.049285263 -0.14540625
0.49598676 0.049256571 -0.14593935
0.55330414 0.048811242 -0.15420437
0.6035015 0.048761688 -0.15512419
-0.52488649 -0.54798758 -0.11645603
-0.55863494 0.033658959 -0.11811829
-0.54112035 0.033589415 -0.11962605
-0.44815189 0.033787794 -0.1153307
-0.40461367 0.033625983 -0.11883402
-0.63492131 0.052098505 -0.09320116
-0.57614714 0.052435346 -0.086947441
-0.51571518 0.052478686 -0.086143494
-0.46519715 0.052820005 -0.079809666
-0.41177005 0.05250556 -0.08564806
-0.34942901 0.052035861 -0.094362736
-0.28932661 0.052162223 -0.092017651
-0.23698647 0.051990718 -0.095201015
-0.18432109 0.051601864 -0.10241365
-0.11888441 0.057814069 -0.095225334
-0.059883699 0.056383647 -0.09476757
-0.016143993 0.059312873 -0.089100361
0.042812519 0.059240215 -0.090337276
0.099790856 0.060534827 -0.098146439
0.15599363 0.064951576 -0.095853806
0.21619013 0.06478516 -0.098664761
0.27266234 0.06933064 -0.094116211
0.33260185 0.069041409 -0.098813057
0.3836478 0.068725504 -0.10394382
0.44044966 0.07635995 -0.093439102
0.49299484 0.076604061 -0.09727478
0.55304307 0.079345651 -0.093230247
0.604285 0.075786717 -0.10212612
-0.62946814 0.071753956 -0.054769516
-0.57992411 0.07246352 -0.043243885
-0.5186311 0.072587602 -0.041228771
-0.45596212 0.072384529 -0.044525623
-0.40224904 0.072175004 -0.047930717
-0.34806305 0.071747683 -0.054868698
-0.29270703 0.081980787 -0.034116268
-0.23656277 0.082016073 -0.033495426
-0.17974101 0.078660093 -0.039631367
-0.12621744 0.086890019 -0.02696991
-0.071571082 0.083827473 -0.033107281
-0.010488205 0.086544164 -0.031937599
0.034126975 0.086133592 -0.037897587
0.10065469 0.091342367 -0.025840759
0.16253036 0.09063784 -0.036009312
0.21513638 0.089920647 -0.046360016
0.26758936 0.089525141 -0.052068233
0.32887638 0.089316942 -0.055073738
0.38998514 0.089101724 -0.05818367
0.42489654 0.089007325 -0.059540272
0.32435465 0.10995852 -0.015330791
0.37801749 0.10994419 -0.015516281
0.4400022 0.10966367 -0.019161224
0.49965024 0.10846894 -0.034682274
0.55242091 0.10828898 -0.037016392
0.60642374 0.10857161 -0.033347607
-0.62596953 0.09259709 -0.0077300072
-0.57306445 0.09283454 -0.0043010712
-0.51968527 0.092979558 -0.0022110939
-0.46557039 0.092927657 -0.0029592514
-0.41026831 0.09248247 -0.0093832016
-0.35678649 0.092602633 -0.007651329
-0.30259722 0.092453472 -0.0098047256
-0.17715304 0.092498146 -0.0091600418
-0.61994231 0.11368596 0.033089638
-0.56825501 0.11456598 0.044522285
-0.52220929 0.11451071 0.043802261
-0.44824219 0.11429974 0.041064739
-0.40082073 0.11367948 0.033007622
-0.34672844 0.11398367 0.036959171
-0.29157054 0.1138382 0.035069942
-0.23619615 0.11351166 0.030826092
-0.18118973 0.11331702 0.028299332
-0.12639189 0.11319437 0.026705265
-0.071744323 0.11318513 0.026586056
-0.016954377 0.11285187 0.022254944
0.037667736 0.11247336 0.017337799
0.10108157 0.11207628 0.012178898
0.16456848 0.11233551 0.015547276
0.21851233 0.11182206 0.0088777542
0.27711171 0.11620811 0.0063533783
0.32910353 0.13157019 0.028646469
0.3840518 0.13172629 0.030487061
0.4388482 0.13178676 0.031201839
0.49222267 0.13113123 0.023461342
0.55387551 0.13029873 0.01363039
0.60584754 0.13667473 0.016713142
-0.63222367 0.13549751 0.075024128
-0.57665253 0.13096508 0.075710773
-0.51752996 0.13138342 0.080657959
-0.4692992 0.13079917 0.073786736
-0.41066498 0.1361056 0.082205772
-0.35451907 0.13600031 0.080962658
-0.29872584 0.13604981 0.08154583
-0.24223994 0.13565826 0.07692337
-0.1861055 0.13541341 0.074030876
-0.13066177 0.13565478 0.076881409
-0.074252039 0.13484168 0.067276955
-0.018592425 0.13465279 0.065049171
0.037035245 0.13401508 0.057517052
0.10573377 0.14286295 0.067342758
0.16677395 0.14466125 0.072746754
0.22257282 0.14480665 0.074284077
0.27459615 0.14665604 0.074279308
0.33320957 0.15331712 0.066754341
0.38922954 0.15362844 0.070124626
0.44396478 0.15308991 0.064292908
0.49950898 0.15312737 0.06470108
0.55310172 0.1522277 0.054961681
0.58945274 0.15201107 0.05261755
0.60776663 0.1745792 0.094157219
-0.62899762 0.15906298 0.12895584
-0.574853 0.16006902 0.13984585
-0.51677173 0.15973124 0.13618898
-0.45898217 0.15947437 0.13340855
-0.40203422 0.15953836 0.13409901
-0.34356004 0.15880391 0.12614965
-0.28658485 0.15878403 0.12593746
-0.22946121 0.15862951 0.12426376
-0.17254983 0.15860832 0.1240325
-0.11535673 0.1582323 0.11996317
-0.05838652 0.15794748 0.11687946
-0.0016917512 0.1579476 0.11688042
0.045570247 0.15808758 0.11839485
0.088294752 0.17422175 0.13755083
0.15024671 0.17909062 0.1392355
0.20756695 0.17923304 0.14065886
0.26471663 0.17911211 0.13945246
0.32048303 0.17766875 0.12502909
0.37652934 0.17691371 0.11748409
0.43905729 0.18595064 0.13102007
0.48660624 0.18256292 0.12596035
0.54795593 0.18237263 0.12404823
0.59401101 0.19117913 0.13258791
-0.62499261 0.18346995 0.18299866
-0.56780046 0.18389782 0.18727303
-0.52007276 0.18426168 0.19090891
-0.46935034 0.18332228 0.18152285
-0.41006172 0.18275571 0.17586088
-0.35137707 0.18239972 0.17230272
-0.29327673 0.18233669 0.17167377
-0.23488884 0.1820088 0.16839695
-0.17676948 0.1817812 0.16612244
-0.11477287 0.18771741 0.17632818
-0.062339082 0.19399726 0.19002199
-0.0038102567 0.19356421 0.18589211
0.044816829 0.19324875 0.18293428
0.09341763 0.20402589 0.1935854
0.15186149 0.20372275 0.19077587
0.21034797 0.20387393 0.19217634
0.26876736 0.20386437 0.19208813
0.32515246 0.20166072 0.1716423
0.38191372 0.20054358 0.16127491
0.42037708 0.20052713 0.16112137
0.50738084 0.20076734 0.16335201
0.55484843 0.2003862 0.15981579
0.36866236 0.22579736 0.21329212
0.44669044 0.22536063 0.20951128
0.49572474 0.22533906 0.20932198
0.5454427 0.22576889 0.21304512
0.60184932 0.22438404 0.20105362
-0.62934166 0.20843077 0.2344594
-0.58123958 0.20904094 0.24012089
-0.52205563 0.20920116 0.2416091
-0.46041918 0.20815444 0.23189402
-0.40015775 0.20763257 0.22705507
-0.34027815 0.20723319 0.22334719
-0.29144877 0.20759082 0.22666597
-0.24119566 0.20683041 0.21961021
-0.18215172 0.20687392 0.22001219
-0.13281147 0.20673683 0.21874332
-0.34809136 0.23253223 0.27161741
-0.16698371 0.23223811 0.26906824
-0.13692753 0.23232606 0.26982975
-0.06640026 0.23175418 0.26487923
-0.0060909837 0.23121569 0.26021528
0.04399132 0.23061836 0.25504303
0.093842708 0.22997755 0.2494936
0.15360744 0.22981539 0.24808884
0.21277261 0.22856152 0.23723173
0.27237341 0.22874165 0.23879004
0.33065414 0.22731745 0.22645664
0.39929187 0.22685039 0.22241163
0.45557779 0.25245488 0.27020264
0.48462766 0.25161561 0.26338959
0.54615963 0.2525869 0.27127504
0.60256886 0.25027922 0.25253963
-0.63315958 0.23411933 0.28536224
-0.57241666 0.23406762 0.28491354
-0.51270956 0.23451343 0.28877497
-0.45380551 0.24245197 0.29828644
-0.40364432 0.24622217 0.30137491
-0.34747612 0.24601138 0.2995429
-0.28878337 0.23335525 0.27874422
-0.23765309 0.23262295 0.27240372
-0.18982084 0.24577829 0.2976079
-0.12492421 0.25227645 0.30955458
-0.069245651 0.25834122 0.31799412
-0.0077759176 0.25800091 0.31522989
0.043304905 0.25787178 0.31418037
0.094302893 0.25699699 0.30708075
0.15568799 0.25799045 0.31514597
0.21678466 0.2575998 0.31197453
0.2767067 0.25562593 0.29594755
0.32559359 0.25319371 0.27620029
0.37622881 0.25350326 0.27871418
0.42682397 0.25372535 0.28051472
0.51617038 0.25269827 0.2721777
0.57654291 0.25274244 0.2725358
0.54479098 0.27911079 0.32040548
0.60239589 0.27663717 0.30150318
-0.62535936 0.26017269 0.33286381
-0.57547385 0.26094291 0.3391161
-0.5252673 0.26168463 0.34513855
-0.47123092 0.26022851 0.3333168
-0.29610747 0.26001453 0.33158016
-0.23416497 0.25972745 0.32924795
-0.3235532 0.28673401 0.37865591
-0.29184294 0.28641304 0.37620449
-0.23983823 0.28669694 0.37837505
-0.17648946 0.28584808 0.37188864
-0.12426665 0.28577206 0.37130785
-0.07201761 0.28553239 0.36947536
-0.0094115958 0.28536871 0.36822557
0.042692922 0.28524712 0.36729622
0.094691157 0.28404835 0.3581357
0.15700617 0.28412938 0.35875463
0.21924062 0.28395024 0.35738611
0.27130687 0.28424779 0.35965967
0.32780051 0.28858018 0.35274601
0.37977225 0.28883827 0.35471869
0.44432867 0.28089678 0.33405256
0.49301344 0.29633531 0.35628271
0.55343544 0.30632597 0.36906815
0.60345334 0.3048622 0.35850286
-0.63037997 0.28850296 0.3921752
-0.57944953 0.28939596 0.39899826
-0.5180794 0.29050282 0.40745592
-0.4622857 0.28856158 0.39262295
-0.41011536 0.28886658 0.39495373
-0.35602301 0.28763428 0.38553715
-0.27843291 0.3154887 0.43519306
-0.23627196 0.31617293 0.44013119
-0.17104521 0.3145068 0.42810535
-0.11794896 0.31490958 0.43101263
-0.064709857 0.31504112 0.43196344
-0.011367753 0.31501099 0.43174553
0.041937027 0.31499663 0.43164444
0.095095724 0.31197667 0.40984726
0.15864809 0.31225342 0.41184425
0.21155827 0.31213796 0.41101027
0.26441219 0.31200841 0.41007662
0.31642783 0.31063789 0.40018559
0.39917618 0.308768 0.38668919
0.44178104 0.30941126 0.39133263
0.41628426 0.33760825 0.440413
0.52205724 0.3365151 0.43293715
0.55308765 0.33568397 0.42725706
0.60467833 0.33447 0.41895771
-0.63386184 0.31715533 0.44722033
-0.57113725 0.31815091 0.45440722
-0.5193556 0.31941229 0.46350861
-0.46398824 0.31836393 0.45594406
-0.40958685 0.31790072 0.45260143
-0.35502476 0.3171429 0.44713211
-0.31145614 0.3164784 0.44233656
-0.20428757 0.31632167 0.44120646
-0.40568328 0.34530178 0.49301481
-0.28578401 0.34530479 0.49303389
-0.25308526 0.34531537 0.49310637
-0.16609019 0.34568256 0.49561787
-0.10059366 0.34560481 0.49508524
-0.067716464 0.34513119 0.49184656
-0.013022438 0.34420326 0.4855032
0.041285999 0.34471345 0.48899221
0.095484957 0.34123647 0.46521902
0.16052154 0.342246 0.47212124
0.21450315 0.34194911 0.47009277
0.26828986 0.34139523 0.46630478
0.33186436 0.33950236 0.45336246
0.38441586 0.33790776 0.44246054
0.44874936 0.33801097 0.44316673
0.49188215 0.33830601 0.44518375
0.54299825 0.36740386 0.49496698
0.60637307 0.36572531 0.48406553
-0.62938428 0.34867078 0.51604795
-0.57476109 0.34889093 0.51755333
-0.5212422 0.34991378 0.5245471
-0.46507531 0.34907529 0.51881361
-0.4068079 0.34627232 0.49965
-0.35281914 0.34690163 0.50395298
-0.32054436 0.34748256 0.50792503
-0.22170632 0.34718946 0.50591993
-0.18814723 0.34605581 0.4981699
-0.1337579 0.34648901 0.50113201
-0.070561573 0.37568605 0.54876137
-0.014834024 0.374937 0.54389811
0.040620118 0.37539697 0.54688549
0.096002109 0.37274408 0.52965403
0.16248229 0.37368742 0.53578234
0.21748623 0.37274322 0.52964783
0.27263117 0.37263775 0.52896214
0.32688445 0.37100086 0.51833105
0.38097924 0.36971349 0.50996971
0.44562846 0.3683548 0.50114441
0.50006449 0.36813498 0.49971628
0.57634622 0.36795062 0.49851847
0.60650104 0.39706627 0.54350519
-0.62482339 0.38189593 0.58909845
-0.57670754 0.37979475 0.57544947
-0.5341965 0.38155293 0.58686829
-0.46564275 0.38072234 0.5814743
-0.40992206 0.38118926 0.58450603
-0.35216266 0.37960449 0.57421398
-0.28558546 0.38048998 0.57996559
-0.24002503 0.37958679 0.57409763
-0.18365665 0.37907648 0.57078314
-0.12691069 0.37742919 0.5600853
-0.65009904 0.38360539 0.60020018
-0.51313555 0.382678 0.59417725
-0.30945367 0.38213429 0.59064579
-0.039507784 0.40757468 0.60850716
0.039913084 0.40757468 0.60850811
0.10787979 0.40653247 0.60205984
0.15306428 0.4058097 0.59758902
0.20928939 0.40477803 0.5912075
0.26544729 0.40422201 0.58776855
0.32184279 0.40435803 0.58861017
0.38890696 0.40352446 0.58345318
0.44313723 0.40100649 0.56787777
0.49842227 0.40024495 0.56316519
0.55406731 0.40001941 0.56177187
0.58799863 0.40043345 0.56433153
-0.62943393 0.41536871 0.65672064
-0.57072449 0.41458449 0.65186882
-0.51406187 0.415319 0.65641212
-0.46780765 0.41519636 0.65565491
-0.4090187 0.41399398 0.64821625
-0.35104924 0.4135274 0.64533043
-0.29337835 0.41313392 0.64289665
-0.23393138 0.40998542 0.62342024
-0.17692216 0.41000792 0.62355995
-0.11988261 0.40994167 0.62314939
-0.074185789 0.40961203 0.62111092
-0.0056167617 0.40837801 0.61347723
0.07394363 0.40832618 0.61315632
0.22328083 0.43656677 0.64571953
0.28099442 0.43720317 0.64947414
0.32724619 0.43773174 0.65259695
0.38388008 0.43615693 0.64329815
0.44070399 0.43540734 0.63887358
0.49701464 0.43418229 0.63163805
0.55575734 0.4358083 0.64123917
-0.11110018 0.43994933 0.6656909
-0.0069919452 0.43982881 0.66497993
0.039290387 0.43935311 0.66216993
0.09704864 0.43942404 0.6625886
0.15469861 0.43873572 0.65852594
0.18932137 0.43874061 0.65855455
0.25841546 0.43837625 0.65640259
-0.43564349 0.44066572 0.66992188
-0.40074784 0.44050854 0.66899252
-0.35454839 0.44063973 0.66976643
-0.29675126 0.44078249 0.67061043
-0.23869108 0.440561 0.66930151
-0.18090074 0.44077802 0.6705842
-0.13446943 0.44053268 0.66913652
-0.064963967 0.44040674 0.66839314
0 0 0 1 0 0 0 1 0 0 0 1 0 0 0 0 0 759 1 0 0
