ply
format ascii 1.0
comment PCL generated
element vertex 960
property float x
property float y
property float z
element camera 1
property float view_px
property float view_py
property float view_pz
property float x_axisx
property float x_axisy
property float x_axisz
property float y_axisx
property float y_axisy
property float y_axisz
property float z_axisx
property float z_axisy
property float z_axisz
property float focal
property float scalex
property float scaley
property float centerx
property float centery
property int viewportx
property int viewporty
property float k1
property float k2
end_header
0.55587631 -0.07388714 -0.80370283
0.55560696 -0.032555506 -0.80510235
0.55509776 0.019053468 -0.80774832
0.55491984 0.060297824 -0.80867314
0.55485332 0.10153244 -0.80901861
0.55448335 0.14267024 -0.81094098
0.55477858 0.18400826 -0.80940771
0.53240615 0.21412945 -0.81888938
0.48612869 -0.28209734 -0.78805852
0.51593262 -0.28131455 -0.7958796
0.49775702 -0.2411397 -0.78082776
0.55835605 -0.2506904 -0.79081821
0.52024895 -0.21056296 -0.77150059
0.56612682 -0.20594525 -0.78680182
0.52106518 -0.17947641 -0.766891
0.57069063 -0.16817585 -0.78125429
0.57042813 -0.1264445 -0.7825799
0.57501191 -0.088387951 -0.77691531
0.58420396 -0.032855973 -0.76541567
0.58386862 0.019519076 -0.7670908
0.58369327 0.061393566 -0.76796722
0.58330965 0.10319253 -0.76988363
0.58369982 0.14515847 -0.76793432
0.58410358 0.18718857 -0.76591706
0.53261679 0.24003042 -0.76093721
0.55782944 0.2162749 -0.79355431
0.58859032 -0.2654286 -0.74349999
0.58651984 -0.24342465 -0.75384498
0.58569539 -0.22205922 -0.75796413
0.54937541 -0.16067593 -0.72704029
0.61442459 -0.15036228 -0.72085714
0.61407751 -0.10769551 -0.72252631
0.61381173 -0.065093204 -0.72380495
0.61381447 -0.022534354 -0.72379184
0.61409563 0.009396432 -0.72243953
0.61405677 0.041324452 -0.72262669
0.61339772 0.083788954 -0.72579694
0.61338782 0.12632026 -0.72584486
0.6139161 0.16901785 -0.72330284
0.50224912 0.24064328 -0.75430322
0.57680839 0.23054296 -0.74965215
0.47390226 0.2425469 -0.73369622
0.55178976 -0.22544582 -0.71397257
0.61539781 -0.23595017 -0.71617436
0.61518657 -0.19320428 -0.7171905
0.64530015 -0.14175835 -0.67644191
0.64508379 -0.1092573 -0.67744541
0.64495409 -0.065973029 -0.67804718
0.64494359 -0.022709703 -0.67809558
0.64501375 0.0097402129 -0.67777038
0.64466953 0.042159997 -0.67936754
0.64464271 0.085402131 -0.67949152
0.64492285 0.12870772 -0.67819214
0.61673832 0.21269867 -0.70972443
0.43584001 0.24536897 -0.7031455
0.60872799 0.24594174 -0.69694567
0.54452229 -0.27550626 -0.63440537
0.56610292 -0.27531278 -0.63650084
0.64803272 -0.24020509 -0.66376376
0.64575422 -0.19600742 -0.67433524
0.6457392 -0.16351208 -0.67440486
0.6457513 0.17222326 -0.67434883
0.64896178 0.216772 -0.65945363
0.36731455 0.25054622 -0.64710093
0.39753509 0.24868254 -0.66727519
0.18402061 -0.27915502 -0.59490705
0.22813118 -0.27852631 -0.60171175
0.27253631 -0.27849549 -0.60204673
0.31620422 -0.27776587 -0.6099453
0.36006689 -0.27739441 -0.61396599
0.40361691 -0.27687788 -0.61955762
0.44708917 -0.27643186 -0.6243844
0.49035826 -0.27595049 -0.62959695
0.52262217 -0.27554309 -0.63400578
0.17302474 -0.23482688 -0.59210682
0.68195564 -0.24462794 -0.60919905
0.67828351 -0.19919558 -0.62564826
0.67783993 -0.15502124 -0.627635
0.67736197 -0.1109072 -0.62977624
0.6771816 -0.066886567 -0.63058424
0.67704749 -0.022889644 -0.63118505
0.67747384 0.010113427 -0.62927508
0.67748183 0.043121967 -0.62923932
0.67732525 0.087116316 -0.62994075
0.67764813 0.13119487 -0.6284945
0.67877728 0.17555256 -0.62343645
0.68169576 0.22073969 -0.61036325
0.32694894 0.25366098 -0.61338234
0.34765294 0.2524392 -0.6266098
0.65536171 0.25214815 -0.6297617
0.13998418 -0.28052986 -0.580024
0.15231475 -0.23799373 -0.55097008
0.19697249 -0.23719044 -0.56140471
0.71473604 -0.23705082 -0.56321883
0.7121284 -0.20254445 -0.57451057
0.71181244 -0.15761518 -0.57587886
0.71077114 -0.11262371 -0.58038735
0.71086347 -0.067858413 -0.579988
0.71082407 -0.023088327 -0.580158
0.71078986 0.01049054 -0.58030653
0.71075404 0.044064127 -0.58046198
0.71107227 0.088882387 -0.57908344
0.71129835 0.13371782 -0.57810497
0.71233261 0.17881143 -0.57362604
0.71395147 0.21300188 -0.56661677
0.7172125 0.23668709 -0.55249548
0.28681076 0.25815666 -0.56471682
0.30766976 0.25651151 -0.58252645
0.68798941 0.25654417 -0.5821712
0.13059136 -0.24021038 -0.52217674
0.23217165 -0.23881929 -0.54024601
0.27817249 -0.2394325 -0.53227949
0.31243142 -0.23953263 -0.53097939
0.35883322 -0.24015678 -0.52286983
0.39362037 -0.24050038 -0.51840711
0.74777323 -0.20616736 -0.51912951
0.74685687 -0.16026372 -0.52296948
0.74602544 -0.11449293 -0.52645326
0.74538249 -0.068837486 -0.52914786
0.74549043 -0.023283929 -0.52869558
0.74535137 0.010883378 -0.52927804
0.74538976 0.04505232 -0.52911711
0.74532759 0.090601414 -0.5293777
0.74619609 0.13634063 -0.52573824
0.74739057 0.18227929 -0.52073312
0.74893373 0.21703176 -0.51426601
0.24494627 0.26234835 -0.51933861
0.26565129 0.25977015 -0.54724836
0.72275501 0.26150268 -0.52849579
0.45795199 -0.26775819 -0.46648073
0.4913215 -0.26690745 -0.47652626
0.52557117 -0.2666257 -0.47985482
0.56956398 -0.26551503 -0.49296999
0.59156865 -0.26503301 -0.49866295
0.75105089 -0.24150211 -0.50539446
-0.0068678334 -0.21949024 -0.4916966
0.039264746 -0.21866545 -0.50360155
0.78358585 -0.19797398 -0.46652865
0.78273201 -0.16291144 -0.46999478
0.78198606 -0.11634259 -0.47302294
0.78151172 -0.069886059 -0.47494864
0.78159982 -0.023495881 -0.47459054
0.78162521 0.011305021 -0.47448707
0.78196442 0.046131395 -0.47311091
0.781735 0.092513457 -0.47404194
0.78220391 0.13902219 -0.47213817
0.78288549 0.18563709 -0.46937132
0.016260155 0.24115686 -0.49971128
0.75125551 0.2407483 -0.50453711
-0.0071151592 0.24319591 -0.47563243
0.20154303 0.26629782 -0.47658587
0.22348857 0.26444232 -0.49667358
0.75867712 0.26658857 -0.47343707
-0.066602565 -0.27065897 -0.43222213
-0.019555416 -0.27070808 -0.43164301
0.015713153 -0.27096128 -0.42865419
0.051023718 -0.27077192 -0.43088889
0.098115355 -0.27080584 -0.43048811
0.14506139 -0.27051145 -0.43396521
0.19192794 -0.27024746 -0.43708277
0.22704953 -0.27009785 -0.43885088
0.26233879 -0.2701847 -0.43782377
0.30892989 -0.26983392 -0.44196653
0.35527322 -0.26938534 -0.44726348
0.40117544 -0.26873899 -0.45489645
0.43542969 -0.2682358 -0.4608407
-0.07785739 -0.22271357 -0.44517303
0.78407067 -0.22137028 -0.46456027
0.78448111 0.22098643 -0.46289372
-0.054873012 0.24698527 -0.43088174
-0.030795313 0.24499317 -0.45440578
0.78602046 0.24480374 -0.45664501
-0.15139067 -0.27404499 -0.39223719
-0.11462911 -0.27228397 -0.41303253
0.82257503 -0.22552368 -0.40461111
0.82092434 -0.20138688 -0.41110897
0.82120258 -0.16591597 -0.41001344
0.81968361 -0.11831961 -0.41599298
0.81952816 -0.071003944 -0.41660523
0.81944209 -0.023717521 -0.41694379
0.81932664 0.011744652 -0.41739821
0.81910646 0.047185883 -0.4182651
0.81922811 0.094462678 -0.41778588
0.8192659 0.14174502 -0.41763759
0.82009941 0.17739958 -0.41435623
0.82173616 0.21336465 -0.40791345
-0.10399172 0.25074321 -0.38650155
-0.079116844 0.24854593 -0.41245174
0.15864384 0.27461624 -0.38653564
0.18175405 0.27308512 -0.40311122
0.8252793 0.2501111 -0.39396572
-0.22638997 -0.27754843 -0.35086274
-0.18859696 -0.27570003 -0.37268949
-0.15214425 -0.22722888 -0.38000083
0.11149217 -0.22857594 -0.36055636
0.13557115 -0.22858311 -0.36045337
-0.1541183 0.25400805 -0.34794641
-0.12891123 0.25238287 -0.36713886
0.13606915 0.27851957 -0.34428072
-0.30333716 -0.28108084 -0.3091464
-0.27750912 -0.27993315 -0.32270074
-0.25186187 -0.27875966 -0.33655787
-0.18037879 -0.23153713 -0.31781411
-0.13268441 -0.23297112 -0.29711723
-0.10712609 -0.2314799 -0.31864119
-0.058040127 -0.2308297 -0.32802701
-0.033658609 -0.23066378 -0.33042169
0.45674819 -0.2574721 -0.29793739
0.49158296 -0.2564019 -0.31184244
0.52657944 -0.25555104 -0.32289362
0.56138021 -0.25474417 -0.33337569
-0.19297713 0.25697422 -0.31291747
0.11244676 0.28083408 -0.31922197
-0.32963488 -0.28241998 -0.29333115
-0.25643244 -0.23366661 -0.28707981
-0.2314555 -0.23339202 -0.29104137
-0.20801196 -0.23444273 -0.275877
0.36020976 -0.25877452 -0.28101969
-0.25865075 0.26119536 -0.26306581
-0.23219737 0.25956851 -0.28228045
0.064151488 0.28674728 -0.25521278
0.088614017 0.2842021 -0.28276634
-0.43799132 -0.28819972 -0.22507572
-0.335554 -0.23678491 -0.2420702
0.014048288 -0.26405823 -0.21238184
0.051820025 -0.26329762 -0.22226191
0.10185663 -0.26229763 -0.23525286
-0.38610303 -0.21206658 -0.23769045
-0.35958943 -0.21132091 -0.24980307
0.64351189 0.22727737 -0.21751213
-0.31220874 0.26426411 -0.22682762
-0.28556523 0.26296258 -0.24219942
0.61869138 0.2652235 -0.21549892
0.039264746 0.28961742 -0.22414303
-0.52239066 -0.29272145 -0.17167854
-0.49383831 -0.29113811 -0.1903758
-0.46580338 -0.28968126 -0.207582
-0.10093593 -0.26675391 -0.1773653
-0.062110633 -0.26533222 -0.19583368
-0.28986171 -0.23975037 -0.19926643
-0.023934484 -0.26464146 -0.20480537
0.57483345 -0.2414231 -0.17512321
0.59808612 -0.24050246 -0.18841219
0.64473075 -0.23894343 -0.21091509
-0.41909462 -0.19014454 -0.18017244
0.089974955 -0.21473455 -0.19437122
0.64871895 -0.21504501 -0.18932772
0.65159571 -0.075683773 -0.17375708
0.65049386 -0.024633512 -0.17972088
0.64968902 0.013540661 -0.18407774
0.62600696 0.051876344 -0.17418003
0.64869452 0.051582381 -0.18946028
0.62509882 0.089990519 -0.17930937
0.64776969 0.089523971 -0.19446611
0.61624944 0.13236427 -0.18123913
0.64671499 0.12730631 -0.20017481
0.61111128 0.17872356 -0.18637133
0.64512563 0.17743002 -0.20877695
0.57552427 0.21793191 -0.17085028
0.61345404 0.22452821 -0.19721651
-0.39400676 0.26845849 -0.17729425
-0.3663514 0.26696742 -0.1949029
-0.33969313 0.26600879 -0.20622396
0.56593859 0.25994211 -0.17749405
0.59682244 0.25419492 -0.19587374
0.013916371 0.29228675 -0.19524479
-0.54006928 -0.28222495 -0.14304161
-0.23195282 -0.27019399 -0.13267517
-0.19244975 -0.26935416 -0.14358473
-0.15277833 -0.26794648 -0.16187191
0.50338173 -0.24395208 -0.13862038
0.52727342 -0.24305572 -0.15155983
0.55133599 -0.24232577 -0.16209555
0.56744504 -0.21802367 -0.14096117
0.61256301 -0.20012207 -0.15340996
0.61464232 -0.14932057 -0.14120102
0.64547724 -0.15706611 -0.1605072
0.61799932 -0.11478513 -0.14660168
0.65235013 -0.11407468 -0.16967392
0.58227015 -0.063608333 -0.1291213
0.61723214 -0.076120831 -0.15102959
0.58171791 -0.037724704 -0.13253689
0.61251396 -0.028999003 -0.15360594
0.58094758 0.00099765882 -0.1373024
0.61936843 0.0051761027 -0.16336107
0.57197767 0.056853674 -0.1394906
0.60302603 0.052163772 -0.15924358
0.56734991 0.091152996 -0.14155817
0.60214633 0.090448514 -0.16443825
0.56638551 0.12952855 -0.1476655
0.60147858 0.11588207 -0.16838074
0.5298714 0.18175827 -0.13379717
0.56499493 0.18044926 -0.1564827
0.52889884 0.22003824 -0.14044666
0.55241519 0.21902412 -0.15508556
-0.45098737 0.27193683 -0.13622093
-0.42177668 0.26985401 -0.16081572
0.50306875 0.27154237 -0.1408782
0.51970744 0.25405371 -0.14438629
0.55151206 0.2442299 -0.16095161
-0.064130157 0.29829127 -0.13024712
-0.024787977 0.29540759 -0.16146421
-0.61326313 -0.27290481 -0.0974617
-0.57027203 -0.27125859 -0.11884594
-0.49358135 -0.27182615 -0.11147451
-0.44284448 -0.2724908 -0.10283947
-0.40398562 -0.2726292 -0.10104227
-0.36413658 -0.27215368 -0.10722017
-0.31201467 -0.27210587 -0.10783958
-0.27156717 -0.27092028 -0.12324142
0.35296625 -0.24716975 -0.092176914
0.39119849 -0.24652451 -0.10149097
0.44183874 -0.24565978 -0.11397314
0.4791252 -0.2447609 -0.12694597
-0.5723033 -0.22008446 -0.10749912
-0.53066432 -0.21914068 -0.12282467
-0.50403786 -0.2188662 -0.12728214
0.48404589 -0.20811015 -0.089344978
0.52069479 -0.20705363 -0.10741854
0.57065928 -0.19335428 -0.12060833
0.53638309 -0.15579604 -0.089276314
0.57202452 -0.1548406 -0.11191845
0.53596467 -0.1164619 -0.09213686
0.57143736 -0.11573798 -0.11565018
0.53531116 -0.077169023 -0.096604824
0.5669266 -0.081089161 -0.11685467
0.52638835 -0.02058547 -0.097971916
0.55808407 -0.024870247 -0.11826515
0.52174407 0.014188031 -0.099999428
0.55732709 0.014009474 -0.12318182
0.52103674 0.053208165 -0.10496187
0.55676281 0.039856121 -0.12684679
0.48446432 0.092859253 -0.086146832
0.52029204 0.092118926 -0.11019278
0.48355517 0.13183822 -0.093094826
0.51940244 0.13085032 -0.1164403
0.45787203 0.19741027 -0.089427471
0.48229316 0.18355201 -0.1027379
0.50620097 0.18265344 -0.11827374
0.45728225 0.22324131 -0.094216347
0.48140547 0.22218066 -0.10952091
0.50520784 0.22107801 -0.12544107
-0.49417973 0.27432358 -0.10802984
0.44776922 0.26624584 -0.10073566
0.48004472 0.26033401 -0.11991882
-0.0909485 0.30061823 -0.10505629
-0.66191006 -0.28358161 -0.072479248
-0.64881235 -0.22360957 -0.050255775
-0.6219855 -0.22349384 -0.052138805
0.19825572 -0.25038025 -0.04584074
0.23730245 -0.24955641 -0.057729244
0.27607203 -0.24870098 -0.070076466
0.31464446 -0.24794725 -0.080954552
0.41013408 -0.22381887 -0.04685688
0.44738516 -0.20937602 -0.067436695
0.44428989 -0.1615642 -0.056506634
0.47868049 -0.15248571 -0.063001633
0.51193452 -0.15630925 -0.076895714
0.47556603 -0.11767028 -0.052898884
0.51210368 -0.11696908 -0.075674534
0.47517484 -0.077950515 -0.055951118
0.51142353 -0.077476576 -0.080582619
0.47438633 -0.025086666 -0.062154293
0.51078463 -0.038088985 -0.085194588
0.43700832 0.014622567 -0.043535233
0.47366589 0.014435457 -0.067825317
0.44865352 0.054135285 -0.056790352
0.48513132 0.053668767 -0.081050396
0.44800785 0.093596183 -0.062213898
0.41009605 0.14703435 -0.04720974
0.4471671 0.13284795 -0.069253445
0.40950918 0.17322856 -0.05265522
0.44204772 0.18075968 -0.075518131
0.40038964 0.21713223 -0.055328369
0.43301472 0.22435631 -0.078120708
-0.56771189 0.27839959 -0.059896469
-0.53889483 0.27718621 -0.074225903
0.35718146 0.27953017 -0.046545506
0.39499322 0.26478726 -0.064796925
0.4323456 0.25016016 -0.083915234
-0.14599571 0.30569571 -0.050089836
-0.11812807 0.30289209 -0.080440521
-0.73243469 -0.27799672 -0.031312943
-0.7033602 -0.27711695 -0.042745113
-0.76385438 -0.2260588 -0.010487556
-0.7369892 -0.22603275 -0.010910988
-0.70985222 -0.22592697 -0.012626171
-0.67787224 -0.22437876 -0.037768364
0.092865445 -0.25309676 -0.0066280365
0.17219886 -0.25117511 -0.034366131
0.36010003 -0.22578394 -0.014951706
0.38521573 -0.22478645 -0.031145573
0.36044782 -0.19925049 -0.011187077
0.39812705 -0.19798607 -0.034651756
0.36054471 -0.15914464 -0.010138035
0.39835277 -0.15819409 -0.032517433
0.36099842 -0.1191383 -0.0052261353
0.39954269 -0.11864728 -0.021169186
0.43807432 -0.11824293 -0.034303188
0.40498078 -0.083267905 -0.011706352
0.43837252 -0.078416213 -0.031720638
0.40039551 -0.025277613 -0.012800217
0.43766949 -0.025180127 -0.037809372
0.39982286 0.014816785 -0.018320084
0.39927822 0.054773442 -0.023550034
0.36103767 0.095364079 -0.0048012733
0.39857996 0.0945796 -0.030277729
0.36037073 0.13527092 -0.012021542
0.39387238 0.12996519 -0.032985687
0.33440876 0.17592533 -0.0026106834
0.35970038 0.17502721 -0.019277573
0.38472205 0.1741219 -0.036078453
0.33376259 0.21566293 -0.010241985
0.35896629 0.21455185 -0.027225018
0.38417563 0.20035926 -0.041538715
-0.76346815 0.25568408 -0.012160778
-0.61496079 0.28181612 -0.019547939
0.31987214 0.26872343 -0.016084194
0.35823134 0.25391167 -0.035181046
-0.22894812 0.3099618 -0.0039081573
-0.18782142 0.30868435 -0.017736435
-0.80117655 -0.2423128 0.033728123
0.012147551 -0.25594854 0.034531116
0.066138521 -0.25375754 0.0029091835
0.28321865 -0.22874185 0.033075333
0.32188815 -0.22724888 0.0088400841
0.28358781 -0.20192274 0.038404465
0.30943811 -0.20101506 0.021559238
0.33504805 -0.20011944 0.0049386024
0.28361955 -0.16122091 0.038861752
0.30948627 -0.16051424 0.022184849
0.33508423 -0.15980245 0.0053663254
0.2836754 -0.12052034 0.03966856
0.30960262 -0.12002863 0.023696899
0.33537051 -0.11956862 0.0087471008
-0.80280232 -0.079803601 0.040540695
0.31004906 -0.093128882 0.029495716
0.34960663 -0.079346016 0.017795086
0.38836971 -0.065602198 0.00037097931
-0.80260462 -0.039050765 0.039711952
0.35002533 -0.038919128 0.022603512
-0.80264884 0.001686288 0.039897442
0.3495954 0.0015932675 0.017766476
-0.80278939 0.05601649 0.040485859
0.31053218 0.055914789 0.035771847
0.34891683 0.055420309 0.010097504
-0.80254221 0.096726492 0.039450645
0.31004569 0.096418686 0.029452324
0.33565187 0.095883586 0.012070179
-0.80221462 0.13740148 0.038077354
0.28348374 0.15091908 0.036901951
0.30950141 0.13672617 0.022381783
0.33504727 0.13598786 0.0049295425
-0.80220419 0.17811519 0.038033962
0.28309381 0.17775129 0.031273842
0.30886796 0.17682862 0.014153004
-0.80126196 0.2185706 0.034085274
0.27383095 0.22270173 0.028151512
0.30827236 0.21675359 0.006415844
0.26897952 0.25839674 0.023079395
-0.66184986 0.28473175 0.014883995
-0.27216977 0.31305104 0.029533863
0.2291683 0.28652626 0.036074638
0.26822329 0.28444791 0.011532784
-0.78061521 -0.25785762 0.062088966
0.20418426 -0.23178619 0.082517147
0.23079398 -0.23078416 0.066244125
0.25711906 -0.22974792 0.049417496
-0.79331499 -0.20299232 0.058252811
0.23112607 -0.20375486 0.072406769
0.25748143 -0.20283332 0.055302143
-0.7933715 -0.16205287 0.058485508
0.23137122 -0.16282175 0.076956749
0.25753292 -0.16195136 0.056138039
-0.79319435 -0.12107676 0.057730675
0.25784367 -0.12118312 0.061183929
-0.78313655 -0.080425121 0.073006153
0.27163368 -0.080228575 0.063818932
0.31112275 -0.06626524 0.04344368
-0.78334689 -0.025602587 0.073916912
0.27222502 -0.025604442 0.072706223
0.31139046 -0.025505038 0.046920776
-0.7833212 0.015525982 0.073805809
0.27188271 0.01547705 0.06746006
0.31100512 0.015280442 0.04191494
-0.78337252 0.056659959 0.074028015
0.27149391 0.056410208 0.061526299
-0.78313136 0.09775909 0.072984219
0.23159745 0.098010667 0.081154823
0.27106169 0.097202353 0.054903984
-0.78294158 0.13884149 0.072162628
0.23120159 0.13890345 0.073808193
0.26631734 0.13344076 0.051683903
-0.78263408 0.17988265 0.070830822
0.20418942 0.18051837 0.08262825
0.23071414 0.17955571 0.064762115
0.25704351 0.178663 0.048190594
-0.78101969 0.22050233 0.063839912
-0.75775152 0.23545614 0.082092285
0.20383182 0.2212331 0.074886322
0.23031947 0.22009145 0.05743885
0.25674981 0.20559143 0.043421745
-0.75763196 0.26289839 0.08155632
0.19007987 0.26237506 0.07475996
0.22984594 0.26036513 0.048650742
-0.72808963 0.28956711 0.071984768
-0.69675064 0.28796428 0.053059578
-0.31714913 0.31710356 0.073405743
0.18954667 0.28873926 0.06221056
-0.74968678 -0.26105624 0.10825539
0.15025653 -0.23387705 0.11646891
0.17733151 -0.23280042 0.098983765
-0.76358062 -0.20568381 0.10820341
0.1505291 -0.20660597 0.12532043
0.19107568 -0.20515186 0.098330498
-0.76356286 -0.16415431 0.1081233
0.19153264 -0.16417946 0.10918283
-0.76336318 -0.12260076 0.10722923
0.20539895 -0.12264956 0.10881472
0.2320253 -0.12204263 0.089094162
-0.76332271 -0.081080355 0.10704803
0.19631904 -0.085823253 0.11287785
0.23226482 -0.080813117 0.093539715
-0.76358563 -0.039578069 0.1082263
0.20571199 -0.025766741 0.11559248
0.23253092 -0.025703155 0.098476887
-0.76338595 0.0019435259 0.10733128
0.20549634 0.015811395 0.11092424
0.23227322 0.015679065 0.093695164
-0.76312822 0.057277203 0.10617685
0.19174322 0.057423152 0.11407471
0.23195592 0.056917325 0.087807178
-0.76313573 0.098782256 0.10621071
0.1914629 0.098820247 0.10744333
-0.76283532 0.14022875 0.10486507
0.1504932 0.15494896 0.12415457
0.1911515 0.14001673 0.10010099
-0.76270157 0.18168432 0.10426521
0.15030211 0.18242206 0.11794806
0.17737749 0.18146418 0.10017872
-0.7493583 0.2233344 0.10655642
0.12269295 0.23839103 0.12445164
0.15004539 0.22350271 0.10961151
0.17708087 0.2223835 0.09247303
-0.7341277 0.26431781 0.099998474
-0.71175063 0.26626021 0.12522936
0.12254223 0.26569808 0.11792564
0.149773 0.26437706 0.10076523
-0.34826204 0.32027209 0.10770464
0.10856736 0.29318607 0.11472702
0.1493943 0.29096258 0.088466644
-0.7177735 -0.26423973 0.15420628
0.12290306 -0.23492914 0.13354969
-0.74305183 -0.20747265 0.14140129
0.10927247 -0.20800953 0.15135956
-0.74311161 -0.16557218 0.14167833
0.10936271 -0.16615905 0.15572786
0.15082338 -0.16526897 0.1348772
-0.7431165 -0.12366229 0.14170122
0.12353171 -0.12424985 0.16077137
0.15116441 -0.12379323 0.1459527
0.17844385 -0.12323712 0.12788391
-0.7431066 -0.081750371 0.14165497
0.12366658 -0.096295357 0.16661119
0.15121253 -0.081856281 0.1475153
0.17836368 -0.067533314 0.12580061
-0.74315137 -0.039837193 0.14186239
0.1513592 -0.03991732 0.1522789
0.17864203 -0.025833661 0.1330328
-0.74327081 0.0020791255 0.14241648
0.12363525 0.016229894 0.16525459
0.15125035 0.0020965477 0.14874363
0.17845973 0.015945485 0.12829638
-0.7430768 0.057956457 0.14151669
0.12347846 0.05827634 0.15846491
0.1509973 0.057932936 0.14052582
-0.74259454 0.099800639 0.13927984
0.12332647 0.10018869 0.15188408
0.15078604 0.099627681 0.13366461
-0.74260449 0.14168821 0.13932562
0.10932121 0.14229496 0.15389824
0.15066448 0.12735599 0.12971735
-0.74235618 0.18351176 0.13817406
0.10914712 0.18387592 0.14493513
-0.74132979 0.21113329 0.13341188
-0.71596664 0.2398503 0.14551306
0.067372888 0.22701427 0.16325903
0.10441402 0.22087845 0.1403861
-0.68971181 0.26848191 0.1540904
0.067299441 0.26845324 0.15371895
0.095055833 0.26706165 0.13564205
-0.38126647 0.32453126 0.15381145
0.053235665 0.29626578 0.15109682
-0.69577044 -0.26632899 0.18436098
-0.35884365 -0.2678203 0.2058897
0.010818308 -0.23946521 0.20720577
0.053342894 -0.23771562 0.17879391
-0.72209907 -0.19518319 0.17501783
-0.70070904 -0.19688435 0.20903587
0.053377841 -0.19582087 0.18775368
-0.72266376 -0.15299138 0.17773438
0.053382419 -0.15341894 0.18884182
-0.7225464 -0.1106477 0.1771698
0.053406235 -0.11109479 0.19423628
0.095666826 -0.11058368 0.17532682
-0.72263443 -0.068330556 0.17759323
0.067666695 -0.068697736 0.20142603
0.095840484 -0.068469428 0.18660688
0.12374987 -0.068217218 0.17021751
-0.7226882 -0.040114179 0.17785215
0.06770511 -0.026118822 0.20641661
0.095868371 -0.026049891 0.18841791
0.12374501 -0.025978945 0.17000723
-0.7226662 0.0022167386 0.17774677
0.06766504 0.016506629 0.20121098
0.095787376 0.016367758 0.18315697
-0.72226763 0.04451621 0.17582893
0.067629844 0.044836592 0.19663954
0.09572202 0.044563755 0.17891216
-0.72213572 0.08680518 0.17519426
-0.70083606 0.10196785 0.20967007
0.05814375 0.092096008 0.19580698
0.095619597 0.08671882 0.17225933
-0.72198921 0.1290793 0.17448902
-0.70056766 0.13038184 0.20832968
0.053396765 0.12978013 0.19269514
-0.72167927 0.17129292 0.17299795
-0.70033306 0.17300566 0.20715714
0.010801543 0.18734895 0.20938253
0.053366665 0.17187677 0.18481731
-0.72094059 0.21335246 0.16944456
-0.6996634 0.21546884 0.20381165
0.010844799 0.21546583 0.20376396
0.039264746 0.21429272 0.18471575
-0.69454312 0.24211664 0.17822886
-0.66027874 0.26223207 0.19605446
-0.017668657 0.27277344 0.20983791
0.010916727 0.25739908 0.19442034
0.039264746 0.25604743 0.17592621
-0.6624009 -0.26967067 0.23259449
-0.45003501 -0.270935 0.25084019
-0.41904953 -0.26969534 0.23295259
-0.046936616 -0.24176386 0.24453306
-0.01791608 -0.24061705 0.2259078
-0.67878187 -0.19858469 0.24298382
-0.018060409 -0.19820003 0.23528194
0.010749649 -0.19723995 0.21612453
-0.69018501 -0.15493564 0.22824335
-0.018074241 -0.15524098 0.23618126
0.010745762 -0.15448865 0.21662903
-0.69028056 -0.11203615 0.2287364
-0.018216554 -0.11245962 0.24542427
0.01069919 -0.11185546 0.22267914
-0.69052291 -0.069137238 0.22998238
0.010535654 -0.069351703 0.24392271
0.039264746 -0.069015101 0.22204638
-0.69413346 -0.030974094 0.22407389
0.010533489 -0.026265556 0.24420452
0.039264746 -0.02619285 0.2252326
-0.6869486 0.0071883816 0.23607779
0.010570355 0.016800722 0.23941565
0.039264746 0.016652292 0.22014284
-0.69045556 0.045344777 0.22964716
0.01061002 0.045415848 0.23426247
0.039264746 0.045122635 0.21521139
-0.6865347 0.083644524 0.23395872
-0.50694865 0.10309882 0.24638891
-0.018234245 0.088720433 0.24657345
0.010661203 0.088210739 0.22761345
0.039264746 0.073529206 0.2108202
-0.67939007 0.13183708 0.24614477
-0.50702363 0.13186653 0.24690199
-0.018127032 0.13158576 0.23960972
0.010713896 0.13086072 0.22076845
-0.67877245 0.17479293 0.24293566
-0.50642031 0.16042769 0.24277639
-0.046985112 0.18935603 0.24663258
-0.017989304 0.17417084 0.23066425
0.010757601 0.1591493 0.21509123
-0.67787498 0.21759102 0.23827124
-0.04685723 0.21776474 0.24109507
-0.017857369 0.21659452 0.22209454
-0.64823353 0.24591808 0.23309803
-0.61899143 0.27430451 0.22972965
-0.056371704 0.26537722 0.23787546
-0.017771371 0.24476875 0.21650887
-0.6272074 -0.27268696 0.27613354
-0.51196074 -0.27300054 0.28065634
-0.48094678 -0.2719993 0.26620722
-0.10580895 -0.24401145 0.28102922
-0.076247409 -0.24291797 0.26327181
-0.65663421 -0.20036712 0.27856779
-0.10629667 -0.20112097 0.2937007
-0.06187547 -0.1996544 0.26437616
-0.65678114 -0.15690316 0.27936268
-0.061915196 -0.15637767 0.26570749
-0.65727985 -0.11347285 0.28206301
-0.057391912 -0.11817065 0.27739859
-0.65752143 -0.069959141 0.28337002
-0.047914729 -0.070013359 0.28688669
-0.018517528 -0.069675744 0.26497364
-0.65785068 -0.026415495 0.28515196
-0.047807388 -0.026413862 0.28223801
-0.018493623 -0.026340086 0.26342058
-0.65796363 0.017157333 0.28576374
-0.047673859 0.017085884 0.27645683
-0.018413261 0.016945379 0.25820065
-0.65765959 0.046183158 0.2841177
-0.062338665 0.046144288 0.28157663
-0.018333506 0.045704659 0.25302076
-0.65731668 0.089690953 0.28226185
-0.062171832 0.089496262 0.27538443
-0.65688676 0.13313775 0.27993488
-0.061980926 0.13268842 0.26825953
-0.65661132 0.17656836 0.27844429
-0.51050901 0.19065455 0.27073097
-0.1061037 0.17707278 0.28868723
-0.066665508 0.17103493 0.26384783
-0.6554516 0.21967848 0.27216673
-0.51324457 0.2207419 0.28943396
-0.10577831 0.22017509 0.28023338
-0.076163217 0.21896224 0.26053762
-0.61001742 0.26223588 0.26048946
-0.57194948 0.2791605 0.29281187
-0.13525185 0.26441258 0.29029942
-0.10542361 0.26300251 0.27101755
-0.075977817 0.24740227 0.2545166
-0.60179359 -0.27414471 0.2971735
-0.57466954 -0.27500838 0.30963802
-0.54315645 -0.27398336 0.29484081
-0.19627112 -0.24742939 0.33653021
-0.15079939 -0.245774 0.30964851
-0.63387167 -0.20212351 0.31377363
-0.15153384 -0.20264603 0.32424355
-0.63431346 -0.15832381 0.31626892
-0.13711184 -0.15887401 0.33056974
-0.10661217 -0.15777059 0.301898
-0.6345582 -0.1144301 0.31765079
-0.10754886 -0.11465595 0.32623339
-0.077558547 -0.099510886 0.30585241
-0.63454694 -0.070486069 0.3175869
-0.10749193 -0.070596263 0.32475471
-0.07755544 -0.070303798 0.30575132
-0.634857 -0.04120338 0.31933832
-0.10727224 -0.026553296 0.31904697
-0.077412419 -0.026486125 0.30110598
-0.63517863 0.002767818 0.32115507
-0.13724411 0.017524509 0.33343267
-0.10708239 0.017376078 0.31411457
-0.077227995 0.017229535 0.29511738
-0.63488853 0.046728324 0.31951666
-0.13706467 0.04688292 0.32954836
-0.10694412 0.046589833 0.31052208
-0.63444817 0.090624303 0.31702948
-0.13678104 0.090790346 0.32340717
-0.10668538 0.090263478 0.30380011
-0.63423264 0.13451891 0.31581259
-0.15163729 0.13492532 0.32637167
-0.1064458 0.13381687 0.297575
-0.63400835 0.17837688 0.31454563
-0.54447472 0.17784305 0.30340338
-0.15120906 0.17853051 0.31781769
-0.63310814 0.22197525 0.30946112
-0.15078172 0.22196418 0.30928326
-0.60233814 0.25058019 0.30038881
-0.57327604 0.2506237 0.30101776
-0.54452974 0.2508139 0.30376101
-0.19581616 0.26725155 0.32914305
-0.16539308 0.26584512 0.30988026
-0.25805524 -0.24974968 0.37420368
-0.22707453 -0.2486396 0.35618067
-0.61064464 -0.20390882 0.34943628
-0.22837493 -0.20518123 0.37494993
-0.19739133 -0.20416744 0.35472012
-0.61121738 -0.15973051 0.35281849
-0.19866207 -0.16059782 0.37535429
-0.16779181 -0.15979101 0.35439539
-0.61179781 -0.11546855 0.35624599
-0.15317276 -0.11549427 0.35704803
-0.61178684 -0.071080297 0.35618067
-0.15298519 -0.071036577 0.35334444
-0.6119644 -0.02669267 0.35722971
-0.19873133 -0.011893651 0.37647867
-0.15274623 -0.026667859 0.34855747
-0.61165535 0.017693819 0.35540438
-0.19848666 0.017825019 0.37250614
-0.16768876 0.017671179 0.35248232
-0.61102927 0.047224183 0.35170746
-0.19826663 0.047489222 0.3689332
-0.16750652 0.047183812 0.34910107
-0.61093968 0.091543503 0.35117865
-0.19787097 0.091845393 0.36250877
-0.16717359 0.091316141 0.34292221
-0.61065775 0.13581578 0.34951353
-0.22846812 0.13684674 0.37629557
-0.19748127 0.13607252 0.35618067
-0.61089814 0.18020032 0.3509326
-0.22788695 0.18103625 0.36790705
-0.19695494 0.18002295 0.34763384
-0.6104874 0.2243797 0.34850788
-0.2272594 0.22501682 0.35884857
-0.19640535 0.22377641 0.33870935
-0.52044046 0.28268784 0.33863258
-0.25798687 0.25563264 0.37331581
-0.2265619 0.26868808 0.34878159
-0.25737491 0.28474587 0.36536646
-0.5612129 -0.25208455 0.4121213
-0.32122132 -0.25221789 0.41428041
-0.2894842 -0.25098377 0.39424419
-0.58695871 -0.20572068 0.38565731
-0.27540258 -0.20665556 0.40442324
-0.58766478 -0.16116248 0.39002514
-0.26085925 -0.16195558 0.41062975
-0.22960195 -0.16126399 0.39266109
-0.58825946 -0.11647856 0.39370346
-0.2305088 -0.11680555 0.40575027
-0.19931191 -0.11627214 0.38590622
-0.58830845 -0.071662322 0.39400721
-0.23028359 -0.071793258 0.4024992
-0.19907495 -0.071478665 0.3820591
-0.58818901 -0.041772325 0.39326811
-0.26148155 -0.041968301 0.41871357
-0.22989109 -0.026852421 0.39683437
-0.19891188 -0.041665655 0.37941122
-0.58599973 0.017880617 0.37972546
-0.26112911 0.0031190198 0.4141345
-0.22960195 0.017980743 0.39266109
-0.26072404 0.048104201 0.40887308
-0.22933358 0.047794759 0.38878727
-0.27071217 0.098096669 0.40832663
-0.22888204 0.092378303 0.38226986
-0.27556169 0.13800557 0.40639925
-0.27487755 0.18253839 0.39792109
-0.32177413 0.2287989 0.42026472
-0.27418774 0.22689691 0.38938046
-0.52995241 0.25773567 0.40366602
-0.32126078 0.25850046 0.41470718
-0.28945068 0.25705528 0.39384842
-0.32065299 0.2880379 0.40812874
-0.28885275 0.28639483 0.38678741
-0.5374338 -0.23950899 0.45481682
-0.38563865 -0.25469542 0.45451641
-0.35423461 -0.23887879 0.44398594
-0.32286495 -0.2231361 0.43207312
-0.56341779 -0.20776033 0.42644167
-0.35541925 -0.1940553 0.4558239
-0.32323337 -0.19314258 0.43606138
-0.56379193 -0.16265774 0.42887211
-0.32443583 -0.16343573 0.44907856
-0.29247335 -0.16268352 0.42954493
-0.56416458 -0.11749016 0.43129349
-0.27782938 -0.11757868 0.43447304
-0.565148 -0.072335035 0.43768024
-0.32568166 -0.072717682 0.46256542
-0.27767614 -0.072255976 0.43255615
-0.32545707 -0.042287301 0.46013355
-0.29323316 -0.042120632 0.43851757
-0.32493445 0.0032746829 0.45447683
-0.29280952 0.0031945556 0.4335146
-0.32445839 0.04872698 0.4493227
-0.29242098 0.048412886 0.42892647
-0.35616502 0.10977706 0.46327591
-0.32394123 0.094032608 0.44372416
-0.29209363 0.078476846 0.42506027
-0.35566479 0.14000227 0.45827818
-0.32332057 0.13918352 0.43700552
-0.35514405 0.17014121 0.45307398
-0.32254595 0.18407568 0.42861938
-0.3865768 0.23144424 0.46322155
-0.35426676 0.21513192 0.4443078
-0.38596755 0.26146996 0.45756865
-0.35347122 0.26000035 0.43635798
-0.56709945 0.29128838 0.45035458
-0.38545972 0.29148072 0.45285654
-0.35282433 0.28971338 0.42989397
-0.51044106 -0.25620717 0.47906446
-0.40857443 -0.23578621 0.47831535
-0.52629262 -0.19534174 0.48366976
-0.40437239 -0.19545224 0.48606157
-0.5265792 -0.16484387 0.48566961
-0.40537646 -0.16520564 0.49507093
-0.35661712 -0.164156 0.46779346
-0.53953236 -0.13374561 0.46916485
-0.3907164 -0.13474551 0.50163221
-0.35825056 -0.11891264 0.48411655
-0.32580671 -0.11837111 0.46391869
-0.39111948 -0.073377192 0.50537157
-0.3581731 -0.073037937 0.48334217
-0.60282177 -0.011893777 0.48378372
-0.57532263 -0.027257588 0.50376654
-0.39078856 -0.042611837 0.50230122
-0.35795203 -0.042448565 0.48113298
-0.57529467 0.018834345 0.50358486
-0.39033374 0.0034424849 0.49808073
-0.35749003 0.0033602193 0.47651672
-0.60269219 0.049245227 0.48298264
-0.57528615 0.04956121 0.50352907
-0.38978392 0.049398944 0.49297953
-0.35693011 0.049059313 0.47092104
-0.6026386 0.095088728 0.48265123
-0.57506061 0.095610753 0.50206423
-0.40002647 0.10048652 0.4929595
-0.35656774 0.079452209 0.46729994
-0.60253149 0.14091499 0.48198891
-0.57493818 0.14165702 0.50126982
-0.40486413 0.14124066 0.49045324
-0.60231727 0.17141531 0.48066425
-0.40427107 0.17162205 0.48513746
-0.60203427 0.21713862 0.47891283
-0.57462937 0.2336639 0.49926376
-0.4090001 0.21223117 0.48192835
-0.41893494 0.26302594 0.48002958
-0.45210102 0.29521006 0.50129747
-0.41833058 0.2931698 0.47479582
-0.4859643 -0.22816449 0.52538919
-0.45381701 -0.22761694 0.51522923
-0.48690742 -0.19760153 0.53259754
-0.45449564 -0.19705385 0.52073908
-0.48757905 -0.16684775 0.53772831
-0.45556587 -0.16652824 0.52942848
-0.52794158 -0.11503084 0.53110981
-0.4572815 -0.13602993 0.54335785
-0.41293916 -0.11466819 0.5168643
-0.53299052 -0.07376273 0.53042364
-0.45770267 -0.07401444 0.54677677
-0.42403576 -0.073666759 0.52420425
-0.53302824 -0.027362369 0.53067636
-0.45712921 -0.027412936 0.54212093
-0.42375267 -0.042761274 0.52175283
-0.53291488 0.019036738 0.52986813
-0.48884529 0.019171458 0.54740429
-0.4564065 0.01908567 0.53625345
-0.4231762 0.0035144351 0.51675987
-0.5328837 0.049963731 0.52965736
-0.48857665 0.050205499 0.54535151
-0.45605385 0.050021093 0.53339052
-0.42254603 0.049680959 0.51130295
-0.52810198 0.091283083 0.53228283
-0.48825055 0.096707374 0.54285955
-0.4554528 0.096319064 0.52851009
-0.4222098 0.080401033 0.5083909
-0.51854229 0.14305303 0.53753042
-0.48788017 0.14314912 0.54003
-0.45479748 0.1425008 0.52318954
-0.51830643 0.17396328 0.53582764
-0.4874602 0.17400932 0.53682089
-0.4542565 0.17317674 0.5187974
-0.51803541 0.22031012 0.53387213
-0.48705953 0.22030278 0.53375864
-0.45352513 0.21909475 0.51285887
-0.51779598 0.26663673 0.53214407
-0.48661488 0.26651335 0.5303607
-0.45275781 0.26486903 0.50662947
-0.51735699 0.29734045 0.52897549
-0.48600113 0.29708624 0.52567148
-0.48938155 -0.12072738 0.5515027
-0.45788538 -0.1051091 0.54826069
-0.48949939 -0.074101232 0.5524025
-0.4892562 -0.042983416 0.55054474
-0.48904693 -0.011893526 0.54894543
0 0 0 1 0 0 0 1 0 0 0 1 0 0 0 0 0 960 1 0 0
