ply
format ascii 1.0
comment PCL generated
element vertex 957
property float x
property float y
property float z
element camera 1
property float view_px
property float view_py
property float view_pz
property float x_axisx
property float x_axisy
property float x_axisz
property float y_axisx
property float y_axisy
property float y_axisz
property float z_axisx
property float z_axisy
property float z_axisz
property float focal
property float scalex
property float scaley
property float centerx
property float centery
property int viewportx
property int viewporty
property float k1
property float k2
end_header
0.15233976 -0.82863641 -0.18804455
0.15226859 -0.78891248 -0.19177485
0.15229324 -0.73744392 -0.19036198
0.1522949 -0.69862789 -0.19019985
0.1523163 -0.65999699 -0.18903685
0.15234245 -0.60842234 -0.18765211
0.15237631 -0.5568608 -0.18590021
0.15240261 -0.50519127 -0.18454456
0.13943978 -0.46635267 -0.18397951
0.139442 -0.44042397 -0.18383455
0.061285697 -0.83934104 -0.14318705
0.10055115 -0.83326793 -0.16863585
0.19189206 -0.83393788 -0.16582823
0.034968153 -0.80078685 -0.13949537
0.061367888 -0.7975229 -0.15386391
0.10053327 -0.79289526 -0.17424822
0.19180176 -0.79414225 -0.1687603
0.034938823 -0.74861312 -0.13759041
0.061347313 -0.74573177 -0.15119171
0.10054217 -0.74138319 -0.17173958
0.1919405 -0.74296969 -0.16425514
0.034927521 -0.70930475 -0.13685608
0.061342556 -0.69345599 -0.15057373
0.096210271 -0.69417393 -0.1689887
0.19193543 -0.69073856 -0.16441965
0.061329842 -0.65445656 -0.14892149
0.1048822 -0.65885103 -0.17203951
0.19197263 -0.65181643 -0.16321135
0.061315473 -0.61545283 -0.14705515
0.10055364 -0.61182207 -0.16802454
0.19197235 -0.61265516 -0.16322041
0.06130508 -0.56320578 -0.14570522
0.1005591 -0.55989152 -0.16670465
0.19200788 -0.56062257 -0.16206646
0.061297886 -0.51085544 -0.14477062
0.1005653 -0.50791264 -0.16543102
0.19206521 -0.5086565 -0.16020536
0.06129247 -0.45844778 -0.14406681
0.096228987 -0.46049097 -0.16217422
0.16541655 -0.46652341 -0.18267632
0.19215313 -0.45675963 -0.15735006
0.061287977 -0.41913548 -0.14348316
0.10491475 -0.42523801 -0.1658349
0.15677309 -0.42331225 -0.18224144
0.19221738 -0.41777512 -0.15526295
0.061271206 -0.37997288 -0.14130497
0.1005779 -0.37779105 -0.16229582
0.15247101 -0.37583733 -0.18110037
0.19228087 -0.37873894 -0.1532011
0.061259635 -0.3275553 -0.1398015
0.10058271 -0.32568687 -0.16091681
0.15250307 -0.32404426 -0.17947817
0.19237712 -0.32664466 -0.15007544
0.061244406 -0.27512628 -0.13782263
0.10058939 -0.27358031 -0.15897083
0.15253195 -0.27219176 -0.1779623
0.19249403 -0.27450755 -0.14627838
0.10059334 -0.23445135 -0.15769291
0.15254715 -0.23324551 -0.17727232
0.19256982 -0.23530594 -0.14381647
0.10059721 -0.19527353 -0.15676546
0.15257126 -0.19430956 -0.17601871
0.19265574 -0.19605748 -0.1410265
0.10060264 -0.14301355 -0.15523338
0.15261573 -0.14236888 -0.17381239
0.19274752 -0.15676047 -0.13804626
0.10060719 -0.09069974 -0.15414381
0.1526611 -0.090362601 -0.17154026
0.10496671 -0.042713724 -0.15548944
0.1527013 -0.038286097 -0.16954279
0.096258558 -0.0077967551 -0.14948034
0.15272035 0.00080592185 -0.168612
0.10061655 0.040243149 -0.15105867
0.15275016 0.039931431 -0.16724014
0.10062043 0.092662714 -0.15043783
0.15277472 0.092125237 -0.16597891
0.10062468 0.14512247 -0.14945078
0.1527977 0.14435346 -0.16482592
0.1006302 0.18449806 -0.14852047
0.15281183 0.18353844 -0.16410303
0.10062943 0.22383229 -0.14846373
0.15282546 0.2227366 -0.16345739
0.10063137 0.27633059 -0.14780235
0.15285145 0.27506551 -0.16210604
0.10063212 0.32881224 -0.14751101
0.15288064 0.32745269 -0.16058922
0.10063098 0.36811164 -0.14786243
0.14851613 0.37529013 -0.16104937
0.10063385 0.40750864 -0.1473875
0.15729402 0.41055918 -0.15762329
0.10063474 0.45996726 -0.14738894
0.15290761 0.45828581 -0.1591897
0.19272463 0.4743374 -0.13878918
0.10063682 0.51249284 -0.14694071
0.1528976 0.51050097 -0.15956783
0.1925647 0.51295686 -0.14398336
0.10500418 0.56027466 -0.14869022
0.15291446 0.56292593 -0.15866852
0.19257212 0.55238223 -0.14374256
0.096278012 0.59612936 -0.14376402
0.15292111 0.60220546 -0.15830135
0.19255358 0.59165901 -0.14434481
0.10064363 0.64394909 -0.14542961
0.15293172 0.6415211 -0.1578002
0.19254589 0.64411277 -0.14459467
0.10064556 0.69644207 -0.14539385
0.15294445 0.69398093 -0.15702963
0.19254844 0.69662863 -0.14451122
0.10064764 0.749044 -0.1448946
0.15295577 0.74644786 -0.15632772
0.19254531 0.74910724 -0.14461327
0.10064772 0.78848267 -0.14461136
0.15296531 0.78581625 -0.15578508
0.19255614 0.78856629 -0.14426088
0.10064751 0.82779187 -0.14486647
0.15295437 0.82494622 -0.15624142
0.19256213 0.82799214 -0.14406681
0.1006453 0.88033372 -0.14471531
0.1529659 0.87741017 -0.15574217
0.19268003 0.86837691 -0.14023781
-0.032152705 -0.82301599 -0.10016394
0.021523871 -0.83080637 -0.12363625
0.21924421 -0.82862818 -0.13294268
0.24661255 -0.83385974 -0.11066961
-0.03657981 -0.78756213 -0.10008574
0.0083612427 -0.79071563 -0.12573481
0.21921757 -0.78895193 -0.13363552
0.24654785 -0.79376608 -0.11207056
-0.027601428 -0.75140458 -0.10342407
0.0083110556 -0.75157887 -0.12356138
0.21935976 -0.75023401 -0.12994146
0.2465997 -0.75425738 -0.11094761
-0.032151386 -0.7033788 -0.10001993
0.017157093 -0.69374883 -0.1267395
0.21927425 -0.69707024 -0.13216305
0.24647251 -0.70069796 -0.11370182
-0.032213233 -0.65052247 -0.098200798
0.021561272 -0.64526397 -0.12726879
0.21925846 -0.64430547 -0.13257313
0.24640372 -0.64744973 -0.11519098
-0.01871784 -0.59642696 -0.10352039
0.021527804 -0.60598755 -0.12551451
0.21926993 -0.60484272 -0.13227463
0.24639979 -0.60772157 -0.11527538
-0.018749967 -0.55674106 -0.10247707
0.021507874 -0.56655031 -0.1245079
0.21928358 -0.56538051 -0.13192034
0.24636632 -0.56789368 -0.11600065
-0.018790014 -0.51706386 -0.10117626
0.021485798 -0.51389593 -0.12342834
0.21929005 -0.51271015 -0.13175249
0.24633372 -0.51485515 -0.11670637
-0.018798783 -0.46393099 -0.10089159
0.021468543 -0.4611868 -0.12250566
0.21934751 -0.46020103 -0.13025951
0.24632505 -0.46189597 -0.11689425
-0.018845007 -0.41092643 -0.099390507
0.021458201 -0.42162907 -0.12188816
0.21949139 -0.42109415 -0.12652063
0.24649468 -0.42262965 -0.11322165
-0.018868133 -0.3711063 -0.098639488
0.02142892 -0.38214764 -0.1203723
0.21972382 -0.3821272 -0.12048292
0.24679762 -0.38356254 -0.10666227
-0.018933162 -0.33138752 -0.096527576
0.021396823 -0.32942364 -0.11869097
0.22013161 -0.33019626 -0.10988808
0.24735552 -0.34487733 -0.094583988
-0.018997416 -0.27829689 -0.094440937
0.021357067 -0.27667388 -0.1166544
0.22039646 -0.27766716 -0.10300732
-0.019066438 -0.22515547 -0.092199326
0.01686389 -0.22838648 -0.1125536
0.061232951 -0.23576657 -0.13633537
0.2205525 -0.22476402 -0.09895277
-0.019089945 -0.18521377 -0.091435432
0.025771841 -0.19285411 -0.11674929
0.061227579 -0.19633216 -0.13563728
0.22067446 -0.18501258 -0.095784664
-0.019121118 -0.15859336 -0.090423584
0.021286897 -0.14447001 -0.11317539
0.06121783 -0.14373559 -0.13437128
0.21142741 -0.14026095 -0.10812902
0.021245502 -0.091529772 -0.11093616
0.061204061 -0.091113612 -0.13258219
0.20670392 -0.091422603 -0.11679316
0.016730115 -0.042941533 -0.10619354
0.061194584 -0.038433813 -0.13135147
0.20653576 -0.038478576 -0.12120438
0.025660645 -0.0075708851 -0.11064625
0.061188046 0.0010994114 -0.13050175
0.20646241 0.0011561438 -0.12313223
0.021176688 0.041082799 -0.10735941
0.061176978 0.040666193 -0.12906361
0.20657086 0.040845938 -0.11997128
0.021161474 0.094184503 -0.10652304
0.061169855 0.093435802 -0.12813902
0.20226508 0.089388303 -0.11702824
0.025618352 0.14275178 -0.10822201
0.061164454 0.14622374 -0.12743711
0.19317737 0.14639318 -0.12408638
0.016650937 0.17848042 -0.10218477
0.061161146 0.18582283 -0.12700748
0.19326282 0.18617389 -0.12131119
0.021126755 0.22702754 -0.10477448
0.061159201 0.22541928 -0.12675476
0.19330359 0.22591695 -0.11998701
0.02112899 0.28014037 -0.10477209
0.06115149 0.27828437 -0.1257534
0.19331399 0.27882451 -0.11964893
0.025593325 0.32860243 -0.10682821
0.061157111 0.33099669 -0.12648344
0.19329953 0.33165786 -0.12011909
0.016651765 0.36451346 -0.10219812
0.061153222 0.3706387 -0.12597799
0.21154223 0.36426193 -0.10423374
0.021136813 0.41286308 -0.1052351
0.061155021 0.41019827 -0.12621212
0.20656338 0.41102454 -0.11962223
0.021147795 0.46590006 -0.10571051
0.061158266 0.46292207 -0.12663317
0.21063429 0.45824009 -0.12866497
0.025629524 0.51409626 -0.10869741
0.061160207 0.51565766 -0.12688589
0.21941438 0.51540279 -0.12852192
0.016689524 0.55024803 -0.10400009
0.061160427 0.55523241 -0.12691402
0.21949574 0.55531806 -0.12640858
0.021139093 0.59872144 -0.10530233
0.061153077 0.59498399 -0.1259594
0.21953824 0.59510511 -0.12530375
0.021134838 0.65187246 -0.10506105
0.061144285 0.64799601 -0.12481689
0.21965367 0.64849025 -0.12230492
0.025610428 0.69999486 -0.10766935
0.061147023 0.70072263 -0.12517309
0.21980041 0.70214182 -0.11849308
0.016666718 0.7364468 -0.10280752
0.061148178 0.74028915 -0.1253233
0.21989089 0.7423389 -0.1161418
0.021154433 0.78443396 -0.10595369
0.061146881 0.77992535 -0.1251545
0.22000188 0.78272414 -0.11325884
0.02118025 0.83717179 -0.10737181
0.061154876 0.83246112 -0.12619305
0.22028488 0.83755058 -0.10590601
0.021165773 0.87714279 -0.10674524
0.061138928 0.88581043 -0.12412119
0.034432959 0.90422612 -0.10473394
0.20856684 -0.88591301 -0.060733318
-0.10111988 -0.83382899 -0.053342819
-0.073417358 -0.83007783 -0.069585323
0.27519763 -0.84293449 -0.072179794
-0.11443607 -0.79267263 -0.056658268
-0.07294222 -0.78757906 -0.079872131
0.27475262 -0.78744835 -0.080438614
-0.11455991 -0.73926067 -0.054495811
-0.073025279 -0.7478317 -0.078073978
0.27469355 -0.74711233 -0.081534386
-0.11463145 -0.69907874 -0.053284168
-0.07307107 -0.7078808 -0.077082634
0.27465525 -0.70687026 -0.082244873
-0.10080694 -0.65758485 -0.059149742
-0.07317967 -0.65476757 -0.07473135
0.27471372 -0.65360463 -0.081159592
-0.10090292 -0.60406655 -0.057369232
-0.073256738 -0.60146964 -0.073062897
-0.04586821 -0.59893906 -0.088338852
0.27473599 -0.6001969 -0.080746651
-0.1009806 -0.55044049 -0.055927277
-0.073311992 -0.56145394 -0.071866035
-0.045902826 -0.55905604 -0.087439537
0.27474013 -0.56009823 -0.08066988
-0.10103682 -0.51018739 -0.054884434
-0.07334546 -0.52134091 -0.07114172
-0.045933031 -0.51913351 -0.086654663
0.27472562 -0.51994604 -0.080938816
-0.10104419 -0.46979386 -0.054747581
-0.073375367 -0.46779314 -0.070494175
-0.045968451 -0.46585745 -0.085735321
0.27478519 -0.46660706 -0.079833984
-0.10112724 -0.41608131 -0.053206444
-0.073438786 -0.41430509 -0.069121361
-0.046021558 -0.41260365 -0.084355831
0.27485827 -0.41326073 -0.078477859
-0.10115249 -0.37569985 -0.052737713
-0.073480777 -0.3741512 -0.068212032
-0.046087272 -0.37270671 -0.082648277
0.27493918 -0.37327406 -0.076976299
-0.10119776 -0.33533794 -0.051898003
-0.073563062 -0.33405134 -0.066430569
-0.046135299 -0.33272564 -0.081399918
0.24775359 -0.31897232 -0.085965157
0.27536774 -0.33381376 -0.069023132
-0.10130731 -0.28155777 -0.049864769
-0.073636033 -0.28046325 -0.064850807
-0.046202995 -0.27937993 -0.079641342
0.24822548 -0.27965245 -0.075748444
0.275956 -0.28094554 -0.058105946
-0.10148188 -0.22778656 -0.04662466
-0.073711745 -0.22683033 -0.063210964
-0.046274446 -0.22598848 -0.077785015
0.2487486 -0.22675368 -0.064422607
0.27656892 -0.22777528 -0.046731472
-0.10155001 -0.18734166 -0.045360565
-0.073763765 -0.18656927 -0.062085152
-0.046329297 -0.1859102 -0.076360226
0.24902537 -0.18673822 -0.058430195
-0.10161185 -0.14685866 -0.044213295
-0.073866092 -0.14631596 -0.059869766
-0.037312567 -0.14118902 -0.079519272
0.24908656 -0.1464178 -0.057106018
-0.073946081 -0.092545569 -0.058137894
-0.032832555 -0.092121422 -0.080281258
0.24847555 -0.092329286 -0.070334435
0.2767168 -0.079307869 -0.043987751
-0.074051343 -0.038724117 -0.055859089
-0.032878488 -0.038634833 -0.079005718
0.24803591 -0.038634729 -0.079853058
-0.074047722 0.0016733818 -0.055936813
-0.032914378 0.0015028361 -0.078073025
0.24812695 0.0015044287 -0.077881336
-0.074106731 0.042097174 -0.054659843
-0.032935582 0.04166095 -0.077360153
0.24833801 0.04174681 -0.073312283
-0.074134193 0.096001089 -0.054065228
-0.032961808 0.095219597 -0.076604366
0.22098604 0.10818052 -0.087688446
0.24878511 0.09568733 -0.063632488
-0.074144118 0.13643153 -0.053850174
-0.032967396 0.13538812 -0.076440811
0.22124806 0.13518299 -0.080881119
0.24956024 0.1367549 -0.046850681
-0.074162595 0.17687738 -0.053450108
-0.032991081 0.17558834 -0.07576561
0.22134465 0.17544024 -0.078372002
0.24968523 0.19092602 -0.044145107
-0.074148618 0.23075825 -0.053752899
-0.032986641 0.22914052 -0.075872898
0.22134206 0.22895327 -0.078439236
0.24939439 0.23099279 -0.050440788
-0.074149065 0.28465706 -0.053743362
-0.032990672 0.28270629 -0.075775623
0.22126991 0.28230301 -0.080314159
0.24894464 0.28407568 -0.060177803
-0.074145921 0.32507434 -0.053811073
-0.03298559 0.32286635 -0.075874329
0.22107452 0.3219142 -0.085390568
0.24853337 0.32354602 -0.069082737
-0.074116163 0.36542508 -0.054454803
-0.032985188 0.36303043 -0.075911522
0.24815416 0.36286664 -0.077292442
-0.074054934 0.41914365 -0.055780888
-0.032953665 0.41647336 -0.076803207
0.247839 0.4155452 -0.084115982
-0.074020751 0.45944229 -0.056521893
-0.032919362 0.46987501 -0.077808857
0.24800083 0.46947929 -0.080612183
-0.07400813 0.49979231 -0.056794643
-0.032883868 0.50986797 -0.078800678
0.24816164 0.51012528 -0.077130795
-0.073985629 0.55356491 -0.057281017
-0.03289783 0.55006653 -0.078420162
0.2483277 0.55087852 -0.073535442
-0.074013524 0.60751736 -0.056677341
-0.032913595 0.60367388 -0.077921391
0.24855399 0.60536188 -0.068636417
-0.074006341 0.64787722 -0.056833267
-0.028362431 0.65221506 -0.080549717
0.24868989 0.64617223 -0.065694332
-0.074015327 0.6883058 -0.056638241
-0.037459843 0.68891507 -0.075474262
0.24891222 0.687446 -0.060879707
-0.073990591 0.74204183 -0.057174206
-0.032904312 0.73742592 -0.0782094
0.24910906 0.74216974 -0.056618214
-0.0739915 0.79589164 -0.057154655
-0.032867111 0.79068637 -0.079323292
0.24928921 0.78345484 -0.052718163
-0.10162083 0.8395052 -0.044046402
-0.073946975 0.83603907 -0.05811882
-0.028316125 0.83906066 -0.081975937
0.24946985 0.82484651 -0.048807144
-0.10161658 0.86650944 -0.04412508
-0.073992886 0.87667423 -0.057125092
-0.037419796 0.87609166 -0.076628685
0.22113207 0.88312346 -0.083895206
0.0071172044 0.91308171 -0.071866035
0.16874424 -0.89136958 -0.038582325
-0.17150229 -0.82969856 -0.012215137
-0.12901515 -0.83736479 -0.038031578
0.30495524 -0.84054226 -0.024272919
-0.16606471 -0.79504889 -0.025122166
0.3046124 -0.79855025 -0.029839993
-0.17088646 -0.74605542 -0.021173477
0.3046715 -0.74449039 -0.028881073
-0.1710712 -0.69213647 -0.018628597
0.30473241 -0.69039029 -0.027891159
-0.17117023 -0.65154856 -0.017274857
-0.12873784 -0.66059136 -0.042534351
0.30485386 -0.65001798 -0.025919914
-0.17125788 -0.61090153 -0.016069412
-0.12884974 -0.60682273 -0.040717125
0.30499193 -0.60964859 -0.023676872
-0.17135194 -0.55661243 -0.014810085
-0.12886065 -0.55274969 -0.040540218
0.30511302 -0.55557477 -0.021711349
-0.1761421 -0.50710362 -0.011414528
-0.12894726 -0.51236975 -0.039133549
0.30524772 -0.51508701 -0.019523621
-0.16667712 -0.47008526 -0.016598701
-0.12896121 -0.47180608 -0.038907528
0.30527714 -0.47432673 -0.01904583
-0.17148665 -0.42057478 -0.01295948
-0.12904182 -0.41782433 -0.037598133
0.30533475 -0.42000079 -0.018110275
-0.17158723 -0.36618236 -0.011558056
-0.12914073 -0.36383149 -0.035992146
0.30552316 -0.36584833 -0.015050888
-0.171682 -0.32538062 -0.010286331
-0.12922028 -0.32331333 -0.034700394
0.30541572 -0.32482964 -0.016795635
-0.17178297 -0.28455532 -0.0089011192
-0.12930292 -0.28276557 -0.033358574
0.30555514 -0.28414071 -0.014532089
-0.17190143 -0.23006019 -0.0072607994
-0.1294404 -0.22868307 -0.031126499
0.30579749 -0.22986567 -0.010596752
-0.17196816 -0.18914418 -0.0063347816
-0.12951711 -0.18805678 -0.029880524
0.2914294 -0.18831512 -0.024286747
-0.16732407 -0.15269276 -0.0075569153
-0.12957743 -0.14738987 -0.028900623
0.29164883 -0.14767945 -0.020478249
-0.15793481 -0.093446992 -0.011336803
-0.11567303 -0.092987254 -0.03520155
0.29658365 -0.097908616 -0.013766766
-0.15797985 -0.052539662 -0.010686398
-0.12041552 -0.043327361 -0.031289577
0.28685778 -0.043397285 -0.025163174
-0.15806091 -0.011612267 -0.0095162392
-0.11111968 -0.0071878694 -0.035829067
0.27761567 0.0018938091 -0.027306557
-0.15811568 0.042979509 -0.00872612
-0.11586209 0.0425345 -0.031938553
0.27764666 0.042627342 -0.026731491
-0.15813509 0.097581655 -0.0084452629
-0.11589944 0.096791826 -0.031282425
0.27739918 0.096792169 -0.031323433
-0.15817535 0.13855541 -0.0078649521
-0.11589865 0.13747396 -0.031278133
0.27769789 0.13772793 -0.025780678
-0.15815732 0.17949283 -0.0081253052
-0.11590802 0.17816633 -0.031124592
0.24976227 0.16399273 -0.0424757
0.277715 0.17848928 -0.025463104
-0.15816423 0.23410198 -0.0080251694
-0.11590203 0.23240545 -0.031219482
0.2774978 0.23252827 -0.029494286
-0.15810734 0.27498454 -0.0088458061
-0.11121596 0.28186607 -0.034101009
0.27733743 0.27298394 -0.032469749
-0.15810317 0.31592065 -0.0089058876
-0.12053531 0.31847227 -0.029258728
0.27733159 0.31364635 -0.032577991
-0.15806991 0.37045443 -0.0093865395
-0.115839 0.36789557 -0.032320499
0.2775746 0.36837539 -0.028069019
-0.15792927 0.42477831 -0.011416435
-0.11576251 0.42195556 -0.033643246
0.27787226 0.42337376 -0.022544384
-0.15788841 0.46561053 -0.012006283
-0.11572517 0.46252543 -0.03427124
0.27814448 0.46485049 -0.017492771
-0.16731587 0.51172906 -0.0076766014
-0.11568942 0.50307876 -0.034906387
0.27825567 0.50600827 -0.015429497
-0.17204553 0.56217259 -0.0052676201
-0.11569082 0.55727112 -0.034881592
0.27854252 0.56137574 -0.010106564
-0.17205292 0.60317492 -0.0051631927
-0.11101482 0.60643446 -0.037650108
0.27873349 0.60292703 -0.006562233
-0.17206076 0.64418268 -0.0050392151
-0.12032469 0.6434496 -0.032818317
0.27899417 0.64481372 -0.0017242432
-0.17203888 0.69876289 -0.0053725243
-0.11568292 0.69271463 -0.035024643
0.27918822 0.68655324 0.0018758774
-0.17201993 0.73969156 -0.0056233406
-0.11568759 0.74692279 -0.034927368
-0.17195064 0.78046113 -0.0065479279
-0.11564466 0.78739381 -0.035662174
-0.17190143 0.83492184 -0.0072240829
-0.12026981 0.82398951 -0.033734322
-0.17190811 0.87590522 -0.0071382523
-0.12083585 0.88970256 -0.024196625
0.24993029 0.86785263 -0.038838863
0.14239749 -0.93030226 0.0081305504
0.14236081 -0.90228957 0.0057473183
-0.25804287 -0.82693273 0.03649807
-0.2138679 -0.81989676 0.0049805641
-0.18742666 -0.85017842 0.01745224
0.33614343 -0.82629389 0.033636093
-0.25771487 -0.78475142 0.03312397
-0.21383372 -0.79240835 0.0045771599
0.33617187 -0.78494591 0.034046173
-0.25781733 -0.74353999 0.034194469
-0.21396193 -0.75161678 0.0060911179
0.33603129 -0.74310434 0.032017708
-0.25791612 -0.70229638 0.035238266
-0.21410555 -0.69711733 0.0077872276
0.33608806 -0.70184189 0.032837391
-0.25805855 -0.64728087 0.036702633
-0.21422452 -0.6425156 0.0091919899
0.33648202 -0.64759088 0.038523197
-0.25819677 -0.60604781 0.038145065
-0.21435729 -0.60162073 0.01075983
0.33668151 -0.60657436 0.041402817
-0.25820363 -0.56457198 0.038217068
-0.21442243 -0.56056684 0.011529446
0.33667508 -0.5650354 0.041309834
-0.25827634 -0.50936359 0.038991451
-0.21445245 -0.50571209 0.011883736
0.3367964 -0.50990784 0.043061256
-0.25824949 -0.46783414 0.038709164
-0.21443614 -0.46450663 0.01169157
0.33700573 -0.46874222 0.046082973
-0.25826594 -0.42636213 0.038878441
-0.21448076 -0.42338532 0.012217999
0.33712736 -0.42736208 0.047838688
-0.25347573 -0.37548155 0.037027836
-0.21459401 -0.36859816 0.013555527
0.33722046 -0.38589945 0.049181938
-0.24378189 -0.32897678 0.032181263
-0.2147125 -0.32751808 0.014955044
-0.24380934 -0.28758109 0.032478333
-0.21476918 -0.28634852 0.015624046
-0.2439684 -0.23245573 0.034200191
-0.21489212 -0.23146568 0.017076492
-0.24398452 -0.19102474 0.034374714
-0.21496007 -0.19026272 0.017879009
-0.24419019 -0.14965864 0.036601543
-0.2150875 -0.14906259 0.01938343
-0.18636879 -0.13482521 0.0037102699
-0.24426416 -0.094383851 0.03740263
-0.21519947 -0.094063789 0.020706177
-0.18646041 -0.093757778 0.0049004555
-0.24444932 -0.039090529 0.039406776
-0.21536675 -0.052796483 0.022681236
-0.18649143 -0.052662954 0.0053033829
0.30666116 -0.025259068 0.0034279823
-0.24450254 0.002411738 0.039982796
-0.21540299 -0.011489047 0.023108959
-0.18659011 -0.011551522 0.006585598
0.30685002 0.0021540876 0.0064945221
-0.24452436 0.043923348 0.040219307
-0.21545392 0.043604881 0.023710728
-0.18662199 0.043282196 0.0069994926
0.3069427 0.043303438 0.0079994202
-0.24454626 0.09927582 0.040455818
-0.21546686 0.098701157 0.023863316
-0.1866461 0.098127536 0.0073122978
0.30718693 0.09829095 0.011965275
-0.24458995 0.14080894 0.040929317
-0.21551004 0.14004444 0.024373055
-0.18671995 0.13930067 0.008272171
0.30735981 0.13960095 0.014772415
-0.24456146 0.18230934 0.040620327
-0.21550745 0.18136847 0.024343014
-0.18671066 0.18043481 0.0081510544
0.30759317 0.18104413 0.018561363
-0.24443886 0.23756054 0.039293289
-0.21543753 0.23640651 0.023517132
-0.18668574 0.23525986 0.0078277588
0.30790967 0.23642746 0.023700714
-0.24438471 0.27901131 0.038707256
-0.21533912 0.27762663 0.02235508
-0.18664065 0.27634639 0.0072417259
0.30830711 0.27828693 0.030154228
-0.24433157 0.32044509 0.038131714
-0.21534345 0.31893295 0.022406578
-0.1865699 0.31738588 0.0063228607
0.3085708 0.32009631 0.034436703
-0.24420631 0.37560999 0.036776066
-0.21525377 0.37388587 0.021347046
-0.18650153 0.37210923 0.0054345131
0.30892316 0.37598893 0.040157795
-0.24408683 0.4169184 0.035482407
-0.21520293 0.41510352 0.020746708
-0.18643397 0.41310969 0.0045571327
0.30924609 0.4181405 0.045401573
-0.24397215 0.45820436 0.034241199
-0.21508059 0.45619184 0.019301891
-0.18634397 0.45404923 0.0033874512
0.30943817 0.4462609 0.048520565
-0.24395323 0.51342672 0.03403616
-0.21499795 0.51106817 0.018326283
-0.18632534 0.49509749 0.0031456947
-0.24390495 0.55478066 0.033513546
-0.21494976 0.55223346 0.017756939
-0.25364238 0.60175443 0.038818359
-0.21494028 0.5934633 0.017644882
-0.25851098 0.65295482 0.041471004
-0.21492568 0.64842874 0.017472267
-0.25844896 0.69434828 0.040822506
-0.21494803 0.70347762 0.017736912
0.27932072 0.71444172 0.0043354034
-0.25843856 0.73583966 0.040709972
-0.21492222 0.74466091 0.017431736
0.27946103 0.74239933 0.0069384575
-0.25830281 0.79087299 0.03930521
-0.21479499 0.78556466 0.015929222
0.27964839 0.78431684 0.010416031
-0.25825402 0.83225322 0.038805962
-0.21471164 0.84029889 0.01494503
0.27997234 0.840666 0.016427994
-0.25366947 0.8692221 0.039158344
-0.21513054 0.88277185 0.019891739
0.28160149 0.88957202 0.046661377
-0.33394891 -0.84015 0.095703602
-0.30295753 -0.83415997 0.068872452
0.33795327 -0.85994864 0.05975914
-0.33263984 -0.79559761 0.084367275
-0.30230972 -0.79104716 0.062861443
-0.3327823 -0.73981738 0.085600853
-0.30246925 -0.73564231 0.064341545
-0.33290294 -0.69797796 0.086645603
-0.30267608 -0.69421202 0.066260815
-0.33283228 -0.65582645 0.086033344
-0.30267164 -0.65239495 0.06621933
-0.33279571 -0.59972674 0.085717201
-0.30271101 -0.59670639 0.066584587
-0.33291024 -0.55783749 0.086709023
-0.30279541 -0.55500883 0.067368031
-0.33282498 -0.51569331 0.085969925
-0.30266714 -0.51302791 0.066177368
-0.33281276 -0.45962927 0.085864544
-0.30269182 -0.45730799 0.066407204
-0.33292001 -0.41769445 0.086793423
-0.30276835 -0.41557389 0.067117214
-0.3328847 -0.37561953 0.08648777
-0.30281788 -0.37379792 0.067576885
-0.27311873 -0.35818076 0.049429893
0.33728209 -0.35823986 0.050071716
-0.33299443 -0.31963727 0.08743763
-0.30286741 -0.31806943 0.068036079
-0.27316636 -0.3304776 0.049906254
0.33731362 -0.33053002 0.050526619
-0.33305901 -0.27762225 0.08799696
-0.302944 -0.27628875 0.068747044
-0.27317771 -0.28886497 0.050019741
0.3375555 -0.28915271 0.054017544
-0.33314323 -0.23560296 0.088726044
-0.30310857 -0.23453727 0.070273876
-0.27334866 -0.2334682 0.051727295
0.33765107 -0.23367348 0.055397034
-0.3331835 -0.17952333 0.089075089
-0.30314916 -0.17874457 0.070650578
-0.27338803 -0.19184431 0.052120686
0.33794463 -0.19219135 0.059635162
-0.3332372 -0.137468 0.089540005
-0.30319425 -0.13689928 0.071069241
-0.27350515 -0.15023571 0.053291798
0.33821663 -0.15058808 0.063560486
-0.33334708 -0.095406488 0.090492249
-0.30330592 -0.095053226 0.072105408
-0.27362549 -0.094714694 0.054493904
0.33845943 -0.094954222 0.067065239
-0.33341795 -0.053323131 0.091105461
-0.30341995 -0.039221983 0.073163033
-0.27378228 -0.039154597 0.056060791
0.33878261 -0.039208286 0.07172966
-0.33345097 -0.011224201 0.091391563
-0.30358717 0.0026790742 0.074714184
-0.27391529 0.0025455449 0.057389736
0.33905193 0.0026861299 0.07561636
-0.33351082 0.044918314 0.091910362
-0.30355328 0.044577919 0.074399948
-0.27390802 0.044252329 0.057317257
0.33923525 0.044657409 0.078262806
-0.33341062 0.086996213 0.091042519
-0.30351707 0.086473301 0.074064732
-0.27394438 0.099872351 0.057680607
0.33941299 0.086681828 0.08082819
-0.33339715 0.12908663 0.090925694
-0.30346289 0.12835202 0.073561192
-0.27394229 0.14158189 0.057660103
0.33964801 0.1288092 0.084219933
-0.33338007 0.18520424 0.090777874
-0.30348545 0.18422304 0.073771
-0.27386853 0.18324848 0.056922436
0.34011117 0.18521835 0.090905666
-0.33336663 0.22728884 0.090661526
-0.30338836 0.22605637 0.072869778
-0.27370751 0.23873198 0.055313587
0.34043035 0.22762495 0.095513344
-0.33326653 0.26930958 0.089794159
-0.30333194 0.26789951 0.072345734
-0.27370545 0.28041565 0.055293083
-0.33302245 0.32521218 0.087680817
-0.30321231 0.32363057 0.07123661
-0.27367842 0.32207179 0.055023193
-0.33292735 0.36718309 0.086856842
-0.30311084 0.36539811 0.07029438
-0.27354044 0.37749207 0.05364418
-0.33279938 0.40909675 0.085748672
-0.3029587 0.40708372 0.068882942
-0.27339628 0.4189781 0.052203655
-0.33257776 0.46488297 0.08382988
-0.30272785 0.46258214 0.06674099
-0.2732875 0.46047801 0.051116467
0.30953494 0.47421509 0.05009222
-0.33242083 0.50669932 0.082470417
-0.30269408 0.50435305 0.066428185
-0.27318603 0.51583886 0.050102711
0.30974349 0.51635057 0.053478718
-0.33244273 0.54872602 0.082660198
-0.30265701 0.54611099 0.066083908
-0.27316013 0.55742079 0.049844265
0.31000867 0.55870432 0.057784557
-0.33242938 0.60470414 0.082544327
-0.30262327 0.60179865 0.065770626
-0.27319533 0.58522666 0.050195694
0.31022707 0.60103256 0.061330795
-0.332416 0.64668059 0.082428455
-0.3025704 0.64351255 0.065280437
0.31046 0.64348155 0.065113068
-0.33237949 0.6886149 0.082112312
-0.30255693 0.68528575 0.065155029
0.31071535 0.68609577 0.069259644
-0.3322944 0.74444962 0.081375599
-0.3025232 0.74094832 0.064842224
0.31103197 0.74297875 0.074400425
-0.33230898 0.78646141 0.081501961
-0.302385 0.79638171 0.063560009
0.31122065 0.78556001 0.077464104
-0.33229682 0.82842487 0.08139658
-0.30239958 0.838193 0.063695431
0.31149396 0.82854754 0.081902504
-0.33261549 0.87108624 0.084156036
-0.30256817 0.8664313 0.065259457
-0.27450877 0.89380389 0.063319683
0.31219244 0.87332511 0.093244553
-0.39502609 -0.82008439 0.13297653
-0.36432594 -0.83018273 0.11419392
0.36885065 -0.84104139 0.099697113
-0.39471173 -0.79119855 0.1305747
-0.36340898 -0.78624636 0.10674858
0.3686634 -0.79832643 0.09726429
-0.40859261 -0.7482056 0.12830114
-0.36337346 -0.74391246 0.10646057
0.36869609 -0.7421906 0.097688675
-0.40378243 -0.6866619 0.12767935
-0.3633669 -0.70162904 0.10640717
0.36882943 -0.7003383 0.099420547
-0.40848213 -0.64883471 0.12748528
-0.3634879 -0.65952271 0.10738897
0.36919647 -0.65897006 0.10418892
-0.4086594 -0.60651839 0.12876558
-0.3633827 -0.60301256 0.10653543
0.36955795 -0.60337889 0.10888481
-0.42334366 -0.53614914 0.13247871
-0.40871486 -0.56404829 0.12917089
-0.3633301 -0.56067502 0.10610819
0.36975053 -0.56144685 0.1113863
-0.42336762 -0.50778896 0.13265228
-0.39421275 -0.52118772 0.12676191
-0.3634024 -0.51848614 0.10669565
0.36992693 -0.51942277 0.11367798
-0.42332864 -0.46517912 0.13237047
-0.39412382 -0.4644281 0.1260829
-0.36331961 -0.46203578 0.10602331
0.37008286 -0.46318802 0.11570358
-0.42341262 -0.42267174 0.13297653
-0.39410123 -0.42190999 0.12590981
-0.36331171 -0.41976008 0.10595942
0.37024561 -0.42103797 0.11781788
-0.42342162 -0.38009742 0.13304138
-0.39412239 -0.37942713 0.12607145
-0.36342344 -0.37757993 0.10686588
0.37046567 -0.37890479 0.12067604
-0.42358518 -0.3234185 0.13422203
-0.39427063 -0.32285097 0.12720442
-0.36343527 -0.32121456 0.1069622
0.37071675 -0.32258329 0.12393761
-0.42361677 -0.28084081 0.13444996
-0.39415768 -0.28027874 0.12634134
-0.36353257 -0.27899116 0.10775232
0.37095326 -0.28032535 0.12701035
-0.42375642 -0.2383015 0.13545752
-0.39434695 -0.23785974 0.12778759
-0.36350498 -0.23668842 0.10752821
0.37122098 -0.23801224 0.1304884
-0.42385858 -0.18152247 0.13619423
-0.39434549 -0.18116589 0.12777662
-0.36361152 -0.18034202 0.10839319
0.37165201 -0.18150988 0.13608742
-0.42386001 -0.13890499 0.13620567
-0.39436388 -0.13864997 0.12791681
-0.36375365 -0.13808402 0.10954714
0.37196535 -0.13902663 0.14015722
-0.4238736 -0.096288756 0.13630342
-0.39432716 -0.096122779 0.12763596
-0.36373261 -0.095772281 0.10937595
0.37204567 -0.1106086 0.1412015
-0.42410523 -0.039469533 0.13797426
-0.3943356 -0.053604998 0.12770128
-0.36371416 -0.053462885 0.1092267
-0.42413366 0.0031678062 0.13818026
-0.39432576 -0.011085829 0.12762547
-0.36376682 -0.011155499 0.10965395
-0.42433995 0.045837939 0.13966846
-0.39446706 0.045626365 0.12870502
-0.36383134 0.045268677 0.11017799
-0.4243474 0.088495344 0.13972282
-0.39453915 0.088172793 0.12925577
-0.3637273 0.087559529 0.10933352
-0.42416978 0.13109781 0.13844109
-0.39430875 0.1306335 0.12749624
-0.36374047 0.12986927 0.10944033
-0.42405701 0.18790935 0.13762665
-0.39408854 0.18722518 0.12581301
-0.3636536 0.18624189 0.10873508
-0.42423302 0.2306307 0.13889694
-0.39405042 0.22970414 0.12552214
-0.36359307 0.22850695 0.10824299
-0.42412466 0.27321377 0.13811541
-0.39401513 0.27217481 0.12525272
-0.36345363 0.27070931 0.10711193
0.34070483 0.27009651 0.099473476
-0.4238736 0.32989249 0.13630342
-0.39378533 0.32866013 0.12349558
-0.36323422 0.32691091 0.10532999
0.3411682 0.32699966 0.10616255
-0.42372483 0.37239644 0.13522959
-0.3936134 0.37099001 0.12218237
-0.36305171 0.36901447 0.10384798
0.3414501 0.36970219 0.1102314
-0.4236753 0.41495746 0.13487196
-0.39335582 0.41320789 0.12021399
-0.36292705 0.4111349 0.10283613
0.34177127 0.41257551 0.11486721
-0.42358375 0.45747489 0.13421106
-0.39309564 0.46951795 0.11822605
-0.36270157 0.4671984 0.10100508
0.34214392 0.4697963 0.12024641
-0.42350268 0.49998662 0.13362646
-0.39286247 0.51166838 0.11644363
-0.36256397 0.50924689 0.099888325
0.34250495 0.51298642 0.12545729
-0.42360324 0.55688423 0.13435221
-0.39298886 0.55421084 0.11740971
-0.3625823 0.55146778 0.1000371
0.34276295 0.5560714 0.12918091
-0.42366779 0.59955829 0.13481808
-0.39292565 0.61065876 0.11692667
-0.36250901 0.60763061 0.099442005
0.34298992 0.59915841 0.13245678
-0.42345768 0.64188385 0.13330126
-0.39282036 0.6529057 0.11612177
-0.3624776 0.64977682 0.099186897
0.34329325 0.6425283 0.1368351
-0.42342013 0.69860959 0.13303089
-0.39285964 0.69535089 0.11642218
-0.36243701 0.69190127 0.098857403
0.34348127 0.68567097 0.13954878
-0.42343962 0.74122 0.13317108
-0.3928175 0.73767155 0.11610031
-0.36232054 0.74794823 0.097911835
-0.42342317 0.78377485 0.13305235
-0.39262524 0.77973348 0.11463165
-0.36218452 0.78987825 0.09680748
-0.42344713 0.84059203 0.13322544
-0.39274594 0.83643997 0.11555386
-0.36236635 0.83238876 0.098283768
-0.39404476 0.88126552 0.12547874
-0.36310947 0.87605244 0.10431719
-0.39829814 -0.85405272 0.15797997
0.40321726 -0.84317023 0.1733427
0.40289333 -0.78495121 0.16951752
0.40293437 -0.74205011 0.17000198
0.40321994 -0.69964683 0.17337418
0.40378216 -0.64335257 0.18001318
0.40402678 -0.60067803 0.18290234
0.4042426 -0.55788291 0.18545055
0.40443414 -0.51499468 0.18771267
0.37227353 -0.082204424 0.14416122
0.37244472 -0.039498866 0.14638519
0.37280107 0.0032663271 0.15101433
0.37309006 0.046133228 0.15476847
0.37343198 0.089095049 0.15920925
0.37375021 0.1321592 0.16334343
0.37420928 0.18974598 0.16930771
0.37470555 0.23318422 0.17575407
0.3751412 0.2767207 0.18141317
0.37549233 0.32027599 0.18597507
0.34369975 0.71473932 0.14270258
0.34387329 0.74372154 0.14520741
0.34413031 0.78726184 0.14891672
0.34438017 0.83085328 0.15252352
0.34478408 0.86078179 0.15835333
0.40486914 -0.47238696 0.19285011
0.40530995 -0.41523591 0.19805527
0.40556166 -0.37218493 0.20102882
0.40588343 -0.32912084 0.20482874
0.40642932 -0.2861633 0.21127558
0.40685159 -0.24296127 0.21626186
0.40728548 -0.18512328 0.22138548
0.40762508 -0.14165114 0.22539663
0.40811232 -0.098107181 0.23115063
0.37583578 0.36393833 0.19043589
0.37646294 0.42256719 0.19858265
0.37678263 0.46644282 0.20273638
0.37710324 0.51043046 0.20690107
0.3773948 0.55443746 0.21068811
0.37771586 0.59861231 0.21485901
0.37813523 0.64309508 0.22030687
0.37834328 0.68719786 0.22300959
0.37858048 0.74598074 0.22609043
0.37864441 0.78981513 0.22692108
0.37898752 0.83449781 0.23137903
0.34717402 0.89786124 0.19284916
0.43777928 -0.8424691 0.23682928
0.43807462 -0.79933238 0.24002647
0.43920821 -0.74322528 0.2522974
0.43992791 -0.70065713 0.26008892
0.44038445 -0.65742075 0.26503181
0.44078404 -0.5992679 0.2693572
0.44116944 -0.55569375 0.27352858
0.44158593 -0.52681506 0.27803755
0.40860003 -0.039846733 0.23691034
0.40898129 0.0039624814 0.24141264
0.40932077 0.047878727 0.24542141
0.40972909 0.091898203 0.25024366
0.40999582 0.13597213 0.25339317
0.41054711 0.18028696 0.25990343
0.41098619 0.2246781 0.26508951
0.41168904 0.28415692 0.27338982
0.41208661 0.32878482 0.27808475
0.41224313 0.35847336 0.27993345
0.37987658 0.8809644 0.24292755
0.47357938 -0.82701981 0.30292082
0.47496673 -0.80009967 0.31678343
0.44207057 -0.49795797 0.28328419
0.44235244 -0.46876687 0.28633547
0.44268477 -0.42478764 0.28993273
0.44312775 -0.36601967 0.29472876
0.44367671 -0.32203436 0.3006711
0.44403687 -0.27776414 0.30456924
0.44487882 -0.2337029 0.31368399
0.44567335 -0.1893837 0.32228518
0.41256264 0.38839799 0.28370619
0.41309789 0.41867477 0.29002666
0.41341823 0.46355924 0.29381037
0.41394708 0.50885087 0.30005598
0.41462886 0.55457914 0.3081069
0 0 0 1 0 0 0 1 0 0 0 1 0 0 0 0 0 957 1 0 0
