ply
format ascii 1.0
comment PCL generated
element vertex 1158
property float x
property float y
property float z
element camera 1
property float view_px
property float view_py
property float view_pz
property float x_axisx
property float x_axisy
property float x_axisz
property float y_axisx
property float y_axisy
property float y_axisz
property float z_axisx
property float z_axisy
property float z_axisz
property float focal
property float scalex
property float scaley
property float centerx
property float centery
property int viewportx
property int viewporty
property float k1
property float k2
end_header
0.013266997 -0.68624204 -0.073797584
0.039505839 -0.68685263 -0.070625067
-0.039195351 -0.66042972 -0.071620703
-0.012943812 -0.65994108 -0.074266434
0.013266997 -0.65967786 -0.075690627
0.039499763 -0.66046804 -0.071413994
-0.039195351 -0.63419867 -0.071620584
-0.012943812 -0.63373023 -0.074266315
0.013266997 -0.63347805 -0.075690746
0.039499763 -0.63423538 -0.071414113
-0.039195642 -0.60797071 -0.071601868
-0.012943812 -0.60751951 -0.074266434
0.013266997 -0.60727823 -0.075690746
0.039499763 -0.60800242 -0.071414113
-0.039195642 -0.58173931 -0.071601868
-0.012943812 -0.5813086 -0.074266434
0.013266997 -0.58107835 -0.075690866
0.039499763 -0.58176965 -0.071414113
-0.039195642 -0.55550802 -0.071601987
-0.012943812 -0.55509788 -0.074266434
0.013266997 -0.55487853 -0.075690746
0.039499763 -0.55553699 -0.071414113
-0.039195642 -0.52927673 -0.071601748
-0.012943812 -0.52888697 -0.074266315
0.013266997 -0.52867872 -0.075690627
0.039499763 -0.52930421 -0.071413994
-0.039195642 -0.50304538 -0.071601748
-0.012943812 -0.50267625 -0.074266434
0.013266997 -0.50247884 -0.075690746
0.039499763 -0.50307143 -0.071414232
-0.039195642 -0.47681403 -0.071601868
-0.012943812 -0.47646546 -0.074266315
0.013266997 -0.47627896 -0.075690627
0.039499763 -0.47683859 -0.071414113
-0.039212413 -0.45071703 -0.070512176
-0.012953052 -0.45040244 -0.073065996
0.013266997 -0.45023847 -0.074397683
0.039508298 -0.45074248 -0.070305586
0.013266997 0.25778705 -0.070136428
-0.039187551 0.2838456 -0.0721277
-0.012939915 0.28360134 -0.074772358
0.013266997 0.2834698 -0.076196313
0.039495714 0.28386301 -0.071939707
-0.065443881 0.31019878 -0.070869088
-0.039165594 0.30993026 -0.073553681
-0.012928953 0.30966568 -0.076196313
0.013266997 0.3095234 -0.077619076
0.03948459 0.30994701 -0.073384881
-0.065443017 0.33643174 -0.070906997
-0.039164729 0.33614051 -0.073609948
-0.012928521 0.3358556 -0.076252699
0.013266997 0.33570027 -0.077694058
0.039484158 0.33615863 -0.073441148
-0.065459937 0.36275291 -0.070174098
-0.039174832 0.362432 -0.072953343
-0.01293328 0.36212242 -0.075634599
0.013266997 0.361956 -0.077076316
0.039489359 0.36245382 -0.072765708
-0.039210685 0.38893986 -0.070625067
-0.012951175 0.38860923 -0.073309779
0.013266997 0.38843119 -0.074753761
0.039507285 0.38896292 -0.070436954
0.013266997 0.4150753 -0.071413994
0.06598822 -0.7426182 -0.054806232
-0.092210509 -0.71648538 -0.053668141
0.039532766 -0.71379173 -0.067126513
0.065866746 -0.71467835 -0.062696099
0.092354521 -0.71630687 -0.054559827
-0.092086188 -0.68933898 -0.057705402
-0.065512925 -0.68738103 -0.067879558
-0.039315611 -0.68816429 -0.063809514
-0.013019515 -0.68804455 -0.064432025
0.065811589 -0.68768907 -0.066279054
0.092258714 -0.68914592 -0.058708429
-0.092055298 -0.66281539 -0.058708429
-0.065492071 -0.66095418 -0.068782687
0.065798253 -0.66125667 -0.067145467
0.092235126 -0.66262674 -0.059729815
-0.092055298 -0.63648474 -0.058708549
-0.065492071 -0.63470119 -0.068782806
0.065798253 -0.63499105 -0.067145467
0.092235126 -0.63630402 -0.059729934
-0.092055298 -0.61015421 -0.058708429
-0.065492071 -0.60844815 -0.068782687
0.065798253 -0.60872537 -0.067145586
0.092235126 -0.60998136 -0.059729815
-0.092055298 -0.58382368 -0.05870831
-0.065492071 -0.5821951 -0.068782687
0.065798253 -0.58245975 -0.067145467
0.092235126 -0.58365864 -0.059730053
-0.092055298 -0.55749303 -0.058708549
-0.065492503 -0.55594504 -0.068763852
0.065798253 -0.55619413 -0.067145586
0.092235126 -0.55733585 -0.059729815
-0.09205588 -0.5311653 -0.058689594
-0.065492503 -0.52969182 -0.068763733
0.065798253 -0.52992862 -0.067145467
0.092235126 -0.53101313 -0.059729934
-0.09205588 -0.50483459 -0.058689713
-0.065492503 -0.50343871 -0.068763852
0.065798253 -0.50366294 -0.067145467
0.092235126 -0.50469047 -0.059729815
-0.09205588 -0.47850394 -0.058689475
-0.065492503 -0.47718549 -0.068763733
0.065798253 -0.47739732 -0.067145467
0.092235126 -0.47836775 -0.059730053
-0.092074528 -0.45224786 -0.058083892
-0.065516405 -0.4510597 -0.067729115
0.065812744 -0.45124763 -0.066203713
0.092250854 -0.45212883 -0.05904901
-0.065666646 -0.42554986 -0.061223269
-0.039304286 -0.42516631 -0.064545155
-0.012998194 -0.42485958 -0.067201853
0.013266997 -0.42470306 -0.068556905
0.039554529 -0.42519456 -0.06430006
0.065908052 -0.42568952 -0.060013652
0.092414141 -0.42661738 -0.05197823
0.092414141 -0.400235 -0.051978111
-0.065666646 -0.39923865 -0.061223269
-0.039304286 -0.39888066 -0.064545155
-0.012998194 -0.39859432 -0.067201853
0.013266997 -0.39844823 -0.068557024
0.039554529 -0.39890707 -0.06430006
0.065908052 -0.39936894 -0.060013652
-0.065666646 -0.37292749 -0.061223269
-0.039304286 -0.37259495 -0.064545155
-0.012998194 -0.37232912 -0.067201853
0.013266997 -0.37219346 -0.068557024
0.039554529 -0.37261945 -0.06430006
0.065908052 -0.37304848 -0.060013533
0.092414141 -0.37385261 -0.05197835
-0.065666646 -0.34661615 -0.061223149
-0.039304286 -0.34630942 -0.064545155
-0.012998194 -0.34606391 -0.067201972
0.013266997 -0.3459388 -0.068556786
0.039554529 -0.34633195 -0.06430006
0.065908052 -0.34672797 -0.060013533
0.092414141 -0.34747016 -0.05197823
-0.065666646 -0.32030493 -0.061223149
-0.039304286 -0.32002372 -0.064545155
-0.012998194 -0.31979877 -0.067201734
0.013266997 -0.31968403 -0.068556786
0.039554529 -0.32004446 -0.064299941
0.065907761 -0.32040578 -0.060032487
0.092414141 -0.32108784 -0.05197835
-0.065666646 -0.29399377 -0.061223149
-0.039304286 -0.29373807 -0.064545155
-0.012998194 -0.2935335 -0.067201734
0.013266997 -0.2934292 -0.068556786
0.039554529 -0.29375696 -0.064299822
0.065907761 -0.29408544 -0.060032487
0.092414141 -0.29470557 -0.05197823
-0.065666646 -0.26768252 -0.061223149
-0.039304286 -0.26745248 -0.064545155
-0.012998194 -0.26726839 -0.067201853
0.013266997 -0.26717442 -0.068556786
0.039554529 -0.26746941 -0.06430006
0.065907761 -0.2677651 -0.060032368
0.092414141 -0.26832303 -0.05197835
-0.065666646 -0.2413713 -0.061223149
-0.039304286 -0.2411669 -0.064545155
-0.012998194 -0.2410032 -0.067201853
0.013266997 -0.24091972 -0.068557024
0.039554529 -0.24118185 -0.06430006
0.065907761 -0.2414448 -0.060032368
0.092414141 -0.24194071 -0.05197823
0.092414141 -0.21555836 -0.05197823
-0.065666646 -0.2150601 -0.061223149
-0.039304286 -0.21488123 -0.064545155
-0.012998194 -0.21473795 -0.067201972
0.013266997 -0.21466497 -0.068557024
0.039554529 -0.21489435 -0.064299941
0.065907761 -0.21512435 -0.060032487
-0.065666646 -0.18874894 -0.061223269
-0.039304286 -0.18859544 -0.064545155
-0.012998194 -0.18847276 -0.067201853
0.013266997 -0.18841015 -0.068557024
0.039554529 -0.18860675 -0.064300179
0.065907761 -0.18880391 -0.060032368
0.092414141 -0.18917598 -0.05197835
-0.065666646 -0.16243772 -0.061223269
-0.039304286 -0.16230977 -0.064545155
-0.012998194 -0.16220762 -0.067201734
0.013266997 -0.16215551 -0.068556786
0.039554529 -0.16231927 -0.06430006
0.065907761 -0.16248359 -0.060032368
0.092414141 -0.16279353 -0.05197823
-0.065666646 -0.13612646 -0.061223269
-0.039304286 -0.13602409 -0.064545274
-0.012998194 -0.13594237 -0.067201734
0.013266997 -0.13590008 -0.068575978
0.039554529 -0.13603178 -0.06430006
0.065907761 -0.13616315 -0.060032487
0.092414141 -0.1364112 -0.051978111
-0.065666646 -0.1098153 -0.061223269
-0.039304286 -0.10973857 -0.064545155
-0.012998194 -0.10967723 -0.067201853
0.013266997 -0.10964549 -0.06857574
0.039554529 -0.10974434 -0.06430006
0.065907761 -0.10984275 -0.060032487
0.092414141 -0.11002876 -0.05197835
-0.065666646 -0.083503976 -0.061223269
-0.039304286 -0.083452955 -0.064545155
-0.012998194 -0.083412036 -0.067201853
0.013266997 -0.083390847 -0.068575859
0.039554529 -0.083456635 -0.06430006
0.065907761 -0.083522364 -0.060032487
0.092414141 -0.083646372 -0.05197823
-0.065666646 -0.057192758 -0.061223269
-0.039304286 -0.057167277 -0.064545155
-0.012998194 -0.057146795 -0.067201853
0.013266997 -0.057136245 -0.06857574
0.039554529 -0.057169143 -0.064299941
0.065907761 -0.057201982 -0.060032487
0.092414141 -0.057263985 -0.05197835
-0.065666646 -0.030881708 -0.06122303
0.039554529 -0.030881708 -0.064299941
0.092414141 -0.030881708 -0.05197823
-0.039304286 -0.030881599 -0.064545155
-0.012998194 -0.030881599 -0.067201972
0.013266997 -0.030881599 -0.06857574
0.065907761 -0.030881599 -0.060032487
-0.065666646 -0.0045704935 -0.06122303
-0.039304286 -0.0045960303 -0.064545155
-0.012998194 -0.0046164598 -0.067201853
0.013266997 -0.0046270583 -0.06857574
0.039554529 -0.0045940541 -0.06430006
0.065907761 -0.0045612138 -0.060032606
0.092414141 -0.0044992659 -0.05197835
-0.065666646 0.02174072 -0.06122303
-0.039304286 0.021689646 -0.064545155
-0.012998194 0.021648787 -0.067201734
0.013266997 0.021627646 -0.06857574
0.039554529 0.021693435 -0.06430006
0.065907761 0.021759007 -0.060032248
0.092414141 0.021883067 -0.05197835
-0.065666646 0.048051991 -0.061223149
-0.039304286 0.047975376 -0.064545155
-0.012998194 0.047913983 -0.067201734
0.013266997 0.047882184 -0.06857574
0.039554529 0.047980875 -0.06430006
0.065907761 0.048079446 -0.060032487
0.092414141 0.048265345 -0.05197823
-0.065666646 0.074363261 -0.06122303
-0.039304286 0.07426095 -0.064545155
-0.012998194 0.07417912 -0.067201853
0.013266997 0.074136779 -0.06857574
0.039554529 0.074268416 -0.064299941
0.065907761 0.074399777 -0.060032368
0.092414141 0.074648008 -0.05197835
-0.065666646 0.10067436 -0.061223149
-0.039304286 0.10054657 -0.064545035
-0.012998194 0.10044426 -0.067201972
0.013266997 0.10039154 -0.06857574
0.039554529 0.10055608 -0.06430006
0.065907761 0.10072021 -0.060032487
0.092414141 0.10103033 -0.05197823
-0.065666646 0.12698564 -0.061223149
-0.039304286 0.12683214 -0.064545155
-0.012998194 0.12670951 -0.067201734
0.013266997 0.12664607 -0.06857574
0.039554529 0.12684356 -0.06430006
0.065907761 0.12704055 -0.060032487
0.092414141 0.12741268 -0.051978111
-0.065666646 0.15329674 -0.061223149
-0.039304286 0.15311792 -0.064545035
-0.012998194 0.15297469 -0.067201853
0.013266997 0.15290056 -0.06857574
0.039554529 0.15313093 -0.06430006
0.065907761 0.15336093 -0.060032487
0.092414141 0.15379506 -0.05197835
-0.065666646 0.17960808 -0.061223149
-0.039304286 0.1794035 -0.064545155
-0.012998194 0.17923984 -0.067201853
0.013266997 0.17915536 -0.06857574
0.039554529 0.17941859 -0.06430006
0.065907761 0.17968132 -0.060032487
0.092414141 0.18017741 -0.05197835
-0.065666646 0.20591916 -0.061223149
-0.039304286 0.20568928 -0.064545155
-0.012998048 0.20550394 -0.067220807
0.013266997 0.20540985 -0.06857574
0.039554529 0.20570609 -0.06430006
0.065907761 0.20600188 -0.060032368
0.092414141 0.20655972 -0.05197823
-0.065666646 0.2322305 -0.061223149
-0.039304286 0.23197474 -0.064545155
-0.012998048 0.23176874 -0.067220807
0.013266997 0.23166446 -0.068575859
0.039554529 0.23199363 -0.064299941
0.065907761 0.23232232 -0.060032368
0.092414141 0.23294206 -0.05197835
-0.092221603 0.25921202 -0.053307295
-0.065623477 0.25838327 -0.063092589
-0.039278753 0.25811994 -0.066203833
-0.012985881 0.25790012 -0.068801522
0.039541468 0.25813746 -0.065996528
0.06588012 0.25849056 -0.061827421
0.09236373 0.25913972 -0.054161429
-0.092036076 0.28502756 -0.059332848
-0.06547904 0.2841025 -0.069346786
0.065789841 0.28425545 -0.067691445
0.092219844 0.28492981 -0.060391665
-0.091988921 0.31120008 -0.06086421
0.065767251 0.31037003 -0.069158912
0.092183195 0.31108868 -0.061978698
-0.091989502 0.33751601 -0.060845256
0.06576696 0.33661801 -0.069177628
0.092184067 0.33739805 -0.061941028
-0.092015691 0.36392844 -0.059994578
0.065777965 0.36295056 -0.068462729
0.092203259 0.36379969 -0.061109781
-0.092092596 0.39055681 -0.057497144
-0.065517269 0.38930112 -0.067691326
0.065813906 0.38949364 -0.066128373
0.092262648 0.39042848 -0.058538079
-0.092207581 0.41738528 -0.053762794
-0.06560082 0.41603601 -0.064073801
-0.039262228 0.41561687 -0.067277193
-0.01297676 0.41526222 -0.069986105
0.039533205 0.41564375 -0.067070127
0.065866746 0.41621625 -0.062696218
0.092350587 0.41725862 -0.054730296
-0.065706372 0.44295853 -0.059502959
-0.039327815 0.44247156 -0.06301713
-0.013009503 0.44209522 -0.065732598
0.013266997 0.44190216 -0.067126632
0.039566293 0.44250554 -0.062771797
0.065933093 0.44311315 -0.058386803
-0.065862603 0.47027248 -0.052737951
-0.039424174 0.46968454 -0.056758523
-0.013057314 0.46928024 -0.059522033
0.013266997 0.46908134 -0.060882926
0.039614916 0.46972877 -0.056455374
0.06603118 0.47037798 -0.052016258
-0.013113337 0.49672508 -0.052244067
0.013266997 0.49652344 -0.053554058
0.066196635 -0.77189666 -0.041269183
-0.11935648 -0.74704838 -0.033491254
-0.092487618 -0.74472529 -0.044668317
0.092566662 -0.74457866 -0.045373917
-0.11899166 -0.71862656 -0.042969704
0.11910803 -0.71884835 -0.041861892
-0.11881915 -0.69131243 -0.047451377
0.11896408 -0.6914885 -0.046536803
0.14586018 -0.69384766 -0.034278274
-0.14584394 -0.6673255 -0.034297347
-0.11877592 -0.66468769 -0.048574686
0.1189283 -0.6648494 -0.047698975
0.14580996 -0.66708791 -0.035582781
-0.14584394 -0.64080697 -0.034297228
0.14580996 -0.64057922 -0.0355829
-0.11877592 -0.63827902 -0.048574567
0.1189283 -0.63843411 -0.047698975
-0.14584394 -0.61428845 -0.034297228
-0.11877592 -0.61187053 -0.048574686
0.1189283 -0.61201882 -0.047698855
0.14580923 -0.61406744 -0.035601974
-0.14584394 -0.58776999 -0.034297228
-0.11877592 -0.58546191 -0.048574686
0.1189283 -0.58560348 -0.047698855
0.14580923 -0.58755898 -0.035601854
-0.14584394 -0.56125146 -0.034297347
-0.11877592 -0.55905324 -0.048574567
0.1189283 -0.55918813 -0.047698975
0.14580923 -0.56105059 -0.035601974
-0.14584394 -0.53473294 -0.034297466
-0.11877592 -0.53264469 -0.048574686
0.1189283 -0.53277284 -0.047698736
0.14580923 -0.53454214 -0.035601974
-0.14584394 -0.50821441 -0.034297466
-0.11877592 -0.5062362 -0.048574567
0.1189283 -0.50635755 -0.047698855
0.14580923 -0.50803375 -0.035601974
-0.14584394 -0.48169595 -0.034297466
-0.11877592 -0.47982764 -0.048574567
0.11892771 -0.4799397 -0.04771781
0.14580923 -0.48152524 -0.035601974
-0.14584394 -0.45517743 -0.034297466
0.14580923 -0.45501673 -0.035601974
-0.11878325 -0.45344239 -0.048384309
0.11893182 -0.45354086 -0.047584653
-0.11906813 -0.42788708 -0.040982366
-0.092288278 -0.42671388 -0.051142216
0.11916749 -0.4280085 -0.039930701
-0.11906813 -0.40142012 -0.040982485
-0.092288278 -0.40032512 -0.051142216
0.11916749 -0.40153342 -0.039930701
-0.11906813 -0.37495303 -0.040982485
-0.092288278 -0.3739363 -0.051142216
0.11916749 -0.37505829 -0.039930582
-0.11906813 -0.34848595 -0.040982485
-0.092288278 -0.34754747 -0.051142335
0.11916749 -0.34858304 -0.039930701
-0.11906813 -0.32201898 -0.040982604
-0.092288278 -0.32115871 -0.051142097
0.11916749 -0.32210803 -0.039930701
-0.11906813 -0.2955519 -0.040982485
-0.092288278 -0.29476988 -0.051142216
0.11916749 -0.29563284 -0.039930701
-0.11906813 -0.2690849 -0.040982604
-0.092288278 -0.26838091 -0.051142216
0.11916749 -0.26915783 -0.039930701
-0.11906813 -0.24261777 -0.040982485
-0.092288278 -0.24199221 -0.051142097
0.11916749 -0.24268256 -0.039930701
-0.11906813 -0.21615086 -0.040982366
-0.092288278 -0.2156034 -0.051142097
0.11916749 -0.21620755 -0.039930701
-0.11906813 -0.18968379 -0.040982485
-0.092288278 -0.18921453 -0.051142216
0.11916749 -0.1897324 -0.039930701
-0.11906742 -0.16321601 -0.041001678
-0.092288278 -0.16282566 -0.051142216
0.11916749 -0.16325738 -0.039930701
-0.11906742 -0.13674912 -0.041001678
-0.092288278 -0.13643697 -0.051142216
0.11916749 -0.13678207 -0.039930701
-0.11906742 -0.11028232 -0.041001678
-0.092288278 -0.11004815 -0.051142216
0.11916749 -0.11030708 -0.039930701
-0.11906742 -0.083815299 -0.041001678
-0.092288278 -0.083659276 -0.051142216
0.11916749 -0.083831884 -0.039930701
-0.11906742 -0.057348557 -0.041001678
-0.092288278 -0.057270467 -0.051142097
0.11916749 -0.057356797 -0.039930582
-0.092288278 -0.030881653 -0.051142216
-0.11906742 -0.030881599 -0.041001678
0.11916749 -0.030881599 -0.03993082
-0.11906742 -0.0044147484 -0.041001678
-0.092288278 -0.0044928417 -0.051142216
0.11916749 -0.0044065099 -0.039930701
-0.11906742 0.022052214 -0.041001678
-0.092288278 0.021895971 -0.051142097
0.11916749 0.022068687 -0.039930582
-0.11906742 0.048518956 -0.041001678
-0.092288278 0.048284784 -0.051142216
0.11916749 0.048543669 -0.039930582
-0.11906742 0.074985862 -0.041001797
-0.092288278 0.0746736 -0.051142216
0.11916749 0.075018868 -0.03993082
-0.11906742 0.10145277 -0.041001678
-0.092288278 0.10106246 -0.051142216
0.11916808 0.10149471 -0.039911628
-0.11906742 0.12791967 -0.041001678
-0.092288278 0.12745123 -0.051142216
0.11916808 0.12796998 -0.039911628
-0.11906742 0.15438658 -0.041001558
-0.092288278 0.15384004 -0.051142216
0.11916808 0.15444534 -0.039911628
-0.11906742 0.18085349 -0.041001678
-0.092288278 0.18022884 -0.051142216
0.11916808 0.18092059 -0.039911389
-0.11906742 0.20732017 -0.041001678
-0.092288278 0.20661761 -0.051142216
0.11916808 0.20739567 -0.039911628
-0.11906742 0.23378728 -0.041001678
-0.092288278 0.23300664 -0.051142216
0.11916808 0.23387103 -0.039911747
-0.11897255 0.26004535 -0.043465972
0.1190898 0.26013112 -0.042454004
-0.14580318 0.28725857 -0.035179973
-0.11874956 0.28595799 -0.049259901
0.11890601 0.28603536 -0.048422337
0.14577971 0.28714883 -0.036368728
-0.14571816 0.31358618 -0.037020683
-0.11868954 0.3122052 -0.050819159
0.1188568 0.31228524 -0.050020456
0.14571775 0.31349045 -0.037978292
-0.14573143 0.34011477 -0.03673315
-0.11869466 0.33861095 -0.050686002
0.11886091 0.3386969 -0.049887419
0.14572588 0.34000307 -0.037767649
-0.14578812 0.36675614 -0.03550601
-0.11872979 0.36510873 -0.049773216
0.11888961 0.36520314 -0.048955202
0.14576642 0.36661667 -0.036714077
-0.11882722 0.39181989 -0.047241807
0.11896877 0.39192551 -0.046384335
0.14586608 0.39343542 -0.034124732
-0.11897476 0.41874021 -0.043408751
0.11909097 0.41887027 -0.042415857
-0.11915945 0.44585359 -0.038610339
-0.09235093 0.44439912 -0.049107313
0.092461549 0.44428569 -0.049925327
0.11924472 0.44601816 -0.037423015
-0.092561692 0.47180468 -0.042262793
0.092624396 0.47171527 -0.042874098
-0.0928111 0.4995088 -0.034162998
-0.066045441 0.49786788 -0.044821024
-0.039536983 0.49715829 -0.049430966
0.03967192 0.49721682 -0.049050331
0.066146359 0.49791205 -0.044534802
0.092816703 0.49944967 -0.034546852
-0.066259228 0.52580184 -0.035563588
-0.03966853 0.5249415 -0.040886998
-0.013179149 0.52448738 -0.043695211
0.013266997 0.52428687 -0.044935465
0.039738294 0.52501547 -0.040427923
0.066280052 0.52575541 -0.03585124
0.013266997 0.55257714 -0.033990145
-0.11995187 -0.77690727 -0.018022537
0.092921421 -0.77432293 -0.03001225
0.11990297 -0.7773335 -0.016045332
0.039898545 -0.74993342 -0.019610524
0.14655748 -0.75065041 -0.01616168
0.11940955 -0.7473439 -0.032069564
-0.14620109 -0.72190994 -0.026564956
-0.066330165 -0.72072369 -0.032492518
-0.04003308 -0.72378272 -0.017208695
-0.013385875 -0.72385633 -0.016840577
0.013266997 -0.72221893 -0.025021791
0.1460755 -0.72148579 -0.028684258
-0.145914 -0.69413567 -0.032780528
-0.14625454 -0.42968559 -0.025407672
0.14612666 -0.42946053 -0.027355194
-0.14625454 -0.40309858 -0.025407672
0.14612666 -0.40288877 -0.027355075
-0.14625454 -0.37651169 -0.025407672
0.14612666 -0.37631685 -0.027354956
-0.14625454 -0.3499248 -0.025407791
0.14612666 -0.3497448 -0.027355075
-0.14625454 -0.32333773 -0.025407672
0.14612666 -0.32317293 -0.027354956
-0.14625454 -0.29675084 -0.025407791
0.14612666 -0.296601 -0.027355075
-0.14625454 -0.27016392 -0.025407553
0.14612666 -0.2700291 -0.027355075
-0.14625454 -0.24357703 -0.025407672
0.14612666 -0.24345714 -0.027355075
-0.14625454 -0.21699013 -0.025407672
0.14612666 -0.21688518 -0.027355075
-0.14625454 -0.19040316 -0.025407791
0.14612666 -0.19031326 -0.027355075
-0.14625454 -0.16381626 -0.02540791
0.14612666 -0.16374125 -0.027355075
-0.14625454 -0.13722937 -0.025407672
0.14612666 -0.13716933 -0.027355075
-0.14625454 -0.11064246 -0.025407672
0.1461274 -0.11059787 -0.027335882
-0.14625454 -0.084055565 -0.025407672
0.1461274 -0.0840258 -0.027335763
-0.14625454 -0.057468556 -0.025407672
0.1461274 -0.057453725 -0.027335882
-0.14625365 -0.030881708 -0.025426865
0.1461274 -0.030881653 -0.027335882
-0.14625365 -0.004294863 -0.025426984
0.1461274 -0.0043095816 -0.027335763
-0.14625365 0.022291929 -0.025426865
0.1461274 0.022262655 -0.027335882
-0.14625365 0.04887861 -0.025427103
0.1461274 0.04883451 -0.027335882
-0.14625365 0.075465396 -0.025426984
0.1461274 0.075406581 -0.027335763
-0.14625365 0.1020523 -0.025426984
0.1461274 0.1019787 -0.027335763
-0.14625365 0.12863892 -0.025426984
0.1461274 0.12855095 -0.027335763
-0.14625365 0.15522583 -0.025426984
0.1461274 0.15512286 -0.027335763
-0.14625365 0.18181245 -0.025426984
0.1461274 0.18169492 -0.027335763
-0.14625365 0.20839936 -0.025427103
0.14612815 0.20826837 -0.027316451
-0.14625365 0.23498614 -0.025426984
0.14612815 0.23484062 -0.02731657
-0.14609699 0.2612856 -0.028818965
0.14599846 0.26112759 -0.030685425
-0.17337628 0.2890783 -0.015482545
0.1732595 0.28910333 -0.015210986
-0.17327701 0.31555724 -0.017324924
0.17316991 0.31557477 -0.017150521
-0.17330104 0.34225452 -0.016879201
0.1731905 0.34227312 -0.016704679
-0.17337838 0.36907279 -0.01544404
0.17326039 0.36910182 -0.015191913
-0.14592466 0.39362943 -0.032549977
-0.14614056 0.42077303 -0.027875185
0.14602512 0.42049611 -0.029993057
-0.14641419 0.4481619 -0.02195096
0.14626475 0.44791043 -0.023767233
-0.11942451 0.47334617 -0.031723857
0.11946283 0.47354859 -0.030339241
0.14659557 0.4757669 -0.015172124
-0.11974341 0.50116003 -0.023438692
0.11972648 0.50141573 -0.021777153
-0.093102679 0.52755904 -0.024693727
0.093041576 0.52754045 -0.02480948
-0.066531658 0.55430841 -0.023767233
-0.039836846 0.55326074 -0.029954433
-0.013262874 0.55277544 -0.032818913
0.039823364 0.55335838 -0.029377103
0.066450946 0.5541417 -0.024751782
-0.040030397 0.58203846 -0.017383218
-0.01335904 0.58151728 -0.020326495
0.013266997 0.58132881 -0.021390319
0.039921217 0.58216524 -0.016665936
0.066865362 -0.80805796 0.0021659136
0.093554705 -0.80699617 -0.0025905371
-0.09341798 -0.7776764 -0.014454126
-0.14675419 -0.75097698 -0.014590025
-0.17393416 -0.72620022 -0.0051298141
0.17376481 -0.72637218 -0.004270792
-0.17355314 -0.69809651 -0.012200713
0.173421 -0.69819003 -0.011714697
-0.17343067 -0.6709879 -0.014473557
0.1733097 -0.6710524 -0.014124155
-0.17343067 -0.64431685 -0.014473438
0.1733097 -0.6443786 -0.014124155
-0.17343067 -0.61764568 -0.014473319
0.1733097 -0.61770487 -0.014124155
-0.17343067 -0.59097463 -0.014473557
0.1733088 -0.59102792 -0.014143586
-0.17343067 -0.56430358 -0.014473438
0.1733088 -0.5643543 -0.014143467
-0.17343067 -0.53763247 -0.014473438
0.1733088 -0.53768057 -0.014143586
-0.17342959 -0.51095867 -0.014492869
0.1733088 -0.51100701 -0.014143467
-0.17342959 -0.48428768 -0.014492869
0.1733088 -0.48433357 -0.014143467
-0.17342959 -0.45761675 -0.014492869
0.17330791 -0.4576574 -0.014163017
-0.17391314 -0.43198186 -0.0055202246
0.17374405 -0.43207425 -0.0047198534
-0.17391314 -0.40524191 -0.0055202246
0.17374405 -0.40532815 -0.0047199726
-0.17391314 -0.37850189 -0.0055201054
0.17374405 -0.37858194 -0.0047199726
-0.17391314 -0.35176194 -0.0055201054
0.17374405 -0.35183573 -0.0047199726
-0.17391314 -0.3250218 -0.0055202246
0.17374405 -0.32508951 -0.0047198534
-0.17391314 -0.29828179 -0.0055201054
0.17374405 -0.29834342 -0.0047197342
-0.17391314 -0.27154186 -0.0055202246
0.17374405 -0.27159733 -0.0047198534
-0.17391314 -0.24480185 -0.0055201054
0.17374405 -0.24485116 -0.0047198534
-0.17391314 -0.21806167 -0.0055202246
0.17374405 -0.21810494 -0.0047198534
-0.17391314 -0.19132172 -0.0055202246
0.17374405 -0.19135873 -0.0047198534
-0.17391314 -0.1645817 -0.0055202246
0.17374405 -0.16461258 -0.0047198534
-0.17391314 -0.1378417 -0.0055201054
0.17374405 -0.13786641 -0.0047198534
-0.17391206 -0.11110125 -0.0055397749
0.17374496 -0.11112063 -0.0047004223
-0.17391206 -0.084361345 -0.0055396557
0.17374496 -0.084374309 -0.0047003031
-0.17391206 -0.057621442 -0.0055397749
0.17374496 -0.057627976 -0.0047003031
0.17374496 -0.030881708 -0.0047003031
-0.17391206 -0.030881545 -0.0055397749
-0.17391206 -0.0041418076 -0.0055396557
0.17374496 -0.0041352194 -0.0047003031
-0.17391206 0.022597983 -0.0055396557
0.17374496 0.022611 -0.0047003031
-0.17391206 0.049337991 -0.0055396557
0.17374496 0.049357377 -0.0047003031
-0.17391206 0.076077782 -0.0055396557
0.17374496 0.07610365 -0.0047004223
-0.17391206 0.10281774 -0.0055396557
0.17374496 0.10285008 -0.0047003031
-0.17391206 0.12955754 -0.0055396557
0.17374496 0.12959631 -0.0047003031
-0.17391206 0.15629753 -0.0055397749
0.17374496 0.15634257 -0.0047004223
-0.17391206 0.18303722 -0.0055396557
0.17374496 0.18308902 -0.0047003031
-0.17391206 0.20977718 -0.0055395365
0.17374496 0.20983517 -0.0047003031
-0.17391206 0.23651703 -0.0055396557
0.17374496 0.23658167 -0.0047003031
-0.17369361 0.26291358 -0.0095938444
0.17354682 0.26296479 -0.0089902878
-0.17353743 0.39609987 -0.01249218
0.17340481 0.39615262 -0.012064457
-0.17380698 0.42344087 -0.0074900389
0.17364854 0.42353284 -0.0067881346
-0.1741458 0.45103699 -0.0012021065
0.17395535 0.45118332 -0.00014543533
-0.14679097 0.47596848 -0.013793945
-0.14725877 0.50420427 -0.003665328
0.14700766 0.50408089 -0.0044660568
-0.12013558 0.52940899 -0.013249993
0.12003453 0.52964789 -0.01177299
-0.12068292 0.55849791 0.00097072124
-0.093469419 0.55616868 -0.012783647
0.093324237 0.55620492 -0.012569904
0.12041366 0.55842513 0.00054001808
-0.093898974 0.58532268 0.0011665821
-0.066847742 0.58333129 -0.010080457
0.066653758 0.58306599 -0.011578441
0.093655497 0.58543026 0.0017739534
-0.04025393 0.61136955 -0.0028642416
-0.013470165 0.61081034 -0.0058908463
0.013266997 0.61063379 -0.0068464279
0.040034082 0.6115284 -0.0020039082
-0.1212751 -0.81122577 0.016355634
0.12082891 -0.81070548 0.01402545
-0.14770211 -0.78207099 0.0059332848
0.14739281 -0.78198618 0.0055404902
-0.17462772 -0.75561857 0.0077414513
-0.067213029 -0.75520182 0.0057369471
0.17439504 -0.75595778 0.0093743801
-0.20185196 -0.70312846 0.013946414
0.20139939 -0.70278299 0.012151599
-0.20159949 -0.67548108 0.0098466873
0.2012285 -0.6753211 0.0089808702
-0.20157647 -0.64855653 0.0094726086
0.20121366 -0.64842069 0.0087052584
-0.20157647 -0.62170118 0.0094727278
0.20121366 -0.62157124 0.0087052584
-0.20157647 -0.59484565 0.0094726086
0.20121366 -0.59472162 0.0087051392
-0.20157647 -0.5679903 0.0094727278
0.20121261 -0.56786919 0.0086855888
-0.20157647 -0.54113483 0.0094726086
0.20121261 -0.54101974 0.008685708
-0.20157647 -0.51427943 0.0094726086
0.20121261 -0.51417035 0.0086855888
-0.20157525 -0.48742133 0.009452939
0.20121261 -0.48732096 0.0086855888
-0.20157525 -0.46056616 0.009452939
0.20121261 -0.46047163 0.0086855888
-0.20222692 -0.43493271 0.020034909
0.2016941 -0.434654 0.017620802
-0.20231234 -0.40814549 0.021421671
0.20176657 -0.40788084 0.018966079
-0.20231234 -0.38119805 0.021421671
0.20176657 -0.38095236 0.018966198
-0.20231234 -0.35425067 0.02142179
0.20176657 -0.35402375 0.018966079
-0.20231234 -0.32730323 0.021421671
0.20176657 -0.32709527 0.018966079
-0.20231234 -0.30035579 0.021421671
0.20176657 -0.30016685 0.018966198
-0.20231234 -0.27340835 0.02142179
0.20176657 -0.27323821 0.018966079
-0.20231234 -0.24646088 0.021421671
0.20176657 -0.24630971 0.018966079
-0.20231234 -0.21951358 0.021421671
0.20176657 -0.21938129 0.018966198
-0.20231234 -0.19256614 0.021421671
0.20176657 -0.19245268 0.018966079
-0.20231234 -0.16561882 0.02142179
0.20176657 -0.1655242 0.018966198
-0.20231234 -0.1386714 0.021421671
0.20176657 -0.13859572 0.018966198
-0.20231234 -0.11172385 0.021421671
0.20176657 -0.11166712 0.018966079
-0.20231234 -0.084776521 0.021421671
0.20176657 -0.084738739 0.018966079
-0.20231234 -0.057829089 0.021421671
0.20176657 -0.057810251 0.018966198
-0.20231234 -0.030881653 0.02142179
0.20176657 -0.030881708 0.018966079
-0.20231111 -0.0039343834 0.021402121
0.20176657 -0.0039531663 0.018966198
-0.20231111 0.023012776 0.021402001
0.20176657 0.022975322 0.018966198
-0.20231111 0.049960211 0.021401882
0.20176657 0.049903862 0.018966079
-0.20231111 0.076907367 0.021401882
0.20176657 0.076832354 0.018966198
-0.20231111 0.10385469 0.021402121
0.20176657 0.1037609 0.018966198
-0.20231111 0.13080202 0.021402121
0.20176657 0.13068944 0.018966079
-0.20231111 0.15774912 0.021402121
0.20176657 0.15761793 0.018966198
-0.20231111 0.18469656 0.021402001
0.20176657 0.18454635 0.018966198
-0.20231111 0.21164367 0.021402001
0.20176657 0.21147496 0.018966198
-0.20231111 0.23859097 0.021402001
0.20176657 0.23840345 0.018966198
-0.20191033 0.26498723 0.014894009
0.20144932 0.26483345 0.01307857
-0.20148316 0.29124349 0.0079578161
0.2011469 0.29119819 0.0074664354
-0.20133914 0.31785339 0.0056191683
0.20104524 0.31784928 0.00557971
-0.20138511 0.34475958 0.0063654184
0.201077 0.34473848 0.0061690807
-0.20152192 0.37184775 0.008587122
0.20117234 0.37177259 0.0079380274
-0.20176573 0.39918381 0.012545943
0.2013431 0.39900655 0.011107206
-0.20220986 0.42700666 0.019757867
0.20165999 0.42664427 0.016988277
-0.1745896 0.47901475 0.0070337057
0.17435868 0.47924209 0.008587122
-0.17515798 0.50747544 0.017581105
0.17487556 0.50781357 0.019777656
-0.14780925 0.53288513 0.0082528591
0.14749038 0.53285658 0.0080757141
-0.12133139 0.58827108 0.01781857
0.12089701 0.58799094 0.016236901
-0.067213938 0.61296576 0.0057762861
0.066904627 0.61276984 0.0047159195
-0.094396502 0.61509949 0.017324209
0.094041102 0.61531126 0.01847136
-0.040514871 0.64139181 0.014084578
-0.013599806 0.6407885 0.010949492
0.013266997 0.64062536 0.010102749
0.040165834 0.64158928 0.015111208
-0.094611838 -0.81300312 0.024317384
-0.17611866 -0.78842419 0.03540957
0.17554498 -0.78817898 0.03427124
-0.040763654 -0.76029533 0.030243158
-0.013762441 -0.76067638 0.032076478
0.013266997 -0.7591629 0.024794102
-0.20251757 -0.73218149 0.024754286
0.2019459 -0.7316891 0.022293925
-0.20276363 0.45518726 0.028750062
0.20218983 0.45491987 0.026820421
-0.20345587 0.48383498 0.039990306
0.20285633 0.4837181 0.039189219
-0.17601109 0.53695256 0.033412933
0.17548323 0.53687513 0.03293407
-0.14847152 0.56215966 0.022591352
0.148072 0.56226045 0.023186445
-0.14928161 0.59222156 0.040130377
-0.12209387 0.61885047 0.037628412
0.12154153 0.61876541 0.037168503
-0.095012471 0.6458649 0.037328482
-0.06764213 0.64336121 0.024317622
0.06719847 0.64326173 0.023801684
0.094492756 0.64599967 0.038028479
-0.040827818 0.67235094 0.034410954
-0.013756147 0.67172033 0.031259298
0.013266997 0.67159659 0.030641556
0.040324092 0.67260277 0.035669327
-0.14960051 -0.81807435 0.047034264
-0.068116158 -0.79045779 0.044843793
0.040364601 -0.7896145 0.040931821
-0.20379683 -0.76347202 0.045526862
-0.2313607 -0.71040291 0.051746368
-0.23097993 -0.68220669 0.046250224
0.23047817 -0.6825152 0.047919512
-0.23091032 -0.65489042 0.045245767
0.23041126 -0.65517145 0.046833515
-0.23091032 -0.62775946 0.045245647
0.23041126 -0.62802845 0.046833277
-0.23091032 -0.60062873 0.045245767
0.23041126 -0.60088533 0.046833277
-0.23091032 -0.57349789 0.045245647
0.23041126 -0.57374239 0.046833396
-0.23091032 -0.54636717 0.045245767
0.23041126 -0.54659927 0.046833396
-0.23091032 -0.51923621 0.045245647
0.23041126 -0.51945627 0.046833396
-0.23091032 -0.49210548 0.045245767
0.23041126 -0.49231321 0.046833277
-0.23091032 -0.46497452 0.045245767
0.23041126 -0.4651702 0.046833515
-0.23149069 -0.43881106 0.053622365
0.23096868 -0.43907225 0.0558846
-0.23174685 -0.41201431 0.057320118
-0.23174685 -0.38479054 0.057320118
-0.23174685 -0.35756677 0.057320118
-0.23174685 -0.33034313 0.057320118
-0.23174685 -0.3031193 0.057320118
-0.23174685 -0.27589551 0.057320118
-0.23174685 -0.24867177 0.057320118
-0.23174685 -0.221448 0.057320118
-0.23174685 -0.19422427 0.057319999
-0.23174685 -0.16700044 0.057319999
-0.23174685 -0.13977666 0.057320118
-0.23174685 -0.11255293 0.057319999
-0.23174685 -0.0853291 0.057320118
-0.23174685 -0.058105431 0.057319999
-0.23174685 -0.030881599 0.05731988
-0.23174685 -0.0036578737 0.057319999
-0.23174685 0.023566015 0.057319999
-0.23174685 0.050789632 0.057320118
-0.23174685 0.078013353 0.057320118
-0.23174685 0.10523708 0.057320118
-0.23174685 0.13246097 0.057320118
-0.23174685 0.15968463 0.057320118
-0.23174685 0.1869083 0.057320118
-0.23174685 0.21413219 0.057320118
-0.23174685 0.24135591 0.057320118
-0.23118062 0.26788753 0.049147248
0.23067163 0.26804978 0.051060796
-0.2307851 0.29452121 0.043438554
0.23028627 0.29464722 0.044803739
-0.23064893 0.32144141 0.041473031
0.23015279 0.32155764 0.042636037
-0.23070171 0.34862536 0.042234898
0.23020343 0.34875721 0.043458581
-0.23089083 0.37604797 0.044964552
0.230389 0.37622213 0.046471477
-0.2311876 0.40370435 0.04924798
0.23068774 0.40395993 0.051323056
-0.23172024 0.43187207 0.056935906
-0.20439237 0.51326692 0.055197477
0.20375599 0.5133726 0.055884838
-0.1770892 0.56738079 0.053420782
0.1763605 0.56712788 0.051927924
0.1487882 0.59251589 0.041793823
-0.068151891 0.67474878 0.046391129
0.067548729 0.67478096 0.046551943
-0.013940426 0.70371884 0.055197597
0.013266997 0.70363486 0.054793715
0.013266997 -0.79718792 0.076067805
-0.23238049 -0.74052989 0.066465855
0.23122787 -0.41231322 0.060093284
0.23122787 -0.38506806 0.060093284
0.23122787 -0.35782295 0.060093284
0.23122787 -0.33057791 0.060093284
0.23122787 -0.30333275 0.060093284
0.23122787 -0.27608758 0.060093403
0.23122787 -0.24884252 0.060093284
0.23122787 -0.22159743 0.060093403
0.23122787 -0.19435234 0.060093403
0.23122787 -0.16710725 0.060093284
0.23122787 -0.13986216 0.060093284
0.23122787 -0.11261708 0.060093284
0.23122787 -0.085371941 0.060093284
0.23122787 -0.05812674 0.060093284
0.23122787 -0.030881599 0.060093284
0.23122913 -0.0036363471 0.06011343
0.23122913 0.02360896 0.060113668
0.23122913 0.05085405 0.060113668
0.23122913 0.078099467 0.060113549
0.23122913 0.10534461 0.060113668
0.23122913 0.13258997 0.060113549
0.23122913 0.15983528 0.060113668
0.23122913 0.18708037 0.060113668
0.23122913 0.21432589 0.060113668
0.23122913 0.24157096 0.060113668
0.23120542 0.43223757 0.059728742
-0.23258916 0.46083063 0.069477558
0.23187605 0.46098858 0.070618391
-0.20550407 0.54339236 0.073249221
0.20483257 0.54381502 0.0758636
-0.15045294 0.62399817 0.065490246
0.14962913 0.62365657 0.063642263
-0.12299208 0.65041387 0.060964704
0.12230548 0.65060884 0.061978459
-0.095840842 0.67831922 0.064230919
0.095075846 0.6781283 0.063276649
-0.041227281 0.70479119 0.060356736
0.040511638 0.70472372 0.060032487
-0.068765089 0.70740718 0.072943211
0.067970447 0.70761496 0.073943377
-0.041404411 0.7891894 0.071862102
-0.014029205 0.78800428 0.066730261
0.013266997 0.7879433 0.066465855
0.040596113 0.78899175 0.071005702
-0.014056781 0.81615555 0.070312738
0.013266997 0.81610203 0.070088506
-0.041463822 0.81744593 0.075720549
0.040626429 0.81726068 0.0749439
-0.041472629 0.84495234 0.076292872
-0.01406086 0.84360993 0.070842624
0.013266997 0.84355456 0.070618272
0.040630989 0.84476608 0.075536489
-0.01406494 0.87107235 0.07137239
0.013266997 0.87101549 0.071148396
-0.04148113 0.87246233 0.07684505
0.040635396 0.87227535 0.076108932
-0.014069019 0.89854288 0.071902752
0.013266997 0.89848423 0.0716784
0.040639803 0.89979368 0.076681376
-0.014073104 0.92602187 0.072433233
0.013266997 0.92596149 0.072208643
0.040644366 0.92732626 0.077274442
-0.014077187 0.95350897 0.072963715
0.013266997 0.95344681 0.072739244
-0.014089132 0.98129505 0.074515224
0.013266997 0.98122519 0.074270129
-0.069039322 -0.82650959 0.084818244
-0.041514844 -0.79782724 0.079034328
-0.01414727 -0.79848099 0.08206749
-0.23406824 0.49127048 0.090826631
0.23288724 0.49071652 0.087038159
-0.17843081 0.59898257 0.078318
0.17763048 0.59917831 0.079423547
-0.12428522 0.68438989 0.094561219
0.12325601 0.68404698 0.092847705
-0.041710995 0.73881024 0.09177494
-0.014161645 0.73712039 0.083935022
0.013266997 0.73708946 0.083791256
0.040752977 0.73872572 0.0913831
-0.041751981 0.76689345 0.094437361
-0.014191868 0.76542538 0.087860942
0.013266997 0.76540703 0.087778568
0.04077442 0.76683372 0.094168782
-0.06899333 0.79172164 0.082826614
0.068116382 0.79185921 0.083421707
-0.069098674 0.82023036 0.087387681
0.068178393 0.82024503 0.087449431
-0.069113873 0.84784764 0.088046074
0.068187259 0.84784245 0.08802557
-0.069128618 0.87546998 0.088684201
0.068196133 0.87544906 0.088601828
-0.069143824 0.90310764 0.089343071
-0.041489944 0.89998639 0.077417731
0.068205327 0.90306985 0.089198947
-0.069159053 0.93075556 0.090002418
-0.041498452 0.92751366 0.077970147
0.068214208 0.93069458 0.089775681
-0.069173805 0.95840788 0.09064126
-0.041507274 0.95505536 0.078543067
0.040648777 0.95486248 0.077847242
0.068223089 0.95832789 0.090352535
-0.041542597 0.98309594 0.08083725
0.040666431 0.98289758 0.080140591
0.068299018 0.98721081 0.095284343
0.0408471 -0.83070451 0.10361028
-0.26266673 -0.66552925 0.10533416
0.2617327 -0.66584951 0.10714281
-0.26266673 -0.63793582 0.10533416
0.2617327 -0.63824213 0.10714281
-0.26266673 -0.6103425 0.10533404
0.2617327 -0.61063486 0.10714281
-0.26266673 -0.58274919 0.10533416
0.2617327 -0.58302754 0.10714281
-0.26266673 -0.55515575 0.10533404
0.2617327 -0.55542028 0.10714281
-0.26266673 -0.52756244 0.10533416
0.2617327 -0.52781308 0.10714293
-0.26266673 -0.49996901 0.10533404
0.2617327 -0.50020576 0.10714293
-0.26266673 -0.47237569 0.10533428
0.26173413 -0.472601 0.10716367
-0.26323417 -0.44563341 0.11270523
-0.26282838 0.27282333 0.10743427
0.26189417 0.27299607 0.10947418
-0.26236632 0.29987842 0.10143185
0.26140454 0.29996842 0.1024065
-0.26218927 0.3272115 0.099131942
0.26121497 0.32726532 0.099670172
-0.26228812 0.35489541 0.10041606
0.26132119 0.35498047 0.10120368
-0.26275632 0.38315332 0.10649812
0.26183936 0.38340563 0.10868287
-0.20760545 0.57651752 0.10737169
0.20639038 0.57607758 0.10477304
-0.1520326 0.65786666 0.099690914
0.15106611 0.65811378 0.10097587
-0.09685497 0.7124418 0.097165585
0.095884271 0.7126739 0.098282933
-0.069600075 0.74254435 0.10909939
0.068507865 0.74249041 0.10884941
-0.069600075 0.77016658 0.10909927
0.068507865 0.77011085 0.10884941
-0.097032331 0.79636323 0.10292542
0.096018337 0.79663169 0.10408795
-0.097216018 0.82536161 0.10889101
0.096134067 0.82541144 0.10909927
-0.097242311 0.85319275 0.10974479
0.096149936 0.85320312 0.10978639
-0.097268619 0.88103712 0.11059928
0.096166305 0.88101083 0.11049473
-0.097294934 0.90889478 0.11145365
0.096182667 0.90882939 0.11120355
-0.097321905 0.93677121 0.11232972
0.096199043 0.93665886 0.11191261
-0.09734825 0.96465564 0.11318505
0.096215419 0.96449941 0.1126219
-0.069308244 0.98754627 0.096462488
-0.042280734 -0.83632368 0.1287806
0.013266997 -0.83626735 0.12852776
0.2623235 -0.44597578 0.11567044
-0.2642433 -0.4193961 0.12581444
0.26342592 -0.42001772 0.13158262
-0.2642433 -0.39164501 0.12581432
0.26342738 -0.39222437 0.13160372
-0.2642433 -0.3638941 0.12581456
0.26342738 -0.36442876 0.1316036
-0.2642433 -0.33614308 0.12581456
0.26342738 -0.33663327 0.13160372
-0.2642433 -0.30839205 0.12581456
0.26342738 -0.30883759 0.1316036
-0.2642417 -0.28063944 0.12579346
0.26342738 -0.28104204 0.13160372
-0.2642417 -0.25288868 0.12579358
0.26342738 -0.25324643 0.13160372
-0.2642417 -0.22513774 0.12579346
0.26342738 -0.22545083 0.13160372
-0.2642417 -0.19738686 0.12579346
0.26342738 -0.19765525 0.13160372
-0.2642417 -0.16963594 0.12579346
0.26342738 -0.16985962 0.13160372
-0.2642417 -0.1418851 0.12579358
0.26342738 -0.14206398 0.1316036
-0.2642417 -0.11413423 0.12579346
0.26342738 -0.11426845 0.13160372
-0.2642417 -0.086383358 0.12579346
0.26342738 -0.086472809 0.13160372
-0.2642417 -0.05863253 0.12579334
0.26342738 -0.058677346 0.13160372
0.26342738 -0.030881653 0.1316036
-0.2642417 -0.030881599 0.12579346
-0.2642417 -0.0031307209 0.12579346
0.26342738 -0.0030860174 0.13160372
-0.2642417 0.024620101 0.12579346
0.26342738 0.024709508 0.1316036
-0.2642417 0.052370869 0.12579358
0.26342738 0.052505091 0.13160372
-0.2642417 0.080121912 0.12579346
0.26342738 0.080300778 0.13160372
-0.2642417 0.10787268 0.12579346
0.26342738 0.10809642 0.13160372
-0.2642417 0.13562362 0.12579346
0.26342738 0.13589194 0.13160372
-0.2642417 0.16337432 0.12579358
0.26342738 0.16368757 0.13160372
-0.2642417 0.19112536 0.12579346
0.26342738 0.19148321 0.13160372
-0.2642417 0.2188762 0.12579346
0.26342738 0.21927868 0.13160372
-0.2642417 0.24662702 0.12579334
0.26342738 0.24707438 0.13160372
-0.26347691 0.41190869 0.11585855
0.2626265 0.41242415 0.12004411
-0.23598658 0.52301514 0.11851513
0.23498182 0.52340537 0.12104976
-0.18064992 0.63397634 0.11949933
0.17935197 0.63345814 0.11669493
-0.014543055 -0.83737302 0.13348114
0.26465759 -0.70125651 0.1493603
-0.26516372 0.44245046 0.13777113
0.26374918 0.44225144 0.13624847
-0.098085754 0.74858773 0.13713658
0.096795239 0.7487154 0.13772881
-0.098085754 0.77642578 0.13713658
0.096794754 0.77655339 0.13770771
-0.12616697 0.80572224 0.14345038
0.12476321 0.80533999 0.14179564
0.23771974 -0.73229653 0.16550815
0.26590741 -0.73266053 0.16739964
-0.12686977 0.72585684 0.16170955
0.12549073 0.72662842 0.1654222
-0.12667283 0.78076923 0.15659297
0.12522016 0.78077894 0.15663564
-0.12656675 0.83608764 0.15383708
0.12513992 0.83613342 0.15402949
-0.12662183 0.86440676 0.15526783
0.12519252 0.8645227 0.155738
-0.12667775 0.89275372 0.15672135
0.12524453 0.89293295 0.15742683
-0.12673292 0.92111772 0.15815425
0.12529594 0.92136425 0.159096
-0.12678894 0.94951004 0.15960979
0.12534736 0.94982159 0.16076648
-0.12686151 0.97804374 0.16149521
0.12542726 0.97856075 0.16336107
0.23884059 -0.76399606 0.18370879
0.21152946 -0.79560834 0.20014286
-0.26948389 -0.7094838 0.19389176
0 0 0 1 0 0 0 1 0 0 0 1 0 0 0 0 0 1158 1 0 0
