ply
format ascii 1.0
comment PCL generated
element vertex 789
property float x
property float y
property float z
element camera 1
property float view_px
property float view_py
property float view_pz
property float x_axisx
property float x_axisy
property float x_axisz
property float y_axisx
property float y_axisy
property float y_axisz
property float z_axisx
property float z_axisy
property float z_axisz
property float focal
property float scalex
property float scaley
property float centerx
property float centery
property int viewportx
property int viewporty
property float k1
property float k2
end_header
-0.034921248 -0.86407584 -0.4345907
-0.010273679 -0.86199105 -0.44191015
0.0142612 -0.86199546 -0.44189441
0.038852669 -0.86408472 -0.43455923
-0.059911028 -0.86899143 -0.41733253
0.063711323 -0.86902767 -0.41720498
-0.035121482 -0.84308875 -0.42158508
-0.010373094 -0.84103507 -0.42899585
0.0142612 -0.84104377 -0.42896426
0.038952909 -0.84310204 -0.4215374
-0.010473439 -0.81991285 -0.41596055
0.0142612 -0.81991714 -0.41594446
-0.060219839 -0.84797299 -0.4039607
0.063917458 -0.84801316 -0.40381598
-0.035323851 -0.82193881 -0.40844107
0.039054096 -0.82195181 -0.40839291
-0.035568241 -0.80130106 -0.39256716
-0.010574608 -0.79861796 -0.40281856
0.0142612 -0.79861796 -0.40281856
0.039176419 -0.80131793 -0.39250255
-0.060587831 -0.9022882 -0.38802648
-0.035638154 -0.9022882 -0.38802648
-0.010688477 -0.9022882 -0.38802648
0.0142612 -0.9022882 -0.38802648
0.039210878 -0.9022882 -0.38802648
0.064160556 -0.9022882 -0.38802648
-0.060531236 -0.82677889 -0.39047682
0.064125076 -0.82681829 -0.39033091
-0.035818074 -0.78050858 -0.37634003
-0.010716387 -0.77846086 -0.38440073
0.0142612 -0.77846086 -0.38440073
0.039301217 -0.78052098 -0.37629092
-0.06104251 -0.80764258 -0.36833799
0.064465702 -0.80767703 -0.36820626
-0.061359689 -0.78603035 -0.35460377
0.064677171 -0.78606397 -0.35447121
-0.036025442 -0.75878686 -0.36287117
-0.010819429 -0.75678068 -0.37101507
0.0142612 -0.75677657 -0.37103152
0.039404903 -0.75879908 -0.36282182
-0.010923325 -0.73492068 -0.35751867
0.0142612 -0.73491293 -0.35755157
-0.061679557 -0.76423526 -0.3407532
0.064890169 -0.76426405 -0.34063625
-0.036234532 -0.73688436 -0.34929049
0.039509449 -0.73689628 -0.34924054
-0.036445368 -0.71479893 -0.3355962
-0.011027957 -0.71287525 -0.34392655
0.0142612 -0.71287131 -0.34394324
0.039614871 -0.71481067 -0.33554602
-0.062001742 -0.74225092 -0.32680202
0.065105237 -0.74228311 -0.32666719
-0.03665797 -0.69252843 -0.32178736
-0.011133461 -0.69064564 -0.33022106
0.0142612 -0.69064194 -0.33023798
0.039721176 -0.69253975 -0.32173645
-0.01123985 -0.66822988 -0.31640089
0.0142612 -0.66822618 -0.31641781
-0.011299415 -0.95106447 -0.30866325
0.0142612 -0.95106447 -0.30866325
-0.062327072 -0.72008324 -0.31271517
0.065321878 -0.72011083 -0.31259584
-0.062655188 -0.69772559 -0.29850721
0.065540634 -0.69775242 -0.29838717
-0.036872365 -0.67007047 -0.30786192
0.039828379 -0.67008138 -0.30781066
-0.011347135 -0.64562559 -0.30246413
0.0142612 -0.64562559 -0.30246413
-0.062985718 -0.67517179 -0.28419459
0.065761283 -0.67520159 -0.28405619
-0.037088577 -0.64742255 -0.29381871
0.039936487 -0.64743316 -0.29376733
-0.037306614 -0.62458211 -0.27965629
-0.011455324 -0.62283009 -0.28840983
0.0142612 -0.62283361 -0.28839254
0.040045511 -0.62459248 -0.27960443
-0.063319519 -0.65242702 -0.26974082
0.065983556 -0.65245241 -0.26961863
-0.037526518 -0.60154706 -0.26537311
-0.011564433 -0.59984136 -0.2742362
0.0142612 -0.59984815 -0.27420127
0.040155463 -0.60155708 -0.26532078
-0.01167461 -0.57665992 -0.25992417
0.0142612 -0.57666302 -0.25990665
-0.063655801 -0.62948126 -0.25517917
0.066208035 -0.62950933 -0.2550385
-0.063995428 -0.60633904 -0.24047315
0.066434197 -0.606363 -0.24034882
-0.037748307 -0.57831466 -0.25096786
0.040266361 -0.57832432 -0.25091481
-0.011785588 -0.5532766 -0.24550736
0.0142612 -0.55328292 -0.24547184
-0.037953924 -0.34581384 -0.23761237
-0.011824206 -0.34548157 -0.24049079
0.0142612 -0.34548157 -0.24049079
0.0403689 -0.34581599 -0.23759472
-0.037942428 -0.31962594 -0.23835909
-0.01181833 -0.31931394 -0.24125397
0.0142612 -0.31931585 -0.24123609
0.040363014 -0.31962594 -0.23835909
-0.037969537 -0.29370031 -0.23659861
-0.011829264 -0.29337651 -0.23983383
0.0142612 -0.29337651 -0.23983383
0.04037657 -0.29370031 -0.23659861
-0.064338028 -0.58299434 -0.22563827
0.06666261 -0.58301735 -0.22551286
-0.037972003 -0.55488241 -0.23643839
0.040378213 -0.55489182 -0.23638499
-0.038197633 -0.53124762 -0.2217834
-0.011897662 -0.52969557 -0.23094869
0.0142612 -0.52969843 -0.23093057
0.04049103 -0.53125674 -0.22172952
-0.038265701 -0.42694253 -0.21736228
-0.011973054 -0.42641711 -0.22115505
0.0142612 -0.42641711 -0.22115505
0.040524926 -0.42694753 -0.21732628
-0.064497992 -0.40050247 -0.21871138
-0.038126156 -0.39949298 -0.22642589
-0.011912101 -0.39914659 -0.22907293
0.0142612 -0.39914659 -0.22907293
0.040455151 -0.39949769 -0.22639012
0.066767603 -0.40050495 -0.21869349
-0.064337201 -0.37339193 -0.22567391
-0.03802713 -0.37250713 -0.23285794
-0.011862664 -0.37218237 -0.23549485
0.0142612 -0.37218237 -0.23549485
0.040405501 -0.37250927 -0.23283994
0.066660687 -0.37339637 -0.22563803
-0.090655908 -0.34763968 -0.2218014
-0.064218685 -0.34659985 -0.23080599
0.066581398 -0.34660196 -0.23078799
0.09294986 -0.34764376 -0.22176552
-0.090605639 -0.32123441 -0.22343397
0.09291216 -0.32123831 -0.22339809
-0.064180769 -0.32026297 -0.2324475
0.066556394 -0.32026693 -0.23241198
-0.090691842 -0.29529792 -0.22063434
-0.064219505 -0.29428354 -0.23077011
0.066582501 -0.2942889 -0.23071647
0.092976816 -0.29530141 -0.22059834
-0.064323969 -0.26854119 -0.22624671
-0.038047727 -0.26805407 -0.23151982
-0.011868422 -0.26775596 -0.23474717
0.0142612 -0.26775596 -0.23474717
0.040415805 -0.26805577 -0.23150206
0.066651866 -0.2685445 -0.22621107
-0.038183261 -0.24264516 -0.22271657
-0.011932892 -0.24233551 -0.22637224
0.0142612 -0.24233551 -0.22637224
0.040483572 -0.24264665 -0.22269869
-0.064683631 -0.55944419 -0.21067286
0.066893034 -0.55946672 -0.21054626
-0.038405988 -0.50720596 -0.20825016
-0.012008901 -0.50587255 -0.21649837
0.0142612 -0.50587553 -0.21648026
0.040595073 -0.50721192 -0.20821404
-0.038474601 -0.48155862 -0.20379376
-0.012057361 -0.48057187 -0.21020305
0.0142612 -0.48057187 -0.21020305
0.040629242 -0.48156118 -0.20377564
-0.064969629 -0.4559958 -0.1982888
0.067082591 -0.45600373 -0.19823408
-0.038400419 -0.45448589 -0.20861185
-0.012031791 -0.4537673 -0.21352494
0.0142612 -0.4537673 -0.21352494
0.040592287 -0.45449126 -0.20857573
-0.064709097 -0.42802233 -0.20957041
0.066908345 -0.42802474 -0.20955241
-0.09109547 -0.4019663 -0.20752645
0.093280375 -0.40197584 -0.20745385
-0.11765863 -0.376344 -0.20170641
-0.090823635 -0.37453985 -0.21635437
0.09307608 -0.37454647 -0.21630037
0.11979875 -0.37635061 -0.20165205
-0.11746879 -0.34939036 -0.20663917
0.11964741 -0.34939879 -0.20656693
-0.11732674 -0.3226468 -0.21032941
0.11953322 -0.32265261 -0.21027529
-0.11744091 -0.296626 -0.20736349
0.11962511 -0.29663312 -0.20729113
-0.11757341 -0.2706036 -0.2039206
-0.090831399 -0.26947829 -0.21610212
0.093081482 -0.26948169 -0.216066
0.11973168 -0.27061203 -0.20383
-0.091153458 -0.24409084 -0.20564306
0.093323454 -0.24409546 -0.20558858
-0.064533725 -0.24311526 -0.21716428
0.066791698 -0.24311824 -0.21712828
-0.064804815 -0.21775387 -0.20542538
-0.038366463 -0.21733879 -0.21081722
-0.012024573 -0.21705817 -0.2144624
0.0142612 -0.21705817 -0.2144624
0.040575173 -0.21734025 -0.2107991
0.066972435 -0.21775664 -0.20538938
-0.012128224 -0.19170535 -0.20099795
0.0142612 -0.19170535 -0.20099795
-0.065031879 -0.53568304 -0.19559336
0.067125499 -0.53570777 -0.19544744
-0.065241627 -0.51072025 -0.18651116
0.067265622 -0.51074702 -0.18634617
-0.065162577 -0.48369235 -0.18993413
0.067211226 -0.48370069 -0.1898793
-0.091900773 -0.45846987 -0.18137312
0.093884379 -0.4584806 -0.18129981
-0.091453925 -0.4299185 -0.19588506
0.093548805 -0.42992616 -0.19583035
-0.11804986 -0.40405801 -0.19154251
0.12011286 -0.40407008 -0.19145107
-0.14500977 -0.37892312 -0.18076658
0.14699055 -0.37893441 -0.18067455
-0.14464888 -0.35147569 -0.18858027
0.14668979 -0.35148627 -0.18848884
-0.14450194 -0.32464787 -0.19176173
0.14656663 -0.32465565 -0.19168866
-0.14464888 -0.29850569 -0.18858039
0.14668907 -0.29851297 -0.18850708
-0.14494528 -0.27261353 -0.18216324
0.14693609 -0.2726202 -0.18208969
-0.11801399 -0.24520595 -0.19247389
0.12008361 -0.24521215 -0.19240105
-0.11845683 -0.21963657 -0.18096876
-0.09151905 -0.21865119 -0.19376981
0.093597658 -0.21865536 -0.1937151
0.12043846 -0.21964364 -0.18087685
-0.09197779 -0.1932383 -0.17887199
-0.065128803 -0.19237053 -0.19139636
-0.038577572 -0.191975 -0.19710541
0.040680725 -0.1919762 -0.19708729
0.067188717 -0.19237432 -0.1913414
0.093941718 -0.19324201 -0.1788168
-0.038819786 -0.16652448 -0.18137312
-0.012249055 -0.16628256 -0.1853013
0.0142612 -0.16628256 -0.1853013
0.040801693 -0.16652448 -0.18137312
-0.092462815 -0.48782068 -0.16312015
0.094307646 -0.48784339 -0.16297174
-0.11863466 -0.43262556 -0.17634892
0.12058072 -0.43263832 -0.17625678
-0.14557901 -0.40708104 -0.16844237
0.14746495 -0.40709326 -0.16834974
-0.1725629 -0.35453787 -0.1620611
0.1744013 -0.35455075 -0.16194963
-0.17251985 -0.32776257 -0.16286016
0.17436695 -0.32778057 -0.16269302
-0.17253186 -0.30110192 -0.16263723
0.17437555 -0.30111495 -0.16250718
-0.14547901 -0.24705748 -0.17060733
0.14738162 -0.24706541 -0.17051482
-0.11907381 -0.19420363 -0.1649394
0.12093206 -0.19420996 -0.16484666
-0.092470258 -0.16766346 -0.16287875
-0.065495469 -0.16688503 -0.17551923
0.067433164 -0.16688846 -0.1754638
0.094310649 -0.16766575 -0.16284144
-0.065865539 -0.14116289 -0.15949488
-0.039064236 -0.14083964 -0.16549575
-0.012370999 -0.14062592 -0.1694603
0.0142612 -0.14062592 -0.1694603
0.04092392 -0.14083964 -0.16549575
0.067679882 -0.14116588 -0.15943897
-0.11945048 -0.46230483 -0.15515304
0.12123457 -0.46232408 -0.15502226
-0.14653048 -0.43657562 -0.14784229
0.14826004 -0.4365963 -0.14769256
-0.17317677 -0.38263017 -0.1506691
0.17493096 -0.38265318 -0.15048218
-0.1730267 -0.27526557 -0.15345407
0.17479973 -0.27527753 -0.15332365
-0.17360513 -0.24941908 -0.14271975
0.17529556 -0.24943011 -0.14258826
-0.14608604 -0.22144584 -0.15746498
0.14788748 -0.22145303 -0.157372
-0.14684437 -0.19585884 -0.14104652
0.14851946 -0.19586533 -0.14095247
-0.11970302 -0.16854332 -0.14859176
0.12143547 -0.16854906 -0.14849806
-0.092966728 -0.1418494 -0.14675546
0.094683446 -0.14185238 -0.14669919
-0.066239059 -0.11520103 -0.14332092
-0.039310943 -0.11491695 -0.14947176
-0.01249407 -0.11473209 -0.1534729
0.0142612 -0.11473209 -0.1534729
0.041047271 -0.11491695 -0.14947176
0.06792862 -0.11520275 -0.14328337
-0.093327597 -0.51904172 -0.13503587
0.094959334 -0.51908743 -0.13475275
-0.17406598 -0.41156647 -0.13416743
0.17569323 -0.41159126 -0.13397837
-0.20170738 -0.33214551 -0.12219191
0.20324396 -0.33216599 -0.12200165
-0.17444734 -0.22378422 -0.12709045
0.17601925 -0.22379731 -0.12691975
-0.14760904 -0.17002749 -0.12449086
0.14915673 -0.17003323 -0.12439597
-0.12033823 -0.14263977 -0.1320889
0.12194365 -0.14264476 -0.13199449
-0.09346842 -0.11579493 -0.13046217
0.09505973 -0.11579756 -0.13040543
-0.066615641 -0.088995188 -0.12701452
-0.039559942 -0.088753387 -0.13329864
-0.012618284 -0.088597983 -0.13733697
0.0142612 -0.088597983 -0.13733697
0.041171771 -0.088753387 -0.13329864
0.068179965 -0.088997424 -0.12695765
-0.012743657 -0.062219907 -0.1210506
0.0142612 -0.062219907 -0.1210506
-0.12082316 -0.49453795 -0.11948967
0.12233455 -0.49456722 -0.11929929
-0.14816435 -0.46854812 -0.112468
0.1496232 -0.46857607 -0.11227679
-0.20289654 -0.38851595 -0.10288227
0.20429079 -0.3885538 -0.10257471
-0.20212503 -0.35992464 -0.11540985
0.20360842 -0.35994458 -0.11523795
-0.20181634 -0.30532652 -0.1204226
0.2033475 -0.30536076 -0.12007999
-0.20232858 -0.27908528 -0.11210454
0.20379478 -0.2791152 -0.11177945
-0.17537551 -0.19801912 -0.1098659
0.17681403 -0.19802968 -0.1097126
-0.14838189 -0.14395079 -0.10775828
0.14980079 -0.14395602 -0.10766256
-0.12097946 -0.11648931 -0.11542892
0.12245608 -0.11649293 -0.11535251
-0.093974844 -0.089495555 -0.11401582
0.095439553 -0.089497745 -0.1139586
-0.066996194 -0.06254375 -0.11053574
-0.039811272 -0.062345434 -0.11697423
0.041297436 -0.062345434 -0.11697423
0.06843368 -0.062545463 -0.11047852
-0.012870205 -0.03559475 -0.10461152
0.0142612 -0.03559475 -0.10461152
-0.17599764 -0.44343761 -0.098320365
0.17735356 -0.44347754 -0.098031282
-0.20311458 -0.25309223 -0.099341631
0.20448266 -0.25311995 -0.099014044
-0.17631285 -0.17199939 -0.092470884
0.17761752 -0.17200895 -0.092316151
-0.14916216 -0.11762379 -0.090865254
0.15045105 -0.11762838 -0.090768456
-0.12162609 -0.090087906 -0.098628521
0.12297402 -0.090091527 -0.098532319
-0.094486035 -0.06294778 -0.097414255
0.095822521 -0.062948927 -0.097375751
-0.067380361 -0.035842005 -0.093901396
-0.040064957 -0.035689767 -0.10049701
0.041424278 -0.035689767 -0.10049701
0.068689503 -0.035842981 -0.093862414
-0.040320735 -0.0087823644 -0.083883762
-0.012997794 -0.0087184832 -0.088037133
0.0142612 -0.00871877 -0.088017702
0.04155232 -0.0087827109 -0.083864212
-0.20428336 -0.22738115 -0.080363035
0.20550552 -0.22740673 -0.08003211
-0.17725846 -0.14572014 -0.0749228
0.17842902 -0.14572956 -0.074746966
-0.14994903 -0.09104234 -0.073828697
0.15110682 -0.09104614 -0.073731065
-0.12227972 -0.063433275 -0.081647635
0.12349692 -0.063436255 -0.081550241
-0.12293963 -0.036520984 -0.064502478
-0.095001489 -0.036147568 -0.080674648
0.096209563 -0.036148775 -0.080616236
0.12402489 -0.036523227 -0.06440413
-0.095522448 -0.0090922974 -0.063755751
-0.067768171 -0.0088868067 -0.077108622
0.068948045 -0.0088873804 -0.07706964
0.096600302 -0.009093333 -0.063696742
-0.040579237 0.018379359 -0.067093611
-0.013126743 0.018411588 -0.071286559
0.0142612 0.018411415 -0.07126689
0.041681569 0.018379129 -0.067073941
-0.20546477 -0.20139229 -0.06117928
0.20653945 -0.20141533 -0.060844898
-0.17821455 -0.11917971 -0.05717957
0.17924771 -0.119187 -0.057021856
-0.15074444 -0.064204216 -0.056607485
0.1517697 -0.06420733 -0.056508899
-0.12360519 -0.0093470216 -0.047210336
0.12455737 -0.0093486309 -0.047111273
-0.096048407 0.018222066 -0.046674609
-0.068159677 0.018325932 -0.060155749
0.069209062 0.018325588 -0.060116291
0.096994326 0.018221779 -0.046635151
-0.040840194 0.045799486 -0.050143838
0.041812051 0.045799486 -0.050123811
-0.013256914 0.045799542 -0.054376602
0.0142612 0.045799542 -0.054376602
-0.20665903 -0.17512079 -0.041787148
0.2075846 -0.17514159 -0.041448951
-0.17918023 -0.092372894 -0.039258718
0.18007551 -0.092378989 -0.039099336
-0.1515476 -0.037104826 -0.039218903
0.15243903 -0.0371073 -0.039119124
-0.12427801 0.01809166 -0.029729962
0.12509567 0.018090855 -0.029629707
-0.096578814 0.045799486 -0.029449344
-0.068554483 0.045799486 -0.043059945
0.069472574 0.045799486 -0.04300034
0.097392596 0.045799542 -0.029389381
-0.068953551 0.073537812 -0.025779843
-0.04110365 0.073481917 -0.033031821
-0.013388329 0.07344906 -0.037305355
0.0142612 0.07344906 -0.037305355
0.041943781 0.073482089 -0.033011913
0.069738634 0.073538214 -0.025719523
-0.20786633 -0.1485621 -0.022182941
0.20864122 -0.14858058 -0.021841049
-0.18015568 -0.065295845 -0.021157146
0.18091168 -0.065300897 -0.020995975
-0.15235859 -0.0097403675 -0.02165997
0.1531149 -0.009741921 -0.021559358
0.12563923 0.045799427 -0.011976719
-0.12495746 0.045799542 -0.012077928
-0.097114958 0.07364352 -0.012037396
0.097794726 0.073643923 -0.011976719
-0.069356494 0.10154466 -0.0083320141
-0.041369639 0.10143028 -0.015755296
-0.013521005 0.10136387 -0.020069957
0.0142612 0.10136387 -0.020069957
0.042076774 0.10143068 -0.015734911
0.070007265 0.10154546 -0.0082713366
-0.20908688 -0.12171161 -0.0023633242
0.20970941 -0.12172753 -0.0020177364
-0.18113989 -0.037943799 -0.0028921366
0.1817563 -0.037948053 -0.0027091503
-0.15317664 0.017893119 -0.0039489269
0.15379664 0.017892372 -0.0038473606
0.1544859 0.045799427 0.01406014
-0.15400369 0.045799542 0.0139575
-0.12564278 0.073780417 0.0057276487
0.12618753 0.073780991 0.0058298111
-0.097656332 0.10175836 0.005543828
0.098200761 0.10175917 0.0056052208
-0.069763348 0.12982403 0.0092852116
-0.041638196 0.12964864 0.0016878843
-0.013654963 0.12954806 -0.0026684999
0.0142612 0.12954806 -0.0026684999
0.042211056 0.1296491 0.0017081499
0.070278198 0.12982489 0.0093262196
-0.21032223 -0.094565108 0.017695785
0.21078831 -0.094577014 0.018004298
-0.18213524 -0.010313757 0.015579343
0.1826086 -0.010316286 0.015743494
-0.15483896 0.073982865 0.032041669
0.15518199 0.07398355 0.032145381
-0.1263357 0.10203819 0.02373004
0.12674189 0.1020398 0.023833036
-0.098202974 0.13014776 0.023296833
0.098610289 0.13014844 0.02333796
-0.07017418 0.15838002 0.027075171
-0.041909356 0.15814058 0.019300342
-0.013790219 0.15800506 0.014901638
0.0142612 0.15800506 0.014901638
0.042346638 0.15814121 0.019320726
0.070552096 0.15838128 0.027116418
-0.01392663 0.18673857 0.032622099
0.0142612 0.18673953 0.032642722
-0.21157001 -0.067116037 0.037957191
0.2118803 -0.067125797 0.038269162
-0.18314077 0.017599272 0.034239531
0.18347056 0.017598066 0.034405589
-0.15568161 0.10244711 0.050285339
0.15588504 0.10244906 0.050410867
-0.1270355 0.13057764 0.041911483
0.12730177 0.13057987 0.042016029
-0.098754354 0.15881513 0.04120326
0.099024311 0.15881702 0.041265965
-0.070588574 0.18721572 0.045018673
-0.042183157 0.18691039 0.03708446
0.042483378 0.18691039 0.03708446
0.070828684 0.18721819 0.045081139
-0.014064536 0.21575402 0.050536513
0.0142612 0.21575402 0.050536513
-0.21283174 -0.039360408 0.058445215
0.21298452 -0.03936765 0.058760524
0.1843414 0.045799486 0.05325973
-0.18415666 0.045799542 0.053092241
-0.15653367 0.13119693 0.068732858
0.15659432 0.1311994 0.068838716
-0.1277415 0.15940185 0.060253978
0.1278666 0.15940478 0.060359359
-0.099311806 0.18776585 0.059307337
0.099442415 0.18776821 0.059370399
-0.071007542 0.21633694 0.0631603
-0.042459644 0.21596198 0.055042624
0.042621624 0.21596198 0.055042624
0.071107998 0.21633993 0.06322372
-0.014203797 0.24505447 0.068627119
0.0142612 0.24505447 0.068627119
-0.21410765 -0.011292674 0.079163313
0.21410112 -0.011297558 0.079482317
-0.18518192 0.074291304 0.07211864
0.18522027 0.074292682 0.072288036
-0.15739432 0.16023646 0.087366462
0.15731157 0.16023979 0.087473512
-0.12845542 0.18851607 0.07880187
0.12843776 0.18852013 0.078908205
-0.099874802 0.21700345 0.077590823
0.099864177 0.21700546 0.077633262
-0.071430661 0.2457471 0.081482053
-0.042738855 0.24529965 0.073177814
0.042761229 0.24529965 0.073177814
0.071390092 0.24575052 0.081545949
-0.014344436 0.27464446 0.086896658
0.0142612 0.27464446 0.086896658
-0.21539797 0.01709212 0.10011566
0.21523035 0.017089592 0.10043812
-0.18621896 0.10307956 0.091364026
0.18610926 0.10308219 0.091535091
-0.15826367 0.18957023 0.10618865
0.15803608 0.18957432 0.10629654
-0.12917654 0.21792486 0.097537398
0.12901469 0.21792981 0.097644687
-0.10044273 0.24653137 0.096035004
0.10029063 0.24653485 0.096099138
-0.071858004 0.27545065 0.099986553
-0.043020826 0.27492747 0.091492414
0.042902213 0.27492747 0.091492414
0.071674995 0.27545479 0.10005128
-0.043305598 0.30485016 0.10998905
-0.01448647 0.30452856 0.10534787
0.0142612 0.30452856 0.10534787
0.043044601 0.30485016 0.10998905
0.21637242 0.045799427 0.1216321
-0.21670295 0.045799542 0.12130594
-0.18726689 0.13216873 0.11081076
0.18700755 0.13217263 0.11098349
-0.15914088 0.21920153 0.12518072
0.15876713 0.21920659 0.12528968
-0.12990417 0.24763091 0.11644125
0.12959681 0.24763682 0.11654961
-0.10101701 0.27635598 0.1146853
0.10072136 0.27635989 0.11475039
-0.072289631 0.30545205 0.11867666
0.071962424 0.30545497 0.11872017
-0.014629756 0.33470905 0.12396073
0.0142612 0.33471066 0.12398267
-0.04359322 0.33507162 0.12867045
0.043188412 0.33507162 0.12867045
-0.21802422 0.074835166 0.14276052
0.21752754 0.074837461 0.14306843
-0.18832579 0.16156356 0.13046145
0.18791425 0.16156816 0.1306144
-0.16002806 0.24913691 0.14438879
0.1595065 0.24914283 0.14449906
-0.13064003 0.27764162 0.13556004
0.13018556 0.27764827 0.13566935
-0.10159707 0.30648071 0.13352334
0.10115591 0.30648369 0.13356698
-0.072725609 0.33575547 0.137555
0.072253086 0.33575892 0.13759875
-0.043883391 0.36559486 0.14751756
-0.014774646 0.36519399 0.14278257
0.0142612 0.36519399 0.14278257
0.043333668 0.36559668 0.1475395
-0.21935929 0.10420451 0.16443968
0.21869713 0.10420968 0.1647737
-0.1893947 0.19126806 0.15029812
0.18883155 0.19127482 0.15047467
-0.16092438 0.2793802 0.16379452
0.16025347 0.27938715 0.16390574
-0.13138346 0.30795994 0.15487468
0.13078032 0.30796751 0.15498543
-0.10218231 0.3369081 0.15252972
0.10159536 0.33691341 0.152596
-0.073165484 0.36636409 0.15660226
0.072546683 0.36636972 0.15666866
-0.044176828 0.39642775 0.16657686
-0.014920996 0.39598584 0.16179419
0.0142612 0.39598584 0.16179419
0.043480385 0.39642969 0.16659915
-0.22070983 0.13391365 0.18636954
0.21988025 0.13392186 0.18672991
-0.19047615 0.2212885 0.17036724
0.1897586 0.22129677 0.1705457
-0.16182894 0.30993482 0.18337858
0.16100816 0.30994406 0.1835134
-0.13213369 0.33858928 0.17436635
0.13138056 0.33859789 0.17447829
-0.1027742 0.3676469 0.17175162
0.10203929 0.36765254 0.17181849
-0.073610358 0.39728573 0.17586553
0.072843269 0.39729199 0.17593265
-0.044473242 0.42757332 0.18582952
-0.015068828 0.42709002 0.18099809
0.0142612 0.42709002 0.18099809
0.043628596 0.42757574 0.18585193
-0.19156915 0.25162986 0.19065082
0.19069554 0.25163969 0.19083118
-0.16274391 0.34080809 0.20318854
0.16176982 0.34081677 0.20330203
-0.13289256 0.3695378 0.19408262
0.13198769 0.36954728 0.19419563
-0.10337211 0.39869934 0.19116974
0.10248775 0.39870566 0.19123733
-0.07405977 0.42852363 0.19532597
0.073142894 0.4285304 0.19539356
-0.044772677 0.45903665 0.20527852
-0.015218169 0.45851064 0.20039773
0.0142612 0.45851064 0.20039773
0.043778315 0.45903903 0.20530128
-0.22207607 0.16396812 0.20855463
0.22107594 0.16397937 0.20891881
-0.19267389 0.28229666 0.21115196
0.19164255 0.28230786 0.21133447
-0.16366844 0.37200382 0.22320545
0.16254032 0.37201354 0.22331989
-0.13365935 0.4008089 0.21400416
0.13260116 0.4008193 0.21411848
-0.10397618 0.43007088 0.21078718
0.10294029 0.43007571 0.21083283
-0.074513808 0.46008298 0.21498621
0.073445596 0.46009028 0.21505475
-0.045075186 0.4908224 0.22492683
-0.015368859 0.49025041 0.21997309
0.0142612 0.49025303 0.21999598
0.043929569 0.49082494 0.22494984
-0.22345828 0.19437414 0.23099887
0.22228688 0.19438925 0.23139071
-0.19379053 0.31329462 0.2318747
0.19259977 0.31330743 0.23205876
-0.1646027 0.40352735 0.24343252
0.1633189 0.40353781 0.24354827
-0.13443327 0.43240505 0.23411143
0.13322033 0.43241671 0.23422658
-0.10458577 0.4617638 0.23058438
0.10339803 0.46177152 0.23065329
-0.074972533 0.49196827 0.23484981
0.07375107 0.49197349 0.23489594
-0.045380805 0.52293557 0.24477768
-0.015521276 0.52231902 0.23977256
0.0142612 0.522322 0.2397958
0.044082385 0.52293855 0.24480093
-0.22485818 0.22513896 0.25373065
0.22351201 0.2251574 0.25412703
-0.19491804 0.34462699 0.25279832
0.19356631 0.34464136 0.252985
-0.16554572 0.4353812 0.2638495
0.16410661 0.43539774 0.26401365
-0.13521624 0.46433634 0.2544533
0.13384674 0.46434897 0.25457013
-0.1052024 0.49378806 0.25060987
0.10386051 0.4937962 0.25067973
-0.075436033 0.52418482 0.25491977
0.074060075 0.52419049 0.2549665
-0.015675269 0.55471951 0.25977719
0.0142612 0.55471951 0.25977719
-0.22646369 0.25643367 0.2798003
0.22502409 0.25656229 0.28218746
-0.19605912 0.37630293 0.27397418
0.19454446 0.37631881 0.27416265
-0.1360075 0.49660558 0.27501082
0.13447978 0.49661914 0.2751286
-0.10582546 0.52614611 0.27084446
0.10432728 0.52615196 0.27089155
-0.075903825 0.55673474 0.27517581
-0.045689594 0.55538124 0.26483393
0.044236779 0.55538428 0.26485741
0.074372306 0.55674386 0.2752465
-0.015830863 0.5874567 0.27998924
0.0142612 0.5874567 0.27998924
-0.19721271 0.40832621 0.29538226
0.19553335 0.40834379 0.29557276
-0.16652718 0.46763897 0.28509891
0.16492549 0.46765947 0.28528821
-0.13680625 0.5292154 0.29576313
0.13511883 0.52923012 0.29588211
-0.10645433 0.55884051 0.29126716
0.10479949 0.55884975 0.29133821
-0.076377071 0.58962905 0.29566789
-0.046001595 0.58816457 0.28509891
0.044392597 0.58816457 0.28509891
0.074687816 0.58963919 0.29573917
-0.015988085 0.62053585 0.30041265
0.0142612 0.62053585 0.30041265
-0.22902037 0.28908107 0.321316
-0.19837901 0.44070289 0.31702614
0.19653314 0.44072214 0.31721878
-0.16752052 0.5002538 0.30660534
0.16575427 0.50027865 0.30682087
-0.13761447 0.56217682 0.31676149
0.13576545 0.5621925 0.3168819
-0.10709055 0.59188229 0.31192899
0.10527667 0.59189224 0.31200099
-0.076855309 0.62287074 0.31637645
-0.046316862 0.6212911 0.30557609
0.044550233 0.6212911 0.30557609
0.075006649 0.62288129 0.31644845
-0.016146958 0.65396255 0.32105088
0.0142612 0.65396255 0.32105088
0.2272861 0.28925663 0.32416511
-0.19955696 0.47343582 0.33888602
0.19754402 0.47345936 0.33910513
-0.16852596 0.53323185 0.32837391
0.16659223 0.53325868 0.32859159
-0.13843139 0.59549296 0.33798552
0.13641901 0.59550959 0.33810735
-0.1077335 0.62527442 0.33280969
0.10575891 0.62528491 0.33288264
-0.077338628 0.65646505 0.33730435
-0.046635065 0.65476227 0.32624435
0.044709519 0.65476584 0.32626843
0.075328499 0.65647256 0.33735323
-0.20074934 0.50653625 0.36101389
-0.1695426 0.56657672 0.35038424
0.16743857 0.56660247 0.35057998
-0.13925619 0.62916571 0.35941458
0.13707967 0.62918735 0.35956216
-0.10838331 0.65902221 0.35391307
0.10624573 0.65902972 0.35396218
-0.077827096 0.69041753 0.35845566
-0.046957012 0.68859076 0.34715509
-0.016307317 0.68773836 0.34188247
0.0142612 0.68774223 0.34190679
0.044870492 0.68859464 0.34717965
0.075654157 0.6904254 0.35850501
-0.23163655 0.32243437 0.36379719
0.22957325 0.3226293 0.36660933
0.19856618 0.50656188 0.36123538
-0.17057058 0.60029495 0.37264109
0.16829532 0.60032225 0.37283897
-0.10904009 0.69313121 0.37524247
0.10673831 0.6931392 0.37529182
-0.078320801 0.72473407 0.37983394
-0.047282383 0.72277886 0.36828828
-0.016469568 0.72187632 0.36295938
0.0142612 0.72187632 0.36295938
0.045033183 0.72278303 0.36831307
0.075983293 0.72474253 0.37988329
-0.20195508 0.54000819 0.38338995
0.1995998 0.54003584 0.3836143
-0.17160898 0.63438845 0.39512324
0.16916169 0.63442129 0.39534855
-0.14009091 0.66320795 0.38110137
0.13774672 0.66322714 0.38122559
-0.10970315 0.72760355 0.3967762
0.10723621 0.72761619 0.39685154
-0.047611222 0.75733221 0.38964748
-0.016633552 0.75637871 0.38426161
0.0142612 0.75637871 0.38426161
0.045197412 0.75733221 0.38964748
-0.23432665 0.35653445 0.40747905
-0.20317446 0.57385749 0.4060185
0.20065439 0.57391363 0.4064467
-0.17266029 0.66887128 0.41788459
0.1700379 0.66890621 0.41811252
-0.14093477 0.69762266 0.40302539
0.13842183 0.69764292 0.40315104
-0.11037418 0.76245296 0.41856837
-0.078819253 0.75941628 0.40141726
0.076315992 0.75942969 0.4014926
0.10773949 0.76246643 0.41864419
-0.047943603 0.79225701 0.41123629
-0.016799293 0.7912513 0.40579224
0.0142612 0.7912513 0.40579224
0.045363601 0.79225701 0.41123629
-0.20451197 0.60835922 0.43083954
0.20180108 0.608419 0.43127298
-0.1417879 0.73241556 0.42518997
0.1391044 0.73243701 0.42531705
-0.079323679 0.79447854 0.42325974
0.076652296 0.79449242 0.42333579
-0.01701783 0.82777524 0.43418074
0.0142612 0.82777524 0.43418074
-0.20586604 0.64328772 0.45596766
0.20296194 0.64335179 0.45640635
-0.17372355 0.70374608 0.44090486
0.17092305 0.70377916 0.44110966
-0.14264947 0.7675885 0.44757438
0.13979369 0.76761144 0.44770288
-0.11109351 0.79792768 0.44192958
0.10827902 0.79794204 0.44200659
-0.048412211 0.82921714 0.44167328
0.045597907 0.82921714 0.44167328
-0.174799 0.73902017 0.46418858
0.17181934 0.73905522 0.46439576
-0.080246761 0.8333658 0.46323061
0.077269696 0.83340567 0.4634378
-0.20723835 0.67865539 0.48143506
0.20413849 0.67872381 0.48187923
-0.1761158 0.77557814 0.49269867
0.17292488 0.77565247 0.493119
-0.1439568 0.80524594 0.48153973
0.14084204 0.8052845 0.48174858
-0.20862651 0.71446258 0.50719547
0.20532979 0.71453947 0.50767159
-0.21107474 0.75399804 0.55262947
0.20747374 0.7542454 0.55408978
0 0 0 1 0 0 0 1 0 0 0 1 0 0 0 0 0 789 1 0 0
