ply
format ascii 1.0
comment PCL generated
element vertex 1292
property float x
property float y
property float z
element camera 1
property float view_px
property float view_py
property float view_pz
property float x_axisx
property float x_axisy
property float x_axisz
property float y_axisx
property float y_axisy
property float y_axisz
property float z_axisx
property float z_axisy
property float z_axisz
property float focal
property float scalex
property float scaley
property float centerx
property float centery
property int viewportx
property int viewporty
property float k1
property float k2
end_header
0.066308498 -0.36318368 -0.27347058
-0.045559205 -0.32589868 -0.27344733
-0.026909459 -0.32584071 -0.27377456
-0.008264753 -0.32578284 -0.27410191
0.010374916 -0.3257249 -0.27442896
0.029009547 -0.32566699 -0.27475607
0.047639143 -0.325609 -0.27508312
0.010374916 -0.30723426 -0.27356416
-0.10205457 -0.4030031 -0.26129603
-0.083058819 -0.40161264 -0.26798588
0.066457957 -0.40181774 -0.26699889
0.085117206 -0.40158093 -0.26813865
0.10402299 -0.40277004 -0.26241755
-0.10205566 -0.3842696 -0.26127243
-0.083059728 -0.38293064 -0.26796246
-0.064654522 -0.38476181 -0.2588132
0.066348761 -0.38217717 -0.27172714
0.085122995 -0.38293296 -0.26795071
0.10403026 -0.38407829 -0.26222855
-0.10205621 -0.36553341 -0.26126057
-0.083060183 -0.36424601 -0.26795071
-0.064529732 -0.36522454 -0.2628656
0.047893647 -0.36605459 -0.25855267
0.085128419 -0.36427993 -0.26777452
0.10403708 -0.36538124 -0.26205152
-0.10205676 -0.3467972 -0.26124859
-0.064405359 -0.34575218 -0.26690477
-0.045754585 -0.34610647 -0.26498699
-0.027039677 -0.34604558 -0.26531672
-0.0083298432 -0.3459847 -0.26564634
0.010374916 -0.34592372 -0.26597583
0.029074602 -0.34586298 -0.26630509
0.047769036 -0.34579986 -0.26664627
0.085134216 -0.34562621 -0.26758641
0.10404434 -0.34668365 -0.26186281
-0.08306063 -0.34556103 -0.26793903
0.06631282 -0.34457368 -0.27328348
-0.10212553 -0.3283222 -0.25975949
-0.08307872 -0.3269572 -0.26746905
-0.064213991 -0.32595664 -0.27311987
0.066316873 -0.32595876 -0.27310807
0.085152663 -0.32704252 -0.26698703
0.10409481 -0.32818198 -0.26055163
-0.083329506 -0.30936995 -0.26095337
-0.064381115 -0.30822858 -0.26769227
-0.045635734 -0.30781513 -0.27013361
-0.026928186 -0.30740464 -0.27255815
-0.0082722222 -0.30730745 -0.27313161
0.029022053 -0.30730745 -0.27313161
0.047707405 -0.30772784 -0.27064937
0.066435702 -0.30818287 -0.26796246
0.085327908 -0.30931193 -0.26129603
-0.06460645 -0.29072261 -0.26037437
-0.045803305 -0.29031807 -0.26287746
-0.027038772 -0.28991416 -0.26537555
-0.0083127366 -0.28951117 -0.26786852
0.010374916 -0.28951117 -0.26786852
0.029081758 -0.28991416 -0.26537555
0.047827061 -0.29031807 -0.26287746
0.066610947 -0.29072261 -0.26037437
-0.0083726114 -0.27202103 -0.26009059
0.010374916 -0.27202103 -0.26009059
-0.1213495 -0.42396814 -0.25096518
-0.10246685 -0.42366529 -0.25236988
-0.083659433 -0.42366284 -0.25238174
-0.064905353 -0.42403227 -0.25066733
0.048115283 -0.42543554 -0.24415696
0.06679552 -0.42366284 -0.25238174
0.08560203 -0.42366016 -0.25239366
0.10440881 -0.42366016 -0.25239366
0.12330358 -0.42407084 -0.25048858
0.048041116 -0.40556413 -0.24897438
-0.12127574 -0.4048658 -0.25233412
-0.064779729 -0.40436435 -0.25474691
0.12325682 -0.40503895 -0.25150102
-0.12120205 -0.38578489 -0.25370163
-0.046149194 -0.38694599 -0.24790019
-0.027302675 -0.38687915 -0.24823451
-0.0084613999 -0.38681462 -0.24855673
0.010374916 -0.38674772 -0.24889082
0.029206086 -0.38668087 -0.2492249
0.047967236 -0.38577056 -0.25377297
0.12321009 -0.38602284 -0.25251263
-0.12115723 -0.36682802 -0.25453335
-0.045951337 -0.36645579 -0.25646764
-0.027170807 -0.36639199 -0.25679952
-0.0083953915 -0.36632806 -0.2571314
0.010374916 -0.36626419 -0.25746328
0.029140115 -0.36620045 -0.25779498
0.12316341 -0.36702248 -0.25352341
-0.14058951 -0.34996372 -0.24410892
-0.12115787 -0.34803995 -0.25452149
0.12311676 -0.34803772 -0.25453335
-0.12129369 -0.32969594 -0.25200093
0.12318098 -0.32949367 -0.25314289
-0.12164928 -0.31200364 -0.24540198
-0.10242784 -0.3106806 -0.25321424
0.10437173 -0.3106564 -0.25335693
0.12353962 -0.31200767 -0.24537808
-0.10277763 -0.29310429 -0.24564123
-0.083612286 -0.29181668 -0.25360662
0.085565045 -0.29181859 -0.2535947
0.10466963 -0.29310822 -0.24561733
-0.083909668 -0.27420884 -0.24588048
-0.06484706 -0.27318037 -0.25256032
-0.045983396 -0.27279243 -0.25507951
-0.027158584 -0.27240551 -0.25759345
0.029141758 -0.2724072 -0.25758177
0.047947302 -0.27279428 -0.25506765
0.066791683 -0.27318224 -0.25254822
0.085803322 -0.27421248 -0.24585652
-0.065089226 -0.25552514 -0.2446959
-0.046164919 -0.25515598 -0.24721938
-0.027279351 -0.25478595 -0.2497496
-0.0084328698 -0.25441834 -0.25226277
0.010374916 -0.25441834 -0.25226277
0.029202141 -0.25478765 -0.24973768
0.048068319 -0.25515774 -0.2472074
0.066973306 -0.2555269 -0.24468368
-0.14092959 -0.42663622 -0.23858666
-0.04646951 -0.42761844 -0.23403007
-0.027569585 -0.42829341 -0.23089808
-0.0085947243 -0.42822033 -0.23123729
0.010374916 -0.42814744 -0.23157597
0.02933934 -0.42807424 -0.23191488
0.14272489 -0.42647034 -0.23935646
-0.14084443 -0.40743577 -0.23996955
-0.046348725 -0.40758324 -0.23926032
-0.02743566 -0.4075132 -0.2395969
-0.0085277809 -0.40744328 -0.23993355
0.010374916 -0.40737581 -0.24025798
0.029272523 -0.40730584 -0.24059427
0.14266983 -0.40735078 -0.2403782
-0.16051638 -0.39075637 -0.2288624
0.16219692 -0.39049193 -0.23018366
-0.14075936 -0.38825688 -0.24135089
0.14261483 -0.38824719 -0.24139887
-0.16041979 -0.37150022 -0.23025626
-0.1406744 -0.3690995 -0.2427308
0.14255986 -0.36915952 -0.242419
0.16213354 -0.37131613 -0.23121303
-0.16032335 -0.35226575 -0.23164868
0.14250495 -0.35008764 -0.24343795
0.16207094 -0.35215855 -0.23222929
-0.14078525 -0.33165592 -0.24093068
0.142653 -0.33169848 -0.24069041
-0.14118344 -0.31385595 -0.23446482
0.14299108 -0.31386414 -0.23441643
-0.12206908 -0.29440239 -0.23761177
0.12389944 -0.29440632 -0.23758763
-0.12249219 -0.27669078 -0.22975957
-0.10313738 -0.27544475 -0.23785245
0.10496943 -0.27544844 -0.23782843
0.12426157 -0.27669257 -0.22974741
-0.10349942 -0.25767249 -0.23001397
-0.084208928 -0.25648913 -0.23810518
0.086043112 -0.25649428 -0.23806918
0.10527114 -0.25767604 -0.22998983
-0.065406859 -0.2380884 -0.23438025
-0.046394028 -0.23768404 -0.23729861
-0.027426224 -0.2372807 -0.24020994
-0.0085033858 -0.23687989 -0.24310231
0.010374916 -0.23687989 -0.24310231
0.029275578 -0.23728231 -0.2401979
0.048221063 -0.2376858 -0.23728651
0.067211531 -0.23809016 -0.23436815
-0.16076879 -0.42951763 -0.22521877
0.16259111 -0.42982715 -0.22378278
-0.16061306 -0.41003436 -0.227467
0.1623732 -0.41006458 -0.22732139
-0.18038782 -0.37397721 -0.21738529
0.18218359 -0.37431669 -0.21562135
-0.18037274 -0.35486484 -0.21758103
0.18203934 -0.35484222 -0.2177034
-0.16069973 -0.33426112 -0.22621578
0.16240387 -0.33415365 -0.22682345
-0.16118273 -0.31643361 -0.21924442
0.16287212 -0.31643775 -0.21921986
-0.14164878 -0.29613265 -0.22690839
0.14339697 -0.29613662 -0.22688407
-0.14211702 -0.2783002 -0.21930552
0.14380601 -0.27830213 -0.2192933
-0.12291735 -0.25886372 -0.22186935
0.124626 -0.25886559 -0.22185719
-0.1040929 -0.24047399 -0.21716481
-0.08465112 -0.23916414 -0.22661692
0.0863965 -0.23916754 -0.2265926
0.10576524 -0.24047554 -0.2171526
-0.065868415 -0.22110462 -0.21939093
-0.046739083 -0.22071645 -0.22235709
-0.027655713 -0.2203308 -0.22530395
-0.0086178603 -0.21994764 -0.22823161
0.010374916 -0.21994764 -0.22823161
0.029390417 -0.22033396 -0.22527975
0.048451286 -0.22071967 -0.22233266
0.067557693 -0.22110623 -0.21937871
-0.16221778 -0.45320249 -0.2043047
-0.14303929 -0.453197 -0.20432937
-0.12386252 -0.453197 -0.20432937
-0.10468575 -0.453197 -0.20432937
-0.085508965 -0.453197 -0.20432937
-0.066331804 -0.4531942 -0.20434189
-0.047155127 -0.4531942 -0.20434189
-0.02797826 -0.4531914 -0.20435423
-0.0088015748 -0.45318872 -0.20436662
0.010374916 -0.4531914 -0.20435423
0.029551502 -0.4531914 -0.20435423
0.04872809 -0.4531914 -0.20435423
0.067904674 -0.4531914 -0.20435423
0.087081268 -0.4531914 -0.20435423
0.10625832 -0.4531942 -0.20434189
0.12543614 -0.45319974 -0.20431697
0.14461435 -0.45320523 -0.20429236
-0.18139096 -0.43401492 -0.20435411
-0.18105538 -0.41393232 -0.208713
0.1826793 -0.41398358 -0.20846641
-0.18072103 -0.39391989 -0.21305668
0.18243107 -0.39412165 -0.21204907
-0.18085539 -0.33690017 -0.2113111
0.18246771 -0.33686307 -0.21152031
-0.18143094 -0.31904337 -0.20383459
0.18300019 -0.31904337 -0.20383459
-0.16171277 -0.29860833 -0.2115941
0.16334175 -0.29860833 -0.2115941
-0.16224521 -0.28067067 -0.20390874
0.16381581 -0.28067267 -0.2038964
-0.14260402 -0.26039547 -0.21139735
0.14423215 -0.26039726 -0.21138495
-0.12368412 -0.24179369 -0.20764005
0.12528266 -0.24179369 -0.20764005
-0.10481615 -0.22344515 -0.2015059
-0.085249707 -0.22219422 -0.21106511
0.086875752 -0.22219899 -0.21102834
0.10636844 -0.2234484 -0.20148104
-0.066335618 -0.20391256 -0.20421803
-0.047088649 -0.20354274 -0.20722067
-0.027888197 -0.20317531 -0.21020377
-0.0087336386 -0.20280731 -0.21319175
0.010374916 -0.2028088 -0.21317947
0.029506568 -0.20317695 -0.21019125
0.048684146 -0.20354429 -0.20720822
0.067908108 -0.20391408 -0.20420563
-0.0088367769 -0.18524587 -0.1997937
0.010374916 -0.18524587 -0.1997937
-0.20161386 -0.39813483 -0.19199753
0.20301893 -0.39794487 -0.19294679
-0.20124109 -0.37801594 -0.19639993
0.20273969 -0.37798232 -0.19657421
-0.2014067 -0.35913947 -0.19444394
0.20284034 -0.35898748 -0.19526637
-0.20189455 -0.34090659 -0.18868279
0.20334814 -0.34090886 -0.18867016
-0.18202531 -0.30111095 -0.19611359
0.18353684 -0.30111492 -0.19608855
-0.18262433 -0.28306898 -0.18833196
0.18407686 -0.28307465 -0.18829441
-0.16300553 -0.26309589 -0.19293427
0.16449243 -0.26309949 -0.19290924
-0.14365038 -0.2436274 -0.19440651
0.14514707 -0.2436274 -0.19440651
-0.12453443 -0.22470742 -0.1918602
0.12601207 -0.22470903 -0.19184768
-0.10554978 -0.20620289 -0.18562257
-0.085856833 -0.20501208 -0.19529128
0.08736109 -0.20501518 -0.19526637
0.10697979 -0.20620608 -0.18559754
-0.066728838 -0.18620953 -0.19144773
-0.047388609 -0.18588808 -0.19423187
-0.02809133 -0.18556732 -0.19700968
0.029608037 -0.18556732 -0.19700968
0.048884124 -0.18588948 -0.19421935
0.068203025 -0.18621093 -0.19143546
-0.028262783 -0.16753432 -0.18587363
-0.0089223096 -0.16723162 -0.18868279
0.010374916 -0.1672329 -0.18867016
0.029693764 -0.16753432 -0.18587363
-0.22261208 -0.38246003 -0.17330742
0.22396567 -0.38250396 -0.17307925
-0.2024934 -0.32280704 -0.1816107
0.20389545 -0.32281551 -0.1815604
-0.20309561 -0.30460516 -0.1744988
0.20444587 -0.30461943 -0.1744101
-0.18371165 -0.26583487 -0.17420745
0.18505633 -0.26584232 -0.17415667
-0.16420208 -0.24622446 -0.17566371
0.16555448 -0.24622446 -0.17566371
-0.14471039 -0.22662663 -0.17719424
0.14607456 -0.22662663 -0.17719424
-0.12536561 -0.20733455 -0.17643547
0.12672453 -0.2073361 -0.17642283
-0.1060858 -0.18822217 -0.17401743
-0.086331554 -0.18718988 -0.18295777
0.087740876 -0.18719277 -0.18293273
0.10742649 -0.18822521 -0.17399204
-0.086768933 -0.16907328 -0.17159438
-0.067073651 -0.16814038 -0.18024957
-0.047646355 -0.16783637 -0.18307114
0.049055953 -0.16783774 -0.1830585
0.068461642 -0.16814187 -0.18023694
0.088090777 -0.16907597 -0.17156911
-0.067421183 -0.14990777 -0.16896355
-0.047906704 -0.14962411 -0.17179775
-0.028435767 -0.14933991 -0.17463815
-0.0090087065 -0.14905754 -0.1774596
0.010374916 -0.14905754 -0.1774596
0.029780257 -0.14933991 -0.17463815
0.049229328 -0.14962411 -0.17179775
0.068722285 -0.14990911 -0.16895068
-0.12656131 -0.48394001 -0.15424597
-0.106999 -0.48394001 -0.15424597
-0.087436683 -0.48394001 -0.15424597
-0.067874357 -0.48394001 -0.15424597
-0.04831234 -0.48394305 -0.15423298
-0.02874992 -0.48394305 -0.15423298
-0.0091875019 -0.48394305 -0.15423298
0.010374916 -0.48394305 -0.15423298
0.029937431 -0.48394603 -0.15422022
0.049499948 -0.48394603 -0.15422022
0.069062471 -0.48394603 -0.15422022
0.088624984 -0.48394603 -0.15422022
0.108188 -0.48394901 -0.15420735
0.12775062 -0.48394901 -0.15420735
-0.22310507 -0.36403048 -0.16797054
0.22436914 -0.363967 -0.16831434
-0.22373846 -0.3457877 -0.1611141
0.2249821 -0.34579459 -0.16107559
-0.2244062 -0.32750255 -0.1538856
0.22559315 -0.32750681 -0.15385962
-0.20379947 -0.28647846 -0.16618669
0.20508678 -0.28649414 -0.16608465
-0.18506116 -0.24885538 -0.15667653
0.18626916 -0.24885899 -0.15665078
-0.1654126 -0.22911343 -0.15819156
0.16663048 -0.22911343 -0.15819156
-0.14564234 -0.20910498 -0.16206098
0.14689003 -0.20910498 -0.16206098
-0.12598114 -0.18926194 -0.16501296
0.12725212 -0.18926343 -0.1650002
-0.1066144 -0.1700455 -0.16257274
0.10786701 -0.17004827 -0.16254723
-0.087210283 -0.15079194 -0.16012788
0.088443868 -0.15079451 -0.16010225
-0.067771837 -0.13151065 -0.15757561
-0.048169103 -0.13124657 -0.16043532
-0.028610304 -0.13098174 -0.16330135
-0.0090957796 -0.13071877 -0.16614842
0.010374916 -0.13071877 -0.16614842
0.029867627 -0.13098294 -0.16328859
0.04940426 -0.13124657 -0.16043532
0.068985276 -0.13151187 -0.15756273
-0.0091836387 -0.11221454 -0.15473497
0.010374916 -0.11221454 -0.15473497
-0.14673004 -0.48621398 -0.14439929
0.14788792 -0.48641181 -0.14354277
0.16741601 -0.46634436 -0.14543653
0.18691601 -0.44630945 -0.14731467
-0.2050605 -0.42586648 -0.15129471
0.20638733 -0.42630398 -0.14918995
-0.22443476 -0.40582472 -0.15357637
0.22583 -0.4063279 -0.15106249
-0.22507778 -0.3091127 -0.14661551
0.22620875 -0.3091169 -0.14658964
-0.20556095 -0.27005062 -0.14538467
0.20668425 -0.27005818 -0.14533281
-0.18640052 -0.23158866 -0.13927782
0.18747281 -0.23158866 -0.13927782
-0.16634208 -0.21123409 -0.14477527
0.16745672 -0.21123409 -0.14477527
-0.14636897 -0.19096527 -0.15026212
0.14752582 -0.19096527 -0.15026212
-0.12660226 -0.1710248 -0.15348637
0.12778451 -0.1710262 -0.15347326
-0.12722906 -0.15262076 -0.14185405
-0.10714782 -0.15170303 -0.15102375
0.10831103 -0.15170437 -0.15101075
0.12832178 -0.15262204 -0.14184105
-0.10768613 -0.1331926 -0.13936901
-0.087655663 -0.13234383 -0.14855659
0.088800184 -0.13234621 -0.1485306
0.10875963 -0.1331937 -0.13935602
-0.068125673 -0.11294711 -0.14608443
-0.048433881 -0.11270266 -0.14897025
-0.028786622 -0.11245886 -0.15184951
0.029955685 -0.11245886 -0.15184951
0.049580976 -0.11270379 -0.14895725
0.069250956 -0.11294926 -0.14605856
-0.028964337 -0.093766771 -0.14030623
-0.0092722951 -0.093542509 -0.14321816
0.010374916 -0.093543537 -0.14320517
0.030044541 -0.093766771 -0.14030623
0.24788138 -0.39187557 -0.12438273
-0.22657418 -0.29198554 -0.13041663
0.22757937 -0.29198751 -0.13040352
-0.20735274 -0.25335211 -0.12422466
0.20830914 -0.25335211 -0.12422466
-0.18733639 -0.21340844 -0.12712061
0.18831511 -0.21340844 -0.12712061
-0.16717076 -0.19297987 -0.13281441
0.16819331 -0.19297987 -0.13281441
-0.14710242 -0.17265579 -0.13835275
0.14816758 -0.17265579 -0.13835275
-0.14784272 -0.15417412 -0.12633133
0.14881535 -0.15417412 -0.12633133
-0.12786165 -0.13404733 -0.13011503
0.12886401 -0.13404861 -0.1301018
-0.10822941 -0.11451163 -0.12760711
-0.088105127 -0.11372655 -0.13687921
0.089159764 -0.11372877 -0.13685298
0.10921236 -0.11451282 -0.12759376
-0.088558733 -0.094937719 -0.12509406
-0.068485938 -0.094222613 -0.13438427
-0.048701059 -0.093990318 -0.13740098
0.049759097 -0.093991347 -0.13738787
0.069521166 -0.094224595 -0.13435829
0.089522652 -0.094939791 -0.12506771
-0.048970684 -0.07510718 -0.1257261
-0.029143676 -0.074904121 -0.12865806
-0.0093618603 -0.074701421 -0.13158345
0.010374916 -0.074701421 -0.13158345
0.030134209 -0.074904121 -0.12865806
0.049938846 -0.075108133 -0.12571287
-0.16831817 -0.49271405 -0.1162535
0.16912016 -0.49236506 -0.11776423
-0.18799344 -0.47233874 -0.11858523
0.18882945 -0.47209066 -0.1196965
-0.20763096 -0.45199442 -0.12093914
0.20850921 -0.45184648 -0.12162578
-0.22723386 -0.43169016 -0.1232754
0.22816062 -0.43163532 -0.12353909
-0.24794979 -0.41371977 -0.11413014
0.24859683 -0.4132179 -0.11663795
-0.24699368 -0.39201006 -0.12368417
-0.24709265 -0.37239525 -0.12269497
0.24804828 -0.37241712 -0.12257636
-0.24762453 -0.353531 -0.11738014
0.24853685 -0.35354739 -0.1172874
-0.24815731 -0.33458656 -0.11205649
0.24902743 -0.33459997 -0.11197674
-0.22855073 -0.27536938 -0.10901976
0.2293901 -0.27536938 -0.10901976
-0.18831389 -0.19510368 -0.11442232
0.18919486 -0.19510368 -0.11442232
-0.16800725 -0.17455384 -0.12074077
0.16893603 -0.17455238 -0.12075412
-0.14859006 -0.13551784 -0.11419642
0.14946926 -0.13551784 -0.11419642
-0.12850006 -0.11530254 -0.11826742
0.12941122 -0.1153036 -0.11825418
-0.10877769 -0.095658131 -0.11573625
0.10966926 -0.095659085 -0.11572301
-0.089016542 -0.075975068 -0.11319995
-0.068849534 -0.075325452 -0.12257636
0.069793865 -0.075327329 -0.12254977
0.089888901 -0.075976886 -0.11317348
-0.069216497 -0.056253247 -0.11065888
-0.049243081 -0.056051739 -0.1139307
-0.029324658 -0.055868752 -0.11690307
-0.0094521446 -0.055686884 -0.11985517
0.010374916 -0.055686884 -0.11985517
0.030224804 -0.055869527 -0.11688983
0.050120246 -0.056051739 -0.1139307
0.07006909 -0.056254812 -0.1106323
-0.16952421 -0.51672304 -0.098845601
-0.14932877 -0.51592219 -0.1022011
-0.1293658 -0.51592219 -0.1022011
-0.10940284 -0.51592219 -0.1022011
-0.089439884 -0.51592219 -0.1022011
-0.069476925 -0.51592219 -0.1022011
-0.049513966 -0.51592219 -0.1022011
-0.029551007 -0.51592219 -0.1022011
-0.0095880451 -0.51592219 -0.1022011
0.010374916 -0.51592219 -0.1022011
0.030337878 -0.51592219 -0.1022011
0.050300837 -0.51592219 -0.1022011
0.070264108 -0.51592535 -0.10218787
0.090227172 -0.51592535 -0.10218787
0.11019076 -0.51592869 -0.10217428
0.13015392 -0.51592869 -0.10217428
0.15011708 -0.51592869 -0.10217428
0.17008108 -0.51593173 -0.10216105
0.19018377 -0.51641196 -0.10014856
0.19013727 -0.49627829 -0.10081971
0.21058717 -0.49770725 -0.094632149
0.21053633 -0.47753859 -0.095292568
0.23054336 -0.45749915 -0.095400453
-0.24989967 -0.43764079 -0.0946455
0.25037706 -0.43707532 -0.097366333
-0.24994017 -0.31757936 -0.094241023
0.25068322 -0.31760994 -0.094052315
-0.20870127 -0.23564276 -0.10829949
0.20953508 -0.23564276 -0.10829949
-0.20979236 -0.21731377 -0.095413923
0.210527 -0.21731377 -0.095413923
-0.18930216 -0.1766184 -0.10158432
0.19008337 -0.17661688 -0.10159791
-0.16885166 -0.15595329 -0.10855293
0.1696866 -0.15595201 -0.10856616
-0.16970409 -0.13717577 -0.096248984
0.17044432 -0.13717455 -0.096262574
-0.14934444 -0.11668459 -0.10194635
0.15012936 -0.11668459 -0.10194635
-0.12914439 -0.096383817 -0.10630989
0.12996352 -0.096384726 -0.10629666
-0.12979475 -0.077288531 -0.094241023
-0.10933107 -0.076629408 -0.10375524
0.11013042 -0.076630391 -0.10374177
0.13052097 -0.077289484 -0.094227552
-0.08947859 -0.056836046 -0.10119545
0.090258561 -0.056837641 -0.10116863
-0.069586873 -0.037003569 -0.098630428
-0.04951768 -0.036819868 -0.10204029
-0.029507302 -0.03665816 -0.10503983
-0.0095432578 -0.036497615 -0.10801923
0.010374916 -0.036497615 -0.10801923
0.030316126 -0.036658876 -0.1050266
0.050303519 -0.036820568 -0.10202694
0.070346877 -0.037005 -0.098603606
-0.009635211 -0.01713118 -0.096073985
0.010374916 -0.01713118 -0.096073985
-0.21072514 -0.52017063 -0.084398508
-0.19006701 -0.51844043 -0.091648817
0.21063806 -0.51788622 -0.093971133
-0.21065266 -0.49987298 -0.085254312
-0.19000149 -0.49819964 -0.092499971
0.23113373 -0.49913996 -0.088428378
-0.21026236 -0.47875047 -0.089863777
0.23107752 -0.47892272 -0.089092016
-0.23009922 -0.45817679 -0.092256784
0.25165534 -0.46005809 -0.083528638
-0.23051673 -0.25840792 -0.087737322
0.23119339 -0.2584098 -0.087723851
-0.21089557 -0.19880295 -0.082385659
0.21152885 -0.1988014 -0.082399368
-0.19029927 -0.15794685 -0.088631749
0.19098169 -0.15794685 -0.088631749
-0.17056468 -0.11821891 -0.083827615
0.17120928 -0.11821768 -0.083841324
-0.15010604 -0.09767165 -0.089579463
0.15079504 -0.097670577 -0.089593053
-0.13045119 -0.058014594 -0.082059026
-0.10988961 -0.057423182 -0.091662288
0.11059588 -0.057423942 -0.091648817
0.13108362 -0.058015354 -0.082045436
-0.11045339 -0.038036861 -0.079456091
-0.089944974 -0.0375183 -0.089078546
0.090631664 -0.037519686 -0.089051485
0.1110657 -0.038037531 -0.079442501
-0.069960706 -0.017573856 -0.086489797
-0.049794823 -0.017409928 -0.090039611
-0.029691841 -0.017270684 -0.093053579
0.030408293 -0.017270684 -0.093053579
0.050488282 -0.017410465 -0.09002614
0.070626952 -0.017574526 -0.086476207
-0.02987789 0.0022975579 -0.080969334
-0.0097280191 0.0024148747 -0.084017992
0.010374916 0.002414383 -0.084004521
0.030501317 0.0022975579 -0.080969334
-0.23141786 -0.50155246 -0.077982068
-0.23133841 -0.48121095 -0.078842163
-0.25212607 -0.46245718 -0.072398186
-0.2318944 -0.24028534 -0.072823405
0.23245628 -0.24028718 -0.072809696
-0.21200873 -0.18010417 -0.069240093
0.21254188 -0.18010417 -0.069240093
-0.19130743 -0.13908923 -0.075535178
0.19188808 -0.13908792 -0.075549006
-0.17143352 -0.099079914 -0.071286798
0.17198159 -0.099078707 -0.071300626
-0.15087496 -0.078476526 -0.077094078
0.15146783 -0.078475527 -0.077107787
-0.15165126 -0.059096627 -0.064488292
0.15214708 -0.059095778 -0.064502239
-0.1311138 -0.038559161 -0.06976223
0.1316516 -0.038559832 -0.06974864
-0.11102248 -0.018467866 -0.067134976
-0.090415731 -0.01801917 -0.07684803
0.091008276 -0.018020459 -0.076820731
0.11153995 -0.01846844 -0.067121267
-0.090890914 0.0016637668 -0.064502358
-0.070338063 0.0020383671 -0.074234843
-0.050074544 0.0021804571 -0.07792747
0.050674763 0.0021799207 -0.077913761
0.07090997 0.0020378307 -0.074221134
0.091388434 0.0016627014 -0.064474702
-0.050357196 0.021953359 -0.065688252
-0.030065671 0.022048399 -0.068772554
-0.0098217977 0.022142768 -0.071835995
0.010374916 0.022142768 -0.071835995
0.030595314 0.022047952 -0.068758845
0.050862987 0.021953359 -0.065688252
-0.25335887 -0.30281466 -0.060079694
0.25384831 -0.30285949 -0.059788942
-0.23328795 -0.22195432 -0.057737827
0.23373489 -0.22195771 -0.057710171
-0.2131343 -0.16121772 -0.055947661
0.21356405 -0.16121632 -0.05596137
-0.1923247 -0.12004001 -0.062320471
0.19280457 -0.12004001 -0.062320471
-0.17231075 -0.079756118 -0.058625221
0.17276134 -0.079755105 -0.058639169
-0.15243508 -0.039529182 -0.051760793
0.15283291 -0.039528437 -0.05177474
-0.13178194 -0.01891914 -0.05736351
0.13222493 -0.018920481 -0.057335615
-0.11159696 0.0012863204 -0.054697156
0.11201869 0.0012857839 -0.054683208
-0.091370612 0.021533087 -0.052039504
-0.070718981 0.021835722 -0.061864257
0.071195655 0.02183532 -0.061850548
0.091772199 0.021532334 -0.052011728
-0.071103074 0.041821029 -0.049390316
-0.050642181 0.041912414 -0.053348064
-0.030255213 0.041984376 -0.056461334
-0.0099163475 0.042055711 -0.059553266
0.010374916 0.042055711 -0.059553266
0.030690089 0.041984107 -0.056447506
0.051052976 0.041912414 -0.053348064
0.071484059 0.041820448 -0.049362421
-0.19343401 -0.54925901 -0.047910213
-0.17305312 -0.54925901 -0.047910213
-0.15267308 -0.54926246 -0.047896266
-0.13229209 -0.54926246 -0.047896266
-0.11191108 -0.54926246 -0.047896266
-0.091529548 -0.54925901 -0.047910213
-0.071148656 -0.54925901 -0.047910213
-0.050767761 -0.54925901 -0.047910213
-0.030386873 -0.54925901 -0.047910213
-0.010005978 -0.54925901 -0.047910213
0.010374916 -0.54926246 -0.047896266
0.030755915 -0.54926246 -0.047896266
0.051136915 -0.54926246 -0.047896266
0.071517915 -0.54926246 -0.047896266
0.091898918 -0.54926246 -0.047896266
0.11227991 -0.54926246 -0.047896266
0.13266091 -0.54926246 -0.047896266
0.15304193 -0.54926246 -0.047896266
0.17342292 -0.54926246 -0.047896266
0.19380392 -0.54926246 -0.047896266
-0.23469631 -0.20340943 -0.042491794
0.2350271 -0.20341426 -0.042449832
-0.21427014 -0.1421378 -0.042533875
0.2145977 -0.1421378 -0.042533875
-0.19335335 -0.1007987 -0.048957705
0.1937294 -0.10079762 -0.048971653
-0.19439144 -0.081360169 -0.035472631
0.19466466 -0.081360169 -0.035472631
-0.17319649 -0.060245089 -0.045840621
0.17354864 -0.060244121 -0.045854688
-0.15322651 -0.019771442 -0.038909554
0.15352541 -0.019770816 -0.038923502
-0.13245717 0.00090664625 -0.044832587
0.13280371 0.00090561807 -0.044804692
-0.1121769 0.021228313 -0.042140961
0.11250197 0.021227911 -0.042127013
-0.09185487 0.041591689 -0.039458036
0.092159614 0.041591112 -0.039429784
-0.071491256 0.061996415 -0.036783576
-0.050929852 0.06205973 -0.040891528
-0.030446544 0.062108163 -0.044034243
-0.010011788 0.062156107 -0.047155261
0.010374916 0.062156107 -0.047155261
0.030785754 0.062107854 -0.044020176
0.051244978 0.062059507 -0.040877461
0.071775205 0.061996058 -0.036755443
-0.010108129 0.082446545 -0.034640312
0.010374916 0.082446545 -0.034640312
-0.25602335 -0.28642178 -0.033454299
0.25630581 -0.28646103 -0.03318584
-0.23612237 -0.1846506 -0.027054429
0.23633556 -0.18465671 -0.026997566
-0.2154188 -0.12286415 -0.028969049
0.21564084 -0.12286297 -0.028983235
-0.19544125 -0.061723404 -0.021835208
0.1956085 -0.061722405 -0.021849513
-0.17408988 -0.040543057 -0.032945633
0.17434362 -0.040543057 -0.032945633
-0.17499299 -0.020649001 -0.019910336
0.1751464 -0.020649001 -0.019910336
-0.15402569 0.00017919391 -0.02593255
0.15422468 0.00017977506 -0.025946856
-0.1331518 0.020914271 -0.03194201
0.13339977 0.020913027 -0.031899571
-0.11276173 0.041361284 -0.029479265
0.11298988 0.041360658 -0.029450893
-0.092343211 0.061842289 -0.026770473
0.092550732 0.061841667 -0.026727915
-0.071883164 0.082365006 -0.024056196
-0.051220249 0.082397841 -0.028316855
-0.030639902 0.082422122 -0.031475306
0.030882325 0.082422122 -0.031475306
0.051438577 0.082397707 -0.02830267
0.072069131 0.082364827 -0.024027824
-0.010205385 0.10292955 -0.022006154
0.010374916 0.10292955 -0.021991968
-0.23756512 -0.16567221 -0.011436224
0.23765814 -0.16567793 -0.011378646
-0.21657926 -0.1033924 -0.01526475
0.21669579 -0.10339124 -0.015279174
-0.19650078 -0.041883476 -0.008071661
0.19656304 -0.041883476 -0.008071661
-0.175905 -0.00055930018 -0.0067466497
0.17595617 -0.00055871904 -0.0067610741
-0.15483271 0.020325713 -0.012828231
0.15493082 0.020326197 -0.012842655
-0.13385475 0.041116837 -0.018896818
0.13400231 0.041115813 -0.018853903
-0.13456461 0.061518267 -0.005723238
-0.11335282 0.061686918 -0.016681552
0.11348248 0.061686516 -0.016652942
0.1346108 0.061517552 -0.005679965
-0.092836797 0.082287252 -0.013946772
0.092945173 0.082286984 -0.013918042
-0.072278835 0.10292955 -0.011206508
-0.051513739 0.10292951 -0.015608191
-0.03083488 0.10292955 -0.018810987
0.030979812 0.10292955 -0.018810987
0.051634021 0.10292951 -0.015608191
0.072365895 0.10292964 -0.011177659
-0.03103172 0.12363291 -0.0060259104
-0.010303681 0.12360817 -0.0092372894
0.010374916 0.12360817 -0.0092372894
0.031078342 0.12363304 -0.0060116053
-0.072893217 -0.5840326 0.0087463856
-0.052075855 -0.5840289 0.008731842
-0.03125938 -0.58403629 0.0087610483
-0.01044212 -0.5840326 0.0087463856
0.010374916 -0.5840326 0.0087463856
0.031191837 -0.5840289 0.008731842
0.052008536 -0.58402514 0.0087171793
0.07282535 -0.58402514 0.0087171793
-0.23902485 -0.14647025 0.004365921
0.23899753 -0.14647686 0.0044386387
-0.21775047 -0.083718486 -0.0014333725
0.21776052 -0.083717488 -0.0014477968
-0.19757237 -0.021838829 0.0058488846
0.19752647 -0.021838158 0.0058342218
-0.17682602 0.01972913 0.0065472126
0.17677486 0.019729577 0.0065326691
-0.15564768 0.040671129 0.00040519238
0.15564391 0.040671397 0.00039076805
-0.13528152 0.082121536 0.0075807571
-0.11394963 0.082208827 -0.003760457
0.11397982 0.082208559 -0.0037316084
0.13522531 0.082121179 0.007624507
-0.11455221 0.10292951 0.0092859268
0.093343861 0.10292955 -0.00097024441
0.11448198 0.10292951 0.0093150139
-0.093335144 0.10292964 -0.00099921227
-0.072678335 0.12369292 0.0017676353
-0.051809706 0.12365782 -0.0027925968
0.051831331 0.12365782 -0.0027925968
0.072665192 0.12369297 0.0017822981
-0.052108523 0.14458516 0.010146618
-0.03123045 0.14453489 0.0068819523
-0.010402807 0.144485 0.0036398172
0.010374916 0.144485 0.0036398172
0.031177711 0.14453512 0.006896615
0.052030765 0.14458537 0.010161161
-0.26108351 -0.27293596 0.017109871
0.26121098 -0.27332455 0.019914389
-0.24050187 -0.12704083 0.020355344
0.24035154 -0.12704706 0.020428777
-0.21893509 -0.063841395 0.012556195
0.21883743 -0.063840352 0.012541533
-0.19865401 -0.0015849322 0.019899607
0.19850095 -0.0015849322 0.019899607
-0.17775621 0.040219225 0.01997304
0.17760167 0.040219583 0.019958377
-0.15647075 0.061218169 0.013769984
0.15636407 0.061218437 0.013755322
-0.13600554 0.1029296 0.021016836
0.13584591 0.1029296 0.021061063
-0.11516066 0.12385217 0.022459269
-0.093838334 0.12377228 0.012073874
0.093746416 0.12377246 0.012103081
0.11498903 0.12385239 0.022488713
-0.094346426 0.14481814 0.025274515
-0.073081709 0.14465788 0.014867902
0.07296773 0.14465809 0.014882445
0.094152905 0.14481854 0.025304198
-0.052410219 0.16571479 0.023210406
-0.031431321 0.16563889 0.019928932
-0.010502889 0.16556302 0.016640663
0.010374916 0.16556302 0.016640663
0.031278033 0.16563889 0.019928932
0.0522319 0.16571501 0.023225307
-0.24199514 -0.1073788 0.036520123
0.24172294 -0.10738682 0.036624312
-0.2201308 -0.043755837 0.026677012
0.21992557 -0.043755837 0.026677012
-0.1997481 0.018880397 0.034112096
0.1994846 0.018880837 0.034097195
-0.17869566 0.060913887 0.033533096
0.17843674 0.06091411 0.033518195
-0.15730201 0.081969999 0.027267933
0.15709142 0.081970133 0.02725327
-0.1367368 0.12394552 0.034587502
0.13647273 0.12394588 0.034631968
-0.11577508 0.14497954 0.035761595
0.11550105 0.14497994 0.035791397
-0.094859496 0.16607018 0.038604617
-0.073489025 0.16582757 0.028095722
0.073273219 0.16582783 0.028110623
0.094563372 0.16607094 0.0386343
-0.052715193 0.18704969 0.036416054
-0.031633914 0.18694721 0.03308773
-0.010603941 0.186845 0.029767632
0.010374916 0.186845 0.029767632
0.031379331 0.18694721 0.03308773
0.052434985 0.18704969 0.036416054
-0.24350767 -0.087482296 0.052893639
0.24310952 -0.087489642 0.052999258
-0.22134033 -0.023460589 0.040960908
0.22102398 -0.023459874 0.040946007
-0.22256134 -0.0029505342 0.055380225
0.22213514 -0.0029505342 0.055380225
-0.20085253 0.039561287 0.048459291
0.20047961 0.039561287 0.048459291
-0.17964351 0.08181645 0.04721415
0.17928021 0.08181645 0.04721415
-0.15814158 0.10292955 0.040901184
0.15782605 0.10292951 0.040886283
-0.15898962 0.12410018 0.054671645
0.15856807 0.12410009 0.054656386
-0.1374754 0.14517248 0.048294306
0.13710584 0.14517318 0.048339248
-0.11639553 0.16631475 0.049194813
0.11601812 0.16631542 0.049224854
-0.095377624 0.18753168 0.052065849
-0.073900342 0.1872049 0.041453481
0.073581703 0.18720528 0.041468501
0.094977878 0.18753257 0.05209589
-0.074315704 0.20879284 0.054942846
-0.053022798 0.20859239 0.049735665
-0.03183848 0.20846303 0.046374679
-0.010705973 0.208334 0.043022275
0.010374916 0.20833461 0.043037057
0.031481612 0.20846303 0.046374679
0.052640054 0.20859239 0.049735665
0.073893234 0.20879343 0.054957986
-0.032167714 -0.62029511 0.067759037
-0.010896516 -0.62029904 0.067774296
0.010374916 -0.62030309 0.067789555
0.031646583 -0.62030709 0.067804694
0.052918248 -0.62030709 0.067804694
-0.24503841 -0.067346029 0.069464803
0.24451414 -0.067353524 0.069586635
-0.22379656 0.017776258 0.069967628
0.22325692 0.017776743 0.069952607
-0.2019698 0.060460601 0.062973142
0.20148411 0.060460825 0.062958121
-0.18060197 0.10292955 0.061048269
0.18013215 0.10292955 0.061048269
-0.15984623 0.14548486 0.068581104
0.15931842 0.14548486 0.068581104
-0.13822144 0.16661364 0.062139153
0.13774534 0.1666148 0.062184811
-0.11702211 0.187861 0.06276083
0.11654028 0.18786193 0.062791109
-0.095900871 0.20920531 0.065660357
0.09539602 0.20920594 0.065675616
-0.074735187 0.23059466 0.068565965
-0.053333405 0.23034623 0.063185453
-0.032045051 0.23018941 0.059791684
-0.010809123 0.23003373 0.056421518
0.010374916 0.23003373 0.056421518
0.031585015 0.23019013 0.059806824
0.052847363 0.2303468 0.063200712
0.07420785 0.23059544 0.068581104
-0.010913166 0.25194612 0.069937229
0.010374916 0.25194612 0.069937229
-0.053553823 -0.62159616 0.072729707
-0.22504367 0.038724542 0.08469522
0.2243918 0.038724542 0.08469522
-0.20309778 0.0815823 0.07762599
0.20250037 0.0815823 0.07762599
-0.18157016 0.1242568 0.075022697
0.18099277 0.1242568 0.075022697
-0.16071062 0.16708663 0.082616925
0.16007558 0.16708699 0.082632303
-0.13897507 0.18827236 0.076124668
0.13839132 0.18827391 0.076170683
-0.11765492 0.20962113 0.076461554
0.11706764 0.20962223 0.07649219
-0.096429326 0.2310946 0.079390049
0.095818788 0.23109537 0.079405427
-0.05364744 0.2523151 0.076783299
-0.032253884 0.25213039 0.073355913
0.031689316 0.25213039 0.073355913
0.053056482 0.2523151 0.076783299
-0.075158842 0.25261357 0.082324624
0.074525595 0.25261453 0.082340002
-0.011018238 0.27407482 0.083586335
0.010374916 0.27407482 0.083586335
-0.24658774 -0.046965323 0.086236835
0.24593449 -0.046972059 0.086360216
-0.22630543 0.059896767 0.099596024
0.22553886 0.059896767 0.099596024
-0.20423901 0.10292955 0.092451215
0.20352639 0.10292955 0.092435598
-0.1825482 0.14580131 0.089139342
0.18186213 0.14580131 0.089139342
-0.16158475 0.18890926 0.096811414
0.16084047 0.18890998 0.096826911
-0.13973637 0.21015199 0.090252638
0.13904388 0.21015364 0.090299249
-0.11829405 0.23159856 0.090299249
0.11760025 0.2315999 0.090330243
-0.09696307 0.25320274 0.093256712
0.096245788 0.25320357 0.093272448
-0.075586736 0.27485287 0.09622097
-0.053964216 0.27450052 0.090500236
-0.032464549 0.27428734 0.087038994
0.031794649 0.27428734 0.087038994
0.053267669 0.27450052 0.090500236
0.074846163 0.27485287 0.09622097
-0.011124351 0.29642293 0.097370982
0.010374916 0.29642293 0.097370982
-0.248156 -0.026335888 0.10321343
0.24737084 -0.026340835 0.10332274
-0.2275808 0.081297219 0.1146574
0.2266971 0.081297353 0.11464167
-0.2053913 0.12450624 0.10741973
0.20456453 0.12450624 0.10741973
-0.18353625 0.16756666 0.10340095
0.18274041 0.16756666 0.10340095
-0.16246788 0.21095631 0.1111517
0.16161323 0.21095692 0.11116731
-0.14050549 0.23225561 0.10452545
0.13970387 0.23225859 0.10458815
-0.11893888 0.25379571 0.10425997
0.11813821 0.25379807 0.10430694
-0.097502165 0.27553287 0.10726321
0.096677072 0.27553391 0.1072787
-0.054284152 0.29690668 0.10435379
-0.032677308 0.29666457 0.10085797
0.031901028 0.29666457 0.10085797
0.053480957 0.29690668 0.10435379
-0.076018937 0.29731569 0.11025691
0.075170308 0.29731569 0.11025691
-0.032892186 0.3192651 0.114815
-0.011231643 0.31899521 0.11130869
0.010374916 0.31899521 0.11130869
0.032008465 0.3192651 0.114815
-0.24974205 -0.0054524839 0.12038291
0.24882485 -0.0054568127 0.12049365
-0.22886865 0.10292955 0.12986624
0.22786908 0.10292955 0.12986624
-0.20655724 0.14631595 0.12256575
0.20561276 0.14631572 0.12254989
-0.18453449 0.18955593 0.11780918
0.18362673 0.18955539 0.11779344
-0.16336015 0.23323083 0.12564015
0.16239396 0.23323163 0.12565589
-0.14128251 0.25458699 0.11894536
0.14036992 0.25459042 0.11900878
-0.11959092 0.27621737 0.11837709
0.1186816 0.27622029 0.11842453
-0.098046102 0.29808742 0.12139475
0.0971127 0.29808959 0.12142646
-0.076455504 0.32000554 0.12443483
-0.054607276 0.31953692 0.11834562
0.053696375 0.31953692 0.11834562
0.075497732 0.32000554 0.12443483
-0.033109467 0.34209371 0.12892759
-0.011339889 0.3417924 0.12537038
0.010374916 0.3417924 0.12537038
0.032117106 0.34209371 0.12892759
-0.25134918 0.015688151 0.13778043
0.25029811 0.015684806 0.13789225
-0.20773463 0.16836244 0.1378603
0.2066735 0.16836244 0.1378603
-0.18554194 0.21177223 0.13235044
0.18452324 0.21177223 0.13235044
-0.16426164 0.25573653 0.14027882
0.16318278 0.25573739 0.14029479
-0.14206758 0.27714962 0.13351464
0.14104287 0.27715352 0.13357854
-0.12024957 0.29886627 0.1326375
0.11923051 0.29886958 0.1326853
-0.098596156 0.32087165 0.1356858
0.097552761 0.32087409 0.13571787
-0.076896504 0.342926 0.13875675
-0.054934014 0.34239563 0.13249409
0.053914204 0.34239563 0.13249409
0.075828485 0.342926 0.13875675
-0.055134904 0.36496887 0.14119279
-0.033252906 0.36469653 0.13824451
-0.011416349 0.36442465 0.13530242
0.010374916 0.36442465 0.13530242
0.032188825 0.36469653 0.13824451
0.054048128 0.36496887 0.14119279
-0.25297624 0.037091769 0.1553942
0.25178838 0.037089452 0.15549135
-0.23017187 0.12479751 0.14525664
0.22905383 0.12479751 0.14525664
-0.2089261 0.19064991 0.15333819
0.20774585 0.19064991 0.15333819
-0.18656099 0.23422015 0.1470592
0.18542905 0.23422015 0.1470592
-0.16517258 0.27847692 0.15507019
0.16397984 0.278478 0.1550864
-0.14286083 0.29994693 0.14823532
0.14172283 0.29995149 0.14829993
-0.12091494 0.32174602 0.14704323
0.119785 0.32174972 0.14709127
-0.12145498 0.34461772 0.15873551
-0.099125743 0.34383103 0.14944482
0.09797594 0.34383237 0.14946103
0.12023441 0.34462044 0.15876794
-0.099426486 0.36645287 0.15725839
-0.077119924 0.36541417 0.14601278
0.075996794 0.36541706 0.14604485
0.098216541 0.36645427 0.1572746
-0.077552199 0.38869283 0.16005135
-0.055432212 0.3880938 0.15406621
-0.033441503 0.38773626 0.15049386
-0.011505612 0.38737637 0.14689815
0.010374916 0.38737637 0.14689815
0.032282997 0.38773465 0.15047777
0.054246332 0.3880938 0.15406621
0.076320633 0.38869426 0.16006756
-0.25462368 0.058763135 0.17322814
0.25329864 0.058761664 0.17332661
-0.23164508 0.14693317 0.16265404
0.23039433 0.14693353 0.16267037
-0.21013068 0.21318239 0.16898608
0.20882882 0.21318173 0.16896951
-0.18759067 0.25690284 0.16192174
0.18634434 0.25690284 0.16192174
-0.16609204 0.3014549 0.17000031
0.16478525 0.30145708 0.1700331
-0.14366238 0.32298279 0.16311014
0.14240989 0.32298774 0.16317534
-0.14410071 0.34567693 0.17124498
0.1427826 0.34567693 0.17124498
-0.12191635 0.36751214 0.16872418
0.12061764 0.36751214 0.16872418
-0.099975534 0.38984066 0.17152321
0.098655283 0.38984066 0.17152321
-0.055779029 0.41164804 0.16908419
-0.033669118 0.41123787 0.16527808
-0.011617755 0.41082698 0.161466
0.010374916 0.41082698 0.161466
0.032396808 0.41123605 0.16526175
0.054477543 0.41164804 0.16908419
-0.23316295 0.16934896 0.18057942
0.23177424 0.16934934 0.18059611
-0.21134727 0.23596293 0.18479002
0.20992489 0.23596293 0.18479002
-0.1886483 0.27983916 0.17718697
0.18728445 0.27983916 0.17718697
-0.16693057 0.32456133 0.1836164
0.16551812 0.32456264 0.18363297
-0.1447923 0.36893049 0.18407917
0.14337617 0.36893201 0.18409574
-0.12258282 0.39100462 0.18315399
0.12117305 0.39100462 0.18315399
-0.10060724 0.41367951 0.18793535
-0.078032255 0.41235468 0.17564166
0.076681063 0.41235828 0.17567444
0.099161156 0.41368139 0.18795204
-0.056163903 0.43562362 0.18574953
-0.033925015 0.435179 0.18189919
-0.011745361 0.43473378 0.17804265
0.010374916 0.43473378 0.17804265
0.032524884 0.435179 0.18189919
0.054734126 0.43562362 0.18574953
-0.25629035 0.080707461 0.19127023
0.25482649 0.080706656 0.19136989
-0.23469999 0.19204773 0.19873106
0.23317286 0.19204861 0.19876444
-0.21257867 0.25899702 0.20078623
0.21103197 0.25899607 0.20076954
-0.1897507 0.3030552 0.19309855
0.18826434 0.3030552 0.19309855
-0.19029951 0.32590109 0.20102024
0.18875529 0.32590503 0.20107043
-0.16740599 0.34737837 0.19133663
0.1659359 0.34738261 0.19138646
-0.14565116 0.39269218 0.20001733
0.14411233 0.39269394 0.20003414
-0.12337483 0.4150123 0.20030153
0.12183498 0.41501769 0.20035148
-0.078569286 0.43647033 0.19308186
0.077084221 0.43647608 0.1931318
-0.034221467 0.45970064 0.20115399
-0.011891649 0.45919454 0.19704556
0.010374916 0.45919454 0.19704556
0.032673232 0.45970261 0.2011708
-0.23625655 0.21503478 0.21711314
0.23458666 0.21503541 0.21713006
-0.2138225 0.28228745 0.2169441
0.2121526 0.28228745 0.2169441
-0.19117108 0.34926352 0.2136004
0.18952899 0.34926644 0.21363401
-0.16832323 0.37097672 0.20623052
0.16673671 0.37097836 0.20624721
-0.14663346 0.4169462 0.21824658
0.14495823 0.4169572 0.21834803
-0.12426546 0.43953055 0.21958411
-0.10131337 0.43799433 0.20628095
0.09972658 0.43799829 0.20631444
0.12257654 0.43953434 0.21961808
-0.07919278 0.46120042 0.21333051
-0.056615192 0.4602102 0.20529103
0.055035245 0.46021217 0.20530784
0.077551469 0.46120447 0.21336424
-0.012056286 0.4842599 0.21843278
0.010374916 0.48425788 0.21841574
-0.21459436 0.30540183 0.22697079
0.21285197 0.30540663 0.22703898
-0.19229104 0.37315091 0.22976542
0.19052455 0.37315401 0.22979963
-0.16941197 0.39508319 0.22390974
0.16769212 0.39509001 0.22397768
-0.10211759 0.46290559 0.22717524
0.10036945 0.46290761 0.22719216
-0.057123732 0.48542184 0.22731137
-0.034555864 0.48484117 0.22287369
0.032840043 0.48483685 0.22283983
0.055373751 0.4854196 0.22729433
-0.26034203 0.10292951 0.23513114
0.25857416 0.10292955 0.23562777
-0.23783302 0.23831576 0.23573029
0.23601849 0.23831576 0.23573029
-0.21536891 0.32867333 0.23703265
0.2135503 0.32868004 0.23711824
-0.17066567 0.41975051 0.24426699
0.16879101 0.41976181 0.24437022
-0.1478233 0.44192579 0.24032748
0.14597498 0.44192973 0.24036181
-0.12528072 0.46467778 0.24156487
0.12342194 0.46468005 0.24158204
-0.079917334 0.4866716 0.23686099
0.078094505 0.48667386 0.23687816
-0.034938868 0.51075369 0.24775076
-0.012244952 0.51008713 0.24294114
0.010374916 0.51008713 0.24294114
0.03303194 0.51075596 0.24776804
-0.23942977 0.26189619 0.25458717
0.23747009 0.26189619 0.25458717
-0.24000101 0.28502122 0.26133335
0.23799478 0.28502545 0.26140308
-0.21665351 0.3526608 0.25371981
0.2147017 0.35266224 0.25373733
-0.19371311 0.39772332 0.25029135
0.19179714 0.39774075 0.25046408
-0.10304861 0.48856959 0.25136399
0.10111374 0.48856959 0.25136399
-0.080762193 0.51304656 0.26429892
-0.057707194 0.51142228 0.25257635
0.055763256 0.5114246 0.2525934
0.078728557 0.51305145 0.26433372
-0.24069799 0.30835283 0.26956415
0.23863786 0.30836606 0.26975691
-0.21824883 0.37727809 0.27444375
0.21613996 0.37728295 0.27449656
-0.19554493 0.42324942 0.27673125
0.19342454 0.42326638 0.2768898
-0.17213511 0.4451358 0.26812792
0.17007403 0.44514197 0.26818025
-0.14922801 0.46773624 0.26639557
0.14717744 0.46773624 0.26639557
-0.12646073 0.49063054 0.26711273
0.12440462 0.49063054 0.26711273
-0.035388574 0.53768265 0.27696002
-0.012466094 0.53690881 0.27166843
0.010374916 0.53690881 0.27166843
0.033256795 0.53768528 0.27697778
-0.24237855 0.33270535 0.28941047
0.24015763 0.33271226 0.28949928
-0.10415936 0.51525295 0.28022182
0.10200287 0.51525527 0.28023946
-0.058392961 0.53845936 0.28227067
0.056220438 0.53846216 0.28228831
-0.22026548 0.40276203 0.30064106
0.21795376 0.40276563 0.30067682
-0.17390519 0.47148979 0.29687023
0.17162 0.47148979 0.29687023
-0.1509279 0.49466497 0.29794168
0.14863448 0.49466497 0.29794168
-0.12801842 0.5181095 0.30083776
0.12570269 0.5181095 0.30083776
-0.081772834 0.54063129 0.29712009
0.079486556 0.54063666 0.29715586
-0.012732043 0.56506866 0.30621624
0.010374916 0.56506866 0.30621624
-0.24481697 0.35812151 0.31820726
0.24238569 0.3581413 0.31844246
-0.19787678 0.45001563 0.31038868
0.1954931 0.45002609 0.31047881
-0.10550377 0.5432685 0.31515074
0.10307842 0.54327124 0.31516874
-0.035930153 0.56598032 0.31213677
0.033527449 0.56598032 0.31213677
-0.059219953 0.56689537 0.31808031
0.056771494 0.56689537 0.31808031
-0.22280979 0.42938811 0.33369267
0.22025509 0.42940986 0.33389366
-0.17634422 0.49970764 0.33647513
0.17375614 0.49971256 0.33651173
-0.15304877 0.52316183 0.33730006
0.15045236 0.52316183 0.33730006
-0.083021335 0.56991076 0.33766687
0.08042296 0.56991643 0.33770335
-0.1301187 0.54782605 0.34631026
0.12745719 0.54784214 0.34642076
-0.013064421 0.59515566 0.34939349
0.010374916 0.59515566 0.34939349
-0.2488312 0.3856999 0.36561251
0.24605711 0.38574809 0.3661356
-0.20111178 0.47890601 0.35708201
0.19837682 0.4789333 0.35730481
-0.10723578 0.57337236 0.36014974
0.10446633 0.57338673 0.36024272
-0.036607839 0.59624845 0.35615361
0.033866294 0.59624845 0.35615361
-0.060363408 0.59809786 0.36759365
0.057534087 0.59810096 0.36761236
-0.084763639 0.60240692 0.39424932
0.081730589 0.60241914 0.39432538
-0.1565081 0.55589783 0.40149724
0.15343872 0.55596495 0.4019562
-0.1332128 0.58155531 0.41329968
0.13003802 0.58158201 0.41347313
-0.013528525 0.62880522 0.40968227
0.010374916 0.62879872 0.40964365
-0.18122853 0.53403729 0.41578674
0.17805082 0.53409606 0.41621125
-0.037575312 0.63038212 0.418993
0.03435003 0.63038212 0.418993
-0.11071394 0.61150271 0.45051527
0.10724905 0.61151856 0.45061386
-0.062186945 0.63504982 0.44655502
0.058752213 0.63507986 0.44673181
-0.014276314 0.66990787 0.50682294
0.010374916 0.66990787 0.50682294
-0.039038252 0.67118108 0.51401365
0.035081815 0.67118829 0.51405478
-0.014310979 0.72007698 0.51132607
0.010374916 0.72007298 0.51130581
-0.064120859 0.67406386 0.53029609
0.060039084 0.67406738 0.53031671
-0.063980773 0.69777507 0.52423012
-0.039195865 0.69777888 0.52425086
-0.014408248 0.69772547 0.52396178
0.010374916 0.69772547 0.52396178
0.035160307 0.69777888 0.52425086
0.059945375 0.69777507 0.52423012
-0.039194275 0.72254443 0.52414763
0.03515951 0.72254443 0.52414763
-0.089368381 0.65151763 0.54379272
0.085183837 0.65152824 0.54385531
-0.089116551 0.69987828 0.53561461
0.084995441 0.69989371 0.53569794
-0.064298511 0.72520816 0.53798866
0.060157202 0.72520816 0.53798866
-0.039464228 0.75083834 0.54168165
-0.014500196 0.74968237 0.53590584
0.010374916 0.74968237 0.53590584
0.035294648 0.75084263 0.54170263
-0.11478098 0.67864674 0.55618
-0.089731634 0.6785422 0.55559003
0.085454836 0.6785422 0.55559003
0.11050028 0.67865038 0.55620122
-0.089952685 0.72997713 0.56276894
0.085623063 0.7299974 0.56287467
-0.064706944 0.75363892 0.55567431
0.060429487 0.75363892 0.55567431
-0.039737139 0.77944243 0.55940771
-0.014635838 0.77822 0.55352652
0.010374916 0.77821541 0.55350542
0.03543127 0.77945107 0.55945015
-0.06511987 0.78238279 0.5735544
0.060704771 0.78238279 0.5735544
-0.040013056 0.80836105 0.5773288
-0.014772643 0.80706114 0.571298
0.010374916 0.80706567 0.57131922
0.035569228 0.80837023 0.5773716
-0.11598657 0.65891999 0.58750224
0.11146411 0.65891999 0.58750224
-0.11605027 0.7097705 0.58915722
0.11151507 0.7097705 0.58915722
-0.09051159 0.75869185 0.58091974
0.086042278 0.75871325 0.58102703
-0.091076761 0.78772843 0.59927428
0.086465679 0.78774619 0.59936059
-0.11681557 0.73888189 0.60904014
0.11212664 0.73887783 0.60901856
-0.11758934 0.76834357 0.62914312
0.11274768 0.76835239 0.62918735
0 0 0 1 0 0 0 1 0 0 0 1 0 0 0 0 0 1292 1 0 0
