ply
format ascii 1.0
comment PCL generated
element vertex 926
property float x
property float y
property float z
element camera 1
property float view_px
property float view_py
property float view_pz
property float x_axisx
property float x_axisy
property float x_axisz
property float y_axisx
property float y_axisy
property float y_axisz
property float z_axisx
property float z_axisy
property float z_axisz
property float focal
property float scalex
property float scaley
property float centerx
property float centery
property int viewportx
property int viewporty
property float k1
property float k2
end_header
-0.012097064 -0.3628695 -0.059783816
0.012554701 -0.36287725 -0.05971241
-0.061341729 -0.33796272 -0.062332511
-0.036655635 -0.33761206 -0.065836906
-0.012023956 -0.33726743 -0.069280624
0.012554701 -0.33727622 -0.069191933
0.037159592 -0.3376084 -0.065872669
0.061821457 -0.33797869 -0.062172294
-0.061267365 -0.31303316 -0.065552711
-0.036609165 -0.31272802 -0.068855047
-0.012001863 -0.31242362 -0.072150588
0.012554701 -0.31243178 -0.072061896
0.037136499 -0.31272632 -0.068872809
0.061768867 -0.3130298 -0.065588236
-0.061267365 -0.28842583 -0.065552711
-0.036609165 -0.28814617 -0.068854928
-0.012001863 -0.28786704 -0.072150588
0.012554701 -0.28787449 -0.072062135
0.037136499 -0.28814468 -0.06887269
0.061769139 -0.28842431 -0.065570354
-0.061267365 -0.26381832 -0.065552711
-0.036609165 -0.26356423 -0.068854928
-0.012001863 -0.26331052 -0.072150588
0.012554701 -0.26331729 -0.072062135
0.037136499 -0.2635628 -0.068872809
0.061769139 -0.2638171 -0.065570474
-0.061267365 -0.23921105 -0.065552711
-0.036609165 -0.23898229 -0.068855047
-0.012001863 -0.23875389 -0.072150707
0.012554701 -0.23876011 -0.072062016
0.037136499 -0.23898101 -0.06887269
0.061769139 -0.23920983 -0.065570474
-0.061267365 -0.21460372 -0.065552592
-0.036609165 -0.21440028 -0.068855047
-0.012001863 -0.21419741 -0.072150588
0.012554701 -0.21420282 -0.072062016
0.037136499 -0.21439916 -0.068872809
0.061769139 -0.21460265 -0.065570474
-0.061267365 -0.18999644 -0.065552711
-0.036609165 -0.18981834 -0.068855047
-0.012001863 -0.18964078 -0.072150588
0.012554701 -0.18964551 -0.072062135
0.037136499 -0.18981746 -0.068872809
0.061769139 -0.18999536 -0.065570474
-0.061267365 -0.16538894 -0.065552711
-0.036609165 -0.16523656 -0.068855047
-0.012001863 -0.16508429 -0.072150588
0.012554701 -0.16508833 -0.072062016
0.037136499 -0.1652357 -0.06887269
0.061769139 -0.16538817 -0.065570474
-0.061267365 -0.1407816 -0.065552711
-0.036609165 -0.14065461 -0.068854928
-0.012001863 -0.14052767 -0.072150588
0.012554701 -0.14053114 -0.072062016
0.037136499 -0.14065379 -0.068872809
0.061769139 -0.14078088 -0.065570474
-0.061267365 -0.1161743 -0.065552592
-0.036609165 -0.11607264 -0.068855047
-0.012001863 -0.11597107 -0.072150469
0.012554701 -0.11597383 -0.072062135
0.037136499 -0.11607213 -0.06887269
0.061769139 -0.1161738 -0.065570354
-0.061267365 -0.09156692 -0.065552592
-0.036609165 -0.091490626 -0.068855047
-0.012001863 -0.091414541 -0.072150707
0.012554701 -0.091416538 -0.072062016
0.037136499 -0.091490269 -0.06887269
0.061769139 -0.09156651 -0.065570354
-0.061267365 -0.06695953 -0.065552711
-0.036609165 -0.066908672 -0.068855166
-0.012001863 -0.066857964 -0.072150469
0.012554701 -0.066859342 -0.072062016
0.037136499 -0.066908419 -0.06887269
0.061769139 -0.066959329 -0.065570474
-0.061267365 -0.042352192 -0.065552711
-0.036609165 -0.042326815 -0.068854928
-0.012001863 -0.042301435 -0.072150588
0.012554701 -0.04230215 -0.072062016
0.037136499 -0.042326558 -0.06887269
0.061769139 -0.042352088 -0.065570354
-0.036609165 -0.017744854 -0.068854928
-0.012001863 -0.017744854 -0.072150588
0.012554701 -0.017744906 -0.072044492
0.037136499 -0.017744906 -0.06887269
0.061769139 -0.017744906 -0.065570354
-0.061267365 -0.017744804 -0.065552592
-0.061267365 0.0068624821 -0.065552711
-0.036609165 0.0068371557 -0.068854928
-0.012001863 0.0068117268 -0.072150707
0.012554701 0.0068124924 -0.072044373
0.037136499 0.0068369508 -0.068872809
0.061769139 0.0068623815 -0.065570474
-0.061410066 0.031564899 -0.059373498
-0.036699992 0.031509802 -0.062955737
-0.012047183 0.031458788 -0.066263318
0.012554701 0.031460322 -0.066174626
0.03718191 0.031509496 -0.062973499
0.061867293 0.031567708 -0.059194922
-0.012108739 0.056245469 -0.058266878
0.012554701 0.056247562 -0.05817771
-0.036735374 0.49980101 -0.06065762
-0.012065932 0.49928847 -0.063827634
0.012554701 0.49930289 -0.063738823
0.037199602 0.49979803 -0.060675383
-0.061308023 0.52391523 -0.063792109
-0.036638401 0.52337915 -0.066955924
-0.012017542 0.52284461 -0.070113778
0.012554701 0.52285945 -0.070025086
0.037151117 0.52337635 -0.066973805
0.061798159 0.52393335 -0.063685417
-0.036609165 0.54763967 -0.068855047
-0.012001863 0.5470562 -0.072150588
0.012554701 0.54707193 -0.072062135
0.037136499 0.54763663 -0.06887269
-0.061267365 0.54822439 -0.065552711
0.061768867 0.54821813 -0.065588117
-0.061267365 0.57283169 -0.065552711
-0.036609165 0.57222158 -0.068855047
-0.012001863 0.57161266 -0.072150469
0.012554701 0.57162911 -0.072062016
0.037136499 0.5722183 -0.06887269
0.061768867 0.57282507 -0.065588236
-0.061267365 0.59743905 -0.065552592
-0.036609165 0.59680349 -0.068854928
-0.012001863 0.59616923 -0.072150588
0.012554701 0.59618628 -0.072062016
0.037136499 0.59680015 -0.068872929
0.061768867 0.5974322 -0.065588117
-0.061267365 0.62204647 -0.065552592
-0.036609165 0.6213854 -0.068854928
-0.012001863 0.62072587 -0.07215035
0.012554701 0.62074345 -0.072061896
0.037136499 0.621382 -0.06887269
0.061768867 0.62203938 -0.065588117
-0.061267365 0.64665395 -0.065552711
-0.036609165 0.64596742 -0.068854928
-0.012001863 0.64528245 -0.072150588
0.012554701 0.64530087 -0.072062135
0.037136499 0.64596367 -0.06887269
0.061768867 0.64664632 -0.065588355
-0.061384525 0.67235476 -0.060479283
-0.036677528 0.67150652 -0.06441462
-0.012032831 0.67070609 -0.068127632
0.012554701 0.6707291 -0.068021178
0.037170678 0.67150253 -0.064432383
0.061850816 0.67240083 -0.060265303
-0.061819833 -0.3896175 -0.041630149
-0.036949288 -0.38902476 -0.04676342
-0.012170468 -0.3886224 -0.050248265
0.012554701 -0.38863063 -0.050176501
0.037306279 -0.38901857 -0.046817422
0.062139388 -0.38962999 -0.041521907
-0.086626336 -0.36487854 -0.041143298
-0.061579797 -0.3637059 -0.052023649
-0.036801886 -0.36324099 -0.056337476
0.037232719 -0.36323708 -0.056373239
0.061979912 -0.36372134 -0.05188036
0.086940899 -0.36488053 -0.04112494
-0.086306766 -0.33904454 -0.051521778
0.086701632 -0.33904824 -0.051485896
-0.11127453 -0.31493491 -0.044964194
-0.086187661 -0.31397191 -0.055389762
0.086612716 -0.31397688 -0.055336356
0.11161587 -0.31492832 -0.045036316
-0.11127453 -0.29016918 -0.044964194
-0.086187661 -0.28928629 -0.055389881
0.086612716 -0.2892909 -0.055336118
0.11161587 -0.29016307 -0.045036077
-0.11127453 -0.26540333 -0.044964194
-0.086187661 -0.26460066 -0.055389762
0.086612716 -0.26460487 -0.055336237
0.11161587 -0.26539779 -0.045036077
-0.11127453 -0.24063745 -0.044964075
0.11161587 -0.24063246 -0.045036197
-0.086187661 -0.23991512 -0.055389881
0.086612716 -0.23991889 -0.055336237
-0.11127453 -0.21587162 -0.044964194
-0.086187661 -0.2152296 -0.055389762
0.086612716 -0.21523292 -0.055336118
0.11161587 -0.21586712 -0.045036316
-0.11127453 -0.19110583 -0.044964075
-0.086187661 -0.19054399 -0.055389881
0.086612716 -0.19054689 -0.055336237
0.11161587 -0.19110189 -0.045036197
-0.11127453 -0.16633989 -0.044964194
-0.086187661 -0.16585831 -0.055389881
0.086612716 -0.16586082 -0.055336356
0.11161587 -0.16633663 -0.045036077
-0.11127453 -0.14157405 -0.044964194
-0.086187661 -0.1411728 -0.055389762
0.086612716 -0.14117488 -0.055336237
0.11161587 -0.14157134 -0.045036197
-0.11127453 -0.11680815 -0.044964075
-0.086187661 -0.11648718 -0.055389881
0.086612716 -0.11648886 -0.055336118
0.11161587 -0.11680601 -0.045036316
-0.11127453 -0.092042416 -0.044964194
-0.086187661 -0.09180171 -0.055389762
0.086612716 -0.091802828 -0.055336237
0.11161587 -0.092040785 -0.045036077
-0.11127453 -0.067276582 -0.044964075
-0.086187661 -0.067115992 -0.055389762
0.086612716 -0.067116857 -0.055336118
0.11161587 -0.067275405 -0.045036197
-0.11127453 -0.042510591 -0.044964194
-0.086187661 -0.042430371 -0.055389762
0.086612716 -0.042430833 -0.055336237
0.11161587 -0.042510081 -0.045036316
-0.11127453 -0.017744854 -0.044964194
-0.086187661 -0.017744854 -0.055389762
0.086612716 -0.017744804 -0.055336237
0.11161587 -0.017744804 -0.045036197
-0.11127453 0.0070210341 -0.044964194
-0.086187661 0.0069407113 -0.055389881
0.086612716 0.0069411211 -0.055336118
0.11161642 0.0070206765 -0.045018077
-0.086386323 0.031725749 -0.048937917
0.086761296 0.031726316 -0.048902035
-0.061610442 0.056420356 -0.050696731
-0.036823086 0.056321859 -0.054960608
0.037243456 0.056321345 -0.054978609
0.062000342 0.056423627 -0.050553441
-0.061797339 0.081391059 -0.042604089
-0.036938772 0.08124201 -0.047446489
-0.012166325 0.081139214 -0.050786614
0.012554701 0.081141412 -0.050714731
0.03730116 0.081240937 -0.047482491
0.062124949 0.081395559 -0.042459846
-0.037038598 0.10623839 -0.040962696
-0.012216134 0.10610926 -0.044315934
0.012554701 0.10611202 -0.044243932
0.037351072 0.10623696 -0.040998816
-0.037028596 0.42850477 -0.041612148
-0.012212252 0.42806026 -0.044819951
0.012554701 0.42807025 -0.044748068
0.037346072 0.42849985 -0.041648269
-0.061779436 0.45303801 -0.043379188
-0.036930468 0.45236427 -0.047985911
-0.012163285 0.45189705 -0.051180959
0.012554701 0.45191005 -0.051091433
0.03729701 0.45235905 -0.048021674
0.062112458 0.45305389 -0.043270946
-0.061621223 0.47676128 -0.050230265
-0.036832727 0.47612932 -0.054334164
-0.012114514 0.47563952 -0.057516813
0.012554701 0.4756532 -0.057427406
0.037248142 0.4761239 -0.054369926
0.062007248 0.47678062 -0.050104618
-0.086442202 0.50198889 -0.047122955
-0.061463673 0.50038362 -0.057052374
0.061902482 0.50040686 -0.056909323
0.086803213 0.50199461 -0.047087073
-0.11131126 0.52726549 -0.044009686
-0.086231738 0.52558059 -0.053958297
0.086645767 0.52558959 -0.053904533
0.1116458 0.52725613 -0.044063807
-0.11127453 0.55186969 -0.044964194
-0.086187661 0.55002367 -0.055389762
0.086612716 0.55003327 -0.055336237
0.11161587 0.55185682 -0.045036316
-0.11127453 0.57663542 -0.044964194
-0.086187661 0.57470936 -0.055389881
0.086612716 0.57471925 -0.055336237
0.11161587 0.57662225 -0.045036197
-0.11127384 0.60139787 -0.044982076
-0.086187661 0.59939498 -0.055389762
0.086612716 0.59940529 -0.055335999
0.11161587 0.60138732 -0.045036077
-0.11127384 0.62616354 -0.044982195
-0.086187661 0.62408042 -0.055389762
0.086612716 0.62409127 -0.055336237
0.11161587 0.62615269 -0.045036077
-0.086187661 0.64876622 -0.055389762
0.086612716 0.64877725 -0.055336237
-0.11127384 0.65092921 -0.044982195
0.11161587 0.65091801 -0.045036197
-0.086393505 0.67489278 -0.048704267
0.086767524 0.67490816 -0.048632503
-0.061746579 0.70050091 -0.04480207
-0.036898397 0.69932508 -0.050068855
-0.01214301 0.69848871 -0.053815126
0.012554701 0.69851285 -0.053707719
0.037281111 0.69932109 -0.050086737
0.062091939 0.70054495 -0.044604063
-0.037286289 -0.44139323 -0.024874568
-0.012338322 -0.44092625 -0.028443456
0.012554701 -0.44093588 -0.028370619
0.037474774 -0.4413861 -0.024929285
-0.062061418 -0.41569752 -0.031169176
-0.037097298 -0.41496086 -0.037150025
-0.01224445 -0.41453126 -0.040637732
0.012554701 -0.4145402 -0.040565491
0.037380282 -0.4149541 -0.037204385
0.062299896 -0.41570634 -0.031096578
-0.08694911 -0.39088413 -0.030660868
0.087181717 -0.39087996 -0.030697107
-0.11184464 -0.36606303 -0.030152202
0.11207026 -0.36604932 -0.030279398
-0.11144105 -0.34013382 -0.040637851
0.11174852 -0.34012479 -0.040727973
-0.13681267 -0.31647959 -0.028243423
0.13703312 -0.316493 -0.028097749
-0.13681267 -0.29158506 -0.028243303
0.13703312 -0.29159737 -0.02809763
-0.13681267 -0.26669043 -0.028243423
0.13703312 -0.26670167 -0.028097868
-0.13681267 -0.24179593 -0.028243184
0.13703312 -0.24180599 -0.028097749
-0.13681267 -0.21690132 -0.028243423
0.13703312 -0.21691042 -0.028097749
-0.13681267 -0.1920068 -0.028243184
0.13703312 -0.1920146 -0.028097749
-0.13681267 -0.16711217 -0.028243423
0.13703312 -0.16711897 -0.028097749
-0.13681267 -0.14221761 -0.028243184
0.13703312 -0.14222322 -0.028097749
-0.13681267 -0.11732318 -0.028243184
0.13703312 -0.11732762 -0.028097749
-0.13681267 -0.092428558 -0.028243303
0.13703312 -0.092431933 -0.028097749
-0.13681267 -0.067534044 -0.028243184
0.13703312 -0.067536138 -0.028097749
-0.13681267 -0.042639427 -0.028243303
0.13703312 -0.042640548 -0.028097749
-0.13681267 -0.017744906 -0.028243184
0.13703312 -0.017744854 -0.028097749
-0.13681267 0.007149715 -0.028243184
0.13703312 0.0071508363 -0.028097749
-0.11152588 0.031887367 -0.038434148
0.11181638 0.031885937 -0.03852427
-0.11186422 0.05690638 -0.029643297
-0.086655244 0.0566625 -0.040204525
0.086962581 0.056662962 -0.040186405
0.11208929 0.056906126 -0.029661536
-0.086906061 0.081715979 -0.032058716
0.087150276 0.081715979 -0.032058716
-0.087123349 0.10685264 -0.02500236
-0.061960075 0.10644638 -0.035557389
0.062232893 0.10645057 -0.03544867
0.08731325 0.10685264 -0.02500236
-0.062121842 0.13160816 -0.028552413
-0.037138272 0.13133405 -0.034488678
-0.012265867 0.13117862 -0.037855387
0.012554701 0.13118199 -0.037783265
0.037400771 0.13133165 -0.034543037
0.062340468 0.13161245 -0.028461576
-0.037222669 0.15647592 -0.029007077
-0.012307975 0.15629397 -0.032385349
0.012554701 0.15629791 -0.03231287
0.037442964 0.156473 -0.029061675
-0.01235023 0.18149452 -0.026896596
0.012554701 0.18149906 -0.026823878
-0.012371408 0.20659022 -0.024145246
0.012554701 0.20659508 -0.024072289
-0.012371408 0.2315162 -0.024145246
0.012554701 0.23152182 -0.024072289
-0.012371408 0.25644234 -0.024145246
0.012554701 0.25645003 -0.02405405
-0.012371548 0.28137025 -0.024126887
0.012554701 0.28137684 -0.02405417
-0.012371548 0.30629626 -0.024127007
0.012554701 0.30630377 -0.024053931
-0.012371548 0.33122253 -0.024127007
0.012554701 0.33123055 -0.02405417
-0.012351912 0.35585433 -0.026678205
0.012554701 0.35586056 -0.026623487
-0.037217908 0.380436 -0.029316187
-0.01230672 0.3800379 -0.032548666
0.012554701 0.38004455 -0.032494068
0.037440583 0.3804293 -0.029370666
-0.062097918 0.40528661 -0.029588819
-0.037127391 0.40455297 -0.035195351
-0.012261413 0.40412915 -0.038434029
0.012554701 0.40413848 -0.038361669
0.037395328 0.40454587 -0.035249472
0.062324513 0.40529856 -0.029497862
-0.087079599 0.43060952 -0.026423097
-0.061938334 0.4292134 -0.036498666
0.062218118 0.42922598 -0.036408186
0.087280005 0.43060693 -0.026441455
-0.086865842 0.45450285 -0.033364654
0.087120533 0.45450535 -0.033346653
-0.086653575 0.47829655 -0.040258646
0.086961329 0.47829935 -0.040240526
-0.11184254 0.47984418 -0.03020668
0.11206971 0.47983015 -0.030297399
-0.11157598 0.50360405 -0.037132025
0.11185703 0.50359231 -0.037204266
-0.13682276 0.52997243 -0.028024912
0.13704152 0.52999729 -0.027879238
-0.13681267 0.55483013 -0.028243423
0.13703312 0.55485588 -0.028097749
-0.13681267 0.57972455 -0.028243184
0.13703312 0.57975161 -0.02809763
-0.13681267 0.60461926 -0.028243423
0.13703312 0.60464716 -0.028097868
-0.13681267 0.62951374 -0.028243184
0.13703312 0.62954295 -0.028097749
-0.13681182 0.65440464 -0.028261423
0.13703312 0.65443861 -0.02809751
-0.11158644 0.67744547 -0.036860704
0.11186539 0.67742991 -0.036932945
-0.086879805 0.7031554 -0.032911539
0.087131426 0.7031635 -0.032875061
-0.037479557 -0.46805319 -0.012321591
-0.012434741 -0.46755487 -0.015918016
0.012554701 -0.46756494 -0.015844822
0.037571408 -0.46804565 -0.012376666
-0.062372167 -0.44233042 -0.017713189
0.062506795 -0.44233772 -0.017658353
-0.087275118 -0.41706416 -0.020073414
0.087425798 -0.41705739 -0.020128369
-0.11231495 -0.3923538 -0.01793313
0.11245494 -0.39237082 -0.017786503
-0.1376763 -0.36828384 -0.0095453262
0.13774861 -0.36828786 -0.0095084906
-0.13709298 -0.34198144 -0.022174597
0.13726462 -0.34199059 -0.022083282
-0.16278423 -0.31832594 -0.008256793
0.16284353 -0.31832251 -0.0082935095
-0.16278423 -0.2932775 -0.0082566738
0.16284353 -0.29327434 -0.0082935095
-0.16278423 -0.26822904 -0.008256793
0.16284353 -0.26822618 -0.0082937479
-0.16278423 -0.24318062 -0.0082566738
0.16284353 -0.24317817 -0.0082935095
-0.16278423 -0.21813221 -0.008256793
0.16284353 -0.21812999 -0.0082935095
-0.16278423 -0.19308387 -0.0082566738
0.16284353 -0.19308183 -0.0082936287
-0.16278423 -0.16803534 -0.0082566738
0.16284353 -0.16803366 -0.0082936287
-0.16278423 -0.14298703 -0.0082566738
0.16284353 -0.1429856 -0.0082935095
-0.16278423 -0.11793844 -0.008256793
0.16284353 -0.11793742 -0.0082935095
-0.16278423 -0.092890121 -0.0082566738
0.16284353 -0.092889257 -0.0082935095
-0.16278423 -0.067841753 -0.008256793
0.16284353 -0.067841142 -0.0082936287
-0.16278423 -0.042793278 -0.0082565546
0.16284353 -0.042793021 -0.0082935095
-0.16278423 -0.017744854 -0.0082566738
0.16284353 -0.017744804 -0.0082935095
-0.16278423 0.0073035173 -0.008256793
0.16284353 0.0073032621 -0.0082935095
-0.13717398 0.032164745 -0.020420671
0.13733353 0.032166578 -0.020292878
-0.13766015 0.057362631 -0.0098947287
0.13773587 0.057363853 -0.0098397732
-0.11222693 0.082080573 -0.020219684
0.11238621 0.082086645 -0.020018578
-0.11255074 0.10736071 -0.011807084
0.11264472 0.10736772 -0.011623383
-0.087339908 0.13209693 -0.017969608
0.087475225 0.13209622 -0.017987847
-0.087523997 0.15739286 -0.011990905
-0.062259022 0.15682049 -0.022612691
0.06243192 0.15682544 -0.022521496
0.087612882 0.15739082 -0.01202774
-0.062396701 0.18212555 -0.016651034
-0.037307344 0.18170337 -0.023506999
0.037485301 0.1816999 -0.023561716
0.062523425 0.18212995 -0.016577721
-0.062461916 0.20730501 -0.013827085
-0.037348948 0.20682159 -0.020804644
0.037506245 0.20681909 -0.020841002
0.062566906 0.20731007 -0.013753653
-0.062461916 0.2323105 -0.013827085
-0.037348948 0.23177345 -0.020804524
0.037506245 0.23177055 -0.020841002
0.062566906 0.23231611 -0.013753772
-0.062461916 0.25731608 -0.013827205
-0.037348948 0.25672516 -0.020804524
0.037506245 0.25672215 -0.020841241
0.062566906 0.2573224 -0.013753891
-0.062461916 0.2823216 -0.013827205
-0.037348948 0.28167698 -0.020804524
0.037506245 0.28167367 -0.020841122
0.062566906 0.28232834 -0.013753772
-0.062461916 0.30732718 -0.013827324
-0.037348948 0.30662888 -0.020804644
0.037506245 0.30662528 -0.020841002
0.062566906 0.30733454 -0.013753653
-0.062461916 0.33233261 -0.013827205
-0.037348948 0.33158064 -0.020804644
0.037506245 0.33157676 -0.020841002
0.062567189 0.33234257 -0.013735294
-0.062391195 0.35698453 -0.016889215
-0.03730819 0.3562268 -0.023452044
0.037485868 0.35622251 -0.023488641
0.062520042 0.35699514 -0.016797662
0.08773613 0.35816231 -0.0066907406
-0.087491751 0.38244098 -0.013037801
-0.062245112 0.38118756 -0.023214936
0.062422648 0.38119867 -0.023123741
0.08758913 0.38243866 -0.013056159
-0.087293699 0.40661082 -0.019469857
0.08744058 0.40660846 -0.019488335
-0.11245745 0.43229896 -0.014230847
0.11257008 0.43232441 -0.014047384
-0.11214256 0.45610467 -0.022411942
0.11231926 0.45613688 -0.022192836
-0.13757777 0.48269662 -0.011678457
0.13766864 0.48271099 -0.011586547
-0.13719931 0.50639403 -0.019872308
0.13735464 0.50641495 -0.019744396
-0.16278423 0.53332043 -0.008256793
0.16284353 0.53331411 -0.0082935095
-0.16278423 0.5583688 -0.0082565546
0.16284353 0.55836242 -0.0082935095
-0.16278423 0.58341724 -0.008256793
0.16284353 0.58341038 -0.0082935095
-0.16278423 0.60846567 -0.0082565546
0.16284353 0.6084587 -0.0082935095
-0.16278423 0.63351417 -0.008256793
0.16284353 0.6335066 -0.0082935095
-0.16278423 0.65856236 -0.0082566738
0.16284353 0.65855491 -0.0082935095
-0.13739635 0.68202674 -0.015606403
0.13751814 0.68205035 -0.015496373
-0.11226003 0.70618063 -0.019360185
0.11241324 0.70622957 -0.01914084
-0.063006237 -0.49629742 0.0097424984
-0.037674326 -0.49492061 0.00032925606
-0.01253191 -0.49439046 -0.0032954216
0.012554701 -0.49439859 -0.0032398701
0.037668787 -0.49491259 0.00027370453
0.062929228 -0.49630287 0.0097796917
-0.088119879 -0.4707804 0.007360816
-0.06268765 -0.469199 -0.0040524006
0.062717408 -0.46920928 -0.00397861
0.088058054 -0.47076496 0.0072492361
-0.087695718 -0.44380912 -0.006414175
0.087740809 -0.44379944 -0.0064879656
-0.11281441 -0.41892603 -0.0049568415
0.11285283 -0.41893733 -0.0048648119
-0.13826247 -0.39478779 0.0031456947
0.13823497 -0.39478567 0.0031270981
-0.16316912 -0.34408909 -0.00111413
0.16317084 -0.34407985 -0.0012066364
-0.16321297 0.032474443 -0.00030004978
0.1632093 0.032473475 -0.00037407875
-0.13811016 0.082698338 -0.00015211105
0.13810948 0.082698844 -0.00013363361
-0.1385044 0.10813785 0.0083837509
0.13843659 0.10813703 0.0083651543
-0.11287054 0.13276535 -0.0034985542
0.11290058 0.13277398 -0.003313899
-0.11314555 0.15823536 0.003646493
0.11311834 0.15824148 0.0037578344
-0.087709337 0.1827832 -0.0059715509
0.087751031 0.18277872 -0.0060454607
-0.087792322 0.20803604 -0.0032769442
0.087813258 0.20803078 -0.0033507347
-0.087792322 0.23312277 -0.0032769442
0.087813258 0.23311704 -0.0033508539
-0.087792322 0.25820938 -0.0032769442
0.087813258 0.25820324 -0.0033508539
-0.087792322 0.28329629 -0.003276825
0.08781369 0.2832911 -0.0033322573
-0.087792322 0.30838293 -0.003276825
0.08781369 0.30837741 -0.0033322573
-0.087792322 0.33346975 -0.0032769442
0.08781369 0.33346382 -0.0033322573
-0.087688342 0.35816655 -0.0066537857
-0.11336012 0.35999966 0.0092211962
0.11328885 0.36000815 0.0092955828
-0.11306919 0.38425165 0.0016627312
0.11305781 0.3842676 0.0017924309
-0.11277393 0.40837255 -0.0060083866
0.11282216 0.40839186 -0.0058609247
-0.13833959 0.43493807 0.0048155785
0.13830067 0.4349407 0.0048340559
-0.13795729 0.45887649 -0.0034614801
0.13798422 0.45888716 -0.0033875704
-0.16372003 0.48589721 0.0091094971
0.16366281 0.48594883 0.0094445944
-0.1631811 0.50946254 -0.00089228153
0.16318367 0.50945652 -0.00092923641
-0.16377923 0.68759084 0.01020813
-0.1382993 0.71138281 0.0039433241
0.13826852 0.71139538 0.0039988756
-0.063374817 -0.5239417 0.025702953
-0.03789591 -0.52225089 0.014721513
-0.012641741 -0.52167368 0.010971785
0.012554701 -0.5216794 0.011009097
0.037779436 -0.52223945 0.014647007
0.063174382 -0.5239417 0.025702953
-0.088597894 -0.4982197 0.022884965
0.088422611 -0.49824166 0.023035169
-0.11344686 -0.44615027 0.011475086
0.11335768 -0.44615752 0.011530876
-0.13888603 -0.42158684 0.016646504
0.13875245 -0.42157772 0.016571641
-0.1640466 -0.37094751 0.015169859
0.16394019 -0.37097764 0.015450239
-0.18979789 -0.32127377 0.023654699
0.18961728 -0.32128066 0.023729682
-0.18979789 -0.29597968 0.023654699
0.18961728 -0.29598597 0.023729801
-0.18979789 -0.27068564 0.023654699
0.18961728 -0.27069137 0.023729801
-0.18979789 -0.2453915 0.023654699
0.18961728 -0.24539676 0.023729801
-0.18979789 -0.22009747 0.023654699
0.18961728 -0.22010201 0.023729801
-0.18979789 -0.19480343 0.023654699
0.18961728 -0.19480741 0.023729801
-0.18979789 -0.16950929 0.023654699
0.18961728 -0.16951282 0.02372992
-0.18979789 -0.14421521 0.023654699
0.18961728 -0.14421806 0.023729682
-0.18979789 -0.11892106 0.02365458
0.18961728 -0.11892346 0.023729682
-0.18979789 -0.093627118 0.023654699
0.18961728 -0.093628854 0.023729801
-0.18979789 -0.06833303 0.023654699
0.18961728 -0.068334207 0.02372992
-0.18979789 -0.043038994 0.023654699
0.18961728 -0.043039508 0.023729801
-0.18979789 -0.017744854 0.023654699
0.18961728 -0.017744906 0.023729801
-0.18979789 0.0075492859 0.023654699
0.18961728 0.0075496938 0.02372992
-0.16394196 0.057896547 0.013228178
0.16385049 0.057903133 0.013508081
-0.16465472 0.083517648 0.026455164
0.16445805 0.083524033 0.026661992
-0.13889122 0.13370109 0.016758561
0.13875893 0.13370012 0.016739964
-0.13922448 0.15933092 0.023973942
0.1390352 0.15932781 0.023917675
-0.11342177 0.18381755 0.010822892
0.11333759 0.1838209 0.010878682
-0.11353518 0.20921692 0.01376915
0.11342776 0.20921953 0.013806701
-0.11353518 0.23443493 0.013769269
0.11342776 0.23443773 0.013806701
-0.11353518 0.25965279 0.013769269
0.11342776 0.25965589 0.013806701
-0.11353518 0.28487077 0.013769507
0.11342776 0.2848742 0.013806581
-0.11353518 0.31008878 0.013769507
0.11342776 0.31009242 0.013806701
-0.11353518 0.33530691 0.013769388
0.11342776 0.33531094 0.01380682
-0.13908581 0.38662982 0.020971656
0.13891964 0.38662288 0.02091527
-0.13872299 0.41087523 0.013116241
0.13861945 0.41087523 0.013116241
-0.16431277 0.46232393 0.020109177
0.16416752 0.46236244 0.020371675
-0.18979789 0.53872484 0.023654699
0.18961728 0.53873742 0.02372992
-0.18979789 0.56401891 0.023654699
0.18961728 0.56403214 0.023729682
-0.18979789 0.58931285 0.023654699
0.18961728 0.58932692 0.023729801
-0.18979789 0.61460704 0.023654699
0.18961728 0.61462152 0.02372992
-0.18979789 0.63990104 0.023654699
0.18961728 0.63991612 0.02372992
-0.18992983 0.66564047 0.025797009
0.18973373 0.66565996 0.025890946
0.16371787 0.68768322 0.01063633
-0.012898076 -0.57770592 0.044270754
0.012554701 -0.57771564 0.044327974
-0.063807592 -0.55228084 0.044442058
-0.038169116 -0.55034494 0.032466769
-0.012773534 -0.54963779 0.028092504
0.012554701 -0.54964089 0.028111458
0.037917629 -0.55036628 0.032598853
0.063462302 -0.55227476 0.04440403
-0.089206085 -0.52654874 0.042636395
0.088877916 -0.52656639 0.042750359
-0.11408646 -0.47365311 0.028092384
0.11386822 -0.47365576 0.028111219
-0.13978349 -0.44936973 0.036076784
0.13951266 -0.44940189 0.036322713
-0.16499799 -0.39821494 0.03282547
0.16474883 -0.39823022 0.032957673
-0.19054659 -0.34778449 0.035811901
0.19027036 -0.34778827 0.035849571
-0.19047669 0.033012956 0.034677148
0.19020821 0.033013262 0.034696102
-0.16528337 0.10928238 0.038121462
0.16499346 0.10928745 0.038254142
-0.13964204 0.18518426 0.033014417
0.13939406 0.18519814 0.033241034
-0.13980097 0.21078876 0.036455274
0.13952577 0.21080321 0.036663413
-0.13980184 0.23618272 0.036474228
0.13952577 0.23619717 0.036663294
-0.13980184 0.26157543 0.036473989
0.13952577 0.26159149 0.036663294
-0.13980184 0.28696826 0.036474109
0.13952577 0.28698567 0.036663413
-0.13980184 0.312361 0.036474228
0.13952577 0.31237996 0.036663413
-0.13980184 0.33775386 0.036474228
0.13952577 0.33777428 0.036663294
-0.13947736 0.36233521 0.029448867
0.13925681 0.36236146 0.029674888
-0.16551028 0.41469875 0.04233253
0.16518798 0.41471606 0.042465329
-0.1649095 0.43859181 0.031183362
0.16467559 0.43861777 0.03137219
-0.190954 0.49102685 0.04242754
0.19062276 0.49102113 0.042389512
-0.19026734 0.51466304 0.031277657
0.19002603 0.51466912 0.031315565
-0.16530584 0.71910596 0.038538337
0.16501535 0.71914828 0.03872788
-0.013005383 -0.6056267 0.058210492
0.012554701 -0.60563028 0.058229685
-0.038440008 -0.57868659 0.050061703
0.03805279 -0.57870281 0.05015707
-0.11473334 -0.50143945 0.044898629
0.11438514 -0.50143945 0.044898629
-0.14085986 -0.47798851 0.059380531
0.14040387 -0.47800186 0.059476495
-0.16606055 -0.42600834 0.052544117
0.16565084 -0.42600125 0.052486777
-0.19165002 -0.37510309 0.053729534
0.19122559 -0.37508667 0.053576469
-0.19137713 0.058729649 0.049298525
0.19099198 0.05872827 0.049241424
-0.16589697 0.13521373 0.049508333
0.16551681 0.13521722 0.049584746
-0.16642998 0.16123982 0.059399962
0.16596837 0.16123788 0.059361458
-0.16608733 0.39057979 0.053041101
0.16567822 0.39058453 0.053079247
-0.19164529 0.46723008 0.053652883
0.19122352 0.46721333 0.053538084
-0.19169359 0.69712412 0.054437041
0.19130394 0.69725204 0.055030584
-0.013158336 -0.68628377 0.0780797
0.012554701 -0.68628788 0.07809937
-0.01310705 -0.65928859 0.071417332
0.012554701 -0.65929592 0.071455956
-0.038777433 -0.63373041 0.071978092
-0.013056116 -0.63240451 0.064800978
0.012554701 -0.63241154 0.064839363
0.038221218 -0.63374114 0.072036147
-0.038667232 -0.60679698 0.064820051
0.038166262 -0.60681069 0.06489706
-0.064246193 -0.58095139 0.063434482
0.063757077 -0.58097094 0.063549876
-0.089905769 -0.55566227 0.065359235
0.089400932 -0.55566847 0.065397978
-0.11576225 -0.53101259 0.07163012
0.11521599 -0.53105128 0.071881413
-0.21857932 -0.3259235 0.073990226
0.21802147 -0.32594505 0.074222445
-0.21857932 -0.30024201 0.073990226
0.21802147 -0.30026165 0.074222445
-0.21857932 -0.27456045 0.073990226
0.21802147 -0.2745783 0.074222445
-0.21857932 -0.24887893 0.073990226
0.21802147 -0.24889502 0.074222565
-0.21857932 -0.22319737 0.073990226
0.21802147 -0.22321162 0.074222445
-0.21857932 -0.19751577 0.073990226
0.21802147 -0.19752827 0.074222445
-0.21857932 -0.17183416 0.073990226
0.21802147 -0.17184488 0.074222445
-0.21857932 -0.14615265 0.073990226
0.21802147 -0.14616159 0.074222565
-0.21857932 -0.12047108 0.073990226
0.21802147 -0.12047824 0.074222565
-0.21857932 -0.09478958 0.073990226
0.21802147 -0.09479484 0.074222445
-0.21857932 -0.069108024 0.073990226
0.21802147 -0.069111548 0.074222445
-0.21857932 -0.043426413 0.073990345
0.21802147 -0.043428302 0.074222565
-0.21857932 -0.017744854 0.073990226
0.21802147 -0.017744906 0.074222565
-0.21857932 0.0079368055 0.073990226
0.21802147 0.0079384912 0.074222445
-0.19256566 0.084815271 0.068597913
0.19206208 0.084830739 0.069099665
-0.16698386 0.18744209 0.069678783
0.16646454 0.18746826 0.070103645
-0.16722767 0.21340382 0.074203253
0.16667266 0.213432 0.074609637
-0.16722871 0.23908859 0.074222565
0.16667266 0.23911843 0.074609876
-0.16722871 0.264772 0.074222565
0.16667266 0.26480478 0.074609756
-0.16722871 0.29045534 0.074222445
0.16667266 0.29049093 0.074609756
-0.16722871 0.31613877 0.074222445
0.16667266 0.31617749 0.074609756
-0.16722871 0.34182203 0.074222565
0.16667266 0.34186375 0.074609876
-0.1666422 0.36624861 0.063338518
0.16614851 0.36623976 0.063261509
-0.19274765 0.44418541 0.071552753
0.19221406 0.44423637 0.071920156
-0.21857932 0.54724932 0.073990226
0.21802147 0.54728872 0.074222565
-0.21857797 0.57292765 0.073970795
0.21802147 0.57297206 0.074222445
-0.21857797 0.59860897 0.073970914
0.21802147 0.5986554 0.074222445
-0.21857797 0.62429041 0.073970914
0.21802147 0.62433887 0.074222445
-0.21857797 0.64997166 0.073970795
0.21802147 0.65002209 0.074222565
-0.013280217 -0.97363687 0.093912363
0.012554701 -0.9736312 0.093892574
-0.013236105 -0.94621378 0.088181853
0.012554701 -0.94621378 0.088181853
-0.039074447 -0.92125499 0.091269732
-0.013192294 -0.91888964 0.082490683
0.012554701 -0.91888434 0.082471371
0.038369127 -0.92124963 0.091249943
-0.013252044 -0.89517426 0.090252876
0.012554701 -0.89517426 0.090252876
-0.013279613 -0.76694 0.093834043
0.012554701 -0.76693135 0.093794823
-0.013250088 -0.74027908 0.089998722
0.012554701 -0.74027479 0.089979291
-0.039119657 -0.71534866 0.094206214
-0.01321283 -0.71346825 0.085158587
0.012554701 -0.71346825 0.085158587
0.038391732 -0.71534455 0.094186544
-0.038998969 -0.6879425 0.086367249
0.038331836 -0.68795043 0.086406589
-0.038888115 -0.66078007 0.079167128
0.038276408 -0.66078746 0.079205632
-0.064826742 -0.6367963 0.088572383
0.064143226 -0.63680708 0.088631034
-0.064629704 -0.60949194 0.080040932
0.064012468 -0.60950911 0.080138206
-0.090681314 -0.58554286 0.090546012
0.089986682 -0.5855794 0.090761065
-0.14195064 -0.50701177 0.082996964
0.14132264 -0.50706303 0.083347201
-0.16765958 -0.45540813 0.082218647
0.16703668 -0.4554438 0.082490802
-0.19363357 -0.40434793 0.085938334
0.19298311 -0.40437707 0.086191893
-0.21996632 0.033926532 0.094010234
0.21924371 0.033927448 0.094069004
-0.19383669 0.11124981 0.089236617
0.19316192 0.11126033 0.089510202
-0.19390167 0.420975 0.090291858
0.19321562 0.42100313 0.09050715
-0.21905507 0.5226779 0.080857158
0.21844083 0.52270621 0.081032157
-0.039281253 -0.97671002 0.104702
0.038473591 -0.97674352 0.10482013
-0.039169479 -0.94878024 0.097442269
0.038417246 -0.94879657 0.097501278
-0.039179455 -0.89722562 0.098090291
0.038422838 -0.89726144 0.09822762
-0.039330777 -0.87385529 0.10791898
-0.013304971 -0.87111408 0.097128153
0.012554701 -0.87111408 0.097128153
0.038498659 -0.87389529 0.10807669
-0.039330777 -0.84791237 0.10791862
-0.013304971 -0.84525448 0.097128272
0.012554701 -0.84525448 0.097128272
0.038498506 -0.84794647 0.10805702
-0.039330777 -0.82196969 0.10791874
-0.013304971 -0.81939459 0.097128153
0.012554701 -0.81939459 0.097128153
0.038498506 -0.82200277 0.10805726
-0.039330777 -0.79602706 0.10791886
-0.013304971 -0.79353505 0.097128153
0.012554701 -0.7935304 0.097108364
0.038498659 -0.79606342 0.10807681
-0.039273057 -0.76924741 0.10416973
0.038469795 -0.76928234 0.1043272
-0.039198816 -0.74229413 0.099347591
0.038432516 -0.7423237 0.09948504
-0.065271229 -0.69223624 0.10781991
0.064440489 -0.69226009 0.10793877
-0.065026134 -0.6642518 0.097206831
0.064274952 -0.66424805 0.097187161
-0.091305748 -0.61494243 0.11082518
0.090450495 -0.61494595 0.11084521
-0.11722061 -0.56280112 0.1095196
0.11639932 -0.56292909 0.11031079
-0.22061422 -0.35454443 0.10336173
0.21981356 -0.35454056 0.10332239
-0.19506754 0.13797177 0.10922313
0.19422735 0.13797449 0.10928249
-0.19504319 0.39745101 0.10882783
0.19420712 0.39746067 0.10890698
-0.22036064 0.49984476 0.099701524
0.21959297 0.49985078 0.099740863
-0.22057602 0.6816473 0.10281038
0.21977837 0.68163514 0.10275114
-0.065687671 -0.95665336 0.12585187
0.064717509 -0.95667541 0.12593186
-0.065455511 -0.92786402 0.11579955
0.064564571 -0.92791748 0.11599791
-0.065546826 -0.90289551 0.11975348
0.064623311 -0.90291119 0.11981344
-0.065719023 -0.7482996 0.12721014
0.064740881 -0.7483514 0.12744999
-0.065567046 -0.72084045 0.12062895
0.064636484 -0.72084886 0.12066901
-0.0918971 -0.64445573 0.13002992
0.090899095 -0.64450008 0.13027
-0.066075504 -0.9875173 0.14264572
0.064979181 -0.98759764 0.14292789
-0.066028491 -0.88215989 0.1406101
0.064947218 -0.88222122 0.14085174
-0.066094592 -0.8566708 0.14347255
0.064990982 -0.85672534 0.14369428
-0.066094592 -0.83045423 0.14347231
0.064990982 -0.83050704 0.14369428
-0.066094592 -0.80423778 0.14347255
0.064990982 -0.80428916 0.1436944
-0.065976903 -0.77688366 0.13837624
0.064913437 -0.77694637 0.13865769
-0.19831593 0.37763762 0.16197038
0.19706541 0.37763527 0.16195023
-0.22394513 0.48153248 0.15143943
0.22278179 0.48154435 0.15152037
0 0 0 1 0 0 0 1 0 0 0 1 0 0 0 0 0 926 1 0 0
