ply
format ascii 1.0
comment PCL generated
element vertex 907
property float x
property float y
property float z
element camera 1
property float view_px
property float view_py
property float view_pz
property float x_axisx
property float x_axisy
property float x_axisz
property float y_axisx
property float y_axisy
property float y_axisz
property float z_axisx
property float z_axisy
property float z_axisz
property float focal
property float scalex
property float scaley
property float centerx
property float centery
property int viewportx
property int viewporty
property float k1
property float k2
end_header
0.012330498 -0.56693989 -0.068506956
0.012330498 -0.54329014 -0.068506956
0.012330498 -0.51964033 -0.068506837
0.012330498 -0.49599051 -0.068506956
0.012330498 -0.47234079 -0.068506956
0.012330498 -0.44869098 -0.068506837
0.012330498 -0.42504123 -0.068506837
0.012330498 -0.40139148 -0.068506837
0.012330498 -0.37774152 -0.068506956
0.012330498 -0.35409176 -0.068506956
0.012330498 -0.33044204 -0.068506956
0.012330498 -0.30679223 -0.068506837
0.012330498 -0.28314245 -0.068506956
0.012330498 -0.25949273 -0.068506956
0.012330498 -0.23584291 -0.068506837
0.012330498 -0.21219313 -0.068506956
0.012330498 -0.18854341 -0.068506837
0.012330498 -0.16489354 -0.068506718
0.012330498 -0.14124373 -0.068506956
0.012330498 -0.117594 -0.068506956
0.012330498 -0.093944125 -0.068506956
0.012330498 -0.070294395 -0.068506956
0.012330498 -0.046644576 -0.068506837
0.012330498 -0.022994801 -0.068506956
0.012330498 0.00065492094 -0.068506956
-0.03514697 -0.64011294 -0.056952
-0.011402295 -0.6399644 -0.057723761
0.012330498 -0.63981599 -0.058495283
0.03608086 -0.64040363 -0.05544138
-0.058897991 -0.6164726 -0.056420088
-0.035046011 -0.61516273 -0.063509345
-0.011352104 -0.61502707 -0.064243793
0.012330498 -0.61489463 -0.064960837
0.036028489 -0.61539638 -0.062244534
0.059816156 -0.6164726 -0.056420088
-0.08275988 -0.59341425 -0.052553415
-0.058818806 -0.59212267 -0.059848785
0.059763893 -0.59212857 -0.059814572
0.083618484 -0.5931859 -0.053843379
-0.034997929 -0.59092146 -0.066632628
-0.011328072 -0.59079182 -0.067365527
0.012330498 -0.59066504 -0.068081141
0.036003247 -0.5911178 -0.065523982
-0.082738698 -0.56952512 -0.053241611
-0.058805358 -0.56830758 -0.060430884
-0.034991104 -0.5671823 -0.067075729
-0.011324794 -0.56706101 -0.067791581
0.03599957 -0.56736416 -0.066001654
0.059755195 -0.56831628 -0.060379744
0.083601817 -0.56930095 -0.05456543
-0.082738698 -0.54575783 -0.053241611
-0.058805358 -0.54459566 -0.060431004
-0.034991104 -0.54352146 -0.067075729
-0.011324794 -0.54340577 -0.067791581
0.03599957 -0.54369509 -0.066001654
0.059755195 -0.54460394 -0.060379624
0.083601817 -0.54554391 -0.054565191
-0.082738698 -0.52199054 -0.053241491
-0.058805358 -0.52088368 -0.060431004
-0.034991104 -0.51986068 -0.067075729
-0.011324794 -0.51975054 -0.067791343
0.03599957 -0.52002609 -0.066001534
0.059755195 -0.52089161 -0.060379505
0.083601817 -0.52178681 -0.05456531
-0.082738698 -0.49822327 -0.053241491
-0.058805358 -0.49717176 -0.060431004
-0.034991104 -0.49619985 -0.067075729
-0.011324794 -0.49609518 -0.067791462
0.03599957 -0.49635687 -0.066001534
0.059755195 -0.49717927 -0.060379624
0.083601817 -0.49802962 -0.05456543
-0.082738698 -0.47445598 -0.053241611
-0.058805358 -0.47345978 -0.060430884
-0.034991104 -0.47253907 -0.067075729
-0.011324794 -0.47243983 -0.067791581
0.03599957 -0.4726879 -0.066001534
0.059755195 -0.47346681 -0.060379744
0.083601817 -0.47427261 -0.054565191
-0.082738698 -0.45068863 -0.053241611
-0.058805358 -0.44974777 -0.060431123
-0.034991104 -0.44887829 -0.067075729
-0.011324794 -0.44878456 -0.067791581
0.03599957 -0.44901881 -0.066001534
0.059755195 -0.44975454 -0.060379744
0.083601817 -0.45051542 -0.05456531
-0.082738698 -0.42692137 -0.053241611
0.083601817 -0.42675826 -0.05456543
-0.058805358 -0.42603582 -0.060431004
-0.034991104 -0.42521748 -0.067075729
-0.011324794 -0.4251292 -0.067791581
0.03599957 -0.42534971 -0.066001654
0.059755195 -0.42604223 -0.060379744
-0.082738698 -0.40315405 -0.053241611
-0.058805358 -0.4023239 -0.060431123
-0.034991104 -0.40155667 -0.067075729
-0.011324794 -0.40147403 -0.067791462
0.03599957 -0.40168065 -0.066001534
0.059755195 -0.40232983 -0.060379624
0.083601817 -0.40300125 -0.054565191
-0.082738698 -0.37938681 -0.053241491
-0.058805358 -0.37861192 -0.060431123
-0.034991104 -0.37789589 -0.067075729
-0.011324794 -0.3778187 -0.067791343
0.03599957 -0.37801155 -0.066001654
0.059755195 -0.3786175 -0.060379744
0.083601817 -0.37924412 -0.05456531
-0.082738698 -0.35561955 -0.053241611
-0.058805358 -0.3549 -0.060431123
-0.034991104 -0.35423508 -0.067075729
-0.011324794 -0.35416341 -0.067791462
0.03599957 -0.35434255 -0.066001534
0.059755195 -0.35490516 -0.060379624
0.083601817 -0.35548693 -0.05456543
-0.082738698 -0.33185223 -0.053241611
-0.058805358 -0.33118805 -0.060431004
-0.034991104 -0.33057427 -0.067075729
-0.011324794 -0.33050811 -0.067791581
0.03599957 -0.33067343 -0.066001654
0.059755195 -0.33119282 -0.060379505
0.083601817 -0.33172992 -0.054565191
-0.082738698 -0.30808488 -0.053241611
-0.058805358 -0.30747613 -0.060431004
-0.034991104 -0.30691344 -0.067075729
-0.011324794 -0.30685282 -0.067791581
0.03599957 -0.30700439 -0.066001534
0.059755195 -0.30748037 -0.060379744
0.083601817 -0.30797276 -0.05456531
-0.082738698 -0.28431761 -0.053241611
-0.058805358 -0.28376415 -0.060431004
-0.034991104 -0.28325269 -0.067075729
-0.011324794 -0.28319761 -0.067791462
0.03599957 -0.28333533 -0.066001415
0.059755195 -0.28376809 -0.060379744
0.083601817 -0.28421575 -0.054565191
-0.082738698 -0.26055029 -0.053241611
-0.058805358 -0.26005226 -0.060430884
-0.034991104 -0.25959182 -0.067075729
-0.011324794 -0.25954232 -0.067791581
0.03599957 -0.2596662 -0.066001654
0.059755195 -0.26005569 -0.060379624
0.083601817 -0.26045859 -0.054565191
-0.082738698 -0.23678297 -0.053241611
-0.058805358 -0.23634025 -0.060430884
-0.034991104 -0.23593113 -0.067075729
-0.011324794 -0.23588696 -0.067791581
0.03599957 -0.23599714 -0.066001415
0.059755195 -0.23634335 -0.060379744
0.083601817 -0.23670143 -0.05456531
-0.082738698 -0.21301576 -0.053241611
-0.058805358 -0.2126283 -0.060431004
-0.034991104 -0.21227023 -0.067075729
-0.011324794 -0.2122317 -0.067791581
0.03599957 -0.21232808 -0.066001654
0.059755195 -0.21263111 -0.060379624
0.083601817 -0.21294439 -0.054565191
-0.082738698 -0.18924841 -0.053241491
-0.058805358 -0.18891633 -0.060430884
-0.034991104 -0.18860954 -0.067075729
-0.011324794 -0.18857634 -0.067791581
0.03599957 -0.18865904 -0.066001415
0.059755195 -0.18891877 -0.060379744
0.083601817 -0.18918726 -0.054565191
-0.082738698 -0.16548106 -0.053241611
-0.058805358 -0.16520441 -0.060430884
-0.034991104 -0.16494863 -0.067075729
-0.011324794 -0.1649211 -0.067791343
0.03599957 -0.16498998 -0.066001534
0.059755195 -0.16520643 -0.060379624
0.083601415 -0.16542953 -0.054582477
-0.082738698 -0.14171384 -0.053241611
-0.058805358 -0.14149231 -0.060431123
-0.03499084 -0.14128724 -0.067092896
-0.011324794 -0.14126578 -0.067791462
0.03599957 -0.14132081 -0.066001654
0.059755195 -0.1414941 -0.060379505
0.083601415 -0.14167249 -0.054582477
-0.082738698 -0.11794646 -0.053241611
-0.058805358 -0.11778042 -0.060431004
-0.03499084 -0.11762664 -0.067092896
-0.011324794 -0.11761048 -0.067791462
0.03599957 -0.11765179 -0.066001534
0.059755195 -0.1177816 -0.060379744
0.083601415 -0.1179156 -0.054582477
-0.082738698 -0.094179139 -0.053241611
-0.058805358 -0.094068468 -0.060431004
-0.03499084 -0.093965933 -0.067092776
-0.011324794 -0.093955152 -0.067791581
0.03599957 -0.093982816 -0.066001654
0.059755195 -0.094069257 -0.060379744
0.083601415 -0.094158605 -0.054582357
-0.082738698 -0.070412003 -0.053241491
-0.058805358 -0.07035657 -0.060431123
-0.03499084 -0.07030528 -0.067092776
-0.011324794 -0.070299864 -0.067791581
0.03599957 -0.070313744 -0.066001415
0.05975493 -0.070356816 -0.060396671
0.083601415 -0.070401616 -0.054582477
-0.082738698 -0.046644673 -0.053241611
-0.03499084 -0.046644673 -0.067092776
-0.011324794 -0.046644624 -0.067791462
0.03599957 -0.046644624 -0.066001654
0.05975493 -0.046644624 -0.060396791
-0.058805358 -0.046644576 -0.060430884
0.083601415 -0.046644576 -0.054582477
-0.082738698 -0.022877296 -0.053241491
-0.058805358 -0.022932677 -0.060431004
-0.03499084 -0.022983972 -0.067092776
-0.011324794 -0.022989387 -0.067791462
0.03599957 -0.022975555 -0.066001654
0.05975493 -0.022932382 -0.060396791
0.083601415 -0.022887684 -0.054582477
-0.082738698 0.00089003146 -0.053241611
-0.058805358 0.0007792227 -0.060431123
-0.03499084 0.00067672879 -0.067092776
-0.011324794 0.00066599995 -0.067791462
0.035999436 0.00069322065 -0.066018581
0.05975493 0.00077985972 -0.060396791
0.083601415 0.00086930767 -0.054582477
-0.058838587 0.024524495 -0.058992267
-0.035012107 0.024369329 -0.065711617
-0.01133529 0.024352744 -0.066427946
0.012330498 0.024336204 -0.067143917
0.03601047 0.024395324 -0.06458509
0.059777081 0.024525285 -0.058958054
0.083638743 0.02466356 -0.052966237
-0.058877785 0.048299648 -0.057295203
-0.03503681 0.048090041 -0.06410718
-0.011347636 0.048067942 -0.064824224
0.012330498 0.048046477 -0.065523744
0.036023226 0.048126273 -0.062928319
0.059802681 0.048299648 -0.057295203
-0.05891702 0.072101288 -0.055595994
-0.035061799 0.071836203 -0.062483907
-0.011360125 0.071808539 -0.063201666
0.012330498 0.07178092 -0.063919187
0.036035996 0.071882918 -0.061269522
0.059828579 0.072100505 -0.05561316
-0.058955904 0.095928289 -0.053912163
-0.035086554 0.095606528 -0.060876131
-0.011372496 0.095573358 -0.061594605
0.012330498 0.095540918 -0.062295794
0.036048908 0.09566585 -0.059591889
0.059854239 0.09592656 -0.053946495
-0.035146706 0.11952551 -0.056969166
-0.01140269 0.11948774 -0.057672262
0.012330498 0.11944903 -0.058392525
0.036080066 0.11960239 -0.055544376
-0.035218131 0.14354992 -0.052329659
-0.0114368 0.1434938 -0.053241611
0.012330498 0.14345038 -0.053946614
-0.08310391 -0.64310968 -0.041380644
-0.059065249 -0.64160925 -0.049177289
0.059925009 -0.64157599 -0.049349785
0.0839011 -0.64306641 -0.04160583
-0.10713889 -0.62009758 -0.036798477
-0.082871273 -0.61785519 -0.048936009
0.08371032 -0.61768323 -0.049866915
0.10792206 -0.62019408 -0.036276937
-0.10696851 -0.59542006 -0.041224599
0.10779052 -0.59553975 -0.040548682
-0.10692917 -0.57138705 -0.042247057
0.1077601 -0.57150739 -0.041536689
-0.10692917 -0.54753524 -0.042246938
0.1077601 -0.54765004 -0.04153657
-0.10692917 -0.52368331 -0.042246938
0.1077601 -0.52379262 -0.041536808
-0.10692917 -0.49983132 -0.042246938
0.1077601 -0.4999353 -0.04153657
-0.10692917 -0.47597936 -0.042246938
0.1077601 -0.47607791 -0.04153657
-0.10692917 -0.4521274 -0.042247057
0.1077601 -0.45222038 -0.041536689
-0.10692917 -0.42827559 -0.042246819
0.1077601 -0.42836305 -0.04153657
-0.10692917 -0.40442368 -0.042246938
0.1077601 -0.40450561 -0.041536689
-0.10692917 -0.38057175 -0.042246938
0.1077601 -0.38064826 -0.041536689
-0.10692917 -0.35671976 -0.042246938
0.1077601 -0.3567909 -0.04153657
-0.10692917 -0.33286783 -0.042247057
0.1077601 -0.33293343 -0.041536689
-0.10692917 -0.30901581 -0.042247057
0.1077601 -0.30907598 -0.04153657
-0.10692917 -0.28516403 -0.042246819
0.1077601 -0.28521857 -0.04153657
-0.10692917 -0.26131204 -0.042246938
0.1077601 -0.26136121 -0.04153657
-0.10692917 -0.23746014 -0.042246938
0.1077601 -0.2375038 -0.041536689
-0.10692917 -0.21360812 -0.042246938
0.1077601 -0.21364641 -0.041536689
-0.10692917 -0.18975613 -0.042246938
0.1077601 -0.18978906 -0.04153657
-0.10692917 -0.16590433 -0.042246938
0.1077601 -0.16593155 -0.041536689
-0.10692917 -0.14205232 -0.042246938
0.1077601 -0.14207418 -0.04153657
-0.10692917 -0.11820038 -0.042246938
0.1077601 -0.11821677 -0.041536689
-0.10692917 -0.094348475 -0.042247057
0.1077601 -0.094359405 -0.04153657
-0.10692917 -0.070496574 -0.042247057
0.1077601 -0.070502087 -0.04153657
0.1077601 -0.046644624 -0.041536689
-0.10692917 -0.046644576 -0.042247176
-0.10692917 -0.022792773 -0.042246938
0.1077601 -0.022787211 -0.04153657
-0.10692917 0.0010593235 -0.042246938
0.1077601 0.001070153 -0.041536689
-0.10699388 0.024950013 -0.040565729
-0.0827832 0.024690636 -0.051796317
0.10781028 0.024965279 -0.039906859
-0.10706868 0.048874624 -0.038622618
-0.082835704 0.048521519 -0.050091028
0.083681673 0.048490308 -0.051107526
0.10786854 0.048893481 -0.03801477
-0.10714357 0.072829559 -0.036676764
-0.082887739 0.072378144 -0.048401117
0.08372505 0.072346345 -0.049229145
0.10792634 0.072850183 -0.036137938
-0.082940362 0.096261702 -0.046692252
0.08376848 0.096231274 -0.047348261
-0.083070301 0.12030687 -0.042472243
-0.059052113 0.11991478 -0.049746156
0.059917316 0.1199092 -0.049849629
0.083874695 0.12029196 -0.042749166
-0.083215043 0.14444646 -0.037771583
-0.059160154 0.14399716 -0.045067668
0.036115285 0.14363369 -0.050969601
0.059988007 0.14398545 -0.045258045
0.083993658 0.14445713 -0.037597895
-0.035290044 0.16764787 -0.047659039
-0.011471138 0.16757002 -0.04878068
0.012330498 0.16752106 -0.049487591
0.036150604 0.16773638 -0.046381116
-0.05926853 0.16815245 -0.040375113
0.060058646 0.16813207 -0.040669918
-0.059377227 0.19238123 -0.035668254
-0.035362173 0.19181859 -0.042974234
-0.011505579 0.19171622 -0.044306874
0.012330498 0.19166034 -0.045033216
0.036186032 0.19191077 -0.04177916
0.060129762 0.1923517 -0.036050797
-0.035467423 0.21624392 -0.036137938
-0.011555753 0.21610412 -0.037789106
0.012330498 0.21604234 -0.038518548
-0.10756323 -0.64611328 -0.025773764
0.1082487 -0.64613336 -0.025668979
-0.13176385 -0.62302196 -0.020969868
0.13234833 -0.62273014 -0.02254951
-0.13154277 -0.59815884 -0.025756359
0.13217168 -0.59791404 -0.02713871
-0.13148053 -0.57395178 -0.027103782
0.1321239 -0.57373559 -0.028380036
-0.13148053 -0.54998326 -0.027103782
0.1321239 -0.54977685 -0.028380036
-0.13148053 -0.5260148 -0.027103782
0.1321239 -0.52581817 -0.028380156
-0.13148053 -0.50204623 -0.027103662
0.1321239 -0.50185961 -0.028379917
-0.13148053 -0.47807774 -0.027103662
0.1321239 -0.47790095 -0.028380036
-0.13148053 -0.45410922 -0.027103662
0.1321239 -0.45394218 -0.028380036
-0.13148053 -0.43014076 -0.027103662
0.1321239 -0.4299835 -0.028380036
-0.13148053 -0.40617216 -0.027103901
0.1321239 -0.40602481 -0.028380156
-0.13148053 -0.38220364 -0.027103782
0.1321239 -0.3820661 -0.028380036
-0.13148053 -0.35823518 -0.027103782
0.1321239 -0.35810754 -0.028380036
-0.13148053 -0.33426666 -0.027103782
0.1321239 -0.33414876 -0.028380036
-0.13148053 -0.31029817 -0.027103782
0.1321239 -0.31019014 -0.028380036
-0.13148053 -0.28632963 -0.027103782
0.1321239 -0.28623146 -0.028380036
-0.13148053 -0.26236117 -0.027103782
0.1321239 -0.26227275 -0.028380156
-0.13148053 -0.23839265 -0.027103782
0.1321239 -0.23831397 -0.028380156
-0.13148053 -0.2144241 -0.027103782
0.1321239 -0.21435541 -0.028380036
-0.13148053 -0.1904557 -0.027103782
0.1321239 -0.19039673 -0.028380036
-0.13148053 -0.16648717 -0.027103662
0.1321239 -0.16643804 -0.028380036
-0.13148053 -0.1425187 -0.027103662
0.1321239 -0.14247938 -0.028380156
-0.13148053 -0.11855018 -0.027103662
0.1321239 -0.11852065 -0.028380156
-0.13148053 -0.094581664 -0.027103662
0.1321239 -0.09456192 -0.028380036
-0.13148053 -0.070613146 -0.027103662
0.1321239 -0.070603348 -0.028380036
-0.13148053 -0.046644673 -0.027103662
0.1321239 -0.046644673 -0.028380036
-0.13148053 -0.022676254 -0.027103662
0.1321239 -0.022686001 -0.028380036
-0.13148053 0.0012924634 -0.027103782
0.1321239 0.0012727231 -0.028380156
-0.13155894 0.025300071 -0.025406361
0.13218716 0.025269352 -0.026736379
-0.13164958 0.049342185 -0.023443818
0.13225994 0.049298964 -0.024845839
-0.13173951 0.073413789 -0.021496534
0.13233279 0.073357619 -0.022952914
-0.13183039 0.097516306 -0.019529343
-0.10721855 0.096814223 -0.034728646
0.1079842 0.096836038 -0.034258723
0.13240574 0.097445615 -0.021057606
-0.10740778 0.12098896 -0.029812574
0.10812971 0.12100402 -0.029533029
-0.10761513 0.14526829 -0.024425387
0.10828915 0.14527267 -0.024355292
-0.10782319 0.16963208 -0.019019365
-0.083360218 0.16865948 -0.033056736
0.084112614 0.16870177 -0.03244698
0.10844966 0.16962358 -0.019142509
-0.083507456 0.19295025 -0.028275251
0.084233589 0.19303229 -0.027208805
-0.083732404 0.2175284 -0.020969748
-0.059537072 0.2168698 -0.028747201
0.036237895 0.21633676 -0.035041928
0.060234413 0.21682686 -0.029253721
0.084409721 0.21764579 -0.019581914
-0.059698027 0.24146944 -0.021777511
-0.03557422 0.24078366 -0.029201269
-0.011606677 0.24060139 -0.031173825
0.012330498 0.2405338 -0.031906366
0.036290389 0.24087399 -0.02822268
0.06033979 0.24141103 -0.022409081
-0.035681222 0.26543158 -0.022251129
-0.011657682 0.26520178 -0.024547935
0.012330498 0.26512814 -0.025283456
0.036342978 0.26551768 -0.021391153
-0.13246967 -0.6499787 -0.0056883097
0.13304511 -0.65021765 -0.0044465065
-0.15663649 -0.6018219 -0.0050675869
0.1571954 -0.60196012 -0.0042867661
-0.15650754 -0.57727844 -0.0074605942
0.15708974 -0.57742852 -0.0065746307
-0.15650754 -0.55315864 -0.0074605942
0.15708974 -0.55330193 -0.0065746307
-0.15650754 -0.52903903 -0.0074607134
0.15708974 -0.52917546 -0.0065746307
-0.15650754 -0.50491935 -0.0074605942
0.15708974 -0.50504887 -0.0065746307
-0.15650754 -0.48079959 -0.0074605942
0.15708974 -0.48092237 -0.0065746307
-0.15650754 -0.45667985 -0.0074605942
0.15708974 -0.45679578 -0.0065746307
-0.15650754 -0.43256006 -0.0074607134
0.15708974 -0.43266928 -0.0065746307
-0.15650754 -0.40844035 -0.0074607134
0.15708974 -0.40854269 -0.0065746307
-0.15650754 -0.38432071 -0.007460475
0.15708974 -0.38441622 -0.0065746307
-0.15650754 -0.36020103 -0.0074605942
0.15708974 -0.36028963 -0.0065746307
-0.15650754 -0.33608124 -0.0074607134
0.15708974 -0.33616313 -0.0065746307
-0.15650754 -0.31196147 -0.0074605942
0.15708974 -0.31203654 -0.0065746307
-0.15650754 -0.28784189 -0.007460475
0.15708974 -0.28790995 -0.0065746307
-0.15650754 -0.26372215 -0.007460475
0.15708974 -0.26378348 -0.0065746307
-0.15650754 -0.23960236 -0.0074605942
0.15708974 -0.2396569 -0.0065746307
-0.15650754 -0.21548265 -0.0074605942
0.15708974 -0.2155304 -0.0065746307
-0.15650754 -0.19136286 -0.0074607134
0.15708974 -0.19140387 -0.0065746307
-0.15650754 -0.16724326 -0.007460475
0.15708974 -0.16727732 -0.0065746307
-0.15650754 -0.14312351 -0.0074605942
0.15708974 -0.14315084 -0.0065746307
-0.15650754 -0.11900377 -0.007460475
0.15708974 -0.11902429 -0.0065746307
-0.15650754 -0.094884068 -0.0074607134
0.15708974 -0.094897754 -0.0065746307
-0.15650754 -0.070764273 -0.0074607134
0.15708974 -0.070771262 -0.0065746307
-0.15650754 -0.046644725 -0.0074605942
0.15708974 -0.046644673 -0.0065746307
-0.15650754 -0.022525027 -0.0074605942
0.15708974 -0.022518184 -0.0065746307
-0.15650754 0.0015948191 -0.0074607134
0.15708974 0.0016083531 -0.0065746307
-0.15662788 0.025766157 -0.0052270889
0.15718557 0.02578304 -0.0044997931
-0.15676275 0.049980171 -0.0027242899
-0.13206457 0.12181637 -0.014459133
0.13263121 0.12177653 -0.015199423
-0.13231586 0.1462172 -0.0090186596
0.13287935 0.1462335 -0.0087531805
-0.13256885 0.17070433 -0.0035413504
-0.10803878 0.19409394 -0.013418198
0.10861506 0.1940667 -0.013771176
-0.10834723 0.21884635 -0.0054045916
0.10885248 0.21879077 -0.0060607195
-0.083977975 0.24228081 -0.012994766
0.084586717 0.24238026 -0.01191783
-0.084224798 0.26716018 -0.0049788952
-0.059859302 0.26617789 -0.014794111
0.060445361 0.26610199 -0.015551805
0.084764995 0.26723817 -0.0041979551
-0.060031932 0.29104668 -0.0073188543
-0.035795219 0.29023534 -0.014846921
-0.011711885 0.28994873 -0.017506719
0.012330498 0.28986913 -0.018245697
0.036398921 0.2903133 -0.014123917
0.060557943 0.29094744 -0.0082396269
-0.035922579 0.31525341 -0.0065746307
-0.011772598 0.31490183 -0.0096199512
0.012330498 0.31481403 -0.010380387
0.03646154 0.315321 -0.00598979
0.012330498 0.33988485 -0.0024753809
-0.15701972 -0.62727404 0.0020443201
0.15750183 -0.62733001 0.0023473501
0.15729468 0.049998134 -0.0021378994
-0.1568988 0.074233465 -0.00019931793
0.15740393 0.074249908 0.00022757053
-0.1570341 0.098525159 0.0023117065
0.15751417 0.098539047 0.0026147366
-0.1573941 0.12307993 0.0089914799
0.15780292 0.12307324 0.0088664293
0.13312918 0.170793 -0.0022622347
-0.13286388 0.19534597 0.0028463602
0.13339448 0.19548342 0.0046304464
-0.1333406 0.22041902 0.01316762
-0.10865726 0.24372607 0.0026503801
0.10909107 0.24363711 0.0016878843
-0.10896958 0.26873559 0.010764599
0.10933141 0.26860839 0.0094929934
-0.084490471 0.29222873 0.0036491156
0.084957346 0.29228061 0.0041307211
-0.060223896 0.31612724 0.00099337101
0.060683925 0.31600606 -5.698204e-05
-0.084784672 0.31753716 0.013203502
0.085170187 0.3175537 0.01334703
-0.060417291 0.34134367 0.0093675852
-0.036050886 0.3404066 0.0017592907
-0.011833618 0.33998117 -0.001693368
0.036524482 0.34045917 0.0021868944
0.06081938 0.34126648 0.0087411404
-0.036179606 0.36569121 0.010119677
-0.011894808 0.36518559 0.0062556267
0.012330498 0.36508498 0.005487442
0.036587894 0.36573121 0.010424376
0.012330498 0.3904258 0.013580441
-0.18252407 -0.60685158 0.023340225
0.18285261 -0.60693139 0.023791671
-0.1823063 -0.58189589 0.019803762
0.18258528 -0.58173102 0.018831015
-0.1823052 -0.5575633 0.019785762
0.18258528 -0.55740893 0.018831015
-0.1823052 -0.53323388 0.019785881
0.18258528 -0.53308684 0.018831015
-0.1823052 -0.50890446 0.019785881
0.18258528 -0.5087648 0.018831015
-0.1823052 -0.48457494 0.019785881
0.18258528 -0.48444265 0.018831015
-0.1823052 -0.46024549 0.019785762
0.18258528 -0.46012044 0.018830895
-0.1823052 -0.43591598 0.019785762
0.18258528 -0.43579829 0.018831015
-0.1823052 -0.41158658 0.019785881
0.18258528 -0.41147628 0.018830895
-0.1823052 -0.38725713 0.019785881
0.18258528 -0.38715419 0.018831015
-0.1823052 -0.36292756 0.019785881
0.18258528 -0.3628321 0.018831015
-0.1823052 -0.33859816 0.019785762
0.18258528 -0.33851001 0.018831015
-0.1823052 -0.31426871 0.019785762
0.18258528 -0.31418788 0.018831015
-0.1823052 -0.28993925 0.019785881
0.18258528 -0.2898657 0.018830895
-0.1823052 -0.26560977 0.019785881
0.18258528 -0.26554355 0.018831015
-0.1823052 -0.24128026 0.019785881
0.18258528 -0.24122152 0.018831015
-0.1823052 -0.21695089 0.019785762
0.18258528 -0.21689939 0.018831015
-0.1823052 -0.19262144 0.019785881
0.18258528 -0.19257733 0.018831015
-0.1823052 -0.16829194 0.019785881
0.18258528 -0.16825521 0.018831015
-0.1823052 -0.14396244 0.019785881
0.18258528 -0.14393306 0.018831015
-0.1823052 -0.11963299 0.019785881
0.18258528 -0.11961094 0.018831015
-0.1823052 -0.095303535 0.019785762
0.18258528 -0.095288768 0.018831015
-0.1823052 -0.070974126 0.019785881
0.18258528 -0.070966743 0.018831015
-0.1823052 -0.046644725 0.019785762
0.18258528 -0.046644673 0.018831015
-0.1823052 -0.022315221 0.019785762
0.18258528 -0.022322556 0.018831015
-0.1823052 0.0020142831 0.019785762
0.18258528 0.0019996129 0.018830776
-0.18244734 0.026397049 0.022094369
0.18275334 0.026393704 0.021950006
-0.18260643 0.050823875 0.024677396
0.18294027 0.050846718 0.025418758
-0.18276463 0.075289935 0.027246475
0.18312857 0.075354077 0.02891314
-0.18292423 0.099796407 0.029837966
-0.15777205 0.14775836 0.016005754
0.15810612 0.14772284 0.01543057
-0.15815265 0.17254803 0.023069382
0.15841223 0.17247802 0.022058249
0.15874559 0.1973806 0.029275775
0.13376592 0.22051319 0.014280796
-0.13382044 0.24565741 0.023556828
0.13414034 0.24569905 0.024008632
-0.10930849 0.29394454 0.019569635
0.10964113 0.29394272 0.019551516
-0.10968906 0.31941414 0.029457092
-0.085080676 0.34300008 0.022816539
0.08538387 0.34297335 0.022599697
-0.060611304 0.36669239 0.017768621
0.06096169 0.36672059 0.017984867
-0.060809281 0.39219403 0.026341319
-0.036310673 0.39112601 0.018632889
-0.011957278 0.39053541 0.014370561
0.03665233 0.39114836 0.018794894
0.061106239 0.39233705 0.027373075
-0.03644301 0.41670382 0.027228355
-0.012020209 0.41601896 0.022545576
0.012330498 0.41590273 0.021751523
0.036717393 0.41670635 0.027246594
0.012330498 0.44151184 0.029964805
-0.18306956 -0.63284487 0.032197356
0.18347993 -0.63344264 0.035433769
0.18331729 0.099915482 0.032415509
-0.18354948 0.12475035 0.039990425
0.18383473 0.12485958 0.042017937
-0.1585692 0.19749781 0.03079927
-0.15913534 0.22280166 0.041305304
0.15932146 0.22283888 0.041743875
-0.13430265 0.27106047 0.033996701
0.13451569 0.27103683 0.033760309
-0.13483793 0.29674837 0.04558599
0.13493139 0.29663786 0.044560432
0.10999474 0.31959629 0.031035423
-0.1101655 0.34534255 0.04183507
0.11035092 0.34543711 0.042602777
-0.085378475 0.36861855 0.032487988
0.085598387 0.36854014 0.031888604
-0.085682057 0.39441186 0.042346954
0.085817538 0.39427757 0.041378379
-0.061033133 0.4179917 0.036034584
0.061252207 0.41811156 0.036854029
-0.061261747 0.44397035 0.045933843
-0.036576066 0.44242108 0.035870671
-0.012083466 0.44163468 0.030763149
0.03678266 0.44239858 0.035724998
0.06139905 0.44404089 0.046392083
-0.036701962 0.46819627 0.044047832
-0.012143546 0.46731031 0.038567305
0.012330498 0.46718359 0.037783623
0.036844473 0.46814895 0.043755174
-0.012199265 0.49301022 0.045805454
0.012330498 0.49289531 0.045127869
0.20966567 -0.58931643 0.063619971
0.20962462 -0.56454164 0.062953234
0.20962462 -0.53987992 0.062953234
0.20962462 -0.51521808 0.062953115
0.20962462 -0.49055642 0.062953115
0.20962462 -0.46589464 0.062953115
0.20962462 -0.44123289 0.062953234
0.20962462 -0.41657111 0.062953234
0.20962462 -0.39190933 0.062953115
0.20962462 -0.36724755 0.062953115
0.20962462 -0.3425858 0.062953234
0.20962462 -0.31792402 0.062953234
0.20962462 -0.2932623 0.062953353
0.20962462 -0.26860049 0.062953234
0.20962462 -0.24393871 0.062953234
0.20962462 -0.21927702 0.062953234
0.20962462 -0.1946153 0.062953234
0.20962462 -0.16995351 0.062953234
0.20962462 -0.14529167 0.062953115
0.20962462 -0.12062994 0.062953234
0.20962462 -0.09596815 0.062953234
0.20962462 -0.07130646 0.062953115
0.20962462 -0.046644624 0.062953353
0.20962462 -0.021982938 0.062953115
0.20962462 0.0026788972 0.062953234
-0.18422514 0.14991087 0.050961852
0.18436126 0.14996195 0.051789045
-0.18490434 0.17524466 0.061990619
0.18489103 0.17521894 0.061620474
-0.15982124 0.24847272 0.054034114
0.15998615 0.2486667 0.05613482
-0.13541633 0.32272238 0.058108807
0.13544647 0.3227033 0.057942748
-0.11064707 0.37147909 0.054347157
0.11070972 0.37146708 0.054255009
-0.085988089 0.42036867 0.05228579
0.086078361 0.42042503 0.052672029
-0.086337663 0.44669622 0.06363833
-0.061476041 0.47000116 0.055212975
0.061536562 0.47001904 0.05532372
-0.036819167 0.49400169 0.051660419
0.036902074 0.49393016 0.051237583
0.061666004 0.49604595 0.063731074
-0.036936931 0.51993084 0.059309363
-0.012255239 0.51882738 0.053076744
0.012330498 0.51874262 0.052598476
0.036959805 0.51982951 0.058736801
-0.012309902 0.54472494 0.060178041
0.012330498 0.54467386 0.059900761
-0.2104314 -0.61592507 0.074587226
0.21030088 -0.6158095 0.073934555
-0.20985655 -0.58976847 0.066289783
-0.20978715 -0.56491899 0.065287948
-0.20978715 -0.54023927 0.065287948
-0.20978715 -0.51555961 0.065287948
-0.20978715 -0.49087986 0.065287948
-0.20978715 -0.46620008 0.065288067
-0.20978715 -0.44152045 0.065288186
-0.20978715 -0.41684073 0.065288186
-0.20978715 -0.39216104 0.065288186
-0.20978715 -0.36748132 0.065288186
-0.20978715 -0.34280151 0.065288186
-0.20978715 -0.31812173 0.065288186
-0.20978715 -0.29344201 0.065288186
-0.20978715 -0.26876232 0.065288067
-0.20978715 -0.24408254 0.065288067
-0.20978715 -0.21940285 0.065288186
-0.20978715 -0.19472304 0.065288186
-0.20978715 -0.17004329 0.065288186
-0.20978715 -0.1453636 0.065288186
-0.20978715 -0.12068389 0.065288067
-0.20978715 -0.096004128 0.065288067
-0.20978715 -0.071324334 0.065288067
-0.20978715 -0.046644624 0.065288186
-0.20978715 -0.021964921 0.065288186
-0.20978715 0.0027148351 0.065288186
-0.21004568 0.027480736 0.069019914
0.20982437 0.027415656 0.066196918
-0.21032549 0.052313536 0.073058367
0.21013568 0.052258059 0.071251869
-0.21060601 0.077209003 0.077107191
0.21059413 0.077270195 0.078695893
-0.18569273 0.20088434 0.074792266
0.18550035 0.20074093 0.072928071
-0.16070794 0.27471247 0.070489049
0.16065602 0.27472734 0.070637703
-0.13614212 0.34928229 0.073822618
0.1361101 0.34945011 0.075184226
-0.11113819 0.39784256 0.067106485
0.11107801 0.39771923 0.066215515
-0.11163323 0.42441761 0.079968095
0.086354293 0.44684735 0.064620733
-0.086701229 0.47327197 0.075445533
0.086609028 0.47330523 0.075650811
-0.061677892 0.49608356 0.0639534
-0.061880421 0.52230573 0.07272315
0.061796129 0.52221024 0.072182775
-0.037050117 0.54592294 0.066660881
0.03701609 0.54580963 0.066048741
-0.03713255 0.57164335 0.072015285
-0.012349098 0.57034522 0.06526947
0.012330498 0.57032382 0.065158367
0.037061162 0.57162189 0.071903586
-0.037215263 0.59745032 0.077387571
-0.012388418 0.59604722 0.07037735
0.012330498 0.59605455 0.070414543
0.037106398 0.59752887 0.077780128
-0.012427864 0.62183106 0.075501442
0.012330498 0.6218738 0.07570672
-0.012448569 0.64716923 0.07819128
0.012330498 0.64722979 0.078471661
-0.012462969 0.6723659 0.080061555
-0.012453462 0.91992986 0.078827024
0.012330498 0.92001414 0.079107523
-0.012453462 0.94471389 0.078826904
0.012330498 0.9448002 0.079107523
-0.012453462 0.96949756 0.078826666
0.012330498 0.96958625 0.079107404
-0.21092224 0.10219067 0.081672072
0.21111834 0.10244616 0.087208271
-0.18671933 0.22704887 0.091462374
-0.16172037 0.30145711 0.089277506
0.16142139 0.3012341 0.087208271
-0.13705617 0.37661758 0.093612552
0.13678309 0.3764942 0.092669129
0.11153837 0.42459282 0.081166148
-0.087048374 0.49993914 0.086719394
0.086852059 0.49984694 0.086174726
-0.062069353 0.5485543 0.080904126
0.061928671 0.54853356 0.080791593
-0.062212337 0.57454568 0.087095499
0.062040776 0.57473385 0.088073134
-0.062393364 0.60096222 0.094934225
0.062153388 0.60105288 0.095387578
-0.037303444 0.62341356 0.08311522
0.037151944 0.62353444 0.083696604
-0.037349388 0.64887381 0.086099505
0.037173916 0.64897108 0.086550355
-0.037383832 0.67421323 0.088336587
0.012330498 0.67244107 0.08039856
0.037190706 0.67430145 0.088731647
-0.037418325 0.69958764 0.090576768
-0.012477527 0.69759613 0.081953049
0.012330498 0.69768274 0.082327962
0.037207372 0.69966161 0.090896964
-0.037439503 0.72479039 0.091952682
-0.01248763 0.72271734 0.083265424
0.012330498 0.72281587 0.083677888
0.037217531 0.72485346 0.092216492
-0.037439503 0.74967539 0.091952682
-0.01248763 0.74753553 0.083265185
0.012330498 0.74763703 0.083677769
0.037217531 0.74974048 0.09221673
-0.037439503 0.77456045 0.091952682
-0.012487772 0.7723583 0.083283901
0.012330498 0.77245843 0.083677888
0.037217531 0.77462745 0.092216492
-0.037439503 0.79944533 0.091952562
-0.01248763 0.79717183 0.083265185
0.012330498 0.79727972 0.083677888
0.037217386 0.79950964 0.092197537
-0.037439503 0.82433033 0.091952682
-0.01248763 0.82198972 0.083265185
0.012330498 0.82210106 0.083677769
0.037217386 0.82439643 0.092197537
-0.037439503 0.84921539 0.091952562
-0.01248763 0.8468079 0.083265066
0.012330498 0.84692228 0.083677769
0.037217386 0.84928334 0.092197537
-0.037439503 0.87410033 0.091952682
-0.01248763 0.87162596 0.083265185
0.012330498 0.87174374 0.083677888
0.037217386 0.87417024 0.092197537
-0.037439503 0.89898545 0.091952682
-0.01248763 0.89644414 0.083265066
0.012330498 0.89656484 0.083677769
0.037217386 0.89905715 0.092197657
-0.037358649 0.92229366 0.086700559
0.037178397 0.92242348 0.08713305
-0.037358649 0.94713831 0.086700678
0.037178397 0.94727159 0.08713305
-0.037358649 0.97198296 0.086700916
0.037178397 0.97211921 0.087132931
-0.012497163 0.996117 0.084503293
0.012330498 0.99629891 0.085066438
-0.21282558 0.12847686 0.10914433
0.21243875 0.12845013 0.1086489
0.1868186 0.22755095 0.097391605
-0.11235485 0.45209688 0.098716497
0.11208519 0.45212889 0.098924637
-0.08739797 0.52679396 0.098072886
0.087148704 0.52696168 0.099019527
-0.087832846 0.55433547 0.11219609
0.087456971 0.55436736 0.11236787
-0.062574841 0.62750345 0.10279214
0.062266219 0.6274876 0.10271633
-0.062644601 0.6531229 0.10581303
0.062309798 0.65306574 0.10554683
-0.062710539 0.67875201 0.10866797
0.062351108 0.67865425 0.10822999
-0.06277702 0.70443058 0.11154699
0.062392484 0.7042852 0.11091745
0.062412467 0.72962594 0.11221516
-0.062804796 0.72975343 0.1127497
-0.062804796 0.75479865 0.1127497
0.062412467 0.75466675 0.11221516
-0.062804796 0.77984357 0.1127497
0.062412467 0.77970779 0.11221504
-0.062804796 0.80488878 0.1127497
0.062412467 0.80474889 0.11221516
-0.062804796 0.8299337 0.1127497
0.062412467 0.82978976 0.11221504
-0.062804796 0.85497892 0.1127497
0.062412467 0.85483074 0.11221516
-0.062804796 0.88002402 0.1127497
0.062412467 0.87987173 0.11221528
-0.062804796 0.90506923 0.1127497
0.062412467 0.90491259 0.11221516
-0.062651195 0.9281171 0.10609829
0.062314779 0.92804891 0.10587013
-0.062651195 0.95311135 0.10609841
0.062314779 0.95304084 0.10587001
-0.062804796 0.98020434 0.11274993
0.062412467 0.9800359 0.11221528
0.18855858 0.25546074 0.12968159
-0.16352403 0.33018649 0.12274933
0.1630381 0.33012447 0.12221158
-0.13825566 0.40511382 0.11958194
0.13790908 0.40543821 0.12192333
-0.11305102 0.47995776 0.11680353
0.1126711 0.48014349 0.11795259
-0.088203385 0.58169204 0.12422967
0.087704264 0.58147013 0.12307608
-0.21489604 0.15533447 0.13902855
-0.18941943 0.25598025 0.13530648
0.088218167 0.61104852 0.14532864
-0.088898078 0.61134106 0.14679039
0 0 0 1 0 0 0 1 0 0 0 1 0 0 0 0 0 907 1 0 0
