ply
format ascii 1.0
comment PCL generated
element vertex 968
property float x
property float y
property float z
element camera 1
property float view_px
property float view_py
property float view_pz
property float x_axisx
property float x_axisy
property float x_axisz
property float y_axisx
property float y_axisy
property float y_axisz
property float z_axisx
property float z_axisy
property float z_axisz
property float focal
property float scalex
property float scaley
property float centerx
property float centery
property int viewportx
property int viewporty
property float k1
property float k2
end_header
-0.059674043 -0.66399217 -0.051040649
-0.035665989 -0.66324115 -0.054942966
-0.011718095 -0.66249192 -0.058835745
0.012169865 -0.66271067 -0.057699919
0.03608527 -0.66317809 -0.055270672
0.060064204 -0.66397214 -0.051144242
-0.059674043 -0.64004421 -0.051040649
-0.035665989 -0.63932317 -0.054943085
-0.011718095 -0.63860404 -0.058835745
0.012169865 -0.63881379 -0.057699919
0.03608527 -0.63926274 -0.055270672
0.060064204 -0.64002502 -0.051144242
-0.059674043 -0.6160962 -0.05104053
0.060064204 -0.61607784 -0.051144242
-0.035665989 -0.61540514 -0.054943085
-0.011718095 -0.61471599 -0.058835864
0.012169865 -0.6149171 -0.057700038
0.03608527 -0.61534733 -0.055270672
-0.059674043 -0.59214824 -0.051040649
-0.035665989 -0.59148741 -0.054943085
-0.011718095 -0.59082812 -0.058835745
0.012169865 -0.59102052 -0.057699919
0.03608527 -0.59143186 -0.055270672
0.060064204 -0.59213066 -0.051144242
-0.059674043 -0.56820029 -0.05104053
-0.035665989 -0.56756943 -0.054943204
-0.011718095 -0.56694007 -0.058835864
0.012169865 -0.56712371 -0.057699919
0.03608527 -0.56751651 -0.055270672
0.060064204 -0.56818348 -0.051144242
-0.059674043 -0.54425234 -0.051040411
-0.035665989 -0.54365146 -0.054943204
-0.011718095 -0.5430522 -0.058835745
0.012169865 -0.54322708 -0.057699919
0.03608527 -0.54360116 -0.055270672
0.060064204 -0.54423636 -0.051144242
-0.059674043 -0.52030438 -0.05104053
-0.035665989 -0.51973367 -0.054942966
-0.011718095 -0.5191642 -0.058835864
0.012169865 -0.51933032 -0.057699919
0.03608527 -0.51968557 -0.055270672
0.060064204 -0.52028918 -0.051144242
-0.059674043 -0.49635631 -0.051040649
-0.035665989 -0.49581563 -0.054943085
-0.011718095 -0.49527621 -0.058835745
0.012169865 -0.49543357 -0.057700038
0.03608527 -0.49577022 -0.055270672
0.060064204 -0.496342 -0.051144242
-0.059674043 -0.47240841 -0.051040649
-0.035665989 -0.47189769 -0.054943085
-0.011718095 -0.47138825 -0.058835864
0.012169865 -0.47153693 -0.057699919
0.03608527 -0.47185484 -0.055270672
0.060064204 -0.47239485 -0.051144242
-0.059674043 -0.44846049 -0.051040649
-0.035665989 -0.44797972 -0.054943204
-0.011718095 -0.44750029 -0.058835745
0.012169865 -0.44764018 -0.057699919
0.03608527 -0.44793934 -0.055270791
0.060064204 -0.44844767 -0.051144242
-0.059674043 -0.42451248 -0.05104053
-0.035665989 -0.42406186 -0.054942966
-0.011718095 -0.42361236 -0.058835745
0.012169865 -0.42374343 -0.057700038
0.03608527 -0.42402399 -0.055270791
0.060064204 -0.42450055 -0.051144242
-0.059674043 -0.40056452 -0.051040649
-0.035665989 -0.40014389 -0.054942966
-0.011718095 -0.39972439 -0.058835745
0.012169865 -0.39984682 -0.057699919
0.03608527 -0.40010864 -0.055270791
0.060064204 -0.40055341 -0.051144242
-0.059674043 -0.37661654 -0.05104053
-0.035665989 -0.37622604 -0.054943204
-0.011718095 -0.37583643 -0.058835864
0.012169865 -0.3759501 -0.057700038
0.03608527 -0.37619311 -0.055270672
0.060064204 -0.37660626 -0.051144242
-0.059674043 -0.35266858 -0.051040411
-0.035665989 -0.35230815 -0.054943085
-0.011718095 -0.35194844 -0.058835745
0.012169865 -0.3520534 -0.057699919
0.03608527 -0.35227776 -0.055270672
0.060064204 -0.35265911 -0.051144242
-0.059674043 -0.32872054 -0.051040649
-0.035665989 -0.32839021 -0.054943085
-0.011718095 -0.32806051 -0.058835745
0.012169865 -0.32815665 -0.057700038
0.03608527 -0.32836244 -0.055270672
0.060064204 -0.32871184 -0.051144123
-0.059674043 -0.30477262 -0.051040649
-0.035665989 -0.30447224 -0.054943204
-0.011718095 -0.30417255 -0.058835745
0.012169865 -0.30425996 -0.057700038
0.03608527 -0.304447 -0.055270672
0.060064204 -0.30476457 -0.051144361
-0.059674043 -0.2808246 -0.05104053
-0.035665989 -0.28055426 -0.054943204
-0.011718095 -0.28028458 -0.058835864
0.012169865 -0.28036329 -0.057699919
0.03608527 -0.28053159 -0.055270672
0.060064204 -0.28081739 -0.051144361
-0.059674043 -0.25687665 -0.051040649
-0.035665989 -0.25663641 -0.054942966
-0.011718095 -0.25639665 -0.058835745
0.012169865 -0.2564666 -0.057699919
0.03608527 -0.25661623 -0.055270672
0.060064204 -0.25687024 -0.051144361
-0.059674043 -0.23292878 -0.05104053
-0.035665989 -0.23271844 -0.054943085
-0.011718095 -0.23250869 -0.058835745
0.012169865 -0.23256999 -0.057699919
0.03608527 -0.23270079 -0.055270672
0.060064204 -0.23292306 -0.051144361
-0.059674043 -0.20898083 -0.051040649
-0.035665989 -0.20880046 -0.054943085
-0.011718095 -0.20862073 -0.058835745
0.012169865 -0.20867312 -0.057699919
0.03608527 -0.20878538 -0.055270672
0.060064204 -0.20897591 -0.051144361
-0.059674043 -0.18503286 -0.05104053
-0.035665989 -0.18488261 -0.054942966
-0.011718095 -0.18473268 -0.058835745
0.012169865 -0.18477643 -0.057700038
0.03608527 -0.18486999 -0.055270672
0.060064204 -0.18502873 -0.051144361
-0.059674043 -0.16108489 -0.051040411
-0.035665989 -0.16096464 -0.054942966
-0.011718095 -0.16084482 -0.058835745
0.012169865 -0.16087982 -0.057699919
0.03608527 -0.16095454 -0.055270672
0.060064204 -0.16108161 -0.051144361
-0.059674043 -0.13713679 -0.051040649
-0.035665989 -0.13704675 -0.054943085
-0.011718095 -0.13695672 -0.058835745
0.012169865 -0.13698301 -0.057699919
0.03608527 -0.13703915 -0.055270672
0.060064204 -0.13713446 -0.051144361
-0.059674043 -0.11318883 -0.051040649
-0.035665989 -0.11312882 -0.054943204
-0.011718095 -0.11306891 -0.058835745
0.012169865 -0.11308636 -0.057699919
0.03608527 -0.1131238 -0.055270672
0.060064204 -0.11318728 -0.051144361
-0.059674043 -0.089240916 -0.05104053
-0.035665989 -0.089210935 -0.054942966
-0.011718095 -0.089180857 -0.058835745
0.012169865 -0.089189656 -0.057699919
0.03608527 -0.089208454 -0.055270672
0.060064204 -0.089240119 -0.051144361
-0.059674043 -0.065292954 -0.051040649
-0.035665989 -0.065292954 -0.054942966
-0.011718095 -0.065292999 -0.058835745
0.03608527 -0.065292999 -0.055270672
0.060064204 -0.065292954 -0.051144361
0.012169865 -0.065292902 -0.057700038
-0.059674043 -0.041344993 -0.05104053
-0.035665989 -0.041375019 -0.054943085
-0.011718095 -0.041404895 -0.058835745
0.012169865 -0.041396298 -0.057699919
0.03608527 -0.041377503 -0.055270791
0.060064204 -0.041345783 -0.051144361
-0.059673641 -0.017397225 -0.051057935
-0.035665989 -0.017457135 -0.054942966
-0.011718095 -0.017516945 -0.058835745
0.012169865 -0.017499592 -0.057700038
0.03608527 -0.017462157 -0.055270791
0.060064204 -0.017398518 -0.051144242
-0.059673641 0.0065504834 -0.051057816
-0.035665989 0.0064607486 -0.054943085
-0.011718095 0.0063710138 -0.058835745
0.012169865 0.0063972622 -0.057699919
0.03608527 0.0064532906 -0.055270672
0.060064204 0.0065485463 -0.051144361
-0.059673641 0.0304984 -0.051057816
-0.035665989 0.030378781 -0.054943085
-0.011718095 0.030258819 -0.058835745
0.012169865 0.03029377 -0.057699919
0.03608527 0.03036879 -0.055270672
0.060064204 0.030495815 -0.051144242
-0.059673641 0.054446213 -0.051057935
-0.035665989 0.054296665 -0.054943204
-0.011718095 0.054146819 -0.058835745
0.012169865 0.054190569 -0.057700038
0.03608527 0.054284088 -0.055270672
0.060064204 0.054442883 -0.051144361
-0.059673641 0.078394018 -0.051057935
-0.035665989 0.078214593 -0.054942966
-0.011718095 0.07803487 -0.058835745
0.012169865 0.078087278 -0.057699919
0.03608527 0.078199528 -0.055270672
0.060064204 0.078390144 -0.051144242
-0.059673641 0.1023419 -0.051057816
-0.035665989 0.10213248 -0.054943085
-0.011718095 0.10192283 -0.058835745
0.012169865 0.10198393 -0.057700038
0.03608527 0.10211498 -0.055270672
0.060064204 0.10233716 -0.051144361
-0.059673641 0.1262897 -0.051057816
-0.035665989 0.12605056 -0.054942966
-0.011718095 0.12581068 -0.058835745
0.012169865 0.12588075 -0.057700038
0.03608527 0.1260303 -0.055270672
0.060064204 0.12628442 -0.051144242
-0.059673641 0.15023765 -0.051057816
-0.035665989 0.14996836 -0.054942966
-0.011718095 0.14969867 -0.058835745
0.012169865 0.14977738 -0.057699919
0.03608527 0.14994574 -0.055270672
0.060064204 0.15023151 -0.051144361
-0.059673641 0.17418543 -0.051057816
-0.035665989 0.17388639 -0.054942966
-0.011718095 0.1735867 -0.058835745
0.012169865 0.17367405 -0.057700038
0.03608527 0.17386103 -0.055270672
0.060064204 0.17417878 -0.051144242
-0.059673641 0.19813326 -0.051057935
-0.035665989 0.19780427 -0.054942966
-0.011718095 0.19747466 -0.058835745
0.012169865 0.19757071 -0.057699919
0.03608527 0.1977765 -0.055270672
0.060064204 0.19812599 -0.051144242
-0.059673641 0.22208109 -0.051057816
-0.035665989 0.2217221 -0.054943204
-0.011718095 0.22136256 -0.058835745
0.012169865 0.22146761 -0.057699919
0.03608527 0.22169197 -0.055270672
0.060064204 0.22207305 -0.051144242
-0.059673641 0.24602887 -0.051057816
-0.035665989 0.24564013 -0.054942966
-0.011718095 0.24525067 -0.058835745
0.012169865 0.24536416 -0.057700038
0.03608527 0.24560723 -0.055270672
0.060064204 0.24602032 -0.051144242
-0.059673641 0.26997668 -0.051057935
-0.035665989 0.26955798 -0.054943204
-0.011718095 0.26913857 -0.058835745
0.012169865 0.26926091 -0.057699919
0.03608527 0.26952273 -0.055270672
0.060064204 0.26996738 -0.051144242
-0.059673641 0.29392466 -0.051057816
-0.035665989 0.29347602 -0.054943085
-0.011718095 0.29302648 -0.058835745
0.012169865 0.29315767 -0.057700038
0.03608527 0.29343814 -0.055270672
0.060064204 0.29391465 -0.051144242
-0.059673641 0.31787241 -0.051057935
-0.035665989 0.31739384 -0.054942966
-0.011718095 0.31691438 -0.058835745
0.012169865 0.31705439 -0.057700038
0.03608527 0.31735343 -0.055270672
0.060064204 0.31786174 -0.051144242
-0.059673641 0.34182027 -0.051057816
-0.035665989 0.34131187 -0.054942966
-0.011718095 0.34080252 -0.058835745
0.012169865 0.34095103 -0.057699919
0.03608527 0.34126887 -0.055270672
0.060064204 0.34180897 -0.051144242
-0.059688818 0.36585921 -0.050400734
-0.035675284 0.36531347 -0.054339409
-0.011722601 0.36477143 -0.058250785
0.012169865 0.36492881 -0.057114601
0.036089916 0.36526805 -0.054667115
0.060074586 0.36584967 -0.050469995
-0.059778411 0.39037952 -0.046521544
-0.035733793 0.38979173 -0.050539017
-0.011751249 0.3892082 -0.054529071
0.012169865 0.38937232 -0.05340755
0.036118899 0.38973868 -0.050902128
0.060138848 0.39041239 -0.046296
-0.011821971 0.41454378 -0.045341849
0.012169865 0.4147149 -0.044230938
-0.10832805 -0.66778255 -0.031345248
0.10852617 -0.66751981 -0.032710195
-0.083890542 -0.66567045 -0.042319775
0.084223606 -0.66574079 -0.041954517
-0.10832805 -0.6436829 -0.031345248
-0.083890542 -0.6416555 -0.042319655
0.084223606 -0.64172286 -0.041954517
0.10852617 -0.64343065 -0.032710314
-0.10832805 -0.61958331 -0.031345248
-0.083890542 -0.6176402 -0.042319655
0.084223606 -0.61770499 -0.041954517
0.10852617 -0.61934167 -0.032710195
-0.10832805 -0.59548384 -0.03134501
-0.083890542 -0.59362513 -0.042319775
0.084223606 -0.59368706 -0.041954517
0.10852617 -0.59525257 -0.032710195
-0.10832805 -0.57138425 -0.031345129
-0.083890542 -0.56961018 -0.042319655
0.084223606 -0.56966913 -0.041954517
0.10852617 -0.57116359 -0.032710195
-0.10832805 -0.54728472 -0.031345129
-0.083890542 -0.54559499 -0.042319775
0.084223606 -0.54565126 -0.041954517
0.10852617 -0.5470745 -0.032710195
-0.10832738 -0.52318257 -0.031362772
-0.083890542 -0.5215798 -0.042319775
0.084223606 -0.52163333 -0.041954517
0.10852617 -0.52298552 -0.032710195
-0.10832805 -0.49908549 -0.031345129
-0.083890542 -0.49756476 -0.042319655
0.084223606 -0.49761543 -0.041954517
0.10852617 -0.49889633 -0.032710314
-0.10832738 -0.4749836 -0.031362653
-0.083890542 -0.47354966 -0.042319775
0.084223606 -0.47359753 -0.041954517
0.10852617 -0.4748072 -0.032710195
-0.10832738 -0.45088407 -0.031362772
-0.083890542 -0.4495346 -0.042319655
0.084223606 -0.4495796 -0.041954517
0.10852617 -0.4507181 -0.032710195
-0.10832738 -0.42678469 -0.031362653
-0.083890542 -0.4255195 -0.042319775
0.084223606 -0.42556161 -0.041954756
0.10852617 -0.42662904 -0.032710195
-0.10832738 -0.40268525 -0.031362653
-0.083890542 -0.40150428 -0.042319775
0.084223606 -0.40154365 -0.041954637
0.10852617 -0.40254003 -0.032710195
-0.10832738 -0.37858573 -0.031362772
-0.083890542 -0.37748927 -0.042319655
0.084223606 -0.37752578 -0.041954637
0.10852617 -0.37845093 -0.032710195
-0.10832738 -0.35448638 -0.031362653
-0.083890006 -0.35347259 -0.04233706
0.084223606 -0.35350785 -0.041954637
0.10852617 -0.35436183 -0.032710314
-0.10832738 -0.33038688 -0.031362772
-0.083890006 -0.32945758 -0.042337179
0.084223606 -0.32948989 -0.041954517
0.10852617 -0.33027273 -0.032710314
-0.10832738 -0.30628744 -0.031362653
-0.083890006 -0.30544266 -0.04233706
0.084223606 -0.30547205 -0.041954517
0.10852617 -0.30618373 -0.032710314
-0.10832738 -0.28218797 -0.031362653
-0.083890006 -0.28142768 -0.04233706
0.084223606 -0.28145418 -0.041954637
0.10852617 -0.28209466 -0.032710195
-0.10832738 -0.2580885 -0.031362772
-0.083890006 -0.25741279 -0.04233706
0.084223606 -0.25743625 -0.041954637
0.10852617 -0.25800562 -0.032710195
-0.10832738 -0.23398915 -0.031362772
-0.083890006 -0.23339772 -0.042337179
0.084223606 -0.23341832 -0.041954517
0.10852617 -0.23391655 -0.032710195
-0.10832738 -0.20988965 -0.031362772
-0.083890006 -0.20938277 -0.042337179
0.084223606 -0.20940039 -0.041954517
0.10852617 -0.20982739 -0.032710314
-0.10832738 -0.18579018 -0.031362534
-0.083890006 -0.18536779 -0.04233706
0.084223606 -0.18538252 -0.041954517
0.10852617 -0.18573834 -0.032710195
-0.10832738 -0.1616907 -0.031362772
-0.083890006 -0.16135281 -0.042336941
0.084223606 -0.16136464 -0.041954517
0.10852617 -0.16164929 -0.032710195
-0.10832738 -0.13759124 -0.031362891
-0.083890006 -0.13733779 -0.042337179
0.084223606 -0.13734668 -0.041954517
0.10852617 -0.13756017 -0.032710195
-0.10832738 -0.11349189 -0.031362653
-0.083890006 -0.11332286 -0.04233706
0.084223606 -0.11332883 -0.041954517
0.10852617 -0.11347112 -0.032710195
-0.10832738 -0.089392401 -0.031362772
-0.083890006 -0.089307934 -0.04233706
0.084223606 -0.08931087 -0.041954517
0.10852617 -0.089381963 -0.032710314
-0.10832738 -0.065292954 -0.031362653
-0.083890006 -0.065292902 -0.042337179
0.084223606 -0.065292902 -0.041954517
0.10852617 -0.065292902 -0.032710195
-0.10832738 -0.041193455 -0.031362772
-0.083890006 -0.041277923 -0.042337179
0.084223606 -0.041275039 -0.041954517
0.10852617 -0.041203845 -0.032710195
-0.10832738 -0.017094005 -0.031362772
-0.083890006 -0.017263044 -0.042337179
0.084223606 -0.017257076 -0.041954398
0.10852617 -0.017114788 -0.032710195
-0.10832738 0.0070053414 -0.031362653
-0.083890006 0.0067519844 -0.042336941
0.084223606 0.0067607835 -0.041954398
0.10852617 0.0069741681 -0.032710195
-0.10832738 0.03110484 -0.031362772
-0.083890006 0.030766964 -0.042337179
0.084223606 0.030778699 -0.041954398
0.10852617 0.031063274 -0.032710195
-0.10832738 0.055204287 -0.031362653
-0.083890006 0.054781944 -0.04233706
0.084223606 0.054796562 -0.041954517
0.10852617 0.055152535 -0.032710314
-0.10832738 0.079303779 -0.031362653
-0.083890006 0.078796826 -0.042337179
0.084223606 0.078814469 -0.041954517
0.10852617 0.079241492 -0.032710314
-0.10832738 0.10340325 -0.031362772
-0.083890006 0.10281181 -0.042336941
0.084223606 0.10283246 -0.041954756
0.10852617 0.10333063 -0.032710195
-0.10832738 0.12750268 -0.031362653
-0.083890006 0.12682679 -0.042337179
0.084223606 0.12685037 -0.041954756
0.10852617 0.12741965 -0.032710195
-0.083890006 0.1508418 -0.042337179
0.084223606 0.15086842 -0.041954517
0.10852617 0.15150875 -0.032710195
-0.10832738 0.15160218 -0.031362653
-0.10832738 0.17570162 -0.031362534
-0.083890006 0.17485663 -0.042337179
0.084223606 0.17488629 -0.041954517
0.10852617 0.17559773 -0.032710195
-0.10832738 0.19980088 -0.031362772
-0.083890006 0.19887173 -0.042336941
0.084223606 0.19890416 -0.041954517
0.10852617 0.19968694 -0.032710195
-0.10832738 0.22390044 -0.031362891
-0.083890006 0.22288662 -0.042337179
0.084223606 0.22292206 -0.041954517
0.10852617 0.22377595 -0.032710195
-0.10832738 0.24799982 -0.031362772
-0.083890006 0.24690163 -0.042337179
0.084223606 0.24693993 -0.041954517
0.10852617 0.24786511 -0.032710195
-0.10832738 0.27209938 -0.031362772
-0.083890006 0.27091673 -0.042336941
0.084223606 0.27095783 -0.041954637
0.10852617 0.271954 -0.032710195
-0.10832738 0.29619873 -0.031362534
-0.083890006 0.2949315 -0.042336941
0.084223606 0.29497576 -0.041954637
0.10852617 0.29604316 -0.032710195
-0.10832738 0.32029822 -0.031362772
-0.083890006 0.31894663 -0.042337179
0.084223606 0.31899357 -0.041954637
0.10852617 0.32013217 -0.032710195
-0.10832738 0.34439775 -0.031362772
-0.083890006 0.34296152 -0.042337179
0.084223606 0.34301168 -0.041954517
0.10852617 0.34422138 -0.032710314
-0.083914638 0.36708736 -0.041536927
0.084241278 0.36713549 -0.041188955
0.10855311 0.36843163 -0.031835437
-0.10836311 0.36862582 -0.030434489
-0.084052496 0.39176327 -0.037060142
0.084342279 0.39179906 -0.036815763
0.10869453 0.39319918 -0.027242899
-0.08439751 0.41754392 -0.025855303
-0.060002144 0.41585377 -0.036833405
-0.035879083 0.41519663 -0.041102171
0.036190592 0.41512144 -0.041589141
0.060297165 0.4159801 -0.036013126
0.084594183 0.41753581 -0.025908113
-0.011951978 0.4412657 -0.028453469
0.012169865 0.44142455 -0.027470946
-0.13311179 -0.67063308 -0.016532898
0.13327058 -0.67079645 -0.015684247
-0.13311179 -0.64641958 -0.016532898
0.13327058 -0.64657634 -0.015684247
-0.13311179 -0.62220591 -0.016533017
0.13327058 -0.62235624 -0.015684247
-0.13311179 -0.5979923 -0.016532898
0.13327058 -0.59813607 -0.015684247
-0.13311179 -0.57377875 -0.016532898
0.13327058 -0.5739159 -0.015684366
-0.13311179 -0.54956514 -0.016533017
0.13327058 -0.54969585 -0.015684247
-0.13311179 -0.52535146 -0.016532898
0.13327058 -0.52547556 -0.015684247
-0.13311179 -0.50113785 -0.016533017
0.13327058 -0.50125545 -0.015684366
-0.13311179 -0.47692427 -0.016532898
0.13327058 -0.47703534 -0.015684247
-0.13311179 -0.45271075 -0.016532898
0.13327058 -0.4528152 -0.015684247
-0.13311179 -0.42849702 -0.016532898
0.13327058 -0.42859504 -0.015684247
-0.13311179 -0.40428349 -0.016532898
0.13327058 -0.40437493 -0.015684247
-0.13311179 -0.38006994 -0.016532898
0.13327058 -0.38015476 -0.015684247
-0.13311179 -0.35585624 -0.016532898
0.13327058 -0.35593465 -0.015684366
-0.13311179 -0.33164272 -0.016532898
0.13327058 -0.33171448 -0.015684247
-0.13311179 -0.30742902 -0.016532898
0.13327058 -0.30749434 -0.015684247
-0.13311179 -0.28321546 -0.016532898
0.13327058 -0.28327423 -0.015684366
-0.13311179 -0.25900188 -0.016532779
0.13327058 -0.25905406 -0.015684247
-0.13311179 -0.23478818 -0.016532898
0.13327058 -0.23483393 -0.015684247
-0.13311179 -0.21057463 -0.016532898
0.13327058 -0.21061376 -0.015684366
-0.13311179 -0.18636093 -0.016532898
0.13327058 -0.18639365 -0.015684247
-0.13311179 -0.16214734 -0.016532898
0.13327058 -0.16217354 -0.015684247
-0.13311179 -0.13793385 -0.016532898
0.13327058 -0.13795337 -0.015684366
-0.13311179 -0.1137201 -0.016532898
0.13327058 -0.11373322 -0.015684247
-0.13311179 -0.089506596 -0.016532898
0.13327058 -0.089513108 -0.015684247
0.13327058 -0.065292954 -0.015684366
-0.13311179 -0.06529285 -0.016532898
-0.13311179 -0.041079454 -0.016532898
0.13327058 -0.041072842 -0.015684247
-0.13311179 -0.016865708 -0.016532779
0.13327058 -0.016852632 -0.015684247
-0.13311179 0.0073478892 -0.016532898
0.13327058 0.0073674768 -0.015684366
-0.13311179 0.031561382 -0.016532898
0.13327058 0.031587534 -0.015684247
-0.13311179 0.055775084 -0.016533017
0.13327058 0.055807792 -0.015684247
-0.13311179 0.079988725 -0.016532779
0.13327058 0.080028005 -0.015684366
-0.13311179 0.10420232 -0.016532779
0.13327058 0.10424801 -0.015684247
-0.13311179 0.12841591 -0.016532898
0.13327058 0.12846816 -0.015684366
-0.13311179 0.15262946 -0.016532898
0.13327058 0.15268829 -0.015684366
-0.13311179 0.17684326 -0.016532898
0.13327058 0.17690828 -0.015684247
-0.13311179 0.20105678 -0.016532898
0.13327058 0.20112866 -0.015684247
-0.13311179 0.2252703 -0.016532779
0.13327058 0.22534886 -0.015684247
-0.13311179 0.249484 -0.016532898
0.13327058 0.24956888 -0.015684247
-0.13311179 0.27369747 -0.016532898
0.13327058 0.27378899 -0.015684247
-0.13311179 0.29791135 -0.016532898
0.13327058 0.29800916 -0.015684247
-0.13311179 0.32212481 -0.016532898
0.13327058 0.32222936 -0.015684247
-0.13311179 0.34633833 -0.016532898
0.13327058 0.34644955 -0.015684247
-0.13317059 0.37072837 -0.015259624
0.13331825 0.37084129 -0.014445901
-0.10854544 0.39342523 -0.025697112
-0.10900439 0.41940406 -0.013773084
0.10911582 0.41943696 -0.013560653
-0.060422014 0.44285017 -0.018652558
-0.036142517 0.44198704 -0.023991585
0.036320642 0.44187343 -0.024695039
0.060585655 0.4430728 -0.017274976
-0.15843554 -0.67459798 0.0040688515
0.15832619 -0.67427754 0.0024043322
-0.15843554 -0.6502257 0.0040688515
0.15832619 -0.64991826 0.0024044514
-0.15843554 -0.62585354 0.0040688515
0.15832619 -0.62555891 0.0024043322
-0.15843554 -0.60148144 0.0040688515
0.15832619 -0.60119945 0.0024043322
-0.15843554 -0.57710916 0.0040687323
0.15832619 -0.57683998 0.0024043322
-0.15843554 -0.55273694 0.0040688515
0.15832619 -0.5524807 0.002404213
-0.15843554 -0.52836478 0.0040688515
0.15832619 -0.52812141 0.0024043322
-0.15843554 -0.5039925 0.0040687323
0.15832619 -0.50376195 0.0024043322
-0.15843554 -0.47962043 0.0040688515
0.15832619 -0.47940254 0.0024043322
-0.15843554 -0.45524809 0.0040688515
0.15832619 -0.45504308 0.002404213
-0.15843554 -0.43087602 0.0040688515
0.15832619 -0.4306837 0.002404213
-0.15843554 -0.40650377 0.0040688515
0.15832619 -0.40632439 0.0024044514
-0.15843554 -0.38213155 0.0040687323
0.15832619 -0.38196504 0.0024043322
-0.15843554 -0.35775945 0.0040688515
0.15832619 -0.35760558 0.002404213
-0.15843554 -0.33338717 0.0040688515
0.15832619 -0.33324617 0.0024043322
-0.15843554 -0.30901492 0.0040687323
0.15832619 -0.30888689 0.0024044514
-0.15843554 -0.28464282 0.0040688515
0.15832619 -0.28452748 0.0024044514
-0.15843554 -0.2602706 0.0040688515
0.15832619 -0.26016805 0.0024043322
-0.15843554 -0.23589829 0.0040687323
0.15832619 -0.23580864 0.0024043322
-0.15843554 -0.21152616 0.0040688515
0.15832619 -0.21144918 0.002404213
-0.15843554 -0.18715397 0.0040688515
0.15832619 -0.18708992 0.0024044514
-0.15843554 -0.16278177 0.0040687323
0.15832619 -0.16273052 0.0024043322
-0.15843554 -0.13840963 0.0040688515
0.15832619 -0.1383711 0.0024044514
-0.15843554 -0.11403733 0.0040688515
0.15832619 -0.11401173 0.002404213
-0.15843554 -0.089665093 0.0040687323
0.15832619 -0.08965227 0.002404213
-0.15843554 -0.065292954 0.0040688515
0.15832619 -0.065293051 0.0024043322
-0.15843554 -0.040920712 0.0040688515
0.15832619 -0.040933687 0.0024043322
-0.15843554 -0.01654857 0.0040687323
0.15832619 -0.016574174 0.002404213
-0.15843554 0.0078236237 0.0040688515
0.15832619 0.0077852383 0.002404213
-0.15843554 0.032195963 0.0040688515
0.15832619 0.032144554 0.0024044514
-0.15843554 0.056568108 0.0040687323
0.15832619 0.056504019 0.0024044514
-0.15843554 0.080940254 0.0040688515
0.15832619 0.080863439 0.0024044514
-0.15843554 0.10531237 0.0040687323
0.15832619 0.10522269 0.002404213
-0.15843651 0.12968576 0.0040868521
0.15832619 0.12958217 0.002404213
-0.15843651 0.15405807 0.0040868521
0.15832619 0.15394148 0.0024044514
-0.15843651 0.17843041 0.0040866137
0.15832619 0.17830095 0.0024044514
-0.15843651 0.20280287 0.0040868521
0.15832619 0.20266047 0.0024044514
-0.15843651 0.22717515 0.0040868521
0.15832619 0.22701967 0.002404213
-0.15843651 0.25154749 0.0040867329
0.15832619 0.2513791 0.002404213
-0.15843651 0.27591974 0.0040867329
0.15832619 0.27573851 0.0024044514
-0.15843651 0.30029202 0.0040867329
0.15832619 0.30009791 0.0024044514
-0.15843651 0.32466456 0.0040868521
0.15832619 0.32445735 0.0024044514
-0.15843651 0.3490369 0.0040868521
0.15832619 0.34881666 0.002404213
-0.1585176 0.37361771 0.0055917501
0.15839398 0.3733795 0.0038717985
-0.13347845 0.3959268 -0.0085943937
0.13356261 0.39599946 -0.0080969334
-0.13418585 0.42255935 0.0067213774
0.13412261 0.42251796 0.006452322
-0.08502537 0.44498211 -0.005464673
0.08504986 0.44486707 -0.0061765909
-0.012223999 0.47137201 0.006882906
-0.15894948 0.3991738 0.013606191
0.15882528 0.39911592 0.013209939
-0.10993147 0.44753277 0.010312915
0.10989081 0.4477421 0.011607885
-0.061400305 0.47422171 0.02370894
-0.036704186 0.47232169 0.012489676
0.012169865 0.47150886 0.0076901913
0.036596362 0.47208995 0.011122108
0.061218318 0.47424006 0.023817658
-0.1846108 -0.65563494 0.033346891
0.18435393 -0.65563834 0.03336513
-0.1846108 -0.63103735 0.033347011
0.18435393 -0.63104057 0.03336513
-0.1846108 -0.60643977 0.033346891
0.18435393 -0.60644287 0.033365011
-0.1846108 -0.58184224 0.033346891
0.18435393 -0.58184516 0.033365011
-0.1846108 -0.5572446 0.033346891
0.18435393 -0.55724752 0.03336525
-0.1846108 -0.53264707 0.033347011
0.18435393 -0.53264976 0.03336513
-0.1846108 -0.50804949 0.033346891
0.18435393 -0.50805205 0.03336513
-0.1846108 -0.48345184 0.033347011
0.18435393 -0.48345423 0.03336513
-0.1846108 -0.45885426 0.033346891
0.18435393 -0.45885655 0.03336513
-0.1846108 -0.43425667 0.033347011
0.18435393 -0.43425879 0.033365011
-0.1846108 -0.40965909 0.033346891
0.18435393 -0.40966102 0.033365011
-0.1846108 -0.38506162 0.033346891
0.18435393 -0.38506341 0.03336525
-0.1846108 -0.36046392 0.033346891
0.18435393 -0.36046565 0.03336513
-0.1846108 -0.33586639 0.033347011
0.18435393 -0.33586794 0.03336513
-0.1846108 -0.31126875 0.033346891
0.18435393 -0.31127021 0.03336513
-0.1846108 -0.28667125 0.033347011
0.18435393 -0.28667238 0.03336513
-0.1846108 -0.26207364 0.033346891
0.18435393 -0.26207474 0.033365011
-0.1846108 -0.23747605 0.033347011
0.18435393 -0.23747694 0.033365011
-0.1846108 -0.21287844 0.033346891
0.18435393 -0.21287927 0.033365011
-0.1846108 -0.18828094 0.033346891
0.18435393 -0.18828157 0.03336513
-0.1846108 -0.16368324 0.033346891
0.18435393 -0.16368386 0.03336513
-0.1846108 -0.13908571 0.033347011
0.18435393 -0.13908613 0.03336513
-0.1846108 -0.11448807 0.033346891
0.18435393 -0.11448836 0.03336513
-0.1846108 -0.089890555 0.033347011
0.18435393 -0.089890659 0.033365011
-0.1846108 -0.065292954 0.033346891
0.18435393 -0.065292954 0.033365011
-0.1846108 -0.040695395 0.033347011
0.18435393 -0.040695097 0.03336513
-0.1846108 -0.016097691 0.033347011
0.18435393 -0.016097542 0.03336513
-0.1846108 0.0084997118 0.033346891
0.18435393 0.0085001141 0.03336513
-0.1846108 0.033097424 0.033346891
0.18435393 0.033097968 0.03336513
-0.1846108 0.057695024 0.033347011
0.18435393 0.057695672 0.03336513
-0.1846108 0.082292534 0.033346891
0.18435393 0.082293384 0.033365011
-0.1846108 0.10689013 0.033347011
0.18435393 0.10689103 0.033365011
-0.1846108 0.13148779 0.033346891
0.18435296 0.13148779 0.033346891
-0.1846108 0.15608519 0.033346891
0.18435296 0.15608519 0.033346891
-0.1846108 0.1806829 0.033346891
0.18435296 0.1806829 0.033346891
-0.1846108 0.20528051 0.033347011
0.18435296 0.20528051 0.033347011
-0.1846108 0.22987804 0.033346891
0.18435296 0.22987804 0.033346891
-0.1846108 0.25447562 0.033346891
0.18435296 0.25447562 0.033346891
-0.1846119 0.27907532 0.03336513
0.18435296 0.27907333 0.033346891
-0.1846119 0.30367303 0.03336513
0.18435296 0.30367088 0.033347011
-0.1846119 0.32827064 0.03336513
0.18435296 0.32826841 0.033346891
-0.1846119 0.35286823 0.03336513
0.18435296 0.35286599 0.033347011
-0.1848132 0.37791896 0.036633492
0.18451922 0.37789115 0.036432624
-0.1599592 0.42650431 0.032344103
0.1597975 0.42679927 0.0342592
-0.13554633 0.45171374 0.036176682
0.13523296 0.451572 0.035299778
-0.18563606 0.40449607 0.049995065
0.18517263 0.40428606 0.048558354
-0.086471036 0.47723204 0.041484356
0.086191632 0.4775334 0.043263674
-0.012603357 0.50449109 0.056162834
0.012169865 0.50452715 0.056366205
-0.037470184 0.50556767 0.062242746
0.036995035 0.50568587 0.06291163
-0.21236269 -0.66404635 0.078875184
0.21183759 -0.66429609 0.080226898
-0.21236269 -0.63909829 0.078875065
0.21183759 -0.63933766 0.08022666
-0.21236269 -0.61415035 0.078875065
0.21183759 -0.61437923 0.080226779
-0.21236269 -0.58920217 0.078875184
0.21183759 -0.58942074 0.08022666
-0.21236269 -0.56425411 0.078875065
0.21183759 -0.56446224 0.080226779
-0.21236269 -0.53930604 0.078875303
0.21183759 -0.53950387 0.080226779
-0.21236269 -0.51435804 0.078875184
0.21183759 -0.51454532 0.080226541
-0.21236269 -0.48940995 0.078875065
0.21183759 -0.48958683 0.080226779
-0.21236269 -0.46446192 0.078875303
0.21183759 -0.46462831 0.08022666
-0.21236269 -0.43951389 0.078875184
0.21183759 -0.43967 0.080226779
-0.21236269 -0.41456583 0.078875065
0.21183759 -0.41471145 0.080226779
-0.21236269 -0.38961777 0.078875303
0.21183759 -0.38975301 0.080226779
-0.21236269 -0.36466962 0.078875184
0.21183759 -0.36479446 0.080226779
-0.21236269 -0.33972165 0.078875065
0.21183759 -0.33983612 0.080226779
-0.21236397 -0.31477499 0.078894019
0.21183759 -0.31487757 0.080226779
-0.21236397 -0.28982684 0.078894019
0.21183759 -0.28991917 0.080226779
-0.21236397 -0.2648786 0.078894019
0.21183759 -0.26496062 0.080226779
-0.21236397 -0.23993039 0.078894019
0.21183759 -0.24000227 0.080226779
-0.21236397 -0.21498212 0.078894019
0.21183759 -0.21504378 0.080226779
-0.21236397 -0.19003397 0.078894019
0.21183759 -0.19008519 0.08022666
-0.21236397 -0.16508567 0.078894019
0.21183759 -0.16512683 0.08022666
-0.21236397 -0.14013752 0.078894019
0.21183759 -0.14016829 0.08022666
-0.21236397 -0.11518941 0.078894019
0.21183759 -0.11520989 0.080226779
-0.21236397 -0.090241157 0.0788939
0.21183759 -0.090251349 0.08022666
-0.21236397 -0.065292954 0.078894019
0.21183759 -0.065292999 0.080226779
-0.21236397 -0.040344797 0.0788939
0.21183759 -0.040334404 0.080226779
-0.21236397 -0.015396491 0.078894019
0.21183759 -0.015376057 0.080226779
-0.21236397 0.0095515624 0.078894019
0.21183759 0.0095824376 0.080226541
-0.21236397 0.034499921 0.078894019
0.21183759 0.034540936 0.080226898
-0.21236397 0.059448026 0.078894019
0.21183759 0.059499383 0.08022666
-0.21236397 0.084396385 0.0788939
0.21183759 0.084457733 0.080226779
-0.21236397 0.10934443 0.078894019
0.21183759 0.10941633 0.080226779
-0.21236397 0.13429284 0.0788939
0.21183759 0.13437483 0.080226541
-0.21236397 0.1592409 0.078894019
0.21183759 0.15933326 0.080226779
-0.21236397 0.18418914 0.078894019
0.21183759 0.18429172 0.080226541
-0.21236397 0.20913735 0.078894019
0.21183759 0.20925006 0.080226779
-0.21236397 0.23408562 0.078894019
0.21183759 0.23420876 0.080226779
-0.21236397 0.25903377 0.078894019
0.21183759 0.2591671 0.080226779
-0.21236397 0.28398198 0.078894019
0.21183759 0.28412557 0.08022666
-0.21236397 0.30893013 0.078894138
0.21183759 0.309084 0.080226779
-0.21236397 0.3338784 0.078894019
0.21183759 0.33404246 0.080226779
-0.21239127 0.35887799 0.079288006
0.21185957 0.35904774 0.080583692
-0.21314147 0.38532966 0.090115905
0.21241753 0.38526431 0.089643598
-0.18770856 0.43440312 0.083648205
0.18723504 0.43489319 0.08683145
-0.16276027 0.45949751 0.08432579
0.16231024 0.46019852 0.088661671
-0.11263475 0.48384738 0.080546141
0.11205464 0.48407328 0.081880093
-0.062624514 0.50813061 0.076718807
0.062048949 0.50831652 0.077768445
-0.03782003 0.53458577 0.084965944
-0.012769534 0.5332526 0.077749729
0.012169865 0.53325939 0.07778728
0.037165102 0.53459281 0.085003734
-0.012825227 0.55958444 0.084984779
0.012169865 0.5595808 0.084965944
-0.012848883 0.58519459 0.088057637
0.012169865 0.58518326 0.088001132
-0.012850336 0.61025256 0.088246465
0.012169865 0.61024082 0.08818996
-0.012850336 0.63527268 0.088246465
0.012169865 0.63526046 0.088189721
-0.012850336 0.66029274 0.088246465
0.012169865 0.66028029 0.08818996
-0.012850336 0.68531311 0.088246465
0.012169865 0.68529993 0.088189721
-0.012850336 0.71033323 0.088246465
0.012169865 0.71031976 0.08818996
-0.012850336 0.73535359 0.088246465
0.012169865 0.73533952 0.088189721
-0.012850336 0.76037359 0.088246465
0.012169865 0.76035935 0.088189721
-0.012850336 0.78539401 0.088246465
0.012169865 0.78537911 0.08818996
-0.012850336 0.81041408 0.088246465
0.012169865 0.81039876 0.088189721
-0.012850336 0.8354345 0.088246465
0.012169865 0.83541858 0.08818996
-0.012850336 0.86045444 0.088246465
0.012169865 0.86043823 0.08818984
-0.012850336 0.88547456 0.088246465
0.012169865 0.88545811 0.08818996
-0.012850336 0.91049492 0.088246465
0.012169865 0.91047794 0.08818996
-0.012850336 0.93551522 0.088246465
0.012169865 0.9354977 0.08818984
-0.012828997 0.95966035 0.08547461
0.012169865 0.95965451 0.085455894
-0.012821893 0.98436099 0.08455193
0.012169865 0.98435491 0.084532976
-0.063204095 0.53769875 0.10181534
0.062413312 0.53762847 0.10143483
-0.037937749 0.56105232 0.09261167
0.037222214 0.56101578 0.092422605
-0.03798528 0.58672386 0.09569931
0.037245687 0.58667839 0.09547174
-0.037987906 0.61183709 0.09586978
0.037246708 0.61178178 0.09560442
-0.037987906 0.63691586 0.09586978
0.037246708 0.63685864 0.0956043
-0.037987906 0.66199487 0.09586978
0.037246708 0.66193539 0.09560442
-0.037987906 0.68707359 0.09586978
0.037246708 0.68701231 0.095604181
-0.037987906 0.7121526 0.095869899
0.037246708 0.71208912 0.09560442
-0.037987906 0.73723137 0.09586978
0.037246708 0.73716611 0.0956043
-0.037987906 0.76231015 0.09586978
0.037246708 0.76224279 0.0956043
-0.037987906 0.78738922 0.09586978
0.037246708 0.7873196 0.0956043
-0.037987906 0.81246793 0.09586978
0.037246708 0.81239653 0.09560442
-0.037987906 0.83754706 0.09586978
0.037246708 0.83747345 0.0956043
-0.037987906 0.86262578 0.09586978
0.037246708 0.8625502 0.0956043
-0.037987906 0.88770485 0.09586978
0.037246708 0.88762712 0.0956043
-0.037987906 0.91278356 0.095869899
0.037246708 0.91270393 0.09560442
-0.037987906 0.93786246 0.095869899
0.037246708 0.93778056 0.095604181
-0.037926096 0.96167427 0.091855168
0.037216678 0.96162647 0.091703892
-0.088552497 0.51386058 0.10908198
0.087709434 0.51384366 0.10898638
-0.063401498 0.56446832 0.11036325
0.062548421 0.56443912 0.11021006
-0.063471809 0.59026825 0.11340761
0.062606506 0.59038335 0.1139828
-0.063473575 0.61549813 0.11348426
0.062607981 0.61562163 0.1140784
-0.063473575 0.64071244 0.11348438
0.062607981 0.64084065 0.11407864
-0.063473575 0.66592711 0.11348426
0.062607981 0.66605955 0.11407864
-0.063473575 0.69114149 0.11348426
0.062607981 0.69127864 0.11407852
-0.063473575 0.71635604 0.11348438
0.062607981 0.71649766 0.11407864
-0.063473575 0.74157041 0.11348426
0.062607981 0.74171674 0.1140784
-0.063473575 0.76678497 0.11348438
0.062607981 0.766936 0.11407864
-0.063473575 0.79199934 0.11348438
0.062607981 0.79215503 0.11407864
-0.063473575 0.81721395 0.11348426
0.062607981 0.81737417 0.11407864
-0.063473575 0.84242833 0.11348438
0.062607981 0.84259313 0.11407864
-0.063473575 0.86764294 0.11348426
0.062607981 0.86781216 0.11407864
-0.063473575 0.89285737 0.11348426
0.062607981 0.89303106 0.11407876
-0.063473575 0.91807181 0.11348438
0.062607981 0.9182502 0.11407864
-0.063473575 0.94328636 0.11348426
0.062607981 0.94346935 0.11407864
-0.063361757 0.96697265 0.10864246
0.062514573 0.96677369 0.10801208
-0.089675546 0.54577965 0.14555395
0.08852686 0.54556292 0.14438188
-0.089997314 0.98192078 0.15600371
-0.090362579 0.96003157 0.16786599
0.089058682 0.95989126 0.16741049
0.088883922 0.98313254 0.15984333
0 0 0 1 0 0 0 1 0 0 0 1 0 0 0 0 0 968 1 0 0
