ply
format ascii 1.0
comment PCL generated
element vertex 1323
property float x
property float y
property float z
element camera 0
property float view_px
property float view_py
property float view_pz
property float x_axisx
property float x_axisy
property float x_axisz
property float y_axisx
property float y_axisy
property float y_axisz
property float z_axisx
property float z_axisy
property float z_axisz
property float focal
property float scalex
property float scaley
property float centerx
property float centery
property int viewportx
property int viewporty
property float k1
property float k2
end_header
0.032335714 -0.64418101 -0.086248159
-0.044446774 -0.61894381 -0.084571958
-0.018817388 -0.61810899 -0.088588715
0.0067501543 -0.61848301 -0.086788654
0.032350838 -0.61900377 -0.084283233
-0.018849976 -0.59338868 -0.084355593
-0.018840399 0.25134853 -0.085599542
-0.018838178 0.27692154 -0.085888028
-0.018840816 0.30253345 -0.085545659
-0.018851504 0.32823145 -0.084157109
0.0067501543 -0.75077897 -0.068971753
0.032492273 -0.75153303 -0.065910816
-0.070470728 -0.72573435 -0.066147804
-0.044644669 -0.72440499 -0.071718335
-0.018890861 -0.72265679 -0.079044223
0.0067501543 -0.72301954 -0.077523828
0.032423805 -0.7236684 -0.074804902
0.058139663 -0.72432262 -0.072063565
-0.096070282 -0.69893861 -0.070718288
-0.070265353 -0.69794035 -0.075040698
-0.04452714 -0.69694471 -0.079352021
-0.018855393 -0.69595158 -0.0836519
0.0067501543 -0.69638538 -0.081774235
0.032390893 -0.69700736 -0.079080462
0.058072891 -0.69762635 -0.076400518
0.083892785 -0.69921154 -0.069535851
-0.095958412 -0.67242247 -0.07435143
-0.070181668 -0.67145956 -0.078664422
-0.044471495 -0.67049921 -0.082966089
0.032363202 -0.67056358 -0.082677364
0.058017705 -0.67116469 -0.079985142
0.083803795 -0.67263722 -0.073389292
-0.12188327 -0.64813244 -0.06791544
-0.095846795 -0.64596391 -0.077976465
-0.070098169 -0.64503628 -0.082279921
0.057962637 -0.64476001 -0.083561659
0.083714589 -0.64612001 -0.07725215
0.10968326 -0.64831704 -0.067059278
-0.12191764 -0.62259132 -0.067022681
0.10970796 -0.62275046 -0.066257119
-0.095891975 -0.62061965 -0.076509356
-0.070138223 -0.61978072 -0.080545425
0.057990436 -0.61952907 -0.081756234
0.083749324 -0.6207779 -0.075747967
-0.096023269 -0.59581244 -0.072245359
-0.070236467 -0.59500259 -0.0762918
-0.044512104 -0.59419465 -0.080328465
0.0067501543 -0.59374255 -0.082587242
0.032383233 -0.59424537 -0.080075264
0.058055039 -0.59474874 -0.077560067
0.083853722 -0.59601617 -0.071227431
-0.096154347 -0.57093835 -0.067988396
-0.070334531 -0.57015765 -0.072045445
-0.044577323 -0.56937873 -0.076092362
-0.018882647 -0.56860518 -0.080111742
0.0067501543 -0.56893945 -0.078374743
0.032415707 -0.56942415 -0.075856686
0.058120091 -0.56990939 -0.073334932
0.083957978 -0.57118386 -0.066712976
-0.096205406 -0.54551858 -0.066330075
-0.070369795 -0.54474491 -0.070518374
-0.044598542 -0.54396963 -0.074714184
-0.018892113 -0.54319978 -0.078881502
0.0067501543 -0.54353094 -0.077088952
0.03242632 -0.5440132 -0.074478388
0.058142461 -0.54449302 -0.071881652
-0.096205406 -0.51977974 -0.066330075
-0.070369795 -0.5190382 -0.070518374
-0.044598542 -0.51829529 -0.074714303
-0.018892113 -0.5175575 -0.078881502
0.0067501543 -0.5178749 -0.077089071
0.03242632 -0.51833707 -0.074478388
0.058142461 -0.51879674 -0.071881771
-0.096205406 -0.49404079 -0.066330194
-0.070369795 -0.49333161 -0.070518255
-0.044598542 -0.492621 -0.074714184
-0.018892113 -0.49191523 -0.078881502
0.0067501543 -0.49221879 -0.077088952
0.03242632 -0.49266088 -0.074478388
0.058142461 -0.49310064 -0.071881771
-0.096205406 -0.46830195 -0.066330075
-0.07036937 -0.46762198 -0.070536494
-0.044598542 -0.4669466 -0.074714184
-0.018892113 -0.46627283 -0.078881502
0.0067501543 -0.46656275 -0.077089071
0.03242632 -0.46698469 -0.074478388
0.058142461 -0.46740454 -0.071881771
-0.096205406 -0.44256306 -0.066330194
-0.07036937 -0.44191545 -0.070536375
-0.044598542 -0.44127232 -0.074714065
-0.018892113 -0.44063067 -0.078881502
0.0067501543 -0.4409067 -0.077088833
0.03242632 -0.4413085 -0.074478388
0.058142461 -0.44170833 -0.071881652
-0.096204847 -0.41682136 -0.066348314
-0.07036937 -0.41620886 -0.070536613
-0.044598542 -0.41559798 -0.074714184
-0.018892113 -0.41498846 -0.078881383
0.0067501543 -0.41525054 -0.077089071
0.03242632 -0.41563237 -0.074478388
0.058142461 -0.41601217 -0.07188189
-0.096205406 -0.39108533 -0.066330075
-0.07036937 -0.39050239 -0.070536494
-0.044598542 -0.38992345 -0.074714184
-0.018892113 -0.38934612 -0.078881383
0.0067501543 -0.38959455 -0.077088833
0.03242632 -0.38995618 -0.074478388
0.058142461 -0.39031601 -0.071881771
-0.096205406 -0.36534637 -0.066330194
-0.07036937 -0.36479592 -0.070536375
-0.044598542 -0.36424923 -0.074714065
-0.018892113 -0.36370373 -0.078881502
0.0067501543 -0.36393845 -0.077088952
0.03242632 -0.36428005 -0.074478388
0.058142461 -0.36461985 -0.071881652
-0.096204847 -0.33960527 -0.066348433
-0.07036937 -0.33908939 -0.070536375
-0.044598542 -0.33857483 -0.074714184
-0.018892113 -0.33806157 -0.078881502
0.0067501543 -0.33828223 -0.077089071
0.03242632 -0.33860385 -0.074478388
0.058142461 -0.33892363 -0.07188189
-0.096204847 -0.31386644 -0.066348314
-0.07036937 -0.31338286 -0.070536494
-0.044598542 -0.31290042 -0.074714303
-0.018892113 -0.3124193 -0.078881502
0.0067501543 -0.31262624 -0.077088952
0.03242632 -0.31292772 -0.074478388
0.058142461 -0.31322753 -0.071881771
-0.096204847 -0.28812772 -0.066348314
-0.07036937 -0.28767633 -0.070536375
-0.044598542 -0.28722614 -0.074714065
-0.018892113 -0.28677702 -0.078881383
0.0067501543 -0.28697014 -0.077089071
0.03242632 -0.28725153 -0.074478269
0.058142461 -0.2875315 -0.071881771
-0.096204847 -0.262389 -0.066348314
-0.07036937 -0.26196992 -0.070536494
-0.044598542 -0.2615518 -0.074714303
-0.018892113 -0.26113474 -0.078881383
0.0067501543 -0.26131409 -0.077088952
0.03242632 -0.26157546 -0.074478388
0.058142461 -0.26183528 -0.071881771
-0.096204847 -0.2366503 -0.066348314
-0.07036937 -0.23626335 -0.070536375
-0.044598542 -0.23587735 -0.074714184
-0.018892113 -0.23549251 -0.078881502
0.0067501543 -0.235658 -0.077089071
0.03242632 -0.23589922 -0.074478269
0.058142461 -0.23613901 -0.07188189
-0.096204847 -0.21091147 -0.066348314
-0.07036937 -0.21055682 -0.070536494
-0.044598542 -0.21020313 -0.074714065
-0.018892113 -0.20985021 -0.078881502
0.0067501543 -0.21000199 -0.077088952
0.032426178 -0.21022145 -0.074496508
0.058142461 -0.21044295 -0.071881771
-0.096204847 -0.18517278 -0.066348314
-0.07036937 -0.18485035 -0.070536494
-0.044598542 -0.18452869 -0.074714184
-0.018892113 -0.18420799 -0.078881502
0.0067501543 -0.18434595 -0.077089071
0.03242632 -0.1845469 -0.074478269
0.058142461 -0.18474676 -0.071881771
-0.096204847 -0.15943401 -0.066348314
-0.07036937 -0.15914385 -0.070536494
-0.044598542 -0.15885429 -0.074714303
-0.018892113 -0.15856566 -0.078881383
0.0067501543 -0.15868987 -0.077088952
0.032426178 -0.15886943 -0.074496508
0.058142461 -0.15905061 -0.071881652
-0.096204847 -0.13369523 -0.066348314
-0.07036937 -0.13343747 -0.070536375
-0.044598542 -0.13318008 -0.074714065
-0.018892113 -0.13292331 -0.078881502
0.0067501543 -0.13303383 -0.077088952
0.032426178 -0.13319337 -0.074496508
0.058142461 -0.13335441 -0.071881771
-0.096204847 -0.10795648 -0.066348314
-0.07036937 -0.10773076 -0.070536613
-0.044598542 -0.10750568 -0.074714303
-0.018892113 -0.10728113 -0.078881502
0.0067501543 -0.10737775 -0.077088952
0.032426178 -0.10751754 -0.074496508
0.058142461 -0.10765827 -0.071881771
-0.096204847 -0.082217813 -0.066348314
-0.07036937 -0.082024366 -0.070536613
-0.044598542 -0.08183147 -0.074714065
-0.018892113 -0.081638902 -0.078881502
0.0067501543 -0.081721693 -0.07708919
0.032426178 -0.081841394 -0.074496508
0.058142461 -0.081962183 -0.071881771
-0.096204847 -0.056479141 -0.066348314
-0.07036937 -0.056317821 -0.070536375
-0.044598542 -0.056156948 -0.074714184
-0.018892113 -0.055996567 -0.078881383
0.0067501543 -0.056065619 -0.077088952
0.032426178 -0.056165397 -0.074496508
0.058142461 -0.056266084 -0.071881652
-0.096204847 -0.030740187 -0.066348314
-0.07036937 -0.030611388 -0.070536375
-0.044598542 -0.030482642 -0.074714184
-0.018892113 -0.030354336 -0.078881383
0.0067501543 -0.03040956 -0.077089071
0.032426178 -0.030489348 -0.074496388
0.058142461 -0.030569784 -0.071881771
-0.096204847 -0.0050014555 -0.066348314
-0.07036937 -0.0049047321 -0.070536613
-0.044598542 -0.0048083961 -0.074714065
-0.018892113 -0.0047120526 -0.078881502
0.0067501543 -0.0047535002 -0.077088952
0.032426178 -0.0048133507 -0.074496508
0.058142461 -0.0048737451 -0.071881771
-0.096204847 0.020737279 -0.066348433
-0.07036937 0.020801704 -0.070536494
-0.044598542 0.020866077 -0.074714065
-0.018892113 0.020930175 -0.078881502
0.0067501543 0.020902671 -0.077089071
0.032426178 0.020862699 -0.074496508
0.058142461 0.020822454 -0.071881652
-0.096204847 0.046476066 -0.066348314
-0.07036937 0.046508253 -0.070536375
-0.044598542 0.046540439 -0.074714303
-0.018892113 0.046572514 -0.078881502
0.0067501543 0.046558626 -0.077088952
0.032426178 0.046538696 -0.074496388
0.058142461 0.04651849 -0.071881771
-0.07036937 0.072214745 -0.070536613
-0.044598542 0.072214685 -0.074714184
-0.018892113 0.072214745 -0.078881383
0.032426178 0.072214745 -0.074496508
-0.096204847 0.072214797 -0.066348314
0.0067501543 0.072214797 -0.077088952
0.058142461 0.072214797 -0.071881771
-0.096204847 0.097953476 -0.066348314
-0.07036937 0.097921342 -0.070536494
-0.044598542 0.097889155 -0.074714184
-0.018892113 0.097857133 -0.078881502
0.0067501543 0.097870804 -0.077088952
0.032426178 0.097890846 -0.074496508
0.058142461 0.097910941 -0.071881771
-0.096204847 0.12369221 -0.066348314
-0.07036937 0.12362772 -0.070536494
-0.044598542 0.12356347 -0.074714184
-0.018892113 0.12349926 -0.078881502
0.0067501543 0.12352692 -0.077088952
0.032426178 0.1235669 -0.074496627
0.058142181 0.12360682 -0.071900129
-0.096204847 0.14943099 -0.066348314
-0.07036937 0.14933428 -0.070536375
-0.044598542 0.14923777 -0.074714065
-0.018892113 0.14914155 -0.078881502
0.0067501543 0.14918293 -0.077088952
0.032426178 0.14924273 -0.074496508
0.058142181 0.1493028 -0.071899891
-0.096204847 0.17516978 -0.066348314
-0.07036937 0.17504093 -0.070536494
-0.044598542 0.17491218 -0.074714065
-0.018892113 0.17478371 -0.078881502
0.0067501543 0.17483911 -0.077088952
0.032426178 0.17491877 -0.074496508
0.058142181 0.17499878 -0.071899891
-0.096204847 0.20090845 -0.066348314
-0.07036937 0.20074737 -0.070536494
-0.044598542 0.2005865 -0.074714303
-0.018892113 0.2004261 -0.078881383
0.0067501543 0.200495 -0.077088952
0.032426178 0.20059499 -0.074496508
0.058142181 0.20069471 -0.07190001
-0.096153222 0.22656986 -0.068024874
-0.070331588 0.22637826 -0.072172403
-0.044574253 0.22618799 -0.076291919
-0.018880419 0.22599809 -0.080400705
0.0067501543 0.22607912 -0.078646302
0.032414034 0.22619806 -0.076074004
0.058117572 0.22631705 -0.073498368
0.08395756 0.22662944 -0.066731095
-0.095996983 0.25202221 -0.073098779
-0.070213869 0.25179738 -0.077270269
-0.044494852 0.25157231 -0.081449032
0.0067501543 0.25144672 -0.083778262
0.032374743 0.25158688 -0.08117795
0.058039151 0.25172621 -0.078591943
0.083832741 0.25207406 -0.072136164
-0.095988601 0.27769232 -0.073371172
-0.070207179 0.27743423 -0.077559948
-0.044490404 0.27717707 -0.081738114
0.0067501543 0.27703345 -0.084066868
0.032372519 0.27719373 -0.081467152
0.058034971 0.277354 -0.078863263
0.083826438 0.27775151 -0.072408676
-0.096000902 0.30340463 -0.072971582
-0.070216373 0.30311435 -0.077161312
-0.044496242 0.30282348 -0.08135879
0.0067501543 0.30266091 -0.083706141
0.032375302 0.30284089 -0.081105828
0.058040824 0.30302274 -0.078483224
0.083836511 0.30347377 -0.071972609
-0.096043415 0.32919866 -0.07159102
-0.070248187 0.3288759 -0.075784087
-0.044517674 0.32855386 -0.079966784
0.0067501543 0.32837164 -0.082334161
0.032385878 0.32857203 -0.079731822
0.05806173 0.32877266 -0.077125311
0.083870515 0.3292827 -0.070500135
-0.096112855 0.355088 -0.069335699
-0.070299298 0.35472935 -0.073570728
-0.044551384 0.3543731 -0.077777267
-0.018868316 0.35401791 -0.081972837
0.0067501543 0.35417265 -0.080147624
0.032402877 0.35439467 -0.077523708
0.058095779 0.35461575 -0.074913859
0.083926 0.3551929 -0.068097591
-0.096208215 0.38108993 -0.06623888
-0.070371054 0.38069952 -0.070463896
-0.044598822 0.38030851 -0.074696064
-0.018891975 0.3799203 -0.078899622
0.0067501543 0.38008755 -0.077088952
0.032426458 0.3803305 -0.074460149
0.05814302 0.38057184 -0.071845412
-0.070467778 0.40682578 -0.066275239
-0.044662863 0.40639937 -0.070536375
-0.018923637 0.40597397 -0.074786782
0.0067501543 0.40615201 -0.073007941
0.032458063 0.40641767 -0.070354581
0.05820689 0.40668339 -0.067696929
-0.018960837 0.43216866 -0.069954515
0.0067501543 0.43235677 -0.068206906
0.0067501543 -0.78089011 -0.051680207
0.032625627 -0.78167576 -0.048587561
-0.045002777 -0.75583225 -0.048458457
-0.019041196 -0.75310844 -0.059515595
0.058281321 -0.75228387 -0.062862396
0.084255055 -0.75450426 -0.05384922
-0.12242468 -0.72866929 -0.05384922
-0.09635777 -0.72687173 -0.061381817
0.084003046 -0.72606522 -0.0647614
0.11007532 -0.72855532 -0.054326773
-0.1485461 -0.70426649 -0.047647357
-0.12219109 -0.70143265 -0.059918284
0.10992231 -0.70157635 -0.059295774
0.13611263 -0.70396018 -0.048974395
-0.14835899 -0.67747951 -0.051698685
0.13596107 -0.67720854 -0.052911997
-0.12203629 -0.67474657 -0.063940048
0.10980237 -0.67491382 -0.063191175
-0.14817317 -0.65076077 -0.055721641
0.13581055 -0.65052354 -0.056822062
-0.14817487 -0.62494779 -0.055685043
0.13581479 -0.62473428 -0.05671227
-0.14839128 -0.60006487 -0.050999403
-0.12209676 -0.59778923 -0.062368989
0.10984795 -0.59792089 -0.061710954
0.13599077 -0.59983647 -0.052139997
-0.1222764 -0.57291794 -0.057702184
0.10998832 -0.57302374 -0.05715239
-0.12236038 -0.54751581 -0.055519819
0.083999678 -0.54578149 -0.064907432
0.1100544 -0.54761082 -0.055005908
-0.12236038 -0.52169371 -0.055519819
0.083999678 -0.52003163 -0.064907312
0.1100544 -0.52178472 -0.055005908
-0.12236038 -0.4958716 -0.055519938
0.083999678 -0.49428183 -0.064907312
0.1100544 -0.49595863 -0.055006027
-0.12236038 -0.47004944 -0.055519819
0.083999678 -0.46853203 -0.064907312
0.1100544 -0.47013259 -0.055006027
-0.12236038 -0.4442274 -0.055519819
0.083999678 -0.4427821 -0.064907312
0.1100544 -0.44430661 -0.055005908
-0.12236038 -0.41840535 -0.055519819
0.083999678 -0.41703224 -0.064907312
0.1100544 -0.41848046 -0.055005908
-0.12236038 -0.39258307 -0.055519938
0.083999678 -0.39128238 -0.064907432
0.1100544 -0.39265442 -0.055006027
-0.12236038 -0.36676103 -0.055519819
0.1100544 -0.36682832 -0.055006027
0.083999678 -0.36553246 -0.064907312
-0.12236038 -0.34093899 -0.055519819
0.083999678 -0.33978271 -0.064907312
0.1100544 -0.34100223 -0.055006146
-0.12236038 -0.31511694 -0.055519819
0.083999678 -0.31403297 -0.064907312
0.1100544 -0.31517625 -0.055005908
-0.12236038 -0.28929466 -0.055519819
0.083999678 -0.28828305 -0.064907432
0.1100544 -0.28935009 -0.055005908
-0.12236038 -0.26347262 -0.055519938
0.083999678 -0.26253319 -0.064907312
0.1100544 -0.26352406 -0.055005908
-0.12236038 -0.2376505 -0.055519819
0.083999678 -0.23678337 -0.064907312
0.1100544 -0.237698 -0.055006146
-0.12236038 -0.2118284 -0.055519819
0.083999254 -0.21103193 -0.064925671
0.1100544 -0.21187203 -0.055005908
-0.12236038 -0.18600635 -0.055519819
0.083999678 -0.18528374 -0.064907312
0.1100544 -0.18604593 -0.055006027
-0.12236038 -0.16018419 -0.055519819
0.083999254 -0.15953252 -0.064925551
0.1100544 -0.16021974 -0.055005908
-0.12236038 -0.13436218 -0.055519938
0.083999254 -0.13378279 -0.064925551
0.1100544 -0.13439372 -0.055006027
-0.12236038 -0.10854003 -0.055519819
0.083999254 -0.10803312 -0.064925671
0.11005384 -0.10856666 -0.055024385
-0.12236038 -0.08271791 -0.055519819
0.083999254 -0.082283497 -0.064925551
0.11005384 -0.082740784 -0.055024266
-0.12236038 -0.056895807 -0.055519819
0.083999254 -0.056533709 -0.06492579
0.11005384 -0.056914806 -0.055024385
-0.12236038 -0.031073637 -0.055519819
0.083999254 -0.030784078 -0.064925551
0.11005384 -0.031089 -0.055024385
-0.12236038 -0.0052515864 -0.055519819
0.083999254 -0.0050342381 -0.064925671
0.11005384 -0.0052631274 -0.055024266
-0.12236038 0.020570468 -0.055519819
0.083999254 0.020715334 -0.064925551
0.11005384 0.020562954 -0.055024266
-0.12236038 0.046392743 -0.055519938
0.083999254 0.046465065 -0.06492579
0.11005384 0.04638882 -0.055024147
0.083999254 0.072214745 -0.064925551
-0.12236038 0.072214797 -0.055519819
0.11005384 0.072214797 -0.055024266
-0.12236038 0.098036855 -0.055519819
0.083999254 0.097964473 -0.064925671
0.11005384 0.098040663 -0.055024266
-0.12236038 0.12385885 -0.055519819
0.083999254 0.12371415 -0.064925551
0.11005384 0.12386664 -0.055024266
-0.12236038 0.14968112 -0.055519819
0.083999254 0.14946395 -0.064925671
0.11005384 0.1496924 -0.055024385
-0.12235968 0.17550258 -0.055538297
0.083999254 0.17521362 -0.064925551
0.11005384 0.17551848 -0.055024385
-0.12235968 0.20132458 -0.055538177
0.083999254 0.20096335 -0.064925551
0.11005384 0.2013444 -0.055024147
-0.12228414 0.2270558 -0.057500601
0.10999452 0.22708134 -0.056950569
-0.14838618 0.25320706 -0.05110991
-0.12207636 0.25257185 -0.062898874
0.10983106 0.25260621 -0.062259197
0.13598442 0.25314274 -0.052305341
-0.14837174 0.27904391 -0.051422477
-0.12206371 0.27831686 -0.063227773
0.10982206 0.27835852 -0.062551737
0.13597238 0.27897018 -0.052617908
-0.14839637 0.30493444 -0.050889134
-0.1220827 0.30411381 -0.062734365
0.10983725 0.30416071 -0.06205821
0.1359929 0.30485171 -0.052084923
-0.14846781 0.33091128 -0.049342632
-0.12214039 0.32999587 -0.061235547
0.10988286 0.33004647 -0.060577035
0.13605025 0.3308149 -0.050594807
-0.12223902 0.35599095 -0.058673143
0.10995897 0.35603887 -0.05810523
0.1361481 0.3568902 -0.048052788
-0.12237027 0.38210374 -0.055263042
0.084002212 0.3812229 -0.064797878
0.11006119 0.38214773 -0.054785609
-0.12255208 0.40840054 -0.050539613
-0.096338637 0.40725321 -0.062003374
0.084106021 0.40742344 -0.060302377
0.1102027 0.40843546 -0.050189614
-0.096489139 0.43355221 -0.057115793
-0.070580378 0.43309045 -0.061400056
-0.044737451 0.43262798 -0.065691948
0.03249494 0.43264186 -0.065564156
0.058280762 0.43292898 -0.062898755
0.084225796 0.4337678 -0.055116057
-0.096700706 0.46015549 -0.050244808
-0.070725918 0.4595952 -0.055097818
-0.044833951 0.45909554 -0.059424043
-0.019008681 0.45859718 -0.063739181
0.0067501543 0.45879549 -0.062021732
0.032542769 0.459104 -0.05935061
0.05837686 0.45941502 -0.056657076
0.084382527 0.46037656 -0.048329473
-0.070881799 0.48625183 -0.048347712
-0.044937603 0.48571694 -0.052691579
-0.019060232 0.48518091 -0.057042241
0.0067501543 0.48538423 -0.055391192
0.032594174 0.48571908 -0.052673101
0.058479834 0.4860521 -0.049968839
-0.019126453 0.51211709 -0.04843986
0.032760371 -0.81213278 -0.031083584
0.058548521 -0.78245831 -0.045507431
0.084691897 -0.78514439 -0.034933329
-0.071136288 -0.75857407 -0.037328005
0.11045158 -0.75739676 -0.042107224
0.13683206 -0.7603094 -0.030282974
-0.1487294 -0.73109633 -0.04367888
0.13631004 -0.73105657 -0.043845177
-0.1750959 -0.70712548 -0.035267711
0.16269286 -0.70749891 -0.033651114
-0.17487599 -0.68023646 -0.039348841
0.16247764 -0.68046802 -0.038310885
-0.1746566 -0.65341234 -0.043419957
0.16226214 -0.65350789 -0.042976499
-0.17461079 -0.62732041 -0.044270039
0.16221777 -0.62738949 -0.043937564
-0.17486501 -0.60235584 -0.039552689
0.16246478 -0.60254872 -0.038589001
-0.17512092 -0.57732487 -0.034803271
-0.14860913 -0.57511568 -0.04628253
0.13616724 -0.57487077 -0.047555327
0.16271348 -0.57763243 -0.033204913
-0.17528525 -0.5519067 -0.031753659
-0.1487294 -0.54970348 -0.043678761
0.13626313 -0.54944754 -0.045064211
0.16287684 -0.55229193 -0.029668212
-0.17528525 -0.52590168 -0.031753778
-0.1487294 -0.52379012 -0.04367888
0.13626313 -0.52354497 -0.04506433
0.16287684 -0.52627099 -0.029668093
-0.17528525 -0.49989653 -0.031753778
-0.1487294 -0.49787694 -0.04367888
0.13626313 -0.4976424 -0.045064211
0.16287684 -0.50024974 -0.029668212
-0.17528525 -0.47389144 -0.031753898
-0.1487294 -0.47196376 -0.04367888
0.13626313 -0.47173971 -0.04506433
0.16287684 -0.47422862 -0.029668093
-0.17528525 -0.44788641 -0.031753898
-0.1487294 -0.44605047 -0.043678761
0.13626313 -0.4458372 -0.045064211
0.16287684 -0.4482075 -0.029668093
-0.17528525 -0.42188138 -0.031753778
0.16287684 -0.42218637 -0.029667974
-0.1487294 -0.42013723 -0.043678761
0.13626313 -0.41993457 -0.04506433
-0.17528525 -0.39587635 -0.031753778
-0.1487294 -0.39422387 -0.043678761
0.13626313 -0.394032 -0.045064211
0.16287684 -0.39616531 -0.029668093
-0.17528525 -0.3698712 -0.031753778
-0.1487294 -0.36831063 -0.04367888
0.13626313 -0.36812925 -0.04506433
0.16287684 -0.37014419 -0.029667974
-0.17528525 -0.34386611 -0.031753898
-0.1487294 -0.34239751 -0.043678761
0.13626313 -0.34222674 -0.045064211
0.16287684 -0.34412307 -0.029668093
-0.17528525 -0.3178612 -0.031753778
-0.1487294 -0.31648415 -0.043678641
0.13626313 -0.31632411 -0.04506433
0.16287684 -0.318102 -0.029667974
-0.17528525 -0.29185611 -0.031753778
-0.1487294 -0.29057086 -0.04367888
0.13626313 -0.29042155 -0.045064211
0.16287684 -0.29208088 -0.029668093
-0.17528525 -0.26585102 -0.031753778
-0.1487294 -0.26465762 -0.04367888
0.13626313 -0.26451898 -0.045064449
0.16287684 -0.26605976 -0.029667974
-0.17528525 -0.23984601 -0.031753898
-0.1487294 -0.23874439 -0.043678761
0.13626313 -0.23861645 -0.045064211
0.16287684 -0.24003868 -0.029668093
-0.17528525 -0.2138408 -0.031753898
-0.1487294 -0.21283115 -0.043678761
0.13626313 -0.21271376 -0.04506433
0.16287684 -0.2140175 -0.029667974
-0.17528525 -0.18783586 -0.031753778
-0.1487294 -0.1869178 -0.043678761
0.13626313 -0.18681119 -0.04506433
0.16287684 -0.18799646 -0.029668093
-0.17528525 -0.16183077 -0.031753778
-0.1487294 -0.16100456 -0.043678761
0.13626313 -0.16090855 -0.04506433
0.16287684 -0.16197531 -0.029667854
-0.17528525 -0.13582568 -0.031753898
-0.1487294 -0.13509135 -0.043678761
0.13626313 -0.13500601 -0.045064211
0.16287684 -0.13595422 -0.029668093
-0.17528525 -0.10982063 -0.031753898
-0.1487294 -0.10917807 -0.043678761
0.13626313 -0.10910335 -0.045064211
0.16287684 -0.10993299 -0.029668212
-0.17528525 -0.083815649 -0.031753778
-0.1487294 -0.083264843 -0.043678761
0.13626313 -0.083200797 -0.045064211
0.16287684 -0.083911881 -0.029668093
-0.17528525 -0.057810619 -0.031753778
-0.1487294 -0.05735147 -0.04367888
0.13626313 -0.057298094 -0.04506433
0.16287684 -0.057890832 -0.029668212
-0.17528525 -0.031805463 -0.031753778
-0.1487294 -0.031438246 -0.043678761
0.13626313 -0.031395607 -0.045064211
0.16287684 -0.031869672 -0.029668093
-0.17528525 -0.0058003739 -0.031753898
-0.1487294 -0.0055250227 -0.043678761
0.13626313 -0.0054930001 -0.045064449
0.16287684 -0.0058485717 -0.029668093
-0.17528525 0.020204719 -0.031753898
-0.1487294 0.020388193 -0.043678761
0.13626313 0.020409543 -0.045064211
0.16287684 0.020172536 -0.029667974
-0.17528525 0.046209648 -0.031753778
-0.1487294 0.046301521 -0.04367888
0.13626313 0.046312086 -0.045064211
0.16287684 0.046193637 -0.029668093
-0.17528525 0.072214745 -0.031753778
0.13626313 0.072214685 -0.04506433
0.16287684 0.072214745 -0.029667974
-0.1487294 0.072214849 -0.043678761
-0.17528525 0.098219782 -0.031753898
-0.1487294 0.098128021 -0.043678761
0.13626313 0.098117292 -0.045064092
0.16287684 0.098235846 -0.029668093
-0.17528525 0.12422487 -0.031753898
-0.1487294 0.12404124 -0.043678761
0.13626313 0.12401994 -0.045064211
0.16287684 0.12425701 -0.029667974
-0.17528525 0.15022986 -0.031753778
-0.1487294 0.14995445 -0.043678761
0.13626313 0.14992237 -0.045064211
0.16287684 0.15027806 -0.029668093
-0.17528525 0.1762349 -0.031753778
-0.1487294 0.17586789 -0.043678761
0.13626313 0.17582503 -0.045064211
0.16287684 0.17629915 -0.029667974
-0.17528525 0.20223999 -0.031753898
-0.1487294 0.201781 -0.043678761
0.13626313 0.20172758 -0.045064211
0.16287684 0.20232043 -0.029667974
-0.17516097 0.22813873 -0.034060121
-0.14863046 0.22759533 -0.045821071
0.13618357 0.22753471 -0.047131062
0.16275387 0.22821839 -0.032330751
-0.17488298 0.25384799 -0.039219141
0.16248363 0.25390369 -0.038181067
-0.17486501 0.27977484 -0.039552689
0.16246651 0.27983648 -0.038551807
-0.17489795 0.30576229 -0.038941264
0.16249904 0.30583808 -0.037847281
-0.17498288 0.3318333 -0.037365437
0.16257961 0.3319304 -0.036103249
-0.17512894 0.3580249 -0.034654737
-0.14858955 0.35700428 -0.046706796
0.16272293 0.35816479 -0.03300035
-0.17531534 0.38432705 -0.031195283
-0.14874819 0.38321126 -0.043272138
0.13627663 0.38307822 -0.044713378
-0.14897135 0.40961134 -0.038440585
0.13645673 0.40945184 -0.040034056
-0.14922091 0.43614727 -0.033037543
-0.12275927 0.4348411 -0.045156598
0.11036281 0.43485898 -0.04499054
0.13665877 0.43595898 -0.034784675
-0.12303203 0.46156144 -0.038069963
0.1105759 0.46156144 -0.038069963
-0.1233253 0.48845625 -0.030450583
-0.09692964 0.48693383 -0.042809963
0.08455015 0.48714805 -0.041070819
0.11080421 0.48843098 -0.030655384
-0.097223684 0.51410347 -0.033260703
-0.071082778 0.51326799 -0.039645314
-0.045070957 0.5126943 -0.044029951
0.0067501543 0.51232684 -0.046835899
0.032660142 0.5126847 -0.044103742
0.058612265 0.51304275 -0.041367054
0.084765755 0.51430327 -0.031735301
-0.071297273 0.54049933 -0.030357361
-0.04521301 0.53988314 -0.034803391
-0.019197151 0.53926635 -0.039256215
0.0067501543 0.53947932 -0.037717581
0.032730736 0.5398652 -0.034933448
0.058753971 0.54024911 -0.032163143
0.0067501543 -0.81708217 -0.012173295
0.058822237 -0.81301063 -0.027728915
0.085133694 -0.81613201 -0.015803337
0.11103813 -0.78816104 -0.023058653
-0.15019676 -0.76483548 -0.011909723
-0.12392162 -0.76408464 -0.014957666
-0.097442292 -0.76132482 -0.026161075
-0.17548303 -0.73481792 -0.028083324
0.16298968 -0.73502266 -0.027225256
-0.20242313 -0.71218508 -0.013358951
0.18978488 -0.71221983 -0.013208628
-0.20211653 -0.68492699 -0.018337846
0.18952669 -0.68500239 -0.018000007
-0.20180967 -0.65774471 -0.023320436
0.18927327 -0.65787774 -0.022703052
-0.20164278 -0.63111144 -0.026030302
0.18913221 -0.6312589 -0.02532053
-0.20199414 -0.60620427 -0.020325065
0.18942364 -0.6062867 -0.019912601
-0.20234552 -0.58120924 -0.014619231
0.18971698 -0.58123809 -0.014468789
-0.20243472 0.22910331 -0.013170958
0.18979196 0.22910772 -0.013076901
-0.20207033 0.25493276 -0.019087911
0.18949029 0.25495481 -0.018675327
-0.20204724 0.28101206 -0.019462943
0.1894701 0.28103751 -0.019050479
-0.20210037 0.30717152 -0.018600225
0.18951356 0.30719632 -0.01824379
-0.2022171 0.33342379 -0.016704798
0.18960965 0.33344269 -0.016460538
-0.20243008 0.35983753 -0.013246179
0.18978591 0.35984236 -0.013189673
0.16290525 0.38452494 -0.029052973
-0.17561077 0.4108851 -0.025712967
0.16316743 0.41111892 -0.023376226
-0.17596272 0.43764055 -0.019181609
0.16345564 0.43786097 -0.017136574
-0.14955577 0.4629795 -0.025787711
0.13693036 0.46275538 -0.027728915
-0.14991546 0.48998964 -0.017999768
0.13723265 0.48975873 -0.019875169
-0.12369557 0.5157302 -0.02083075
0.11109288 0.51567137 -0.021280408
-0.097540706 0.54152364 -0.022964954
0.084997252 0.54169744 -0.021710992
0.11140636 0.54316789 -0.011099815
-0.071549304 0.56811124 -0.019444108
-0.045380302 0.56745404 -0.023937583
-0.019280575 0.56679863 -0.028419137
0.0067501543 0.56701136 -0.02696383
0.032813653 0.56742126 -0.024162054
0.058931038 0.56793326 -0.020662189
-0.045569539 0.59541184 -0.011646032
-0.019374508 0.59470791 -0.016216516
0.0067501543 0.59491926 -0.014844656
0.032907248 0.59535664 -0.012003779
0.11163194 -0.81928051 -0.0037742853
-0.019499745 -0.7940321 5.209446e-05
0.13765749 -0.79177368 -0.0088374615
-0.17654046 -0.76568514 -0.0084601641
0.1638651 -0.76573163 -0.0082714558
-0.20284459 -0.73996496 -0.0065156221
0.19014962 -0.7399829 -0.0064399242
-0.22985026 -0.69016433 0.0051231384
0.21690479 -0.68959582 0.0025759935
-0.22950159 -0.66279066 9.0122223e-05
0.21661046 -0.66229641 -0.0022029877
-0.22917619 -0.63556433 -0.0046064854
0.21634606 -0.63517141 -0.0064965487
-0.2295765 -0.61050665 0.0011713505
0.21668397 -0.61007023 -0.0010094643
-0.22997817 -0.58536392 0.0069689751
0.21702299 -0.58488786 0.0044953823
-0.20262843 -0.55592102 -0.010025501
0.18995234 -0.55590713 -0.010100961
-0.20262843 -0.52974868 -0.010025382
0.18995234 -0.52973539 -0.010100961
-0.20262843 -0.50357634 -0.01002562
0.18995234 -0.50356358 -0.010100961
-0.20262843 -0.47740406 -0.010025501
0.18995234 -0.4773919 -0.010100961
-0.20262843 -0.45123172 -0.01002562
0.18995234 -0.4512201 -0.010100961
-0.20262843 -0.42505938 -0.010025501
0.18995234 -0.42504841 -0.010100961
-0.20262843 -0.39888704 -0.01002562
0.18995234 -0.39887661 -0.010100961
-0.20262843 -0.37271476 -0.010025501
0.18995234 -0.37270486 -0.010100842
-0.20262843 -0.34654236 -0.01002562
0.18995234 -0.34653306 -0.010100961
-0.20262843 -0.32037014 -0.010025501
0.18995234 -0.32036132 -0.01010108
-0.20262843 -0.29419774 -0.01002562
0.18995234 -0.29418957 -0.010100961
-0.20262843 -0.26802546 -0.01002562
0.18995234 -0.26801789 -0.010100961
-0.20262843 -0.24185316 -0.010025382
0.18995234 -0.24184613 -0.010100961
-0.20262843 -0.21568082 -0.01002562
0.18995234 -0.21567439 -0.010100961
-0.20262843 -0.18950848 -0.010025501
0.18995234 -0.18950264 -0.010100961
-0.20262843 -0.16333613 -0.01002562
0.18995234 -0.16333091 -0.010100961
-0.20262843 -0.13716383 -0.010025382
0.18995234 -0.13715917 -0.010100961
-0.20262843 -0.11099148 -0.01002562
0.18995234 -0.11098742 -0.010100961
-0.20262843 -0.084819123 -0.010025501
0.18995234 -0.084815696 -0.010100961
-0.20262843 -0.058646843 -0.01002562
0.18995234 -0.058643952 -0.010100961
-0.20262843 -0.032474607 -0.01002562
0.18995234 -0.032472216 -0.010100961
-0.20262843 -0.006302163 -0.01002562
0.18995234 -0.0063004717 -0.010100842
-0.20262843 0.019870065 -0.010025501
0.18995234 0.019871209 -0.010100961
-0.20262843 0.046042405 -0.010025382
0.18995234 0.046042949 -0.010100961
-0.20262843 0.072214745 -0.010025501
0.18995234 0.072214685 -0.010100961
-0.20262843 0.098387085 -0.010025382
0.18995234 0.098386429 -0.010100961
-0.20262843 0.12455948 -0.010025501
0.18995234 0.12455817 -0.010100961
-0.20262843 0.15073171 -0.010025382
0.18995234 0.15073001 -0.010100961
-0.20262843 0.1769041 -0.01002562
0.18995234 0.17690176 -0.010100961
-0.20262843 0.20307632 -0.01002562
0.18995234 0.20307349 -0.010100961
0.21713898 0.23000647 0.0063788891
-0.2297304 0.25614411 0.0033929348
0.21681127 0.25601822 0.0010576248
-0.2297041 0.28239629 0.0030130148
0.21678789 0.28225246 0.00067806244
-0.22977255 0.30873734 0.0040011406
0.21684514 0.3085717 0.0016080141
-0.22990696 0.33516717 0.0059410334
0.21695627 0.33497232 0.0034121275
0.21716829 0.36153972 0.0068546534
-0.20268765 0.38637143 -0.0090638399
0.19000112 0.38635927 -0.0091956854
-0.20306936 0.41317147 -0.0028656721
0.19031876 0.41312796 -0.0033010244
-0.20348288 0.4401226 0.0038491488
0.19066411 0.44004267 0.0031080246
-0.17644696 0.46478009 -0.010195255
0.16385116 0.46496719 -0.0085734129
-0.1769685 0.49214309 -0.00051665306
0.16427584 0.49228323 0.00062119961
-0.1503648 0.5173738 -0.0082714558
0.13765895 0.51730472 -0.0087996721
-0.15086144 0.54504961 0.0024813414
-0.1241013 0.54328007 -0.010289431
0.13813263 0.54519159 0.0035071373
-0.12456727 0.57122087 0.0018166304
-0.097911283 0.56935674 -0.010930061
0.085267119 0.56948876 -0.01002562
0.11176903 0.57105434 0.00067830086
-0.098335356 0.59764236 0.0028423071
-0.071835227 0.59611726 -0.0070632696
0.059133723 0.59605038 -0.0074974298
0.085576572 0.59772414 0.0033739805
-0.072146975 0.62449461 0.0064358711
-0.045775641 0.62373573 0.0017408133
-0.019477136 0.62298793 -0.0028845072
0.0067501543 0.62319309 -0.0016157627
0.033009253 0.62365574 0.0012472868
0.059354689 0.62456232 0.0068547726
0.1385619 -0.8241052 0.014659643
-0.1778162 -0.79788369 0.015214324
-0.15130918 -0.79711151 0.012174845
-0.072529063 -0.7998566 0.02298069
-0.045925997 -0.79694182 0.011506677
0.16494986 -0.79788369 0.015214324
-0.20423703 -0.77173394 0.016094685
0.19134845 -0.77166319 0.015807509
-0.23086531 -0.74623859 0.01977396
-0.23019734 -0.71761036 0.010132551
0.21723515 -0.71710384 0.0079402924
-0.25748283 -0.64121431 0.022577047
0.24473703 -0.64174587 0.025134563
-0.23036663 -0.56009668 0.012575984
0.2173913 -0.55970865 0.010475993
-0.23036532 -0.53374696 0.012556911
0.2173913 -0.53337854 0.010475993
-0.23036532 -0.50740081 0.012556911
0.2173913 -0.50704843 0.010475993
-0.23036532 -0.4810546 0.012556911
0.2173913 -0.4807182 0.010475993
-0.23036532 -0.45470852 0.012556911
0.2173913 -0.45438814 0.010475993
-0.23036532 -0.42836231 0.012556911
0.2173913 -0.42805797 0.010475993
-0.23036532 -0.40201622 0.012556791
0.2173913 -0.4017278 0.010475993
-0.23036532 -0.37566996 0.012556911
0.2173913 -0.37539768 0.010475993
-0.23036532 -0.34932375 0.012556911
0.2173913 -0.34906757 0.010475993
-0.23036532 -0.32297766 0.012556911
0.2173913 -0.3227374 0.010475993
-0.23036532 -0.29663146 0.012556911
0.2173913 -0.29640722 0.010475993
-0.23036532 -0.27028531 0.012556911
0.2173913 -0.27007711 0.010475993
-0.23036532 -0.24393921 0.012556911
0.2173913 -0.24374698 0.010475993
-0.23036532 -0.217593 0.012556911
0.2173913 -0.21741681 0.010475993
-0.23036532 -0.19124682 0.012556911
0.2173913 -0.19108675 0.010475993
-0.23036532 -0.16490065 0.012556911
0.2173913 -0.16475655 0.010475993
-0.23036398 -0.13855334 0.012537837
0.2173913 -0.13842644 0.010475993
-0.23036398 -0.11220732 0.012537718
0.2173913 -0.11209634 0.010475993
-0.23036398 -0.08586137 0.012537837
0.2173913 -0.085766122 0.010475993
-0.23036398 -0.059515297 0.012537837
0.2173913 -0.059436008 0.010475993
-0.23036398 -0.03316924 0.012537718
0.2173913 -0.033105902 0.010475993
-0.23036398 -0.0068233386 0.012537837
0.2173913 -0.0067755803 0.010475993
-0.23036398 0.019522779 0.012537837
0.2173913 0.019554473 0.010476112
-0.23036398 0.045868788 0.012537718
0.2173913 0.045884579 0.010476112
-0.23036398 0.072214745 0.012537837
0.2173913 0.072214797 0.010475993
-0.23036398 0.09856075 0.012537837
0.2173913 0.098544903 0.010475993
-0.23036398 0.12490687 0.012537718
0.2173913 0.12487507 0.010476112
-0.23036398 0.15125272 0.012537956
0.2173913 0.15120512 0.010475993
-0.23036398 0.17759883 0.012537837
0.2173913 0.17753533 0.010475993
-0.23036398 0.20394473 0.012537956
0.2173913 0.20386538 0.010476112
-0.23011807 0.23012681 0.0089883804
-0.23015903 0.36177027 0.0095795393
-0.2304527 0.38848531 0.013818264
0.21748887 0.38832277 0.012060523
-0.2309012 0.41548914 0.020292044
0.21799581 0.41548914 0.020292044
-0.20405209 0.46746886 0.013091922
0.19113521 0.46732563 0.011850238
-0.20467411 0.49506319 0.023192167
0.19164804 0.4948386 0.021366954
-0.1776102 0.51994723 0.011392117
0.16479361 0.52000463 0.011831164
-0.17833416 0.54814583 0.024826646
0.1653823 0.54811108 0.024576545
-0.15146548 0.57323074 0.015558839
0.13867241 0.57351941 0.017531037
-0.12510799 0.59964734 0.015864968
0.11218835 0.59940583 0.014296293
-0.098798275 0.62634403 0.01787591
0.085913688 0.62635958 0.017971754
-0.072517082 0.65350765 0.022461772
-0.046021994 0.65270823 0.017741799
-0.019599687 0.65191114 0.013034701
0.0067501543 0.65210557 0.014181614
0.03313151 0.65260446 0.017128587
0.059618358 0.6537649 0.023980379
-0.17910981 -0.8305335 0.039220572
-0.15243837 -0.82985371 0.036623001
-0.20580707 -0.80458397 0.041589499
-0.12584212 -0.80289412 0.034938097
-0.099314131 -0.80281562 0.03462863
-0.25859091 -0.69727445 0.036971569
0.24564573 -0.69755995 0.038250923
-0.25803569 -0.66918564 0.029759169
0.24518849 -0.66959357 0.031651139
-0.25788873 -0.61584646 0.027850151
0.24505341 -0.61621684 0.029701352
-0.25850591 -0.5909254 0.035867572
0.24556246 -0.59115285 0.037049055
-0.25881034 0.23155104 0.039822221
0.24582052 0.23159504 0.04077363
-0.25826317 0.25772399 0.032714128
0.245372 0.25780949 0.03429985
-0.25822151 0.28419197 0.032173038
0.2453358 0.28429076 0.033777356
-0.25834799 0.31080306 0.033816099
0.245435 0.31089962 0.035209179
-0.2585566 0.33752149 0.036526084
0.24560544 0.33760953 0.03766942
-0.2589733 0.3645106 0.041939139
0.24594976 0.36456984 0.042639017
-0.23139013 0.44265509 0.027349114
0.21855032 0.44286495 0.029296279
-0.23215216 0.47038519 0.03834784
0.21928346 0.47071457 0.041200995
-0.20541537 0.52306646 0.03522861
0.1922605 0.52273995 0.032733321
-0.17914116 0.57677686 0.03980279
0.16603807 0.57662636 0.03877461
-0.15226944 0.60228014 0.032965302
0.13930966 0.60245281 0.034086943
-0.12569776 0.62849593 0.031187773
0.11267757 0.62833375 0.030183911
-0.099344529 0.65573543 0.035615802
0.086312212 0.65566993 0.03522861
-0.072963744 0.68335462 0.041803241
-0.046293907 0.68222135 0.035402894
-0.019734673 0.68136579 0.030569792
0.0067501543 0.68154019 0.031554818
0.033265926 0.68207753 0.034590006
0.059911609 0.68357146 0.043027639
-0.23327249 -0.78119904 0.054518461
0.21987002 -0.7536248 0.05072546
-0.2591739 -0.72555751 0.044545054
0.24627477 -0.72620064 0.04733026
-0.25912598 -0.56588805 0.043922305
0.24607506 -0.56598502 0.04444766
-0.25924882 -0.53958291 0.045518398
0.24617758 -0.53965539 0.045927286
-0.25924882 -0.51298302 0.045518398
0.24617758 -0.51305228 0.045927286
-0.25924882 -0.48638326 0.045518398
0.24617758 -0.48644924 0.045927286
-0.25924882 -0.45978326 0.045518398
0.24617758 -0.45984614 0.045927286
-0.25924882 -0.43318343 0.045518398
0.24617758 -0.43324316 0.045927286
-0.25924882 -0.40658349 0.045518398
0.24617758 -0.40664011 0.045927286
-0.25924882 -0.37998348 0.045518398
0.24617758 -0.38003701 0.045927286
-0.25924882 -0.35338366 0.045518398
0.24617758 -0.35343397 0.045927286
-0.25924882 -0.32678372 0.045518279
0.24617758 -0.32683086 0.045927286
-0.25924882 -0.30018389 0.045518398
0.24617758 -0.30022782 0.045927286
-0.25924882 -0.27358395 0.045518398
0.24617758 -0.27362484 0.045927286
-0.25924882 -0.24698399 0.045518398
0.24617758 -0.2470219 0.045927525
-0.25924882 -0.22038414 0.045518398
0.24617758 -0.22041889 0.045927525
-0.25924882 -0.19378437 0.045518398
0.24617758 -0.19381572 0.045927405
-0.25924882 -0.16718435 0.045518398
0.24617758 -0.16721272 0.045927525
-0.25924882 -0.14058445 0.045518398
0.24617758 -0.14060971 0.045927525
-0.25924882 -0.1139845 0.045518279
0.24617758 -0.11400661 0.045927405
-0.25924882 -0.087384656 0.045518398
0.24617758 -0.08740361 0.045927405
-0.25924882 -0.060784757 0.045518517
0.24617758 -0.060800493 0.045927525
-0.25924733 -0.034184255 0.045498967
0.24617758 -0.034197435 0.045927405
-0.25924733 -0.0075845197 0.045498967
0.24617758 -0.007594429 0.045927405
-0.25924733 0.019015215 0.045498967
0.24617758 0.019008629 0.045927405
-0.25924733 0.04561495 0.045498967
0.24617758 0.045611635 0.045927405
-0.25924733 0.072214745 0.045498967
0.24617758 0.072214745 0.045927525
-0.25924733 0.098814532 0.045498967
0.24617758 0.098817855 0.045927405
-0.25924733 0.12541422 0.045498967
0.24617758 0.12542091 0.045927405
-0.25924733 0.15201396 0.045498967
0.24617758 0.15202391 0.045927525
-0.25924733 0.1786138 0.045498967
0.24617758 0.17862692 0.045927286
-0.25924733 0.20521347 0.045498967
0.24617758 0.20522992 0.045927286
-0.25944236 0.39164579 0.048032165
0.24633558 0.391662 0.048207879
-0.26017544 0.419218 0.057555437
0.24694245 0.41915917 0.056967139
-0.2331776 0.49875307 0.053149104
0.22011328 0.49894094 0.054675221
-0.20627593 0.55152351 0.049202681
0.19320375 0.55166674 0.050237179
-0.18011467 0.60611415 0.057869196
0.16682675 0.60580343 0.055850267
-0.15315925 0.63189763 0.05223
0.140011 0.6319102 0.052308202
-0.1263874 0.65801984 0.049105167
0.1133137 0.65831417 0.050842762
-0.099959746 0.68579662 0.055595756
0.086759508 0.68561971 0.05459702
-0.019885167 0.7114625 0.050120234
0.0067501543 0.71161771 0.050959826
-0.046596956 0.71237999 0.055086493
0.033415873 0.71219206 0.054068685
-0.26094446 -0.75763857 0.067545176
-0.28823087 -0.67864609 0.073650002
0.27461341 -0.67780244 0.069735765
-0.28760543 -0.65029436 0.066263676
0.2741006 -0.6496315 0.063074231
-0.28763381 -0.62360197 0.066598773
0.27415058 -0.62302637 0.063723207
-0.28832641 -0.59841388 0.074778438
0.27474269 -0.59776664 0.071415067
-0.28879502 0.2334213 0.08031261
0.27538174 0.23339362 0.079716682
-0.2882627 0.25995028 0.074025989
0.27465901 0.25975078 0.070328116
-0.28822082 0.28673911 0.073531389
0.274618 0.28650901 0.069794893
-0.28838846 0.31369179 0.075511456
0.27478379 0.31344497 0.071948647
-0.28862184 0.34073478 0.078267455
0.27510685 0.34057158 0.07614553
-0.26099151 0.44705307 0.068156838
0.24761112 0.44688731 0.066618562
0.24845116 0.47504991 0.078743696
-0.23437193 0.52766764 0.070387483
0.22107846 0.52766234 0.070347905
-0.20743348 0.58090091 0.067998886
0.19427039 0.58119822 0.07003212
-0.18119355 0.63604593 0.077890396
0.16794194 0.63638592 0.079994678
-0.1541815 0.66229755 0.074362636
0.14081416 0.66209626 0.073174953
-0.12733214 0.68899316 0.073650002
0.11403914 0.68912643 0.074402452
-0.10064808 0.71660399 0.077950001
-0.073469974 0.71397561 0.063723564
0.06023933 0.71408474 0.064313889
0.087285995 0.71650147 0.077394366
-0.04694774 0.7434383 0.077870607
-0.020059906 0.74246627 0.072818875
0.0067501543 0.74258804 0.073452234
0.033590551 0.74322468 0.076759815
-0.23573172 -0.81688535 0.090014338
-0.29011306 -0.73741227 0.095877767
-0.28886065 -0.70712292 0.08108747
0.27545056 -0.70701635 0.080610394
-0.28902233 -0.573107 0.082996607
0.27568632 -0.57323211 0.08367312
-0.28936306 -0.54693109 0.087020397
0.2761668 -0.54744339 0.08991468
-0.28936306 -0.52001172 0.087020636
0.2761668 -0.52050179 0.08991468
-0.28936306 -0.4930923 0.087020397
0.2761668 -0.49356014 0.08991468
-0.28936306 -0.46617305 0.087020516
0.2761668 -0.46661854 0.08991468
0.2761668 -0.43967688 0.089914799
-0.28936306 -0.43925351 0.087020397
-0.28936306 -0.4123342 0.087020397
0.2761668 -0.4127351 0.08991468
-0.28936306 -0.38541466 0.087020397
0.2761668 -0.38579351 0.08991468
-0.28936306 -0.35849541 0.087020516
0.2761668 -0.35885179 0.08991468
-0.28936306 -0.33157605 0.087020516
0.2761668 -0.33191019 0.08991468
-0.28936306 -0.30465662 0.087020397
0.2761668 -0.30496854 0.08991468
-0.28936306 -0.27773726 0.087020516
0.2761668 -0.27802694 0.08991456
-0.28936306 -0.25081784 0.087020397
0.2761668 -0.25108522 0.08991468
-0.28936306 -0.22389846 0.087020516
0.2761668 -0.22414358 0.08991468
-0.28936306 -0.19697912 0.087020636
0.2761668 -0.19720195 0.08991468
-0.28936306 -0.17005964 0.087020397
0.2761668 -0.17026033 0.08991468
-0.28936306 -0.14314035 0.087020516
0.2761668 -0.14331862 0.08991468
-0.28936306 -0.11622088 0.087020397
0.2761668 -0.11637691 0.08991468
-0.28936306 -0.089301512 0.087020397
0.2761668 -0.089435264 0.08991468
-0.28936306 -0.062382042 0.087020397
0.2761668 -0.062493578 0.08991468
-0.28936306 -0.035462745 0.087020516
0.2761668 -0.03555195 0.08991468
-0.28936306 -0.0085433871 0.087020516
0.2761668 -0.0086103156 0.08991468
-0.28936306 0.01837597 0.087020397
0.2761668 0.018331479 0.08991456
-0.28936306 0.045295276 0.087020516
0.2761668 0.04527311 0.08991468
-0.28936306 0.072214849 0.087020397
0.2761668 0.072214849 0.08991468
-0.28936306 0.099134102 0.087020397
0.2761668 0.099156372 0.08991468
-0.28936306 0.12605351 0.087020636
0.2761668 0.12609795 0.08991468
-0.28936306 0.15297294 0.087020397
0.2761668 0.15303981 0.08991468
-0.28936306 0.17989229 0.087020636
0.2761668 0.17998132 0.08991468
-0.28936306 0.2068117 0.087020397
0.2761668 0.20692307 0.08991468
-0.28912511 0.36809015 0.084210753
0.27581969 0.36819112 0.085405827
-0.2896944 0.39560878 0.090933681
0.2766397 0.39608222 0.09605813
-0.26202366 0.47537553 0.081564426
-0.26324591 0.50420851 0.097441912
0.24978136 0.50427026 0.097943544
-0.23581897 0.5573529 0.091273546
0.2222441 0.55707604 0.089275599
-0.20906892 0.61176246 0.094555497
0.19556594 0.61168844 0.094074726
-0.074054085 0.74558336 0.089015841
0.060616877 0.7455489 0.088836312
-0.047162712 0.85395122 0.091833591
-0.020172603 0.85297483 0.087459207
0.0067501543 0.85306835 0.087878346
0.033705663 0.85392451 0.091713548
-0.047162712 0.88090765 0.091833472
-0.020172603 0.87989759 0.087459326
0.0067501543 0.87999439 0.087878227
0.033705663 0.88088 0.091713309
-0.047162712 0.90786409 0.091833353
-0.020172603 0.90682048 0.087459207
0.0067501543 0.90692025 0.087878227
0.033705663 0.90783548 0.091713548
-0.047162712 0.93482065 0.091833591
-0.020172603 0.93374306 0.087459326
0.0067501543 0.93384612 0.087878227
0.033705663 0.93479109 0.091713548
-0.047162712 0.96177709 0.091833472
-0.020172603 0.96066588 0.087459326
0.0067501543 0.96077234 0.087878227
0.033705663 0.96174651 0.091713428
0.27755636 -0.74020374 0.10796583
-0.29116231 0.4242931 0.10826874
0.27783012 0.42461866 0.11152172
-0.23743355 0.58771354 0.11457825
0.22391717 0.58798641 0.11644304
-0.18288708 0.66821754 0.10931885
0.16929543 0.6682142 0.10929859
-0.15537918 0.69371057 0.10029328
0.1419028 0.69391686 0.10145891
-0.12842804 0.72106999 0.10212243
0.11486609 0.72091043 0.10125804
-0.1015214 0.74891192 0.1063118
0.087973841 0.74907875 0.10717916
-0.04735459 0.77557647 0.10429645
-0.020261813 0.77452588 0.099047661
0.0067501543 0.77460629 0.099449277
0.033808265 0.77572554 0.10504198
-0.047492001 0.80448383 0.11322141
-0.020334665 0.80350488 0.10851097
0.0067501543 0.80355519 0.10875344
0.033877309 0.80464786 0.11401105
-0.10164946 0.83101189 0.11047041
-0.074541152 0.83093357 0.11010671
-0.047445912 0.83095974 0.11022794
-0.020334665 0.83058959 0.10851097
0.0067501543 0.8306461 0.10877347
0.033847567 0.83094227 0.11014712
0.0609456 0.83095092 0.11018753
0.088061057 0.83111638 0.1109556
-0.074366063 0.85633814 0.10252512
0.060819574 0.85622126 0.10200202
-0.074366063 0.88337684 0.102525
0.060819574 0.88325608 0.10200202
-0.074366063 0.91041559 0.10252512
0.060819574 0.91029072 0.10200202
-0.074366063 0.93745422 0.102525
0.060819574 0.93732548 0.10200202
-0.074366063 0.9644931 0.102525
0.060819574 0.96436024 0.10200202
-0.047413886 0.99300355 0.10814762
-0.020279136 0.99121064 0.10129809
0.0067501543 0.99134755 0.10182106
0.033842899 0.99336797 0.10954094
-0.2649821 -0.79732859 0.11999571
-0.32008305 -0.6359238 0.1281631
0.3061693 -0.63550323 0.1260618
-0.29307011 0.45380408 0.13079858
0.27926213 0.45373148 0.13012421
-0.26528436 0.53467339 0.12392199
0.2517662 0.5350228 0.12659192
-0.21094145 0.64365506 0.12496102
0.19715786 0.6434378 0.12361658
-0.074741378 0.77847463 0.11877692
0.061059713 0.77823895 0.11759937
-0.074896902 0.80703813 0.12551129
0.06117839 0.80699599 0.12530732
-0.12967832 0.83621401 0.13460588
-0.10191648 0.86004776 0.11914229
0.088252001 0.86006594 0.11922348
-0.10191648 0.8872143 0.11914229
0.088252001 0.88723326 0.11922371
-0.10191648 0.91438097 0.11914229
0.088252001 0.91440046 0.11922359
-0.10191648 0.94154775 0.11914229
0.088252001 0.94156796 0.11922359
-0.10191648 0.96871454 0.11914229
0.088252001 0.96873492 0.11922359
0.30827153 -0.69529426 0.15088773
-0.32147887 -0.66630071 0.14327371
0.30717763 -0.66519821 0.13796926
-0.32145986 -0.61155629 0.14306796
0.30724367 -0.61072516 0.13874972
-0.32208866 0.26403746 0.14987469
0.30767909 0.26371503 0.14389133
-0.32198748 0.29137325 0.14877975
0.30760413 0.29101759 0.14300609
0.30793571 0.31863916 0.14692187
0.28095922 0.48352838 0.15217006
-0.18500903 0.70228058 0.14869702
0.17132434 0.7030825 0.15322578
-0.15729022 0.72837633 0.14166832
0.14340456 0.72815573 0.14047563
-0.1297991 0.75496095 0.13774347
0.11603255 0.75522965 0.13913977
-0.10268045 0.78351355 0.1439532
0.088790298 0.78322929 0.14253247
-0.10276233 0.8114239 0.14661241
0.088871174 0.81130391 0.14603484
0.11593206 0.83648819 0.13587666
-0.1301349 0.86614799 0.14646792
0.11626644 0.86620784 0.14673603
-0.1301349 0.893525 0.14646816
0.11626644 0.89358705 0.14673603
-0.1301349 0.92090189 0.14646804
0.11626644 0.92096603 0.14673603
-0.1301349 0.94827914 0.14646804
0.11626644 0.94834507 0.14673626
-0.1301349 0.97565603 0.14646792
0.11626644 0.97572404 0.14673603
0.25376362 -0.77860945 0.15542209
-0.32287136 -0.69690216 0.15834737
-0.32286173 -0.58700907 0.15824342
0.30861863 -0.5864073 0.15498662
-0.32288283 0.2370313 0.15847206
0.3086274 0.23687506 0.15509021
