ply
format ascii 1.0
comment PCL generated
element vertex 802
property float x
property float y
property float z
element camera 1
property float view_px
property float view_py
property float view_pz
property float x_axisx
property float x_axisy
property float x_axisz
property float y_axisx
property float y_axisy
property float y_axisz
property float z_axisx
property float z_axisy
property float z_axisz
property float focal
property float scalex
property float scaley
property float centerx
property float centery
property int viewportx
property int viewporty
property float k1
property float k2
end_header
-0.07460583 -0.068956524 -0.25811148
-0.074574284 -0.053846661 -0.25845295
-0.074575119 -0.038747486 -0.25844395
-0.074574284 -0.023648005 -0.25845295
-0.059614323 -0.02366071 -0.25680757
-0.074574284 -0.0085487934 -0.25845289
-0.059504651 -0.0085487552 -0.25810242
-0.07457345 0.0065504191 -0.25846183
-0.059395902 0.0065433262 -0.25938678
-0.07457263 0.021649593 -0.25847089
-0.059609734 0.021674337 -0.25686151
-0.074571796 0.03674854 -0.25847989
-0.074571796 0.051847622 -0.25847989
-0.074625768 0.066969216 -0.25789571
-0.090666659 -0.099602997 -0.24852943
-0.090665765 -0.084426925 -0.24853855
-0.075756274 -0.084537789 -0.24565762
-0.090665765 -0.069251269 -0.24853855
-0.090666659 -0.054075878 -0.24852949
-0.060659476 -0.05416967 -0.24446458
-0.090666659 -0.038900174 -0.24852949
-0.059948765 -0.038833499 -0.25285792
-0.090666659 -0.023724455 -0.24852949
-0.090665765 -0.008548717 -0.24853855
-0.090664856 0.0066268314 -0.24854761
-0.090664856 0.021802418 -0.24854767
-0.090663947 0.036977738 -0.24855673
-0.060075097 0.036912832 -0.2513659
-0.090663947 0.052153211 -0.24855667
-0.060543053 0.052236851 -0.24583954
-0.090663947 0.067328662 -0.24855667
-0.090664856 0.0825046 -0.24854761
-0.075859748 0.082689792 -0.24453735
-0.090665765 0.097680718 -0.24853855
-0.10692272 -0.11531889 -0.23850518
-0.092135169 -0.11556943 -0.23385537
-0.10692272 -0.10006595 -0.23850518
-0.10692174 -0.084812701 -0.2385143
-0.10692174 -0.069559947 -0.23851424
-0.061376326 -0.069637366 -0.23599923
-0.10692174 -0.054307129 -0.23851436
-0.10692272 -0.039054465 -0.23850513
-0.046517752 -0.039175741 -0.2306264
-0.10692272 -0.023801591 -0.23850518
-0.046193369 -0.023829833 -0.23484045
-0.10692174 -0.0085487366 -0.2385143
-0.04609143 -0.0085487552 -0.23616469
-0.10692074 0.0067039486 -0.23852354
-0.045989625 0.0067119151 -0.2374869
-0.10692074 0.021956651 -0.23852342
-0.046194784 0.022013759 -0.23482209
-0.10691976 0.037209202 -0.23853272
-0.04662738 0.037424725 -0.22920233
-0.10691976 0.052461866 -0.23853272
-0.10691976 0.067714602 -0.23853266
-0.061416797 0.067830458 -0.23552114
-0.10692074 0.082967669 -0.23852354
-0.10692174 0.098220766 -0.2385143
-0.077110656 0.098625973 -0.23099589
-0.10692074 0.11347301 -0.23852354
-0.092489757 0.11397874 -0.23031217
-0.13993239 -0.14723302 -0.21817553
-0.12443125 -0.14717801 -0.21897054
-0.13993356 -0.13182428 -0.21816629
-0.12334386 -0.1311947 -0.22838759
-0.10817993 -0.13129009 -0.22683972
-0.13993585 -0.11641575 -0.21814758
-0.12334492 -0.11586452 -0.22837836
-0.13993472 -0.10100582 -0.21815675
-0.12334386 -0.10053329 -0.22838759
-0.077357583 -0.1005363 -0.22832274
-0.13993472 -0.085596293 -0.21815675
-0.12334386 -0.0852025 -0.22838759
-0.062497459 -0.085419118 -0.22275931
-0.13993356 -0.070186473 -0.21816629
-0.12334386 -0.069871739 -0.22838765
-0.13993472 -0.054777279 -0.21815681
-0.12334386 -0.054541081 -0.22838759
-0.047178604 -0.054687515 -0.22204179
-0.13993585 -0.039367929 -0.2181474
-0.12334492 -0.039210387 -0.22837836
-0.13993472 -0.023958256 -0.21815681
-0.12334492 -0.023879601 -0.22837842
-0.13993472 -0.008548717 -0.21815681
-0.12334386 -0.0085487552 -0.22838765
-0.13993356 0.0068607265 -0.21816617
-0.12334279 0.0067819376 -0.22839689
-0.13993356 0.022270113 -0.21816611
-0.12334279 0.022112593 -0.22839683
-0.13993239 0.037679367 -0.21817553
-0.12334172 0.037443094 -0.22840607
-0.13993239 0.05308868 -0.21817553
-0.12334172 0.052773673 -0.22840601
-0.047062449 0.052923188 -0.2235505
-0.13993239 0.068498105 -0.21817565
-0.12334172 0.068104312 -0.22840619
-0.13993356 0.083907858 -0.21816617
-0.12334279 0.083435282 -0.22839683
-0.062573977 0.083737433 -0.22185534
-0.13993356 0.099317342 -0.21816629
-0.12334386 0.098766521 -0.22838759
-0.13993356 0.11472668 -0.21816617
-0.12334279 0.11409666 -0.22839683
-0.13993356 0.13013619 -0.21816617
-0.12334279 0.12942743 -0.22839689
-0.10796022 0.12939404 -0.22887838
-0.13993356 0.14554565 -0.21816629
-0.15669692 -0.16343956 -0.20782048
-0.15669444 -0.14794916 -0.20783937
-0.15669566 -0.13246082 -0.20782983
-0.15669692 -0.11697233 -0.20782042
-0.079067416 -0.11686489 -0.2098133
-0.15669692 -0.10148321 -0.20782042
-0.06399972 -0.10161267 -0.20501822
-0.15669566 -0.085993826 -0.20782989
-0.15669566 -0.070504785 -0.20782989
-0.047845177 -0.070333824 -0.21338278
-0.15669692 -0.055015966 -0.20782048
-0.15669692 -0.039526876 -0.20782048
-0.032779686 -0.039525904 -0.20788658
-0.15669692 -0.024037883 -0.20782036
-0.032468624 -0.024002701 -0.2123763
-0.15669566 -0.0085487934 -0.20782983
-0.032374822 -0.0085486788 -0.21373063
-0.15669566 0.0069402577 -0.20782989
-0.032281108 0.0068843849 -0.215083
-0.15669566 0.022429271 -0.20782983
-0.032475166 0.022360638 -0.21228212
-0.15669444 0.037918057 -0.20783937
-0.032873414 0.037948199 -0.20653385
-0.15669444 0.053406935 -0.20783925
-0.15669444 0.068895906 -0.20783937
-0.047902383 0.068711132 -0.21263981
-0.15669566 0.084385321 -0.20782989
-0.15669566 0.099874258 -0.20782983
-0.063753627 0.099869147 -0.20792437
-0.15669566 0.11536331 -0.20782989
-0.079377361 0.11544777 -0.20645809
-0.15669444 0.13085161 -0.20783937
-0.095024817 0.13104972 -0.20498025
-0.15669566 0.14634129 -0.20782983
-0.12502655 0.14588054 -0.21381509
-0.15669444 0.16182956 -0.20783937
-0.17363444 -0.16424426 -0.19736713
-0.11205024 -0.14912082 -0.19092762
-0.17363048 -0.1486727 -0.1973958
-0.17363179 -0.13310392 -0.19738632
-0.095292725 -0.13280118 -0.20230323
-0.17363313 -0.11753507 -0.19737673
-0.17363313 -0.10196558 -0.19737673
-0.17363179 -0.08639577 -0.19738621
-0.048927464 -0.086321205 -0.19932348
-0.17363179 -0.070826314 -0.19738632
-0.17363179 -0.055256955 -0.19738632
-0.033387505 -0.055217016 -0.19911385
-0.17363313 -0.039687764 -0.19737667
-0.17363313 -0.02411825 -0.19737673
-0.17363179 -0.0085487552 -0.19738621
-0.01834441 -0.008548717 -0.19078338
-0.17363048 0.0070205871 -0.19739586
-0.018259212 0.0070608286 -0.19216698
-0.17363179 0.022590045 -0.19738632
-0.17363048 0.038159236 -0.19739574
-0.17363048 0.053728539 -0.1973958
-0.033273973 0.053625237 -0.20075262
-0.17363048 0.06929782 -0.19739574
-0.17363179 0.084867626 -0.19738632
-0.048978843 0.084809005 -0.1986559
-0.17363179 0.10043699 -0.19738632
-0.17363048 0.11600587 -0.1973958
-0.17363179 0.13157585 -0.19738621
-0.17363179 0.14714523 -0.19738615
-0.17363048 0.16271384 -0.19739574
-0.19074747 -0.16505656 -0.18681443
-0.14430141 -0.16537306 -0.18270385
-0.19074321 -0.1494038 -0.18684334
-0.19074321 -0.13375323 -0.18684334
-0.19074464 -0.11810319 -0.18683362
-0.065707274 -0.1182099 -0.18485308
-0.19074607 -0.10245296 -0.18682408
-0.050325535 -0.10271455 -0.18116182
-0.19074464 -0.086801931 -0.18683362
-0.19074321 -0.071151018 -0.18684328
-0.034001283 -0.07104589 -0.19025445
-0.19074464 -0.055500586 -0.18683368
-0.19074607 -0.039850172 -0.18682402
-0.018723316 -0.039883949 -0.18463063
-0.19074607 -0.024199454 -0.18682408
-0.018429138 -0.024179563 -0.18940753
-0.19074464 -0.0085487552 -0.18683368
-0.19074321 0.0071018301 -0.18684334
-0.19074464 0.022752531 -0.18683362
-0.018439807 0.02271552 -0.18923414
-0.19074321 0.038402963 -0.18684334
-0.01880201 0.038483597 -0.18335301
-0.19074321 0.054053474 -0.18684328
-0.19074321 0.069703996 -0.18684328
-0.03407263 0.069612399 -0.1892246
-0.19074464 0.085355118 -0.18683368
-0.19074464 0.1010057 -0.18683368
-0.050144188 0.10118434 -0.18351758
-0.19074321 0.11665572 -0.18684334
-0.06594754 0.11695309 -0.18201548
-0.19074464 0.13230695 -0.18683368
-0.081774227 0.13274497 -0.18051118
-0.19074464 0.14795755 -0.18683362
-0.11242907 0.14791302 -0.18741256
-0.19074321 0.16360743 -0.1868434
-0.22551331 -0.16670617 -0.16538483
-0.20803848 -0.16587669 -0.17616063
-0.2255117 -0.15088977 -0.16539466
-0.2080355 -0.15014251 -0.17618018
-0.22550851 -0.13507293 -0.16541445
-0.2080355 -0.13440992 -0.17618012
-0.082084276 -0.1343499 -0.17715496
-0.2255117 -0.11925843 -0.16539472
-0.20803699 -0.11867784 -0.17617029
-0.2255117 -0.10344279 -0.16539466
-0.20803699 -0.10294504 -0.17617041
-0.22551012 -0.08762674 -0.16540444
-0.20803699 -0.087212324 -0.17617041
-0.0350352 -0.087244704 -0.17533118
-0.22551012 -0.071811154 -0.16540444
-0.2080355 -0.07147935 -0.17618012
-0.019835152 -0.071775094 -0.16657668
-0.22551012 -0.055995591 -0.16540444
-0.20803699 -0.05574692 -0.17617029
-0.019276775 -0.055759054 -0.17564362
-0.2255117 -0.040180106 -0.16539466
-0.20803699 -0.040014237 -0.17617029
-0.2255117 -0.024364449 -0.16539454
-0.20803699 -0.024281496 -0.17617041
-0.0040652007 -0.024360532 -0.16589725
-0.2080355 -0.0085487934 -0.17618012
-0.22551012 -0.008548717 -0.16540456
-0.0039888099 -0.0085487552 -0.16731501
-0.22551012 0.0072668623 -0.16540444
-0.2080355 0.0071839094 -0.17618018
-0.0039125159 0.0072412286 -0.16873062
-0.22551012 0.023082405 -0.16540444
-0.2080355 0.022916459 -0.17618012
-0.0040789992 0.023078829 -0.16564095
-0.22551012 0.038897987 -0.16540444
-0.2080355 0.038649201 -0.17618012
-0.22551012 0.05471364 -0.16540456
-0.2080355 0.054381829 -0.17618006
-0.019166909 0.054343451 -0.17742783
-0.22551012 0.070529222 -0.16540456
-0.2080355 0.070114493 -0.17618018
-0.019916452 0.07053493 -0.16525668
-0.2255117 0.086345255 -0.16539454
-0.20803699 0.085847542 -0.17617029
-0.035064273 0.085905686 -0.17491138
-0.22551012 0.10216044 -0.16540444
-0.2080355 0.10157974 -0.17618012
-0.22550851 0.1179754 -0.16541433
-0.2080355 0.11731239 -0.17618006
-0.2255117 0.13379234 -0.16539466
-0.20803699 0.13304575 -0.17617047
-0.2255117 0.14960797 -0.16539454
-0.20803699 0.14877851 -0.17617047
-0.2255117 0.16542369 -0.16539466
-0.2080355 0.16451032 -0.17618012
-0.14503884 0.16446494 -0.17671651
-0.24317166 -0.1675438 -0.15450466
-0.13197869 -0.16761282 -0.15360773
-0.24317166 -0.15164433 -0.15450472
-0.099318288 -0.15111963 -0.16207743
-0.24316829 -0.13574353 -0.15452456
-0.24316996 -0.11984478 -0.15451467
-0.05201114 -0.11958876 -0.15926516
-0.24317166 -0.10394581 -0.1545046
-0.036322989 -0.10384236 -0.15674353
-0.24316996 -0.088045821 -0.15451461
-0.24316996 -0.07214649 -0.15451461
-0.24316996 -0.056247059 -0.15451455
-0.24316996 -0.040347651 -0.15451461
-0.0043387488 -0.04025051 -0.16082078
-0.24317166 -0.024448279 -0.15450466
-0.24316996 -0.0085487934 -0.15451461
-0.24316996 0.0073506925 -0.15451467
-0.24316996 0.023250178 -0.15451467
-0.24316996 0.039149512 -0.15451461
-0.0044033378 0.039031528 -0.15962207
-0.24316996 0.055048961 -0.15451461
-0.0047295764 0.055078056 -0.15356779
-0.24316996 0.070948333 -0.15451461
-0.24317166 0.086848304 -0.15450472
-0.24316996 0.10274722 -0.15451461
-0.036199816 0.1025313 -0.15852129
-0.24316829 0.11864601 -0.15452451
-0.052186899 0.11849472 -0.15698212
-0.24317166 0.13454676 -0.15450466
-0.068226509 0.13450541 -0.15510219
-0.24317166 0.15044627 -0.1545046
-0.099495567 0.14999972 -0.1603058
-0.24317166 0.16634575 -0.1545046
-0.26101983 -0.1524068 -0.14349866
-0.26101625 -0.13642138 -0.14351875
-0.068542369 -0.13593771 -0.15137202
-0.26101804 -0.12043782 -0.14350879
-0.26101983 -0.10445413 -0.1434986
-0.26101804 -0.088469535 -0.14350879
-0.020808451 -0.08818987 -0.15077239
-0.26101804 -0.072485432 -0.14350873
-0.0053345934 -0.072521299 -0.14234024
-0.26101804 -0.056501247 -0.14350873
-0.0048344433 -0.056313809 -0.15162182
-0.26101804 -0.040517058 -0.14350879
-0.26101804 -0.024532983 -0.14350873
0.010635272 -0.024545763 -0.14183611
-0.26101804 -0.0085487934 -0.14350873
0.01070229 -0.0085487934 -0.14328718
-0.26101804 0.0074353963 -0.14350879
0.010769226 0.0074258875 -0.14473617
-0.26101804 0.023419507 -0.14350873
0.010619432 0.023450583 -0.14149314
-0.26101804 0.039403658 -0.14350873
-0.26101804 0.055387769 -0.14350861
-0.26101804 0.071371958 -0.14350873
-0.0054226443 0.071479902 -0.14070612
-0.26101983 0.087356612 -0.14349866
-0.020818926 0.087028518 -0.15060234
-0.26101804 0.10334022 -0.14350873
-0.26101625 0.11932385 -0.14351875
-0.26101983 0.13530937 -0.14349866
-0.26101983 0.15129352 -0.14349872
-0.26101983 0.16727771 -0.1434986
-0.1335454 0.16757067 -0.14003956
-0.27905923 -0.15317747 -0.13237476
-0.086218067 -0.15317534 -0.13240528
-0.27905357 -0.13710573 -0.13240528
-0.27905548 -0.12103665 -0.13239509
-0.037966199 -0.12100267 -0.13302583
-0.27905732 -0.10496747 -0.13238478
-0.021981575 -0.10499804 -0.13172317
-0.27905732 -0.088897675 -0.1323849
-0.27905548 -0.072827622 -0.13239497
-0.27905548 -0.056757867 -0.13239509
0.0099518225 -0.056881595 -0.1270389
-0.27905732 -0.040688291 -0.1323849
0.01038684 -0.040625609 -0.13645744
-0.27905732 -0.024618523 -0.1323849
-0.27905548 -0.008548717 -0.13239509
-0.27905732 0.0075210128 -0.13238478
-0.27905732 0.023590818 -0.1323849
-0.27905732 0.039660584 -0.1323849
0.010334849 0.039592542 -0.13533181
-0.27905732 0.055730391 -0.1323849
0.010048568 0.05583046 -0.12913358
-0.27905732 0.071800113 -0.13238478
-0.27905732 0.087870002 -0.1323849
-0.27905548 0.10393916 -0.13239497
-0.021909513 0.10391231 -0.13289356
-0.27905548 0.12000889 -0.13239509
-0.038084678 0.12007535 -0.13131577
-0.27905923 0.13607994 -0.1323747
-0.054485627 0.13644394 -0.12712085
-0.27906111 0.15215069 -0.13236457
-0.086212434 0.15214276 -0.1324662
-0.29728702 -0.13779819 -0.12116188
-0.054654293 -0.13756606 -0.12492979
-0.29728901 -0.12164259 -0.12115133
-0.29729098 -0.10548677 -0.12114131
-0.29729098 -0.08933045 -0.12114114
-0.0062363222 -0.08915861 -0.125606
-0.29728901 -0.073173821 -0.12115145
0.0095128492 -0.073285118 -0.117535
-0.29728901 -0.057017531 -0.12115151
-0.29728901 -0.040861271 -0.12115145
-0.29729098 -0.024705052 -0.12114114
0.02568423 -0.024735441 -0.11720455
-0.29728901 -0.0085487552 -0.12115151
0.025741421 -0.008548717 -0.11869025
-0.29728901 0.007607542 -0.12115145
0.025798522 0.0076149963 -0.12017387
-0.29729098 0.023763951 -0.12114125
0.025667533 0.023831274 -0.11677098
-0.29729098 0.039920248 -0.12114114
-0.29729098 0.056076583 -0.12114114
-0.29729098 0.072232887 -0.12114114
0.0094221905 0.072447315 -0.11557209
-0.29729098 0.088389248 -0.12114114
-0.0062313601 0.088178769 -0.12569821
-0.29728901 0.10454501 -0.12115145
-0.29728901 0.12070136 -0.12115151
-0.29729298 0.136859 -0.12113094
-0.072734557 -0.15529133 -0.10186481
-0.31572002 -0.12225495 -0.10978621
-0.023558967 -0.12245317 -0.10610938
-0.31572208 -0.10601172 -0.10977566
-0.0072880462 -0.10618204 -0.10608858
-0.31572002 -0.089767501 -0.10978615
-0.31572002 -0.073523715 -0.10978615
-0.31572002 -0.057280011 -0.10978609
0.025093399 -0.057463225 -0.10185426
-0.31572002 -0.041036271 -0.10978615
0.025464676 -0.041009836 -0.11150038
-0.31572002 -0.024792455 -0.10978621
-0.31572002 -0.0085487552 -0.10978609
-0.31572002 0.0076949839 -0.10978609
-0.31572208 0.023938876 -0.10977572
-0.31572208 0.040182691 -0.10977572
0.025424704 0.040166866 -0.11046171
-0.31572208 0.056426544 -0.10977572
0.025180392 0.056600858 -0.10411471
-0.31572208 0.0726704 -0.10977572
-0.31572208 0.088914216 -0.10977572
-0.31572002 0.10515742 -0.10978615
-0.0072588176 0.1053275 -0.10663092
-0.31572002 0.12140119 -0.10978615
-0.023626484 0.12169509 -0.10501331
-0.07256528 0.1543446 -0.10386378
-0.12163068 0.170789 -0.1020323
-0.12243608 -0.17215839 -0.094559073
-0.040406533 -0.13923673 -0.097802818
-0.33435169 -0.090209752 -0.09829694
0.0086946338 -0.090151146 -0.099819958
-0.33435169 -0.073877513 -0.098297119
0.024718709 -0.074067757 -0.092119634
-0.33434954 -0.057545152 -0.09830749
-0.33435169 -0.041213132 -0.09829694
-0.33435169 -0.024881002 -0.09829694
0.041094221 -0.024929572 -0.091982126
-0.33435169 -0.0085487552 -0.09829706
0.041141398 -0.008548717 -0.093514264
-0.33435169 0.0077834148 -0.09829706
0.04118786 0.007808594 -0.095022976
-0.33435389 0.024115738 -0.09828645
0.041078262 0.024220791 -0.091463923
-0.33435389 0.040448058 -0.098286569
-0.33435389 0.056780268 -0.09828645
-0.33435389 0.073112592 -0.098286569
0.024630308 0.073438361 -0.089822948
-0.33435389 0.089444906 -0.098286569
0.0087120757 0.089356557 -0.10019779
-0.040367179 0.13843583 -0.098370612
-0.0087752491 -0.12394147 -0.078489602
0.0077712089 -0.10739501 -0.079827309
-0.35318512 -0.057813335 -0.086692691
0.040604152 -0.058058735 -0.076066792
-0.35318512 -0.041391861 -0.08669275
0.040908113 -0.04140342 -0.085937917
-0.35318744 -0.024970343 -0.0866822
-0.35318744 -0.008548717 -0.086682081
-0.35318744 0.0078728721 -0.086682081
-0.35318744 0.024294388 -0.086682022
-0.35318971 0.040716279 -0.086671531
0.040879279 0.040754884 -0.085001826
-0.35318971 0.057137985 -0.086671531
0.04067909 0.057389546 -0.07850033
0.0077647939 0.10677929 -0.079688311
-0.0088000521 0.12335695 -0.078029096
-0.058850639 -0.15747002 -0.070417464
-0.025784947 -0.1409511 -0.06996417
0.02399826 -0.091167897 -0.073401928
0.040297046 -0.074869111 -0.066093206
0.056878641 -0.025128342 -0.066158175
0.056914639 -0.0085487552 -0.067716837
0.056950584 0.0080068316 -0.069273174
0.056864131 0.024620079 -0.065529704
0.040215224 0.07445392 -0.063435793
0.024023935 0.090563402 -0.074068785
-0.025855429 0.14048322 -0.068819463
-0.058538117 0.15660679 -0.074477315
0.023208931 -0.10863897 -0.052894473
0.056730866 -0.041806437 -0.05975914
0.05671123 0.041357435 -0.05890888
0.056557383 0.058197979 -0.052247226
0.023176841 0.1082681 -0.052060783
0.0064100921 0.12506102 -0.050358415
-0.044548236 -0.15971443 -0.03802228
-0.010774046 -0.14271045 -0.041396499
0.006399937 -0.12546916 -0.050138652
0.03968776 -0.092210889 -0.046306074
0.056260943 -0.075690702 -0.039411008
0.056497004 -0.058669157 -0.049632788
0.073050708 -0.025332095 -0.039688468
0.073075302 -0.0085487934 -0.041285753
0.073099852 0.0082099754 -0.042880535
0.073039427 0.025029257 -0.038955748
0.039717644 0.091800943 -0.047276497
-0.010933705 0.14258841 -0.038433433
-0.044115089 0.15893187 -0.044274151
0.039040178 -0.10991463 -0.025275111
0.072946489 -0.042219687 -0.03291893
0.072934955 0.041974969 -0.032170236
0.072829843 0.059026379 -0.025342464
0.056190845 0.075495556 -0.036375701
0.0046406165 -0.14451787 -0.012047887
0.021982335 -0.12703793 -0.021026731
0.055778425 -0.093280464 -0.018517315
0.072786674 -0.059294946 -0.022538602
0.089625239 -0.025540944 -0.012560248
0.089637838 -0.008548717 -0.01419735
0.089650422 0.0084182918 -0.015832067
0.055808462 0.093069211 -0.019817948
0.03899166 0.10979635 -0.023699343
0.022017956 0.12681036 -0.021952152
-0.029808141 -0.16202748 -0.004635632
0.072620079 -0.07654345 -0.011717916
0.089570142 -0.042643357 -0.0054030418
0.089618839 0.025448401 -0.011729181
0.089565292 0.042607639 -0.00477314
0.072572678 0.076563194 -0.008639276
0.0044156238 0.14475399 -0.0071767569
-0.029733367 0.16188969 -0.005849719
0.037988566 -0.12864928 0.0088769197
0.055280179 -0.11122325 0.0030574799
0.072285846 -0.094377697 0.0099910498
0.089488298 -0.059936099 0.0052289367
0.10661743 0.0086316299 0.011885405
0.089508384 0.059887376 0.0026190877
0.072311208 0.094369933 0.0083435178
0.055226021 0.11136448 0.0054025054
0.038040318 0.1286055 0.0071963072
0.020412304 -0.14647697 0.019764006
0.089398019 -0.077426463 0.016956508
0.10661743 -0.043077525 0.022801936
0.10661743 -0.025755079 0.015251875
0.10661743 -0.0085487552 0.013561487
0.10661743 0.025878426 0.016197264
0.10661743 0.043256629 0.023330748
0.08937604 0.077658132 0.019810915
0.020211205 0.14698249 0.02498877
-0.01461184 -0.16441493 0.029824018
0.071944974 -0.11256616 0.032131195
0.10661743 -0.060594138 0.033719122
0.10661743 0.06077252 0.03136158
0.089241907 0.095704347 0.03723526
0.071896225 0.1129754 0.035297692
0.054493073 0.13044958 0.037140012
-0.015013762 0.16521005 0.037282765
0.05443614 -0.13030516 0.03960526
0.089226514 -0.09550333 0.039235711
0.10661743 -0.078332946 0.04639715
0.12410466 -0.043523218 0.051746905
0.12404328 -0.025974618 0.043773592
0.12402993 -0.0085487552 0.042039871
0.1240167 0.0088505205 0.040320694
0.12405139 0.026319172 0.044827163
0.10661743 0.078782216 0.049014807
0.03656967 -0.14864428 0.054956853
0.089051463 -0.11394462 0.0619753
0.12419089 -0.061269104 0.062948525
0.12410781 0.043922428 0.052156687
0.12417479 0.061680641 0.060857236
0.036473162 0.14927584 0.058091104
0.00075058639 -0.16734903 0.072173417
0.071343586 -0.13200718 0.071192443
0.10661743 -0.096659407 0.069269717
0.12429616 -0.079263672 0.076623261
0.1419196 -0.026199784 0.073032558
0.14189221 -0.0085487934 0.071253955
0.14186506 0.0090750791 0.069489896
0.14193776 0.02677156 0.074211776
0.10661743 0.097074434 0.066898167
0.08902052 0.11462963 0.065994918
0.071394466 0.13234316 0.067887843
0.14204898 -0.043980323 0.081436336
0.14205337 0.044605155 0.081721008
0.12431428 0.079935431 0.078977883
0.00029075891 0.16866244 0.08212918
0.053242922 -0.15088072 0.091273248
0.10661743 -0.11541136 0.093733013
0.12447698 -0.097846553 0.10011309
0.142226 -0.061961643 0.092933476
0.16022164 -0.0085487934 0.10121971
0.16017984 0.0093053039 0.099409521
0.14219852 0.062613368 0.091148555
0.12445562 0.098480433 0.097338736
0.10661743 0.11633012 0.097551882
0.088762619 0.13428977 0.099497378
0.053221591 0.15163869 0.092196643
0.088730454 -0.13375755 0.10367566
0.14245282 -0.080219552 0.10766655
0.16046886 -0.044449709 0.11192495
0.16026409 -0.026430998 0.10305804
0.16029438 0.027235813 0.10436934
0.16047239 0.045306213 0.11207741
0.1424848 0.081119686 0.10974306
0.1246829 -0.11694153 0.12686306
0.16074148 -0.062672779 0.12372929
0.16070715 0.063570857 0.12224251
0.070479549 0.15407166 0.12731332
0.070457153 -0.15318985 0.12876791
0.10661743 -0.13555834 0.13709301
0.14282417 -0.099065572 0.13178617
0.16110678 -0.08120127 0.13954741
0.17909539 -0.026668297 0.1338802
0.17903727 -0.0085487934 0.13199276
0.17898005 0.0095418803 0.13013417
0.17913964 0.027712353 0.13531703
0.14277512 0.099924281 0.12860054
0.12470689 0.11807744 0.12997943
0.10661743 0.13642147 0.13411301
0.01621674 0.17225263 0.12876791
0.015582651 -0.17241134 0.14524204
0.17938337 -0.044931725 0.14323205
0.17938375 0.046026025 0.14324528
0.16114825 0.082335934 0.1413427
0.14327326 -0.1185163 0.16095561
0.16167955 -0.10031892 0.16434902
0.17975628 -0.063402936 0.15534335
0.19843313 -0.026911873 0.16553122
0.19835852 -0.0085487552 0.16359276
0.19828504 0.0097847339 0.16168398
0.17972061 0.064554483 0.15418452
0.16160913 0.1014346 0.16129977
0.14330998 0.11987513 0.16334075
0.088269822 0.15657979 0.16351312
0.088239133 -0.15557514 0.16749936
0.1250263 -0.13741091 0.17147225
0.18027925 -0.0822106 0.17232722
0.19881213 -0.045426674 0.17537814
0.19849403 0.028201859 0.16711336
0.19880751 0.046765231 0.17525738
0.18032536 0.083586097 0.17382485
0.12501921 0.13866548 0.17055124
0.19929162 -0.064153291 0.18783528
0.19925985 0.065565184 0.18700987
0.16241173 -0.12013733 0.19605345
0.18106443 -0.10160752 0.19782645
0.21829802 -0.027162142 0.19804496
0.21820605 -0.0085487552 0.19605345
0.21811545 0.010034204 0.19409221
0.21837816 0.028704833 0.19978017
0.18099472 0.10301715 0.19556278
0.16244859 0.12172392 0.19764906
0.10661743 0.1591662 0.20084709
0.10661743 -0.158042 0.20755702
0.14398035 -0.13931911 0.20688301
0.19999196 -0.083248422 0.20603067
0.21877742 -0.045935389 0.20842439
0.21876407 0.047524635 0.20813519
0.20003694 0.084870756 0.20719939
0.14399943 0.14097926 0.20812136
0.21936883 -0.064924486 0.22122878
0.23860162 -0.008548717 0.22941047
0.23849225 0.010290446 0.22738081
0.21934697 0.066604257 0.22075564
0.1821229 -0.12180699 0.2322014
0.20100144 -0.10293277 0.23225743
0.22026739 -0.084315374 0.24068314
0.23930129 -0.046458408 0.2423951
0.23871192 -0.027419411 0.23145753
0.23881331 0.029221386 0.23333925
0.23927689 0.048305299 0.24194223
0.22030595 0.086191714 0.24151772
0.20094579 0.10464524 0.23081213
0.18214625 0.12362665 0.23295993
0.12562308 -0.16059406 0.2489962
0.16350386 -0.14128381 0.24334413
0.24000999 -0.065717012 0.25554699
0.24000537 0.067672923 0.25546116
0.16358611 0.14336774 0.24690562
0.1256128 0.16240954 0.24765903
0.22151448 -0.10429634 0.26768333
0.25969788 -0.027683752 0.26580626
0.25956827 -0.0085486788 0.2637015
0.25943977 0.010554027 0.26161474
0.25982419 0.029752884 0.26785678
0.22148845 0.10632227 0.26712006
0.18362342 -0.14330916 0.28093201
0.20243287 -0.1235273 0.26944751
0.24113125 -0.085413784 0.27635461
0.26040667 -0.046996068 0.27731544
0.26036903 0.049108103 0.27670401
0.24115634 0.087550506 0.27682048
0.20242842 0.12558658 0.26933175
0.1452889 -0.16323461 0.29187459
0.26124072 -0.066532448 0.29085857
0.26126066 0.068772882 0.29118258
0.18380868 0.14583381 0.28694898
0.2426289 -0.10569979 0.30414766
0.28127933 -0.027955702 0.30111641
0.28113034 -0.0085487934 0.29896635
0.28098163 0.010825025 0.29681998
0.2814337 0.030299254 0.30334455
0.24264815 0.10804898 0.30450481
0.22332114 0.12760551 0.30679864
0.14543484 0.16612947 0.30135399
0.22336936 -0.12530068 0.30784267
0.26260895 -0.086544558 0.31307572
0.28212032 -0.04754936 0.31325549
0.28206429 0.049933571 0.31244653
0.26261449 0.088949353 0.31316549
0.2045006 -0.14558524 0.32316881
0.28308588 -0.067371607 0.32719237
0.28313735 0.069904536 0.3279348
0.20469747 0.1483794 0.32828349
0.26437062 -0.10714452 0.34168178
0.3034839 -0.028235449 0.33745962
0.30331239 -0.0085487552 0.33523184
0.30314237 0.01110382 0.33302313
0.30366981 0.030861791 0.33987504
0.26445463 0.10982916 0.34304613
0.16604862 -0.16703193 0.35353464
0.2449618 -0.1271297 0.34744054
0.28472793 -0.087708965 0.35089296
0.30446693 -0.048118703 0.35022956
0.30439097 0.050783236 0.34924263
0.28470549 0.090389013 0.35056883
0.24485156 0.12968542 0.34539527
0.16613802 0.17001298 0.3574068
0.22617742 -0.14803545 0.36863905
0.30557144 -0.068234965 0.36457723
0.32595131 0.011390602 0.37029892
0.30566391 0.071069732 0.36577898
0.28676981 -0.10863346 0.3803646
0.32633805 -0.028523333 0.37486595
0.32614383 -0.0085487552 0.37257248
0.32655925 0.03144072 0.37747842
0.28693622 0.11166373 0.38276678
0.22628665 0.15101023 0.37100393
0.26724052 -0.12901604 0.38828307
0.30751619 -0.088908315 0.38984078
0.32747686 -0.048705012 0.38831502
0.32737604 0.05165815 0.387124
0.30745867 0.091871843 0.38909358
0.26705095 0.13183062 0.38520509
0.3287282 -0.069124408 0.40309244
0.34943616 0.011686133 0.40867919
0.32886976 0.072270274 0.40476424
0.24864441 -0.1505758 0.41578144
0.30985585 -0.11016798 0.42023367
0.34987065 -0.028819891 0.41338271
0.34965247 -0.0085487934 0.4110207
0.35012972 0.03203661 0.41618711
0.24861205 0.15373075 0.41518146
0.1877832 0.17407423 0.41602474
0.29024068 -0.13096431 0.43046242
0.33100694 -0.090144902 0.43000335
0.351179 -0.049309045 0.42754596
0.35104755 0.052558701 0.42612284
0.33090425 0.093399704 0.42879051
0.31012559 0.11355609 0.42373794
0.28994909 0.13404253 0.4262535
0.18871298 -0.17273989 0.44622082
0.35258406 -0.070040479 0.44275612
0.35278609 0.073507383 0.44494325
0.37411246 -0.029125273 0.45306033
0.37386891 -0.0085487552 0.45062679
0.37362745 0.011990489 0.44821411
0.37441501 0.032650799 0.45608371
0.27194697 -0.15321209 0.46470636
0.33366087 -0.1117503 0.46134454
0.35523203 -0.091420367 0.4714213
0.37560338 -0.049931254 0.46795851
0.3754397 0.053487133 0.46632296
0.3550759 0.09497568 0.46973091
0.3340582 0.11550975 0.4660365
0.31367525 0.13639162 0.46984929
0.27171305 0.15654682 0.46090811
0.31399566 -0.13297574 0.47401148
0.37717417 -0.070984885 0.4836548
0.39909595 -0.029440125 0.49395174
0.39882559 -0.0085488316 0.49144334
0.39855573 0.012303934 0.48893923
0.3994467 0.033283927 0.49720639
0.37744603 0.074783191 0.48637134
0.35835826 -0.11344084 0.50526386
0.40078682 -0.05057298 0.50964111
0.40058446 0.054444168 0.50776333
0.35876742 0.1175262 0.50969321
0.29562876 0.1594612 0.50823253
0.29613099 -0.15594821 0.51548177
0.33854583 -0.13505514 0.51903337
0.3802264 -0.092736065 0.51415449
0.38000473 0.0966001 0.51193935
0.33841833 0.13896087 0.51752764
0.40253147 -0.071958959 0.52582961
0.4248578 -0.029764678 0.53613168
0.424557 -0.0085488316 0.53352696
0.42425883 0.012627307 0.53094453
0.40288672 0.0760995 0.52912551
0.42525768 0.033936568 0.53959483
0.38394821 -0.11521441 0.55134517
0.40589336 -0.094056189 0.55702358
0.42676157 -0.051234674 0.55261892
0.4265151 0.055430677 0.55048448
0.40572849 0.098276645 0.55549389
0.38429502 0.11961018 0.55481058
0.32124746 -0.15878989 0.56821495
0.36392885 -0.13720448 0.56556731
0.42869037 -0.072963417 0.56932288
0.42914203 0.077457726 0.57323414
0.3640511 0.14162087 0.56689066
0.32113293 0.16306368 0.56672734
0.4522737 -0.0085487552 0.58646828
0.45162478 0.013014121 0.58119994
0.45320261 -0.03021037 0.59401041
0.45392609 0.034864847 0.59988385
0.34735134 -0.16174313 0.62302142
0.45674562 0.057100255 0.62277621
0.41304064 0.12277544 0.62334234
0.4133563 -0.11809841 0.62627143
0.45762172 -0.052424252 0.62988895
0.43699208 -0.096648678 0.64121789
0.43722621 0.10165422 0.64324552
0.50958574 -0.0085487552 0.85933155
0.50970167 0.015162101 0.86021751
0 0 0 1 0 0 0 1 0 0 0 1 0 0 0 0 0 802 1 0 0
