ply
format ascii 1.0
comment PCL generated
element vertex 1075
property float x
property float y
property float z
element camera 1
property float view_px
property float view_py
property float view_pz
property float x_axisx
property float x_axisy
property float x_axisz
property float y_axisx
property float y_axisy
property float y_axisz
property float z_axisx
property float z_axisy
property float z_axisz
property float focal
property float scalex
property float scaley
property float centerx
property float centery
property int viewportx
property int viewporty
property float k1
property float k2
end_header
-0.057962544 -0.63155371 -0.082310677
-0.034527138 -0.63017946 -0.08806932
-0.011218597 -0.62998968 -0.088864326
0.012077705 -0.62979621 -0.089675307
0.035378978 -0.63014388 -0.08821857
-0.034586884 -0.6077733 -0.084188342
-0.011250372 -0.60764676 -0.084736347
0.012077705 -0.60752022 -0.085284233
0.035409998 -0.6077733 -0.084188342
-0.057875492 -0.58401865 -0.086080551
0.058726702 -0.58421493 -0.085201144
-0.034488659 -0.58301663 -0.090568662
-0.011200133 -0.58286166 -0.091262937
0.012077705 -0.58270675 -0.091956854
0.035359614 -0.5829798 -0.090733886
-0.057873957 -0.56068653 -0.086146832
-0.034487896 -0.55972278 -0.090618014
-0.011199749 -0.55957317 -0.091312528
0.012077705 -0.55942357 -0.092006445
0.035359107 -0.55968362 -0.090799928
0.058725685 -0.56087613 -0.085267425
-0.057873957 -0.53736931 -0.086146712
-0.034487896 -0.53643996 -0.090618014
-0.011199749 -0.53629565 -0.091312647
0.012077705 -0.53615135 -0.092006564
0.035359107 -0.53640217 -0.090800047
0.058725685 -0.53755212 -0.085267425
-0.057874344 -0.51405543 -0.086130142
-0.034487896 -0.51315719 -0.090618014
-0.011199749 -0.51301831 -0.091312528
0.012077705 -0.51287925 -0.092006445
0.035359107 -0.51312077 -0.090800047
0.058725685 -0.51422805 -0.085267544
-0.057874344 -0.49073809 -0.086130261
-0.034487896 -0.48987442 -0.090618014
-0.011199749 -0.48974079 -0.091312408
0.012077705 -0.48960721 -0.092006564
0.035359107 -0.48983943 -0.090799928
0.058725685 -0.49090415 -0.085267544
-0.057874344 -0.46742082 -0.086130142
-0.034487896 -0.46659154 -0.090618253
-0.011199749 -0.46646333 -0.091312528
0.012077705 -0.46633506 -0.092006445
0.035359107 -0.46655792 -0.090800047
0.058725685 -0.46758008 -0.085267425
-0.057874344 -0.44410342 -0.086130261
-0.034487896 -0.44330877 -0.090618134
-0.011199749 -0.44318581 -0.091312408
0.012077705 -0.44306296 -0.092006683
0.035359107 -0.44327658 -0.090800047
0.058725685 -0.44425613 -0.085267305
-0.057874344 -0.42078608 -0.086130142
-0.034487896 -0.420026 -0.090618134
-0.011199749 -0.41990834 -0.091312528
0.012077705 -0.4197908 -0.092006445
0.035359107 -0.41999525 -0.090799928
0.058725685 -0.42093217 -0.085267544
-0.057874344 -0.39746872 -0.086130142
-0.034487896 -0.39674309 -0.090618014
-0.011199749 -0.39663094 -0.091312647
0.012077705 -0.39651877 -0.092006683
0.035359107 -0.39671373 -0.090800047
0.058725685 -0.39760813 -0.085267544
-0.057874344 -0.37415129 -0.086130261
-0.034487896 -0.37346038 -0.090618134
-0.011199749 -0.37335351 -0.091312528
0.012077705 -0.3732467 -0.092006445
0.035359107 -0.37343243 -0.090799928
0.058725685 -0.37428418 -0.085267425
-0.057874344 -0.35083407 -0.086130261
-0.034487896 -0.35017759 -0.090618014
-0.011199749 -0.35007602 -0.091312408
0.012077705 -0.34997442 -0.092006564
0.035359107 -0.350151 -0.090799928
0.058725685 -0.3509602 -0.085267544
-0.057874344 -0.32751667 -0.086130381
-0.034487896 -0.32689476 -0.090618134
-0.011199749 -0.32679856 -0.091312528
0.012077705 -0.32670245 -0.092006445
0.035359107 -0.32686955 -0.090799928
0.058725685 -0.32763618 -0.085267544
-0.057873957 -0.30419707 -0.086146712
-0.034487896 -0.30361202 -0.090618014
-0.011199749 -0.30352107 -0.091312528
0.035359107 -0.30358821 -0.090799928
0.058725685 -0.30431217 -0.085267425
0.012077705 -0.30343023 -0.092006564
-0.057873957 -0.28087988 -0.086146712
-0.034487896 -0.28032926 -0.090618134
-0.011199749 -0.28024361 -0.091312528
0.012077705 -0.28015825 -0.092006445
0.035359107 -0.28030673 -0.090800047
0.058725685 -0.28098831 -0.085267425
-0.057873957 -0.25756267 -0.086146712
-0.034487896 -0.25704643 -0.090618014
-0.011199749 -0.25696629 -0.091312408
0.012077705 -0.25688604 -0.092006564
0.035359107 -0.25702536 -0.090800047
0.058725685 -0.2576642 -0.085267544
-0.057874344 -0.23424724 -0.086130261
-0.034487896 -0.23376358 -0.090618134
-0.011199749 -0.2336888 -0.091312528
0.012077705 -0.23361394 -0.092006445
0.035359107 -0.233744 -0.090799928
0.058725685 -0.23434019 -0.085267544
-0.057874344 -0.21092993 -0.086130142
-0.034487896 -0.21048078 -0.090618253
-0.011199749 -0.21041131 -0.091312528
0.012077705 -0.21034187 -0.092006564
0.035359107 -0.21046254 -0.090800047
0.058725685 -0.21101633 -0.085267425
-0.057874344 -0.18761247 -0.086130261
-0.034487896 -0.18719792 -0.090618134
-0.011199749 -0.18713382 -0.091312528
0.012077705 -0.18706974 -0.092006445
0.035359107 -0.18718117 -0.090800047
0.058725685 -0.1876922 -0.085267544
-0.057875112 -0.164298 -0.086097002
-0.034488659 -0.16391936 -0.090568423
-0.011200004 -0.16385922 -0.091279507
0.012077705 -0.16380042 -0.091973424
0.035359487 -0.16390404 -0.090750337
0.058726195 -0.16437104 -0.085234284
-0.057878174 -0.14099053 -0.085964322
-0.034490444 -0.14064518 -0.090452671
-0.011201023 -0.14059162 -0.091147184
0.012077705 -0.14053828 -0.09184134
0.035360377 -0.14063114 -0.090634704
0.05872798 -0.14105573 -0.085118175
-0.057884686 -0.09437073 -0.085682273
-0.034495536 -0.094097309 -0.090121984
-0.011203567 -0.094054557 -0.090816617
0.012077705 -0.094012745 -0.091494322
0.035363052 -0.094087191 -0.090287447
0.05873207 -0.094421931 -0.084852576
-0.034573086 -0.047756679 -0.085084915
-0.011242452 -0.047725387 -0.085765123
0.012077705 -0.047693841 -0.086445332
0.035402842 -0.047755308 -0.085118175
-0.081588648 -0.63371855 -0.073238611
0.082303911 -0.63347512 -0.074258685
0.058786571 -0.63179171 -0.081312895
-0.10517997 -0.61135042 -0.068698883
-0.081541806 -0.60995072 -0.074759841
-0.058005191 -0.6086334 -0.080464005
0.058808867 -0.6087718 -0.079864502
0.082278058 -0.60980797 -0.07537818
0.10589469 -0.61143178 -0.0683465
-0.10505676 -0.58718431 -0.07190001
-0.081411295 -0.58559966 -0.078998208
0.082179442 -0.58545452 -0.079648137
0.10578889 -0.58721042 -0.071782708
-0.1050529 -0.56373578 -0.072000265
-0.081408218 -0.56220579 -0.079098344
0.08217752 -0.56206936 -0.079731464
0.10578631 -0.56376469 -0.071866393
-0.1050529 -0.54030961 -0.072000146
-0.081408218 -0.53883433 -0.079098225
0.08217752 -0.53870279 -0.079731345
0.10578631 -0.5403375 -0.071866274
-0.1050529 -0.51688349 -0.072000265
-0.081408218 -0.51546282 -0.079098463
0.08217752 -0.51533616 -0.079731464
0.10578631 -0.51691025 -0.071866393
-0.1050529 -0.49345744 -0.072000146
-0.081408724 -0.49209458 -0.079081655
0.08217752 -0.49196953 -0.079731464
0.10578631 -0.49348319 -0.071866393
-0.1050529 -0.47003126 -0.072000265
-0.081408724 -0.46872306 -0.079081655
0.08217752 -0.4686029 -0.079731345
0.10578631 -0.47005606 -0.071866274
-0.1050529 -0.44660521 -0.072000146
-0.081408724 -0.4453513 -0.079081655
0.08217752 -0.44523638 -0.079731345
0.10578631 -0.44662887 -0.071866393
-0.1050529 -0.42317903 -0.072000265
-0.081408724 -0.42197984 -0.079081655
0.08217752 -0.42186964 -0.079731464
0.10578631 -0.42320168 -0.071866393
-0.1050529 -0.399753 -0.072000146
-0.081408724 -0.39860815 -0.079081655
0.08217752 -0.39850315 -0.079731464
0.10578631 -0.39977461 -0.071866393
-0.10505354 -0.3763293 -0.071983695
-0.081409246 -0.37523904 -0.079065084
0.08217752 -0.37513655 -0.079731345
0.10578631 -0.37634739 -0.071866393
-0.10505354 -0.35290316 -0.071983457
-0.081408724 -0.35186496 -0.079081535
0.08217752 -0.35176986 -0.079731464
0.10578631 -0.35292026 -0.071866274
-0.10505354 -0.32947692 -0.071983457
-0.081408724 -0.3284933 -0.079081655
0.08217752 -0.32840326 -0.079731464
0.10578631 -0.32949308 -0.071866393
-0.10505354 -0.30605063 -0.071983457
-0.081408724 -0.30512166 -0.079081655
0.08217752 -0.30503666 -0.079731345
0.10578631 -0.30606595 -0.071866393
-0.10505354 -0.28262433 -0.071983457
-0.081408724 -0.28175017 -0.079081655
0.08217752 -0.28167015 -0.079731345
0.10578631 -0.28263879 -0.071866393
-0.10505354 -0.25919807 -0.071983576
-0.081408724 -0.25837851 -0.079081655
0.08217752 -0.25830343 -0.079731464
0.10578631 -0.25921172 -0.071866274
-0.10505354 -0.23577178 -0.071983576
-0.081408724 -0.23500687 -0.079081774
0.08217752 -0.23493695 -0.079731464
0.10578631 -0.2357845 -0.071866393
-0.10505354 -0.21234569 -0.071983457
-0.081408724 -0.21163535 -0.079081535
0.08217752 -0.21157029 -0.079731345
0.10578631 -0.21235734 -0.071866393
-0.10505354 -0.1889194 -0.071983457
-0.081408724 -0.18826368 -0.079081655
0.08217752 -0.18820357 -0.079731464
0.10578631 -0.18893018 -0.071866393
-0.10505483 -0.16549587 -0.071950197
-0.081410266 -0.16489625 -0.079031706
0.082178287 -0.16483989 -0.079698086
0.10578734 -0.16550583 -0.071832895
-0.10505998 -0.14207977 -0.071816206
-0.081413858 -0.14153326 -0.078915
0.082180984 -0.14148203 -0.07958138
0.10579095 -0.14208749 -0.071715593
-0.058266059 -0.11883567 -0.069168568
-0.034757789 -0.11856415 -0.07308805
-0.011335536 -0.11852352 -0.073673368
0.012077705 -0.11848878 -0.074174881
0.035497256 -0.11858032 -0.072853684
0.058979481 -0.11886244 -0.068782568
-0.10506321 -0.095229827 -0.071732283
-0.081419505 -0.094798841 -0.078731656
0.082185596 -0.094758786 -0.079381585
0.10579456 -0.095238082 -0.071598411
-0.058235854 -0.071869321 -0.070476174
-0.034711219 -0.071565621 -0.076112747
-0.011310975 -0.071525089 -0.076864004
0.012077705 -0.071485586 -0.077598095
0.035474353 -0.071580909 -0.07582891
0.058962956 -0.071902774 -0.069856048
-0.10526721 -0.048618324 -0.066432357
-0.081580408 -0.048291542 -0.073506236
-0.058005191 -0.047970213 -0.080464005
0.058811173 -0.048004754 -0.079714656
0.082303524 -0.048255973 -0.074275374
0.10597278 -0.048647024 -0.065810561
-0.058273025 -0.025055587 -0.068866611
-0.034737453 -0.024842247 -0.074409127
-0.011324084 -0.024813309 -0.075160861
0.012077705 -0.024785057 -0.075895786
0.035487469 -0.024853155 -0.074124932
0.058986716 -0.025076956 -0.068312883
-0.081824623 -0.0017067194 -0.065575242
-0.058186352 -0.0014898479 -0.072619438
-0.034686554 -0.0013329163 -0.077714562
-0.011299034 -0.0013113469 -0.078415036
0.012077705 -0.0012897775 -0.079115033
0.035461247 -0.0013385192 -0.077531219
0.058929689 -0.0015083179 -0.072017074
0.082483485 -0.0016787127 -0.066482663
-0.05834011 0.021777801 -0.065961838
-0.034784336 0.021902554 -0.071364045
-0.011348029 0.021918423 -0.072050571
0.012077705 0.021934584 -0.07275331
0.035511818 0.021893263 -0.070961952
0.059030417 0.021766596 -0.065474272
0.012077705 0.045239575 -0.065255761
-0.12954636 -0.63952863 -0.048891783
-0.10540318 -0.63618582 -0.062899828
0.10610443 -0.63651145 -0.06153512
-0.12913777 -0.61388171 -0.057737947
0.12978004 -0.61401844 -0.05714643
-0.12905352 -0.5899387 -0.059561849
0.12971435 -0.59009695 -0.058852792
-0.12904574 -0.56638038 -0.059730649
0.12970981 -0.56654412 -0.058971047
-0.12904574 -0.54285985 -0.05973053
0.12970981 -0.54301775 -0.058971047
-0.12904574 -0.5193392 -0.05973053
0.12970981 -0.51949137 -0.058970928
-0.12904574 -0.49581867 -0.05973053
0.12970981 -0.49596494 -0.058970928
-0.12904574 -0.4722982 -0.05973053
0.12970981 -0.47243851 -0.058970928
-0.12904574 -0.44877762 -0.059730411
0.12970981 -0.44891208 -0.058971047
-0.12904574 -0.42525703 -0.05973053
0.12970981 -0.42538565 -0.058971047
-0.12904574 -0.40173632 -0.059730649
0.12970981 -0.40185925 -0.058970809
-0.12904651 -0.37821838 -0.059713602
0.12970981 -0.37833285 -0.058970928
-0.12904651 -0.35469779 -0.059713602
0.12970981 -0.35480627 -0.058970928
-0.12904651 -0.33117703 -0.059713721
0.12970981 -0.3312799 -0.058971047
-0.12904651 -0.30765638 -0.059713721
0.12970981 -0.30775341 -0.058971047
-0.12904651 -0.28413561 -0.059713721
0.12970981 -0.2842271 -0.058970809
-0.12904651 -0.26061499 -0.059713602
0.12970981 -0.26070067 -0.058970928
-0.12904651 -0.23709419 -0.059713602
0.12970981 -0.23717421 -0.058970928
-0.12904651 -0.21357349 -0.059713602
0.12970981 -0.21364781 -0.058970928
-0.12904651 -0.19005281 -0.059713721
0.12970981 -0.19012135 -0.058971047
-0.1290473 -0.16653356 -0.059696674
0.12971047 -0.16659644 -0.058953881
-0.12905431 -0.14302433 -0.059544921
0.12971565 -0.14308023 -0.058818936
-0.10561357 -0.11964872 -0.057433605
-0.081881598 -0.11921286 -0.063724756
0.082526974 -0.11915223 -0.064599752
0.10626873 -0.11973426 -0.056199312
-0.1290504 -0.095975138 -0.059629321
0.12971306 -0.096021019 -0.058886528
-0.10570666 -0.07270249 -0.055014968
0.10636152 -0.072801031 -0.053185582
-0.081911147 -0.07228484 -0.062765121
0.082544453 -0.07222686 -0.063842654
-0.12933785 -0.049219914 -0.053406
0.12994227 -0.049241878 -0.052931428
-0.10574772 -0.025629759 -0.053948164
-0.081952132 -0.025341637 -0.061434031
0.082575954 -0.025301397 -0.062478781
0.10639703 -0.025703557 -0.05203259
-0.10557324 -0.0019251704 -0.058481216
0.10624061 -0.0019673258 -0.057112455
-0.10583711 0.02144669 -0.051625609
-0.082029536 0.02161517 -0.058920264
0.08263436 0.0216389 -0.059949875
0.10646392 0.021405913 -0.04986012
-0.082272962 0.045020245 -0.051014781
-0.058521837 0.045129221 -0.058092713
-0.034899876 0.045218103 -0.063859463
-0.011405642 0.045228962 -0.064566255
0.035571158 0.045208719 -0.063253522
0.059149791 0.04512357 -0.057721019
0.082813673 0.045038275 -0.052185297
-0.05870451 0.068601556 -0.050182819
-0.035015725 0.068648875 -0.056334734
-0.011463673 0.068654276 -0.057028055
0.012077705 0.068659782 -0.057737827
0.0356308 0.068642534 -0.055505872
0.059269506 0.068599693 -0.049944997
-0.035132408 0.092195548 -0.048755884
-0.011521856 0.0921956 -0.04946959
0.012077705 0.092195645 -0.050166011
-0.15396209 -0.64312345 -0.033828139
0.13011019 -0.63960582 -0.048568845
0.15431909 -0.6427182 -0.035526156
-0.15340535 -0.61701751 -0.044159651
0.15386759 -0.6167537 -0.045301557
-0.15338607 -0.59329712 -0.044517636
0.15384477 -0.59301186 -0.04579556
-0.15337504 -0.56961536 -0.044722319
0.15383691 -0.56934732 -0.045965672
-0.15337504 -0.54597926 -0.044722199
0.15383691 -0.54572082 -0.045965791
-0.15337597 -0.52234662 -0.044705033
0.15383691 -0.52209437 -0.045965672
-0.15337597 -0.49871027 -0.044705153
0.15383691 -0.49846774 -0.045965791
-0.15337597 -0.47507417 -0.044705033
0.15383691 -0.47484124 -0.045965791
-0.15337597 -0.45143789 -0.044705153
0.1538377 -0.45121765 -0.045948863
-0.15337597 -0.42780149 -0.044705272
0.1538377 -0.42759103 -0.045948744
-0.15337597 -0.40416542 -0.044705153
0.1538377 -0.40396443 -0.045948744
-0.15337597 -0.38052914 -0.044705153
0.15383691 -0.38033506 -0.045965791
-0.15337597 -0.35689288 -0.044705153
0.15383691 -0.3567085 -0.045965791
-0.15337597 -0.33325663 -0.044705153
0.15383691 -0.33308205 -0.045965791
-0.15337597 -0.3096205 -0.044705153
0.15383691 -0.30945545 -0.045965791
-0.15337597 -0.28598416 -0.044705272
0.15383691 -0.28582895 -0.045965672
-0.15337597 -0.26234791 -0.044705272
0.15383691 -0.26220244 -0.045965791
-0.15337597 -0.23871174 -0.044705272
0.15383691 -0.23857585 -0.045965791
-0.15337597 -0.2150754 -0.044705272
0.15383691 -0.21494934 -0.045965672
-0.15337597 -0.19143927 -0.044705153
0.15383691 -0.1913228 -0.045965791
-0.15337688 -0.16780445 -0.044688225
0.1538377 -0.16769767 -0.045948744
-0.15338424 -0.1441786 -0.044551849
0.15384398 -0.14408156 -0.045812607
-0.12972398 -0.12050688 -0.045045853
0.13025038 -0.12051513 -0.044926763
0.15440704 -0.12129842 -0.033622146
-0.15338239 -0.096901648 -0.044585824
0.15384163 -0.09682297 -0.045863509
-0.1300537 -0.073624305 -0.0379076
0.13051264 -0.073613308 -0.038112879
-0.15371367 -0.049911313 -0.038438082
0.15411508 -0.049841799 -0.03994298
-0.13003789 -0.026234001 -0.03824985
0.13050474 -0.026231393 -0.038318276
-0.12975547 -0.0023598522 -0.044364333
0.13027726 -0.0023640245 -0.044227958
-0.13010353 0.021105066 -0.036828637
0.13055547 0.021108948 -0.03700006
-0.10618488 0.044890583 -0.042590618
0.10673246 0.044868324 -0.041139364
-0.10653469 0.068473123 -0.033501983
-0.082517654 0.068546772 -0.043068409
0.08299429 0.068556748 -0.044364333
0.10700253 0.068464376 -0.03236866
-0.082763612 0.092195548 -0.035080314
0.035690878 0.092195548 -0.047701597
0.059389833 0.0921956 -0.042129636
0.083175436 0.092195548 -0.036520243
-0.058888122 0.092195697 -0.042232156
-0.059070714 0.11591178 -0.034325719
-0.035248093 0.11585847 -0.041241765
-0.011579675 0.11585307 -0.041958928
0.012077705 0.11584762 -0.042658806
0.035750337 0.11586826 -0.039977193
0.059509456 0.11591159 -0.034360051
-0.035355367 0.1396288 -0.03427434
-0.011632756 0.13961647 -0.035063267
0.012077705 0.13960542 -0.035783291
0.035804942 0.13965018 -0.032883763
-0.17805484 -0.62080145 -0.02777493
0.1785561 -0.62128323 -0.025688648
-0.17806228 -0.59706175 -0.02765429
0.17856632 -0.597543 -0.025498748
-0.17804529 -0.5732348 -0.027929902
0.17855145 -0.57369936 -0.025774837
-0.17804529 -0.54946947 -0.027930021
0.17855145 -0.54991734 -0.025774837
-0.17804529 -0.52570409 -0.027930021
0.17855145 -0.52613539 -0.025774837
-0.17804529 -0.5019387 -0.027930021
0.17855145 -0.50235349 -0.025774837
-0.17804635 -0.47817647 -0.027912736
0.17855145 -0.47857153 -0.025774956
-0.17804635 -0.45441109 -0.027912736
0.17855145 -0.45478964 -0.025774837
-0.17804635 -0.43064553 -0.027912617
0.17855145 -0.43100756 -0.025774956
-0.17804635 -0.40687999 -0.027912855
0.17855145 -0.40722558 -0.025774837
-0.17804635 -0.38311452 -0.027912736
0.17855145 -0.38344365 -0.025774717
-0.17804635 -0.35934904 -0.027912617
0.17855145 -0.3596617 -0.025774956
-0.17804635 -0.33558348 -0.027912736
0.17855145 -0.33587977 -0.025774837
-0.17804635 -0.31181806 -0.027912736
0.17855145 -0.31209785 -0.025774717
-0.17804635 -0.28805253 -0.027912736
0.17855145 -0.2883158 -0.025774956
-0.17804635 -0.26428694 -0.027912736
0.17855053 -0.26453182 -0.025791883
-0.17804635 -0.24052146 -0.027912617
0.17855053 -0.24074998 -0.025792003
-0.17804635 -0.21675596 -0.027912736
0.17855145 -0.21696994 -0.025774837
-0.17804635 -0.19299045 -0.027912736
0.17855145 -0.19318801 -0.025774717
-0.17804635 -0.16922492 -0.027912617
0.17855145 -0.169406 -0.025774956
-0.17805696 -0.14547276 -0.027740359
0.17856075 -0.1456373 -0.025602341
-0.15405923 -0.12140902 -0.03202486
-0.17807713 -0.097959183 -0.027412891
0.17857842 -0.098090954 -0.025274396
-0.15469594 -0.074578039 -0.020209432
0.15502334 -0.074574269 -0.020278573
-0.17853248 -0.050762065 -0.020018935
0.17895031 -0.050838016 -0.018373013
-0.15458499 -0.026849143 -0.022268534
0.15491627 -0.026836522 -0.022596836
-0.15420103 -0.0028207675 -0.029393673
0.15452369 -0.0027683452 -0.031096816
-0.15460549 0.020760007 -0.021888137
0.15493463 0.02076713 -0.022199273
-0.13052489 0.044661425 -0.027705908
0.13089398 0.044669088 -0.028205514
-0.13094956 0.068357758 -0.018511653
0.13123441 0.068364248 -0.019360662
-0.1068866 0.092195645 -0.024359465
0.10727361 0.092195645 -0.023564935
-0.0830082 0.11596711 -0.02713716
0.083375819 0.1159617 -0.027843952
-0.083232187 0.1398505 -0.019863129
-0.05923792 0.13973945 -0.027085543
0.059619065 0.13973695 -0.027240753
0.083559722 0.13985039 -0.019880414
-0.059406318 0.16367954 -0.019793868
-0.035467107 0.16351293 -0.027016521
-0.011685944 0.16348645 -0.028153896
0.012077705 0.16346979 -0.028877139
0.035859801 0.16354182 -0.025757551
0.059728917 0.16367236 -0.0201056
-0.035579108 0.18750927 -0.019741893
-0.011739372 0.18746388 -0.021213531
0.012077705 0.18744196 -0.021922588
0.035914913 0.18754435 -0.018598199
-0.17890434 -0.64785981 -0.013980746
0.17925258 -0.64815027 -0.0127635
0.20391472 -0.62719303 -9.8109245e-05
-0.20369032 -0.57908267 -0.00079965591
0.20380351 -0.57884455 -0.0019037724
-0.20368789 -0.5551011 -0.00083470345
0.20380132 -0.55487162 -0.0019388199
-0.2036891 -0.53113079 -0.00081706047
0.20380132 -0.53090614 -0.0019387007
-0.2036891 -0.50715655 -0.00081706047
0.20380132 -0.50694078 -0.0019387007
-0.2036891 -0.48318249 -0.00081706047
0.20380132 -0.4829753 -0.0019387007
-0.2036891 -0.45920849 -0.00081694126
0.20380132 -0.45900989 -0.0019387007
-0.2036891 -0.43523431 -0.00081706047
0.20380132 -0.43504435 -0.0019388199
-0.2036891 -0.41126019 -0.00081706047
0.20380026 -0.41107619 -0.0019562244
-0.2036891 -0.38728622 -0.00081694126
0.20380026 -0.38711077 -0.0019562244
-0.2036891 -0.36331201 -0.00081706047
0.20380026 -0.36314547 -0.0019562244
-0.2036891 -0.33933794 -0.00081706047
0.20380132 -0.33918256 -0.0019388199
-0.2036891 -0.31536394 -0.00081706047
0.20380132 -0.31521711 -0.0019388199
-0.2036891 -0.29138982 -0.00081694126
0.20380132 -0.29125166 -0.0019387007
-0.2036891 -0.26741567 -0.00081706047
0.20380132 -0.26728624 -0.0019387007
-0.2036891 -0.24344167 -0.00081706047
0.20380132 -0.24332085 -0.0019387007
-0.2036891 -0.21946761 -0.00081694126
0.20380132 -0.21935526 -0.0019388199
-0.2036891 -0.1954934 -0.00081706047
0.20380026 -0.19538826 -0.0019562244
-0.2036891 -0.1715194 -0.00081706047
0.20380026 -0.1714229 -0.0019563437
-0.20370366 -0.14756146 -0.00060665607
0.20381321 -0.14747381 -0.0017459393
-0.17883368 -0.12257972 -0.015127897
0.17918137 -0.1226519 -0.014085293
-0.20376565 -0.099665187 0.00028800964
0.2038607 -0.099587359 -0.00097477436
-0.17963623 -0.075554125 -0.0020962954
0.17985289 -0.075579576 -0.0016232729
-0.17924324 -0.0034648553 -0.0084775686
0.17952771 -0.0034901127 -0.0076571703
-0.15510187 0.044430006 -0.012676358
0.15543962 0.04440834 -0.011266351
-0.15567009 0.068231687 -0.0021313429
0.15594897 0.068217039 -0.00023841858
-0.13137595 0.0921956 -0.0092798471
0.13157612 0.092195697 -0.01048255
-0.13179922 0.11617509 -0.00011563301
-0.1072359 0.11605845 -0.015284061
0.10754303 0.11606199 -0.014815092
0.13191578 0.1161633 -0.0016582012
-0.10755701 0.14004953 -0.0069413185
0.10779086 0.14005218 -0.0067666769
-0.083457761 0.16384718 -0.01253736
0.08374498 0.16386294 -0.011858463
-0.083683871 0.18795712 -0.005194068
-0.059575103 0.18773268 -0.012484908
0.059839543 0.1877194 -0.012920022
0.083930798 0.18799977 -0.0038123131
-0.059745096 0.21190035 -0.0051240921
-0.035691638 0.21161887 -0.012432814
-0.011793177 0.21155009 -0.014224172
0.012077705 0.21152203 -0.01495409
0.035970148 0.21165773 -0.011423111
0.059950955 0.21187873 -0.0056836605
-0.035804968 0.23584363 -0.00507164
-0.011847087 0.23574442 -0.0072208643
0.012077705 0.23571044 -0.0079540014
0.036025774 0.23588407 -0.0041971207
-0.011901244 0.26004821 -0.00018560886
0.012077705 0.26000851 -0.00092220306
-0.2038447 -0.62754571 0.0014287233
-0.20448154 -0.60560644 0.01062119
0.20439336 -0.60494864 0.0076743364
-0.20439349 -0.12427554 0.0093499422
0.20439769 -0.12416437 0.0077447891
0.20498247 -0.076596044 0.017240524
-0.20423098 -0.052010201 0.0070044994
0.20425449 -0.051937036 0.0054196119
-0.17992038 -0.027803116 0.0025177002
0.18008833 -0.027811915 0.0027461052
0.20494643 -0.0042387545 0.016655326
-0.17982522 0.02023197 0.00097239017
0.18000504 0.020226665 0.0012005568
-0.18055657 0.044037037 0.0128479
0.1806041 0.044045243 0.012317538
-0.15630874 0.092195645 0.0097205639
0.15646115 0.092195548 0.010850668
-0.13218835 0.14028439 0.0083091259
0.13229331 0.14028193 0.0081504583
-0.13257958 0.16452435 0.016779542
-0.10787986 0.16417009 0.0014462471
0.10803997 0.16416723 0.0013233423
-0.10820445 0.18842134 0.0098793507
0.10828984 0.18840772 0.0094381571
-0.083937027 0.21221396 0.0030274391
0.084117994 0.21226281 0.0042933226
-0.084196962 0.23660755 0.011469007
-0.05991549 0.236182 0.0022541285
0.060062621 0.23615041 0.0015692711
0.084306158 0.23665246 0.012441278
-0.0600871 0.26058027 0.0096852779
-0.035918571 0.26018253 0.002306819
0.036081661 0.26022327 0.0030626059
0.06017508 0.26053646 0.0088735819
-0.060259126 0.28509393 0.01713419
-0.03603271 0.28463724 0.0097205639
-0.011955782 0.28446355 0.0068987608
0.012077705 0.28441688 0.0061415434
0.036137942 0.28467762 0.010373712
0.060287789 0.28503591 0.016194463
-0.036136203 0.30915824 0.016442537
-0.012005254 0.30894235 0.013325572
0.012077705 0.30889085 0.012582779
0.036188751 0.30919513 0.016974568
0.012077705 0.33332649 0.017240524
-0.23020425 -0.58619398 0.032192469
-0.23018497 -0.56191361 0.031941772
-0.23018497 -0.53768736 0.031941891
-0.23018497 -0.51346105 0.031941772
-0.23018497 -0.48923481 0.031941891
-0.23018497 -0.46500856 0.031941772
-0.23018497 -0.44078225 0.031941891
-0.23018497 -0.416556 0.031941772
-0.23018497 -0.39232975 0.031941772
-0.23018497 -0.36810341 0.031941772
-0.23018497 -0.34387729 0.031941891
-0.23018497 -0.31965101 0.031941772
-0.23018497 -0.29542476 0.031941772
-0.23018497 -0.27119836 0.031941772
-0.23018497 -0.24697214 0.031941772
-0.23018497 -0.2227459 0.031941772
-0.23018497 -0.19851956 0.031941772
-0.23018497 -0.17429331 0.031941772
-0.23020841 -0.15009046 0.032246113
-0.2050422 -0.076675393 0.018713355
-0.20595746 -0.028935 0.03192389
-0.20503238 -0.004297711 0.018571258
-0.20568492 0.019608125 0.027990103
0.20573141 0.019575551 0.02940166
-0.18129241 0.068024293 0.024796724
0.18120743 0.068034172 0.023514152
-0.15694366 0.11634161 0.021503091
0.15697125 0.11634455 0.021894455
-0.1575274 0.14065427 0.032335639
0.15743944 0.1406495 0.032031298
0.13268006 0.16455707 0.018198609
-0.13304214 0.18894213 0.026794195
0.13307001 0.18898952 0.028329492
-0.1085308 0.21280411 0.01835835
0.10854156 0.21277536 0.017613053
-0.10885893 0.23731965 0.026883483
0.10879405 0.23727018 0.025812864
-0.084458314 0.26113361 0.019956708
0.084494896 0.26116917 0.020614147
-0.084721081 0.2857933 0.028490305
0.084684633 0.28581402 0.028829694
-0.060413867 0.30967045 0.023834586
0.060389247 0.30959761 0.022784114
-0.060527571 0.3342132 0.028758168
-0.036211651 0.33364251 0.021343112
-0.012041128 0.33338398 0.017985821
0.036225941 0.33367804 0.021805406
0.060472146 0.33416796 0.028168797
-0.060641639 0.35883322 0.033697486
-0.036287338 0.35820323 0.026258826
-0.012077243 0.35790008 0.022677302
0.012077705 0.35783675 0.021930099
0.036263108 0.35823509 0.02663362
0.060555335 0.35882255 0.033571959
-0.036363255 0.38284147 0.031190038
-0.012113332 0.3824881 0.027365208
0.012077705 0.38242048 0.026633501
0.036300529 0.38286948 0.031494379
-0.012149665 0.40715143 0.032085061
0.012077705 0.40707806 0.031351209
-0.23066969 -0.61177188 0.038238645
0.23062636 -0.6120168 0.03933537
0.23028542 -0.58667278 0.034414291
0.2302705 -0.56238282 0.034199357
0.2302705 -0.53813905 0.034199238
0.2302705 -0.51389557 0.034199238
0.2302705 -0.48965192 0.034199357
0.2302705 -0.46540821 0.034199357
0.2302705 -0.44116461 0.034199357
0.2302705 -0.41692096 0.034199238
0.2302705 -0.39267728 0.034199357
0.2302705 -0.36843368 0.034199357
0.2302705 -0.34418997 0.034199357
0.2302705 -0.31994641 0.034199357
0.2302705 -0.29570267 0.034199238
0.23026928 -0.27145699 0.034181356
0.23026928 -0.24721351 0.034181476
0.23026928 -0.22296998 0.034181476
0.23026928 -0.19872656 0.034181476
0.23026928 -0.17448297 0.034181476
0.23028789 -0.15026012 0.034450293
-0.23102722 -0.12659878 0.042882919
0.23093086 -0.12665758 0.043730497
-0.23040155 -0.1017878 0.034755349
0.23044457 -0.10190827 0.036711335
-0.23110078 -0.053711526 0.043838739
0.23099959 -0.053752311 0.044722915
0.20608981 -0.029061913 0.035221696
-0.20674922 0.043567471 0.043351769
0.20673832 0.043530427 0.045752048
0.1818383 0.0921956 0.035221577
-0.1820339 0.092195749 0.036837101
-0.18277217 0.11655185 0.048825264
-0.15811615 0.16513585 0.043261528
0.15791151 0.16511256 0.042252183
-0.133545 0.21354789 0.037681341
0.13346247 0.21358046 0.038526297
-0.13405137 0.23832476 0.048644543
0.1338568 0.2383306 0.048771143
-0.10918885 0.26196867 0.035454869
0.10907051 0.26193294 0.034791112
-0.10951987 0.28675163 0.044055223
0.10938577 0.28681177 0.045029759
-0.08495488 0.31051886 0.036082983
0.084853798 0.31052393 0.036154747
-0.085128747 0.33521184 0.041729689
0.084979221 0.33520058 0.041585565
-0.085302688 0.3599917 0.047378302
0.085105069 0.35996246 0.047034979
-0.060756065 0.38353065 0.038652062
0.060638808 0.38356236 0.038993597
-0.060870841 0.40830585 0.043622255
-0.036439415 0.40755683 0.036136866
0.036337923 0.40757853 0.036352277
0.060722571 0.40838718 0.044434309
-0.060990587 0.4331809 0.048807263
-0.036515817 0.43235022 0.041099072
-0.012186107 0.43188903 0.03681922
0.012077705 0.43180963 0.036082983
0.036375575 0.43236575 0.041243196
0.060806621 0.43329808 0.049893498
-0.036592457 0.4572219 0.046077132
-0.012222522 0.45669898 0.041549563
0.012077705 0.45661375 0.040811181
0.036413204 0.45722803 0.046131372
-0.012259184 0.48158595 0.046311975
0.012077705 0.48149472 0.045571566
-0.23187673 -0.63966763 0.053918481
0.2316103 -0.63957959 0.053537369
-0.23198581 -0.078648828 0.055335283
0.23170213 -0.078623317 0.054862738
-0.23247355 -0.0056248531 0.061671257
0.23208411 -0.0055849105 0.060376525
-0.20803864 0.067738287 0.061963201
0.20775576 0.067735977 0.062273502
0.18271092 0.11657169 0.051415324
-0.18375109 0.14115287 0.064720869
0.18351462 0.14117762 0.066330075
-0.15870804 0.18978739 0.054245353
0.15838584 0.18973452 0.052521348
-0.15930501 0.21461177 0.065324187
-0.13456126 0.2632744 0.059684038
0.13425371 0.26324201 0.059082985
-0.10984644 0.31165907 0.052539468
0.1096606 0.31175718 0.053954959
-0.11012494 0.33660099 0.059775233
0.109869 0.33667389 0.060722947
-0.085477807 0.38486215 0.053065538
0.085231349 0.38481027 0.052503347
-0.085653558 0.40982211 0.058773279
0.085358076 0.40974385 0.057990432
-0.085829385 0.43487039 0.064483166
0.085486077 0.43476805 0.063533187
-0.061121628 0.45819235 0.054481387
0.060890961 0.45829508 0.055371642
-0.061253563 0.4832955 0.060194254
-0.03666934 0.48217207 0.051070929
0.036450949 0.48216751 0.05103457
0.060975596 0.48337868 0.06086874
-0.061385967 0.50848985 0.065927744
-0.036746468 0.50720108 0.056080341
-0.012295957 0.50654799 0.051089048
0.012077705 0.50645071 0.050346136
0.03648895 0.50718689 0.055971384
0.061060529 0.50854963 0.066385031
-0.036823839 0.53230953 0.061105967
-0.012332701 0.53158295 0.055862308
0.012077705 0.53148222 0.05513525
0.036526933 0.53228182 0.060905337
-0.036901455 0.55749774 0.066147089
-0.012369697 0.5566963 0.06066823
0.012077705 0.55658966 0.059939146
0.036565173 0.55745751 0.065872908
-0.012394565 0.58164114 0.063898444
0.012077705 0.58153701 0.063222766
-0.012409481 0.60642654 0.065836072
0.012077705 0.60632604 0.065214515
-0.23357104 0.018500954 0.07592833
0.23295772 0.018568955 0.072985649
-0.20934466 0.092195645 0.080813646
0.20878392 0.092195697 0.078968406
-0.18480015 0.16602492 0.081755638
0.18432593 0.16601622 0.081386089
0.15906928 0.21468857 0.06731832
-0.16015857 0.23982671 0.081164479
0.15976512 0.23988292 0.082383871
-0.13507472 0.28839892 0.070800781
0.1346532 0.2883164 0.069461942
-0.13551161 0.31357959 0.0802598
0.13509865 0.31363329 0.081035376
-0.110404 0.36165538 0.067025781
0.11007772 0.36169553 0.067501545
-0.11068435 0.38682455 0.07430923
0.11028735 0.38682455 0.07430923
-0.1109667 0.41211107 0.081644773
0.11049844 0.41206297 0.081164479
-0.086006403 0.46001095 0.070232153
0.085642897 0.46002167 0.070323825
-0.086184062 0.48524266 0.076001763
0.085800819 0.48538548 0.077162147
-0.086401634 0.51073289 0.083067894
-0.061518423 0.53377235 0.07166338
0.061145749 0.53380805 0.071920395
-0.061651789 0.55914921 0.077438474
0.06123127 0.55915451 0.07747519
-0.061733156 0.58426809 0.080961466
-0.036952209 0.58249462 0.069443703
0.036590122 0.58244395 0.069113612
0.061283521 0.58425385 0.080869079
-0.036983557 0.60733885 0.071479917
0.036605369 0.6072765 0.071094513
0.061317947 0.60921818 0.08310473
-0.037014663 0.63221163 0.073500276
-0.012424416 0.63124216 0.067776322
0.012077705 0.63114619 0.067208648
0.036620777 0.63214314 0.073096037
-0.037046093 0.65711921 0.075541735
-0.012439367 0.65608835 0.069718599
0.012077705 0.65599734 0.069205523
0.036636204 0.65704119 0.075100303
-0.037077565 0.68205887 0.077585936
-0.012454339 0.68096465 0.07166338
0.012077705 0.68088001 0.071204543
0.036651652 0.6819703 0.077106953
-0.037109073 0.7070303 0.079632521
-0.012469186 0.70586795 0.073592067
0.012077705 0.7057901 0.073188066
0.03666712 0.70693088 0.079115987
-0.037140343 0.73203015 0.081663251
-0.012484194 0.73080498 0.075541735
0.012077705 0.730735 0.075192213
0.036682602 0.73192292 0.081127763
-0.01249922 0.75577259 0.077493668
0.012077705 0.7557112 0.077198982
0.03669811 0.7569465 0.083141804
-0.012514264 0.78077072 0.079448104
0.012077705 0.78071904 0.079208255
-0.012529326 0.80579954 0.081404686
0.012077705 0.80575824 0.081219912
-0.037025418 0.85329407 0.074198842
-0.012433159 0.85203236 0.068912268
0.012077705 0.85191005 0.068399072
0.036626153 0.8531974 0.073794484
-0.037090618 0.87888879 0.078433633
-0.012492557 0.87844402 0.07662797
0.012077705 0.87838495 0.076388597
0.036659453 0.8788116 0.078120232
-0.012502908 0.90335584 0.07797277
0.012077705 0.90293467 0.076314807
0.036677204 0.90397906 0.080425978
-0.012502908 0.92793643 0.07797277
0.012077705 0.92750269 0.076314807
0.036677204 0.9285785 0.080425978
-0.012502908 0.95251703 0.077972889
0.012077705 0.9520753 0.076333284
0.036677204 0.95317805 0.080426097
-0.012502908 0.97709781 0.077972889
0.012077705 0.97664332 0.076333284
0.036677204 0.9777776 0.080425978
-0.25919369 -0.62297446 0.088420272
0.25937408 -0.62496376 0.097331405
-0.2595571 -0.5992384 0.092711568
-0.25900221 -0.5731824 0.086158752
0.25914165 -0.57487702 0.094312072
-0.25900221 -0.54853874 0.086158633
0.25914165 -0.5501706 0.094312072
-0.25900063 -0.52389151 0.086140156
0.25914165 -0.52546418 0.094312191
-0.25900063 -0.49924809 0.086140156
0.25914165 -0.50075793 0.094312191
-0.25900063 -0.47460461 0.086140037
0.25914165 -0.47605139 0.094312072
-0.25900063 -0.44996113 0.086140037
0.25914165 -0.45134503 0.094312191
-0.25900063 -0.42531765 0.086140037
0.25914165 -0.42663872 0.094312191
-0.25900063 -0.4006741 0.086140156
0.25914165 -0.4019323 0.094312191
-0.25900063 -0.37603059 0.086140037
0.25914165 -0.37722579 0.094311953
-0.25900063 -0.35138711 0.086140037
0.25914165 -0.35251942 0.094312072
-0.25900221 -0.32674608 0.086158633
0.25914165 -0.32781312 0.094312072
-0.25900221 -0.30210245 0.086158752
0.25914165 -0.30310673 0.094312191
-0.25900221 -0.27745879 0.086158633
0.25914165 -0.27840027 0.094312072
-0.25900221 -0.25281522 0.086158752
0.25914165 -0.25369385 0.094312072
-0.25900221 -0.22817165 0.086158872
0.25914165 -0.22898757 0.094312072
-0.25900221 -0.20352787 0.086158752
0.25914165 -0.20428118 0.094312191
-0.25900376 -0.17888585 0.086177111
0.25914165 -0.17957467 0.094312191
-0.2590524 -0.1542863 0.08675158
0.25917318 -0.15489987 0.094721913
-0.2343429 -0.031014666 0.085955024
0.23393968 -0.031061046 0.087159276
-0.23522872 0.04273437 0.097462058
-0.21064681 0.11694275 0.099609137
0.18514596 0.19109172 0.096604109
-0.18586053 0.19116479 0.098973989
-0.16108507 0.26535848 0.098357797
0.16046844 0.26531827 0.097611427
-0.13592111 0.33886027 0.089125514
0.13547938 0.33899891 0.090926886
-0.11124963 0.43751225 0.088995576
0.11071044 0.43741015 0.088049412
-0.1115346 0.46303239 0.09639895
0.11096926 0.46303904 0.096454978
0.085958995 0.51085615 0.084011316
-0.086628184 0.53637213 0.090425253
0.086118273 0.536439 0.090908289
-0.086855784 0.56212962 0.097816586
0.086278245 0.56213248 0.097835183
-0.061786927 0.60924804 0.083289862
-0.061840348 0.63426137 0.085602999
0.061352417 0.63421744 0.085343838
-0.061894275 0.6593141 0.08793807
0.061386932 0.65925169 0.087585807
-0.061947852 0.68440008 0.090258121
0.061421499 0.68432128 0.089830995
-0.062001944 0.70952582 0.092599988
0.061456114 0.70942581 0.092079282
-0.062056102 0.73468852 0.094945431
0.061490491 0.7345618 0.094312191
-0.06210991 0.75988418 0.097275496
-0.03717193 0.75706565 0.0837152
0.061525781 0.7597447 0.09660399
-0.037203565 0.7821334 0.085769773
0.036713921 0.78200954 0.085195661
-0.062164232 0.78512031 0.099627852
0.061568305 0.78506386 0.099366188
-0.037234951 0.80722898 0.087808371
0.03673118 0.80714631 0.08743751
-0.037266664 0.8323611 0.089868069
-0.012544409 0.83085901 0.083363771
0.012077705 0.83082908 0.083234191
0.036748458 0.83231831 0.08968246
-0.061830513 0.85591382 0.085177183
0.061346713 0.85586518 0.084973574
-0.061968021 0.88201666 0.09113133
0.061434653 0.88190687 0.090685248
-0.062096126 0.90810776 0.096678615
-0.037184753 0.90502608 0.084547877
0.0615298 0.90815514 0.096865058
-0.062096126 0.93283224 0.096678615
-0.037184753 0.92965746 0.084547877
0.0615298 0.93288124 0.096865296
-0.062096559 0.95756203 0.09669733
-0.037184753 0.95428854 0.084547758
0.0615298 0.95760721 0.096865177
-0.061974883 0.98082662 0.091428518
-0.037184753 0.97891968 0.084547758
0.061438944 0.98069787 0.090964079
-0.26016963 -0.13055223 0.099945426
0.25985467 -0.13080364 0.1035744
-0.26076904 -0.10623843 0.10702395
0.26033276 -0.10640853 0.10978532
0.23508346 0.042638805 0.10366797
0.21032463 0.1169764 0.10398638
-0.16202155 0.29116622 0.11573708
-0.1364381 0.36447462 0.10031915
0.13586247 0.36452213 0.10087991
-0.13695873 0.39026839 0.1115911
0.13624795 0.39020413 0.1108948
-0.11185692 0.4887864 0.1047734
0.11127622 0.48898962 0.10642362
-0.11229198 0.51505256 0.11607671
-0.086978897 0.58747852 0.10181499
0.086364977 0.58744401 0.10159063
-0.087069996 0.61272091 0.1047734
0.086428531 0.61265129 0.10434246
-0.087160684 0.63800687 0.10771859
0.086493053 0.6379081 0.10713661
-0.087252118 0.66334194 0.11068797
0.086557262 0.66320556 0.10991693
-0.087343134 0.68872058 0.113644
0.0866355 0.68865812 0.11330473
-0.062218204 0.81038952 0.10196459
0.061610904 0.81042701 0.10213315
-0.062272683 0.83569938 0.10432374
0.061653573 0.83583361 0.10490453
-0.087133512 0.86108255 0.10683632
0.086474851 0.86096615 0.10634851
-0.087384351 0.88789207 0.11498237
0.086667277 0.88781768 0.11468065
-0.087409332 0.91296357 0.11579382
-0.087409332 0.9378354 0.11579359
-0.087409332 0.96270716 0.11579359
0.26166409 -0.6066463 0.12707961
-0.26197261 -0.082200013 0.12123752
0.26108617 -0.082110323 0.11957216
-0.2619758 -0.057288133 0.12127531
0.26106432 -0.057196356 0.11928844
-0.18737513 0.21685357 0.12356806
0.18675643 0.21696609 0.12649059
0.16134487 0.29121849 0.11658633
-0.13748303 0.41624382 0.12294257
0.13664895 0.41608086 0.12131321
0.11158508 0.51510197 0.11645424
-0.11273084 0.54150641 0.12747896
0.11189646 0.54138011 0.12656665
-0.087434903 0.71414942 0.11662412
0.086726986 0.71427304 0.1172663
-0.087527424 0.73962909 0.11962891
0.086818703 0.7399509 0.1212374
-0.087665066 0.76545924 0.1240989
0.086910635 0.765692 0.12521839
-0.087803088 0.79136115 0.12858164
0.087002799 0.79149657 0.12920928
0.086730473 0.91337615 0.11741745
0.086730473 0.93826044 0.11741745
0.086730473 0.96314454 0.11741745
-0.087551303 0.98885667 0.1204046
0.086771064 0.98851597 0.11917496
-0.23899193 0.067088649 0.14634764
0.23758039 0.0671397 0.13970804
-0.21339844 0.14230146 0.13932514
0.21232541 0.14225748 0.13647485
-0.16348991 0.31792536 0.14298606
0.16254118 0.31789073 0.14248741
-0.13829634 0.44306847 0.14055097
0.13745287 0.44324604 0.14219964
-0.11317208 0.56814462 0.13894224
0.11237016 0.56858474 0.14195025
-0.1135534 0.59472001 0.14884937
-0.087940916 0.8173306 0.13305736
0.087095194 0.81736451 0.13320994
-0.088079706 0.84337622 0.13756478
0.087187812 0.84329671 0.1372205
0.11261759 0.59489489 0.14998603
-0.11396092 0.62155789 0.1594373
0.11286625 0.62133545 0.1580615
-0.11437036 0.64856702 0.17007446
-0.11483008 0.85364234 0.1820184
0.11368266 0.85423285 0.18457508
0 0 0 1 0 0 0 1 0 0 0 1 0 0 0 0 0 1075 1 0 0
