ply
format ascii 1.0
comment PCL generated
element vertex 707
property float x
property float y
property float z
element camera 1
property float view_px
property float view_py
property float view_pz
property float x_axisx
property float x_axisy
property float x_axisz
property float y_axisx
property float y_axisy
property float y_axisz
property float z_axisx
property float z_axisy
property float z_axisz
property float focal
property float scalex
property float scaley
property float centerx
property float centery
property int viewportx
property int viewporty
property float k1
property float k2
end_header
0.4241223 -0.012522297 -0.62296939
0.42413285 0.0080640074 -0.62289715
0.44661036 -0.074565366 -0.61061424
0.44570172 -0.053793505 -0.61651587
0.42459986 -0.03313341 -0.61970425
0.4456943 -0.033157531 -0.61656433
0.44568869 -0.012522455 -0.61660045
0.44568685 0.008112438 -0.61661267
0.42465457 0.028705338 -0.61933035
0.4456943 0.028747907 -0.61656415
0.44573152 0.049388759 -0.61632252
0.44674873 0.070229158 -0.60971534
0.46925166 -0.095619686 -0.59848762
0.49180111 -0.095942348 -0.58800626
0.46862456 -0.074755751 -0.60236698
0.49180111 -0.075087383 -0.58800626
0.42692664 -0.053989299 -0.60379595
0.4686226 -0.054011069 -0.60237926
0.491799 -0.05423215 -0.58801848
0.40777797 -0.033343904 -0.59235865
0.46862653 -0.033266947 -0.60235476
0.49180111 -0.033377342 -0.58800626
0.40752739 -0.012522376 -0.59416717
0.46861863 -0.012522376 -0.60240352
0.49179694 -0.012522402 -0.58803076
0.40732989 0.0082741603 -0.5955925
0.46861863 0.0082217474 -0.60240364
0.49179482 0.0083323531 -0.58804309
0.40820661 0.029168317 -0.58926535
0.46862653 0.028966689 -0.60235476
0.49180323 0.029187767 -0.58799368
0.42685166 0.049666129 -0.60430837
0.46862456 0.049711026 -0.60236698
0.49180111 0.050042622 -0.58800626
0.46862456 0.070455432 -0.60236692
0.49180111 0.070897698 -0.58800614
0.46937454 0.091378413 -0.59772766
0.49180111 0.091752663 -0.58800614
0.45221242 -0.096366689 -0.57422781
0.51522601 -0.096389361 -0.57349145
0.43049186 -0.075285733 -0.57942027
0.51522601 -0.075422652 -0.57349139
0.40993968 -0.054405563 -0.57675797
0.51522386 -0.054455705 -0.57350391
0.51522601 -0.033489056 -0.57349145
0.5152216 -0.012522323 -0.57351649
0.5152216 0.0084441192 -0.57351631
0.51522601 0.029411035 -0.57349128
0.40987238 0.050291255 -0.57724369
0.51522601 0.050377846 -0.57349145
0.43049368 0.071162343 -0.57940781
0.51522601 0.071344577 -0.57349139
0.45228735 0.092301652 -0.57374102
0.51522386 0.092310779 -0.57350385
0.4950746 -0.11754138 -0.56867713
0.51673138 -0.1176834 -0.56498903
0.53890097 -0.096840754 -0.55883294
0.5389033 -0.075761408 -0.55882037
0.53890097 -0.05468154 -0.55883306
0.39067471 -0.033562634 -0.56394613
0.5389033 -0.033602059 -0.55882049
0.39032465 -0.012522376 -0.56662107
0.53889865 -0.012522323 -0.55884558
0.3901343 0.0084860008 -0.56807548
0.53889865 0.0085571259 -0.55884558
0.39109468 0.029607465 -0.56073689
0.5389033 0.029636944 -0.55882025
0.5389033 0.050716735 -0.55882037
0.5389033 0.071796261 -0.55882037
0.53890097 0.092875443 -0.55883294
0.51735938 0.11383457 -0.56144238
0.43529186 -0.097217381 -0.54660255
0.56283206 -0.097296923 -0.54401582
0.41337869 -0.075920366 -0.55193907
0.562837 -0.076103911 -0.54399037
0.3926115 -0.0548307 -0.54914635
0.56283456 -0.054909848 -0.54400325
0.3730534 -0.033776402 -0.53618789
0.562837 -0.033716284 -0.54399025
0.56282967 -0.012522428 -0.54402858
0.37268728 -0.012522323 -0.53916061
0.37258643 0.0087023545 -0.53997958
0.56283206 0.008671267 -0.54401582
0.3730945 0.02999053 -0.53585434
0.562837 0.02986533 -0.54399037
0.39254665 0.05092863 -0.54964185
0.562837 0.051059186 -0.54399037
0.4133822 0.072008997 -0.55191362
0.56283456 0.072252639 -0.54400313
0.43536448 0.093365289 -0.54610598
0.5628984 0.093459107 -0.54367155
0.49943694 0.11469023 -0.54291856
0.41802624 -0.098085776 -0.51839828
0.39574829 -0.076538309 -0.525177
0.58703136 -0.076450162 -0.52899879
0.37434912 -0.05519218 -0.52566826
0.5870288 -0.055140659 -0.52901185
0.58703136 -0.033831716 -0.52899879
0.58702618 -0.012522428 -0.52902454
0.58702618 0.0087867007 -0.52902466
0.58703136 0.030096093 -0.52899885
0.37446538 0.051503949 -0.52472425
0.5870288 0.051404983 -0.52901173
0.39584306 0.072854519 -0.52445281
0.58706486 0.07271979 -0.52883136
0.41809466 0.094450831 -0.5179044
0.48258138 -0.11956769 -0.51603162
0.3772648 -0.077073731 -0.50199568
0.35533983 -0.055502273 -0.50552785
0.35448053 -0.033955067 -0.51296961
0.61171561 -0.033956625 -0.51276076
0.3541345 -0.012522428 -0.51596642
0.61148524 -0.012522376 -0.5138694
0.3541345 0.0088871717 -0.51596642
0.61148524 0.0089034289 -0.51386929
0.35447752 0.030342428 -0.51299548
0.61175358 0.030348895 -0.51257801
0.35532016 0.051943466 -0.5056982
0.37725183 0.073542871 -0.50210083
0.40052268 -0.099000491 -0.48869395
0.40051398 0.095572665 -0.48876023
0.33775249 -0.012522323 -0.46931636
0.33775249 0.0092462488 -0.46931636
0.42587602 -0.12165713 -0.46174741
0.44876823 -0.12193748 -0.4544642
0.36197579 -0.078319363 -0.44805884
0.34010825 -0.05639632 -0.44745767
0.33854198 -0.03434753 -0.46199083
0.33853471 0.031126773 -0.46205842
0.34009647 0.053285927 -0.44756687
0.36195374 0.075200975 -0.44825006
0.42580104 0.11841427 -0.46228838
0.4487344 0.11876498 -0.45469522
0.31933016 -0.034548473 -0.43587768
0.31859037 -0.012522428 -0.44326985
0.31859037 0.0094467681 -0.44326997
0.31932327 0.031528711 -0.43594646
0.38645846 -0.10088925 -0.42735243
0.34279418 -0.078908756 -0.42253554
0.32078511 -0.056798421 -0.42133915
0.29907328 -0.012522323 -0.4167254
0.29907328 0.0096511412 -0.4167254
0.32077393 0.053889021 -0.4214505
0.3427732 0.075986847 -0.42273009
0.38640386 0.097919151 -0.42779577
0.36720729 -0.10164672 -0.40275276
0.32326433 -0.079508521 -0.39656508
0.30110443 -0.057208009 -0.39473748
0.29976115 -0.034753267 -0.40927899
0.29975468 0.031938195 -0.40934908
0.30109265 0.054503031 -0.39486516
0.32324451 0.076786391 -0.39676309
0.36715683 0.098866165 -0.40318954
0.3476232 -0.10241729 -0.37772751
0.27982491 -0.034961917 -0.38218105
0.27918971 -0.012522428 -0.38968229
0.27918971 0.0098592602 -0.38968241
0.27981886 0.032355383 -0.38225245
0.34757531 0.099829175 -0.37817204
0.30337977 -0.08011958 -0.37010646
0.28105628 -0.057625249 -0.36763906
0.25892922 -0.012522428 -0.36212671
0.25892922 0.010071445 -0.36212683
0.28104529 0.05512882 -0.36776912
0.30336112 0.077600926 -0.37030828
0.32769752 -0.10320131 -0.35226572
0.28313029 -0.080742195 -0.34314632
0.26062912 -0.058049932 -0.34004486
0.25951096 -0.035174415 -0.35456955
0.25950649 0.032780699 -0.35462785
0.26062006 0.055766322 -0.3401624
0.28311166 0.078430504 -0.34336638
0.32765228 0.10080881 -0.35271811
0.30742124 -0.10399918 -0.32635605
0.23880854 -0.035391033 -0.32643044
0.23828003 -0.012522481 -0.3340584
0.23828003 0.010287534 -0.3340584
0.23880441 0.033213936 -0.32648969
0.30738011 0.10180634 -0.32680142
0.26250321 -0.081376113 -0.31569958
0.23981348 -0.05848296 -0.31192541
0.217233 -0.012522428 -0.30543327
0.217233 0.010507848 -0.30543327
0.23980621 0.05641602 -0.31203032
0.26248479 0.079275124 -0.31593883
0.28678498 -0.10481117 -0.29998636
0.24149027 -0.08202216 -0.28772295
0.21770631 -0.035611823 -0.29774749
0.2177026 0.033655509 -0.29780817
0.24147232 0.080135942 -0.28798187
0.28674912 0.10282224 -0.30040967
0.26577792 -0.10563722 -0.27315974
0.21859907 -0.058924429 -0.28325105
0.19577534 -0.012522376 -0.27624953
0.19577534 0.010732541 -0.27624941
0.21859156 0.057077907 -0.28337336
0.26574832 0.1038563 -0.27354455
0.22007827 -0.082680039 -0.25923169
0.19697236 -0.059374183 -0.25403607
0.19619264 -0.035836883 -0.26850569
0.19619015 0.034105957 -0.26855183
0.19696647 0.057752781 -0.25414503
0.22006299 0.081013605 -0.25948012
0.2443914 -0.10647809 -0.24584877
0.17420955 -0.03605878 -0.23967922
0.17389493 -0.012522428 -0.24649072
0.17389493 0.010961616 -0.24649084
0.1742081 0.034549959 -0.23971057
0.24436752 0.10490898 -0.24619317
0.22261505 -0.10733447 -0.21803951
0.19824931 -0.083347417 -0.23033845
0.17477487 -0.059783667 -0.22743952
0.15135455 -0.012522376 -0.22197509
0.15135455 0.01115026 -0.22197509
0.17477047 0.058367372 -0.22753453
0.19823739 0.081904091 -0.23055995
0.22259638 0.10598098 -0.21834266
0.19993792 -0.10792068 -0.19900155
0.17565179 -0.083852857 -0.20845366
0.15205507 -0.060148127 -0.20377517
0.15160866 -0.036245946 -0.21537316
0.15160805 0.0349245 -0.21538925
0.15205134 0.058913879 -0.20387185
0.17564067 0.082577385 -0.20869446
0.19992749 0.10671793 -0.19919527
0.15278149 -0.084396727 -0.18490207
0.12864555 -0.036436014 -0.1906774
0.12844746 -0.012522323 -0.19711089
0.12844746 0.011341752 -0.19711077
0.12864555 0.035304852 -0.1906774
0.15277584 0.083305463 -0.1850487
0.24983241 -0.13298987 -0.16731453
0.17710185 -0.10859634 -0.17705882
0.12898174 -0.060517766 -0.1797595
0.10531144 -0.036629252 -0.16558266
0.10516691 -0.012522428 -0.17184103
0.10516691 0.011536308 -0.17184103
0.10531183 0.03569153 -0.16556633
0.12897922 0.059468828 -0.17984128
0.17709582 0.10756498 -0.17718995
0.24980614 0.13202101 -0.16769373
0.20282251 -0.13383064 -0.14547074
0.2264092 -0.13340876 -0.1564306
0.27475736 -0.13340564 -0.15651357
0.15395471 -0.10929343 -0.15442085
0.12957196 -0.084958062 -0.16059136
0.10554773 -0.060893573 -0.15535152
0.081503719 -0.012522428 -0.14615595
0.081503719 0.011733977 -0.14615595
0.1055458 0.060032383 -0.15543449
0.12956788 0.08405444 -0.16072381
0.15394959 0.10843615 -0.15455377
0.20279008 0.1330196 -0.14607227
0.22637649 0.13251668 -0.1569618
0.27469346 0.13249901 -0.15734315
0.17932919 -0.13447094 -0.12883604
0.13046974 -0.11000119 -0.13143516
0.10599737 -0.085528798 -0.13588095
0.081743866 -0.061275348 -0.13055801
0.081597522 -0.036825705 -0.14006269
0.08159779 0.036084443 -0.140046
0.081742562 0.060604967 -0.13064241
0.10599427 0.084815346 -0.13601553
0.13046506 0.1093202 -0.13158691
0.17931512 0.13380182 -0.12914002
0.082048386 -0.086108506 -0.11077821
0.057494063 -0.037025433 -0.11410618
0.057448346 -0.012522428 -0.12004495
0.057448346 0.011934973 -0.12004519
0.057494063 0.036483735 -0.11410606
0.082046285 0.08558818 -0.11091483
0.15568714 0.13471305 -0.10941088
0.15569636 -0.13522778 -0.10917151
0.1066387 -0.1107194 -0.1081109
0.05756633 -0.061673164 -0.1047188
0.032990973 -0.012522376 -0.093497872
0.032990973 0.012139237 -0.093497872
0.057566065 0.061202884 -0.10475302
0.10663475 0.11021718 -0.10828173
0.13176782 -0.1359935 -0.08927846
0.082453892 -0.11144827 -0.084440112
0.057715885 -0.086697131 -0.085290909
0.032990973 -0.062081225 -0.078210354
0.032990973 -0.037228435 -0.087736607
0.032990973 0.036889583 -0.087754011
0.032990973 0.06181547 -0.078227758
0.057714947 0.086373426 -0.085412264
0.082450956 0.11112751 -0.084631205
0.13176143 0.13563332 -0.089486241
0.10753879 -0.13676886 -0.069135785
0.057907511 -0.11218848 -0.060397744
0.032990973 -0.087295681 -0.059374928
0.0080785062 -0.037434917 -0.060926557
0.0081214365 -0.012522376 -0.066503525
0.0081214365 0.012347147 -0.066503406
0.0080786422 0.037302233 -0.0609442
0.032990973 0.087171488 -0.059498429
0.057905748 0.11205152 -0.060626864
0.10753393 0.13656354 -0.06934607
0.083003283 -0.1375532 -0.048756003
0.0080039389 -0.062496461 -0.051240087
-0.017170768 -0.012522428 -0.039050102
-0.017170768 0.012558486 -0.039050221
0.0080042128 0.062437929 -0.051275611
0.083000004 0.13750459 -0.04896915
0.15869996 -0.16337317 -0.031135917
0.18424991 -0.16378129 -0.022299051
0.058172766 -0.13843134 -0.025940299
0.032990973 -0.11293946 -0.036010742
0.0078638159 -0.087903887 -0.033037305
-0.017397296 -0.062910698 -0.024336934
-0.017253682 -0.037644725 -0.033664823
-0.017253131 0.037721634 -0.033700585
-0.017396741 0.063059285 -0.024372935
0.0078647807 0.087982379 -0.033162832
0.032990973 0.11298925 -0.036261201
0.058171656 0.13856183 -0.026084304
0.15868337 0.16344702 -0.03156662
0.18420741 0.16389668 -0.023218989
0.10896626 -0.164473 -0.007324338
0.13392371 -0.16392148 -0.019264221
0.0076978002 -0.11369514 -0.01147151
-0.017633159 -0.088458627 -0.0090172291
-0.042916242 -0.037824817 -0.010272026
-0.042811852 -0.012522376 -0.014792562
-0.042811852 0.01274523 -0.014792562
-0.042914983 0.038081557 -0.010326505
-0.017631758 0.088723123 -0.009108305
0.0076996181 0.11393431 -0.011707544
0.13390924 0.16408463 -0.019734383
0.10895617 0.16472962 -0.0077613592
0.083863646 -0.16514044 0.0071262121
0.032990973 -0.13939029 -0.001029253
-0.017920766 -0.1143459 0.0096635818
-0.043449368 -0.08896286 0.012813091
-0.043120835 -0.063263647 -0.0014132261
-0.068929479 -0.038002588 0.012812972
-0.06879966 -0.012522481 0.0085966587
-0.068800211 0.012925321 0.0086150169
-0.068927214 0.038436733 0.012739301
-0.043119144 0.063587688 -0.0014864206
-0.043447662 0.089395836 0.012739301
-0.017918784 0.11475201 0.0095347166
0.032990973 0.13971226 -0.0011754036
0.083860256 0.16552004 0.0069056749
0.05857826 -0.16604617 0.026734948
0.0074635129 -0.14015974 0.018963575
-0.043886546 -0.11502584 0.031743407
-0.069206685 -0.063621193 0.0218153
-0.095161185 -0.012522481 0.032340169
-0.095161185 0.013108002 0.03234005
-0.069204405 0.064124219 0.02174139
-0.043883961 0.11560233 0.03163147
0.0074646529 0.14063554 0.018815279
0.058576826 0.16657853 0.026548743
0.032990973 -0.16673535 0.04165566
-0.018366862 -0.14091712 0.038638353
-0.069611236 -0.089474052 0.034953713
-0.095662877 -0.063983969 0.045373917
-0.095309988 -0.038182631 0.036206007
-0.095307827 0.038797177 0.03614974
-0.095659241 0.064667664 0.04527986
-0.069608942 0.09007746 0.034878969
-0.018364269 0.14154339 0.038469672
0.032990973 0.16738251 0.041468143
0.0071730763 -0.1674298 0.056692123
-0.044505138 -0.14168257 0.058529019
-0.070201412 -0.1157147 0.054119945
-0.096126199 -0.089992739 0.057411551
-0.12206604 -0.038365252 0.059931874
-0.12190416 -0.012522376 0.05642724
-0.12190416 0.013293529 0.05642724
-0.12206429 0.039162643 0.059893966
-0.096123278 0.090768963 0.057335734
-0.070198491 0.11646447 0.054025412
-0.044501197 0.14246196 0.058358431
0.0071743876 0.16819362 0.056521893
-0.018878706 -0.16813149 0.071883678
-0.070957005 -0.14245735 0.078658462
-0.096872434 -0.11641306 0.076799512
-0.1230001 -0.090517975 0.080154777
-0.12249643 -0.064351596 0.069250107
-0.14920673 -0.038550731 0.084017158
-0.14903688 -0.012522376 0.080865145
-0.14903688 0.013481647 0.080865264
-0.14920363 0.039533071 0.08395946
-0.12249291 0.065219395 0.069173694
-0.12299655 0.091469169 0.080078125
-0.096870229 0.11733881 0.076741934
-0.070951685 0.14339155 0.078485966
-0.018876061 0.1690122 0.071711898
0.032990973 -0.19546542 0.097847462
0.059083946 -0.19517326 0.092425466
0.085092813 -0.19487886 0.086962938
-0.045238864 -0.16898197 0.090300083
-0.097727373 -0.14324075 0.099011421
-0.12390871 -0.11712219 0.099826813
-0.15024088 -0.091050446 0.1032089
-0.14971505 -0.064724028 0.093450308
-0.14971296 0.065779358 0.093411684
-0.15023671 0.092179142 0.10313094
-0.12390512 0.11822428 0.099749207
-0.097721398 0.1443325 0.098856211
-0.045235742 0.17000657 0.090165138
0.032990973 0.19653383 0.097498059
0.059080821 0.19619638 0.092019558
0.08508718 0.19586246 0.086596847
0.0067968555 -0.19588128 0.10556471
0.11157691 -0.19588962 0.10572064
-0.071947724 -0.16993046 0.11083317
-0.12482797 -0.14403819 0.11972904
-0.17731456 -0.065098777 0.11778522
-0.17673849 -0.038738582 0.1084311
-0.17656796 -0.01252227 0.10566199
-0.17656796 0.013672296 0.10566199
-0.17673728 0.039909668 0.10841143
-0.17731336 0.066341698 0.11776578
-0.12482432 0.14529292 0.11965072
-0.071942911 0.17111194 0.110677
-0.019635007 0.19798154 0.12100661
0.0067983568 0.19701859 0.10536981
0.11156072 0.19699699 0.10501909
-0.04631703 -0.19757442 0.13698637
-0.019638035 -0.19672391 0.12120318
-0.098980829 -0.17088856 0.13157737
-0.1513155 -0.11784039 0.12315106
-0.17788531 -0.091601066 0.12705302
-0.20457472 -0.038918622 0.1318146
-0.20441718 -0.012522481 0.12954092
-0.20441718 0.013856348 0.12954092
-0.20457335 0.040269695 0.13179493
-0.17788289 0.092914447 0.12701356
-0.15131128 0.11912216 0.12307227
-0.098975509 0.1722306 0.13143873
-0.046312448 0.19895342 0.13678801
-0.073243529 -0.19843279 0.15291572
-0.12632656 -0.17183991 0.15217483
-0.15236844 -0.14492196 0.14269114
-0.17901401 -0.11852487 0.14538109
-0.20587163 -0.092143245 0.15053403
-0.20522071 -0.065458275 0.14113867
-0.23278661 -0.039100245 0.15540123
-0.23264153 -0.012522481 0.15351665
-0.23264153 0.014040926 0.15351677
-0.23278354 0.040632524 0.15536106
-0.20522071 0.066881552 0.14113879
-0.20586886 0.093637615 0.15049386
-0.17900667 0.11997601 0.14526153
-0.15236416 0.14635332 0.1426115
-0.12632102 0.17334157 0.15205479
-0.07323736 0.19993433 0.15271544
-0.10040076 -0.19927078 0.16846812
-0.15393187 -0.1727419 0.17170477
-0.18022195 -0.14578046 0.16499543
-0.20705956 -0.11921162 0.16768014
-0.23351277 -0.06582316 0.16483414
-0.23351122 0.067428276 0.16481388
-0.20704976 0.12083346 0.16753864
-0.18021449 0.14738162 0.16487443
-0.15392423 0.17439283 0.17156291
-0.10039298 0.20089194 0.16826606
-0.020669576 -0.22716446 0.18820381
0.0062045287 -0.226814 0.18251014
0.032990973 -0.22694321 0.18461001
-0.12780678 -0.20011979 0.18422258
-0.18185282 -0.1736553 0.19147766
-0.20843901 -0.14665015 0.18759084
-0.23546763 -0.11990587 0.19022882
-0.23424287 -0.092692547 0.17431867
-0.26219746 -0.066192955 0.18885815
-0.26138759 -0.039284088 0.17929411
-0.26126367 -0.012522481 0.17783058
-0.26126367 0.014227986 0.17783046
-0.26138413 0.041000307 0.17925346
-0.26219401 0.06798254 0.18881738
-0.23424132 0.094370604 0.17429841
-0.23545976 0.12170289 0.19012654
-0.20842768 0.14842333 0.18742728
-0.18184274 0.17545708 0.19131374
-0.12780114 0.20186694 0.18410015
-0.020662338 0.22891758 0.18773401
0.0062087644 0.22851759 0.18196011
0.032990973 0.22862902 0.18357003
-0.074784592 -0.22807348 0.20296323
-0.047628459 -0.22750762 0.19377279
0.059967436 -0.22833401 0.20719445
-0.1556785 -0.20119186 0.20411801
0.1409051 -0.20137216 0.20746303
-0.26308843 -0.093271308 0.19938004
-0.26308495 0.095141485 0.19933891
-0.15567072 0.20309095 0.20397389
0.14083005 0.20315577 0.20502603
-0.074778885 0.22995982 0.20277774
-0.047620881 0.22931308 0.19344461
0.05996187 0.23021559 0.20647132
-0.10229181 -0.22897489 0.2175988
-0.1838719 -0.20227747 0.22426331
-0.21009392 -0.17457898 0.21147704
-0.23702045 -0.14752808 0.21040022
-0.26491305 -0.12085108 0.22092783
-0.29256958 -0.0396524 0.2271452
-0.29252711 -0.012522323 0.2266854
-0.29252711 0.014604006 0.2266854
-0.29256764 0.04173746 0.22712433
-0.2648831 0.12287487 0.22057378
-0.23701088 0.14947876 0.21027601
-0.21007955 0.17653246 0.21126986
-0.1838616 0.20433024 0.2240963
-0.10228379 0.23097228 0.21739089
-0.13003001 -0.2298837 0.23235714
-0.29350087 -0.09414538 0.23722696
-0.29294842 -0.066845655 0.23124635
-0.29294649 0.068962067 0.23122549
-0.29349506 0.096306235 0.2371639
-0.1300213 0.23199584 0.23216832
-0.15800442 -0.23080289 0.24728227
-0.24081002 -0.17680307 0.25962842
-0.26738295 -0.14905602 0.25009596
-0.29529321 -0.12195048 0.25662935
-0.29523823 0.1242397 0.25603437
-0.26737759 0.15131484 0.25003242
-0.24080674 0.17913593 0.25958574
-0.15799417 0.23302989 0.24709177
-0.10465093 -0.26027787 0.27889097
-0.076994821 -0.25999036 0.27474248
-0.0494023 -0.25970227 0.27058256
-0.022081036 -0.26034647 0.27988088
-0.21450533 -0.20501956 0.27515054
-0.32448864 -0.095017761 0.27500021
-0.32378951 -0.067411855 0.26801395
-0.32333419 -0.039932095 0.26346421
-0.32327232 -0.012522428 0.26284552
-0.32327232 0.014882326 0.26284575
-0.32333419 0.042296901 0.26346421
-0.32378739 0.069811173 0.26799262
-0.32448435 0.097469971 0.27495718
-0.21450235 0.20747167 0.2751075
-0.10463852 0.26273653 0.27856815
-0.076984912 0.26241732 0.2744205
-0.049393889 0.26209387 0.27021837
-0.022071425 0.26278955 0.27925658
-0.13262078 -0.26093996 0.28844893
-0.18814494 -0.23365831 0.2936486
-0.24275579 -0.20554516 0.28490472
-0.2712566 -0.17847563 0.29584134
-0.29817861 -0.15050974 0.28786492
-0.29817262 0.15305939 0.28780007
-0.2712529 0.18108724 0.29579806
-0.24273251 0.20805643 0.2846024
-0.18813692 0.23624648 0.29351854
-0.13259482 0.26345384 0.28788674
0.0052773133 -0.26194543 0.30295897
-0.3559356 -0.068083398 0.31163776
-0.35511312 -0.04024414 0.30400598
-0.35502142 -0.012522376 0.30315506
-0.35502142 0.015192792 0.30315506
-0.35510838 0.042920254 0.30396223
-0.35593089 0.070818104 0.31159413
0.0052815136 0.26457229 0.30241358
-0.16193514 -0.26314166 0.32022691
-0.21829061 -0.23588382 0.32978642
-0.32869765 -0.12381132 0.31705892
-0.35737687 -0.096172579 0.32501137
-0.35736975 0.099009149 0.32494497
-0.32869324 0.12658693 0.31701505
-0.33034384 0.15517068 0.33350909
-0.21828295 0.23875152 0.32967579
-0.16192682 0.26593167 0.32007277
-0.27592963 -0.2091082 0.35102725
-0.30264723 -0.18034153 0.3362391
-0.3303594 -0.15227251 0.33366406
-0.38759568 -0.040561572 0.34523594
-0.38734832 -0.012522481 0.34309423
-0.38734832 0.015500141 0.34309423
-0.38758793 0.043554701 0.34516907
-0.30264109 0.18326308 0.33617258
-0.27592394 0.21214288 0.35096014
-0.19201557 -0.26565471 0.35649991
-0.3602362 -0.12487314 0.35154259
-0.3896316 -0.068872176 0.36286795
-0.38962382 0.072000526 0.36280036
-0.36022171 0.12791049 0.35140812
-0.19200726 0.26872543 0.35636544
-0.24933816 -0.23838574 0.37041223
-0.307255 -0.21099915 0.38611937
-0.3345291 -0.1821471 0.37533045
-0.39168739 -0.097458147 0.38067162
-0.39168215 0.10072368 0.38062596
-0.33450186 0.18535839 0.37505805
-0.30722967 0.21429123 0.3858453
-0.24932946 0.24156608 0.3702991
-0.36445776 -0.1544683 0.39071369
-0.42261302 -0.040997766 0.40189254
-0.42229566 -0.012522428 0.39931571
-0.42229566 0.015933061 0.39931571
-0.42260453 0.044426925 0.40182352
-0.36444297 0.15780631 0.39057624
-0.22411363 -0.26962712 0.41383457
-0.28096768 -0.24085599 0.41052389
-0.39502764 -0.12666066 0.40959895
-0.424853 -0.069752842 0.42007875
-0.42484441 0.073321715 0.4200089
-0.3950116 0.13014507 0.40946007
-0.28091675 0.24431117 0.40992236
-0.22407351 0.27310476 0.41325545
-0.3694804 -0.18501016 0.43731797
-0.42711219 -0.098791629 0.43842089
-0.42710644 0.10250191 0.43837404
-0.36945003 0.18869826 0.43703616
-0.34184659 -0.21435815 0.44845104
-0.39970207 -0.15675345 0.45008075
-0.45833936 -0.012522323 0.45730114
-0.45833936 0.016379334 0.45730138
-0.39968842 0.16054928 0.4499625
-0.3418135 0.21812658 0.44812059
-0.43095589 -0.12850913 0.4696281
-0.45873705 -0.04144752 0.46033967
-0.45872769 0.045326911 0.46026838
-0.43093827 0.13245545 0.46948493
-0.31615981 -0.24528959 0.48251712
-0.46118981 -0.070661329 0.47908247
-0.46118042 0.074684344 0.47901046
-0.31610432 0.24929903 0.48191607
-0.40563181 -0.18797161 0.50143349
-0.46366721 -0.10016803 0.49801338
-0.46365455 0.10433529 0.49791634
-0.40560099 0.19215377 0.5011667
-0.26006863 0.28053716 0.50980437
-0.26023954 -0.27642998 0.512025
-0.37763175 -0.21783376 0.51295316
-0.43611169 -0.15911698 0.51148784
-0.4960039 -0.041911107 0.5205406
-0.49551502 -0.012522323 0.51701224
-0.49551502 0.016839014 0.51701224
-0.4959971 0.046254084 0.52049172
-0.43608764 0.16338216 0.51129282
-0.37760016 0.22210114 0.51265967
-0.46807346 -0.13042001 0.53168309
-0.49869195 -0.071598269 0.53994
-0.49867478 0.076088659 0.53981602
-0.46804443 0.13484095 0.53146112
-0.35274819 -0.24990039 0.55738628
-0.50140047 -0.10158771 0.55948746
-0.5013901 0.10622896 0.55941236
-0.35268563 0.25448433 0.55676138
-0.41469145 -0.22144082 0.57989275
-0.44307414 -0.19104676 0.56801593
-0.47373781 -0.16156033 0.57496679
-0.53389221 -0.012522534 0.57865345
-0.53389221 0.017313419 0.57865345
-0.47370812 0.16631266 0.57473958
-0.44304004 0.1957411 0.56773937
-0.41465935 0.22622436 0.57961452
-0.50642735 -0.13239323 0.59576571
-0.53448433 -0.042389631 0.58270204
-0.53448063 0.047211446 0.58267677
-0.50639915 0.13730825 0.59556186
-0.53741139 -0.072564758 0.60271442
-0.53740764 0.077540591 0.60268867
-0.54037255 -0.10305353 0.62295997
-0.5403688 0.10818496 0.62293398
-0.30097649 -0.28576863 0.64681661
-0.39082095 -0.25470063 0.63533342
-0.45307669 -0.22517711 0.64922631
-0.48185244 -0.19423194 0.63697374
-0.51262856 -0.16408336 0.64051902
-0.5742588 -0.042884938 0.64705241
-0.57355434 -0.012522428 0.64247644
-0.57355434 0.017804926 0.64247668
-0.57425481 0.048202164 0.64702618
-0.51260686 0.16934364 0.64036238
-0.48181155 0.19945511 0.63666093
-0.45303795 0.23049197 0.64891183
-0.39075366 0.25988477 0.63470924
-0.3007727 0.29089916 0.64441025
-0.54608315 -0.13443282 0.66200387
-0.57743508 -0.073565088 0.66768301
-0.57744735 0.079043299 0.6677624
-0.54605615 0.13985837 0.6618191
-0.58065712 -0.10456954 0.68861043
-0.5806489 0.11020557 0.68855703
-0.43046221 -0.25969753 0.71647155
-0.49285623 -0.22904783 0.72105753
-0.52202082 -0.1975264 0.70830166
-0.55285478 -0.16669233 0.7083019
-0.6153968 -0.043397874 0.71370852
-0.61455774 -0.012522428 0.70851767
-0.61455333 0.018313007 0.70849073
-0.61537933 0.049227193 0.71360028
-0.55282325 0.1724714 0.70808589
-0.52196097 0.20329227 0.70786989
-0.49280998 0.23491332 0.72070444
-0.43038711 0.26550439 0.71582115
-0.5871076 -0.13654222 0.73050749
-0.61894315 -0.07461144 0.73564589
-0.61893433 0.080609664 0.73559129
-0.58707398 0.14249389 0.73028934
-0.62269413 -0.10619164 0.75884902
-0.62268966 0.11236931 0.75882113
-0.56489575 -0.20132881 0.79062617
-0.59464949 -0.16943267 0.77949369
-0.59463656 0.17576596 0.77940977
-0.56487519 0.20774412 0.7904855
-0.47177377 -0.26490474 0.80102789
-0.53604263 -0.23381323 0.80949581
-0.53601116 0.2403674 0.80926859
-0.47169027 0.27136078 0.80035007
0 0 0 1 0 0 0 1 0 0 0 1 0 0 0 0 0 707 1 0 0
