ply
format ascii 1.0
comment PCL generated
element vertex 698
property float x
property float y
property float z
element camera 1
property float view_px
property float view_py
property float view_pz
property float x_axisx
property float x_axisy
property float x_axisz
property float y_axisx
property float y_axisy
property float y_axisz
property float z_axisx
property float z_axisy
property float z_axisz
property float focal
property float scalex
property float scaley
property float centerx
property float centery
property int viewportx
property int viewporty
property float k1
property float k2
end_header
0.081505239 -0.039756149 -0.26124752
0.081425861 -0.024248889 -0.26227862
0.081425861 -0.0087574832 -0.26227874
0.081425861 0.0067339418 -0.26227856
0.081425861 0.022225406 -0.26227862
0.081505969 0.037740897 -0.26123816
0.11428928 -0.1026464 -0.24192077
0.097979069 -0.086697266 -0.24973935
0.1142884 -0.086997807 -0.24193037
0.083084315 -0.071386516 -0.24073464
0.097774476 -0.071034916 -0.2521556
0.1142884 -0.071349762 -0.24193037
0.082227722 -0.05547234 -0.25186229
0.097774476 -0.055465508 -0.25215572
0.1142884 -0.055701692 -0.24193043
0.097774476 -0.039896209 -0.2521556
0.11428928 -0.040053815 -0.24192077
0.067322344 -0.024403155 -0.24224573
0.097774476 -0.024326798 -0.25215572
0.11428928 -0.02440561 -0.24192083
0.067081079 -0.0087574832 -0.24572808
0.097774476 -0.0087575214 -0.2521556
0.11428928 -0.008757445 -0.24192083
0.067081079 0.0068613533 -0.24572808
0.097774476 0.0068119075 -0.25215572
0.11428928 0.0068906816 -0.24192083
0.067323014 0.022533972 -0.24223626
0.097774476 0.022381186 -0.25215572
0.11428928 0.02253877 -0.24192077
0.097774476 0.037950598 -0.25215572
0.11428928 0.038186897 -0.24192077
0.082232803 0.053530969 -0.25179595
0.097774476 0.053519968 -0.2521556
0.11428928 0.05383512 -0.24192083
0.083089471 0.069531523 -0.2406677
0.097774476 0.069089383 -0.25215572
0.1142884 0.069482923 -0.24193043
0.097986311 0.084774189 -0.249654
0.11428928 0.085131437 -0.24192077
0.11428928 0.10077956 -0.24192077
0.1155992 -0.11905861 -0.22774053
0.13097307 -0.11885214 -0.23157209
0.099778727 -0.10326681 -0.22848672
0.1309721 -0.10312391 -0.23158175
0.13097115 -0.08739575 -0.23159152
0.13097115 -0.071668133 -0.23159146
0.068233341 -0.055998035 -0.22909689
0.13097115 -0.055940453 -0.23159152
0.067564443 -0.04010253 -0.23875147
0.13097115 -0.040212803 -0.23159146
0.13097115 -0.024485115 -0.23159152
0.13097115 -0.0087574832 -0.23159152
0.13097115 0.0069701085 -0.23159146
0.13097115 0.022697814 -0.23159152
0.067565784 0.038260642 -0.23873228
0.13097115 0.038425483 -0.2315914
0.068236694 0.054231483 -0.22904837
0.13097115 0.054153148 -0.23159152
0.13097115 0.069880784 -0.2315914
0.13097115 0.085608475 -0.23159152
0.099786922 0.10150871 -0.22838986
0.1309721 0.10133662 -0.23158175
0.11561444 0.11731111 -0.22757572
0.13097307 0.11706504 -0.23157215
0.13270703 -0.13564689 -0.2142455
0.14782548 -0.13522252 -0.22113717
0.14782548 -0.1194144 -0.22113717
0.14782548 -0.10360628 -0.22113717
0.084204838 -0.08760412 -0.22617865
0.14782442 -0.087797813 -0.22114688
0.069008887 -0.07208962 -0.21790254
0.14782339 -0.071989387 -0.2211566
0.14782339 -0.056181435 -0.2211566
0.053274781 -0.040448297 -0.2162962
0.14782442 -0.040373594 -0.22114682
0.053059027 -0.024575941 -0.21979964
0.14782442 -0.024565537 -0.22114682
0.052843422 -0.008757445 -0.22330081
0.14782442 -0.0087574068 -0.22114688
0.052843422 0.0070340643 -0.22330081
0.14782442 0.0070505319 -0.22114682
0.053059638 0.022879507 -0.2197898
0.14782442 0.022858623 -0.22114682
0.053276598 0.038779389 -0.21626669
0.14782442 0.038666718 -0.22114688
0.14782442 0.054474812 -0.22114688
0.069012284 0.070409611 -0.21785372
0.14782442 0.070282847 -0.22114682
0.084210813 0.085862048 -0.22610098
0.14782442 0.086090922 -0.22114682
0.14782548 0.10189953 -0.22113717
0.14782548 0.11770768 -0.22113717
0.13272375 0.13400485 -0.21407849
0.14782548 0.13351581 -0.22113717
0.16563773 -0.15223318 -0.20378113
0.16485094 -0.13587181 -0.21059495
0.1019607 -0.1204069 -0.20271873
0.16485207 -0.11998307 -0.21058494
0.085841238 -0.10435525 -0.20492142
0.16485094 -0.10409321 -0.21059495
0.070055351 -0.088503972 -0.20279831
0.16484979 -0.088203557 -0.21060467
0.16484979 -0.072314315 -0.21060479
0.053894773 -0.056526165 -0.20622879
0.16484979 -0.056425128 -0.21060485
0.16484979 -0.040535938 -0.21060479
0.16484979 -0.024646692 -0.21060479
0.16484979 -0.0087575214 -0.21060479
0.16484979 0.0071317246 -0.21060479
0.16484979 0.023020972 -0.21060485
0.16484979 0.038910139 -0.21060479
0.053897828 0.054935668 -0.20617938
0.16485094 0.054799695 -0.21059495
0.16484979 0.070688598 -0.21060479
0.07006155 0.086942494 -0.20270884
0.16485094 0.086578324 -0.21059495
0.085848078 0.10277809 -0.2048322
0.16485094 0.10246757 -0.21059495
0.10197416 0.11885174 -0.20255989
0.16485207 0.11835743 -0.21058506
0.16485094 0.13424613 -0.21059489
0.16567555 0.15068516 -0.2034536
0.18205331 -0.15249966 -0.19993407
0.19943433 -0.15324594 -0.18916243
0.11917685 -0.13720098 -0.18901134
0.18205331 -0.13652836 -0.19993389
0.19943298 -0.1371911 -0.18917239
0.18205331 -0.120557 -0.19993395
0.19943433 -0.1211374 -0.18916231
0.18205331 -0.10458564 -0.19993395
0.19943298 -0.10508265 -0.18917239
0.18205209 -0.088613912 -0.19994384
0.19943167 -0.089028068 -0.18918252
0.054599702 -0.072801501 -0.19478238
0.18205084 -0.072642267 -0.19995385
0.19943167 -0.072973967 -0.18918252
0.18205084 -0.05667112 -0.19995379
0.19943167 -0.056919843 -0.18918246
0.038666941 -0.040801894 -0.19333005
0.18205209 -0.040700048 -0.19994396
0.19943167 -0.040865734 -0.18918246
0.038473383 -0.024752028 -0.196922
0.18205209 -0.024728727 -0.19994396
0.19943167 -0.024811648 -0.1891824
0.038280502 -0.0087574832 -0.2005015
0.18205209 -0.0087575214 -0.19994396
0.19943167 -0.0087575605 -0.1891824
0.038281038 0.0072095757 -0.20049149
0.18205209 0.0072138375 -0.19994396
0.19943167 0.0072966414 -0.18918252
0.038474463 0.023231916 -0.19690204
0.18205209 0.023185119 -0.19994384
0.19943167 0.023350805 -0.18918246
0.038668014 0.039309535 -0.19331002
0.18205209 0.039156403 -0.19994396
0.19943167 0.039404929 -0.18918246
0.18205209 0.05512761 -0.19994396
0.19943298 0.055459362 -0.18917239
0.054602161 0.07129921 -0.19474238
0.18205209 0.071098931 -0.19994396
0.19943298 0.071513534 -0.18917239
0.18205209 0.087070219 -0.19994378
0.19943298 0.087567694 -0.18917233
0.18205331 0.10304206 -0.19993395
0.19943433 0.10362251 -0.18916225
0.18205453 0.11901397 -0.19992399
0.19943433 0.11967677 -0.18916243
0.11919081 0.13575187 -0.18886036
0.18205331 0.13498473 -0.19993395
0.19943433 0.13573098 -0.18916225
0.18205209 0.15095538 -0.19994396
0.19943298 0.15178455 -0.18917239
0.21699531 -0.15399931 -0.17828846
0.21699531 -0.13786139 -0.17828846
0.087936834 -0.12175511 -0.17769855
0.21699531 -0.12172338 -0.1782884
0.071562782 -0.10545827 -0.18104041
0.21699531 -0.10558535 -0.17828846
0.055579767 -0.089425087 -0.17886782
0.21699391 -0.089446947 -0.17829859
0.21699251 -0.073308811 -0.17830873
0.039231993 -0.057066236 -0.18284398
0.21699251 -0.057170998 -0.17830878
0.21699391 -0.041033264 -0.17829859
0.21699391 -0.024895374 -0.17829859
0.023390703 -0.0087575214 -0.17717946
0.21699391 -0.0087574832 -0.17829859
0.023391172 0.0073891589 -0.17716932
0.21699391 0.0073804827 -0.17829859
0.21699391 0.023518331 -0.17829859
0.21699391 0.0396563 -0.17829859
0.039234184 0.055655491 -0.18280351
0.21699391 0.055794191 -0.17829859
0.21699391 0.071932085 -0.17829859
0.05558604 0.088048436 -0.17876625
0.21699391 0.088070013 -0.17829859
0.071569115 0.10406502 -0.18094909
0.21699531 0.10420851 -0.17828846
0.087949365 0.12039281 -0.17753571
0.21699671 0.12034705 -0.17827833
0.21699671 0.13648506 -0.17827827
0.21699531 0.15262242 -0.17828846
0.15289576 -0.15429018 -0.1740908
0.23474191 -0.1547613 -0.16729021
0.10526839 -0.13876247 -0.16365683
0.23474191 -0.13853867 -0.16729027
0.23474191 -0.12231608 -0.16729027
0.23474191 -0.10609337 -0.16729033
0.23474042 -0.089870296 -0.16730052
0.039862871 -0.073529616 -0.17113644
0.23473893 -0.073647454 -0.16731083
0.23473893 -0.057424903 -0.16731083
0.023729444 -0.041163441 -0.16984564
0.23473893 -0.041202482 -0.16731077
0.023559779 -0.02493215 -0.17351896
0.23473893 -0.024979942 -0.16731083
0.23473893 -0.0087575214 -0.16731077
0.23473893 0.0074650152 -0.16731077
0.023560248 0.023592114 -0.17350876
0.23473893 0.023687512 -0.16731083
0.023730397 0.039851967 -0.16982508
0.23473893 0.039910011 -0.16731071
0.23474042 0.056132775 -0.16730046
0.039865077 0.072209284 -0.17109537
0.23474042 0.072355352 -0.16730052
0.23474042 0.088578008 -0.16730052
0.23474191 0.10480116 -0.16729027
0.23474191 0.12102373 -0.16729027
0.10528147 0.13750881 -0.16350222
0.23474191 0.13724639 -0.16729027
0.15292108 0.15296361 -0.17385596
0.23474191 0.15346898 -0.16729021
0.25267571 -0.15553132 -0.15617609
0.2526741 -0.13922246 -0.1561864
0.073570132 -0.12313635 -0.15206659
0.2526741 -0.12291433 -0.15618652
0.056950375 -0.10658653 -0.1566121
0.2526741 -0.10660622 -0.15618652
0.040765896 -0.090367638 -0.15437818
0.25267249 -0.090297714 -0.15619677
0.25267249 -0.073989667 -0.15619689
0.024233401 -0.05761838 -0.15893453
0.25267088 -0.057681337 -0.15620726
0.25267249 -0.041373577 -0.15619689
0.0083063766 -0.025116455 -0.14958274
0.25267249 -0.02506559 -0.15619677
0.0081622601 -0.008757445 -0.15332717
0.25267249 -0.008757445 -0.15619677
0.0081622601 0.0075726556 -0.15332717
0.25267249 0.0075506205 -0.15619689
0.0083067864 0.023960572 -0.14957219
0.25267249 0.023858611 -0.15619677
0.25267249 0.040166676 -0.15619689
0.0242358 0.056391936 -0.15888268
0.25267249 0.056474667 -0.15619689
0.25267249 0.072782815 -0.15619689
0.040771499 0.089179598 -0.15427405
0.2526741 0.089091301 -0.15618634
0.056957394 0.10538259 -0.15649784
0.2526741 0.10539937 -0.1561864
0.07358171 0.12197155 -0.15189981
0.25267571 0.1217082 -0.15617615
0.25267571 0.13801643 -0.15617609
0.25267571 0.15432461 -0.15617609
0.1396381 -0.15630658 -0.14498603
0.091017589 -0.14036229 -0.13767844
0.27079797 -0.13991418 -0.14495462
0.27079797 -0.12351956 -0.14495462
0.27079797 -0.10712499 -0.1449545
0.2707963 -0.090729989 -0.14496505
0.024787106 -0.07427451 -0.14694643
0.27079457 -0.074335165 -0.14497554
0.27079457 -0.057940807 -0.14497548
0.0084510073 -0.041533235 -0.14582521
0.27079457 -0.041546367 -0.14497548
0.27079457 -0.025151886 -0.14497554
0.27079457 -0.008757445 -0.14497548
0.27079457 0.0076369187 -0.14497548
0.27079457 0.024031434 -0.14497554
0.008451812 0.040406682 -0.14580423
0.27079457 0.0404258 -0.14497554
0.2707963 0.056820583 -0.14496499
0.024788558 0.073140055 -0.14691514
0.2707963 0.073215067 -0.14496511
0.2707963 0.089609586 -0.14496499
0.27079797 0.10600471 -0.14495462
0.27079964 0.12239988 -0.14494407
0.091029793 0.13930893 -0.1375199
0.27079964 0.1387946 -0.14494407
0.13966119 0.15520374 -0.14475507
0.058847889 -0.12455174 -0.12580037
0.28911501 -0.12413131 -0.13360286
0.041993514 -0.10774199 -0.13159645
0.28911322 -0.10764882 -0.13361347
0.025601722 -0.091332577 -0.12930942
0.28911144 -0.091166511 -0.1336242
0.28911144 -0.074684694 -0.13362414
0.0088883936 -0.058183536 -0.1344617
0.28911144 -0.058202848 -0.13362414
0.28911144 -0.041721109 -0.13362408
-0.0072985515 -0.025304902 -0.12509495
0.28911144 -0.025239218 -0.13362414
-0.0074165165 -0.0087574832 -0.12892604
0.28911144 -0.0087575214 -0.13362414
-0.0074165165 0.0077604922 -0.12892598
0.28911144 0.0077244071 -0.1336242
-0.0072982162 0.024337661 -0.12508428
0.28911144 0.024206143 -0.13362408
0.28911144 0.040687956 -0.1336242
0.0088900253 0.057145279 -0.1344192
0.28911144 0.057169769 -0.13362414
0.28911322 0.073652007 -0.13361347
0.025606647 0.090337589 -0.1292029
0.28911322 0.090133898 -0.13361347
0.041999809 0.1067308 -0.1314795
0.28911501 0.1066164 -0.13360286
0.058858424 0.12358937 -0.12562937
0.28911501 0.12309831 -0.13360286
0.12609863 -0.15844774 -0.11408085
0.076411679 -0.14200206 -0.11105263
0.30762649 -0.10817876 -0.12214035
0.30762464 -0.091608167 -0.12215102
0.0093601644 -0.075036332 -0.12220448
0.30762273 -0.075037681 -0.12216169
0.30762273 -0.058467615 -0.12216175
-0.0071801618 -0.041911557 -0.12125015
0.30762273 -0.041897546 -0.12216181
0.30762273 -0.025327474 -0.12216169
0.30762273 -0.008757445 -0.12216175
0.30762273 0.0078125475 -0.12216169
0.30762273 0.024382614 -0.12216175
-0.0071794987 0.040974181 -0.12122869
0.30762273 0.040952608 -0.12216169
0.30762464 0.057523098 -0.12215108
0.0093618184 0.074092783 -0.12216181
0.30762464 0.074093208 -0.12215108
0.30762649 0.09066385 -0.12214035
0.30762649 0.10723404 -0.12214035
0.07642293 0.14115389 -0.11089015
0.043756709 -0.12600258 -0.098875821
0.026679143 -0.10892503 -0.10598284
0.010074273 -0.092320167 -0.10365164
0.32633728 -0.092054516 -0.11055434
0.32633525 -0.075394735 -0.11056513
-0.0068157688 -0.058761977 -0.10941595
0.32633525 -0.058735453 -0.11056525
0.32633525 -0.042076092 -0.11056507
0.3452484 -0.042256363 -0.098853946
-0.023267314 -0.025497884 -0.10003614
0.32633525 -0.025416844 -0.11056507
0.3452484 -0.025506902 -0.098853946
-0.023357857 -0.0087575214 -0.103957
0.3452484 -0.0087575214 -0.098853767
0.32633525 -0.008757445 -0.11056513
-0.023357857 0.0079527413 -0.10395706
0.32633525 0.0079018781 -0.11056513
0.3452484 0.0079919761 -0.098853827
-0.023267061 0.024723429 -0.10002518
0.32633525 0.024561159 -0.11056507
0.3452484 0.024741434 -0.098853827
0.32633525 0.041220445 -0.11056507
0.3452484 0.04149089 -0.098853827
-0.0068147629 0.057916198 -0.10938346
0.32633525 0.057879802 -0.11056525
0.32633728 0.07453955 -0.11055422
0.010078892 0.09152326 -0.10353172
0.32633728 0.091198988 -0.11055434
0.026684672 0.10811114 -0.10586315
0.043766148 0.12524775 -0.098700464
0.12641841 0.15783159 -0.11061937
-0.0064294338 -0.075816467 -0.096869528
-0.023176692 -0.042298593 -0.096112192
-0.023175929 0.041555002 -0.096079111
-0.0064284205 0.07506755 -0.096836686
0.061613902 -0.14385982 -0.080885887
0.010994263 -0.11013671 -0.079749525
-0.0058287457 -0.093332089 -0.077361643
-0.022891823 -0.059354085 -0.083777189
-0.039612949 -0.025695201 -0.074397445
-0.039674573 -0.0087574832 -0.078400135
-0.039674573 0.0081494832 -0.078400016
-0.039612778 0.025118217 -0.074386239
-0.022891056 0.058705624 -0.083743751
-0.0058249608 0.092737719 -0.077238798
0.010998979 0.10952491 -0.079626977
0.061635852 0.14325732 -0.080529511
0.028283067 -0.12749095 -0.071256697
-0.022595417 -0.076614797 -0.070942163
-0.03955093 -0.042694952 -0.070369005
-0.039550584 0.042149257 -0.070346534
-0.022594381 0.076065965 -0.070897341
0.028290845 0.12694825 -0.071088254
0.04643777 -0.14581598 -0.049121439
-0.0050747171 -0.11137808 -0.05287385
-0.022121638 -0.094368808 -0.050427139
-0.039353341 -0.059960086 -0.05753535
-0.056348525 -0.025897391 -0.048135579
-0.056380168 -0.0087574068 -0.052245617
-0.056380078 0.0083508706 -0.052234173
-0.056348436 0.025522489 -0.048124015
-0.039352816 0.059513818 -0.057501256
-0.022118732 0.093981937 -0.050301194
-0.0050708503 0.11097332 -0.052748263
0.046456918 0.14545798 -0.048766136
0.012411103 -0.12901679 -0.042939126
-0.039150782 -0.077432819 -0.044378459
-0.056316413 -0.043101527 -0.043964088
-0.056315973 0.042759907 -0.043906689
-0.039150249 0.077087983 -0.044343889
0.012417756 0.12869248 -0.042766213
-0.021541823 -0.11265067 -0.025320113
-0.038818926 -0.095431216 -0.022823989
-0.056213886 -0.060581136 -0.03064537
-0.073488429 -0.026104424 -0.021239042
-0.073488429 -0.008757445 -0.025448978
-0.073488429 0.0085570561 -0.025448859
-0.073488429 0.025936585 -0.02122736
-0.056213617 0.060341824 -0.030610621
-0.03881694 0.095256977 -0.022694886
-0.021539114 0.11245758 -0.025203109
0.030815154 -0.14782886 -0.016435564
-0.0038741454 -0.1305825 -0.013884068
-0.056110218 -0.078270271 -0.017178595
-0.073488429 -0.043520577 -0.01674217
-0.073488429 0.043388635 -0.016683221
-0.056109853 0.078135453 -0.017131448
-0.0038686767 0.13048203 -0.013706744
0.030832596 0.14772399 -0.016057849
-0.03842267 -0.11395477 0.002913475
-0.073488429 -0.06121739 -0.0030953884
-0.091014288 -0.0087575214 0.002001822
-0.091014288 0.0087683862 0.002001822
-0.073488429 0.061189752 -0.0030715466
-0.038420822 0.11397919 0.0030335784
0.01472728 -0.14990257 0.017237127
-0.020589016 -0.13218945 0.015937507
-0.055935852 -0.096520416 0.0054727793
-0.073488429 -0.079128526 0.010693192
-0.091084734 -0.04395007 0.011152387
-0.091047496 -0.02631652 0.0063151121
-0.091047585 0.026360821 0.0063271523
-0.091085106 0.044032604 0.011200726
-0.073488429 0.079208262 0.010741472
-0.055934832 0.096564107 0.005605042
-0.020584811 0.13231885 0.016119659
0.014741786 0.15005693 0.017613828
-0.091192402 -0.061869383 0.025139511
-0.10897322 -0.008757445 0.030130804
-0.10897322 0.0089848964 0.030130923
-0.091192588 0.062059175 0.025163949
-0.055732585 -0.11529253 0.031877458
-0.073488429 -0.097636797 0.034477413
-0.09130121 -0.080008663 0.039274037
-0.10912105 -0.04439012 0.039732516
-0.10904129 -0.026533876 0.034551442
-0.10904148 0.026795607 0.03456372
-0.10912201 0.044692848 0.039794385
-0.091301598 0.080308326 0.039323509
-0.073488429 0.097905099 0.034637868
-0.055731639 0.11554003 0.032000482
-0.0018476248 -0.15203913 0.051929057
-0.037750747 -0.13383943 0.046556294
-0.10934202 -0.062537841 0.054085195
-0.10934222 0.062950104 0.054097712
-0.037747867 0.13420478 0.046743214
-0.001836054 0.15246029 0.052304804
-0.073488429 -0.1166642 0.061574519
-0.091493413 -0.098782353 0.064242184
-0.10956497 -0.080910601 0.068566144
-0.12761439 -0.044841416 0.069048941
-0.12748615 -0.026756722 0.063495696
-0.12738149 -0.008757445 0.058963597
-0.12738149 0.0092068212 0.058963597
-0.12748615 0.027240995 0.063495696
-0.12761587 0.045369949 0.06911248
-0.10956576 0.081435837 0.068616927
-0.091494679 0.099280067 0.064406812
-0.073488429 0.11714053 0.061701
-0.055377498 -0.13553405 0.078004777
-0.055376019 0.13614175 0.078196824
-0.018932022 -0.15424117 0.087687433
-0.091710351 -0.11808903 0.092422664
-0.10996863 -0.099957965 0.094784319
-0.12795404 -0.063223079 0.08375591
-0.14639887 -0.026985057 0.093161762
-0.14625576 -0.008757445 0.08851403
-0.14625615 0.0094343899 0.088527024
-0.14639926 0.027697973 0.093174636
-0.12795463 0.063864097 0.08378154
-0.10997123 0.100691 0.094953239
-0.091711849 0.11880636 0.092617095
-0.018923376 0.15493767 0.088061988
-0.12829706 -0.081835732 0.098609388
-0.14658228 -0.045304421 0.099117696
-0.14658387 0.046064168 0.09916991
-0.12829858 0.0825928 0.098674476
-0.073488429 -0.13727513 0.11031693
-0.14704685 -0.063926399 0.11420566
-0.16561466 -0.008757445 0.11883575
-0.16561466 0.0096677905 0.11883575
-0.14704725 0.06480132 0.11421877
-0.073488429 0.13813201 0.11051446
-0.036549769 -0.15651217 0.12456208
-0.1104359 -0.11959989 0.12513477
-0.12893274 -0.10116468 0.12613457
-0.14751615 -0.082785159 0.12944621
-0.16604315 -0.045779366 0.12996811
-0.16579819 -0.027219459 0.12360352
-0.16579869 0.028166544 0.12361676
-0.16604522 0.04677666 0.13002151
-0.1475178 0.083779201 0.12949985
-0.12893674 0.10213914 0.12630802
-0.11043899 0.12056948 0.1253348
-0.036544025 0.15749231 0.12493485
-0.092103764 -0.13906485 0.14352912
-0.16663861 -0.06464757 0.14543837
-0.16663966 0.065763526 0.14546531
-0.092105433 0.14017855 0.1437456
-0.12968628 -0.12115321 0.15876395
-0.1484054 -0.10240363 0.15832561
-0.18570282 -0.027459849 0.15483838
-0.18547682 -0.0087575214 0.14994568
-0.18547682 0.0099072615 0.14994556
-0.18570343 0.028647516 0.15485173
-0.14841089 0.10362627 0.15850359
-0.12969103 0.12238193 0.15896946
-0.054726236 -0.15885504 0.16260618
-0.16724759 -0.083764754 0.16125995
-0.1860159 -0.04626663 0.1616171
-0.18601908 0.047507774 0.16168576
-0.16725183 0.085005909 0.16136974
-0.054723378 0.16012804 0.16297728
-0.11124489 -0.14090508 0.17767936
-0.18675008 -0.065388314 0.17751247
-0.20586209 -0.0087574832 0.18187481
-0.20586209 0.010153024 0.18187481
-0.18675072 0.066750728 0.1775263
-0.11124831 0.14228205 0.17790216
-0.14948383 -0.1227506 0.19334894
-0.16840789 -0.10367694 0.19140571
-0.18753037 -0.084785432 0.19440645
-0.20652217 -0.046767104 0.19412428
-0.20613274 -0.027706686 0.18689734
-0.2061335 0.029141117 0.1869114
-0.20652521 0.04825823 0.19418067
-0.18753558 0.086281791 0.1945191
-0.1684144 0.10515368 0.19157463
-0.14949036 0.12424581 0.19356042
-0.073488429 -0.16127343 0.2018761
-0.20740104 -0.066148527 0.2104339
-0.20740257 0.067764878 0.21046251
-0.073488429 0.16284946 0.20225936
-0.13093437 -0.14279798 0.21280795
-0.22710906 -0.027960166 0.21981376
-0.22679143 -0.0087574832 0.21465617
-0.22679143 0.010405392 0.21465617
-0.22710906 0.029647693 0.21981388
-0.13093966 0.14444587 0.21303707
-0.16985226 -0.1243941 0.22893125
-0.18896115 -0.1049848 0.22538334
-0.208372 -0.085833788 0.22845274
-0.22758307 -0.04728109 0.22751075
-0.22758664 0.049029343 0.22756869
-0.20837902 0.087592952 0.22858316
-0.18896917 0.10672323 0.22555679
-0.16986063 0.12616354 0.22914869
-0.15119615 -0.14474602 0.24895769
-0.22861402 -0.066929616 0.24425131
-0.24828689 -0.0087574832 0.24832422
-0.24828689 0.010664592 0.24832422
-0.22861674 0.068806671 0.24429542
-0.15120339 0.14667244 0.24919337
-0.21008947 -0.1063296 0.26032501
-0.24922141 -0.047809239 0.26181275
-0.24865295 -0.028220251 0.25360781
-0.24865396 0.030168202 0.25362259
-0.24922554 0.049821571 0.26187235
-0.21009828 0.10833671 0.26048869
-0.19081658 -0.12608558 0.26555449
-0.22979735 -0.086911894 0.26346606
-0.2298056 0.088940814 0.26360017
-0.19082692 0.12813734 0.26577848
-0.25041336 -0.067732513 0.27901691
-0.27078974 -0.028487667 0.28834504
-0.27037063 -0.0087574832 0.28290039
-0.27037179 0.010930854 0.28291565
-0.27079093 0.030703112 0.2883603
-0.25041544 0.069876835 0.27904707
-0.17216542 -0.14690526 0.2890293
-0.23181581 -0.10771208 0.29624206
-0.25183058 -0.088020675 0.29947275
-0.27146125 -0.048352093 0.29706818
-0.27146479 0.050635334 0.29711407
-0.25184119 0.090327337 0.29962617
-0.23182617 0.10999587 0.29641026
-0.17218417 0.14915566 0.28951591
-0.21240333 -0.12782742 0.30326504
-0.21241575 0.13016982 0.30349582
-0.27282166 -0.068557449 0.31474012
-0.29354334 -0.02876249 0.32405025
-0.29306936 -0.0087574832 0.31845301
-0.29306936 0.01120445 0.31845325
-0.29354465 0.03125276 0.32406598
-0.27282524 0.070977241 0.31478661
-0.19390935 -0.14924851 0.33251518
-0.25416777 -0.10913488 0.33320731
-0.27449793 -0.089161277 0.33651584
-0.29432672 -0.048909958 0.3333016
-0.29433206 0.051472627 0.33336478
-0.27451009 0.091753282 0.33667368
-0.25417867 0.11170259 0.33336478
-0.19393261 0.15183471 0.33301848
-0.23464067 -0.12962167 0.34211212
-0.29586577 -0.069405839 0.35147697
-0.2958712 0.072108939 0.35154086
-0.23465532 0.13226354 0.34234983
-0.31693983 -0.029045109 0.36076444
-0.3164081 -0.0087574832 0.35500807
-0.3164081 0.011485764 0.35500807
-0.31694132 0.031817995 0.36078054
-0.21640277 -0.1516719 0.37748557
-0.2771706 -0.11059853 0.37123483
-0.29782724 -0.090335205 0.37464064
-0.31784719 -0.049483869 0.37058717
-0.31785321 0.052333683 0.3706519
-0.29784095 0.093220919 0.37480313
-0.27718306 0.11345933 0.37139684
-0.21643084 0.1546053 0.37800628
-0.25755847 -0.13147089 0.38214797
-0.31957468 -0.070279062 0.38928765
-0.31957924 0.073272802 0.38933676
-0.25757658 0.13442229 0.38240927
-0.34100688 -0.029335864 0.39853066
-0.34041423 -0.0087574068 0.39260834
-0.34041423 0.011775329 0.39260858
-0.34100688 0.032399237 0.39853066
-0.30085564 -0.11210624 0.41040438
-0.32184786 -0.091543943 0.41389519
-0.34204829 -0.050074439 0.40893739
-0.34205496 0.053219348 0.40900403
-0.32186329 0.094732046 0.41406244
-0.30086833 0.11526793 0.41055459
-0.23968683 -0.15418114 0.42405146
-0.28118843 -0.13337749 0.423428
-0.34397459 -0.071177281 0.42818588
-0.34398139 0.074471183 0.42825359
-0.2812092 0.13664711 0.42369753
-0.23971899 0.15747321 0.42457384
-0.36577189 -0.029634871 0.43737799
-0.36511678 -0.0087575214 0.43129951
-0.36511678 0.012073032 0.43129951
-0.36577368 0.032997523 0.43739504
-0.32525086 -0.11365856 0.45073396
-0.34659272 -0.092789538 0.45434779
-0.36696327 -0.050682478 0.4484331
-0.36697072 0.054131616 0.44850188
-0.34660822 0.096288554 0.45450288
-0.32526517 0.11713089 0.45088857
-0.30556428 -0.13534434 0.46601099
-0.36909765 -0.072102256 0.46823722
-0.36910701 0.07570488 0.46832424
-0.30558783 0.13894212 0.4662891
-0.2638019 -0.15677913 0.47226423
-0.39126933 -0.029942904 0.47738856
-0.39054459 -0.008757445 0.47111219
-0.39054656 0.01237972 0.47112972
-0.39127129 0.033613585 0.4774062
-0.26384062 0.16044444 0.47282284
-0.35039186 -0.11525887 0.4923113
-0.39262056 -0.051308401 0.48909098
-0.39262873 0.055070523 0.48916191
-0.35040605 0.11905059 0.49245292
-0.37209165 -0.094072796 0.49601847
-0.37210888 0.097892627 0.49617809
-0.33072191 -0.13737425 0.50995964
-0.39511311 -0.073082581 0.5106774
-0.4172948 -0.0087575214 0.51668531
-0.41730148 0.012730821 0.51673955
-0.39512557 0.077012435 0.51078504
-0.33074838 0.14131081 0.51024681
-0.28879428 -0.15947148 0.5222308
-0.41848236 -0.03031965 0.52632719
-0.41849798 0.034368571 0.52645403
-0.28883886 0.16352287 0.52281004
-0.37690556 -0.11712079 0.54068571
-0.37692529 0.12128681 0.54086906
-0.42152488 -0.052262131 0.55102986
-0.42154539 0.056503225 0.55119616
-0.40098661 -0.096090466 0.56154329
-0.40103173 0.10042359 0.56193405
-0.35927802 -0.14066051 0.58110732
-0.35946131 0.14522788 0.58293873
-0.4774223 -0.0087575987 0.81194657
-0.47742808 0.015003505 0.81199056
-0.48034233 -0.032690223 0.83425945
-0.48036867 0.039110873 0.83446056
-0.50800669 -0.0087575987 0.86119121
-0.50800985 0.015382477 0.86121374
0 0 0 1 0 0 0 1 0 0 0 1 0 0 0 0 0 698 1 0 0
