ply
format ascii 1.0
comment PCL generated
element vertex 944
property float x
property float y
property float z
element camera 1
property float view_px
property float view_py
property float view_pz
property float x_axisx
property float x_axisy
property float x_axisz
property float y_axisx
property float y_axisy
property float y_axisz
property float z_axisx
property float z_axisy
property float z_axisz
property float focal
property float scalex
property float scaley
property float centerx
property float centery
property int viewportx
property int viewporty
property float k1
property float k2
end_header
-0.039241567 -0.78536111 -0.055849433
-0.013185682 -0.78481817 -0.058281183
0.012832761 -0.78467 -0.058945417
0.038876221 -0.78554368 -0.055031657
-0.039241567 -0.75932389 -0.055849433
-0.013185682 -0.75879979 -0.058281183
0.012832761 -0.75865656 -0.058945417
0.038876221 -0.75950021 -0.055031776
-0.039241567 -0.73328674 -0.055849433
-0.013185682 -0.73278123 -0.058281183
0.012832761 -0.73264319 -0.058945298
0.038876221 -0.73345673 -0.055031657
-0.039241567 -0.70724964 -0.055849433
-0.013185682 -0.70676291 -0.058281064
0.012832761 -0.70662981 -0.058945537
0.038876221 -0.70741326 -0.055031657
-0.039241567 -0.68121243 -0.055849433
-0.013185682 -0.68074435 -0.058281183
0.012832761 -0.68061656 -0.058945417
0.038876221 -0.68136984 -0.055031657
-0.039241567 -0.65517515 -0.055849433
-0.013185682 -0.65472591 -0.058281183
0.012832761 -0.65460318 -0.058945417
0.038876221 -0.65532619 -0.055031776
-0.039241567 -0.62913793 -0.055849433
-0.013185682 -0.62870753 -0.058281064
0.012832761 -0.62858993 -0.058945417
0.038876221 -0.62928289 -0.055031657
-0.039241567 -0.60310096 -0.055849314
-0.013185682 -0.60268909 -0.058281183
0.012832761 -0.60257661 -0.058945417
0.038876221 -0.60323942 -0.055031657
-0.039241567 -0.57706374 -0.055849433
-0.013185682 -0.57667071 -0.058281183
0.012832761 -0.57656324 -0.058945417
0.038876221 -0.57719594 -0.055031657
-0.039241567 -0.55102652 -0.055849433
-0.013185682 -0.55065215 -0.058281183
0.012832761 -0.55054992 -0.058945417
0.038876221 -0.55115253 -0.055031538
-0.039241567 -0.52498949 -0.055849314
-0.013185682 -0.52463371 -0.058281064
0.012832761 -0.52453649 -0.058945417
0.038876221 -0.52510899 -0.055031657
-0.039241567 -0.49895224 -0.055849433
-0.013185682 -0.49861529 -0.058281183
0.012832761 -0.49852321 -0.058945537
0.038876221 -0.49906555 -0.055031657
-0.039241567 -0.47291502 -0.055849433
-0.013185682 -0.47259682 -0.058281183
0.012832761 -0.47250995 -0.058945417
0.038876221 -0.47302207 -0.055031538
-0.039241567 -0.44687793 -0.055849433
-0.013185682 -0.44657844 -0.058281064
0.012832761 -0.44649652 -0.058945417
0.038876221 -0.44697866 -0.055031538
-0.039241567 -0.42084083 -0.055849314
-0.013185682 -0.42055991 -0.058281183
0.012832761 -0.42048323 -0.058945417
0.038876221 -0.42093509 -0.055031657
-0.039241567 -0.39480361 -0.055849314
-0.013185682 -0.39454144 -0.058281183
0.012832761 -0.39446995 -0.058945417
0.038876221 -0.39489165 -0.055031657
-0.039241567 -0.36876646 -0.055849433
-0.013185682 -0.36852318 -0.058281183
0.012832761 -0.36845663 -0.058945417
0.038876221 -0.3688482 -0.055031538
-0.039241567 -0.34272918 -0.055849433
-0.013185682 -0.34250471 -0.058281064
0.012832761 -0.34244335 -0.058945417
0.038876221 -0.34280485 -0.055031657
-0.039241567 -0.31669211 -0.055849314
-0.013185682 -0.31648618 -0.058281183
0.012832761 -0.31642994 -0.058945417
0.038876221 -0.31676131 -0.055031776
-0.039241567 -0.29065493 -0.055849433
-0.013185682 -0.29046765 -0.058281183
0.012832761 -0.29041651 -0.058945417
0.038876221 -0.29071784 -0.055031776
-0.039241567 -0.26461774 -0.055849433
-0.013185682 -0.2644493 -0.058281064
0.012832761 -0.26440322 -0.058945417
0.038876221 -0.26467445 -0.055031657
-0.039241567 -0.23858058 -0.055849433
-0.013185682 -0.23843086 -0.058281183
0.012832761 -0.23838995 -0.058945417
0.038876221 -0.23863102 -0.055031657
-0.039241567 -0.21254352 -0.055849314
-0.013185682 -0.21241237 -0.058281183
0.012832761 -0.21237661 -0.058945417
0.038876221 -0.21258757 -0.055031538
-0.039241567 -0.18650624 -0.055849314
-0.013185682 -0.18639407 -0.058281183
0.012832761 -0.18636334 -0.058945417
0.038876221 -0.18654403 -0.055031776
-0.039241277 -0.16046843 -0.055868268
-0.013185682 -0.16037555 -0.058281064
0.012832761 -0.16035005 -0.058945417
0.038876221 -0.16050056 -0.055031657
-0.039241277 -0.13443132 -0.055868387
-0.013185682 -0.13435708 -0.058281183
0.012832761 -0.13433656 -0.058945537
0.038876221 -0.13445713 -0.055031657
-0.039241277 -0.10839436 -0.055868387
-0.013185682 -0.10833856 -0.058281183
0.012832761 -0.10832322 -0.058945417
0.038876221 -0.1084137 -0.055031538
-0.039241277 -0.082357295 -0.055868506
-0.013185682 -0.082320198 -0.058281064
0.012832761 -0.082309939 -0.058945417
0.038876221 -0.082370117 -0.055031776
-0.039241277 -0.05632028 -0.055868387
-0.013185682 -0.056301735 -0.058281183
0.012832761 -0.056296661 -0.058945417
0.038876221 -0.056326695 -0.055031657
-0.039241277 -0.030283377 -0.055868268
0.012832761 -0.030283324 -0.058945417
-0.013185682 -0.030283216 -0.058281183
0.038876221 -0.03028327 -0.055031657
-0.039241277 -0.0042461529 -0.055868268
-0.013185682 -0.0042649657 -0.058281183
0.012832761 -0.0042700432 -0.058945417
0.038876221 -0.004239792 -0.055031538
-0.039241277 0.021790752 -0.055868387
-0.013185682 0.021753659 -0.058281183
0.012832761 0.02174324 -0.058945417
0.038876221 0.021803631 -0.055031538
-0.039241277 0.047827654 -0.055868268
-0.013185682 0.04777202 -0.058281183
0.012832761 0.047756679 -0.058945537
0.038876221 0.047847159 -0.055031657
-0.039241277 0.073864877 -0.055868268
-0.013185682 0.073790587 -0.058281183
0.012832761 0.073770173 -0.058945417
0.038876221 0.073890641 -0.055031657
-0.039241277 0.09990178 -0.055868387
-0.013185682 0.099808902 -0.058281064
0.012832761 0.09978345 -0.058945417
0.038876221 0.099934012 -0.055031538
-0.039241277 0.12593879 -0.055868506
-0.013185682 0.12582731 -0.058281183
0.012832761 0.12579679 -0.058945417
0.038876221 0.12597744 -0.055031538
-0.039241277 0.15197591 -0.055868268
-0.013185682 0.15184589 -0.058281183
0.012832761 0.15181006 -0.058945417
0.038876221 0.15202102 -0.055031657
-0.039241277 0.17801283 -0.055868149
-0.013185682 0.17786415 -0.058281183
0.012832761 0.17782335 -0.058945417
0.038876221 0.17806447 -0.055031657
-0.039241277 0.20404983 -0.055868387
-0.013185682 0.20388275 -0.058281183
0.012832761 0.20383663 -0.058945417
0.038876221 0.20410793 -0.055031538
-0.039241277 0.23008695 -0.055868387
-0.013185682 0.22990116 -0.058281183
0.012832761 0.22985002 -0.058945417
0.038876221 0.2301513 -0.055031538
-0.039241277 0.25612402 -0.055868387
-0.013185682 0.25591975 -0.058281183
0.012832761 0.2558634 -0.058945537
0.038876221 0.25619483 -0.055031419
-0.039241277 0.28216091 -0.055868387
-0.013185682 0.28193805 -0.058281064
0.012832761 0.28187668 -0.058945537
0.038876221 0.28223836 -0.055031657
-0.039241277 0.30819792 -0.055868149
-0.013185682 0.30795652 -0.058281064
0.012832761 0.30789003 -0.058945417
0.038876366 0.30828366 -0.055012703
-0.039241277 0.33423498 -0.055868387
-0.013185682 0.33397493 -0.058281183
0.012832761 0.33390331 -0.058945417
0.038876366 0.33432719 -0.055012822
-0.039241277 0.3602719 -0.055868387
-0.013185682 0.35999334 -0.058281183
0.012832761 0.3599166 -0.058945417
0.038876366 0.36037081 -0.055012703
-0.039241277 0.38630912 -0.055868387
-0.013185682 0.38601181 -0.058281183
0.012832761 0.38593003 -0.058945417
0.038876366 0.38641435 -0.055012703
-0.039265875 0.41255516 -0.054270625
-0.013182906 0.41198319 -0.058641672
0.012832761 0.41209739 -0.057768345
0.038876221 0.41245547 -0.055031657
-0.013239281 0.43901354 -0.051318645
0.012832761 0.43912449 -0.050517678
-0.091860227 -0.78930748 -0.038171768
-0.065457396 -0.7870881 -0.048112988
0.065017089 -0.78695595 -0.048705101
0.091373801 -0.78951335 -0.037249446
-0.091860227 -0.76313418 -0.038171887
-0.065457396 -0.76099145 -0.048112988
0.065017089 -0.76086384 -0.048705101
0.091373801 -0.76333296 -0.037249327
-0.091860227 -0.73696101 -0.038171649
-0.065457396 -0.73489463 -0.048113108
0.065017089 -0.73477167 -0.048705101
0.091373801 -0.73715264 -0.037249327
-0.091860227 -0.71078759 -0.038171768
-0.065457396 -0.70879799 -0.048113108
0.065017089 -0.70867944 -0.048705101
0.091373801 -0.71097231 -0.037249327
-0.091860227 -0.68461442 -0.038171768
-0.065457396 -0.68270129 -0.048113108
0.065017089 -0.68258733 -0.048705101
0.091373801 -0.68479192 -0.037249327
-0.091860227 -0.65844131 -0.038171768
0.091373801 -0.6586116 -0.037249327
-0.065457396 -0.65660453 -0.048112988
0.065017089 -0.65649503 -0.048705101
-0.091860227 -0.63226789 -0.038171887
-0.065457396 -0.63050789 -0.048112988
0.065017089 -0.63040298 -0.048705101
0.091373801 -0.63243127 -0.037249327
-0.091860227 -0.60609472 -0.038171768
-0.065457396 -0.60441107 -0.048113108
0.065017089 -0.60431075 -0.048704982
0.091373801 -0.606251 -0.037249327
-0.091860227 -0.57992136 -0.038171887
-0.065457396 -0.5783143 -0.048113108
0.065017089 -0.57821864 -0.048705101
0.091373801 -0.58007056 -0.037249327
-0.091860227 -0.55374825 -0.038171649
-0.065457396 -0.55221766 -0.048113108
0.065017089 -0.55212641 -0.048705101
0.091373801 -0.55389017 -0.037249446
-0.091860227 -0.52757502 -0.038171768
-0.065457396 -0.52612096 -0.048112988
0.065017089 -0.5260343 -0.048705101
0.091373801 -0.5277099 -0.037249327
-0.091860227 -0.50140172 -0.038171887
-0.065457396 -0.50002432 -0.048112869
0.065017089 -0.49994215 -0.048705101
0.091373801 -0.50152951 -0.037249327
-0.091860227 -0.47522849 -0.038171768
-0.065457396 -0.4739275 -0.048113108
0.065017089 -0.47385001 -0.048705101
0.091373801 -0.47534922 -0.037249327
-0.091860227 -0.44905519 -0.038171887
-0.065457396 -0.44783077 -0.048113108
0.065017089 -0.44775778 -0.048705101
0.091373801 -0.44916886 -0.037249327
-0.091860227 -0.42288196 -0.038171768
-0.065457396 -0.42173404 -0.048112988
0.065017089 -0.4216657 -0.048705101
0.091373801 -0.42298847 -0.037249327
-0.091860227 -0.39670885 -0.038171768
-0.065457396 -0.3956373 -0.048112988
0.065017089 -0.3955735 -0.048705101
0.091373801 -0.39680815 -0.037249446
-0.091860227 -0.37053549 -0.038171768
-0.065457396 -0.36954072 -0.048112869
0.065017089 -0.36948138 -0.048705101
0.091373801 -0.37062779 -0.037249446
-0.091860227 -0.34436223 -0.038171768
-0.065457396 -0.3434439 -0.048113108
0.065017089 -0.34338915 -0.048705101
0.091373801 -0.34444749 -0.037249327
-0.091860227 -0.31818894 -0.038171887
-0.065457396 -0.31734717 -0.048113108
0.065017089 -0.31729704 -0.048705101
0.091373801 -0.31826714 -0.037249327
-0.091860227 -0.29201576 -0.038171768
-0.065457396 -0.29125047 -0.048112988
0.065017089 -0.29120484 -0.048705101
0.091373801 -0.29208684 -0.037249327
-0.091860227 -0.2658425 -0.038171649
-0.065457396 -0.2651538 -0.048113108
0.065017089 -0.26511276 -0.048705101
0.091373362 -0.26590502 -0.037268639
-0.091860227 -0.23966926 -0.038171768
-0.065457396 -0.23905711 -0.048112869
0.065017089 -0.23902048 -0.048705101
0.091373362 -0.23972486 -0.037268639
-0.091860227 -0.21349607 -0.038171768
-0.065457396 -0.21296029 -0.048113108
0.065017089 -0.21292838 -0.048705101
0.091373362 -0.21354467 -0.037268639
-0.091860227 -0.18732274 -0.038171887
-0.065457396 -0.18686359 -0.048113108
0.065017089 -0.18683621 -0.048705101
0.091373362 -0.18736452 -0.037268639
-0.091860227 -0.16114949 -0.038171768
-0.065457396 -0.16076687 -0.048112988
0.065017089 -0.1607441 -0.048705101
0.091373362 -0.16118428 -0.037268639
-0.091860227 -0.13497624 -0.038171649
-0.065457396 -0.13467021 -0.048113108
0.065017089 -0.13465188 -0.048705101
0.091373362 -0.13500413 -0.037268639
-0.091860227 -0.108803 -0.038171887
-0.065457396 -0.10857351 -0.048112869
0.065017089 -0.10855967 -0.048705101
0.091373362 -0.10882396 -0.037268639
-0.091860227 -0.082629867 -0.038171649
-0.065457396 -0.08247669 -0.048113108
0.065017089 -0.082467601 -0.048705101
0.091373362 -0.082643703 -0.037268519
-0.091860227 -0.056456514 -0.038171768
-0.065457396 -0.056379981 -0.048113108
0.065017089 -0.056375332 -0.048705101
0.091373362 -0.056463405 -0.037268639
0.091373362 -0.030283324 -0.037268519
-0.091860227 -0.03028327 -0.038171768
-0.065457396 -0.03028327 -0.048112988
0.065017089 -0.030283216 -0.048705101
-0.091860227 -0.0041101333 -0.038171768
-0.065456957 -0.0041866135 -0.048132062
0.065017089 -0.0041911565 -0.048705101
0.091373362 -0.0041030254 -0.037268639
-0.091860227 0.022063268 -0.038171768
-0.065456957 0.02190988 -0.048132062
0.065017089 0.021901062 -0.048705101
0.091373362 0.022077059 -0.037268519
-0.091860227 0.0482364 -0.038171649
-0.065456957 0.04800643 -0.0481323
0.065017089 0.04799328 -0.048705101
0.091373362 0.048257299 -0.037268639
-0.091860227 0.074409805 -0.038171768
-0.065456957 0.074103028 -0.048131943
0.065017089 0.074085504 -0.048705101
0.091373362 0.074437439 -0.037268519
-0.091860227 0.10058294 -0.038171649
-0.065456957 0.10019958 -0.048132062
0.065017089 0.10017751 -0.048705101
0.091373362 0.10061768 -0.037268639
-0.091860227 0.12675607 -0.038171768
-0.065456957 0.12629607 -0.048132062
0.065017089 0.12626967 -0.048705101
0.091373362 0.12679783 -0.037268519
-0.091860227 0.15292948 -0.038171887
-0.065456957 0.15239263 -0.048132181
0.065017089 0.15236194 -0.048705101
0.091373362 0.15297806 -0.037268639
-0.091860227 0.17910263 -0.038171768
-0.065456957 0.17848933 -0.048132062
0.065017089 0.1784541 -0.048705101
0.091373362 0.17915815 -0.037268639
-0.091860227 0.20527607 -0.038171768
-0.065456957 0.20458588 -0.048132062
0.065017089 0.20454612 -0.048705101
0.091373801 0.20533983 -0.037249327
-0.091860227 0.23144916 -0.038171649
-0.065456957 0.23068237 -0.0481323
0.065017089 0.2306383 -0.048705101
0.091373801 0.23152015 -0.037249207
-0.091860227 0.25762224 -0.038171649
-0.065456957 0.25677899 -0.048132062
0.065017089 0.25673062 -0.048705101
0.091373801 0.25770038 -0.037249327
-0.091860227 0.28379568 -0.038171649
-0.065456957 0.28287554 -0.048132062
0.065017089 0.28282279 -0.048705101
0.091373801 0.28388077 -0.037249327
-0.091860227 0.30996883 -0.038171768
-0.065456957 0.30897203 -0.048132062
0.065017089 0.30891472 -0.048705101
0.091373801 0.31006131 -0.037249327
-0.091860227 0.3361423 -0.038171887
-0.065456957 0.33506873 -0.048132062
0.065017089 0.33500701 -0.048705101
0.091373801 0.33624154 -0.037249327
-0.091860227 0.36231542 -0.038171768
-0.065456957 0.36116529 -0.048132062
0.065017089 0.36109921 -0.048705101
0.091373801 0.36242193 -0.037249327
-0.091860227 0.3884885 -0.038171649
-0.065456957 0.3872619 -0.048132181
0.065017089 0.3871913 -0.048704863
0.091373801 0.38860229 -0.037249327
-0.091930069 0.41495869 -0.035903454
-0.065453865 0.4133409 -0.048265696
0.065038845 0.41346836 -0.047291517
0.091381788 0.41482803 -0.036903262
-0.065639533 0.44055063 -0.040226102
-0.039378911 0.43962163 -0.046928525
0.038932126 0.43950516 -0.047769189
0.06515944 0.44065693 -0.039458156
-0.065825649 0.4678866 -0.032167435
-0.039492149 0.46680322 -0.03957355
-0.013295753 0.46615851 -0.043982744
0.012832761 0.46626779 -0.043235898
0.038988274 0.46667144 -0.040475607
0.065280303 0.46796849 -0.031608105
-0.039606176 0.49410605 -0.032167435
-0.013352618 0.49342436 -0.036595821
0.012832761 0.49352789 -0.035922647
0.039044663 0.49395478 -0.033150315
-0.11866203 -0.79295313 -0.021841288
0.11800113 -0.79275393 -0.022733331
-0.11866203 -0.76665395 -0.021841407
0.11800113 -0.76646173 -0.02273345
-0.11866203 -0.74035513 -0.021841288
0.11800113 -0.74016982 -0.022733331
-0.11866203 -0.71405619 -0.021841407
0.11800113 -0.71387768 -0.022733331
-0.11866203 -0.68775737 -0.021841288
0.11800113 -0.68758553 -0.022733331
-0.11866203 -0.66145819 -0.021841288
0.11800113 -0.66129357 -0.022733212
-0.11866203 -0.63515937 -0.021841288
0.11800113 -0.63500136 -0.022733331
-0.11866203 -0.60886037 -0.021841288
0.11800113 -0.60870928 -0.02273345
-0.11866203 -0.58256149 -0.021841288
0.11800113 -0.58241719 -0.022733212
-0.11866203 -0.55626243 -0.021841288
0.11800113 -0.55612516 -0.022733331
-0.11866203 -0.52996343 -0.021841288
0.11800113 -0.52983296 -0.022733331
-0.11866203 -0.50366455 -0.021841288
0.11800113 -0.50354093 -0.022733212
-0.11866203 -0.47736555 -0.021841407
0.11800113 -0.47724885 -0.022733331
-0.11866203 -0.45106661 -0.021841288
0.11800113 -0.4509567 -0.022733331
-0.11866203 -0.42476761 -0.021841407
0.11800113 -0.42466474 -0.022733212
-0.11866203 -0.39846879 -0.021841288
0.11800113 -0.39837259 -0.022733331
-0.11866203 -0.37216979 -0.021841288
0.11800113 -0.37208042 -0.02273345
-0.11866203 -0.34587079 -0.021841288
0.11800113 -0.34578842 -0.022733331
-0.11866203 -0.31957185 -0.021841288
0.11800113 -0.31949627 -0.022733212
-0.11866203 -0.29327294 -0.021841288
0.11800113 -0.29320416 -0.02273345
-0.11866203 -0.26697394 -0.021841288
0.11800113 -0.26691216 -0.022733212
-0.11866203 -0.24067491 -0.021841288
0.11800113 -0.24062 -0.022733331
-0.11866203 -0.214376 -0.021841288
0.11800172 -0.21432897 -0.022714019
-0.11866203 -0.188077 -0.021841288
0.11800172 -0.18803671 -0.0227139
-0.11866203 -0.16177811 -0.021841288
0.11800172 -0.16174445 -0.0227139
-0.11866203 -0.13547911 -0.021841288
0.11800172 -0.13545217 -0.0227139
-0.11866203 -0.10918017 -0.021841288
0.11800172 -0.10916001 -0.022714019
-0.11866203 -0.08288116 -0.021841288
0.11800172 -0.082867801 -0.0227139
-0.11866203 -0.056582324 -0.021841288
0.11800172 -0.056575537 -0.0227139
-0.11866203 -0.030283216 -0.021841288
0.11800172 -0.03028327 -0.0227139
-0.11866203 -0.0039843246 -0.021841526
0.11800172 -0.0039910041 -0.0227139
-0.11866203 0.022314621 -0.021841288
0.11800172 0.022301206 -0.02271378
-0.11866203 0.048613727 -0.021841288
0.11800172 0.048593469 -0.02271378
-0.11866203 0.074912459 -0.021841288
0.11800172 0.074885577 -0.022714019
-0.11866203 0.10121156 -0.021841288
0.11800172 0.10117784 -0.022714019
-0.11866203 0.12751052 -0.021841168
0.11800172 0.12747011 -0.02271378
-0.11866203 0.1538094 -0.021841288
0.11800172 0.15376237 -0.02271378
-0.11866203 0.18010841 -0.021841288
0.11800172 0.18005458 -0.02271378
-0.11866203 0.20640725 -0.021841288
0.11800172 0.20634685 -0.02271378
-0.11866203 0.2327064 -0.021841288
0.11800172 0.23263907 -0.02271378
-0.11866203 0.25900531 -0.021841288
0.11800172 0.25893137 -0.02271378
-0.11866203 0.28530425 -0.021841407
0.11800172 0.28522369 -0.022714019
-0.11866203 0.31160319 -0.021841288
0.11800172 0.31151602 -0.0227139
-0.11866203 0.33790207 -0.021841288
0.11800172 0.33780801 -0.022714019
-0.11866203 0.36420104 -0.021841288
0.11800172 0.36410034 -0.022714019
-0.11866203 0.39050019 -0.021841288
0.11800113 0.39039016 -0.022733331
-0.11874196 0.4170709 -0.019764662
0.11811108 0.41714969 -0.019162655
-0.092178851 0.44226888 -0.027824163
0.091563359 0.44210032 -0.02904129
-0.092429407 0.46971193 -0.019687057
0.091750242 0.46952742 -0.020948648
-0.066013083 0.49535561 -0.02405107
0.065401725 0.49540633 -0.023721695
-0.066200972 0.52295291 -0.015915394
-0.039720401 0.52152485 -0.024748325
-0.013409581 0.52080601 -0.029195786
0.012832761 0.52090573 -0.028577805
0.039101295 0.52135581 -0.025793433
0.065523714 0.52297157 -0.015798569
-0.039835427 0.54906678 -0.017277241
-0.013466794 0.54830706 -0.021763682
0.012832761 0.54840213 -0.021201015
0.039158322 0.54887909 -0.01838541
-0.013524408 0.57593167 -0.014279723
0.012832761 0.5760178 -0.013792634
-0.14602159 -0.77160364 0.001121521
0.1452235 -0.77167135 0.0014358759
-0.14602159 -0.74512792 0.001121521
0.1452235 -0.74519324 0.0014359951
-0.14602159 -0.71865219 0.0011212826
0.1452235 -0.71871513 0.0014359951
-0.14602159 -0.69217646 0.0011214018
0.1452235 -0.69223696 0.0014359951
-0.14602159 -0.66570067 0.001121521
0.1452235 -0.66575873 0.0014358759
-0.14602159 -0.63922507 0.001121521
0.1452235 -0.63928068 0.0014358759
-0.14602159 -0.61274922 0.0011212826
0.1452235 -0.61280251 0.0014359951
-0.14602159 -0.58627355 0.0011214018
0.1452235 -0.58632439 0.0014361143
-0.14602159 -0.55979782 0.001121521
0.1452235 -0.55984622 0.0014359951
-0.14602159 -0.5333221 0.001121521
0.1452235 -0.53336805 0.0014359951
-0.14602159 -0.50684631 0.0011212826
0.1452235 -0.50688994 0.0014358759
-0.14602159 -0.48037064 0.0011214018
0.1452235 -0.4804118 0.0014359951
-0.14602159 -0.45389494 0.001121521
0.1452235 -0.45393369 0.0014361143
-0.14602159 -0.42741925 0.001121521
0.1452235 -0.4274556 0.0014361143
-0.14602159 -0.4009434 0.0011212826
0.1452235 -0.4009774 0.0014359951
-0.14602159 -0.37446773 0.0011214018
0.1452235 -0.3744992 0.0014359951
-0.14602159 -0.34799203 0.001121521
0.1452235 -0.34802109 0.0014359951
-0.14602159 -0.32151634 0.001121521
0.1452235 -0.32154295 0.0014361143
-0.14602159 -0.29504055 0.0011212826
0.1452235 -0.29506475 0.0014358759
-0.14602159 -0.26856485 0.0011214018
0.1452235 -0.26858655 0.0014359951
-0.14602159 -0.24208909 0.001121521
0.1452235 -0.24210845 0.0014359951
-0.14602159 -0.21561342 0.001121521
0.1452235 -0.21563037 0.0014359951
-0.14602159 -0.18913756 0.001121521
0.1452235 -0.18915217 0.0014361143
-0.14602159 -0.16266194 0.001121521
0.1452235 -0.16267397 0.0014359951
-0.14602159 -0.13618624 0.001121521
0.1452235 -0.13619585 0.0014359951
-0.14602159 -0.10971055 0.001121521
0.1452235 -0.10971777 0.0014359951
-0.14602159 -0.083234705 0.001121521
0.1452235 -0.083239563 0.0014361143
-0.14602159 -0.056759015 0.001121521
0.1452235 -0.056761473 0.0014361143
-0.14602159 -0.03028327 0.001121521
0.1452235 -0.030283164 0.0014359951
-0.14602159 -0.0038075279 0.0011214018
0.1452235 -0.0038051233 0.0014359951
-0.14602159 0.022668162 0.001121521
0.14522274 0.022672703 0.0014163256
-0.14602159 0.049143903 0.001121521
0.14522274 0.049150638 0.0014163256
-0.14602159 0.075619593 0.001121521
0.14522274 0.075628571 0.0014163256
-0.14602159 0.1020954 0.0011214018
0.14522274 0.10210662 0.0014163256
-0.14602159 0.12857114 0.001121521
0.14522274 0.12858459 0.0014163256
-0.14602159 0.15504676 0.001121521
0.14522274 0.15506265 0.0014163256
-0.14602159 0.18152244 0.001121521
0.14522198 0.18153945 0.001396656
-0.14602159 0.20799837 0.0011214018
0.14522198 0.20801739 0.0013968945
-0.14602159 0.234474 0.001121521
0.14522198 0.23449522 0.001396656
-0.14602159 0.26094964 0.001121521
0.14522198 0.26097295 0.001396656
-0.14602159 0.28742543 0.001121521
0.14522198 0.28745082 0.001396656
-0.14602159 0.31390119 0.0011214018
0.14522198 0.31392854 0.001396656
-0.14602159 0.34037691 0.001121521
0.14522198 0.34040657 0.001396656
-0.14602159 0.36685261 0.001121521
0.14522198 0.36688429 0.001396656
-0.14602159 0.39332834 0.001121521
0.14522198 0.39336234 0.001396656
-0.14613426 0.42012337 0.0035607815
0.1453083 0.42013359 0.0036394596
-0.11911975 0.44474584 -0.0099490881
0.11839838 0.44476205 -0.0098320246
-0.11949974 0.47258019 -7.7366829e-05
0.11868665 0.4725228 -0.00047004223
-0.092680559 0.49728322 -0.011530519
0.091965497 0.49726826 -0.011628151
-0.092933528 0.52498966 -0.0033153296
0.092181481 0.52515787 -0.0022759438
-0.066390201 0.55068511 -0.0077211857
0.065646261 0.5506652 -0.0078386068
-0.066580348 0.5785504 0.00051224232
-0.039950654 0.57672602 -0.0097929239
0.039219506 0.57661194 -0.010437369
0.065769389 0.57848793 0.00015842915
-0.040066384 0.60450637 -0.0022759438
-0.013582122 0.60367393 -0.0067821741
0.012832761 0.60375708 -0.0063322783
0.039280973 0.60447377 -0.0024526119
-0.013640242 0.63154179 0.00076770782
0.012832761 0.63161355 0.0011411905
-0.14663683 0.44812545 0.01444149
0.14579122 0.44836718 0.01618576
-0.11988114 0.5005722 0.0098320246
0.11897711 0.50043863 0.0089628696
-0.12026551 0.52872962 0.019818425
0.11926857 0.52850479 0.018427968
-0.093225934 0.55303937 0.0061808825
0.092399091 0.55320323 0.0071470737
-0.093532778 0.58131868 0.016146183
0.092617914 0.58140278 0.016622066
-0.066770948 0.6065464 0.0087656975
0.065893084 0.60644066 0.0081930161
-0.040182929 0.63241291 0.0052938461
0.039342731 0.63246602 0.0055698156
-0.066962928 0.63468063 0.01707828
0.066017359 0.63452423 0.016265154
-0.040299684 0.66043848 0.012877345
-0.013698464 0.65952867 0.0083311796
0.012832761 0.65959179 0.0086470842
0.039404772 0.66058898 0.013629556
-0.040423691 0.68867886 0.020931721
-0.013757098 0.68764293 0.015947938
0.012832761 0.6876924 0.01618576
0.039467111 0.68884414 0.021727204
-0.17430277 -0.77882546 0.034626365
0.17331059 -0.77917975 0.036270738
-0.17430277 -0.75209177 0.034626365
0.17331059 -0.7524336 0.036270618
-0.17430277 -0.72535801 0.034626484
0.17331059 -0.72568727 0.036270857
-0.17430277 -0.69862449 0.034626365
0.17331059 -0.69894093 0.036270738
-0.17430277 -0.67189085 0.034626484
0.17331059 -0.6721946 0.036270618
-0.17430277 -0.64515722 0.034626365
0.17331059 -0.64544833 0.036270738
-0.17430277 -0.61842358 0.034626484
0.17331059 -0.61870199 0.036270738
-0.17430277 -0.59168994 0.034626365
0.17331059 -0.59195566 0.036270618
-0.17430277 -0.56495625 0.034626484
0.17331059 -0.56520945 0.036270738
-0.17430277 -0.53822261 0.034626365
0.17331059 -0.538463 0.036270738
-0.17430277 -0.51148885 0.034626365
0.17331059 -0.51171678 0.036270618
-0.17430277 -0.48475528 0.034626484
0.17331059 -0.48497057 0.036270738
-0.17430277 -0.45802161 0.034626365
0.17331059 -0.45822415 0.036270738
-0.17430277 -0.431288 0.034626484
0.17331059 -0.43147784 0.036270738
-0.17430277 -0.40455437 0.034626365
0.17331059 -0.4047316 0.036270738
-0.17430277 -0.3778207 0.034626484
0.17331059 -0.37798527 0.036270738
-0.17430277 -0.35108709 0.034626365
0.17331059 -0.35123894 0.036270738
-0.17430277 -0.32435343 0.034626484
0.17331059 -0.32449269 0.036270738
-0.17430277 -0.2976197 0.034626484
0.17331059 -0.29774636 0.036270618
-0.17430277 -0.27088618 0.034626484
0.17331059 -0.27099997 0.036270618
-0.17430277 -0.24415241 0.034626484
0.17331059 -0.24425374 0.036270738
-0.17430277 -0.2174188 0.034626365
0.17331152 -0.21750848 0.036290646
-0.17430277 -0.19068518 0.034626484
0.17331152 -0.19076198 0.036290646
-0.17430277 -0.16395152 0.034626365
0.17331152 -0.16401559 0.036290646
-0.17430277 -0.13721789 0.034626484
0.17331152 -0.13726909 0.036290646
-0.17430277 -0.11048418 0.034626365
0.17331152 -0.11052266 0.036290646
-0.17430277 -0.083750665 0.034626365
0.17331152 -0.083776213 0.036290765
-0.17430277 -0.057016991 0.034626365
0.17331152 -0.057029821 0.036290765
-0.17430277 -0.03028327 0.034626484
0.17331152 -0.030283216 0.036290765
-0.17430277 -0.0035496559 0.034626365
0.17331152 -0.0035367738 0.036290765
-0.17430277 0.023183906 0.034626484
0.17331152 0.023209615 0.036290765
-0.17430277 0.049917579 0.034626365
0.17331059 0.049955629 0.036270738
-0.17430277 0.076651298 0.034626484
0.17331059 0.076701961 0.036270738
-0.17430277 0.10338491 0.034626484
0.17331059 0.1034482 0.036270738
-0.17430277 0.13011858 0.034626365
0.17331059 0.13019453 0.036270738
-0.17430277 0.1568523 0.034626484
0.17331059 0.15694085 0.036270857
-0.17430277 0.18358593 0.034626484
0.17331059 0.18368705 0.036270738
-0.17430277 0.21031943 0.034626484
0.17330967 0.21043199 0.036250591
-0.17430277 0.2370531 0.034626365
0.17330967 0.23717806 0.03625071
-0.17430277 0.26378688 0.034626484
0.17330967 0.2639243 0.036250591
-0.17430277 0.29052049 0.034626365
0.17330967 0.29067039 0.036250591
-0.17430277 0.31725407 0.034626484
0.17330967 0.31741664 0.036250591
-0.17430277 0.34398782 0.034626365
0.17330967 0.34416288 0.036250591
-0.17430277 0.37072134 0.034626484
0.17330873 0.37090668 0.036230564
-0.17398794 0.39673543 0.028784037
0.17290853 0.39658552 0.027565837
0.17349613 0.42492944 0.040287614
-0.14727621 0.47672838 0.02828455
0.14627765 0.47680718 0.028823853
-0.12065212 0.55705023 0.029862881
0.11962806 0.55709082 0.030102968
-0.093841411 0.60976177 0.026169181
0.092837475 0.60975444 0.026129365
-0.09415184 0.63837045 0.036250591
0.093058705 0.63826615 0.035709143
-0.067155369 0.66294724 0.025411487
0.066142231 0.66273987 0.024375081
-0.06734921 0.69135451 0.033805013
0.066288337 0.69136697 0.033864975
-0.040552579 0.71711153 0.029303432
-0.013815837 0.71587747 0.023578286
0.012832761 0.7159161 0.023757696
0.039529741 0.71723217 0.029863
-0.040681787 0.74567771 0.037695527
-0.013874991 0.74424136 0.031262636
0.012832761 0.74426377 0.031362653
0.039592661 0.74575394 0.038036942
-0.013934253 0.77272725 0.038961053
0.012832761 0.77274096 0.039021373
-0.17474009 0.42525086 0.04274261
-0.17560561 0.45427257 0.058804512
-0.14792168 0.50556487 0.042259097
0.14676766 0.50545639 0.041554689
-0.14857142 0.53463143 0.056326628
0.14726131 0.53431648 0.054379702
-0.12110989 0.58585292 0.041756034
0.12001974 0.58604193 0.042823076
-0.1216512 0.61523968 0.055819392
0.12041493 0.61520976 0.055657268
-0.09446346 0.66714215 0.046370745
0.093280241 0.66692805 0.045301676
-0.094777524 0.69608611 0.056570292
0.093549848 0.69617039 0.056976199
-0.067553751 0.71999085 0.042661905
0.066436484 0.72016883 0.043487787
-0.067788333 0.74905401 0.052819371
0.066585138 0.74912626 0.05314362
-0.040811934 0.77438706 0.046148896
0.039655887 0.77441043 0.046249747
-0.04094271 0.80323654 0.054643273
-0.013993779 0.80133963 0.046693563
0.012832761 0.80133963 0.046693563
0.039719563 0.80320746 0.054521441
-0.014034702 0.82947558 0.052009463
0.012832761 0.82946557 0.051969051
-0.014034702 0.85634303 0.052009702
0.012832761 0.85633266 0.051969051
-0.014034702 0.88321042 0.052009463
0.012832761 0.88319993 0.051969051
-0.014034702 0.91007775 0.052009702
0.012832761 0.91006696 0.051968932
-0.014034702 0.93694532 0.052009702
0.012832761 0.93693417 0.051969051
-0.014034702 0.96381289 0.052009463
0.012832761 0.96380109 0.051969051
-0.014034702 0.99068016 0.052009583
0.012832761 0.9906624 0.051948905
0.17447819 0.45465308 0.061549902
-0.14930017 0.56420416 0.072104812
0.14803188 0.56459284 0.074399829
-0.12219767 0.64486891 0.070017457
0.12081304 0.64459336 0.068586349
-0.095175847 0.72577691 0.069506168
0.093848191 0.72586077 0.069894552
-0.068024755 0.77829188 0.063057065
0.066734634 0.77824479 0.062853336
-0.06826257 0.80770183 0.073354363
0.06688495 0.80752575 0.072616935
-0.041023366 0.83141458 0.059881687
0.039758943 0.83135456 0.059637547
-0.041023366 0.85834265 0.059881687
0.039758943 0.85828084 0.059637547
-0.041023366 0.88527083 0.059881687
0.039758943 0.88520694 0.059637547
-0.041023366 0.9121989 0.059881687
0.039758943 0.91213304 0.059637547
-0.041023366 0.93912697 0.059881687
0.039758943 0.93905938 0.059637666
-0.041023366 0.96605498 0.059881687
0.039758943 0.96598554 0.059637666
-0.041023366 0.99298304 0.059881806
0.039758943 0.99291176 0.059637547
-0.17704231 0.48509198 0.08546555
0.17549708 0.48482031 0.0836097
-0.12279387 0.67497516 0.085506797
0.12139 0.67533892 0.087323666
-0.095616467 0.75597364 0.083815813
0.09414874 0.75577116 0.082908869
-0.068370603 0.83588594 0.078032851
0.066956319 0.8356936 0.07725203
-0.068370603 0.86295378 0.078032851
0.066956319 0.86275536 0.07725215
-0.068370603 0.89002156 0.078032851
0.066956319 0.88981724 0.07725203
-0.068370603 0.91708934 0.078032851
0.066956319 0.916879 0.077252269
-0.068370603 0.94415718 0.078032851
0.066956319 0.94394088 0.07725215
-0.068370603 0.97122484 0.078032732
0.066956319 0.97100252 0.077252269
0.20415528 -0.79557329 0.11232722
0.20415528 -0.76824158 0.11232734
0.20415528 -0.74090976 0.1123271
0.20415528 -0.71357805 0.11232734
0.20415528 -0.68624616 0.11232722
0.20415528 -0.65891445 0.11232734
0.20415528 -0.63158256 0.11232722
0.20415528 -0.60425085 0.11232734
0.20415528 -0.57691902 0.1123271
0.20415528 -0.54958731 0.11232734
0.20415641 -0.5222584 0.1123482
0.20415641 -0.49492645 0.1123482
0.20415641 -0.46759444 0.1123482
0.20415641 -0.44026253 0.1123482
0.20415641 -0.41293064 0.1123482
0.20415641 -0.38559869 0.1123482
0.20415641 -0.35826671 0.11234808
0.20415641 -0.33093473 0.11234808
0.20415641 -0.30360273 0.11234808
0.20415641 -0.2762709 0.1123482
0.20415641 -0.24893892 0.1123482
0.20415641 -0.22160698 0.1123482
0.20415641 -0.19427499 0.1123482
0.20415641 -0.16694306 0.1123482
0.20415641 -0.13961107 0.1123482
0.20415641 -0.11227918 0.11234808
0.20415641 -0.084947251 0.11234808
0.20415641 -0.057615258 0.11234808
0.20415641 -0.030283431 0.1123482
0.20415641 -0.0029514413 0.1123482
0.20415641 0.024380492 0.1123482
0.20415641 0.051712483 0.1123482
0.20415641 0.079044417 0.1123482
0.20415641 0.10637645 0.1123482
0.20415641 0.13370845 0.1123482
0.20415641 0.16104032 0.1123482
0.20415641 0.18837231 0.11234808
0.20415641 0.2157042 0.1123482
0.20415641 0.24303618 0.1123482
0.20415641 0.27036807 0.1123482
0.20415641 0.29770005 0.1123482
0.20415641 0.32503206 0.1123482
0.20415528 0.35236189 0.11232734
0.20415416 0.37969121 0.11230624
-0.20499642 0.40537506 0.098928809
0.20411691 0.40693769 0.11161506
-0.15054104 0.59598303 0.098970294
0.14888643 0.59556359 0.096601605
-0.12383182 0.70770556 0.11247373
0.12207934 0.70713121 0.10971057
-0.096084379 0.78659528 0.099011779
0.094550878 0.78689796 0.10032213
-0.2060747 -0.76909596 0.11643815
-0.2060747 -0.7417326 0.11643815
-0.2060747 -0.71436906 0.11643803
-0.2060747 -0.6870057 0.11643803
-0.2060747 -0.65964222 0.11643815
-0.2060747 -0.6322788 0.11643803
-0.2060747 -0.60491532 0.11643815
-0.2060747 -0.57755196 0.11643815
-0.2060747 -0.55018848 0.11643803
-0.2060747 -0.52282506 0.11643803
-0.2060747 -0.49546164 0.11643815
-0.2060747 -0.46809816 0.11643791
-0.2060747 -0.44073474 0.11643803
-0.2060747 -0.41337138 0.11643803
-0.2060747 -0.38600782 0.11643803
-0.2060747 -0.35864452 0.11643803
-0.2060747 -0.33128104 0.11643815
-0.2060747 -0.30391768 0.11643815
-0.2060747 -0.27655417 0.11643803
-0.2060747 -0.24919081 0.11643803
-0.2060747 -0.22182733 0.11643815
-0.2060747 -0.19446386 0.11643791
-0.2060747 -0.16710044 0.11643803
-0.2060747 -0.13973708 0.11643815
-0.2060747 -0.11237362 0.11643791
-0.2060747 -0.085010096 0.11643815
-0.2060747 -0.057646737 0.11643815
-0.2060747 -0.03028327 0.11643791
-0.2060747 -0.0029199626 0.11643803
-0.2060747 0.024443613 0.11643815
-0.2060747 0.051807076 0.11643791
-0.2060747 0.079170384 0.11643791
-0.2060747 0.10653375 0.11643803
-0.2060747 0.13389732 0.11643815
-0.2060747 0.16126078 0.11643815
-0.2060747 0.1886242 0.11643815
-0.2060747 0.21598752 0.11643815
-0.2060747 0.24335113 0.11643815
-0.2060747 0.27071446 0.11643815
-0.2060747 0.29807785 0.11643815
-0.2060747 0.32544127 0.11643791
-0.2060747 0.35280481 0.11643815
-0.2060747 0.3801682 0.11643815
-0.097041547 0.82124275 0.13009679
-0.097053938 0.84881014 0.13049889
-0.097053938 0.87628198 0.13049889
-0.097053938 0.90375358 0.13049901
-0.097053938 0.9312253 0.13049889
-0.097053938 0.9586969 0.13049901
-0.097053938 0.9861688 0.13049889
0.17821796 0.52100068 0.14251828
0.095285922 0.82173264 0.13215053
0.095285922 0.84921712 0.13215053
0.095285922 0.87670141 0.13215053
0.095285922 0.90418595 0.13215053
0.095285922 0.93167019 0.13215053
0.095285922 0.95915478 0.13215053
0.095285922 0.98663908 0.13215053
0 0 0 1 0 0 0 1 0 0 0 1 0 0 0 0 0 944 1 0 0
