ply
format ascii 1.0
comment PCL generated
element vertex 906
property float x
property float y
property float z
element camera 1
property float view_px
property float view_py
property float view_pz
property float x_axisx
property float x_axisy
property float x_axisz
property float y_axisx
property float y_axisy
property float y_axisz
property float z_axisx
property float z_axisy
property float z_axisz
property float focal
property float scalex
property float scaley
property float centerx
property float centery
property int viewportx
property int viewporty
property float k1
property float k2
end_header
0.03565935 -0.0076492499 -0.20044088
0.0069069043 0.006795113 -0.1982283
0.020983681 0.0067426022 -0.20504957
0.03565935 0.0067780996 -0.20044088
0.020856485 0.021098096 -0.20741028
0.035659887 0.021205591 -0.2004323
0.021007486 0.035536528 -0.20460796
0.035659887 0.035632938 -0.2004323
0.035660967 0.050060846 -0.20041478
0.021859944 -0.022166274 -0.18878829
0.036353648 -0.02216335 -0.18916696
0.0073270574 -0.007649268 -0.18913186
0.02151601 -0.0076492322 -0.19517094
0.050734289 -0.0076492322 -0.1910935
-0.0071791857 0.0068667168 -0.18892044
0.050733678 0.0068500433 -0.19110233
-0.0071153939 0.021408303 -0.18726313
0.0069827065 0.021264719 -0.19658726
0.0507349 0.02134948 -0.19108486
0.0070061088 0.035733461 -0.19608057
0.050734289 0.035848595 -0.19109356
0.0073193237 0.050403126 -0.18929917
0.021441095 0.050179549 -0.19656116
0.050733678 0.050347567 -0.19110227
0.02176556 0.064868465 -0.19053966
0.036426902 0.064967029 -0.18797749
0.066434704 -0.12460434 -0.17549032
0.066496618 -0.11002828 -0.1746859
0.051921241 -0.095436208 -0.17396128
0.066511758 -0.09541183 -0.17448914
0.022651687 -0.080799907 -0.17409551
0.037306055 -0.080815062 -0.17370176
-0.006614089 -0.066165403 -0.17423868
-0.0067604706 -0.051448502 -0.17804193
-0.021275043 -0.036891297 -0.17527592
-0.006825231 -0.036822885 -0.1797244
0.0075905994 -0.03676584 -0.18342602
0.022282749 -0.036804117 -0.18094206
0.037246555 -0.03690071 -0.17466795
-0.021349244 -0.022251755 -0.17768538
-0.0068895295 -0.022223178 -0.18139488
0.0075133219 -0.022194654 -0.18509895
0.051305406 -0.022211937 -0.18285
0.066350155 -0.022260198 -0.17658848
-0.006954059 -0.007649268 -0.18307149
0.065959655 -0.007649268 -0.18166131
-0.02140107 -0.0076491963 -0.17936862
-0.021406002 0.0069390377 -0.17952865
0.065958969 0.0069225803 -0.18167013
-0.021354456 0.021553196 -0.17785478
0.06596034 0.021494661 -0.18165243
-0.021295402 0.036198638 -0.17593694
-0.0070514902 0.035975419 -0.18560284
0.065959655 0.036066435 -0.18166131
-0.0069120824 0.050628461 -0.18198085
0.065958969 0.050637998 -0.18167013
-0.0067059025 0.065404095 -0.17662424
0.0075648203 0.065120794 -0.18398392
0.051477604 0.065260097 -0.18036455
0.0078121275 0.079922065 -0.1786297
0.022429422 0.079941034 -0.17822009
0.067445032 -0.15485346 -0.16236573
0.081544288 -0.15428881 -0.16970134
0.096871667 -0.15484165 -0.16251957
0.096873336 -0.14012368 -0.16250151
0.052434064 -0.13984255 -0.16655922
0.066669591 -0.13943519 -0.17243892
0.081339054 -0.13945688 -0.17212528
0.023242779 -0.12536576 -0.16312623
0.037617773 -0.12502623 -0.1686402
0.052035414 -0.12480006 -0.17231339
0.081339054 -0.12481162 -0.1721251
0.096873336 -0.12540433 -0.16250151
0.0085022971 -0.11062101 -0.16368717
0.02308403 -0.11049245 -0.16607213
0.037598379 -0.11033714 -0.16895509
0.052069567 -0.11018272 -0.17182034
0.081338279 -0.11016584 -0.17213404
0.096872486 -0.1106844 -0.16251051
-0.0061943755 -0.095927037 -0.16333437
0.0083080307 -0.095716543 -0.16789299
0.022876844 -0.095623031 -0.16991717
0.037414193 -0.095529288 -0.17194581
0.081339054 -0.095521025 -0.17212516
0.096872486 -0.095965117 -0.16251051
-0.0064532831 -0.080955163 -0.17006087
0.0081146359 -0.080877408 -0.17208034
0.052048452 -0.080875687 -0.17212516
0.066852652 -0.080955163 -0.17006087
0.081688263 -0.081034422 -0.16800112
0.096873336 -0.081246167 -0.16250139
-0.020934917 -0.066473544 -0.16422975
0.0080939308 -0.066218056 -0.17252851
0.022877328 -0.066298679 -0.16990817
0.037738152 -0.06639789 -0.16668558
0.052669413 -0.066506423 -0.16316241
-0.021147929 -0.051607735 -0.17114735
0.0080839992 -0.051570803 -0.17274362
0.02306556 -0.051717006 -0.16641492
0.052309848 -0.036997952 -0.16835213
0.067473643 -0.037095837 -0.16199422
0.081494816 -0.022308748 -0.1702854
0.096872486 -0.022368519 -0.16251051
0.081608228 -0.007649268 -0.16894609
0.081386872 0.0070003513 -0.17156017
0.081339054 0.021641329 -0.17212516
0.096903451 0.021794576 -0.16217542
0.081343599 0.036287881 -0.17207134
0.096910156 0.036518097 -0.16210294
-0.021200385 0.050909586 -0.17285103
0.081364863 0.050941318 -0.17182034
0.096935265 0.05124896 -0.16183114
-0.020878356 0.065951861 -0.16239291
0.066656493 0.06555865 -0.17260921
0.081960924 0.065859929 -0.16478097
-0.0064982101 0.080263987 -0.17122823
0.037504829 0.080298819 -0.17047411
0.052706413 0.0806612 -0.16262835
-0.0062389299 0.095279135 -0.16449183
0.0082876533 0.095072128 -0.16833413
0.096871667 0.12482393 -0.16251963
0.082094155 0.13949017 -0.16320759
0.096871667 0.13954316 -0.16251963
0.082194604 0.15430458 -0.16202134
0.096874185 0.15426469 -0.16249245
0.097978659 -0.1705756 -0.15053594
0.11256468 -0.17038488 -0.15278918
0.053237401 -0.15542321 -0.15496409
0.11256375 -0.15558998 -0.1527983
0.023864418 -0.14087959 -0.15158993
0.038205333 -0.14035943 -0.15909928
0.11256558 -0.14079718 -0.15278
0.0089756548 -0.12596247 -0.15343845
0.11256558 -0.12600297 -0.15278
-0.0057275221 -0.11129359 -0.15120512
0.11256468 -0.11120827 -0.15278918
0.11256468 -0.096414156 -0.15278918
-0.020561785 -0.08164607 -0.15211195
0.11256558 -0.081620328 -0.15278
0.067876495 -0.066703558 -0.15676063
0.083083354 -0.066864751 -0.15152574
0.038147159 -0.051864088 -0.16004407
0.053329803 -0.052012295 -0.15363044
-0.035369389 -0.03724245 -0.15246886
0.082738899 -0.037194371 -0.15559369
-0.035466608 -0.022413447 -0.15667868
0.11256468 -0.022443421 -0.15278918
-0.035563398 -0.0076492322 -0.1608699
0.097527452 -0.0076491963 -0.15542048
-0.0355202 0.0070970897 -0.15899926
0.097275816 0.0071036518 -0.15814453
-0.035453133 0.021888159 -0.15609539
0.11263152 0.02194933 -0.15212113
-0.035385866 0.036724046 -0.15318245
0.11264069 0.036750801 -0.15202951
-0.035305679 0.051622182 -0.1497103
0.11267094 0.051560014 -0.15172726
0.097391017 0.066163301 -0.15689725
-0.020553045 0.081159987 -0.15182805
0.068033077 0.081026137 -0.1547268
0.023385383 0.095495366 -0.16047978
0.038608596 0.095922589 -0.15255123
0.0085984915 0.11016103 -0.16160446
0.023384407 0.11022925 -0.16049796
0.038187437 0.11029741 -0.15939009
0.05300761 0.11036568 -0.15828091
0.06784495 0.11043409 -0.15717059
0.08269874 0.11050198 -0.15606791
0.097570457 0.11057048 -0.15495491
0.11256375 0.11070339 -0.15279835
0.0090297461 0.12553421 -0.15226758
0.023660466 0.12531894 -0.15537483
0.038503304 0.1253961 -0.15426099
0.053363375 0.12547332 -0.15314585
0.06824071 0.12555072 -0.15202963
0.082574524 0.12516928 -0.15753466
0.11256468 0.12549807 -0.15278918
0.023938015 0.14048971 -0.15022415
0.053291805 0.14018521 -0.15417874
0.067720972 0.13983093 -0.15878111
0.11256468 0.14029229 -0.15278918
0.053500377 0.15522362 -0.15116853
0.067828842 0.1546976 -0.15737993
0.11256649 0.1550879 -0.15277082
0.097286753 0.1693967 -0.15802622
0.11256649 0.16988219 -0.15277082
0.069196962 -0.17150103 -0.13960761
0.08362817 -0.1710366 -0.14509189
0.12869447 -0.17143431 -0.14039558
0.038918793 -0.15599677 -0.14751422
0.12841624 -0.15634602 -0.1429776
0.12841821 -0.14147763 -0.14295918
0.12841821 -0.12660776 -0.14295918
0.12841722 -0.11173747 -0.14296836
-0.020184174 -0.097011819 -0.13984865
0.12841624 -0.096867286 -0.1429776
0.12841722 -0.081998013 -0.14296836
-0.035099126 -0.067196004 -0.14076614
0.098372586 -0.067026481 -0.14627153
0.11374653 -0.067189515 -0.14097917
-0.035271741 -0.052136749 -0.14824069
0.068614505 -0.052161314 -0.14717376
0.084002309 -0.05231151 -0.14067352
0.09810666 -0.037293546 -0.14915031
0.11357798 -0.03739344 -0.14266324
0.12841624 -0.022518862 -0.14297765
0.1136928 -0.007649268 -0.14151627
-0.049939111 -0.0076491963 -0.13773221
0.11339129 0.0072084935 -0.1445291
0.12852585 0.022105841 -0.14196044
0.12853879 0.036986008 -0.1418401
0.12857372 0.051874466 -0.14151621
-0.035058223 0.06685245 -0.13899517
0.11294996 0.066469654 -0.14893901
0.1286386 0.066778548 -0.14091438
0.083487727 0.08139459 -0.14675033
0.099070467 0.08176557 -0.13871676
-0.020224117 0.096537173 -0.14114588
0.053957798 0.09635289 -0.14456612
0.069250517 0.096657522 -0.13891172
-0.0056381822 0.11094446 -0.14888394
0.12841722 0.11130872 -0.14296842
0.12841722 0.12617852 -0.14296842
0.03882087 0.14057586 -0.1491043
0.12841722 0.14104816 -0.14296842
0.039079338 0.15575379 -0.14490736
0.12841919 0.15591952 -0.14294994
0.069127731 0.17101511 -0.1405068
0.083345972 0.17028372 -0.14842445
0.12841919 0.17078945 -0.14294994
0.054682814 -0.17196731 -0.13410133
0.025006235 -0.1573142 -0.13040066
0.14443153 -0.15710977 -0.13305604
0.010055736 -0.1423717 -0.13005412
0.1444326 -0.1421643 -0.13304681
-0.0048621893 -0.12748441 -0.12872314
0.14443368 -0.12721878 -0.13303745
-0.019800268 -0.11257745 -0.12738091
0.1444326 -0.11227206 -0.13304681
0.1444326 -0.097326003 -0.13304669
-0.034812335 -0.082560748 -0.12834787
0.1444326 -0.08237984 -0.13304681
0.12920508 -0.067353323 -0.13565773
0.14474899 -0.067518078 -0.13030696
0.099495105 -0.052462801 -0.13411993
0.11509231 -0.052614957 -0.12753123
-0.049806468 -0.03760194 -0.12911707
0.12915394 -0.037493944 -0.13613266
0.1448355 -0.037595272 -0.12955755
-0.049872868 -0.022592403 -0.13342953
0.14467657 -0.022611622 -0.13093418
0.13010013 -0.0076492322 -0.12735283
-0.049909897 0.0072753644 -0.13583463
0.12973636 0.0073147705 -0.1307283
-0.049864098 0.022245893 -0.13286
0.14458907 0.022263821 -0.13169181
-0.049818303 0.037262104 -0.12988544
0.1446085 0.037224308 -0.13152349
-0.04975833 0.05235257 -0.12598985
0.14464521 0.052191898 -0.13120544
0.14467332 0.067161635 -0.13096219
-0.034808218 0.082252748 -0.1281696
0.11478458 0.082140192 -0.13060653
0.084625997 0.096959516 -0.13330811
0.10009421 0.097265258 -0.12763453
0.14446497 0.11193696 -0.13276654
-0.0048257113 0.12723106 -0.12777537
0.1444326 0.12686586 -0.13304669
0.010001265 0.14195153 -0.13123351
0.1444326 0.14181198 -0.13304669
0.025243901 0.15735564 -0.12598985
0.14443478 0.15675963 -0.13302809
0.054677643 0.17159997 -0.13417596
0.14462686 0.17185965 -0.13136452
0.070591398 -0.18807001 -0.12149298
0.041012086 -0.17370978 -0.11352348
0.14568383 -0.17297415 -0.12221092
0.16153491 -0.1584581 -0.11554092
0.16094384 -0.14304474 -0.12033963
0.16061455 -0.12783611 -0.12301326
0.16061223 -0.11281172 -0.12303203
-0.034521841 -0.09812399 -0.11576903
0.16061339 -0.097789012 -0.12302262
0.16061223 -0.082765341 -0.12303203
-0.049615592 -0.067936495 -0.11671913
0.16061223 -0.067742139 -0.12303203
-0.049739778 -0.052678384 -0.12478524
0.13079584 -0.052768208 -0.12089765
0.14660668 -0.052922383 -0.11421865
0.16062385 -0.037697174 -0.12293768
0.16114092 -0.022705492 -0.11873955
-0.064666614 -0.0076492322 -0.11401862
0.14631686 0.0074225171 -0.11672854
0.16082388 0.022423666 -0.12131357
0.16085067 0.037465081 -0.12109613
0.16089025 0.052513167 -0.12077475
-0.049589403 0.067775272 -0.11501795
0.16091707 0.067562103 -0.12055713
0.13063088 0.082517967 -0.12242812
0.14660999 0.082898401 -0.11419004
-0.034555621 0.097825825 -0.11723167
0.11565689 0.0975748 -0.12188983
0.1313127 0.097886674 -0.11610174
-0.019705549 0.11245813 -0.12430489
0.160725 0.11259284 -0.12211645
0.16066453 0.12758909 -0.12260741
0.16110125 0.14288858 -0.11906171
0.16131261 0.15808761 -0.11734557
0.041009739 0.17350425 -0.11356157
0.070756711 0.18802148 -0.11934578
0.086629473 -0.18916419 -0.10964811
0.16299683 -0.17454405 -0.10367149
0.011325434 -0.15945697 -0.10256439
-0.0039383024 -0.14412689 -0.10471982
0.17841992 -0.14433233 -0.10175478
-0.019060429 -0.12904689 -0.10335392
0.17696336 -0.12845989 -0.112885
0.19348142 -0.12908949 -0.1026606
-0.034203313 -0.11394636 -0.10197657
0.17696211 -0.11335801 -0.11289448
0.19348007 -0.11390895 -0.10267031
0.17696211 -0.098256782 -0.11289448
0.19348142 -0.098729417 -0.10266072
-0.049419601 -0.083498254 -0.10398906
0.17696086 -0.083155148 -0.11290401
0.19348007 -0.083549023 -0.10267031
0.17696211 -0.068054281 -0.11289448
0.19348142 -0.068369366 -0.10266078
0.16252604 -0.053077787 -0.10749376
-0.06459859 -0.037970539 -0.10518104
0.17696086 -0.037851676 -0.11290395
0.19348142 -0.038009368 -0.1026606
-0.064632677 -0.022775805 -0.10960972
0.1778132 -0.02280058 -0.10639095
0.14684659 -0.0076493039 -0.11214107
-0.064651869 0.0074581215 -0.11210299
0.16313794 0.007531805 -0.10252577
-0.064628482 0.022612195 -0.10906446
0.17733189 0.022596776 -0.1100688
-0.064604945 0.037813596 -0.10600698
0.17726687 0.03770829 -0.1105659
-0.064571694 0.053100914 -0.10168737
0.17731065 0.052837729 -0.11023128
0.17733565 0.067966886 -0.11004019
-0.049418561 0.083372734 -0.10392165
0.16272575 0.083282597 -0.10587257
0.14706051 0.098199949 -0.11028862
0.16290206 0.098515086 -0.10444099
0.17716685 0.1132571 -0.11132991
-0.019038785 0.12897174 -0.10265106
0.17727312 0.12842664 -0.11051798
-0.0039952323 0.14387871 -0.10619891
0.16208413 0.17373328 -0.1110816
0.086629473 0.18899199 -0.10964811
0.10341043 -0.20608298 -0.091735363
0.11888043 -0.20628892 -0.089678168
0.05751621 -0.19068316 -0.093204796
0.10267388 -0.19008231 -0.099708855
0.11888141 -0.19100982 -0.089668453
0.17918423 -0.15996887 -0.095914364
0.21017396 -0.12972642 -0.092319489
0.21017253 -0.1144662 -0.092329204
-0.049221043 -0.099263757 -0.091092348
0.21017396 -0.099207088 -0.092319489
0.21017253 -0.083947025 -0.092329204
-0.064497553 -0.068695903 -0.092056692
0.21017396 -0.068687834 -0.092319489
-0.064564414 -0.053233646 -0.10074198
0.17853227 -0.053230099 -0.10089636
0.19453719 -0.053365275 -0.095041215
0.2101754 -0.038168751 -0.092309713
0.19469601 -0.022896711 -0.093895078
-0.079759218 -0.0076492322 -0.089717269
0.1634849 -0.0076492322 -0.099708915
0.19433022 0.022805134 -0.096534789
0.19386232 0.037954293 -0.09991163
0.19390917 0.05316592 -0.099573493
-0.064485103 0.068721361 -0.0904392
0.19393194 0.068376072 -0.099409223
0.17872307 0.083579801 -0.09943825
0.19473642 0.083849296 -0.093603551
-0.049245931 0.099147223 -0.092708766
0.17883947 0.098832585 -0.09854877
0.19487119 0.099151485 -0.092630982
-0.03413666 0.11401094 -0.099090159
0.19379142 0.11392882 -0.10042351
0.19433695 0.1293989 -0.096486449
0.17860553 0.14433002 -0.10033661
0.011502422 0.15966377 -0.09873265
0.17895091 0.15975147 -0.097697258
0.17990839 0.17564559 -0.090380669
0.10267388 0.18998656 -0.099708736
0.11888238 0.19099236 -0.089658678
0.1029438 0.20550422 -0.096786797
0.11888336 0.20627348 -0.089648902
0.13525459 -0.20730491 -0.07952553
0.13525459 -0.19194683 -0.079525471
0.027442001 -0.17610827 -0.085198343
0.18064049 -0.17614315 -0.084786475
-0.018302102 -0.14592776 -0.07872653
0.1962302 -0.14564389 -0.082822978
0.2270425 -0.13036989 -0.081869304
0.2270425 -0.11502987 -0.081869245
0.2270425 -0.099689737 -0.081869304
-0.064397141 -0.08445967 -0.079012692
0.22704101 -0.084349304 -0.081879139
0.22704101 -0.069009282 -0.081879199
0.21063739 -0.053501278 -0.089151084
0.22703949 -0.053669043 -0.081888974
-0.079759218 -0.038347848 -0.080668569
0.22704402 -0.038329598 -0.08185941
-0.079759218 -0.02296376 -0.085198283
0.21179596 -0.02299431 -0.081229687
0.18033409 -0.0076493039 -0.087127686
-0.079759218 0.0076452168 -0.087792873
0.18020484 0.0076427422 -0.088115454
-0.079759218 0.022987785 -0.084668696
0.21156436 0.023016362 -0.082813084
-0.079759218 0.038378753 -0.081534863
0.21063882 0.038203061 -0.089141309
0.2275978 0.038454272 -0.078262627
0.2106888 0.053497694 -0.088799477
0.22704402 0.053711429 -0.081859469
0.2107074 0.068789415 -0.088672519
0.2270425 0.069051161 -0.081869245
-0.064397596 0.084520474 -0.079071939
0.21084464 0.084120363 -0.087734222
0.22704101 0.084390856 -0.081879139
0.21100059 0.099472828 -0.086667717
0.22704101 0.099730842 -0.081879139
0.21060169 0.11460793 -0.089395046
0.22760236 0.1152954 -0.078233004
0.21164632 0.13038492 -0.0822528
-0.018357046 0.14585614 -0.080510855
0.19644824 0.14579938 -0.081249416
0.19694695 0.16144891 -0.077650428
0.027401865 0.17605551 -0.085943103
0.058100127 0.19148085 -0.08477664
0.13525566 0.19200748 -0.079515636
0.13525671 0.2073667 -0.079505742
0.15179595 -0.20833038 -0.069278359
0.15179709 -0.19289424 -0.069268346
0.19862694 -0.17777404 -0.065525949
-0.0027524084 -0.16166285 -0.073909461
0.197501 -0.1616827 -0.073651612
-0.033633769 -0.13065042 -0.077314615
0.24408987 -0.13102031 -0.071308374
-0.04898715 -0.11535148 -0.075900555
0.24408987 -0.11559892 -0.071308434
-0.064295322 -0.10043263 -0.065785944
0.24408987 -0.10017756 -0.071308255
0.24408826 -0.084755801 -0.071318269
-0.079759218 -0.069474369 -0.066774964
0.24408826 -0.069334567 -0.071318269
-0.079759218 -0.053802535 -0.076108277
0.24408665 -0.0539129 -0.071328282
0.24409148 -0.038492132 -0.071298361
0.22911605 -0.023092985 -0.068401396
0.19740072 -0.0076492322 -0.074375451
0.197523 0.0077553298 -0.073493063
0.22904086 0.023230778 -0.068889797
0.24409148 0.038615115 -0.071298361
-0.079759218 0.053868078 -0.076770842
0.24408987 0.054036282 -0.071308374
0.24408987 0.069457658 -0.071308434
0.24408826 0.084878601 -0.071318328
-0.064309083 0.10050167 -0.067573547
0.24408826 0.10029991 -0.071318328
-0.048945807 0.11560441 -0.073215246
0.24409306 0.11572304 -0.071288407
-0.033623502 0.13075794 -0.076869786
0.22920662 0.13138542 -0.067813039
-0.0026285648 0.16203816 -0.070691824
0.19811666 0.17760135 -0.069208562
0.15179709 0.19303288 -0.069268465
0.15179828 0.20847113 -0.069258392
0.16850936 -0.20936748 -0.058915377
0.044662088 -0.19428119 -0.054254949
0.16850936 -0.1938507 -0.058915317
0.013471842 -0.17857289 -0.056093335
0.21575174 -0.16318133 -0.05418402
0.21438709 -0.14698169 -0.063514292
0.26131889 -0.13167766 -0.060634792
0.26131889 -0.11617413 -0.060634911
0.26131889 -0.10067058 -0.060634911
0.26131716 -0.085166603 -0.060644984
0.26131716 -0.069663115 -0.060644865
0.26131716 -0.054159626 -0.060644925
0.26131889 -0.038656317 -0.060634911
-0.095283836 -0.023173839 -0.057898283
0.24666047 -0.023192987 -0.055406928
-0.09523382 -0.0076492322 -0.064395428
0.21468776 -0.007649268 -0.061458409
-0.095254652 0.0078461878 -0.061689198
0.21509802 0.0078695659 -0.058653593
-0.095289029 0.023410344 -0.057223082
0.24676174 0.023448028 -0.054780483
0.26132056 0.038861588 -0.060624778
0.26131889 0.054364972 -0.060634911
-0.079759218 0.06969104 -0.065245926
0.26132056 0.069868818 -0.060624778
0.26131716 0.085371546 -0.060644925
0.26131716 0.10087507 -0.060644925
0.26132226 0.11638036 -0.060614705
-0.033098895 0.14788514 -0.054153681
0.21463785 0.1472965 -0.061799645
0.21531165 0.16318122 -0.057192862
0.013404764 0.17867875 -0.057545602
0.16850936 0.19406894 -0.058915377
0.16851059 0.2095869 -0.058905363
0.18539506 -0.21041425 -0.048454881
0.18539506 -0.19481699 -0.048454762
0.2169635 -0.17943606 -0.045899272
-0.017246045 -0.16393223 -0.044430017
-0.033049803 -0.1477775 -0.05202806
0.23289943 -0.14834565 -0.043827593
-0.048597284 -0.13229695 -0.050577998
-0.064167067 -0.11679427 -0.04912591
0.27873245 -0.11675539 -0.049847007
0.27873066 -0.10116834 -0.049857199
-0.079759218 -0.085496329 -0.052078724
0.27873066 -0.085581809 -0.049857199
0.27873066 -0.069995314 -0.049857199
-0.095384836 -0.054526068 -0.044777155
0.27873245 -0.054409035 -0.049847126
-0.095334172 -0.038799129 -0.051358998
0.27968431 -0.038905226 -0.044470847
0.26443368 -0.02329435 -0.042242885
0.23219955 -0.007649268 -0.048373342
0.23291203 0.0079843402 -0.043745816
-0.095323645 0.039044023 -0.052726924
-0.095385551 0.054856047 -0.044685245
0.27873066 0.054696813 -0.04985714
0.27873424 0.070284061 -0.049836874
-0.079759218 0.085752338 -0.052402914
0.27873245 0.085870266 -0.049847007
0.27873066 0.1014564 -0.049857199
-0.064148039 0.11724025 -0.046653271
-0.048594628 0.13259138 -0.050405383
0.24702331 0.13240038 -0.053162277
0.23319539 0.14882809 -0.041905284
-0.017166719 0.16448009 -0.041853905
0.21678615 0.17964256 -0.04711163
0.044987351 0.19506389 -0.048973322
0.1853964 0.19511692 -0.048444629
0.18539506 0.21071313 -0.048454821
0.20245695 -0.19579335 -0.037885129
0.23436263 -0.16471016 -0.034323692
-0.079759218 -0.10198406 -0.032197237
0.2963298 -0.086001143 -0.038963497
0.29716417 -0.070469834 -0.034447432
0.24994043 -0.007649268 -0.035117209
0.26473543 0.023668399 -0.040461004
-0.079759218 0.10225566 -0.035024643
0.26520124 0.13347097 -0.037710607
0.23405653 0.16494945 -0.036311865
0.20245838 0.19617459 -0.037874818
0.21969777 -0.19677997 -0.027204692
-0.00091315061 -0.18111058 -0.026124239
0.23566344 -0.18113172 -0.025874734
0.25178286 -0.1497387 -0.023720264
0.29857132 -0.10223182 -0.026830852
-0.095505022 -0.070632473 -0.029165208
0.29937327 -0.055040814 -0.022490084
-0.1114278 -0.023483597 -0.017670035
0.28245112 -0.023397507 -0.028843939
0.26791498 -0.007649268 -0.021686554
-0.11132327 -0.0076491963 -0.02445972
-0.11136323 0.008152755 -0.021863997
0.25088421 0.0080956724 -0.029279232
0.28297868 0.023893176 -0.025864303
0.28250805 0.039603017 -0.028522491
-0.095518112 0.071145169 -0.027464151
0.28260353 0.11838992 -0.027983129
0.25213695 0.15039653 -0.021530032
-0.00099787861 0.18137786 -0.028325438
0.23565066 0.1815967 -0.025957942
0.21969777 0.19724238 -0.027204573
0.031296991 -0.19803126 -0.013658702
0.25334311 -0.16626941 -0.014068902
-0.04807917 -0.15020944 -0.016925633
-0.063852221 -0.13490526 -0.0082257986
0.2859706 -0.13485964 -0.0089660287
-0.095661491 -0.087160647 -0.0088391304
-0.11153271 -0.039422765 -0.010856152
0.30158314 -0.03942775 -0.010529101
0.30129281 -0.023526408 -0.012100339
0.28612787 -0.007649268 -0.0080778003
0.26911607 0.0082087256 -0.014594615
-0.11143491 0.024026418 -0.017208755
-0.11150739 0.039973013 -0.012500703
0.30087861 0.055790447 -0.014342308
0.3005642 0.071584798 -0.016044259
-0.095653035 0.087713681 -0.009937942
-0.063861258 0.13543235 -0.0093992949
-0.048039883 0.15094741 -0.014373779
0.25319353 0.16675456 -0.014993966
0.031394586 0.19877927 -0.011847377
-0.031798147 -0.16751949 0.0021703243
0.27120245 -0.1512244 -0.0022752285
-0.079759218 -0.11947206 0.00056898594
-0.11163814 -0.05546768 -0.0040076971
0.30458379 -0.0076493039 0.005712688
0.28760973 0.0083232839 0.00029176474
0.30318865 0.024263067 -0.0018389225
0.30357441 0.040267497 0.00024902821
-0.11167072 0.056173749 -0.0018920302
0.30293322 0.088023908 -0.0032215714
0.30382872 0.10423052 0.0016255975
-0.079759218 0.1202812 0.0027259588
0.28737953 0.1360137 -0.0010085702
0.2708227 0.15170616 -0.0045173168
-0.031766545 0.16832386 0.0035387278
-0.095821097 -0.10402056 0.011895001
-0.11193188 -0.071994528 0.0150702
-0.12806471 -0.0076491963 0.017084002
0.30637461 0.0084396359 0.015405595
-0.1119472 0.072820708 0.016065955
-0.09584488 0.10495037 0.014983714
0.32513613 -0.072432578 0.02929306
0.32317486 -0.056001283 0.019101858
0.32442418 -0.039983913 0.02559346
-0.12822793 -0.02380551 0.024152339
0.32403553 -0.0238011 0.023574233
0.32364768 -0.007649268 0.021558702
-0.12812233 0.0084717274 0.019579709
0.32541275 0.0085576382 0.030730307
-0.12823525 0.024668092 0.02446878
0.32483041 0.024717895 0.027704358
-0.12834844 0.040940002 0.029369771
0.32524377 0.040951118 0.029852331
-0.11225857 -0.088897571 0.036289573
-0.12851971 -0.056409717 0.036786318
-0.12839228 -0.040071256 0.031268477
-0.12856847 0.057429776 0.038897574
0.32565802 0.057217471 0.032004774
0.32622579 0.073547684 0.034954965
-0.11222886 0.089759648 0.034359813
-0.079759218 0.13898034 0.041811645
-0.079759218 -0.13819686 0.045223475
-0.096141063 -0.12232219 0.053458989
-0.11253482 -0.1059761 0.054233253
-0.12883541 -0.073084183 0.050456762
-0.14524794 -0.024021396 0.052203298
-0.14509991 -0.007649268 0.047396362
-0.14515112 0.0086987298 0.049059451
-0.14525414 0.025098218 0.052405
-0.1288442 0.074159063 0.050837219
-0.096141323 0.12340762 0.053492665
-0.063350737 -0.15532565 0.056919634
-0.12915498 -0.089975536 0.064294159
-0.14556932 -0.057006821 0.062640905
-0.14539731 -0.04046832 0.057054639
-0.14535713 0.041549161 0.055749893
-0.14563453 0.058226056 0.064758837
-0.1291236 0.091079429 0.062935114
-0.11257168 0.10719436 0.056627154
-0.063324615 0.15669671 0.060312569
-0.14600103 -0.073891081 0.076660693
-0.16262241 -0.024221938 0.078243971
-0.16243282 -0.007649268 0.073318481
-0.16249798 0.008898519 0.075011134
-0.16262949 0.025498869 0.078427613
-0.14601162 0.075166218 0.077004731
-0.0464812 -0.1740393 0.086865783
-0.096341401 -0.14030676 0.079484522
-0.11293563 -0.12376664 0.080266297
-0.12954217 -0.10721513 0.08106029
-0.14643806 -0.090997785 0.090854049
-0.1630421 -0.057618983 0.089147985
-0.16281331 -0.040870875 0.083203316
-0.16276139 0.04215204 0.081854761
-0.14639375 0.092302538 0.089414775
-0.12959619 0.10863702 0.083399355
-0.11293457 0.12505221 0.080197334
-0.096352115 0.1416868 0.080876112
-0.079759218 -0.15795076 0.094810545
-0.18019447 -0.007649268 0.099882007
-0.1802735 0.0091031119 0.10159338
-0.16312388 0.059042461 0.091272354
-0.079759218 0.15938839 0.095277071
-0.046372335 0.1759786 0.093936503
-0.11334655 -0.14199853 0.10695583
-0.13015899 -0.1252487 0.10776955
-0.14698401 -0.10848639 0.10858387
-0.16359524 -0.074718021 0.1035189
-0.18066242 -0.041283607 0.11001337
-0.18042763 -0.024427321 0.10493004
-0.18043524 0.025909418 0.10509485
-0.18059695 0.042769618 0.10859567
-0.16360746 0.076198965 0.1038363
-0.14705424 0.11011707 0.110865
-0.13015328 0.12673493 0.10752183
-0.11338234 0.14365475 0.10928077
-0.062866971 -0.17657176 0.11976254
-0.09668348 -0.15996762 0.12392128
-0.16415578 -0.092045851 0.11808205
-0.1809532 -0.058246285 0.11630899
-0.18105215 0.059879296 0.11845124
-0.16409715 0.093556307 0.11655879
-0.096684955 0.16160811 0.12411284
-0.062820107 0.17868105 0.12585056
-0.13079131 -0.14373481 0.13514906
-0.14782771 -0.12676916 0.135984
-0.16487652 -0.10979003 0.13680738
-0.18164827 -0.075575262 0.13135749
-0.19904104 -0.041729838 0.13898998
-0.1987403 -0.024646578 0.13340873
-0.19844106 -0.007649268 0.12785536
-0.19854085 0.0093195718 0.1297074
-0.19874746 0.026347322 0.13354152
-0.19895543 0.043434851 0.13740104
-0.1816633 0.077270769 0.13168305
-0.14781466 0.12846163 0.13556033
-0.13086739 0.14567526 0.13844389
-0.18239191 -0.093176492 0.14745778
-0.19943544 -0.05893898 0.14630884
-0.19955933 0.060807995 0.14860803
-0.18231231 0.094903871 0.14573473
-0.16496614 0.11164044 0.13913566
-0.079759218 -0.17918245 0.15367621
-0.11406888 -0.1620428 0.15387303
-0.20031485 -0.076538131 0.16262895
-0.2172856 -0.0076491963 0.15854496
-0.21740133 0.0095560774 0.16042429
-0.20032755 0.078471042 0.16286451
-0.11406604 0.16388485 0.15368861
-0.079759218 0.18146521 0.15873033
-0.14875674 -0.14564423 0.16615564
-0.16605739 -0.12846668 0.1674872
-0.1834051 -0.11129515 0.16939396
-0.21799061 -0.042207077 0.16999286
-0.21763718 -0.024884015 0.16425437
-0.21764484 0.026822234 0.16437846
-0.21788844 0.044149272 0.16833431
-0.18350658 0.11338941 0.17159146
-0.16603056 0.13038497 0.16679007
-0.14890528 0.14792943 0.1709792
-0.20120731 -0.094397917 0.1791907
-0.21848425 -0.059671119 0.17800862
-0.21862373 0.061783053 0.18027323
-0.20110568 0.09636198 0.17730492
-0.097201258 -0.1820696 0.19118232
-0.13201377 -0.16441298 0.18808371
-0.2195183 -0.077528752 0.1947996
-0.23706955 -0.025128121 0.19597393
-0.23666272 -0.0076491963 0.19010192
-0.23679486 0.0097990707 0.19200927
-0.23707661 0.027310194 0.1960761
-0.21952695 0.079705626 0.19494003
-0.13199592 0.16647306 0.1873104
-0.097235486 0.18458971 0.19562918
-0.16741168 -0.14789324 0.20267266
-0.18486568 -0.13027346 0.20101672
-0.20248929 -0.11284645 0.20298105
-0.23808467 -0.060424373 0.2106263
-0.23747846 -0.042697936 0.20187646
-0.23735851 0.044883884 0.20014483
-0.22045156 0.09787 0.20995384
-0.20259808 0.11518955 0.20500022
-0.18482128 0.13243344 0.20005506
-0.16757961 0.15042751 0.20703572
-0.22056791 -0.095654659 0.21184295
-0.25659636 -0.0076492322 0.22257668
-0.2382381 0.062785797 0.21284062
-0.15057869 -0.16699311 0.22532493
-0.23928115 -0.07854788 0.22789592
-0.25752798 -0.043202966 0.23467892
-0.25706044 -0.025379362 0.22860545
-0.2567454 0.01004938 0.22451299
-0.25706652 0.027812282 0.22868413
-0.25738877 0.045639582 0.23287076
-0.23928478 0.080976062 0.22794849
-0.20418027 0.13454616 0.23436195
-0.15053433 0.16928852 0.22388452
-0.11539716 -0.18583897 0.24014753
-0.1866847 -0.15021661 0.24039978
-0.20424576 -0.13213576 0.23557764
-0.22215343 -0.11444493 0.23758882
-0.24049678 -0.096947901 0.24544185
-0.25826111 -0.061199866 0.24420267
-0.25842839 0.06381841 0.24637562
-0.24043307 0.099466659 0.24452239
-0.22226605 0.11704423 0.23941773
-0.18686281 0.15300603 0.24425596
-0.11541311 0.1884471 0.24118334
-0.27710882 -0.0076493039 0.25598282
-0.27727529 0.010306753 0.25794894
-0.16976495 -0.16965963 0.2638126
-0.22422278 -0.13405484 0.2711907
-0.25963002 -0.079597525 0.26198536
-0.27816373 -0.043722801 0.26844066
-0.27763429 -0.025637917 0.26218814
-0.27764001 0.028329106 0.26225609
-0.27800378 0.0464174 0.26655191
-0.25962484 0.082283579 0.26191789
-0.22413135 0.13672283 0.26970595
-0.16968058 0.17219348 0.26162034
-0.20660707 -0.15261826 0.27939779
-0.24242437 -0.11609272 0.27326459
-0.26102117 -0.098280229 0.28005677
-0.2790381 -0.061998047 0.27876657
-0.27921951 0.064881712 0.28090864
-0.26102856 0.10111233 0.28015298
-0.24253705 0.11895566 0.2748906
-0.20678559 0.15567036 0.28271049
-0.13439754 -0.18977697 0.29130346
-0.29822668 -0.0076493039 0.29037482
-0.29841113 0.010571763 0.29237157
-0.13433421 0.19245908 0.28856128
-0.18960556 -0.17241877 0.30363828
-0.28058934 -0.080678359 0.29708546
-0.29941308 -0.04425817 0.30321819
-0.29881829 -0.025904147 0.2967791
-0.29881957 0.028860776 0.29679292
-0.29922956 0.047218345 0.30123097
-0.28057516 0.083630756 0.29691833
-0.24470365 0.13896798 0.30616277
-0.18971179 0.17560504 0.30593842
-0.24482533 -0.13603404 0.3079192
-0.26333177 -0.11779279 0.31007248
-0.28216609 -0.099652395 0.31570607
-0.30044517 -0.062820792 0.3143906
-0.30063862 0.065977141 0.31648487
-0.2822668 0.10280938 0.31689554
-0.26344028 0.12092744 0.31148201
-0.22721216 -0.15510219 0.31973225
-0.31997859 -0.0076491605 0.32581133
-0.32018018 0.010844626 0.32782549
-0.22738025 0.15842438 0.3224619
-0.30218923 -0.081792578 0.33327061
-0.32130134 -0.044809595 0.33902901
-0.32063743 -0.026178371 0.3323949
-0.320636 0.029408759 0.33238059
-0.32109359 0.048043281 0.33695298
-0.3021614 0.085018337 0.33296901
-0.15425892 -0.19389859 0.34484416
-0.2101337 -0.17527357 0.34484404
-0.2660833 -0.1380761 0.34581584
-0.28490391 -0.11954638 0.34803838
-0.30396244 -0.10106726 0.35246605
-0.3225103 -0.063668817 0.35110968
-0.32271323 0.067105807 0.35313743
-0.3041783 0.10456029 0.35480303
-0.28500736 0.12296315 0.34926015
-0.26599175 0.14133671 0.34462672
-0.24853566 -0.15767281 0.36147314
-0.34239069 -0.0076492322 0.3623113
-0.3426128 0.011126056 0.36437243
-0.24867836 0.16126996 0.36353284
-0.21073893 0.17946456 0.35607558
-0.32445848 -0.082941428 0.37057692
-0.34385893 -0.045377761 0.37593514
-0.34312195 -0.026460843 0.36909682
-0.34311718 0.029973308 0.36905247
-0.34362349 0.048893027 0.37375051
-0.3244155 0.086449265 0.37014765
-0.28802976 -0.14018506 0.38495284
-0.30717403 -0.12135664 0.38723248
-0.32643968 -0.10252634 0.39037424
-0.34526432 -0.064543165 0.38897544
-0.34547675 0.068270005 0.39094633
-0.30726698 0.12506354 0.38823897
-0.28816307 0.1439172 0.38652712
-0.23209089 -0.17902243 0.3989529
-0.36549488 -0.007649268 0.39993852
-0.36573502 0.011415772 0.40201813
-0.32679716 0.10636824 0.39394659
-0.27061817 -0.16033646 0.40472573
-0.34742862 -0.084126286 0.40905768
-0.36711711 -0.045963645 0.41398746
-0.36630458 -0.026752243 0.40695077
-0.366294 0.030555462 0.4068591
-0.3668994 0.049778879 0.41210192
-0.34736603 0.087924659 0.40847701
-0.27072021 0.16421573 0.4060511
-0.23266801 0.18348679 0.4083243
-0.31069615 -0.14236248 0.42536062
-0.33017659 -0.12322655 0.42771596
-0.34969547 -0.10405505 0.43009132
-0.36873996 -0.065445401 0.42804188
-0.36895868 0.069470562 0.42993587
-0.35015848 0.10823622 0.43438774
-0.33025578 0.12723356 0.42850727
-0.31111306 0.1465867 0.42987376
-0.29349902 -0.16309641 0.44954175
-0.39007914 -0.0076493039 0.44487888
-0.39091027 0.01179767 0.4516266
-0.29354313 0.16726489 0.45006269
-0.25518894 -0.18307905 0.45750517
-0.37191856 -0.0855584 0.45556897
-0.37155646 0.089616515 0.45243317
-0.25556055 0.18768553 0.46286863
-0.33388296 -0.14448507 0.46475214
-0.39327037 -0.027243681 0.4707883
-0.39308068 0.031515963 0.46924859
-0.39652786 -0.047245309 0.49723595
-0.39747718 0.051922798 0.50494331
-0.40806249 0.074426547 0.59088534
-0.40897107 -0.069376588 0.59826213
-0.45845595 -0.0076493397 0.81916839
-0.45838264 0.014622746 0.81860834
-0.46150702 -0.030105006 0.84248298
-0.46150702 0.037262209 0.84248275
-0.48815313 -0.007649268 0.87272447
-0.48811439 0.015037239 0.87244469
0 0 0 1 0 0 0 1 0 0 0 1 0 0 0 0 0 906 1 0 0
