ply
format ascii 1.0
comment PCL generated
element vertex 1073
property float x
property float y
property float z
element camera 1
property float view_px
property float view_py
property float view_pz
property float x_axisx
property float x_axisy
property float x_axisz
property float y_axisx
property float y_axisy
property float y_axisz
property float z_axisx
property float z_axisy
property float z_axisz
property float focal
property float scalex
property float scaley
property float centerx
property float centery
property int viewportx
property int viewporty
property float k1
property float k2
end_header
-0.034737535 0.045657992 -0.084714532
-0.011433396 0.045621425 -0.085394025
0.011860279 0.045584708 -0.08607316
0.035158545 0.045653567 -0.084797263
-0.05802419 0.092219085 -0.085244656
-0.034660332 0.091908365 -0.089728951
-0.011394683 0.091860265 -0.09042275
0.011860279 0.091812417 -0.09111619
0.035118803 0.091892272 -0.089960337
0.058461152 0.092269644 -0.084515452
-0.058017679 0.13878484 -0.085526347
-0.034655496 0.13840248 -0.09004283
-0.011392143 0.13834234 -0.090752959
0.011860279 0.13828351 -0.0914464
0.035116263 0.13838138 -0.090290546
0.05845733 0.13884945 -0.084764123
-0.058015004 0.1620668 -0.085642457
-0.034653462 0.16164811 -0.090174913
-0.01139125 0.16158406 -0.090868592
0.011860279 0.16151847 -0.091578364
0.035115369 0.16162674 -0.090406179
0.058455281 0.16213562 -0.084896684
-0.058014236 0.18535523 -0.085675716
-0.034652956 0.18490152 -0.090208054
-0.01139087 0.18483065 -0.090918064
0.011860279 0.18476127 -0.091611385
0.035115115 0.18487851 -0.0904392
0.058454774 0.18542983 -0.084929824
-0.058013856 0.20864503 -0.085692048
-0.034652956 0.20815836 -0.090207934
-0.01139087 0.20808165 -0.090918064
0.011860279 0.20800699 -0.091611385
0.035115115 0.20813324 -0.0904392
0.058454774 0.20872708 -0.084929824
-0.058013856 0.23193629 -0.085692048
-0.034652956 0.23141493 -0.090207934
-0.01139087 0.23133285 -0.090918064
0.011860279 0.23125292 -0.091611266
0.035115115 0.23138817 -0.09043932
0.058454774 0.2320243 -0.084929943
-0.058013856 0.25522763 -0.085692286
-0.034652956 0.25467151 -0.090207934
-0.01139087 0.25458413 -0.090918064
0.011860279 0.25449866 -0.091611385
0.035115115 0.25464308 -0.0904392
0.058454774 0.25532168 -0.084929824
0.011860279 0.27774447 -0.091611266
-0.058013856 0.27851903 -0.085692167
-0.034652956 0.27792799 -0.090207934
-0.01139087 0.27783519 -0.090918064
0.035115115 0.27789778 -0.0904392
0.058454774 0.27861881 -0.084929943
-0.058013856 0.30181044 -0.085692167
-0.034652956 0.30118483 -0.090208173
-0.01139087 0.30108637 -0.090918064
0.011860279 0.30099022 -0.091611266
0.035115115 0.30115277 -0.0904392
0.058454774 0.30191612 -0.084929943
-0.058013856 0.32510185 -0.085692167
-0.034652956 0.32444143 -0.090208173
-0.01139087 0.32433736 -0.090918064
0.011860279 0.32423609 -0.091611266
0.035115115 0.32440758 -0.09043932
0.058454774 0.32521331 -0.084929943
-0.058013856 0.34839326 -0.085692167
-0.034652956 0.34769797 -0.090208173
-0.01139087 0.34758872 -0.090918183
0.011860279 0.34748203 -0.091611385
0.035115115 0.34766245 -0.0904392
0.058454774 0.34851068 -0.084929943
-0.058013856 0.37168455 -0.085692048
-0.034652956 0.37095463 -0.090208173
-0.01139087 0.37083972 -0.090918183
0.011860279 0.37072772 -0.091611385
0.035115115 0.37091714 -0.0904392
0.058454774 0.37180775 -0.084929824
-0.058013856 0.39497602 -0.085692048
-0.034652956 0.39421129 -0.090208054
-0.01139087 0.39409089 -0.090918064
0.011860279 0.39397359 -0.091611385
0.035115115 0.39417213 -0.0904392
0.058454774 0.39510494 -0.084929943
-0.058013856 0.41826749 -0.085692167
-0.034652956 0.41746789 -0.090208054
-0.01139087 0.41734225 -0.090918064
0.011860279 0.41721928 -0.091611385
0.035115115 0.41742682 -0.0904392
0.058454774 0.41840237 -0.084929824
-0.058013856 0.4415589 -0.085692167
-0.034652956 0.44072443 -0.090208054
-0.01139087 0.44059324 -0.090918064
0.011860279 0.44046521 -0.091611266
0.035115115 0.4406817 -0.0904392
0.058454774 0.44169962 -0.084929943
-0.058013856 0.46485013 -0.085692167
-0.034652956 0.46398103 -0.090208054
-0.01139087 0.46384442 -0.090918064
0.011860279 0.46371102 -0.091611266
0.035115115 0.46393651 -0.090439439
0.058454774 0.46499676 -0.084929943
-0.058013856 0.48814142 -0.085692167
-0.034652956 0.48723769 -0.090207934
-0.01139087 0.48709548 -0.090918064
0.011860279 0.48695683 -0.091611266
0.035115115 0.48719144 -0.0904392
0.058454774 0.48829418 -0.084929943
-0.058013856 0.51143283 -0.085692167
-0.034652956 0.51049429 -0.090208054
-0.01139087 0.51034677 -0.090918183
0.011860279 0.51020253 -0.091611266
0.035115115 0.51044607 -0.0904392
0.058454774 0.51159137 -0.084929943
-0.058013856 0.53472424 -0.085692048
-0.034652956 0.53375089 -0.090208054
-0.01139087 0.53359777 -0.090918183
0.011860279 0.53344858 -0.091611266
0.035115115 0.53370106 -0.090439439
0.058454774 0.53488863 -0.084930062
-0.034652956 0.55700749 -0.090208054
-0.01139087 0.556849 -0.090918064
0.011860279 0.55669427 -0.091611385
0.035115115 0.55695599 -0.0904392
-0.058013856 0.55801576 -0.085692167
0.058454774 0.55818594 -0.084929824
-0.058015764 0.58132625 -0.085609317
-0.034653716 0.5802756 -0.090158463
-0.01139125 0.58011162 -0.090868592
0.011860279 0.57995158 -0.091561794
0.035115495 0.58022207 -0.090389729
0.058455795 0.58149844 -0.084863544
-0.034751065 0.60504144 -0.083835602
-0.011441307 0.60491472 -0.084366322
0.011860279 0.60478818 -0.084896803
0.035165824 0.60503757 -0.083852172
-0.058103874 0.62884998 -0.081794143
-0.034692407 0.62740856 -0.08764565
-0.01140995 0.627213 -0.088439703
0.011860279 0.62702161 -0.089216709
0.035135344 0.62736779 -0.087811232
0.011860279 -0.047080308 -0.064908624
-0.058478326 -0.023649506 -0.065580368
-0.034948789 -0.023816176 -0.070992827
-0.011538848 -0.023837924 -0.071695328
0.011860279 -0.023858979 -0.0723809
0.03526739 -0.023805819 -0.070658326
0.058758885 -0.023637138 -0.065177202
-0.081936926 -0.00018782914 -0.065177202
-0.058325134 -0.00045865029 -0.072213531
-0.034851126 -0.00065585226 -0.077336311
-0.01149004 -0.00068284571 -0.078035593
0.011860279 -0.00070973486 -0.078734875
0.035217009 -0.00065074116 -0.077203035
0.058658272 -0.00043940544 -0.071712136
0.082185313 -0.00022590905 -0.066167593
-0.058414795 0.023115858 -0.068331003
-0.034903504 0.022857025 -0.073934317
-0.011515958 0.022823006 -0.074668646
0.011860279 0.022788405 -0.075419307
0.0352441 0.022868603 -0.073683858
0.058717296 0.023136675 -0.067878485
-0.10535458 0.046666384 -0.065999866
-0.081694029 0.046285763 -0.073065758
-0.058144175 0.04590942 -0.080049038
0.058539651 0.045943439 -0.079417229
0.082005963 0.046238795 -0.073934078
0.10564612 0.046690822 -0.065546632
-0.058378831 0.069869965 -0.069888353
-0.034878068 0.069519073 -0.075586081
-0.011503119 0.069472849 -0.076336503
0.011860279 0.069427684 -0.077069759
0.035231255 0.069533408 -0.075352669
0.05869434 0.069901854 -0.069369674
-0.10515016 0.093184382 -0.071310759
-0.081532791 0.092700019 -0.078302026
0.081887402 0.092647061 -0.079067826
0.1054676 0.093182072 -0.071344137
-0.058397382 0.11675781 -0.069084883
-0.034917392 0.11645392 -0.073032379
-0.011524055 0.11640906 -0.073616862
0.011860279 0.11637175 -0.074100971
0.035250656 0.11646943 -0.072831869
0.058704913 0.11678879 -0.06868279
-0.10514693 0.13998152 -0.071394205
-0.081527665 0.13938253 -0.078468442
0.081883565 0.13931765 -0.079234123
0.10546451 0.13997723 -0.071444511
-0.10514243 0.16337217 -0.071511507
-0.081523567 0.16271724 -0.078601837
0.081880875 0.16264801 -0.079350471
0.10546091 0.16336749 -0.071561456
-0.10514114 0.18676932 -0.071544886
-0.081522539 0.18605991 -0.078635097
0.0818801 0.18598492 -0.079383731
0.10545988 0.18676434 -0.071594954
-0.10514114 0.21016969 -0.071544886
-0.081522539 0.20940547 -0.078634977
0.0818801 0.20932488 -0.079383969
0.10545988 0.21016423 -0.071595073
-0.10514114 0.23357002 -0.071544886
-0.081522539 0.23275121 -0.078634977
0.0818801 0.23266475 -0.07938385
0.10545988 0.23356406 -0.071594954
-0.1051405 0.2569682 -0.071561456
-0.081522539 0.2560969 -0.078634739
0.0818801 0.25600481 -0.079383731
0.10545988 0.25696397 -0.071594954
-0.1051405 0.28036839 -0.071561575
-0.081522539 0.27944267 -0.078634977
0.0818801 0.27934468 -0.079383731
0.10545988 0.28036398 -0.071594954
-0.1051405 0.3037684 -0.071561575
-0.081522539 0.30278832 -0.078634977
0.0818801 0.30268455 -0.079383731
0.10545988 0.30376387 -0.071594954
-0.1051405 0.32716858 -0.071561694
-0.081522539 0.32613397 -0.078634977
0.0818801 0.32602459 -0.07938385
0.10545988 0.32716376 -0.071594834
-0.1051405 0.35056883 -0.071561456
-0.081522539 0.34947979 -0.078634977
0.0818801 0.34936446 -0.07938385
0.10545988 0.35056359 -0.071594954
-0.1051405 0.37396902 -0.071561575
-0.081522539 0.37282556 -0.078635097
0.0818801 0.37270433 -0.07938385
0.10545988 0.37396348 -0.071594954
-0.1051405 0.39736909 -0.071561575
-0.081522539 0.39617109 -0.078634977
0.0818801 0.39604425 -0.07938385
0.10545988 0.39736348 -0.071595073
-0.1051405 0.42076916 -0.071561456
-0.081522539 0.4195168 -0.078634977
0.08187972 0.41938132 -0.079400659
0.10545988 0.42076331 -0.071595073
-0.1051405 0.44416952 -0.071561456
-0.081522539 0.44286263 -0.078635097
0.08187972 0.44272113 -0.07940042
0.10545988 0.4441632 -0.071594954
-0.1051405 0.46756959 -0.071561456
-0.081522539 0.46620834 -0.078634977
0.08187972 0.466061 -0.07940042
0.10545988 0.46756309 -0.071594954
-0.1051405 0.49096978 -0.071561575
-0.081522539 0.48955399 -0.078635097
0.08187972 0.48940086 -0.07940042
0.10545988 0.49096292 -0.071595073
-0.1051405 0.51436985 -0.071561575
-0.081522539 0.5128997 -0.078634858
0.08187972 0.51274055 -0.07940042
0.10545988 0.51436305 -0.071594954
-0.1051405 0.53777003 -0.071561575
-0.081522539 0.53624541 -0.078634977
0.08187972 0.53608042 -0.07940042
0.10545988 0.53776288 -0.071594834
-0.1051405 0.56117028 -0.071561456
-0.081522539 0.55959117 -0.078635097
0.0818801 0.5594241 -0.07938385
0.10545988 0.56116277 -0.071594954
-0.10514501 0.58459729 -0.071444631
-0.081525102 0.58295602 -0.078551769
0.08188203 0.5827831 -0.079300642
0.10546297 0.58458573 -0.071494699
-0.058143027 0.60593331 -0.080098867
0.058537088 0.60605615 -0.079583406
0.081979364 0.6071294 -0.075085759
-0.10526485 0.6087414 -0.068330884
-0.081653409 0.60729671 -0.074384809
0.10556658 0.6087895 -0.068129778
-0.081706889 0.63110304 -0.072648048
0.058516867 0.62907106 -0.080896735
0.08200673 0.63079441 -0.0739007
-0.035296194 -0.093856081 -0.048428178
-0.011712601 -0.093861483 -0.049124122
0.011860279 -0.093866929 -0.049836755
-0.058842301 -0.070299342 -0.049819589
-0.035179645 -0.070394456 -0.055998206
-0.011654355 -0.070405111 -0.056690693
0.011860279 -0.070415661 -0.057382822
0.035386354 -0.070382185 -0.055204034
0.058997683 -0.070296936 -0.049667001
-0.082384236 -0.046750985 -0.050650597
-0.058659837 -0.046914272 -0.057720423
-0.035063937 -0.047048062 -0.063513994
-0.011596523 -0.047063969 -0.064203024
0.03532666 -0.047035158 -0.062959075
0.058878109 -0.046907596 -0.057433605
0.082514711 -0.046779849 -0.051904678
-0.10592319 -0.023207545 -0.051226735
-0.082140572 -0.023433506 -0.058563709
0.082335614 -0.02346722 -0.059659719
0.10613561 -0.023158953 -0.049650073
-0.10565767 8.3483756e-05 -0.058125138
0.1059131 0.00013173372 -0.056876421
-0.10583846 0.023804203 -0.053428292
-0.082068443 0.023458838 -0.060906172
0.082280397 0.023405775 -0.062050819
0.10607349 0.023885533 -0.051667452
-0.12940086 0.047370329 -0.052937508
0.12958768 0.047383919 -0.052683473
-0.10579874 0.070819974 -0.054460168
-0.082028538 0.070343226 -0.062202334
0.082250096 0.070271805 -0.063362718
0.10604168 0.070928439 -0.05270052
-0.12911373 0.094026744 -0.059154034
0.1293581 0.094061837 -0.058648109
-0.10569534 0.11767688 -0.057146311
-0.08199022 0.11719182 -0.06344676
0.08222875 0.11712728 -0.064287186
0.10594013 0.11776528 -0.055998087
-0.12911841 0.14102657 -0.059052825
0.12936135 0.141068 -0.058563709
-0.12911141 0.1645091 -0.059204578
0.1293568 0.16455729 -0.058681726
-0.12911063 0.18800269 -0.059221387
0.12935615 0.18805493 -0.058698654
-0.12911063 0.21149777 -0.059221387
0.12935551 0.21155222 -0.058715463
-0.12911063 0.23499288 -0.059221268
0.12935551 0.23505129 -0.058715463
-0.12911063 0.25848806 -0.059221268
0.12935551 0.25855035 -0.058715463
-0.12910984 0.28198093 -0.059238195
0.12935551 0.28204936 -0.058715701
-0.12910984 0.30547613 -0.059238076
0.12935551 0.30554843 -0.058715463
-0.12910984 0.32897103 -0.059238076
0.12935615 0.32905012 -0.058698654
-0.12910984 0.35246611 -0.059238315
0.12935615 0.3525492 -0.058698654
-0.12910984 0.37596101 -0.059238195
0.12935615 0.37604827 -0.058698654
-0.12910984 0.39945626 -0.059238315
0.12935615 0.39954746 -0.058698773
-0.12910984 0.4229511 -0.059238076
0.12935615 0.42304671 -0.058698654
-0.12910984 0.44644618 -0.059238315
0.12935615 0.4465459 -0.058698654
-0.12910984 0.46994114 -0.059238195
0.12935615 0.47004497 -0.058698654
-0.12910984 0.49343634 -0.059238195
0.12935615 0.49354416 -0.058698654
-0.12910984 0.51693124 -0.059238076
0.12935615 0.51704341 -0.058698654
-0.12910984 0.54042631 -0.059238315
0.12935615 0.54054248 -0.058698654
-0.12910984 0.56392121 -0.059238315
0.12935615 0.56404167 -0.058698654
-0.12911685 0.58745134 -0.059086442
0.12936069 0.58756816 -0.058580518
-0.12919945 0.61137432 -0.057298422
0.129425 0.61146688 -0.056910038
-0.12960836 0.63706511 -0.048445106
-0.10549168 0.63361824 -0.062437654
0.10577812 0.63390845 -0.061259747
0.12975539 0.63709444 -0.048326373
-0.035519682 -0.14112428 -0.033912301
-0.011823239 -0.1411178 -0.034751892
0.011860279 -0.1411123 -0.035470963
0.035560295 -0.14113444 -0.032609105
-0.059208475 -0.11743437 -0.03396368
-0.011770219 -0.11743433 -0.041639447
0.011860279 -0.11743433 -0.042338252
0.059237339 -0.11743433 -0.034100771
-0.035411485 -0.11743428 -0.040940166
0.035505749 -0.11743428 -0.03969419
-0.082874849 -0.093750611 -0.03471756
-0.059026092 -0.093805537 -0.041860938
0.03544623 -0.093848377 -0.047426224
0.059117861 -0.093805537 -0.041860938
0.082876042 -0.093762487 -0.036258459
-0.10662063 -0.070042014 -0.033106565
-0.082628645 -0.070189841 -0.042713165
0.082694717 -0.070211485 -0.044109941
0.10667354 -0.070027731 -0.032180309
-0.10627121 -0.046555407 -0.042184949
0.10640381 -0.046526693 -0.040940166
-0.13016333 -0.022752032 -0.036429524
0.13019881 -0.022763617 -0.036805987
-0.12981646 0.00062954426 -0.04393959
0.12992162 0.00062684715 -0.044007778
-0.13010567 0.024531573 -0.037678003
0.1301547 0.024519056 -0.037951708
-0.15375008 0.04817602 -0.037985802
0.15373233 0.048082963 -0.039711237
-0.13012856 0.071884066 -0.037182212
0.13016787 0.071857721 -0.037609816
-0.15342101 0.095070079 -0.044092774
0.15346077 0.094966263 -0.045590401
-0.12978029 0.11863326 -0.044722676
0.12989016 0.11862534 -0.044824958
0.15402153 0.11950098 -0.033449531
-0.15342191 0.14229484 -0.044075847
0.15346156 0.14216797 -0.045573354
-0.15341365 0.16589241 -0.04422915
0.15345606 0.16575728 -0.045692563
-0.15341274 0.18950118 -0.044246078
0.15345529 0.18935488 -0.045709372
-0.15341365 0.21311353 -0.04422915
0.15345529 0.21295391 -0.04570961
-0.15341365 0.23672415 -0.04422915
0.15345529 0.23655312 -0.045709372
-0.15341365 0.26033467 -0.04422915
0.1534545 0.26015025 -0.045726538
-0.15341365 0.28394526 -0.04422915
0.1534545 0.28374928 -0.045726538
-0.15341365 0.30755579 -0.044229031
0.1534545 0.30734831 -0.045726538
-0.15341274 0.3311637 -0.044246078
0.1534545 0.3309474 -0.045726538
-0.15341274 0.35477418 -0.044246197
0.1534545 0.35454637 -0.045726538
-0.15341274 0.37838477 -0.044246197
0.1534545 0.37814546 -0.045726418
-0.15341274 0.40199506 -0.044246078
0.15345529 0.40174741 -0.045709372
-0.15341274 0.42560554 -0.044246197
0.15345529 0.42534643 -0.045709372
-0.15341274 0.44921607 -0.044246078
0.15345529 0.44894576 -0.045709372
-0.15341274 0.47282636 -0.044246197
0.15345529 0.47254467 -0.045709372
-0.15341274 0.49643672 -0.044246197
0.15345529 0.49614406 -0.045709491
-0.15341274 0.52004731 -0.044246197
0.15345529 0.51974308 -0.045709372
-0.15341365 0.54366153 -0.04422915
0.15345529 0.54334235 -0.045709372
-0.15341365 0.56727195 -0.044229031
0.15345529 0.56694144 -0.045709491
0.15346314 0.59057999 -0.04553926
-0.15342191 0.59091789 -0.044075847
-0.15344027 0.61461079 -0.043735266
0.15348434 0.61429012 -0.045080066
-0.15399545 0.64076334 -0.033432245
0.15393607 0.64030319 -0.035299778
-0.035743169 -0.18883952 -0.019396663
-0.01192973 -0.18880445 -0.020918131
0.011860279 -0.188788 -0.021626711
0.035670128 -0.18886393 -0.018340826
-0.059543692 -0.16503695 -0.019448519
-0.035631031 -0.16492563 -0.026680112
-0.011876365 -0.16490766 -0.027850509
0.011860279 -0.16489677 -0.02855587
0.035615083 -0.16494389 -0.025491595
0.059456803 -0.16503087 -0.01984632
-0.08334288 -0.1412351 -0.01951766
-0.059375487 -0.14117959 -0.02673173
0.059346817 -0.14117754 -0.026990056
0.083258659 -0.14123373 -0.019690633
-0.083119154 -0.11743433 -0.026783466
0.083074585 -0.11743443 -0.027661204
-0.10697279 -0.093667716 -0.023957014
0.10694481 -0.093663201 -0.023370385
-0.1310084 -0.069811493 -0.018133044
0.13087755 -0.06982749 -0.019171715
-0.13058423 -0.04621204 -0.027317166
0.13053687 -0.046228386 -0.028022647
-0.15463813 -0.022292353 -0.021505713
0.15454528 -0.022311002 -0.022110343
-0.15423599 0.0012057871 -0.028968573
0.15413645 0.0011290759 -0.030961633
-0.15462695 0.025268987 -0.021713018
0.15453571 0.025241062 -0.022317529
-0.17854819 0.049172923 -0.01948297
0.1785339 0.049239382 -0.018254399
-0.15473314 0.072958186 -0.019742489
0.15464824 0.072949588 -0.01988101
-0.17809436 0.096264571 -0.026852369
0.17816435 0.096385166 -0.025112391
-0.15408696 0.11963309 -0.031734228
-0.17807314 0.14372407 -0.027196527
0.17814577 0.14387147 -0.025457025
-0.17806149 0.16744827 -0.027386069
0.17813741 0.16761212 -0.025612235
-0.17806149 0.19118853 -0.027385831
0.17813648 0.19136418 -0.02562952
-0.17806149 0.21492885 -0.02738595
0.17813648 0.2151181 -0.025629401
-0.17806149 0.2386689 -0.02738595
0.17813648 0.23887174 -0.025629401
-0.17806254 0.26241118 -0.027368784
0.17813648 0.26262552 -0.02562952
-0.17806254 0.28615177 -0.027368784
0.17813648 0.28637934 -0.025629401
-0.17806254 0.30989194 -0.027368665
0.17813648 0.31013292 -0.025629401
-0.17806254 0.33363229 -0.027368784
0.17813648 0.33388674 -0.025629401
-0.17806254 0.35737276 -0.027368546
0.17813648 0.35764056 -0.025629401
-0.17806149 0.38111037 -0.027385831
0.17813648 0.38139421 -0.025629401
-0.17806149 0.40485042 -0.02738595
0.17813648 0.40514803 -0.02562952
-0.17806149 0.42859077 -0.027385831
0.17813648 0.42890179 -0.025629401
-0.17806149 0.45233089 -0.027385831
0.17813648 0.45265543 -0.025629401
-0.17806149 0.4760713 -0.02738595
0.17813648 0.4764092 -0.02562952
-0.17806149 0.49981135 -0.027386069
0.17813554 0.50015944 -0.025646687
-0.17806149 0.52355164 -0.02738595
0.17813554 0.52391303 -0.025646567
-0.17806254 0.54729551 -0.027368665
0.17813554 0.54766667 -0.025646567
-0.17806254 0.57103592 -0.027368784
0.17813554 0.57142037 -0.025646448
-0.17807737 0.59483188 -0.027127624
0.1781504 0.59523767 -0.025370836
-0.17806996 0.61854541 -0.027248263
0.17814019 0.61894816 -0.025560498
-0.012091409 -0.26114446 8.4519386e-05
0.011860279 -0.26111138 -0.00063347816
-0.035968773 -0.23700696 -0.0047432184
-0.012037318 -0.23692235 -0.0069422722
0.011860279 -0.23689422 -0.0076744556
0.035780989 -0.23703793 -0.0039397478
-0.059882082 -0.21309081 -0.0047956705
-0.035855569 -0.21286607 -0.012095928
-0.011983335 -0.21280885 -0.013954639
0.011860279 -0.2127869 -0.014666438
0.03572543 -0.21289502 -0.011156917
0.059678577 -0.21307097 -0.0054415464
-0.08379405 -0.1891751 -0.0048655272
-0.059712283 -0.18900689 -0.012148023
0.059567295 -0.18899487 -0.012669444
0.083629273 -0.18920335 -0.0036425591
-0.0835682 -0.1651486 -0.012200356
0.083443291 -0.16515636 -0.0116961
-0.10764381 -0.14133522 -0.0065236092
0.10746194 -0.14133477 -0.0065758228
-0.13185875 -0.11743443 0.00027728081
-0.10732239 -0.11743437 -0.014874578
0.13155942 -0.11743437 -0.0014562607
0.10721443 -0.11743428 -0.014614344
-0.13143513 -0.093551792 -0.0088942051
0.13121952 -0.09356264 -0.010287046
-0.15570813 -0.069557697 -0.0016490221
0.15555909 -0.069534726 -0.00016081333
-0.15513489 -0.045864955 -0.012287021
0.15505038 -0.045839287 -0.011174202
-0.17925607 0.002013348 -0.0079883337
0.17911057 0.0020301789 -0.0075525045
-0.17963031 0.074056283 -0.0019114017
0.17941833 0.074060559 -0.0018413067
-0.20375226 0.098178089 0.00076782703
0.20341663 0.098066539 -0.00084352493
-0.17883411 0.12093365 -0.014839888
0.17876184 0.12099643 -0.014024138
-0.20369157 0.14601777 -0.00010812283
0.20336811 0.14588888 -0.0016313791
-0.203677 0.1699488 -0.00031840801
0.20335627 0.16980974 -0.0018239021
-0.203677 0.19389738 -0.00031840801
0.20335627 0.19374661 -0.0018240213
-0.203677 0.21784584 -0.00031840801
0.20335627 0.21768354 -0.0018240213
-0.203677 0.24179448 -0.0003182888
0.20335627 0.24162064 -0.0018239021
-0.20367822 0.26574522 -0.00030076504
0.20335627 0.26555759 -0.0018240213
-0.20367822 0.28969389 -0.00030076504
0.20335627 0.28949469 -0.0018237829
-0.20367822 0.31364262 -0.00030088425
0.20335627 0.31343162 -0.0018237829
-0.20367822 0.33759135 -0.00030076504
0.20335627 0.33736849 -0.0018237829
-0.20367822 0.36154008 -0.00030088425
0.20335627 0.36130559 -0.0018237829
-0.20367822 0.38548875 -0.00030076504
0.20335627 0.38524252 -0.0018237829
-0.20367822 0.4094376 -0.00030076504
0.20335627 0.40917963 -0.0018240213
-0.20367822 0.43338633 -0.00030076504
0.20335627 0.43311673 -0.0018239021
-0.20367822 0.45733505 -0.00030076504
0.20335516 0.45705032 -0.0018414259
-0.20367822 0.48128372 -0.00030076504
0.20335516 0.48098731 -0.0018414259
-0.20367822 0.50523245 -0.00030100346
0.20335516 0.50492412 -0.0018413067
-0.203677 0.52917749 -0.00031816959
0.20335516 0.52886087 -0.0018413067
-0.20367822 0.55312985 -0.00030100346
0.20335516 0.55279779 -0.0018414259
-0.20368065 0.57708633 -0.00026583672
0.20335627 0.5767386 -0.0018237829
0.20347163 0.62505949 4.9471855e-05
-0.17891431 0.64566398 -0.013537884
0.17883576 0.64588225 -0.01265204
0.011860279 -0.33420795 0.017525673
-0.036299899 -0.31007504 0.016764045
-0.012195433 -0.30988002 0.013597608
0.011860279 -0.3098343 0.01285553
0.035943776 -0.31010234 0.017206788
-0.060395524 -0.28603122 0.017436981
-0.036196522 -0.28563318 0.010049701
-0.012145882 -0.28547752 0.0071607828
0.011860279 -0.28543776 0.0064218044
0.035892889 -0.28566262 0.010596275
0.060014732 -0.28597492 0.016392112
-0.060223289 -0.26160151 0.0099791288
-0.036082238 -0.26126194 0.0026268959
0.035836808 -0.26129353 0.0033112764
0.059902154 -0.26155996 0.0090801716
-0.084308729 -0.23764558 0.011849046
-0.060052283 -0.23728862 0.0025740862
0.059790105 -0.23725888 0.0018023252
0.084004164 -0.23767415 0.012590647
-0.084049076 -0.21334365 0.0034166574
0.08381623 -0.21337566 0.0044529438
-0.10829055 -0.18952489 0.01027894
0.10796031 -0.18950932 0.0096088648
-0.13263823 -0.16560057 0.017153621
-0.10796631 -0.16536504 0.0018550158
0.10771021 -0.1653593 0.0014867783
-0.13224743 -0.14145227 0.008692503
0.13193242 -0.1414488 0.0082347393
-0.15634611 -0.093404897 0.010190725
0.15607141 -0.093399204 0.010931253
-0.1805691 -0.045273393 0.013332486
0.18018554 -0.045294896 0.012396336
-0.17983742 -0.021585457 0.0014517307
0.17958727 -0.021590367 0.0012938976
0.20449008 0.0029592067 0.016587019
-0.17994331 0.026418284 0.0031709671
0.17967801 0.026409358 0.0029777288
-0.20421834 0.050626814 0.0074952841
0.20380774 0.05051966 0.0055072308
0.20451625 0.075221643 0.017011881
-0.20437457 0.12282661 0.0097500086
0.20394644 0.12267338 0.0077593327
-0.2044833 0.60371095 0.011319518
0.20396595 0.60296202 0.0080761909
-0.20383972 0.62553227 0.0020303726
-0.012339812 -0.40783542 0.032353044
0.011860279 -0.40776604 0.031602025
-0.036526963 -0.38356423 0.031512618
-0.012303522 -0.38323617 0.027638555
0.011860279 -0.38317281 0.026889801
0.036055278 -0.38357943 0.031691432
-0.060778014 -0.35956198 0.033999205
-0.036451131 -0.35899144 0.026587009
-0.012267338 -0.35871047 0.022938371
0.011860279 -0.35865444 0.022209525
0.036017902 -0.35901058 0.026836395
0.06028112 -0.35953856 0.033694983
-0.06066408 -0.33500737 0.029065728
-0.036375254 -0.33449423 0.021658897
-0.012231402 -0.33425957 0.018269777
0.035980783 -0.33451888 0.02201426
0.060198039 -0.33495438 0.028298497
-0.060550496 -0.31052965 0.02414763
0.060116336 -0.3104586 0.022991657
-0.084832273 -0.28664634 0.028851628
0.084382579 -0.28665301 0.02897656
-0.084569789 -0.26207936 0.02032721
0.084192671 -0.26209915 0.020753384
-0.10894362 -0.23823828 0.027246356
0.1084639 -0.23818889 0.025963545
-0.10861655 -0.2138159 0.018748641
0.10821172 -0.21378583 0.017773747
-0.13310358 -0.18991628 0.027228594
0.1327081 -0.18994299 0.028387666
0.13231936 -0.165618 0.018287539
-0.15756252 -0.14163759 0.032764435
0.15704843 -0.14163244 0.032084703
-0.15697941 -0.11743437 0.021943092
0.15658084 -0.11743433 0.021960855
-0.1813042 -0.069143221 0.025268912
0.1807881 -0.069169283 0.023578405
-0.20567076 -0.02075395 0.028458953
0.20527285 -0.020728089 0.02929759
-0.20501888 0.0030541271 0.019050002
-0.20595664 0.027777001 0.032585502
-0.2050152 0.075343892 0.018996716
-0.2301847 0.14881505 0.032925367
-0.23015991 0.17298971 0.032603383
0.22978261 0.1731288 0.034106612
-0.23015991 0.19719191 0.032603383
0.22978261 0.19734223 0.034106612
-0.23015991 0.22139399 0.032603383
0.22978261 0.22155587 0.034106612
-0.23015991 0.24559589 0.032603264
0.22978261 0.24576949 0.034106612
-0.23015991 0.26979792 0.032603264
0.22978261 0.26998311 0.034106612
-0.23015991 0.29399991 0.032603383
0.22978261 0.29419672 0.034106612
-0.23015991 0.31820202 0.032603502
0.22978136 0.31840777 0.034088731
-0.23015991 0.34240401 0.032603383
0.22978136 0.34262121 0.034088612
-0.23015991 0.36660606 0.032603383
0.22978136 0.36683464 0.034088612
-0.23016129 0.39081097 0.032621264
0.22978136 0.39104825 0.034088731
-0.23016129 0.41501307 0.032621264
0.22978136 0.41526163 0.034088731
-0.23016129 0.4392153 0.032621384
0.22978136 0.43947506 0.034088731
-0.23016129 0.46341741 0.032621264
0.22978136 0.46368843 0.034088731
-0.23016129 0.48761952 0.032621384
0.22978136 0.48790205 0.034088731
-0.23016129 0.51182169 0.032621145
0.22978136 0.51211548 0.034088731
-0.23016129 0.53602391 0.032621264
0.22978136 0.53632879 0.034088731
-0.23015991 0.56022203 0.032603383
0.22978136 0.56054235 0.034088612
-0.23017918 0.58448017 0.032853723
0.011860279 -0.5068801 0.05057478
-0.012449203 -0.48207664 0.046563268
0.011860279 -0.48199117 0.045823693
-0.036755912 -0.4577477 0.046383023
-0.012412582 -0.45725441 0.04180634
0.011860279 -0.45717502 0.041068912
0.036167681 -0.45773798 0.046292782
-0.061127812 -0.43371606 0.049146175
-0.036679357 -0.43294203 0.041410685
-0.012376213 -0.43250877 0.03708148
0.011860279 -0.43243337 0.036328316
0.036130097 -0.43294203 0.041410685
0.060532093 -0.43380117 0.049995899
-0.061006956 -0.40890336 0.043912888
-0.036603041 -0.40821421 0.036453843
0.036092632 -0.4082225 0.036543489
0.060448147 -0.40896153 0.044543386
-0.060892306 -0.38419384 0.038948178
0.060364492 -0.38420755 0.039109945
-0.085413232 -0.36061817 0.047718883
0.084802486 -0.36057502 0.047159076
-0.085238934 -0.33590758 0.042058349
0.084676795 -0.33588395 0.041716337
-0.085065804 -0.31128651 0.036435962
0.084551536 -0.31127772 0.036292434
-0.10960384 -0.28748405 0.044399381
0.10905211 -0.28752011 0.045066237
-0.10927318 -0.26279446 0.035808444
0.10873725 -0.26274979 0.034840941
-0.13410923 -0.23907566 0.049001455
0.13349389 -0.23906791 0.048802733
-0.13360426 -0.21441075 0.038068295
0.13309938 -0.21442567 0.038553238
-0.15814872 -0.16600838 0.04364264
0.15751907 -0.16598737 0.042274237
-0.18278021 -0.11743433 0.049236536
-0.18204381 -0.093196407 0.037278771
0.18140849 -0.093213238 0.035091639
-0.20674142 -0.044567093 0.043912768
0.20627727 -0.044528075 0.045607328
0.20564292 0.027902603 0.035306573
-0.23107351 0.052619338 0.044471383
0.23051193 0.052627981 0.044633627
-0.23037213 0.10057475 0.035360456
0.22995766 0.10066314 0.036633134
-0.23098752 0.12541355 0.043354392
0.23043454 0.12542596 0.043516517
0.22979996 0.14893644 0.03435719
0.22979625 0.5848037 0.034303665
-0.2306193 0.61000437 0.038571239
0.23013669 0.61015373 0.039217591
-0.012599327 -0.60662645 0.066064954
0.011860279 -0.60652524 0.065407276
-0.012584567 -0.58188653 0.064147711
0.011860279 -0.58177972 0.063418031
-0.03706456 -0.55775797 0.066430449
-0.012559589 -0.55699205 0.060902834
0.011860279 -0.55688858 0.060156465
0.036319464 -0.55769974 0.066010118
-0.036987029 -0.53263646 0.061394691
-0.012522778 -0.5319463 0.056120753
0.011860279 -0.53184652 0.055358291
0.036281269 -0.5325911 0.061048627
-0.061522335 -0.50880837 0.066229343
-0.036909744 -0.50759447 0.056374907
-0.012485934 -0.50697374 0.051334858
0.036243334 -0.50756323 0.056120634
0.060785681 -0.50883764 0.066466928
-0.061390497 -0.48368818 0.06052053
-0.036832705 -0.48263168 0.051371098
0.036205515 -0.48261297 0.051208138
0.06070058 -0.48373663 0.060939431
-0.061258711 -0.45865631 0.0548141
0.060616054 -0.4587248 0.055449128
-0.085938774 -0.43528134 0.064786553
0.085182182 -0.4351626 0.063600302
-0.085763149 -0.41030467 0.059082985
0.08505518 -0.41021395 0.058100939
-0.085587598 -0.38541603 0.053381562
0.084928617 -0.3853516 0.052620649
-0.11021103 -0.3371627 0.060174823
0.10953527 -0.33720309 0.060757279
-0.10993352 -0.31230444 0.052964807
0.10932714 -0.31236809 0.053997993
-0.13461857 -0.26391324 0.06002903
0.13389027 -0.26387036 0.059101224
-0.15933728 -0.21526155 0.065699577
-0.15874092 -0.19054912 0.054632545
0.15799277 -0.19050053 0.052529931
-0.1837693 -0.14188795 0.065297842
0.18308245 -0.14189468 0.066156149
0.18227987 -0.11743437 0.051262498
-0.20802456 -0.068571046 0.062433481
0.20729329 -0.068576105 0.062105179
-0.23244219 0.0047168955 0.062250972
0.2315937 0.0046396926 0.060247421
-0.23192835 0.07759656 0.055576324
0.23120719 0.077540696 0.054668784
-0.23184314 0.63804638 0.054469585
0.23112176 0.63779974 0.053436041
-0.012699593 -0.97702974 0.079089642
0.011860279 -0.97681648 0.078297853
0.036451675 -0.97813296 0.083184242
-0.012699593 -0.95246994 0.079089642
0.011860279 -0.95226258 0.078297853
0.036451675 -0.95354164 0.083184242
-0.012699593 -0.92791009 0.079089761
0.011860279 -0.92770898 0.078297853
0.036451675 -0.92895019 0.083184123
-0.012699593 -0.90335017 0.079089761
0.011860279 -0.90315509 0.078297853
0.036451675 -0.90435886 0.083184361
-0.037257761 -0.87876391 0.078979254
-0.012684572 -0.87832463 0.077138424
0.011860279 -0.87835538 0.07726717
0.036422703 -0.87886941 0.079421401
-0.037188664 -0.85316855 0.074491382
-0.01262326 -0.85194051 0.069173932
0.011860279 -0.85181785 0.068643093
0.036380935 -0.85305405 0.073995471
0.011860279 -0.83063006 0.083387375
-0.012719033 -0.80565518 0.081615329
0.011860279 -0.80560338 0.08137548
-0.012703989 -0.78066957 0.079660892
0.011860279 -0.7806083 0.079366088
-0.012688961 -0.75571465 0.07770884
0.011860279 -0.75564462 0.07735908
0.036452238 -0.75682533 0.083258033
-0.037303172 -0.73197758 0.081928968
-0.012673952 -0.73079008 0.075759172
0.011860279 -0.73071581 0.075373173
0.036436893 -0.73184979 0.081264853
-0.037271664 -0.70701766 0.079882026
-0.012659105 -0.7058996 0.073830366
0.011860279 -0.70581472 0.07337141
0.036421426 -0.70690191 0.0792557
-0.037240185 -0.68208963 0.077837706
-0.012644133 -0.68103588 0.071885467
0.011860279 -0.68094498 0.071372032
0.036405977 -0.68198538 0.077248812
-0.037209034 -0.65719682 0.075814247
-0.012629179 -0.65620238 0.069942832
0.011860279 -0.65610939 0.069393635
0.03639055 -0.65710032 0.075244546
-0.037177645 -0.6323325 0.073775172
-0.012614245 -0.63139939 0.06800282
0.011860279 -0.6313017 0.067399144
0.036375143 -0.63224643 0.073242903
-0.037146568 -0.60750282 0.071757197
0.03635975 -0.60742378 0.071243644
0.061043344 -0.60926497 0.08320272
-0.061869562 -0.58439004 0.081264734
-0.037115254 -0.58270198 0.069723129
0.036344379 -0.5826323 0.069247007
0.061008967 -0.58434689 0.080969691
-0.061787866 -0.55932325 0.077727199
0.06095621 -0.55929774 0.07754302
-0.06165465 -0.53401905 0.07195878
0.060870796 -0.53402376 0.071995378
-0.086511537 -0.51092166 0.083387494
-0.086292498 -0.48550731 0.076274037
0.085495256 -0.48560923 0.077156782
-0.08611504 -0.46034795 0.070510745
0.085337967 -0.46033019 0.070345879
-0.1110512 -0.41242194 0.082002878
0.1101639 -0.41234517 0.081172585
-0.11076986 -0.38722068 0.074693441
0.10995308 -0.38718951 0.074326038
-0.11048982 -0.36213452 0.067417502
0.10974373 -0.36214301 0.067527056
-0.13557045 -0.31400859 0.080637813
0.13472845 -0.31402332 0.080877542
-0.13513233 -0.28892577 0.071152091
0.13428925 -0.28883493 0.06946671
-0.16019888 -0.24033383 0.081689119
0.15936343 -0.24035364 0.082205772
0.15866771 -0.21530591 0.067143202
-0.18481742 -0.16660371 0.082316518
0.18389361 -0.16658679 0.08120954
-0.2093318 -0.092857361 0.081301808
0.20831996 -0.092876852 0.078776598
-0.2335245 -0.019280583 0.076310754
0.23246352 -0.019388415 0.072802663
-0.062110163 -0.98042291 0.091683269
-0.037335865 -0.97836679 0.084052444
0.061188206 -0.98067302 0.09261179
-0.062247626 -0.95732397 0.097635508
0.061286792 -0.95768499 0.099014878
-0.037335865 -0.95376885 0.084052444
-0.062247626 -0.93262136 0.097635388
-0.037335865 -0.92917073 0.084052444
0.061286792 -0.93297178 0.099014878
-0.062247626 -0.90791869 0.097635508
0.061286792 -0.9082585 0.099014759
-0.037335865 -0.90457267 0.084052444
-0.062103741 -0.88172925 0.091404915
0.061183348 -0.88194191 0.092296124
-0.061967663 -0.85571378 0.085512757
0.061072648 -0.85561985 0.085106015
-0.037429355 -0.83213401 0.090124726
-0.012733955 -0.83066708 0.083553553
0.036502242 -0.83205122 0.089753628
-0.037397675 -0.8070457 0.088067055
0.036484838 -0.80692202 0.087492824
-0.062299736 -0.78487438 0.099891663
-0.037366323 -0.78199345 0.086030722
0.036467746 -0.78183591 0.085272312
0.061292246 -0.7847659 0.099369407
-0.062245473 -0.75968421 0.097542167
-0.037334733 -0.75696951 0.083978534
0.061250634 -0.75950891 0.096666574
-0.062191725 -0.73453444 0.095214725
0.061215967 -0.73438042 0.094414711
-0.062138051 -0.70942098 0.092890501
0.061181344 -0.70928717 0.092166185
-0.062084027 -0.68434072 0.090551138
0.061146773 -0.68422902 0.089920402
-0.062030502 -0.65930009 0.088233829
0.061112247 -0.65920603 0.087678194
-0.061976641 -0.63429272 0.08590126
0.061077774 -0.63421804 0.085438848
-0.061923273 -0.60932475 0.083590627
-0.086964607 -0.56214631 0.098101377
0.085972063 -0.56210512 0.097803116
-0.086737268 -0.53647399 0.09071815
0.0858123 -0.5364958 0.090885162
0.085653648 -0.51099896 0.084015489
-0.11161705 -0.46317083 0.096703887
0.11062838 -0.46312279 0.096257091
-0.11133382 -0.43773901 0.089345694
0.11037563 -0.4376092 0.088048458
-0.13598464 -0.33920172 0.089605212
0.13510863 -0.33928144 0.090755343
-0.16112545 -0.26570788 0.098884344
0.16006577 -0.26563984 0.097411871
-0.18587679 -0.19158584 0.099518776
0.18471147 -0.19151339 0.096387267
-0.23521197 -0.043312661 0.098231912
-0.23430979 0.030267656 0.08651185
0.23342103 0.030272856 0.086622953
-0.25906789 0.15349372 0.088178277
0.25861007 0.15399025 0.094042897
-0.25901771 0.17806886 0.087585568
0.2585786 0.17862768 0.09363389
-0.25901771 0.20269413 0.087585568
0.2585786 0.20329948 0.09363389
-0.25901771 0.22731952 0.087585568
0.2585786 0.2279713 0.09363389
-0.25901771 0.25194466 0.087585568
0.2585786 0.25264323 0.09363389
-0.25901771 0.27656996 0.087585688
0.2585786 0.27731496 0.09363389
-0.25901771 0.30119532 0.087585568
0.2585786 0.30198681 0.093634009
-0.25901771 0.32582051 0.087585449
0.2585786 0.32665861 0.09363389
-0.25901613 0.35044312 0.087567091
0.2585786 0.35133034 0.09363389
-0.25901613 0.37506825 0.087566972
0.2585786 0.37600225 0.09363389
-0.25901613 0.39969349 0.087567091
0.2585786 0.40067399 0.09363389
-0.25901613 0.42431855 0.087567091
0.2585786 0.42534602 0.09363389
-0.25901613 0.44894361 0.087567091
0.2585786 0.45001781 0.09363389
-0.25901613 0.47356874 0.087567091
0.25857717 0.47468621 0.093615413
-0.25901613 0.49819392 0.087567091
0.25857717 0.49935794 0.093615413
-0.25901613 0.52281898 0.087567091
0.25857717 0.52402961 0.093615294
-0.25901613 0.54744416 0.087567091
0.25857717 0.54870123 0.093615294
-0.25901613 0.57206935 0.087567091
0.25857717 0.57337296 0.093615294
-0.25982139 0.59881723 0.097076535
-0.25920916 0.6218459 0.089846373
0.25880918 0.62341237 0.096629381
-0.087478094 -0.88730669 0.11477733
-0.087246083 -0.86073208 0.10724235
0.086169273 -0.86052424 0.10634279
-0.06240806 -0.83536172 0.10458255
0.061377406 -0.83543277 0.10490084
-0.062353648 -0.81009763 0.10222602
0.061334789 -0.81007755 0.10213268
-0.087452583 -0.68848336 0.1139487
0.086325809 -0.68833667 0.11312068
-0.087361082 -0.66315186 0.11097729
0.086251147 -0.66296738 0.10988772
-0.087269753 -0.63786697 0.10801113
0.08618702 -0.63772148 0.10711122
-0.087178588 -0.61262882 0.10505056
0.086123005 -0.61251926 0.10433936
-0.087087587 -0.58743674 0.10209548
0.086059101 -0.5873602 0.10157216
-0.11237652 -0.51499212 0.11643553
0.11124334 -0.51496649 0.11622822
-0.11194191 -0.488841 0.10514414
0.11093491 -0.48896414 0.10621154
-0.13702124 -0.39038384 0.11204863
0.1358754 -0.39026767 0.11067677
-0.13650113 -0.36470339 0.10078764
0.13549121 -0.36469617 0.10069454
-0.16206108 -0.29135561 0.11624706
0.16091484 -0.29133138 0.11579478
0.20982511 -0.11743447 0.10321701
-0.21063659 -0.11743428 0.10013437
0.23454867 -0.043204889 0.10289919
-0.26085535 0.10569665 0.10928702
0.25976768 0.10568231 0.10908067
-0.26015463 0.12985177 0.10101187
0.25928608 0.12999155 0.10282421
-0.087616317 -0.98785448 0.11926603
0.086540207 -0.98870009 0.12240434
-0.087531477 -0.96226436 0.11651111
0.086448982 -0.96277291 0.11845422
-0.087531477 -0.93741632 0.11651099
0.086448982 -0.93791002 0.11845422
-0.087531477 -0.91256845 0.11651099
0.086448982 -0.91304713 0.11845422
0.086409763 -0.88777894 0.11675608
-0.087918483 -0.79094106 0.12907922
0.086692601 -0.7909252 0.12900317
-0.087780006 -0.76509619 0.12458217
0.086600564 -0.76518339 0.125018
-0.08764191 -0.73932302 0.1200974
0.086508751 -0.73950487 0.12104249
-0.087544255 -0.71386147 0.11692584
0.086417168 -0.71388954 0.11707675
-0.11281419 -0.54132748 0.12780654
0.11155369 -0.5411315 0.12630737
-0.13754503 -0.41624498 0.12338877
0.13626274 -0.41600031 0.12074006
-0.1874308 -0.21707989 0.12475252
0.18628594 -0.21710619 0.1256057
-0.26200134 0.056841224 0.12282073
0.26050526 0.056617066 0.118662
-0.26191005 0.081671327 0.12174225
0.26051104 0.081486255 0.11873758
0.2611157 0.6054064 0.12659204
-0.088196002 -0.8428424 0.13809204
0.086876914 -0.8425951 0.13698435
-0.088056758 -0.81685358 0.13356996
0.086784422 -0.81672639 0.13297939
-0.11325496 -0.56784916 0.13925803
0.11201846 -0.56814605 0.14140117
-0.13837875 -0.44295233 0.14143932
0.13706906 -0.44297725 0.14168847
-0.16356316 -0.3179183 0.14412212
0.16211082 -0.31776842 0.14168835
-0.21343195 -0.1424669 0.14048231
0.21182117 -0.1424294 0.13562918
-0.23898405 -0.06726563 0.14723217
0.23705049 -0.067392156 0.13900948
-0.1140698 -0.62115473 0.16042864
0.11251853 -0.62072563 0.15764153
-0.11365514 -0.59439296 0.1496551
0.11226787 -0.59437042 0.1495012
0.11330105 -0.85288006 0.18305469
0 0 0 1 0 0 0 1 0 0 0 1 0 0 0 0 0 1073 1 0 0
