ply
format ascii 1.0
comment PCL generated
element vertex 860
property float x
property float y
property float z
element camera 1
property float view_px
property float view_py
property float view_pz
property float x_axisx
property float x_axisy
property float x_axisz
property float y_axisx
property float y_axisy
property float y_axisz
property float z_axisx
property float z_axisy
property float z_axisz
property float focal
property float scalex
property float scaley
property float centerx
property float centery
property int viewportx
property int viewporty
property float k1
property float k2
end_header
-0.011557533 -0.61273766 -0.061548829
0.012028378 -0.61294299 -0.060388684
0.03564465 -0.61343592 -0.057604671
-0.058652643 -0.58858919 -0.064870358
-0.035033438 -0.58794165 -0.068693995
-0.01147317 -0.58729565 -0.072507977
0.012028378 -0.58748227 -0.07140708
0.035556674 -0.58788425 -0.069033265
0.0591488 -0.58858633 -0.064887166
-0.058652643 -0.56502891 -0.064870238
-0.035033438 -0.56441075 -0.068693995
-0.01147317 -0.56379414 -0.072507858
0.012028378 -0.56397218 -0.07140708
0.035556674 -0.56435591 -0.069033265
0.0591488 -0.56502616 -0.064887166
-0.058652643 -0.54146856 -0.064870119
-0.035033438 -0.54087991 -0.068693995
-0.01147317 -0.54029268 -0.072507977
0.012028378 -0.54046226 -0.07140708
0.035556674 -0.54082757 -0.069033384
0.0591488 -0.54146594 -0.064887166
-0.058652643 -0.51790822 -0.064870238
-0.035033438 -0.51734906 -0.068693995
-0.01147317 -0.51679116 -0.072507858
0.012028378 -0.51695222 -0.07140708
0.035556674 -0.51729923 -0.069033265
0.0591488 -0.51790577 -0.064887285
-0.058652643 -0.49434787 -0.064870238
-0.035033438 -0.49381807 -0.068693876
-0.01147317 -0.49328962 -0.072507739
0.012028378 -0.49344209 -0.07140696
0.035556674 -0.49377105 -0.069033384
0.0591488 -0.49434558 -0.064887404
-0.058652643 -0.47078758 -0.064870358
-0.035033438 -0.47028714 -0.068693757
-0.01147317 -0.46978799 -0.072507977
0.012028378 -0.46993217 -0.07140708
0.035556674 -0.47024268 -0.069033265
0.0591488 -0.47078532 -0.064887404
-0.058652643 -0.44722718 -0.064870238
-0.035033438 -0.44675627 -0.068693757
-0.01147317 -0.44628644 -0.072507977
0.012028378 -0.44642204 -0.07140708
0.035556674 -0.44671446 -0.069033265
0.0591488 -0.44722512 -0.064887404
-0.058652643 -0.42366689 -0.064870119
-0.035033438 -0.4232254 -0.068693876
-0.01147317 -0.42278498 -0.072507977
0.012028378 -0.42291212 -0.07140696
0.035556674 -0.42318618 -0.069033265
0.0591488 -0.42366493 -0.064887404
-0.058652643 -0.40010646 -0.064870358
-0.035033438 -0.39969444 -0.068693995
-0.01147317 -0.39928347 -0.072507858
0.012028378 -0.39940199 -0.07140708
0.035556674 -0.39965791 -0.069033265
0.0591488 -0.40010461 -0.064887404
-0.058652643 -0.3765462 -0.064870358
-0.035033438 -0.37616351 -0.068693995
-0.01147317 -0.37578183 -0.072507977
0.012028378 -0.37589204 -0.07140708
0.035556674 -0.37612963 -0.069033265
0.0591488 -0.37654439 -0.064887404
-0.058652256 -0.35298428 -0.064887285
-0.035033438 -0.35263258 -0.068693995
-0.01147317 -0.35228029 -0.072507977
0.012028378 -0.352382 -0.07140708
0.035556674 -0.35260129 -0.069033265
0.0591488 -0.35298428 -0.064887285
-0.058652256 -0.32942408 -0.064887285
-0.035033438 -0.32910171 -0.068693995
-0.01147317 -0.32877865 -0.072507977
0.012028378 -0.328872 -0.07140708
0.035556674 -0.32907292 -0.069033384
0.0591488 -0.32942408 -0.064887285
-0.058652256 -0.30586383 -0.064887285
-0.035033438 -0.30557084 -0.068693876
-0.01147317 -0.30527723 -0.072507858
0.012028378 -0.30536196 -0.07140708
0.035556674 -0.30554464 -0.069033265
0.0591488 -0.30586383 -0.064887285
-0.058652256 -0.28230366 -0.064887285
-0.035033438 -0.28203997 -0.068693876
-0.01147317 -0.28177568 -0.072507977
0.012028378 -0.28185192 -0.07140708
0.035556674 -0.28201637 -0.069033384
0.0591488 -0.28230366 -0.064887285
-0.058652256 -0.25874346 -0.064887285
-0.035033178 -0.25850794 -0.068710804
-0.01147317 -0.25827408 -0.072508097
0.012028378 -0.25834191 -0.07140708
0.035556674 -0.25848803 -0.069033265
0.0591488 -0.25874346 -0.064887285
-0.058652256 -0.23518321 -0.064887285
-0.035033178 -0.23497713 -0.068710804
-0.01147317 -0.2347725 -0.072507977
0.012028378 -0.2348319 -0.07140708
0.035556674 -0.23495975 -0.069033265
0.0591488 -0.23518321 -0.064887285
-0.058652256 -0.21162301 -0.064887285
-0.035033178 -0.21144629 -0.068710804
-0.011473038 -0.21127021 -0.072525024
0.012028378 -0.21132186 -0.07140708
0.035556674 -0.21143147 -0.069033146
0.0591488 -0.21162301 -0.064887285
-0.058652256 -0.1880628 -0.064887404
-0.035033178 -0.18791562 -0.068710804
-0.011473038 -0.18776874 -0.072525024
0.012028378 -0.18781188 -0.07140708
0.035556674 -0.18790326 -0.069033265
0.0591488 -0.1880628 -0.064887404
-0.058652256 -0.1645025 -0.064887404
-0.035033178 -0.16438481 -0.068710804
-0.011473038 -0.16426742 -0.072524786
0.012028378 -0.16430129 -0.071424007
0.035556674 -0.16437489 -0.069033146
0.0591488 -0.1645025 -0.064887404
-0.058652256 -0.14094229 -0.064887404
-0.035033178 -0.14085403 -0.068710804
-0.011473038 -0.14076602 -0.072524786
0.012028378 -0.14079136 -0.071424007
0.035556674 -0.1408467 -0.069033265
0.0591488 -0.14094229 -0.064887404
-0.058652256 -0.11738218 -0.064887166
-0.035033178 -0.11732326 -0.068710804
-0.011473038 -0.1172646 -0.072524786
0.012028378 -0.11728147 -0.071424007
0.035556674 -0.11731823 -0.069033265
0.0591488 -0.11738218 -0.064887166
-0.058652256 -0.093821935 -0.064887166
-0.035033178 -0.093792453 -0.068710804
-0.011473038 -0.093763113 -0.072524905
0.012028378 -0.093771666 -0.071424007
0.035556674 -0.093790002 -0.069033265
0.0591488 -0.093821935 -0.064887166
-0.058652256 -0.070261732 -0.064887166
-0.035033178 -0.070261732 -0.068710804
-0.011473038 -0.070261732 -0.072524905
0.0591488 -0.070261732 -0.064887166
0.012028378 -0.07026168 -0.071424007
0.035556674 -0.070261627 -0.069033265
-0.058652256 -0.046701524 -0.064887285
-0.035033178 -0.046730958 -0.068710804
-0.011473038 -0.046760298 -0.072524905
0.012028378 -0.04675179 -0.071424127
0.035556674 -0.046733454 -0.069033265
0.0591488 -0.046701524 -0.064887285
-0.058652256 -0.02314122 -0.064887166
-0.035033178 -0.023200091 -0.068710804
-0.011473038 -0.023258813 -0.072525024
0.012028378 -0.023241896 -0.071423888
0.035556674 -0.023205176 -0.069033265
0.0591488 -0.02314122 -0.064887166
-0.058652256 0.00041888654 -0.064887404
-0.035033178 0.00033062696 -0.068710804
-0.011473038 0.00024252385 -0.072524786
0.012028378 0.00026790053 -0.071424007
0.035556674 0.00032314658 -0.069033265
0.0591488 0.00041888654 -0.064887404
-0.058652256 0.023979187 -0.064887285
-0.035033178 0.023861401 -0.068710685
-0.011473038 0.023744002 -0.072524786
0.012028378 0.02377779 -0.071424007
0.035556674 0.023851477 -0.069033146
0.0591488 0.023979187 -0.064887285
-0.058653433 0.047541298 -0.064836144
-0.035033699 0.047393486 -0.068676949
-0.011473038 0.047245286 -0.072524905
0.012028378 0.047288366 -0.07140708
0.035556935 0.047380969 -0.06899929
0.059149586 0.047541298 -0.064836144
-0.058767971 0.071330972 -0.05987668
-0.035109863 0.071153037 -0.063729644
-0.011511155 0.070975505 -0.067573309
0.012028378 0.071025036 -0.06650281
0.035594746 0.071136557 -0.064087272
0.059230939 0.071345933 -0.059552193
-0.035186276 0.094989546 -0.058766723
-0.011549267 0.094781898 -0.062622666
0.012028378 0.094837777 -0.061582804
0.035632681 0.094968341 -0.059159517
-0.0115875 0.1186653 -0.057655931
-0.058935914 -0.61432135 -0.052604318
-0.035212331 -0.6135298 -0.057074547
0.059351113 -0.6144731 -0.051746488
-0.10652204 -0.59188348 -0.045418262
-0.082479373 -0.59005427 -0.05621922
0.082917497 -0.59011519 -0.055859685
0.10682681 -0.59165317 -0.046778917
-0.10652204 -0.56817353 -0.045418143
-0.082479373 -0.56642747 -0.05621922
0.082917497 -0.56648546 -0.055859804
0.10682681 -0.56795347 -0.046778917
-0.10652204 -0.54446346 -0.045418262
-0.082479373 -0.54280049 -0.056219101
0.082917497 -0.54285574 -0.055859923
0.10682681 -0.54425389 -0.046779037
-0.10652204 -0.52075332 -0.045418262
-0.082479373 -0.5191735 -0.05621922
0.082917497 -0.51922613 -0.055859804
0.10682681 -0.5205543 -0.046778917
-0.10652204 -0.49704322 -0.045418262
0.10682681 -0.49685469 -0.046778917
-0.082479373 -0.49554652 -0.05621922
0.082917497 -0.49559641 -0.055859804
-0.10652204 -0.47333321 -0.045418143
-0.082479373 -0.47191969 -0.05621922
0.082917497 -0.47196668 -0.055859923
0.10682681 -0.47315514 -0.046778917
-0.10652204 -0.44962308 -0.045418143
-0.082479373 -0.44829279 -0.056219101
0.082917497 -0.44833705 -0.055859685
0.10682681 -0.44945547 -0.046778917
-0.10652204 -0.42591301 -0.045418262
-0.082479373 -0.42466578 -0.056219339
0.082917497 -0.42470732 -0.055859804
0.10682681 -0.4257558 -0.046778917
-0.10652204 -0.4022029 -0.045418262
-0.082479373 -0.40103886 -0.05621922
0.082917497 -0.4010776 -0.055859804
0.10682681 -0.40205634 -0.046778917
-0.10652204 -0.37849274 -0.045418262
-0.082479373 -0.37741193 -0.05621922
0.082917497 -0.37744778 -0.055859923
0.10682681 -0.37835667 -0.046778917
-0.10652204 -0.35478276 -0.045418262
-0.082479373 -0.35378495 -0.05621922
0.082917497 -0.35381824 -0.055859685
0.10682681 -0.35465708 -0.046778917
-0.10652204 -0.33107263 -0.045418143
-0.082479373 -0.33015805 -0.05621922
0.082917497 -0.33018845 -0.055859685
0.10682681 -0.3309575 -0.046778917
-0.10652204 -0.30736256 -0.045418262
-0.082479373 -0.3065311 -0.05621922
0.082917497 -0.30655879 -0.055859923
0.10682681 -0.30725777 -0.046778917
-0.10652204 -0.28365245 -0.045418262
0.10682681 -0.28355822 -0.046778917
-0.082479373 -0.28290421 -0.056219101
0.082917497 -0.28292909 -0.055859685
-0.10652204 -0.25994241 -0.045418143
-0.082479373 -0.25927719 -0.056219339
0.082917497 -0.25929934 -0.055859685
0.10682681 -0.25985852 -0.046778917
-0.10652204 -0.23623231 -0.045418262
-0.082479373 -0.23565024 -0.05621922
0.082917497 -0.23566961 -0.055859923
0.10682681 -0.23615891 -0.046779037
-0.10652204 -0.21252218 -0.045418262
-0.082479373 -0.21202335 -0.05621922
0.082917497 -0.21203998 -0.055859685
0.10682681 -0.21245942 -0.046778917
-0.10652204 -0.18881212 -0.045418262
-0.082479373 -0.18839642 -0.056219101
0.082917497 -0.1884103 -0.055859804
0.10682681 -0.18875971 -0.046778917
-0.10652204 -0.16510215 -0.045418143
-0.082479373 -0.16476941 -0.05621922
0.082917497 -0.16478053 -0.055859804
0.10682681 -0.16506019 -0.046778917
-0.10652204 -0.14139199 -0.045418143
-0.082479373 -0.14114252 -0.05621922
0.082917497 -0.14115077 -0.055859804
0.10682681 -0.14136055 -0.046778917
-0.10652204 -0.11768186 -0.045418262
-0.082479373 -0.11751562 -0.056219101
0.082917497 -0.11752115 -0.055859804
0.10682681 -0.11766084 -0.046778917
-0.10652204 -0.093971744 -0.045418262
-0.082479373 -0.093888678 -0.056219101
0.082917497 -0.093891412 -0.055859804
0.10682681 -0.09396138 -0.046778917
-0.10652204 -0.070261829 -0.045418262
-0.082479373 -0.070261732 -0.05621922
0.082917497 -0.070261732 -0.055859804
0.10682681 -0.07026168 -0.046778917
-0.10652204 -0.046551708 -0.045418143
-0.082479373 -0.046634782 -0.05621922
0.082917497 -0.046632044 -0.055859685
0.10682681 -0.046562172 -0.046778917
-0.10652204 -0.022841543 -0.045418262
-0.082479373 -0.023007933 -0.05621922
0.082917497 -0.02300236 -0.055859804
0.10682681 -0.022862568 -0.046778917
-0.10652204 0.00086847693 -0.045418262
-0.082479373 0.00061915815 -0.05621922
0.082917497 0.00062737614 -0.055859804
0.10682681 0.00083713979 -0.046778917
-0.10652204 0.024578691 -0.045418262
-0.082479373 0.024246104 -0.05621922
0.082917497 0.024257064 -0.055859685
0.10682681 0.024536692 -0.046778917
-0.10653 0.048296683 -0.045211315
-0.082483061 0.047877602 -0.056099176
0.082920656 0.047892176 -0.055722952
0.10683317 0.048244365 -0.046572328
-0.082650922 0.071757086 -0.050647736
0.083043016 0.071767457 -0.050424576
-0.08281938 0.095721804 -0.045176864
-0.058883276 0.095198669 -0.054883838
0.059312306 0.095231973 -0.054267287
0.083165802 0.095725708 -0.04510808
-0.058998954 0.11914446 -0.049874783
-0.035263203 0.11890448 -0.053770304
0.012028378 0.11872735 -0.056646943
0.035670739 0.11887708 -0.054215789
0.059393954 0.11920061 -0.048963785
-0.035340112 0.14289653 -0.048774719
-0.011625989 0.14262772 -0.052655935
0.012028378 0.14269421 -0.051694989
0.035708919 0.14286315 -0.049255967
-0.059115004 0.14316851 -0.044849515
0.059475888 0.1432521 -0.043642163
-0.035417542 0.1669679 -0.043745637
-0.011664473 0.16666675 -0.047656775
0.012028378 0.16673833 -0.04672718
0.035747223 0.16692662 -0.044280529
-0.011703215 0.19078568 -0.042624116
0.012028378 0.1908603 -0.041743398
-0.1071897 -0.61866492 -0.028071761
-0.082948521 -0.61637878 -0.0409832
0.083260261 -0.61637276 -0.041017652
0.10741358 -0.61872667 -0.027723193
-0.13091511 -0.59438777 -0.030631304
0.13117808 -0.59452051 -0.029848218
-0.13091511 -0.57056379 -0.030631423
0.13117808 -0.57069045 -0.029848218
-0.13091511 -0.54674 -0.030631185
0.13117808 -0.54686058 -0.029848099
-0.13091511 -0.52291608 -0.030631304
0.13117808 -0.5230307 -0.029848218
-0.13091511 -0.49909213 -0.030631304
0.13117808 -0.49920067 -0.029848218
-0.13091511 -0.47526816 -0.030631304
0.13117808 -0.47537073 -0.029848218
-0.13091511 -0.45144433 -0.030631304
0.13117808 -0.45154074 -0.029848218
-0.13091511 -0.4276205 -0.030631304
0.13117808 -0.42771083 -0.029848218
-0.13091511 -0.40379655 -0.030631423
0.13117808 -0.40388095 -0.029848337
-0.13091511 -0.37997261 -0.030631423
0.13117808 -0.38005099 -0.029848218
-0.13091511 -0.35614875 -0.030631304
0.13117808 -0.35622105 -0.029848218
-0.13091511 -0.3323248 -0.030631304
0.13117808 -0.33239105 -0.029848337
-0.13091511 -0.30850089 -0.030631304
0.13117808 -0.30856115 -0.029848218
-0.13091511 -0.284677 -0.030631304
0.13117808 -0.28473121 -0.029848337
-0.13091511 -0.26085305 -0.030631304
0.13117808 -0.26090121 -0.029848218
-0.13091511 -0.23702917 -0.030631304
0.13117808 -0.23707131 -0.029848337
-0.13091511 -0.21320516 -0.030631304
0.13117808 -0.2132414 -0.029848099
-0.13091511 -0.18938136 -0.030631304
0.13117808 -0.18941149 -0.029848099
-0.13091511 -0.16555741 -0.030631304
0.13117808 -0.16558157 -0.029848218
-0.13091511 -0.14173347 -0.030631304
0.13117808 -0.14175156 -0.029848099
-0.13091511 -0.11790952 -0.030631423
0.13117808 -0.11792165 -0.029848218
-0.13091511 -0.094085678 -0.030631185
0.13117808 -0.094091639 -0.029848218
-0.13091511 -0.070261732 -0.030631304
0.13117808 -0.070261776 -0.029848218
-0.13091511 -0.046437882 -0.030631304
0.13117808 -0.046431769 -0.029848218
-0.13091511 -0.022613838 -0.030631423
0.13117808 -0.022601955 -0.029848218
-0.13091511 0.0012099147 -0.030631304
0.13117808 0.0012280568 -0.029848218
-0.13091511 0.025033906 -0.030631304
0.13117743 0.025057524 -0.029865503
-0.13093358 0.048873253 -0.030231118
0.13119282 0.048902743 -0.029465199
-0.10674132 0.072261937 -0.039721131
0.10700475 0.072202779 -0.041000366
-0.1069534 0.096312858 -0.034211159
0.10719724 0.096283711 -0.03474915
-0.10716623 0.12044968 -0.028681517
-0.082988441 0.11977195 -0.039686441
0.083289005 0.11976662 -0.039772987
0.10739051 0.12046256 -0.028472424
-0.083158113 0.14390799 -0.03417635
0.083412632 0.14389104 -0.034419298
-0.083328381 0.16813013 -0.028646588
-0.059235048 0.16728309 -0.039651871
0.059558105 0.16738692 -0.038302183
0.083536699 0.16809928 -0.029047251
-0.059362691 0.19150552 -0.034124374
-0.035495218 0.191118 -0.038700104
0.035785649 0.19106823 -0.039288521
0.059640605 0.19160551 -0.032943606
-0.059562895 0.21610332 -0.025455475
-0.035616234 0.21560597 -0.03083992
-0.011763033 0.21523523 -0.034853101
0.012028378 0.21531224 -0.034020185
0.035845596 0.215545 -0.031501055
-0.011837798 0.23999846 -0.02514112
-0.15583175 -0.59782219 -0.010352492
0.1558312 -0.59753877 -0.012026072
-0.15583175 -0.57384205 -0.010352492
0.1558312 -0.57357156 -0.012026191
-0.15583175 -0.54986215 -0.010352492
0.1558312 -0.54960442 -0.012026191
-0.15583175 -0.52588212 -0.010352373
0.1558312 -0.52563727 -0.012026191
-0.15583175 -0.50190204 -0.010352492
0.1558312 -0.50167018 -0.012026072
-0.15583175 -0.47792211 -0.010352373
0.1558312 -0.47770309 -0.012026072
-0.15583175 -0.45394209 -0.010352373
0.1558312 -0.45373595 -0.012026191
-0.15583175 -0.42996201 -0.010352492
0.1558312 -0.42976874 -0.012026191
-0.15583175 -0.40598196 -0.010352492
0.1558312 -0.40580162 -0.012026072
-0.15583175 -0.382002 -0.010352492
0.1558312 -0.38183448 -0.012026072
-0.1558308 -0.35802031 -0.010370016
0.15583038 -0.35786569 -0.012043715
-0.1558308 -0.33404052 -0.010370016
0.15583038 -0.33389875 -0.012043595
-0.1558308 -0.31006056 -0.010370016
0.15583038 -0.30993176 -0.012043595
-0.1558308 -0.28608069 -0.010370016
0.15583038 -0.2859647 -0.012043715
-0.1558308 -0.26210076 -0.010370016
0.15583038 -0.26199776 -0.012043595
-0.1558308 -0.23812094 -0.010370016
0.15583038 -0.23803073 -0.012043834
-0.1558308 -0.21414101 -0.010370016
0.15583038 -0.2140637 -0.012043595
-0.1558308 -0.19016109 -0.010370016
0.15583038 -0.1900968 -0.012043595
-0.1558308 -0.16618133 -0.010370016
0.15583038 -0.16612968 -0.012043595
-0.1558308 -0.14220139 -0.010370016
0.15583038 -0.14216271 -0.012043595
-0.1558308 -0.11822148 -0.010370016
0.15583038 -0.11819585 -0.012043595
-0.1558308 -0.094241552 -0.010370016
0.15583038 -0.094228745 -0.012043595
-0.1558308 -0.070261732 -0.010370016
0.15583038 -0.070261732 -0.012043595
-0.1558308 -0.046281856 -0.010370016
0.15583038 -0.046294715 -0.012043715
-0.1558308 -0.022301935 -0.010370016
0.15583038 -0.022327702 -0.012043595
-0.1558308 0.00167799 -0.010370016
0.15583038 0.001639314 -0.012043595
-0.1558308 0.025657907 -0.010370016
0.15583038 0.025606371 -0.012043595
-0.15586311 0.049660765 -0.0097706318
0.15585642 0.049594998 -0.011479974
-0.13123968 0.073006324 -0.023604035
0.13143525 0.073026605 -0.023167133
-0.13154708 0.097242944 -0.016948581
0.13167933 0.097249545 -0.016825557
-0.13185582 0.12158401 -0.010264397
0.13192374 0.12157086 -0.010475874
-0.10737983 0.14467302 -0.023132086
0.10758457 0.14473969 -0.022170067
-0.1075996 0.16899428 -0.01742208
0.10777942 0.16911581 -0.015842199
-0.1078568 0.19348568 -0.01074028
-0.083499268 0.19243923 -0.023097038
0.083661199 0.19239193 -0.023656487
0.10797561 0.1935932 -0.0094708204
-0.083774604 0.21714723 -0.014155149
0.059771214 0.2161954 -0.024460077
0.083861947 0.21707258 -0.014963627
-0.059809249 0.24103475 -0.014788032
-0.035766151 0.24040273 -0.021102786
0.012028378 0.24007365 -0.024390221
0.035919849 0.24032733 -0.021855354
0.059930954 0.24110511 -0.014084935
-0.03591701 0.265356 -0.011303902
-0.011913032 0.26491809 -0.015367985
0.012028378 0.26499003 -0.014700174
0.035994567 0.26526481 -0.012149215
-0.13207598 -0.62266171 -0.0054975748
0.13209493 -0.62256783 -0.0060279369
-0.15622498 0.073955379 -0.0030554533
0.156221 0.073930927 -0.0035867691
-0.15658838 0.098355003 0.0036885738
0.15661292 0.098420151 0.0048985481
-0.13216668 0.14603078 -0.0035336018
0.13216981 0.14599288 -0.0040825605
-0.13247809 0.17058229 0.003208518
0.13241692 0.17051536 0.0023374557
-0.10828359 0.21848688 0.00034832954
0.10830147 0.21855757 0.0011117458
-0.084105484 0.24217337 -0.0034095049
0.084103025 0.24206173 -0.0045247078
-0.0844381 0.26737088 0.0073922873
-0.060057301 0.26613814 -0.0040467978
0.060091764 0.26618204 -0.0036399364
0.084372893 0.26734599 0.0071607828
-0.036068831 0.29046732 -0.0014432669
-0.011988741 0.28999507 -0.00553298
0.012028378 0.29006258 -0.0049493313
0.036069751 0.29035893 -0.0023822784
-0.060306665 0.29141355 0.0067507029
0.060253933 0.29143003 0.0068932772
-0.012064933 0.31523132 0.0043646097
0.012028378 0.31529263 0.0048629045
0.036148019 0.31565246 0.0077847242
-0.18161424 -0.57857364 0.018915892
0.18146375 -0.57856768 0.01888001
-0.18161424 -0.55436826 0.018915892
0.18146375 -0.55436271 0.01888001
-0.18161424 -0.53016293 0.018916011
0.18146375 -0.53015774 0.018880129
-0.18161424 -0.50595766 0.018915892
0.18146375 -0.50595272 0.018880129
-0.18161424 -0.48175228 0.018915892
0.18146375 -0.4817476 0.01888001
-0.18161424 -0.45754698 0.018915892
0.18146375 -0.45754257 0.01887989
-0.18161424 -0.43334162 0.018915892
0.18146375 -0.43333754 0.018880129
-0.18161424 -0.4091363 0.018916011
0.18146375 -0.40913254 0.018880129
-0.18161315 -0.38492927 0.018897891
0.18146278 -0.38492554 0.018862009
-0.18161315 -0.36072406 0.018898129
0.18146278 -0.36072066 0.018862128
-0.18161315 -0.33651879 0.018898129
0.18146278 -0.33651581 0.018862247
-0.18161315 -0.31231362 0.01889801
0.18146278 -0.3123109 0.018862128
-0.18161315 -0.28810847 0.018898129
0.18146278 -0.28810596 0.018862128
-0.18161315 -0.26390329 0.01889801
0.18146278 -0.26390108 0.018862128
-0.18161315 -0.23969799 0.01889801
0.18146278 -0.23969612 0.018862128
-0.18161315 -0.21549293 0.01889801
0.18146278 -0.21549121 0.018862009
-0.18161315 -0.1912877 0.01889801
0.18146278 -0.19128627 0.018862128
-0.18161315 -0.16708241 0.018897891
0.18146278 -0.16708139 0.018862009
-0.18161315 -0.14287733 0.01889801
0.18146278 -0.14287645 0.018862009
-0.18161315 -0.11867204 0.018897891
0.18146278 -0.11867166 0.018862128
-0.18161315 -0.094467007 0.018898129
0.18146278 -0.094466671 0.018862247
-0.18161315 -0.070261732 0.018898129
0.18146278 -0.070261829 0.018862128
-0.18161315 -0.046056449 0.018897891
0.18146278 -0.046056837 0.018862128
-0.18161315 -0.021851264 0.018898129
0.18146278 -0.021851853 0.018862128
-0.18161315 0.0023537725 0.01889801
0.18146278 0.0023529902 0.018862128
-0.18161315 0.026559055 0.01889801
0.18146278 0.026557975 0.018862128
-0.18168838 0.050811172 0.020119667
0.18152376 0.050806381 0.019993901
-0.15699957 0.12291303 0.011319518
0.15700778 0.12304417 0.013447762
-0.1575038 0.14770827 0.020676851
0.15740401 0.14780161 0.022026062
-0.13279083 0.19524014 0.0099796057
0.13266502 0.19513896 0.0087835789
-0.13333061 0.22045627 0.021666288
0.1331581 0.22044954 0.021594286
-0.10878503 0.24385318 0.013376236
0.10868298 0.24386564 0.013501406
-0.084773578 0.29274556 0.018287539
0.084659718 0.29289493 0.019580483
-0.060558166 0.31686652 0.017641306
-0.036221612 0.31573826 0.0084804296
0.060416922 0.31684673 0.017479777
-0.03637509 0.34116766 0.018449068
-0.012141609 0.34062809 0.014325023
0.012028378 0.34068203 0.014736891
0.036229558 0.34115836 0.018377066
-0.012218774 0.36618695 0.024349093
-0.15776677 -0.62816006 0.025556922
0.15762043 -0.62836456 0.026711702
-0.18210657 -0.60413277 0.026910186
0.18184298 -0.60396469 0.025917768
-0.18226787 0.075460382 0.029529929
0.18198891 0.075418673 0.028625965
-0.18285088 0.10025758 0.038996339
0.18245468 0.10016454 0.037269354
-0.15801106 0.17265177 0.030090451
0.15780237 0.17269495 0.030651212
-0.15852037 0.19774339 0.039542317
0.15820211 0.19772339 0.039305568
-0.13402446 0.24618617 0.03668797
0.13379993 0.24634439 0.038269043
-0.10928999 0.26942977 0.026495218
0.10906696 0.2693733 0.025972009
-0.10979987 0.29522303 0.039742351
0.10945401 0.29508421 0.038541675
-0.085176021 0.31855571 0.03135705
0.084949248 0.31864959 0.032117367
-0.060811434 0.34249726 0.028607965
0.060581017 0.34243569 0.02813828
-0.061066475 0.36830729 0.039651394
-0.036529828 0.3667621 0.028499603
0.012028378 0.36623201 0.024673581
0.036311656 0.36683723 0.029041767
0.06074651 0.36820152 0.038887143
-0.036691159 0.39257377 0.038978219
-0.012296435 0.39190972 0.034437537
0.012028378 0.39194435 0.034673095
0.036394309 0.39269084 0.039778709
-0.18343626 0.12520298 0.04850173
0.18303922 0.12517932 0.048117399
-0.15945499 0.22370982 0.056886435
0.15893261 0.22354665 0.055121422
-0.13487753 0.27251869 0.055158257
0.13444856 0.27251473 0.055121303
-0.11032607 0.32127243 0.05341351
0.1099651 0.32148513 0.055139899
-0.085585184 0.34459588 0.044645309
0.085241087 0.34461021 0.044754863
-0.061323304 0.39429876 0.050772309
0.060932316 0.39432573 0.050955653
-0.036862306 0.41864499 0.050094485
-0.012374592 0.41779768 0.044590473
0.012028378 0.41782013 0.044736624
0.036477529 0.41872114 0.050589323
-0.012453255 0.44385251 0.054808974
0.012028378 0.44386145 0.054864168
-0.20902272 -0.58604759 0.065149188
0.20858544 -0.58622396 0.066240549
-0.20902272 -0.56148636 0.065149188
0.20858544 -0.56165433 0.066240549
-0.20902272 -0.53692508 0.065149188
0.20858544 -0.53708482 0.06624043
-0.20902272 -0.51236391 0.065149188
0.20858544 -0.51251513 0.06624043
-0.20902272 -0.48780268 0.065149188
0.20858544 -0.48794553 0.06624043
-0.20902272 -0.46324137 0.065149188
0.20858544 -0.46337587 0.066240668
-0.20902272 -0.43868026 0.065149188
0.20858544 -0.43880627 0.06624043
-0.20902272 -0.41411898 0.065149188
0.20858544 -0.41423661 0.06624043
-0.20902272 -0.38955769 0.065149188
0.20858544 -0.389667 0.066240668
-0.20902272 -0.36499658 0.065149188
0.20858544 -0.36509728 0.06624043
-0.20902272 -0.34043527 0.065149188
0.20858544 -0.34052768 0.06624043
-0.20902272 -0.31587395 0.065149188
0.20858544 -0.31595805 0.066240549
-0.20902272 -0.29131287 0.065149188
0.20858544 -0.29138845 0.066240668
-0.20902272 -0.26675165 0.065149188
0.20858544 -0.26681876 0.06624043
-0.20902272 -0.2421903 0.065149188
0.20858544 -0.24224919 0.066240549
-0.20902272 -0.21762919 0.065149188
0.20858544 -0.21767956 0.066240549
-0.20902272 -0.19306792 0.065149188
0.20858544 -0.19310983 0.06624043
-0.20902272 -0.16850662 0.065149188
0.20858544 -0.16854018 0.066240549
-0.20902272 -0.1439454 0.065149069
0.20858544 -0.14397067 0.06624043
-0.20902272 -0.11938421 0.065149188
0.20858544 -0.11940102 0.066240549
-0.20902272 -0.094822913 0.065149188
0.20858544 -0.094831333 0.06624043
-0.20902272 -0.07026168 0.065149188
0.20858544 -0.07026168 0.06624043
-0.20902272 -0.045700442 0.065149188
0.20858544 -0.045692079 0.066240549
-0.20902272 -0.021139253 0.065149188
0.20858544 -0.021122433 0.066240668
-0.20902272 0.0034219399 0.065149069
0.20858544 0.0034471154 0.06624043
-0.20902272 0.027983226 0.065149307
0.20858544 0.028016716 0.06624043
-0.20925869 0.052675553 0.068555355
0.2087611 0.05269628 0.06909287
-0.18407845 0.15035847 0.058929801
0.18382458 0.15061915 0.062691689
-0.1357398 0.29915875 0.073826671
0.13510559 0.29896992 0.072191477
-0.11104383 0.34818384 0.072061539
0.11048958 0.3481985 0.07217288
-0.08599782 0.37085614 0.058045864
0.085534431 0.37077463 0.057456732
-0.086413383 0.39733657 0.071541667
0.085874282 0.39742905 0.07217288
-0.061605815 0.4206329 0.063005805
0.061129216 0.42074668 0.063744426
-0.037034657 0.44490001 0.061289191
0.036561459 0.44493291 0.061491966
-0.012532284 0.47007278 0.065075159
0.012028378 0.47007278 0.065075159
-0.037208229 0.47134098 0.072562933
0.036645968 0.47132519 0.072470188
-0.012570205 0.49550566 0.070001364
0.012028378 0.49549589 0.069945812
-0.210489 0.07808321 0.086313605
0.20967174 0.077970855 0.083879352
-0.18516892 0.17623502 0.076636553
0.18461818 0.17629513 0.077419162
-0.16073631 0.25058699 0.080664635
0.16019782 0.25077206 0.082514286
-0.086956017 0.42466021 0.089164019
0.086271882 0.42469496 0.089389443
-0.061918464 0.44736609 0.07654345
0.06132713 0.44737527 0.076599479
-0.062222492 0.4742448 0.089708686
0.061520286 0.47414932 0.089145422
-0.037286434 0.49685869 0.077642679
0.036683921 0.49681565 0.077400446
-0.037359711 0.52239543 0.082402349
-0.012603662 0.52090728 0.074347377
0.012028378 0.52089 0.074254394
0.036719546 0.52232629 0.082028151
-0.037433207 0.54800814 0.087175727
-0.012637352 0.54638159 0.078723907
0.012028378 0.5463565 0.078593373
0.03675513 0.54790717 0.086650848
-0.037475672 0.57329094 0.089933991
-0.012658185 0.57158899 0.081430554
0.012028378 0.57155526 0.08126235
0.036778957 0.57325339 0.089746237
-0.012670993 0.59662116 0.083093882
0.012028378 0.59658247 0.082906961
-0.012683664 0.62167555 0.08474052
0.012028378 0.62163925 0.084571958
-0.012696498 0.64675975 0.086407185
0.012028378 0.64671779 0.086219907
-0.012699383 0.67157108 0.086781979
0.012028378 0.67152786 0.086594582
-0.012699383 0.6962989 0.086782098
0.012028378 0.69625425 0.086594582
-0.012699383 0.7210266 0.086781979
0.012028378 0.72098047 0.086594701
-0.012699383 0.74575448 0.086781979
0.012028378 0.7457068 0.086594582
-0.012699383 0.77048224 0.086782098
0.012028378 0.77043313 0.086594701
-0.012699383 0.79520988 0.086781979
0.012028378 0.79515952 0.086594582
-0.012699383 0.81993771 0.086781979
0.012028378 0.81988567 0.086594582
-0.012699383 0.84466559 0.086782098
0.012028378 0.84461224 0.086594582
-0.012699383 0.86939311 0.086782098
0.012028378 0.86933839 0.086594582
-0.012697653 0.8940534 0.086557269
0.012028378 0.89400274 0.08638835
-0.012697653 0.91877943 0.086557031
0.012028378 0.9187277 0.086388588
-0.012716855 0.96903819 0.089051604
0.012028378 0.96897131 0.088845134
-0.012677615 0.99209589 0.083954215
0.012028378 0.99204022 0.08378613
-0.21173966 0.1037801 0.10436511
-0.18632728 0.20247728 0.095445991
0.18545057 0.20225891 0.092866302
-0.1370209 0.32720309 0.1015631
0.13623393 0.327196 0.10150635
-0.11177151 0.37541789 0.090967178
0.11107004 0.37542567 0.091023445
-0.062354553 0.50000745 0.095426917
0.061625123 0.50010091 0.095954657
-0.062517233 0.5261032 0.10247135
0.061734486 0.52621156 0.10305822
-0.037503444 0.598418 0.091737866
0.036794867 0.59843349 0.091813087
-0.037531249 0.62357312 0.093543768
0.0368108 0.62364602 0.09388268
-0.037559085 0.6487565 0.095351577
0.036826607 0.64888692 0.095935941
-0.037563145 0.6736111 0.095615625
0.036828782 0.6737504 0.096218824
-0.037563145 0.69840693 0.095615387
0.036828782 0.69855094 0.096218824
-0.037563145 0.72320282 0.095615625
0.036828782 0.7233513 0.096218586
-0.037563145 0.74799848 0.095615506
0.036828782 0.74815166 0.096218824
-0.037563145 0.77279419 0.095615387
0.036828782 0.77295202 0.096218586
-0.037563145 0.79758996 0.095615625
0.036828782 0.7977525 0.096218824
-0.037563145 0.82238567 0.095615625
0.036828782 0.82255292 0.096218824
-0.037563145 0.84718138 0.095615506
0.036828782 0.84735328 0.096218586
-0.037645981 0.87355101 0.10099566
0.036870215 0.87372798 0.101601
-0.037559666 0.89670509 0.095389366
0.036826897 0.89688051 0.095973611
-0.037559666 0.92149913 0.095389366
0.036826752 0.92167336 0.095954895
-0.012741006 0.945283 0.092189074
0.012028378 0.94521183 0.09196353
-0.037670448 0.94856423 0.10258496
0.036879975 0.94865364 0.1028688
-0.037595082 0.97183102 0.097690105
0.036842871 0.9719469 0.098048687
-0.037516184 0.99494606 0.092565298
0.036802109 0.99500877 0.09275353
0.21174648 0.10449161 0.11756921
-0.16267042 0.27913594 0.11655712
-0.11299576 0.40483013 0.122774
0.11198459 0.40453035 0.12072468
-0.087545596 0.45250157 0.10831118
0.08675012 0.45279047 0.11009777
-0.062699065 0.55246699 0.11034501
0.061844919 0.55244505 0.11023092
-0.062783934 0.57811171 0.11401975
0.061896797 0.57802784 0.11360061
-0.062852234 0.6036638 0.11697733
0.061938792 0.60352892 0.116328
-0.062920213 0.62925857 0.11992085
0.061997347 0.62930399 0.12013137
-0.062988319 0.65489966 0.12286985
-0.062988319 0.67990535 0.12286985
-0.062988319 0.70491087 0.12286985
-0.062988319 0.72991645 0.12286985
-0.062988319 0.75492197 0.12286985
-0.062988319 0.77992761 0.12286985
-0.062988319 0.80493307 0.12286985
-0.062988319 0.82993853 0.12286985
-0.062988319 0.85494417 0.12286985
-0.062973268 0.90475971 0.12221837
-0.062973268 0.92976016 0.12221825
-0.062867232 0.97827691 0.11762679
0.06194967 0.97808522 0.11703455
0.16234381 0.28047425 0.12897635
0.062057219 0.65515637 0.12402034
0.062057219 0.68017095 0.12402034
0.062057219 0.70518535 0.12402022
0.062057219 0.73019981 0.12402034
0.062057219 0.75521415 0.12402022
0.062057219 0.78022861 0.12402022
0.062057219 0.80524307 0.12402022
0.062057219 0.83025753 0.12402022
0.062057219 0.855272 0.12402022
-0.063222311 0.88291377 0.13300216
0.062195208 0.88290817 0.13298297
0.062048953 0.90513945 0.1234833
0.062048953 0.93014997 0.12348342
-0.06307251 0.95611697 0.12651551
0.062101554 0.95623857 0.12689996
-0.088658676 0.48351714 0.14445996
0.087555788 0.48360595 0.14498436
0 0 0 1 0 0 0 1 0 0 0 1 0 0 0 0 0 860 1 0 0
