ply
format ascii 1.0
comment PCL generated
element vertex 1315
property float x
property float y
property float z
element camera 0
property float view_px
property float view_py
property float view_pz
property float x_axisx
property float x_axisy
property float x_axisz
property float y_axisx
property float y_axisy
property float y_axisz
property float z_axisx
property float z_axisy
property float z_axisz
property float focal
property float scalex
property float scaley
property float centerx
property float centery
property int viewportx
property int viewporty
property float k1
property float k2
end_header
-0.040706854 -0.5022825 -0.084614038
-0.018927693 -0.50208038 -0.085995555
0.0028302022 -0.50187641 -0.087390661
0.024576088 -0.50185227 -0.087555647
0.046389479 -0.50249356 -0.08317101
0.068270683 -0.50313675 -0.078773141
0.090220019 -0.50378203 -0.074361444
-0.084463276 -0.48150098 -0.07749033
-0.062505931 -0.48069727 -0.083291411
-0.040666878 -0.4801541 -0.087210774
-0.018919032 -0.48016661 -0.087120771
0.0028302022 -0.48017704 -0.087045789
0.024580589 -0.48018733 -0.086970806
0.046345301 -0.48031631 -0.086040616
0.068240382 -0.48114151 -0.08008492
0.090227947 -0.48197022 -0.074104071
-0.084463276 -0.4596777 -0.077490211
-0.062505931 -0.45891845 -0.083291531
-0.040666878 -0.45840555 -0.087210774
-0.018919032 -0.45841742 -0.087120771
0.0028302022 -0.45842716 -0.087045789
0.024580589 -0.45843703 -0.086970687
0.046345301 -0.45855874 -0.086040497
0.068240382 -0.45933807 -0.080085039
0.090227947 -0.46012086 -0.074103951
-0.084463276 -0.43785429 -0.077490211
0.090227947 -0.43827137 -0.074104071
-0.062505588 -0.43713793 -0.083306432
-0.040666878 -0.43665707 -0.087210774
-0.018919032 -0.4366681 -0.087120771
0.0028302022 -0.43667731 -0.087045908
0.024580589 -0.43668655 -0.086970925
0.046345301 -0.43680117 -0.086040735
0.068240382 -0.43753478 -0.080084801
-0.084462814 -0.41602921 -0.07750535
-0.062505588 -0.41535935 -0.083306432
-0.040666878 -0.41490853 -0.087210655
-0.018919032 -0.41491887 -0.087120771
0.0028302022 -0.41492757 -0.08704567
0.024580589 -0.41493621 -0.086970806
0.046345301 -0.41504356 -0.086040616
0.068240382 -0.41573137 -0.08008492
0.090227947 -0.41642192 -0.074104071
-0.084462814 -0.39420593 -0.07750535
-0.062505588 -0.39358079 -0.083306432
-0.040666878 -0.39315999 -0.087210894
-0.018919032 -0.39316967 -0.087120771
0.0028302022 -0.39317781 -0.087045789
0.024580589 -0.39318585 -0.086970687
0.046345301 -0.39328614 -0.086040497
0.068240382 -0.39392793 -0.08008492
0.090227947 -0.39457247 -0.074104071
-0.084462814 -0.37238273 -0.07750535
-0.062505588 -0.37180215 -0.083306551
-0.040666878 -0.37141135 -0.087210655
-0.018919032 -0.37142047 -0.087120771
0.0028302022 -0.37142792 -0.087045908
0.024580589 -0.37143537 -0.086970925
0.046345301 -0.37152854 -0.086040735
0.068240382 -0.37212452 -0.08008492
0.090227947 -0.37272313 -0.074104071
-0.084462814 -0.35055944 -0.07750535
-0.062505588 -0.35002351 -0.083306551
-0.040666878 -0.3496629 -0.087210774
-0.018919032 -0.34967119 -0.087120771
0.0028302022 -0.34967813 -0.087045908
0.024580473 -0.34968367 -0.086985826
0.046345301 -0.34977096 -0.086040735
0.068240382 -0.35032117 -0.080084801
0.090227947 -0.35087359 -0.074103951
-0.084462814 -0.32873619 -0.07750535
-0.062505588 -0.32824498 -0.083306432
-0.040666878 -0.32791445 -0.087210655
-0.018919032 -0.32792196 -0.087120771
0.0028302022 -0.32792827 -0.087045908
0.024580473 -0.32793331 -0.086985826
0.046345301 -0.32801348 -0.086040616
0.068240382 -0.32851774 -0.080084801
0.090227947 -0.32902417 -0.074104071
-0.084462814 -0.30691296 -0.07750535
-0.062505588 -0.30646634 -0.083306313
-0.040666878 -0.30616575 -0.087210894
-0.018919032 -0.30617267 -0.087120771
0.0028302022 -0.30617854 -0.087045789
0.024580473 -0.30618307 -0.086985826
0.046345532 -0.30625701 -0.086025596
0.068240382 -0.3067143 -0.08008492
0.090227947 -0.30717471 -0.074104071
-0.084462814 -0.28508964 -0.07750535
-0.062505588 -0.28468779 -0.083306551
-0.040667109 -0.28441831 -0.087195754
-0.018919032 -0.28442353 -0.087120771
0.0028302022 -0.28442869 -0.087045789
0.024580473 -0.2844328 -0.086985826
0.046345532 -0.28449944 -0.086025596
0.068240382 -0.28491089 -0.08008492
0.090227947 -0.28532541 -0.074103951
-0.084462814 -0.26326644 -0.07750535
0.090227947 -0.26347589 -0.074104071
-0.062505588 -0.2629092 -0.083306432
-0.040667109 -0.26266962 -0.087195754
-0.018919032 -0.26267424 -0.087120771
0.0028302022 -0.26267889 -0.087045908
0.024580589 -0.26268345 -0.086970925
0.046345532 -0.26274171 -0.086025596
0.068240382 -0.26310763 -0.08008492
-0.084462814 -0.24144316 -0.07750535
-0.062505588 -0.24113056 -0.083306551
-0.040667109 -0.24092099 -0.087195754
-0.018919032 -0.24092504 -0.087120771
0.0028302022 -0.24092907 -0.087045908
0.024580589 -0.24093315 -0.086970806
0.046345532 -0.24098405 -0.086025596
0.068240382 -0.24130422 -0.08008492
0.090227947 -0.24162644 -0.074104071
-0.084462814 -0.21961993 -0.07750535
-0.062505588 -0.21935192 -0.083306551
-0.040667109 -0.21917236 -0.087195754
-0.018919032 -0.21917582 -0.087120771
0.0028302022 -0.21917933 -0.087045789
0.024580589 -0.21918276 -0.086970687
0.046345532 -0.21922642 -0.086025596
0.068240382 -0.21950078 -0.08008492
0.090227947 -0.21977702 -0.074104071
-0.084462814 -0.19779666 -0.07750535
-0.062505588 -0.19757338 -0.083306432
-0.040667109 -0.19742367 -0.087195754
-0.018919032 -0.19742654 -0.087120771
0.0028302022 -0.19742951 -0.087045789
0.024580589 -0.19743231 -0.086970925
0.046345532 -0.1974687 -0.086025596
0.068240382 -0.19769734 -0.08008492
0.090227947 -0.19792756 -0.074103951
-0.084462814 -0.17597334 -0.07750535
-0.062505588 -0.17579484 -0.083306432
-0.040667109 -0.17567508 -0.087195754
-0.018919032 -0.17567725 -0.087120771
0.0028302022 -0.17567962 -0.087045789
0.024580589 -0.17568198 -0.086970806
0.046345532 -0.17571107 -0.086025596
0.068240382 -0.17589402 -0.080084801
0.090227947 -0.17607816 -0.074103951
-0.084462814 -0.15415013 -0.07750535
-0.062505588 -0.1540162 -0.083306551
-0.040667109 -0.15392637 -0.087195754
-0.018919032 -0.15392812 -0.087120771
0.0028302022 -0.15392977 -0.087045789
0.024580589 -0.15393153 -0.086970925
0.046345532 -0.1539534 -0.086025596
0.068240382 -0.15409061 -0.080084801
0.090227947 -0.15422869 -0.074104071
-0.084462814 -0.13232686 -0.07750535
-0.062505588 -0.13223755 -0.083306551
-0.040667109 -0.1321777 -0.087195754
-0.018919032 -0.13217887 -0.087120771
0.0028302022 -0.13218002 -0.087045908
0.024580589 -0.1321812 -0.086970925
0.046345532 -0.13219567 -0.086025596
0.068240382 -0.13228719 -0.08008492
0.090227947 -0.13237923 -0.074104071
-0.084462814 -0.11050363 -0.07750535
-0.062505588 -0.11045891 -0.083306551
-0.040667109 -0.11042903 -0.087195754
-0.018919032 -0.1104296 -0.087120771
0.0028302022 -0.11043026 -0.087045789
0.024580589 -0.11043083 -0.086970806
0.046345532 -0.11043811 -0.086025596
0.068240382 -0.11048373 -0.08008492
0.090227947 -0.11052991 -0.074103951
-0.062505588 -0.088680409 -0.083306432
-0.040667109 -0.088680409 -0.087195754
-0.018919032 -0.088680461 -0.087120771
0.0028302022 -0.088680409 -0.087045789
0.068240382 -0.088680409 -0.080084801
0.090227947 -0.088680409 -0.074104071
-0.084462814 -0.088680364 -0.07750535
0.024580589 -0.088680364 -0.086970806
0.046345532 -0.088680364 -0.086025596
-0.084462814 -0.066857234 -0.077505231
-0.062505588 -0.066901773 -0.083306313
-0.040667109 -0.066931739 -0.087195754
-0.018919032 -0.066931084 -0.087120771
0.0028302022 -0.066930562 -0.087045789
0.024580589 -0.066930041 -0.086970806
0.046345532 -0.066922806 -0.086025476
0.068240382 -0.066877 -0.08008492
0.090227947 -0.066830948 -0.074104071
-0.084462814 -0.045033921 -0.07750535
-0.062505588 -0.045123227 -0.083306551
-0.040667109 -0.045183077 -0.087195754
-0.018919032 -0.045181941 -0.087120771
0.0028302022 -0.045180712 -0.087045789
0.024580589 -0.045179624 -0.086970925
0.046345532 -0.045165066 -0.086025596
0.068240382 -0.045073539 -0.080084801
0.090227947 -0.044981446 -0.074104071
-0.084462814 -0.023210652 -0.077505231
-0.062505588 -0.023344584 -0.083306432
-0.040667109 -0.023434453 -0.087195635
-0.018919032 -0.023432709 -0.087120771
0.0028302022 -0.023431003 -0.087045789
0.024580589 -0.023429252 -0.086970806
0.046345532 -0.02340737 -0.086025596
0.068240382 -0.023270123 -0.08008492
0.090227947 -0.023132078 -0.074103951
-0.084462814 -0.0013874322 -0.077505231
-0.062505588 -0.0015659481 -0.083306551
-0.040667109 -0.0016857907 -0.087195754
-0.018919032 -0.0016834736 -0.087120771
0.0028302022 -0.0016812012 -0.087045789
0.024580589 -0.001678884 -0.086970806
0.046345532 -0.001649715 -0.086025596
0.068240382 -0.0014668554 -0.080084801
0.090227947 -0.0012826696 -0.074104071
-0.084462814 0.020435885 -0.07750535
-0.062505588 0.020212598 -0.083306313
-0.040667109 0.020062931 -0.087195873
-0.018919032 0.020065717 -0.087120771
0.0028302022 0.020068645 -0.087045789
0.024580589 0.020071581 -0.086970925
0.046345532 0.020107932 -0.086025596
0.068240382 0.020336561 -0.08008492
0.090227947 0.020566791 -0.074104071
-0.084462814 0.04225906 -0.07750535
-0.062505588 0.041991197 -0.083306432
-0.040667109 0.041811548 -0.087195754
-0.018919032 0.041814946 -0.087120652
0.0028302022 0.041818447 -0.087045908
0.024580589 0.041821904 -0.086970925
0.046345532 0.04186558 -0.086025596
0.068240382 0.042140014 -0.08008492
0.090227947 0.042416252 -0.074104071
-0.084462814 0.064082272 -0.07750535
-0.062505588 0.063769735 -0.083306432
-0.040667109 0.06356027 -0.087195754
-0.018919032 0.063564233 -0.087120771
0.0028302022 0.063568346 -0.087045908
0.024580589 0.063572325 -0.086970687
0.046345532 0.063623287 -0.086025476
0.068240732 0.063944139 -0.08006978
0.090227947 0.064265572 -0.074104071
-0.062505588 0.085548423 -0.083306432
-0.040667109 0.085308738 -0.087195754
-0.018919032 0.085313566 -0.087120771
0.0028302022 0.085318096 -0.087045789
0.024580589 0.085322686 -0.086970806
0.046345532 0.085380979 -0.086025596
0.068240732 0.085747756 -0.08006978
-0.084462814 0.085905649 -0.07750535
0.090227947 0.08611507 -0.074104071
-0.084462814 0.10772886 -0.07750535
-0.062505588 0.10732702 -0.083306551
-0.040667109 0.1070575 -0.087195754
-0.018919032 0.1070627 -0.087120771
0.0028302022 0.10706791 -0.087045789
0.024580589 0.10707317 -0.086970687
0.046345532 0.10713854 -0.086025596
0.068240732 0.10755115 -0.08006978
0.090227947 0.10796452 -0.074104071
-0.084462814 0.1295521 -0.07750535
-0.062505588 0.12910548 -0.083306432
-0.040667109 0.12880617 -0.087195754
-0.018919032 0.1288119 -0.087120771
0.0028302022 0.12881777 -0.087045789
0.024580589 0.12882352 -0.086970925
0.046345532 0.12889618 -0.086025596
0.068240732 0.12935475 -0.08006978
0.090227947 0.12981394 -0.074104071
-0.084462814 0.15137541 -0.07750535
-0.062505588 0.15088415 -0.083306432
-0.040667109 0.1505549 -0.087195754
-0.018919032 0.15056118 -0.087120652
0.0028302022 0.15056759 -0.087045789
0.024580589 0.15057394 -0.086970687
0.046345532 0.15065402 -0.086025596
0.068240732 0.15115821 -0.08006978
0.090227947 0.1516633 -0.074104071
-0.084462814 0.17319867 -0.07750535
-0.062505588 0.17266276 -0.083306432
-0.040667109 0.17230338 -0.087195754
-0.018919032 0.17231038 -0.087120652
0.0028302022 0.17231736 -0.08704567
0.024580589 0.17232418 -0.086970687
0.046345532 0.17241159 -0.086025596
0.068240732 0.17296177 -0.080069661
0.090227947 0.17351273 -0.074104071
-0.084462814 0.1950219 -0.07750535
-0.062505588 0.19444141 -0.083306432
-0.040667109 0.19405213 -0.087195754
-0.018919032 0.19405961 -0.087120771
0.0028302022 0.19406706 -0.087045789
0.024580589 0.19407472 -0.086970925
0.046345532 0.19416928 -0.086025596
0.068240732 0.19476524 -0.080069661
0.090227947 0.19536236 -0.074104071
-0.084462814 0.21684507 -0.07750535
-0.062505588 0.21621999 -0.083306551
-0.040667109 0.21580085 -0.087195754
-0.018919032 0.21580899 -0.087120771
0.0028302022 0.21581689 -0.087045908
0.024580589 0.21582502 -0.086970806
0.046345532 0.2159268 -0.086025596
0.068240732 0.21656889 -0.08006978
0.090227947 0.21721178 -0.074104071
-0.084462814 0.23866844 -0.07750535
-0.062505588 0.23799846 -0.083306432
-0.040667109 0.23754933 -0.087195754
-0.018919032 0.23755813 -0.087120771
0.0028302022 0.23756674 -0.087045908
0.024580589 0.23757541 -0.086970687
0.046345532 0.23768449 -0.086025596
0.068240732 0.23837236 -0.0800699
0.090227947 0.23906121 -0.074103832
-0.062505588 0.25977719 -0.083306432
-0.040667109 0.25929809 -0.087195754
-0.018919032 0.25930735 -0.087120771
0.0028302022 0.25931647 -0.087045789
0.024580589 0.25932574 -0.086970925
0.046345532 0.25944233 -0.086025596
0.068240732 0.26017591 -0.08006978
-0.084462345 0.26048985 -0.07752049
0.090227947 0.26091066 -0.074103951
-0.084462345 0.2823129 -0.07752037
-0.062505588 0.28155571 -0.083306432
-0.040667109 0.28104672 -0.087195754
-0.018919032 0.28105664 -0.087120652
0.0028302022 0.28106639 -0.087045789
0.024580589 0.28107622 -0.086970687
0.046345532 0.28119987 -0.086025596
0.068240732 0.28197935 -0.08006978
0.090227947 0.28276011 -0.074104071
-0.084462345 0.30413607 -0.07752049
-0.062505588 0.30333447 -0.083306432
-0.040667109 0.30279553 -0.087195754
-0.018919032 0.30280572 -0.087120652
0.0028302022 0.30281618 -0.087045789
0.024580589 0.30282658 -0.086970925
0.046345532 0.30295753 -0.086025596
0.068240732 0.30378273 -0.0800699
0.090227947 0.30460948 -0.074104071
-0.06260401 0.32573634 -0.079044461
-0.040724441 0.32508865 -0.083471894
-0.018947816 0.32510179 -0.083381772
0.0028302022 0.32511514 -0.083291292
0.024609607 0.32512838 -0.08320117
0.046407778 0.32530665 -0.081982613
0.068348117 0.32626644 -0.075420141
-0.12877519 -0.6370362 -0.063088536
-0.10655288 -0.63559586 -0.070573211
0.11227931 -0.63592601 -0.068857551
0.13468264 -0.63806558 -0.057739973
-0.12877519 -0.61510205 -0.063088417
-0.10655288 -0.61371922 -0.070573092
0.11227931 -0.61403614 -0.068857551
0.13468264 -0.61609018 -0.057739973
-0.12877519 -0.59316778 -0.063088536
-0.10655288 -0.59184265 -0.07057333
0.11227874 -0.59214371 -0.068872809
0.13468264 -0.5941149 -0.057739973
-0.12877449 -0.57123095 -0.063103914
-0.10655288 -0.56996596 -0.070573211
0.11227874 -0.57025397 -0.06887269
0.13468264 -0.57213938 -0.057739973
-0.12877449 -0.54929692 -0.063103795
0.13468264 -0.55016398 -0.057739973
-0.10655288 -0.54808933 -0.070573092
0.11227874 -0.54836428 -0.068872809
-0.12877449 -0.52736282 -0.063103676
-0.10655288 -0.52621275 -0.07057333
0.11227874 -0.52647448 -0.068872809
0.13468264 -0.52818859 -0.057739973
-0.12877449 -0.50542867 -0.063103795
-0.10655288 -0.50433618 -0.070573211
0.11227874 -0.50458479 -0.068872929
0.13468264 -0.50621319 -0.057739973
-0.1286478 -0.48311445 -0.065846562
-0.10651027 -0.48230609 -0.071680307
0.11230797 -0.48280036 -0.068113089
0.13453855 -0.48380542 -0.060859799
-0.1286478 -0.4612014 -0.065846562
-0.10651027 -0.46043792 -0.071680307
0.11230797 -0.46090484 -0.068113089
0.13453855 -0.4618541 -0.060859799
-0.1286478 -0.43928847 -0.065846562
-0.10651027 -0.43856981 -0.071680427
0.11230797 -0.43900925 -0.068112969
0.13453855 -0.43990254 -0.060859919
-0.1286478 -0.41737539 -0.065846562
-0.10651027 -0.41670182 -0.071680307
0.11230797 -0.41711372 -0.068113089
0.13453855 -0.41795126 -0.060859919
-0.1286478 -0.39546242 -0.065846562
-0.10651027 -0.39483368 -0.071680307
0.11230797 -0.39521819 -0.068113089
0.13453855 -0.39599991 -0.060859919
-0.1286478 -0.3735494 -0.065846562
-0.10651027 -0.37296566 -0.071680307
0.11230856 -0.37332416 -0.06809783
0.13453855 -0.37404844 -0.060859799
-0.1286478 -0.35163641 -0.065846562
-0.10651027 -0.35109749 -0.071680307
0.11230856 -0.35142839 -0.068097949
0.13453855 -0.35209712 -0.060859799
-0.1286478 -0.32972339 -0.065846562
-0.10651027 -0.32922938 -0.071680427
0.11230856 -0.3295328 -0.06809783
0.13453855 -0.33014566 -0.060859919
-0.1286478 -0.30781049 -0.065846562
-0.10651027 -0.3073613 -0.071680307
0.11230856 -0.30763716 -0.06809783
0.13453855 -0.30819425 -0.060859919
-0.1286478 -0.2858974 -0.065846562
-0.10651027 -0.28549322 -0.071680307
0.11230856 -0.28574151 -0.06809783
0.13453855 -0.28624293 -0.060859919
-0.1286478 -0.26398444 -0.065846562
-0.10651027 -0.26362506 -0.071680427
0.11230856 -0.26384574 -0.06809783
0.13453855 -0.26429152 -0.060859799
-0.1286478 -0.24207139 -0.065846562
-0.10651027 -0.24175707 -0.071680307
0.11230856 -0.24195009 -0.06809783
0.13453855 -0.24234015 -0.060859799
-0.1286478 -0.2201584 -0.065846562
-0.10651027 -0.21988893 -0.071680427
0.11230856 -0.22005445 -0.06809783
0.13453855 -0.22038868 -0.060859919
-0.1286478 -0.19824541 -0.065846682
-0.10651027 -0.19802088 -0.071680307
0.11230856 -0.1981587 -0.068097949
0.13453855 -0.19843733 -0.060859919
-0.1286478 -0.17633244 -0.065846562
-0.10651027 -0.17615275 -0.071680307
0.11230856 -0.17626309 -0.06809783
0.13453855 -0.176486 -0.060859919
-0.1286478 -0.15441936 -0.065846562
-0.10651027 -0.15428463 -0.071680427
0.11230856 -0.15436745 -0.06809783
0.13453855 -0.15453456 -0.060859799
-0.1286478 -0.1325064 -0.065846562
-0.10651027 -0.13241658 -0.071680307
0.11230856 -0.1324718 -0.06809783
0.13453855 -0.13258323 -0.060859799
-0.1286478 -0.11059336 -0.065846562
-0.10651027 -0.11054845 -0.071680307
0.11230856 -0.11057611 -0.068097949
0.13453855 -0.11063179 -0.060859919
-0.1286478 -0.088680461 -0.065846562
-0.10651027 -0.088680461 -0.071680307
0.11230856 -0.088680409 -0.06809783
0.13453855 -0.088680364 -0.060859919
-0.1286478 -0.066767462 -0.065846562
-0.10651027 -0.066812277 -0.071680307
0.11230856 -0.066784717 -0.06809783
0.13453855 -0.066729024 -0.060859919
-0.1286478 -0.044854417 -0.065846562
-0.10651027 -0.044944193 -0.071680427
0.11230856 -0.044888977 -0.068097949
0.13453855 -0.044777643 -0.060859799
-0.1286478 -0.02294147 -0.065846562
-0.10651027 -0.02307611 -0.071680307
0.11230856 -0.022993378 -0.06809783
0.13453855 -0.022826254 -0.060859799
-0.1286478 -0.0010283738 -0.065846562
-0.10651027 -0.0012080222 -0.071680307
0.11230856 -0.0010977313 -0.06809783
0.13453855 -0.00087482482 -0.060859919
-0.1286478 0.020884618 -0.065846443
-0.10651027 0.020660155 -0.071680427
0.11230856 0.020798013 -0.06809783
0.13453855 0.02107656 -0.060859799
-0.1286478 0.042797662 -0.065846562
-0.10651027 0.042528145 -0.071680307
0.11230856 0.042693652 -0.068097949
0.13453855 0.04302799 -0.06085968
-0.1286478 0.064710669 -0.065846562
-0.10651027 0.064396329 -0.071680307
0.11230856 0.064589255 -0.06809783
0.13453855 0.064979278 -0.060859799
-0.1286478 0.086623706 -0.065846562
-0.10651027 0.086264335 -0.071680307
0.11230856 0.086484902 -0.06809783
0.13453855 0.08693067 -0.06085968
-0.1286478 0.10853662 -0.065846562
-0.10651027 0.1081325 -0.071680307
0.11230856 0.10838065 -0.06809783
0.13453855 0.1088822 -0.060859919
-0.1286478 0.13044971 -0.065846562
-0.10651027 0.13000059 -0.071680307
0.11230856 0.13027623 -0.068097949
0.13453855 0.13083348 -0.060859919
-0.1286478 0.15236264 -0.065846562
-0.10650969 0.15186736 -0.071695447
0.11230856 0.15217194 -0.06809783
0.13453855 0.15278485 -0.060859799
-0.1286478 0.1742757 -0.065846562
-0.10650969 0.17373526 -0.071695447
0.11230856 0.17406765 -0.068097949
0.13453855 0.17473632 -0.06085968
-0.1286478 0.19618869 -0.065846562
-0.10650969 0.19560337 -0.071695566
0.11230856 0.19596323 -0.068097949
0.13453855 0.19668761 -0.060859799
-0.1286478 0.21810171 -0.065846562
-0.10650969 0.21747127 -0.071695566
0.11230856 0.21785894 -0.06809783
0.13453855 0.21863908 -0.060859919
-0.1286478 0.2400147 -0.065846562
-0.10650969 0.23933926 -0.071695447
0.11230856 0.23975468 -0.06809783
0.13453855 0.24059051 -0.060859919
-0.1286478 0.26192772 -0.065846562
-0.10650969 0.2612071 -0.071695447
0.11230856 0.26165047 -0.06809783
0.13453855 0.26254198 -0.06085968
-0.1286478 0.28384063 -0.065846562
-0.10650969 0.2830753 -0.071695447
0.11230856 0.28354612 -0.06809783
0.13453855 0.28449324 -0.060859799
-0.1286478 0.30575374 -0.065846562
-0.10650969 0.30494314 -0.071695447
0.11230856 0.30544168 -0.06809783
0.13453855 0.30644456 -0.06085968
-0.12892824 0.32855469 -0.059774876
-0.10672016 0.32761091 -0.066227198
-0.08461231 0.32667148 -0.072650194
0.09038996 0.32722849 -0.068842411
0.11253485 0.32819721 -0.062218785
-0.085089341 0.35091737 -0.057158113
-0.06296017 0.34992206 -0.063622355
-0.040951546 0.3491371 -0.068720818
-0.019061375 0.34915128 -0.068629742
0.0028302022 0.34916517 -0.068538547
0.024723183 0.34917921 -0.068447471
0.046645429 0.34947193 -0.066546559
0.068706252 0.35049331 -0.059912324
-0.15111488 -0.6384843 -0.055564284
0.15726183 -0.64022201 -0.046535015
-0.17392957 -0.61895972 -0.042208076
-0.15111405 -0.61648929 -0.055579782
0.15726183 -0.61816031 -0.046535134
-0.17392957 -0.59686482 -0.042207956
-0.15111405 -0.59449726 -0.055579782
0.15726183 -0.5960986 -0.046535134
-0.17392957 -0.57476974 -0.042208195
-0.15111405 -0.57250518 -0.055579662
0.15726183 -0.5740369 -0.046535134
-0.17392957 -0.55267483 -0.042208076
-0.15111405 -0.55051321 -0.055579662
0.15726267 -0.55197781 -0.046519637
-0.17392957 -0.53057992 -0.042208076
-0.15111405 -0.52852118 -0.055579543
0.15726267 -0.52991611 -0.046519637
-0.17392957 -0.50848484 -0.042208076
-0.15111405 -0.50652909 -0.055579782
0.15726267 -0.50785428 -0.046519637
-0.17393623 -0.48640487 -0.042099714
0.15720117 -0.48563427 -0.047661066
-0.15113884 -0.48460075 -0.055119634
-0.17393623 -0.46430904 -0.042099714
-0.15113884 -0.46260527 -0.055119634
0.15720117 -0.46358138 -0.047661066
-0.17393623 -0.44221333 -0.042099595
-0.15113884 -0.44060969 -0.055119514
0.15720117 -0.44152829 -0.047661066
-0.17393623 -0.42011753 -0.042099714
-0.15113884 -0.41861409 -0.055119514
0.15720117 -0.41947532 -0.047661185
-0.17393623 -0.39802164 -0.042099714
-0.15113884 -0.39661852 -0.055119514
0.15720117 -0.39742237 -0.047660947
-0.17393623 -0.37592593 -0.042099595
-0.15113884 -0.37462294 -0.055119514
0.15720117 -0.37536934 -0.047661066
-0.17393623 -0.3538301 -0.042099595
-0.15113884 -0.35262737 -0.055119514
0.15720117 -0.35331631 -0.047661185
-0.17393623 -0.33173424 -0.042099714
-0.15113884 -0.33063176 -0.055119514
0.15720117 -0.33126339 -0.047661066
-0.17393719 -0.3096396 -0.042084336
-0.15113884 -0.30863625 -0.055119514
0.15720117 -0.30921036 -0.047661066
-0.17393719 -0.28754371 -0.042084336
-0.15113884 -0.2866407 -0.055119514
0.15720117 -0.28715736 -0.047661185
-0.17393719 -0.2654478 -0.042084336
-0.15113884 -0.2646451 -0.055119395
0.15720117 -0.26510438 -0.047661066
-0.17393719 -0.24335185 -0.042084336
-0.15113884 -0.24264953 -0.055119514
0.15720117 -0.24305141 -0.047661066
-0.17393719 -0.2212559 -0.042084217
-0.15113884 -0.22065383 -0.055119634
0.15720117 -0.22099838 -0.047661185
-0.17393719 -0.19916004 -0.042084336
-0.15113884 -0.19865826 -0.055119634
0.15720199 -0.19894603 -0.047645688
-0.17393719 -0.17706409 -0.042084336
-0.15113884 -0.17666267 -0.055119514
0.15720199 -0.17689294 -0.047645569
-0.17393719 -0.15496813 -0.042084336
-0.15113884 -0.15466708 -0.055119634
0.15720199 -0.15483978 -0.047645688
-0.17393719 -0.13287222 -0.042084217
-0.15113884 -0.13267149 -0.055119514
0.15720199 -0.13278671 -0.047645688
-0.17393719 -0.11077636 -0.042084336
-0.15113884 -0.11067595 -0.055119514
0.15720199 -0.11073358 -0.047645688
0.15720199 -0.088680409 -0.047645569
-0.17393719 -0.088680364 -0.042084336
-0.15113884 -0.088680364 -0.055119634
-0.17393719 -0.06658446 -0.042084217
-0.15113884 -0.066684775 -0.055119514
0.15720199 -0.066627339 -0.047645688
-0.17393719 -0.044488505 -0.042084217
-0.15113884 -0.044689283 -0.055119514
0.15720199 -0.044574216 -0.047645569
-0.17393719 -0.022392645 -0.042084217
-0.15113884 -0.022693694 -0.055119514
0.15720199 -0.022521146 -0.047645688
-0.17393719 -0.00029669702 -0.042084217
-0.15113884 -0.00069811195 -0.055119514
0.15720199 -0.00046802312 -0.047645569
-0.17393719 0.021799259 -0.042084217
-0.15113884 0.021297574 -0.055119514
0.15720199 0.021585099 -0.047645688
-0.17393719 0.043895207 -0.042084217
-0.15113884 0.043293066 -0.055119514
0.15720199 0.043638311 -0.04764545
-0.17393719 0.065991111 -0.042084098
-0.15113884 0.0652887 -0.055119514
0.15720199 0.065691344 -0.047645688
-0.17393719 0.088086911 -0.042084217
-0.15113884 0.087284245 -0.055119514
0.15720199 0.087744482 -0.047645569
-0.17393719 0.11018287 -0.042084217
-0.15113884 0.10927982 -0.055119395
0.15720199 0.10979749 -0.047645688
-0.17393719 0.1322788 -0.042084217
-0.15113884 0.13127533 -0.055119395
0.15720199 0.13185075 -0.04764545
-0.17393719 0.15437475 -0.042084217
-0.15113884 0.15327081 -0.055119514
0.15720199 0.15390378 -0.047645688
-0.17393719 0.1764707 -0.042084217
-0.15113884 0.1752665 -0.055119514
0.15720199 0.17595699 -0.047645807
-0.17393719 0.19856662 -0.042084217
-0.15113884 0.19726199 -0.055119514
0.15720199 0.19801003 -0.047645807
-0.17393719 0.22066256 -0.042084217
-0.15113884 0.21925777 -0.055119634
0.15720199 0.22006324 -0.047645688
-0.17393719 0.24275854 -0.042084098
-0.15113884 0.24125323 -0.055119634
0.15720199 0.24211633 -0.047645807
-0.17393719 0.26485431 -0.042084217
-0.15113884 0.26324895 -0.055119514
0.15720199 0.26416934 -0.047645926
-0.17393719 0.28695023 -0.042084217
-0.15113884 0.28524438 -0.055119634
0.15720199 0.28622261 -0.047645688
-0.15113884 0.30724013 -0.055119514
-0.17393719 0.30904624 -0.042084217
0.15720199 0.30827573 -0.047645807
-0.15158147 0.33043697 -0.046905398
0.13489087 0.3295117 -0.053231597
-0.12968175 0.35302606 -0.043461204
-0.10731917 0.35191703 -0.050664544
0.090869695 0.35151711 -0.053262472
0.11313733 0.35254809 -0.04656601
-0.085571617 0.375429 -0.0414958
-0.063320234 0.37437269 -0.048031092
-0.041181035 0.37343767 -0.053815365
-0.019176127 0.37345251 -0.053723097
0.0028302022 0.37346748 -0.053631067
0.024837948 0.37348226 -0.053538918
0.046885688 0.37390217 -0.050941586
0.06906797 0.37498397 -0.044249654
-0.19709073 -0.62180293 -0.02681911
0.18001994 -0.62024963 -0.035226583
-0.19709073 -0.59958947 -0.02681911
0.18001994 -0.59810096 -0.035226345
-0.19709073 -0.57737601 -0.026818991
0.18001994 -0.57595223 -0.035226464
-0.19709073 -0.55516261 -0.026818991
0.18001994 -0.5538035 -0.035226464
-0.19709073 -0.53294909 -0.02681911
0.18001994 -0.53165472 -0.035226464
-0.19709073 -0.51073563 -0.02681911
0.18002088 -0.50950831 -0.035210729
-0.1969445 -0.48822987 -0.028929353
0.18007647 -0.48748446 -0.034308553
-0.1969445 -0.46603265 -0.028929472
0.18007647 -0.46532872 -0.034308553
-0.1969445 -0.44383541 -0.028929472
0.18007647 -0.4431729 -0.034308672
-0.1969445 -0.42163822 -0.028929353
0.18007647 -0.42101711 -0.034308434
-0.1969445 -0.399441 -0.028929472
0.18007647 -0.39886129 -0.034308553
-0.1969445 -0.37724391 -0.028929353
0.18007647 -0.37670559 -0.034308434
-0.1969445 -0.35504669 -0.028929472
0.18007647 -0.35454985 -0.034308434
-0.1969445 -0.33284956 -0.028929353
0.18007647 -0.33239397 -0.034308553
-0.1969445 -0.31065229 -0.028929472
0.18007647 -0.31023821 -0.034308434
-0.1969445 -0.28845516 -0.028929353
0.18007647 -0.28808245 -0.034308553
-0.1969445 -0.26625797 -0.028929353
0.18007647 -0.26592675 -0.034308553
-0.1969445 -0.2440607 -0.028929472
0.18007647 -0.24377081 -0.034308553
-0.1969445 -0.22186357 -0.028929353
0.18007647 -0.22161508 -0.034308434
-0.1969445 -0.19966631 -0.028929472
0.18007647 -0.19945937 -0.034308434
-0.1969445 -0.17746919 -0.028929353
0.18007647 -0.17730358 -0.034308553
-0.1969445 -0.15527201 -0.028929591
0.18007647 -0.15514778 -0.034308434
-0.1969445 -0.13307485 -0.028929353
0.18007647 -0.13299192 -0.034308553
-0.1969445 -0.11087763 -0.028929353
0.18007647 -0.11083622 -0.034308434
0.18007647 -0.088680409 -0.034308553
-0.1969445 -0.088680364 -0.028929472
-0.1969445 -0.066483192 -0.028929353
0.18007647 -0.06652461 -0.034308434
-0.1969445 -0.044286024 -0.028929591
0.18007647 -0.044368804 -0.034308553
-0.1969445 -0.022088856 -0.028929353
0.18007647 -0.022213094 -0.034308434
-0.1969445 0.0001084581 -0.028929472
0.18007647 -5.7242811e-05 -0.034308434
-0.1969445 0.022305533 -0.028929353
0.18007647 0.022098556 -0.034308553
-0.1969445 0.044502698 -0.028929353
0.18007647 0.044254221 -0.034308434
-0.1969445 0.066699915 -0.028929234
0.18007647 0.066410072 -0.034308553
-0.1969445 0.088897087 -0.028929353
0.18007647 0.088565774 -0.034308553
-0.1969445 0.11109444 -0.028929472
0.18007647 0.11072163 -0.034308672
-0.1969445 0.13329148 -0.028929353
0.18007647 0.13287747 -0.034308434
-0.1969445 0.1554887 -0.028929591
0.18007647 0.15503329 -0.034308553
-0.1969445 0.17768592 -0.028929353
0.18007647 0.17718905 -0.034308434
-0.1969445 0.19988307 -0.028929353
0.18007647 0.19934475 -0.034308434
-0.1969445 0.22208029 -0.028929234
0.18007647 0.22150058 -0.034308553
-0.1969445 0.24427751 -0.028929353
0.18007647 0.24365622 -0.034308434
-0.1969445 0.26647449 -0.028929353
0.18007647 0.26581213 -0.034308553
-0.1969445 0.28867191 -0.028929353
0.18007647 0.28796783 -0.034308553
-0.1969445 0.31086913 -0.028929472
0.18007647 0.31012383 -0.034308553
-0.17453884 0.33257103 -0.032315254
0.15769795 0.33167487 -0.038442135
-0.15255518 0.35527775 -0.028835773
0.13572754 0.35431063 -0.035117507
-0.10792475 0.37649044 -0.034930825
0.091354728 0.37607327 -0.037510753
0.11374646 0.37716779 -0.030740142
-0.086059205 0.40021124 -0.025660872
-0.063684262 0.39909229 -0.032268405
-0.041412942 0.39799428 -0.038752437
-0.019292088 0.39800993 -0.038659334
0.0028302022 0.39802572 -0.038566351
0.024953924 0.39804155 -0.038473129
0.047128595 0.39860189 -0.035164237
0.069434039 0.3997477 -0.028398156
-0.22050157 -0.62467664 -0.011264205
0.20333594 -0.6233623 -0.018378139
-0.22050157 -0.60234356 -0.011264086
0.20333594 -0.60108393 -0.018378258
-0.22050157 -0.58001024 -0.011264205
0.20333594 -0.57880551 -0.018378258
-0.22050157 -0.55767715 -0.011264086
0.20333594 -0.55652714 -0.018378139
-0.22050157 -0.535344 -0.011264205
0.20333594 -0.53424865 -0.018378258
-0.22050157 -0.51301074 -0.011264205
0.20333594 -0.51197034 -0.018378258
-0.22050157 -0.49067771 -0.011264086
0.20333594 -0.48969191 -0.018378019
-0.22036166 -0.4681066 -0.013081431
0.20316492 -0.46709046 -0.020846486
-0.22036166 -0.44578737 -0.013081551
0.20316492 -0.44483095 -0.020846605
-0.22036166 -0.4234682 -0.013081551
0.20316492 -0.42257163 -0.020846367
-0.22036166 -0.40114903 -0.013081431
0.20316492 -0.40031213 -0.020846486
-0.22036166 -0.3788299 -0.013081551
0.20316492 -0.37805274 -0.020846605
-0.22036166 -0.35651067 -0.013081551
0.20316492 -0.35579336 -0.020846605
-0.22036166 -0.33419138 -0.013081551
0.20316492 -0.33353388 -0.020846605
-0.22036166 -0.31187233 -0.013081551
0.20316492 -0.31127459 -0.020846486
-0.22036166 -0.28955305 -0.013081551
0.20316492 -0.28901505 -0.020846605
-0.22036166 -0.26723391 -0.013081551
0.20316492 -0.26675576 -0.020846367
-0.22036166 -0.24491477 -0.013081551
0.20316492 -0.24449623 -0.020846605
-0.22036166 -0.22259554 -0.013081431
0.20316492 -0.22223696 -0.020846486
-0.22036166 -0.20027635 -0.013081551
0.20316492 -0.19997743 -0.020846605
-0.22036166 -0.17795712 -0.013081551
0.20316492 -0.17771809 -0.020846367
-0.22036166 -0.15563798 -0.013081431
0.20316492 -0.1554587 -0.020846486
-0.22036166 -0.13331884 -0.013081551
0.20316492 -0.13319919 -0.020846605
-0.22036166 -0.11099955 -0.013081551
0.20316492 -0.11093989 -0.020846605
-0.22036166 -0.088680364 -0.013081551
0.20316492 -0.088680364 -0.020846605
-0.22036166 -0.066361271 -0.013081551
0.20316492 -0.06642098 -0.020846486
-0.22036166 -0.044041991 -0.013081551
0.20316492 -0.044161551 -0.020846605
-0.22036166 -0.021722853 -0.013081551
0.20316492 -0.021902166 -0.020846367
-0.22036166 0.00059624016 -0.013081551
0.20316492 0.00035731494 -0.020846605
-0.22036166 0.02291543 -0.013081551
0.20316492 0.022616602 -0.020846486
-0.22036166 0.045234807 -0.013081551
0.20316492 0.044875987 -0.020846605
-0.22036166 0.067553945 -0.013081551
0.20316492 0.067135505 -0.020846367
-0.22036166 0.089873053 -0.013081431
0.20316492 0.089394905 -0.020846486
-0.22036166 0.11219222 -0.013081551
0.20316492 0.11165433 -0.020846605
-0.22036166 0.13451141 -0.013081551
0.20316492 0.13391376 -0.020846486
-0.22036046 0.15682942 -0.013097167
0.20316492 0.1561732 -0.020846605
-0.22036046 0.17914832 -0.013097167
0.20316492 0.17843252 -0.020846486
-0.22036046 0.20146748 -0.013097167
0.20316492 0.20069197 -0.020846605
-0.22036046 0.22378656 -0.013097167
0.20316492 0.22295144 -0.020846486
-0.22036046 0.24610561 -0.013097405
0.20316492 0.24521083 -0.020846605
-0.22036046 0.26842469 -0.013097286
0.20316492 0.26747015 -0.020846486
-0.22036046 0.29074374 -0.013097167
0.20316492 0.28972965 -0.020846486
-0.22036046 0.31306276 -0.013097286
0.20316492 0.31198907 -0.020846605
-0.19773112 0.33472684 -0.017575502
0.18074313 0.33386269 -0.023483038
-0.17566301 0.35755262 -0.014060259
0.15868419 0.35661677 -0.020139575
-0.15354039 0.38043147 -0.010552406
-0.13051763 0.37803698 -0.025363445
0.13657413 0.37942332 -0.016788125
-0.10853704 0.40133542 -0.01902318
0.091845125 0.40090165 -0.021584511
0.11441337 0.40228555 -0.013412952
-0.086552203 0.4252685 -0.0096502304
-0.064052321 0.42408553 -0.016331196
-0.041655757 0.4229081 -0.022981167
-0.019409277 0.42282763 -0.02343595
0.0028302022 0.42284146 -0.023357511
0.025071008 0.42285815 -0.023263454
0.047374196 0.42357561 -0.019211888
0.069804177 0.42478678 -0.012370706
0.22724079 -0.62726587 0.0027500391
0.22724079 -0.60482472 0.0027499199
0.22723956 -0.58238101 0.0027339458
0.22723956 -0.55994004 0.0027339458
0.22723956 -0.53749919 0.0027340651
0.22723956 -0.51505828 0.0027339458
0.22723956 -0.49261722 0.0027339458
0.22709587 -0.46993193 0.00086724758
0.22709587 -0.44750544 0.00086724758
0.22709587 -0.4250789 0.00086724758
0.22709587 -0.40265232 0.00086724758
0.22709587 -0.38022566 0.00086724758
0.22709587 -0.3577992 0.00086724758
0.22709587 -0.33537269 0.00086724758
0.22709587 -0.31294605 0.00086724758
0.22709587 -0.29051951 0.00086724758
0.22709587 -0.2680929 0.00086724758
0.22709587 -0.24566641 0.00086724758
0.22709587 -0.22323981 0.00086724758
0.22709587 -0.2008132 0.00086724758
0.22709587 -0.1783867 0.00086724758
0.22709587 -0.15596011 0.00086724758
0.22709587 -0.1335336 0.00086724758
0.22709587 -0.11110691 0.00086724758
0.22709587 -0.088680409 0.00086724758
0.22709587 -0.066253819 0.00086724758
0.22709587 -0.043827314 0.00086724758
0.22709587 -0.021400668 0.00086724758
0.22709587 0.0010258332 0.00086724758
0.22709587 0.023452386 0.00086724758
0.22709587 0.04587888 0.00086724758
0.22709587 0.068305619 0.00086724758
0.22709464 0.090731137 0.00085127354
0.22709464 0.11315764 0.00085127354
0.22709464 0.13558394 0.00085127354
0.22709464 0.15801045 0.00085127354
0.22709464 0.180437 0.00085127354
0.22709464 0.20286337 0.00085127354
0.22709464 0.22528973 0.00085139275
0.22709464 0.24771628 0.00085127354
0.22709464 0.27014259 0.00085127354
0.22709587 0.29257128 0.00086736679
0.22709587 0.31499782 0.00086724758
-0.2216935 0.33791476 0.004219532
0.20408218 0.33618504 -0.007606864
-0.19900888 0.35985088 0.00086724758
0.1818821 0.35894927 -0.0049886703
-0.17680155 0.382853 0.0044273138
0.15968309 0.38187838 -0.0016020536
-0.13136488 0.40336826 -0.0070199966
0.13743232 0.40486079 0.0017923117
-0.10915552 0.42645404 -0.0029546022
0.092340983 0.4260067 -0.0054810047
0.11513021 0.42789957 0.0052107573
-0.064424463 0.44935688 -0.00021660328
-0.041902713 0.44811448 -0.0069408417
-0.019527592 0.44790664 -0.008066535
0.0028302022 0.44792429 -0.007971406
0.025189459 0.44794169 -0.007876277
0.047622532 0.44882753 -0.0030817986
0.070178457 0.45010564 0.0038360357
-0.24468704 -0.62871802 0.010610342
-0.24468704 -0.60621643 0.010610223
-0.24468704 -0.5837149 0.010610223
-0.24468704 -0.56121343 0.010610461
-0.24468704 -0.53871173 0.010610461
-0.24468704 -0.5162102 0.010610342
-0.24468704 -0.49370861 0.010610342
-0.24471696 -0.47125334 0.010963559
-0.2447183 -0.44875097 0.010979533
-0.2447183 -0.42624655 0.010979533
-0.2447183 -0.40374216 0.010979533
-0.24471967 -0.38123935 0.010995626
-0.24471967 -0.35873488 0.010995626
-0.24471967 -0.33623031 0.010995626
-0.24472103 -0.31372699 0.0110116
-0.24472103 -0.29122233 0.0110116
-0.24472103 -0.26871771 0.01101172
-0.2447224 -0.24621385 0.011027813
-0.2447224 -0.22370911 0.011027813
-0.2447224 -0.20120436 0.011027813
-0.2447224 -0.17869958 0.011027813
-0.2447224 -0.15619478 0.011027694
-0.2447224 -0.1336899 0.011027694
-0.2447224 -0.1111852 0.011027813
-0.2447224 -0.088680409 0.011027813
-0.2447224 -0.066175573 0.011027813
-0.2447224 -0.043670926 0.011027813
-0.2447224 -0.021166086 0.011027813
-0.2447224 0.0013387054 0.011027694
-0.2447224 0.023843497 0.011027575
-0.2447224 0.046348192 0.011027813
-0.2447224 0.068853028 0.011027694
-0.2447224 0.09135782 0.011027694
-0.2447224 0.11386251 0.011027813
-0.2447224 0.13636735 0.011027813
-0.2447224 0.15887228 0.011027813
-0.2447224 0.18137708 0.011027694
-0.2447224 0.20388177 0.011027813
-0.2447224 0.22638661 0.011027813
-0.2447224 0.24889141 0.011027813
-0.2447224 0.2713961 0.011027813
-0.2447224 0.29390085 0.011027813
-0.2447224 0.31640574 0.011027813
0.2286246 0.34032884 0.020725846
0.20578121 0.36232176 0.016916275
0.18303572 0.38435906 0.013743758
-0.15453905 0.40590873 0.0079802275
0.16069488 0.40746576 0.017174363
-0.13222295 0.42902347 0.011557817
0.1383016 0.4306266 0.020612836
-0.087050699 0.45060501 0.006538868
-0.10985214 0.45219484 0.015143991
0.0928424 0.45139286 0.010802984
-0.064800784 0.47491112 0.016078353
-0.042152431 0.47360244 0.0092786551
-0.019647297 0.47325715 0.0074836016
0.0028302022 0.47327551 0.0075796843
0.025309179 0.47329399 0.0076756477
0.047873657 0.4743627 0.013229132
0.070556946 0.47570917 0.020224929
0.25149587 -0.63122368 0.024172783
0.25149587 -0.60861784 0.024172783
0.25149587 -0.58601177 0.024172783
0.25149587 -0.56340593 0.024172783
0.25149587 -0.54079986 0.024172783
0.25149587 -0.5181939 0.024172783
0.25149587 -0.49558792 0.024172783
-0.26949012 -0.47446758 0.035524964
0.25162354 -0.47317913 0.025680184
-0.26949012 -0.45177424 0.035524964
0.25162354 -0.45056164 0.025680184
-0.26949012 -0.42908084 0.035524964
0.25162354 -0.42794409 0.025680184
-0.26949012 -0.40638748 0.035524964
0.25162354 -0.40532655 0.025680304
-0.26949012 -0.38369414 0.035525084
0.25162354 -0.38270888 0.025680184
-0.26949012 -0.36100078 0.035525084
0.25162354 -0.36009133 0.025680304
-0.26949012 -0.33830741 0.035525084
0.25162354 -0.33747375 0.025680304
-0.26949012 -0.31561399 0.035524964
0.25162217 -0.31485489 0.025663972
-0.26949012 -0.29292068 0.035524964
0.25162217 -0.29223743 0.025664091
-0.26949012 -0.27022734 0.035525084
0.25162077 -0.26961905 0.025647759
-0.26949012 -0.24753392 0.035525084
0.25162077 -0.24700174 0.025647879
-0.26949012 -0.22484064 0.035524964
0.2516194 -0.22438362 0.025631547
-0.26949012 -0.20214722 0.035524964
0.2516194 -0.20176637 0.025631666
-0.26949012 -0.17945385 0.035524964
0.2516194 -0.1791493 0.025631666
-0.26949012 -0.15676048 0.035524964
0.2516194 -0.15653199 0.025631547
-0.26949012 -0.13406715 0.035525084
0.2516194 -0.13391483 0.025631547
-0.26949012 -0.11137383 0.035524964
0.2516194 -0.11129762 0.025631547
-0.26949012 -0.088680409 0.035524964
0.2516194 -0.088680461 0.025631547
-0.26949012 -0.065986991 0.035524964
0.2516194 -0.066063151 0.025631428
-0.26949012 -0.043293666 0.035524964
0.2516194 -0.043445989 0.025631547
-0.26949012 -0.020600341 0.035525084
0.2516194 -0.020828828 0.025631547
-0.26949012 0.0020929798 0.035524964
0.2516194 0.0017883852 0.025631785
-0.26949012 0.024786398 0.035525084
0.25162077 0.024406165 0.02564764
-0.26949012 0.047479726 0.035524964
0.25162077 0.047023572 0.025647879
0.25162077 0.069640867 0.025647879
-0.26949012 0.070173003 0.035524964
-0.26949012 0.092866518 0.035524964
0.25162077 0.092258088 0.025647879
-0.26949012 0.11555984 0.035524964
0.25162077 0.11487558 0.025647879
-0.26949161 0.13825452 0.035541415
0.25162077 0.1374929 0.025647759
-0.26949161 0.16094801 0.035541415
0.25162077 0.16011009 0.025647879
-0.26949161 0.18364137 0.035541296
0.25162077 0.18272761 0.025647879
-0.26949161 0.20633489 0.035541296
0.25162077 0.2053448 0.025647879
0.25162077 0.22796211 0.025647759
-0.26949161 0.22902831 0.035541415
-0.26949161 0.25172189 0.035541296
0.25162077 0.2505796 0.025647759
-0.26949161 0.2744154 0.035541415
0.25162077 0.27319682 0.025647879
-0.26949161 0.2971088 0.035541415
0.25162077 0.29581413 0.02564764
-0.2695218 0.31984755 0.03586781
0.25162077 0.31843153 0.025647879
-0.24651919 0.3420141 0.032246947
-0.22357298 0.36412603 0.028634906
-0.20068191 0.38618129 0.025015473
-0.17795472 0.40847805 0.023152471
0.18452904 0.41099137 0.037992358
-0.15555052 0.43171337 0.026751041
0.16171981 0.43338552 0.036194444
-0.13309208 0.45500872 0.030374765
0.11585569 0.45384189 0.024059296
-0.11057819 0.47836158 0.034007311
-0.08755479 0.47622582 0.022909641
0.093357474 0.47711501 0.027530193
-0.065181322 0.50075287 0.032556415
-0.04240495 0.49937657 0.025680304
-0.019768288 0.49888036 0.023200989
0.0028302022 0.49889967 0.023298144
0.025430063 0.49891588 0.023379207
0.048127614 0.50018597 0.029724121
0.070939705 0.50160193 0.036798954
-0.26981479 -0.63397038 0.039039373
-0.26981479 -0.61124998 0.039039373
-0.26981479 -0.58852959 0.039039493
-0.26981479 -0.56580913 0.039039373
-0.26981479 -0.54308861 0.039039373
-0.26981479 -0.52036828 0.039039373
-0.26981479 -0.49764788 0.039039373
0.25365043 0.34455463 0.049616814
0.23054954 0.36675838 0.045731783
-0.22548421 0.39077979 0.053462386
0.20750916 0.38890374 0.041857004
-0.20239776 0.41298816 0.04978168
-0.17936955 0.43514386 0.046126366
-0.1565751 0.45785204 0.045764804
0.1391822 0.45672759 0.039677858
-0.13397245 0.48133078 0.049435496
0.11659124 0.4801248 0.04316926
-0.11131366 0.50486767 0.053115368
-0.08806406 0.50213218 0.039448619
0.093946792 0.50357753 0.046669245
-0.065566182 0.52688694 0.049221277
-0.042660318 0.52544159 0.042267084
-0.019890592 0.52478111 0.039088607
0.0028302022 0.52480149 0.039186716
0.025552381 0.52481848 0.039268613
0.048384197 0.52629852 0.04638958
0.071326815 0.52778924 0.053561568
0.27736434 -0.63774866 0.059490085
0.27736279 -0.61486793 0.059473515
0.27736127 -0.59198737 0.059457064
0.27736127 -0.56910974 0.059456825
0.27736434 -0.54623729 0.059490085
0.27736434 -0.52335948 0.059490085
0.27736434 -0.50048161 0.059490085
0.27687931 -0.47691667 0.054239273
0.27687931 -0.45407918 0.054239273
0.27687931 -0.43124178 0.054239392
0.27687931 -0.40840429 0.054239273
0.2768808 -0.38556865 0.054255843
0.2768808 -0.3627311 0.054255843
0.2768808 -0.33989355 0.054255843
0.2768808 -0.31705594 0.054255843
0.2768808 -0.29421836 0.054255843
0.2768808 -0.27138081 0.054255724
0.2768808 -0.24854326 0.054255724
0.2768808 -0.22570577 0.054255962
0.2768808 -0.20286822 0.054255843
0.2768808 -0.18003066 0.054255843
0.2768808 -0.15719309 0.054255843
0.2768808 -0.13435553 0.054255724
0.2768808 -0.11151793 0.054255724
0.2768808 -0.088680364 0.054255724
0.2768808 -0.0658428 0.054255724
0.2768808 -0.043005239 0.054255962
0.2768808 -0.020167865 0.054255843
0.2768808 0.002669692 0.054255843
0.2768808 0.025507256 0.054255843
0.2768808 0.048344873 0.054255843
0.2768808 0.071182422 0.054255724
0.2768808 0.094020002 0.054255724
0.2768808 0.11685746 0.054255843
0.2768808 0.13969502 0.054255843
0.2768808 0.1625326 0.054255843
0.2768808 0.18537015 0.054255843
0.2768808 0.20820773 0.054255724
0.2768808 0.23104528 0.054255724
0.27688235 0.25388476 0.054272532
0.27688235 0.27672243 0.054272294
0.27688235 0.29956019 0.054272294
0.277372 0.32313231 0.059573054
-0.27238774 0.34708127 0.066892505
-0.24862674 0.36851403 0.057135701
0.20926562 0.41593948 0.067209482
0.18608625 0.43818071 0.063278317
0.16296797 0.4603633 0.059357405
-0.15774864 0.48481551 0.067543149
0.14007428 0.48316994 0.058992267
-0.13486432 0.50799596 0.068744779
0.11733642 0.50675195 0.062529683
-0.088597968 0.52845979 0.056787968
0.094544359 0.53039014 0.066075683
-0.065955035 0.55331516 0.066058993
-0.042918589 0.55180269 0.059042215
-0.020014225 0.5509634 0.055148959
0.0028302022 0.5509848 0.05524826
0.025681635 0.55115968 0.056059241
0.048643958 0.55271202 0.063261628
-0.29579225 -0.63998348 0.071585894
-0.29579225 -0.61701244 0.071585894
-0.29579058 -0.59403861 0.071569204
-0.29579058 -0.57106781 0.071569204
-0.29579058 -0.5480969 0.071569204
-0.29579058 -0.52512616 0.071569204
-0.29579058 -0.50215536 0.071569204
-0.29601339 -0.47947586 0.073795676
-0.29601339 -0.45648792 0.073795676
-0.29601339 -0.43349996 0.073795676
-0.29601172 -0.41051018 0.073779106
-0.29601172 -0.38752231 0.073778987
-0.29601172 -0.36453447 0.073778987
-0.29601172 -0.34154665 0.073779106
-0.29601172 -0.31855881 0.073778987
-0.29601172 -0.29557097 0.073778868
-0.29601172 -0.27258307 0.073778868
-0.29601339 -0.24959627 0.073795676
-0.29601339 -0.22660831 0.073795795
-0.29601339 -0.20362028 0.073795795
-0.29601339 -0.18063223 0.073795676
-0.29601339 -0.1576443 0.073795676
-0.29601505 -0.13465658 0.073812366
-0.29601505 -0.1116685 0.073812604
-0.29601505 -0.088680461 0.073812604
-0.29601505 -0.06569232 0.073812485
-0.29601505 -0.042704284 0.073812604
-0.29601505 -0.019716009 0.073812604
-0.29601675 0.0032725036 0.073829174
-0.29601675 0.026260823 0.073829174
-0.29601675 0.049248911 0.073829174
-0.29601675 0.072237141 0.073829293
-0.29601675 0.095225431 0.073829412
-0.29601675 0.11821369 0.073829293
-0.29601842 0.14120319 0.073845983
-0.29601842 0.16419154 0.073845983
-0.29601842 0.18717995 0.073845983
-0.29601842 0.21016827 0.073846102
-0.29601842 0.2331565 0.073845983
-0.29601842 0.25614491 0.073846221
-0.29602009 0.27913538 0.073862791
-0.29602009 0.30212387 0.07386291
-0.29702273 0.32650062 0.083881736
0.25663194 0.37277728 0.084826589
0.2325063 0.3936395 0.071151137
-0.22742799 0.41788772 0.078712702
-0.20414279 0.44025066 0.074968934
-0.18091686 0.46256074 0.071251512
0.16435131 0.48818079 0.085029364
0.14109312 0.51045889 0.081050754
-0.11205808 0.53171623 0.072456121
0.11809143 0.53373015 0.082145691
-0.089195505 0.55549961 0.076193571
0.071717978 0.55427223 0.070498943
-0.020139083 0.57742882 0.071368575
0.0028302022 0.57745123 0.071468949
-0.066348724 0.58004928 0.08310616
-0.043179806 0.57846469 0.076009035
0.025812369 0.57780236 0.073041916
0.048906699 0.57942879 0.080327153
0.3043192 -0.62208396 0.1002301
0.3043192 -0.59889263 0.10023022
0.3043192 -0.57570112 0.1002301
0.3043192 -0.55250961 0.1002301
0.3043192 -0.52931815 0.1002301
0.3043192 -0.50612682 0.10023022
-0.25156313 0.3969796 0.091813087
0.21105367 0.44344619 0.093017697
0.18767142 0.46584323 0.089017987
-0.20591657 0.46797761 0.10057139
-0.18249066 0.49044725 0.096806884
-0.15912229 0.51285732 0.093034744
-0.13581164 0.53520793 0.089255214
-0.11281294 0.5589211 0.092067719
0.095149815 0.55755693 0.08573842
-0.089800902 0.58289516 0.095854282
0.072153077 0.58144081 0.089339733
-0.066746548 0.60708708 0.1003325
-0.043444026 0.60543299 0.093170404
-0.020265441 0.60418886 0.087783217
0.0028302022 0.60421234 0.087884665
0.025944607 0.60475183 0.090220332
0.049172472 0.6064536 0.097589612
0.30458564 -0.4832837 0.10289264
0.30458564 -0.46007174 0.10289264
0.30458564 -0.43685973 0.10289264
0.30458564 -0.41364789 0.10289264
0.30458564 -0.39043584 0.10289264
0.30458564 -0.36722392 0.10289264
0.30458736 -0.34401339 0.10290956
0.30458906 -0.32080257 0.10292661
0.30459076 -0.29759163 0.1029439
0.30459249 -0.2743803 0.10296082
0.30459249 -0.25116777 0.10296082
0.30459249 -0.22795534 0.10296082
0.30459249 -0.20474279 0.10296082
0.30459249 -0.18153039 0.10296082
0.30459249 -0.15831783 0.10296082
0.30459249 -0.13510542 0.10296106
0.30459249 -0.11189282 0.10296082
0.30459249 -0.088680364 0.10296082
0.30459249 -0.065467864 0.10296082
0.30459249 -0.042255498 0.10296094
0.30459249 -0.019042857 0.10296082
0.30459249 0.0041695088 0.10296082
0.30459249 0.027382009 0.10296094
0.30459249 0.050594412 0.10296082
0.30459249 0.073806964 0.10296094
0.30459249 0.097019561 0.10296082
0.30459249 0.12023193 0.10296082
0.30459249 0.14344448 0.10296094
0.30459249 0.16665679 0.10296082
0.30459249 0.18986943 0.10296082
0.30459249 0.21308187 0.10296082
0.30459249 0.23629436 0.10296082
0.30459249 0.25950685 0.10296094
0.30459249 0.28271925 0.10296082
0.30459249 0.30593187 0.10296082
0.28135949 0.35232425 0.10273874
-0.27628726 0.37651527 0.10910594
0.23553507 0.42327026 0.11049592
-0.23038857 0.44772276 0.11717188
0.16575877 0.51648283 0.11114836
