ply
format ascii 1.0
comment PCL generated
element vertex 664
property float x
property float y
property float z
element camera 1
property float view_px
property float view_py
property float view_pz
property float x_axisx
property float x_axisy
property float x_axisz
property float y_axisx
property float y_axisy
property float y_axisz
property float z_axisx
property float z_axisy
property float z_axisz
property float focal
property float scalex
property float scaley
property float centerx
property float centery
property int viewportx
property int viewporty
property float k1
property float k2
end_header
0.095400438 -0.053889796 -0.24524397
0.0952124 -0.037920527 -0.24768662
0.079190493 -0.021995537 -0.24926031
0.094882324 -0.021974649 -0.25197423
0.11118455 -0.022013048 -0.24698651
0.094911397 -0.0060948301 -0.25159669
0.11112857 -0.006094791 -0.24764788
0.079270557 -0.0060947519 -0.24810451
0.079089031 0.0097947512 -0.25072479
0.094931543 0.0097900257 -0.25133526
0.11107425 0.0098134112 -0.24828911
0.095051691 0.025698854 -0.24977458
0.11121091 0.025746567 -0.24667525
0.11219858 -0.086146981 -0.23501146
0.095954403 -0.070043072 -0.23804766
0.11185595 -0.070011921 -0.23905784
0.12827177 -0.070157528 -0.23433226
0.080364034 -0.054188199 -0.23232156
0.11159571 -0.053961731 -0.24213099
0.1282372 -0.05413311 -0.23470634
0.079793528 -0.038030222 -0.24055636
0.11138742 -0.037968203 -0.24459082
0.12821539 -0.038116723 -0.23494256
0.064161181 -0.022104468 -0.23510981
0.12799656 -0.022087444 -0.2373116
0.064241201 -0.0060947519 -0.23381025
0.12793489 -0.0060947519 -0.23797899
0.064077601 0.0099044591 -0.23646671
0.12787962 0.0098882187 -0.23857737
0.079972088 0.025880443 -0.23797899
0.12783073 0.025863109 -0.23910677
0.095534056 0.041740373 -0.2435081
0.11136924 0.041710347 -0.24480534
0.12778546 0.041830659 -0.23959661
0.096248746 0.057971299 -0.23422402
0.11160481 0.057731055 -0.24202347
0.12793218 0.057854779 -0.23800844
0.11242217 0.074059121 -0.23237091
0.12824994 0.07397446 -0.23456848
0.11332394 -0.10277131 -0.22172141
0.12899946 -0.10255273 -0.22645479
0.1456133 -0.10280073 -0.22108346
0.097080097 -0.08659301 -0.22342438
0.12857787 -0.086300656 -0.2310186
0.14532527 -0.086572297 -0.22396159
0.0809398 -0.07047528 -0.22401118
0.14528348 -0.070463918 -0.22437912
0.14524569 -0.054362975 -0.22475678
0.064730242 -0.038256437 -0.22586924
0.14503407 -0.038241014 -0.22687131
0.14496662 -0.022162719 -0.2275455
0.14489919 -0.006094791 -0.22821921
0.1448437 0.0099636894 -0.22877377
0.16196874 0.010039823 -0.2188772
0.064942122 0.026119852 -0.22242886
0.14479022 0.026013931 -0.22930819
0.16192243 0.026167916 -0.21930695
0.080524862 0.042052262 -0.2300005
0.14475161 0.042059407 -0.22969395
0.16188046 0.04229027 -0.21969634
0.08114402 0.058376469 -0.22106344
0.144714 0.058099188 -0.23006988
0.1618471 0.058409072 -0.22000587
0.097347096 0.07453689 -0.21995592
0.14471003 0.074146152 -0.23010927
0.16181698 0.074524276 -0.22028536
0.12883919 0.090282984 -0.22818959
0.14520194 0.090421297 -0.22519398
0.16187292 0.090672068 -0.21976632
0.13044544 -0.11947247 -0.21080154
0.14618069 -0.11922397 -0.21541381
0.16298895 -0.11954736 -0.20941079
0.098248199 -0.10339352 -0.20825052
0.16257566 -0.10316277 -0.21324575
0.082061097 -0.087193407 -0.20782638
0.16252153 -0.086965479 -0.21374798
0.16246633 -0.070775598 -0.21425998
0.06535314 -0.054570861 -0.21575457
0.16241767 -0.054594912 -0.21471167
0.04969684 -0.038555637 -0.20643187
0.16217032 -0.038392834 -0.2170068
0.17946924 -0.038546115 -0.20704848
0.049148031 -0.022246856 -0.21661627
0.16209698 -0.022238579 -0.21768737
0.17939109 -0.022315299 -0.20772541
0.17931996 -0.006094791 -0.20834124
0.049224176 -0.0060947519 -0.21520311
0.16202691 -0.0060947519 -0.21833742
0.049049899 0.010043219 -0.21843737
0.17926404 0.010117283 -0.20882589
0.17921977 0.026323305 -0.20920902
0.065554082 0.04245659 -0.21249193
0.17918599 0.042525619 -0.20950145
0.17915456 0.058724105 -0.20977378
0.17912547 0.074919194 -0.21002573
0.11365284 0.090761103 -0.21783733
0.17910336 0.091113113 -0.21021718
0.14611749 0.10700035 -0.2160452
0.16245228 0.10708949 -0.21439052
0.17946924 0.10748515 -0.20704854
0.14842083 -0.13676377 -0.19302899
0.16388361 -0.13626617 -0.20110947
0.18087541 -0.13665038 -0.19487089
0.11523905 -0.1201027 -0.19910526
0.18004361 -0.11994276 -0.20207441
0.17996038 -0.10364542 -0.20279515
0.17989127 -0.087364003 -0.20339358
0.19745074 -0.087772004 -0.19279337
0.065982118 -0.071044013 -0.20554161
0.17982687 -0.071092993 -0.2039513
0.1973763 -0.07141795 -0.19339764
0.050252087 -0.055024073 -0.19612759
0.17976837 -0.054831743 -0.20445794
0.19730194 -0.055073164 -0.19400144
0.19693319 -0.038701035 -0.1969952
0.033897057 -0.022397015 -0.19710749
0.19684903 -0.022392642 -0.19767869
0.033974387 -0.0060947519 -0.19543308
0.1967812 -0.0060947519 -0.19822907
0.033822656 0.010195019 -0.19871813
0.1967348 0.010195917 -0.19860619
0.049846888 0.026409043 -0.2036472
0.19670092 0.026482327 -0.19888109
0.050393127 0.042894967 -0.19351012
0.19667332 0.042765811 -0.1991052
0.06617187 0.058949344 -0.20246017
0.19664948 0.059046641 -0.19929862
0.082393527 0.075188518 -0.20302856
0.19662566 0.075324617 -0.19949204
0.098655641 0.091448456 -0.20295751
0.19660185 0.091599554 -0.19968545
0.13092479 0.10756253 -0.20561242
0.19660561 0.10788362 -0.19965494
0.16477211 0.12458432 -0.19286501
0.18034413 0.12417749 -0.19947165
0.13296242 -0.1373473 -0.18355435
0.19829755 -0.13720177 -0.18591809
0.10040103 -0.12111692 -0.18028414
0.19760601 -0.12051078 -0.19153267
0.21538387 -0.12110078 -0.18058461
0.083382085 -0.1042937 -0.18875992
0.19752647 -0.10413583 -0.19217849
0.21529578 -0.10464019 -0.18125796
0.067041561 -0.087943502 -0.18833822
0.21520908 -0.088190466 -0.18192053
0.050812788 -0.071654297 -0.18572217
0.21512242 -0.071750969 -0.18258268
0.034646802 -0.055376351 -0.18087471
0.21503581 -0.055321619 -0.18324447
0.034329653 -0.038843468 -0.1877414
0.21456589 -0.038857363 -0.18683529
0.018046536 -0.022487398 -0.1853714
0.21447693 -0.022470884 -0.18751496
0.21442844 -0.0060948692 -0.18788546
0.018117271 -0.0060947128 -0.18353373
0.018031053 0.010294694 -0.18577379
0.21440284 0.01027697 -0.18808109
0.034330599 0.026654193 -0.18772089
0.21437727 0.026645685 -0.18827653
0.034631498 0.04317908 -0.18120617
0.21435572 0.043012016 -0.18844104
0.21433555 0.05937624 -0.18859541
0.050911233 0.05952093 -0.18389529
0.067264944 0.075893514 -0.18471116
0.21431537 0.07573808 -0.18874967
0.083664745 0.092292637 -0.18468022
0.21429653 0.09209805 -0.18889362
0.11587159 0.10831571 -0.19163525
0.21427633 0.10845513 -0.18904787
0.19751005 0.1246184 -0.19231176
0.14909117 0.12498674 -0.18633038
0.21515219 0.12523156 -0.18235511
0.21599136 -0.13781603 -0.1759429
0.23336054 -0.12170246 -0.16941851
0.068238318 -0.10521077 -0.16890544
0.23326625 -0.10515568 -0.17009878
0.051518373 -0.088548176 -0.17262816
0.23317347 -0.088619702 -0.17076832
0.034966022 -0.072016381 -0.17396355
0.23307933 -0.072093785 -0.17144787
0.018588893 -0.055597961 -0.17128062
0.23298667 -0.055578634 -0.17211652
0.0021709949 -0.039138354 -0.16858059
0.018322222 -0.038990147 -0.17820919
0.23289265 -0.039073542 -0.17279524
0.002092354 -0.022596953 -0.17113435
0.2327842 -0.022578174 -0.17357773
0.0020225793 -0.006094791 -0.17340034
0.23231669 -0.0060948301 -0.17695177
0.0020878464 0.010406278 -0.17128068
0.23229508 0.010361457 -0.17710775
0.002153568 0.026940184 -0.16914624
0.018311821 0.026796507 -0.17847914
0.23227347 0.026815167 -0.17726362
0.018564761 0.043393932 -0.17190772
0.23225187 0.043266572 -0.17741954
0.034934729 0.059805982 -0.17464113
0.23223026 0.059715636 -0.17757553
0.051476195 0.076328523 -0.17341089
0.23220868 0.076162167 -0.17773134
0.25031298 0.076597139 -0.16643018
0.068185449 0.092981555 -0.16976398
0.23218708 0.092606388 -0.17788708
0.25028998 0.093128271 -0.16658777
0.10084267 0.10923653 -0.17454743
0.2321655 0.10904815 -0.17804301
0.25031298 0.10967393 -0.16643018
0.13401033 0.12585634 -0.17221057
0.23311411 0.12591876 -0.17119706
0.11807261 -0.13845035 -0.16564238
0.23413585 -0.13856244 -0.16382307
0.069190904 -0.12256368 -0.1534372
0.085314959 -0.12216354 -0.16086143
0.25154024 -0.12231563 -0.15803969
0.052176334 -0.10560279 -0.16041797
0.25144118 -0.10568137 -0.15871674
0.019187428 -0.089198492 -0.15573031
0.035416409 -0.088872097 -0.16421247
0.25134838 -0.089059167 -0.15935111
0.018857308 -0.072313689 -0.16430718
0.25125569 -0.072446823 -0.15998501
0.0023859367 -0.055821478 -0.16160005
0.25116146 -0.055843934 -0.16062909
-0.014024183 -0.039356291 -0.15443575
0.25066817 -0.039208986 -0.16400194
-0.014094945 -0.022701822 -0.15749991
0.25055581 -0.022645874 -0.16476995
-0.014165506 -0.006094791 -0.1605553
0.25048047 -0.006094791 -0.16528511
-0.014077332 0.010518214 -0.15673727
0.2504313 0.010449812 -0.16562134
0.26881415 0.010541758 -0.1536817
-0.014008485 0.027177172 -0.15375602
0.25039744 0.026990941 -0.16585255
0.26875687 0.027172489 -0.15405333
0.0023885369 0.043633848 -0.16151559
0.2503683 0.043529063 -0.1660521
0.26870948 0.04379908 -0.15436143
0.018818855 0.060093418 -0.16530621
0.25033909 0.060064293 -0.16625166
0.26867026 0.060422547 -0.1546163
0.019116059 0.076937675 -0.15758455
0.035355695 0.076631971 -0.16552687
0.26863921 0.077044144 -0.15481788
0.035894953 0.093716495 -0.15385169
0.052100137 0.093347929 -0.16183186
0.26860654 0.093662106 -0.15503013
0.069062755 0.11026192 -0.15551823
0.085301787 0.10996374 -0.16105133
0.11874329 0.12674858 -0.15772223
0.25154483 0.12673101 -0.15800792
0.17044562 -0.15675601 -0.14022166
0.18592139 -0.15599746 -0.15117127
0.20256282 -0.15598932 -0.15128833
0.086703196 -0.1399788 -0.1408239
0.10295673 -0.1395932 -0.14708477
0.25264454 -0.13938354 -0.15048945
0.052889049 -0.12290018 -0.14719158
0.27034736 -0.1230871 -0.14372295
0.019769043 -0.1065172 -0.14061958
0.035984337 -0.10599547 -0.15191638
0.26984626 -0.10622361 -0.14697778
0.0029968768 -0.08973635 -0.14175886
0.2697475 -0.089510754 -0.14761907
0.0026683807 -0.07267952 -0.15242714
0.26965547 -0.072809145 -0.14821732
-0.013805985 -0.056205116 -0.14498752
0.26956993 -0.056117781 -0.14877242
0.26910883 -0.039397284 -0.15176737
-0.030435067 -0.02283535 -0.14015704
0.2689876 -0.022740046 -0.15255481
0.28763181 -0.022835193 -0.14018935
-0.030482702 -0.0060947128 -0.14325106
0.26888615 -0.0060947519 -0.15321404
0.28751189 -0.0060947128 -0.14093143
0.28741801 0.010635421 -0.1415118
0.28734684 0.027358802 -0.14195216
-0.013808955 0.044012606 -0.14511597
0.28728086 0.044076249 -0.14236027
0.0026732981 0.060494818 -0.15226752
0.28723049 0.060790367 -0.14267164
0.0029664636 0.07750871 -0.14274669
0.28718024 0.077499695 -0.14298284
0.019741319 0.094294369 -0.14133984
0.2871542 0.094211049 -0.14314377
0.052738912 0.11056048 -0.1499778
0.26915967 0.11048184 -0.15143758
0.086529836 0.12763512 -0.1433261
0.10281448 0.12728991 -0.14893258
0.15483524 -0.15753819 -0.12893236
0.053929813 -0.14077611 -0.12787753
0.07035616 -0.14036731 -0.13451594
0.036558792 -0.12331575 -0.13947916
0.28846508 -0.10677521 -0.13503486
0.28837425 -0.089973472 -0.13559687
-0.013582874 -0.073206052 -0.13532668
0.2882852 -0.073180832 -0.1361475
-0.030244838 -0.056602024 -0.12780124
0.28820145 -0.056397364 -0.13666576
-0.03038713 -0.039623968 -0.13704348
0.28776056 -0.039587773 -0.13939303
0.30649048 -0.022931473 -0.12768161
0.30635595 -0.006094791 -0.12847579
-0.030425623 0.01065053 -0.13954371
0.30625099 0.010730959 -0.12909538
-0.030378822 0.027442703 -0.13650382
0.30615717 0.027548274 -0.12964946
-0.030255221 0.044396944 -0.12847579
0.30608177 0.044359505 -0.13009489
-0.013592109 0.061004207 -0.13572639
0.30600637 0.061163858 -0.13053989
0.30602658 0.077983126 -0.13042051
0.036538906 0.11110306 -0.13990963
0.28858221 0.1114047 -0.13431042
0.053846613 0.12849145 -0.12942129
0.070159316 0.12798084 -0.1377123
0.088337913 -0.15834902 -0.11722869
0.10508776 -0.15819849 -0.11940175
0.12180546 -0.15804896 -0.1215598
0.13850039 -0.15790737 -0.12360406
0.020447932 -0.1242047 -0.12298143
0.28996545 -0.12405534 -0.12575388
0.0035394281 -0.10727841 -0.12413937
-0.013350975 -0.090370424 -0.12528497
0.30723649 -0.090447769 -0.12327641
-0.030071404 -0.073784627 -0.11653632
0.3071366 -0.073558919 -0.12386626
0.30706078 -0.056682609 -0.12431389
-0.046982691 -0.039962083 -0.11508423
0.30662507 -0.039780334 -0.12688696
-0.047014832 -0.022996245 -0.11925924
0.32556725 -0.023028806 -0.11502928
-0.047046848 -0.006094791 -0.12341839
0.32542503 -0.0060947519 -0.11583257
-0.047002837 0.010818688 -0.11770105
0.32530242 0.010827824 -0.11652529
0.32519537 0.027741032 -0.11712986
0.32510197 0.044646703 -0.11765701
-0.030063108 0.061611637 -0.11599743
-0.013373632 0.078143083 -0.126266
0.0034863576 0.095009319 -0.12586284
0.30741978 0.095178649 -0.12219417
0.020392448 0.11193752 -0.12442303
0.037645899 0.12932158 -0.1159426
0.071511492 0.14626154 -0.1157555
0.087956771 0.14577834 -0.12272996
0.1047214 0.14567916 -0.12416101
0.12146509 0.14558093 -0.12557942
0.13818908 0.14548427 -0.12697411
0.15548985 0.14580184 -0.1223911
0.17241792 0.1458344 -0.12192076
0.18878336 0.14552502 -0.12638593
0.071681753 -0.15864263 -0.1129908
0.037791908 -0.14170578 -0.11278123
0.0040911809 -0.12510791 -0.10622048
-0.012897883 -0.10813176 -0.10566545
0.30886078 -0.10776122 -0.11368537
-0.029861078 -0.091232918 -0.10287529
0.32716423 -0.074108884 -0.10600948
-0.04688571 -0.05718673 -0.10248566
0.32613528 -0.056971096 -0.11182112
0.32608837 -0.040008232 -0.11208612
0.3448661 -0.023127468 -0.10222954
0.34488875 -0.006094791 -0.10210699
0.34509671 0.010947373 -0.10098153
-0.04696938 0.027799243 -0.11335468
-0.046887934 0.044990472 -0.1027751
0.3257916 0.061680511 -0.11376244
-0.029860221 0.079045556 -0.10281968
-0.012924023 0.095889889 -0.1067974
0.0040160939 0.11278697 -0.10865897
0.021245815 0.13016468 -0.10225183
0.055316672 0.14720485 -0.10214049
0.055504821 -0.15963629 -0.098648965
0.021428809 -0.14264706 -0.097497463
-0.046781279 -0.074635021 -0.08891958
0.3471275 -0.040348411 -0.089989722
-0.06391634 -0.023206217 -0.091992199
-0.06391634 -0.0060948301 -0.096255243
-0.06391634 0.011026241 -0.090743899
0.34584993 0.028052399 -0.096904635
-0.046785355 0.062429197 -0.089449167
0.038936228 0.14818412 -0.088006139
0.10721506 0.16503662 -0.091767371
0.12388468 0.16463333 -0.097005248
0.1415858 0.16515702 -0.090203702
0.091264173 -0.17851752 -0.074991882
0.10758367 -0.17759477 -0.086979151
0.12475087 -0.17761044 -0.086775839
0.14249563 -0.17810474 -0.080354452
0.039160751 -0.16071045 -0.083144844
-0.012300752 -0.12653118 -0.07980895
-0.029461976 -0.10945792 -0.076953053
-0.06391634 -0.040383548 -0.087712765
-0.06391634 0.028215753 -0.086290121
-0.06391634 0.045610666 -0.075915813
-0.046681527 0.080079257 -0.075961471
-0.029512245 0.097117476 -0.080218077
-0.012354232 0.11421676 -0.08212477
0.0049881712 0.13171424 -0.077089846
0.21152787 0.14884265 -0.078501463
0.090773121 0.16578241 -0.082079351
0.15939696 0.16568473 -0.08334887
0.074770227 -0.179453 -0.062840223
0.1603384 -0.17859842 -0.07394141
0.005176343 -0.1442802 -0.070978761
-0.046667207 -0.092340447 -0.07410115
-0.06391634 -0.05783242 -0.074523866
-0.081242844 -0.023421304 -0.064051032
-0.081209198 -0.0060947128 -0.068421841
-0.081250027 0.011238867 -0.063117087
-0.06391634 0.063266233 -0.06226325
0.074185848 0.16653301 -0.072329402
0.17847225 0.1670399 -0.065743804
0.023094855 -0.16271494 -0.054212451
-0.029053595 -0.12811436 -0.050427794
-0.06391634 -0.075506732 -0.060611427
-0.081276618 -0.040815324 -0.059663236
-0.081285089 0.028642686 -0.05856353
-0.06391634 0.08113841 -0.048443019
-0.046504609 0.098375671 -0.05297941
-0.029122956 0.115682 -0.054932833
-0.011601202 0.13341226 -0.049517512
0.022844993 0.15007558 -0.060703933
-0.011364508 -0.14623301 -0.039268732
-0.046462402 -0.11081849 -0.04749614
-0.06391634 -0.093477182 -0.044568837
-0.081383161 -0.058495253 -0.04582262
-0.099010661 -0.023641976 -0.035386443
-0.098941647 -0.0060948301 -0.039869189
-0.08136344 0.046246521 -0.048384726
0.058268167 0.1684545 -0.047367692
0.05916205 -0.18192101 -0.030779302
-0.081492938 -0.076401122 -0.031562269
-0.099081412 -0.041259907 -0.030791104
-0.099019766 0.011456922 -0.034795344
-0.099091649 0.029080512 -0.030126274
-0.081471145 0.064124398 -0.034393132
-0.06391634 0.099664792 -0.025068521
-0.046305254 0.11718284 -0.027082503
0.0063546523 0.15201494 -0.032711983
0.0066834241 -0.16494422 -0.022035062
-0.046252672 -0.12974045 -0.020251811
-0.06391634 -0.11221583 -0.017241597
-0.081626229 -0.094644248 -0.014247537
-0.099303335 -0.05917526 -0.016376615
-0.11713039 -0.006094791 -0.010593534
-0.099244781 0.046897836 -0.020179987
-0.081580192 0.082224429 -0.020227849
-0.028604489 0.13515262 -0.021257281
0.042197496 0.17076162 -0.017397702
-0.028379582 -0.14824182 -0.006649375
-0.099528268 -0.077318668 -0.0017668009
-0.11735308 -0.041719243 -0.00095117092
-0.11723688 -0.023868306 -0.0059823394
-0.1172422 0.011680521 -0.0057521462
-0.1173528 0.029529506 -0.00096309185
-0.099465609 0.06500376 -0.0058369637
-0.081763156 0.10098608 0.0035398006
-0.06391634 0.11872176 0.0014753342
-0.010550395 0.15400302 -0.0040162802
0.043432906 -0.18501016 0.009349823
-0.010087173 -0.1675823 0.016041756
-0.06391634 -0.13141039 0.010739207
-0.081842385 -0.11365104 0.013831496
-0.099815771 -0.095843367 0.016907215
-0.11769475 -0.059873156 0.013843775
-0.11757678 0.047565661 0.0087355375
-0.099689208 0.083337381 0.0086865425
-0.046037372 0.13693704 0.0077166557
0.0256963 0.17313054 0.013375163
-0.045889646 -0.1503083 0.026906371
-0.11804081 -0.078260735 0.028829098
-0.13610849 -0.042190805 0.02967906
-0.13593909 -0.024100455 0.024177551
-0.13578421 -0.0060948692 0.019148111
-0.13593486 0.011909818 0.024040699
-0.13608617 0.029990131 0.028954029
-0.11791673 0.065905765 0.023455977
-0.027885798 0.15604267 0.025422812
-0.082066506 -0.13314593 0.042945743
-0.13637707 0.048250787 0.038401842
-0.11826073 0.084479228 0.038351417
-0.10006157 0.10234086 0.032871962
-0.081972659 0.12029952 0.030754924
-0.06391634 0.13876694 0.037432313
-0.10025974 -0.11512499 0.045743942
-0.11850443 -0.097074941 0.048904419
-0.13657624 -0.060589708 0.044869423
-0.15513636 -0.024338773 0.055136085
-0.15492293 -0.0060948301 0.049590945
-0.1551162 0.012145208 0.054612398
-0.13684164 0.066830494 0.05348897
-0.045668598 0.15813494 0.055621743
0.0087482259 0.1755667 0.045021534
-0.02738855 -0.17046984 0.057719946
-0.06391634 -0.15243575 0.061452031
-0.13705006 -0.079228528 0.060258031
-0.15536711 -0.04267513 0.061130881
-0.15531029 0.030462863 0.05965507
-0.1373122 0.085650004 0.068770766
-0.11882894 0.10373044 0.062955976
-0.10049131 0.12191761 0.06078434
-0.082258835 0.14064525 0.067930937
-0.10075609 -0.13503388 0.077982783
-0.11918891 -0.11663997 0.078543067
-0.15614475 -0.061431862 0.081334949
-0.1557882 0.049028322 0.072071195
-0.0086669326 0.17806982 0.077540159
-0.13780701 -0.098458067 0.084840417
-0.17502043 -0.0060947519 0.09064436
-0.15661061 0.06806054 0.093438268
-0.06391634 0.16028185 0.086610317
-0.045318902 -0.17347172 0.10104847
-0.082482964 -0.15462777 0.097045541
-0.1569823 -0.080547594 0.10309505
-0.17584729 -0.043405153 0.10854685
-0.17537111 -0.024670558 0.098237038
-0.17535155 0.012477698 0.097813368
-0.17568463 0.03116134 0.10502493
-0.13843428 0.10568215 0.10521138
-0.11962232 0.1238858 0.097310066
-0.10119213 0.14300832 0.10630441
-0.17631823 0.050106183 0.11874282
-0.15744789 0.087436646 0.11519134
-0.026568756 0.18064317 0.11096728
-0.13920522 -0.11902807 0.13024843
-0.17687604 -0.062574647 0.13081992
-0.082750186 0.16340996 0.13175905
-0.12053637 -0.13820814 0.1368897
-0.15843698 -0.10061542 0.14088905
-0.19653048 -0.025039669 0.14618218
-0.19615586 -0.006094791 0.13923025
-0.19646443 0.01284064 0.14495659
-0.17734492 0.069524258 0.14097142
-0.17792323 -0.08209943 0.15349221
-0.1972298 -0.044184327 0.15916002
-0.19686839 0.031891517 0.15245318
-0.15904921 0.1080647 0.15679526
-0.13976888 0.12664707 0.14855409
-0.19766639 0.051226631 0.1672622
-0.17846093 0.089358963 0.16513371
-0.12129773 0.14692222 0.16985762
-0.102306 -0.15965344 0.17865229
-0.19848166 -0.063765682 0.18239188
-0.16028517 -0.12173741 0.18890607
-0.18005371 -0.10287593 0.19961834
-0.21854772 -0.025423655 0.19607091
-0.21810295 -0.0060948301 0.18884897
-0.21842064 0.013218222 0.19400728
-0.19891421 0.071046852 0.1904186
-0.20001717 -0.083866701 0.21088707
-0.21952364 -0.044996575 0.21191788
-0.21890005 0.032651134 0.20179212
-0.18056147 0.11055037 0.21061146
-0.16107205 0.12992322 0.20934987
-0.14187279 -0.14251855 0.21688032
-0.21988313 0.052392721 0.21775556
-0.20047303 0.091445722 0.21934688
-0.22101812 -0.065008029 0.23618567
-0.14249049 0.15105349 0.23694086
-0.24147607 -0.025823651 0.24802434
-0.24095584 -0.0060948692 0.24051571
-0.24126926 0.013611073 0.24503946
-0.221369 0.072631523 0.24188304
-0.20272973 -0.10524715 0.2612257
-0.24183081 0.033441797 0.25314462
-0.18341535 -0.12559383 0.2723999
-0.22328962 -0.08578144 0.2730701
-0.24285522 -0.045858994 0.26793075
-0.24329366 0.053697616 0.27425897
-0.22365639 0.093742728 0.27902544
-0.20303299 0.11314808 0.26685381
-0.18370087 0.13365385 0.27858162
-0.24532588 -0.06656459 0.30359161
-0.26507986 0.014021568 0.29836154
-0.2658855 -0.0060948301 0.30882692
-0.24573742 0.074714534 0.30953181
-0.26672071 -0.026375286 0.3196764
-0.26725936 0.034573801 0.32667351
-0.26939294 -0.047190085 0.35438991
-0.26948407 0.055575497 0.35557353
-0.2508682 -0.089184538 0.38358796
-0.25041255 0.097514227 0.37701166
-0.29261801 0.014696307 0.38600862
-0.23022439 0.1186363 0.38567674
-0.29440945 -0.006094791 0.40716445
-0.29755023 0.036384061 0.44425523
-0.29838908 -0.02741039 0.45416164
-0.2769714 0.079127155 0.45283675
-0.30220613 0.058893278 0.49923885
-0.32515317 -0.0060948301 0.51314235
-0.32469857 0.015636966 0.50822067
-0.30387747 -0.049724236 0.51897609
-0.3262468 -0.027955702 0.5249809
-0.32564151 0.037526026 0.51842821
-0.28293961 -0.071801759 0.5303663
-0.34940046 0.015865445 0.53789973
-0.32702523 0.059682451 0.53340816
-0.30504015 0.081586584 0.53270686
-0.32824469 -0.05014953 0.54660881
-0.34993881 -0.0060948301 0.54327857
-0.35042685 0.037983686 0.54815543
-0.30693549 -0.07237272 0.55509007
-0.35120147 -0.028193707 0.55589581
-0.35208029 0.060404591 0.5646776
-0.32955712 0.082452163 0.56081629
-0.28478086 0.10433732 0.55428457
-0.35345149 -0.050638661 0.57837975
-0.37586308 -0.0060948301 0.57967544
-0.37501091 0.016126251 0.57176828
-0.30875134 0.10519392 0.57653403
-0.33179313 -0.073064014 0.58502173
-0.37674057 0.038594395 0.58781743
-0.37788492 -0.028521199 0.598436
-0.35551077 0.083626494 0.59895742
-0.28925937 -0.096232042 0.61246216
-0.37932932 0.061493725 0.61183822
-0.33462721 0.10670128 0.61570179
-0.40354341 0.016546978 0.62642717
-0.36012876 -0.074451439 0.6451031
-0.38191867 -0.051523685 0.63586426
-0.40449822 -0.0060947519 0.63469613
-0.40539414 0.039435536 0.64245462
-0.40689385 -0.02896004 0.65544307
-0.38394654 0.085342504 0.65468061
-0.40833443 0.062788777 0.66791844
-0.3640371 0.10933629 0.68415713
-0.43500966 -0.0060949079 0.69807279
-0.43377006 0.017021036 0.68800855
-0.41266012 -0.052594006 0.70537996
-0.43612963 0.040431909 0.70716548
-0.43844688 -0.029502969 0.72597969
-0.43987203 0.064396955 0.73755026
-0.41487122 0.087493062 0.72452903
-0.46622145 0.017570212 0.75934494
-0.46749717 -0.0060948301 0.76909304
-0.46828866 0.041478492 0.77514124
-0.44685459 -0.053962067 0.79424191
-0.47081703 -0.030030049 0.79446185
-0.47158694 0.065847084 0.80034482
-0.4478485 0.089888185 0.80231094
-0.4976083 -0.0060949861 0.81507289
-0.49709326 0.017970635 0.81135547
-0.49766082 0.042099036 0.8154515
-0.49904585 -0.030268678 0.8254472
-0.52359736 0.01809893 0.82802916
-0.49894333 0.066409692 0.82470727
-0.47534811 0.090712614 0.82908559
-0.47574872 -0.054545678 0.83214664
-0.52414358 -0.0060949861 0.83176386
-0.52418309 0.042354219 0.83203411
-0.50121701 0.09108305 0.84111619
-0.50157201 -0.054723248 0.84367859
-0.5261054 -0.030420555 0.84517705
-0.52645457 0.066937551 0.8475641
-0.45416898 0.1158591 0.85362732
-0.4796986 -0.079468213 0.86232948
-0.45487064 -0.079398796 0.85932398
-0.4310112 -0.079513736 0.86430538
-0.47887683 0.11595225 0.8560499
-0.43015307 0.11598404 0.85687339
-0.40750235 0.11661434 0.87325132
-0.40869755 -0.079976551 0.88434172
0 0 0 1 0 0 0 1 0 0 0 1 0 0 0 0 0 664 1 0 0
