ply
format ascii 1.0
comment PCL generated
element vertex 521
property float x
property float y
property float z
element camera 1
property float view_px
property float view_py
property float view_pz
property float x_axisx
property float x_axisy
property float x_axisz
property float y_axisx
property float y_axisy
property float y_axisz
property float z_axisx
property float z_axisy
property float z_axisz
property float focal
property float scalex
property float scaley
property float centerx
property float centery
property int viewportx
property int viewporty
property float k1
property float k2
end_header
0.45877928 -0.054564156 -0.58746761
0.48013705 -0.05459448 -0.58549464
0.4377344 -0.033583052 -0.58784491
0.45669913 -0.033499371 -0.59872681
0.47963792 -0.03358129 -0.5880881
0.43609422 -0.012607962 -0.59710848
0.45598209 -0.012607989 -0.60260779
0.47964263 -0.012607989 -0.58806384
0.43602148 0.0082927952 -0.59751934
0.45595765 0.0082526049 -0.60274017
0.47964263 0.0083654737 -0.58806378
0.43769565 0.029339019 -0.58806372
0.45671916 0.029176507 -0.59861815
0.47963792 0.029338695 -0.58808815
0.45889395 0.050340585 -0.58684671
0.48017693 0.050376654 -0.58528739
0.4406122 -0.054808505 -0.57159114
0.50358558 -0.054783411 -0.5732277
0.41956195 -0.033710551 -0.57129556
0.50358063 -0.033695512 -0.5732522
0.41803408 -0.012607935 -0.58031726
0.50358307 -0.012607908 -0.57324004
0.41799259 0.0084233033 -0.58056194
0.50358558 0.0084798029 -0.57322776
0.41944933 0.029587027 -0.57196057
0.50358063 0.029567 -0.5732522
0.44064924 0.050697714 -0.57138169
0.50358558 0.050655171 -0.5732277
0.4230797 -0.055132877 -0.55052423
0.52960259 -0.055148512 -0.54951113
0.52778286 -0.033810899 -0.55826634
0.40088141 -0.012607908 -0.55631328
0.52778548 -0.012607962 -0.558254
0.40085521 0.0086086849 -0.55647486
0.52779061 0.008595244 -0.55822915
0.5277881 0.02979818 -0.55824149
0.42308393 0.05118002 -0.55049926
0.52969104 0.051212706 -0.5490858
0.4023352 -0.033895146 -0.54731995
0.40221775 0.029955138 -0.54804653
0.44994393 -0.077126123 -0.51888537
0.47091883 -0.077059619 -0.52176023
0.38543767 -0.012607935 -0.51880866
0.3853668 0.0088951187 -0.51926911
0.45055386 0.0735223 -0.5154407
0.4084484 -0.055764388 -0.50950432
0.38712606 -0.034198951 -0.5078423
0.3870824 0.030569736 -0.50812578
0.40860042 0.052148454 -0.50856388
0.39114258 -0.056191601 -0.4817543
0.36956018 -0.034410838 -0.48032212
0.36791703 -0.012608016 -0.49155629
0.36784646 0.0091047017 -0.49203885
0.36951786 0.03099332 -0.48061121
0.39126393 0.052785896 -0.48096609
0.35005119 -0.012607989 -0.46376717
0.34998116 0.0093184831 -0.4642725
0.37348869 -0.056627292 -0.45346248
0.35164803 -0.034627005 -0.45224297
0.35160717 0.031425517 -0.45253789
0.37358472 0.05343613 -0.452806
0.35546136 -0.057069656 -0.42472267
0.33333242 -0.034844823 -0.42394352
0.33181745 -0.012607881 -0.43552005
0.33174822 0.0095357345 -0.43604898
0.33329129 0.031861022 -0.42425787
0.35553333 0.054096773 -0.42420328
0.31315205 -0.012607989 -0.40724683
0.31308559 0.0097533381 -0.40778625
0.33691466 -0.0575031 -0.39657021
0.31459925 -0.035063837 -0.39549685
0.31455803 0.032298613 -0.39583135
0.33700952 0.054751642 -0.39584541
0.31800279 -0.057945136 -0.36786342
0.29411614 -0.012607989 -0.37841225
0.29405263 0.0099752219 -0.3789624
0.29545242 0.032745093 -0.36683989
0.31811836 0.055419572 -0.36692524
0.29549509 -0.035287239 -0.36647022
0.27469862 -0.012608044 -0.34899962
0.27463812 0.010201552 -0.34956086
0.29871324 -0.058395788 -0.33860016
0.27600536 -0.035515085 -0.33687449
0.27596158 0.033200137 -0.33728075
0.29884887 0.056100838 -0.33742583
0.25488782 -0.012607935 -0.31899142
0.25483054 0.010432434 -0.31956387
0.27903801 -0.058855437 -0.30873501
0.25612155 -0.035747703 -0.30666339
0.25607711 0.033664662 -0.30710745
0.27918947 0.056795813 -0.30732942
0.25897872 -0.059326902 -0.27811277
0.23582849 -0.03598487 -0.27584755
0.23467037 -0.012607989 -0.2883842
0.23461917 0.010668193 -0.28893864
0.23578519 0.034138728 -0.27631593
0.25912377 0.057504013 -0.27666354
0.21348843 -0.012608044 -0.26360261
0.21346521 0.010861191 -0.2638768
0.1918706 -0.059921015 -0.23952627
0.21550357 -0.059916735 -0.23980474
0.23796234 -0.059717506 -0.25274765
0.16792499 -0.036232285 -0.24369907
0.19129066 -0.036206592 -0.24706006
0.21417916 -0.03614188 -0.25544572
0.14436805 -0.012608044 -0.24260283
0.16766545 -0.012607989 -0.24744499
0.19100057 -0.012607989 -0.25082839
0.14440705 0.011029799 -0.24196947
0.16769211 0.010990615 -0.24706006
0.19100413 0.010961889 -0.25078237
0.16795063 0.03464656 -0.24332845
0.19130963 0.034592904 -0.24681365
0.21412987 0.034451071 -0.25602758
0.21548393 0.058349818 -0.24003673
0.23801339 0.058068968 -0.25219512
0.14548945 -0.08392708 -0.22439384
0.16915856 -0.08389239 -0.22589362
0.19280353 -0.083857432 -0.2274071
0.21664059 -0.08388117 -0.22637749
0.24075636 -0.083970763 -0.2225014
0.12161542 -0.06012518 -0.22626817
0.14497973 -0.060026594 -0.23267043
0.16843517 -0.059970118 -0.2363348
0.098066941 -0.036401596 -0.22171891
0.12124446 -0.036313526 -0.23315227
0.14459662 -0.036269408 -0.23889148
0.097869083 -0.012607989 -0.22600269
0.1210103 -0.012607881 -0.23749757
0.097907305 0.011159115 -0.22517502
0.12104456 0.011069038 -0.23686182
0.098050311 0.034973808 -0.22207904
0.12123777 0.034801293 -0.23327661
0.14460519 0.034717072 -0.23875213
0.12159775 0.058660321 -0.226596
0.14495103 0.058509216 -0.23313677
0.16843624 0.058435723 -0.23631918
0.19190399 0.058371663 -0.23909283
0.14553663 0.082507797 -0.22362769
0.16911966 0.082420647 -0.22645533
0.19282395 0.08239951 -0.2271421
0.21660885 0.08241149 -0.2267518
0.24076647 0.082545735 -0.22239196
0.14652883 -0.10821979 -0.20751643
0.17005476 -0.10805227 -0.21295798
0.19405288 -0.10810706 -0.21117783
0.21814138 -0.10818473 -0.20865369
0.098850742 -0.08438082 -0.20474899
0.12221734 -0.084141701 -0.2150979
0.26477903 -0.084024958 -0.2201525
0.074912474 -0.060450852 -0.20511305
0.098331377 -0.060283381 -0.215994
0.074716672 -0.036490265 -0.21020031
0.074562058 -0.012607935 -0.21421707
0.074594155 0.011249895 -0.2133832
0.074693613 0.035147347 -0.21079957
0.074953295 0.059180997 -0.20405257
0.098360404 0.058919549 -0.21536517
0.098852217 0.083090045 -0.20471752
0.122247 0.082787402 -0.21454763
0.26488888 0.082648546 -0.21905518
0.1465366 0.10691156 -0.20739007
0.17011259 0.10672951 -0.21212339
0.19403347 0.10675612 -0.21142995
0.21817613 0.10687882 -0.20824325
0.14785841 -0.13295378 -0.18592656
0.17164712 -0.13279785 -0.18997467
0.19550811 -0.13270941 -0.19227421
0.2201432 -0.13298886 -0.18501318
0.099469692 -0.1087176 -0.1913482
0.12306036 -0.10846802 -0.19945347
0.24270219 -0.10840694 -0.20143747
0.26805031 -0.10883726 -0.18746376
0.075327493 -0.084621347 -0.19433081
0.29144657 -0.084638149 -0.19359779
0.051476359 -0.060693551 -0.18935132
0.051258795 -0.036596328 -0.19641697
0.051100299 -0.012607881 -0.20156443
0.051135965 0.011349781 -0.20040607
0.051224023 0.035351507 -0.19754648
0.051514275 0.05954878 -0.18811989
0.075307861 0.083394147 -0.19484079
0.29146719 0.083438314 -0.19340646
0.09945938 0.10752053 -0.19157171
0.12301844 0.10718726 -0.20023143
0.24275935 0.10716461 -0.20081866
0.26813042 0.10770951 -0.18666339
0.14778741 0.13175367 -0.18707979
0.17165597 0.13162588 -0.18984687
0.19554248 0.13153438 -0.19182718
0.22017172 0.13186467 -0.18467641
0.10033616 -0.13346703 -0.17258883
0.12404431 -0.13313584 -0.18119335
0.24533725 -0.13345462 -0.172912
0.075864695 -0.10905557 -0.18037367
0.051904537 -0.085057475 -0.17544603
0.027940668 -0.061031524 -0.1673938
0.027775191 -0.036764611 -0.17455888
0.027660593 -0.012608044 -0.1795212
0.027687348 0.01151942 -0.17836249
0.027745023 0.035685148 -0.17586529
0.051867299 0.083954118 -0.17665529
0.075940251 0.108027 -0.17841089
0.10036527 0.13245216 -0.17195857
0.12411536 0.13208644 -0.17987502
0.2453104 0.13239455 -0.17320263
0.12555751 -0.15853846 -0.15311193
0.14950322 -0.15825641 -0.15921831
0.17379829 -0.15827002 -0.15892482
0.19828755 -0.15839733 -0.1561681
0.076908961 -0.13421176 -0.15324271
0.27156994 -0.13424824 -0.1522938
0.052404225 -0.10970692 -0.15921831
0.29509729 -0.10969142 -0.15972328
0.028244808 -0.085547589 -0.15422404
0.32014671 -0.085576311 -0.15298092
0.0039618313 -0.036936257 -0.15226078
0.0038860999 -0.012607935 -0.15717983
0.003904447 0.011691661 -0.15598834
0.003936898 0.036023669 -0.15388048
0.027966134 0.060052924 -0.166291
0.028208204 0.084595978 -0.15580869
0.31999186 0.084641829 -0.15432191
0.052452922 0.10882663 -0.15763676
0.29511487 0.1087526 -0.15956032
0.076904558 0.1333113 -0.15335727
0.27150115 0.13332854 -0.15298092
0.12552932 0.15761627 -0.15363538
0.14957449 0.15737769 -0.15806079
0.17367978 0.15723895 -0.16063535
0.19836296 0.15753253 -0.15518808
0.10196474 -0.15926759 -0.13732898
0.22344989 -0.15886874 -0.14596343
0.053191826 -0.13496625 -0.13364017
0.028625064 -0.1103678 -0.13775861
0.0041206032 -0.06142332 -0.1419487
0.0041429326 0.060648613 -0.14049828
0.028662845 0.10965466 -0.13612247
0.05316174 0.13417679 -0.13461709
0.10187094 0.15838538 -0.13935995
0.22334138 0.15796058 -0.14724469
0.17675334 -0.18484531 -0.11627281
0.078137003 -0.16000608 -0.12133777
0.24972731 -0.1598191 -0.12538791
0.0044076294 -0.086261533 -0.1233058
-0.020069959 -0.037232772 -0.11374247
-0.020124057 -0.012607989 -0.1207701
-0.020110812 0.01197598 -0.11904967
-0.020086085 0.036609434 -0.11583734
0.0043689087 0.085519396 -0.12582099
0.078115158 0.15932593 -0.12190485
0.24960437 0.15906659 -0.12671936
0.177053 0.18450113 -0.11194754
0.12841858 -0.18572126 -0.10001731
0.1526493 -0.18528405 -0.108132
0.20232782 -0.18552366 -0.10368347
0.029496662 -0.13626033 -0.10001731
0.004787799 -0.11157316 -0.098612666
-0.019988624 -0.062020306 -0.10317707
-0.019976664 0.061546393 -0.10162318
0.0048198774 0.11117864 -0.096529365
0.029456452 0.13569453 -0.1017586
0.12823012 0.1850204 -0.10351455
0.15267108 0.18475787 -0.10777855
0.20219538 0.18490414 -0.10540342
0.10406402 -0.18615977 -0.091878414
0.054510735 -0.16141619 -0.09080708
0.30229554 -0.13653305 -0.092931986
-0.019837888 -0.08717861 -0.083595753
-0.044694781 -0.012608044 -0.081595302
-0.044694781 0.012277861 -0.079832196
-0.044694781 0.037217587 -0.076334834
-0.019856157 0.086746484 -0.085968971
0.3028236 0.13632853 -0.088032007
0.054519124 0.16101636 -0.090535045
0.10420705 0.1859279 -0.088781595
0.28016213 -0.16254193 -0.066435575
0.0054031275 -0.13785276 -0.058645964
-0.019643154 -0.11281445 -0.058299065
-0.044694781 -0.06263198 -0.06344533
-0.044694781 -0.037536602 -0.074273705
-0.044694781 0.06246683 -0.061766386
0.0053833723 0.13762641 -0.059929609
0.2795825 0.1620028 -0.072227359
0.081278846 -0.18897106 -0.039710164
0.030732028 -0.16346166 -0.046524405
-0.044694781 -0.088118449 -0.042901754
-0.069876269 -0.012607935 -0.04142952
-0.069890186 0.012587384 -0.039622188
-0.044694781 0.088004626 -0.045107603
-0.019624971 0.11274111 -0.055936933
0.03068845 0.16328621 -0.048411131
0.081150606 0.18874449 -0.043041825
-0.070020318 -0.06325905 -0.022717595
-0.069934726 -0.037848022 -0.033836246
-0.069919273 0.037841022 -0.035843611
-0.019319041 -0.1394866 -0.016195297
-0.044694781 -0.11408798 -0.016942978
-0.070034251 0.063410521 -0.020907521
-0.070170574 0.089295231 -0.003198266
-0.044694781 0.11434352 -0.014306664
-0.019325206 0.13960944 -0.016996384
0.0062264241 0.16561632 -0.0051714182
0.0062902607 -0.16556302 -0.0010253191
-0.070186198 -0.089082241 -0.0011689663
-0.095813259 -0.03816719 0.0076416731
-0.095691442 -0.012607935 -0.00027024746
-0.095719978 0.01290471 0.0015827417
-0.095782958 0.038480282 0.0056736469
0.057489358 0.19176036 0.0059263706
0.057819955 -0.19200872 0.016662955
-0.044694781 -0.1411638 0.027377725
-0.070391178 -0.11539355 0.02545929
-0.095988527 -0.06390167 0.019025803
-0.096018791 0.064378053 0.020991564
-0.070413977 0.11598798 0.028420091
-0.044694781 0.14164554 0.027085304
-0.018842112 -0.16772392 0.04575932
-0.09633702 -0.090071402 0.041661263
-0.12235494 -0.038494706 0.0501827
-0.12216496 -0.012608044 0.041956306
-0.12220842 0.013229896 0.043838382
-0.12231046 0.039135855 0.048256516
-0.096308373 0.090619229 0.039800048
-0.018874655 0.16813283 0.041532278
-0.09675771 -0.1167338 0.068985701
-0.12262464 -0.064561196 0.061860919
-0.12267336 0.065370686 0.063970923
0.033538781 -0.19515292 0.075011849
-0.070750356 -0.14288588 0.072118044
-0.12317275 -0.091085874 0.085594893
-0.14932159 -0.012608044 0.08525455
-0.14938104 0.013563591 0.087185502
-0.12313432 0.091978118 0.083930731
-0.096807957 0.11767509 0.072249413
-0.070752241 0.14373671 0.072362185
0.033542693 0.19602534 0.075181007
-0.044694781 -0.16994683 0.093885064
-0.14995459 -0.06523791 0.10581195
-0.14958557 -0.038830787 0.093827963
-0.14952707 0.039808121 0.091927528
-0.044694781 0.1708035 0.09109199
-0.097513765 -0.14465542 0.11809266
-0.12382049 -0.1181089 0.11364281
-0.15002364 0.06638857 0.1080538
-0.12390365 0.11940687 0.11724401
-0.097525939 0.14588542 0.11888373
0.0083916187 -0.19841038 0.13546193
-0.1507208 -0.092127442 0.13069487
-0.17753237 -0.039175536 0.13862121
-0.17718843 -0.012607989 0.12968493
-0.17726545 0.013906066 0.13168609
-0.17746103 0.040498544 0.13676786
-0.15067595 0.093373165 0.12923825
-0.071289375 0.17355415 0.142138
-0.071299165 -0.17223436 0.14340985
-0.15164535 -0.11955857 0.16072094
-0.17800587 -0.065932401 0.15092278
-0.17809825 0.067434095 0.15332294
0.0085764378 0.20047687 0.14746642
-0.12501377 -0.14647299 0.16531348
-0.17901066 -0.093197525 0.17702818
-0.2057946 -0.012608044 0.17531276
-0.20588858 0.01425759 0.17734742
-0.17896152 0.09480539 0.17575133
-0.15172942 0.12118537 0.16345119
-0.12504584 0.14809407 0.16670156
-0.098688528 -0.17458919 0.19439602
-0.20622393 -0.039529447 0.18460786
-0.20614067 0.041207232 0.18280494
-0.098693803 0.17638858 0.19473863
-0.15328138 -0.14834124 0.21385241
-0.18024629 -0.12104917 0.20913053
-0.2068074 -0.066645533 0.19724023
-0.2069259 0.068507642 0.19980586
-0.18031517 0.12301252 0.2109201
-0.20807131 -0.094296217 0.22460473
-0.23569043 -0.039892949 0.23183668
-0.23516823 -0.012607989 0.22214592
-0.23528083 0.014618547 0.22423553
-0.23559619 0.041935213 0.23008764
-0.20802303 0.096277565 0.22355914
-0.15334354 0.15036517 0.21587121
-0.12689814 -0.17701469 0.24690902
-0.23638968 -0.067378007 0.24481332
-0.23653732 0.06961029 0.24755287
-0.12694517 0.17930956 0.24894512
-0.18234918 -0.15026239 0.26376534
-0.20965575 -0.12258188 0.25890899
-0.20969246 0.12489026 0.25970352
-0.18245253 0.1527012 0.26645017
-0.2379353 -0.095425367 0.27349639
-0.26596373 -0.040266588 0.28035879
-0.26534271 -0.012607935 0.27027488
-0.26547492 0.014989584 0.27242196
-0.26585954 0.042683303 0.27866709
-0.23789217 0.097790487 0.27269578
-0.1559654 -0.1795139 0.3010186
-0.26678491 -0.06813065 0.29369366
-0.26696491 0.070743293 0.29661596
-0.15608348 0.18232213 0.30485332
-0.21225165 -0.15223876 0.31511152
-0.23990852 -0.12415865 0.31011486
-0.26863778 -0.096586496 0.32378042
-0.29634872 -0.012607935 0.31971097
-0.29650161 0.015370593 0.32191789
-0.26860309 0.09934628 0.32321703
-0.23989463 0.12682049 0.30985677
-0.21240819 0.15510535 0.31850052
-0.29707584 -0.04065036 0.33020592
-0.29696441 0.043451827 0.32859743
-0.18593004 -0.1820903 0.35679901
-0.2980271 -0.068904109 0.34393597
-0.29824281 0.071907945 0.34705007
-0.24302521 -0.15427257 0.36795354
-0.27104142 -0.12578128 0.36281037
-0.30021197 -0.097780362 0.37547243
-0.32822233 -0.012608044 0.37053025
-0.32839704 0.015762277 0.3727994
-0.30019191 0.10094641 0.37518263
-0.27095693 0.12880592 0.36143827
-0.24324796 0.15758049 0.37208724
-0.18615119 0.18543096 0.36254478
-0.33015209 -0.069699459 0.39559793
-0.32906511 -0.041045029 0.38147819
-0.32894638 0.044242244 0.3799355
-0.21683425 -0.18474749 0.41432798
-0.33040729 0.073105924 0.3989135
-0.30291659 0.13084857 0.41451013
-0.27470857 -0.15636654 0.42235768
-0.30309492 -0.12745257 0.41708422
-0.33269855 -0.099009179 0.4286778
-0.36100245 -0.012607935 0.42281485
-0.36119813 0.01616513 0.42512584
-0.36184308 0.045055315 0.43274236
-0.3326968 0.10259277 0.42865503
-0.27501166 0.16012962 0.42727923
-0.21719351 0.18864048 0.42210603
-0.36322138 -0.070521906 0.44901919
-0.36196771 -0.041451022 0.43421412
-0.36349455 0.07433746 0.452245
-0.33581313 0.13295117 0.46913731
-0.24925476 -0.1879451 0.48355913
-0.30751243 -0.15861771 0.48084509
-0.33610752 -0.12917313 0.47296154
-0.36613417 -0.10027334 0.48341727
-0.39472446 -0.012607881 0.47658169
-0.39494631 0.016579632 0.47898304
-0.39569435 0.045891911 0.48708105
-0.36615816 0.1042878 0.48370087
-0.30774137 0.16275647 0.48414969
-0.24925856 0.19195573 0.48362994
-0.39729053 -0.071373887 0.50435996
-0.39582339 -0.041868616 0.48847759
-0.39754876 0.075605571 0.50715542
-0.34144998 -0.16098565 0.54236221
-0.37012428 -0.13094598 0.5305388
-0.40056497 -0.10157549 0.53980684
-0.42943385 -0.012607989 0.53194308
-0.42967883 0.017006222 0.53439116
-0.40061665 0.10603264 0.54036641
-0.36981511 0.13517392 0.52688718
-0.28316557 -0.19146116 0.55968189
-0.43067405 -0.042298675 0.54433584
-0.43054235 0.046753217 0.54302001
-0.34148186 0.16546434 0.54277658
-0.28239626 0.19538072 0.54719043
-0.43237707 -0.072251402 0.56135345
-0.43261102 0.076911084 0.56369138
-0.40519184 -0.13277374 0.58989429
-0.46516982 -0.012607881 0.58892107
-0.46544421 0.017445438 0.59146714
-0.4049108 0.13748197 0.58685184
-0.37650639 -0.16343148 0.60590744
-0.43603161 -0.1029164 0.59787202
-0.4665643 -0.042741522 0.60186052
-0.46643174 0.047640216 0.60063052
-0.43612194 0.10783108 0.59877419
-0.37628067 0.16825688 0.60324216
-0.46853003 -0.07315585 0.62010026
-0.46872678 0.078255996 0.62192607
-0.31846419 -0.1951208 0.63892007
-0.44135955 -0.13465868 0.65111208
-0.5019809 -0.012607881 0.64761376
-0.50228381 0.017897882 0.65023685
-0.44112009 0.13986336 0.64871907
-0.31845176 0.20031404 0.63874078
-0.47258657 -0.10429903 0.65774012
-0.50354135 -0.043197758 0.66112685
-0.50340992 0.048553985 0.65998864
-0.47272024 0.10968507 0.65898037
-0.41218844 0.17113873 0.66563463
-0.41273791 -0.16595919 0.67158294
-0.50579333 -0.074087776 0.68062997
-0.50594425 0.079641938 0.68193698
-0.35523558 -0.19893247 0.72144198
-0.4786801 -0.13660377 0.71428108
-0.51027513 -0.10572399 0.71944284
-0.5416553 -0.043668084 0.72221589
-0.53991979 -0.012607881 0.70812535
-0.54024959 0.018364087 0.71080303
-0.54152715 0.049496159 0.72117567
-0.51046282 0.11159673 0.72106886
-0.47849688 0.14232133 0.71258092
-0.45020461 -0.16857331 0.73949695
-0.44975543 0.17434299 0.73500848
-0.35643911 0.20561317 0.73707676
-0.54422498 -0.075049356 0.74307895
-0.54431462 0.081070803 0.74380684
-0.57903254 -0.012607989 0.77048755
-0.57939744 0.018845037 0.77327633
-0.51709855 0.14485994 0.77853584
-0.51720941 -0.13861185 0.77949619
-0.54915696 -0.10719459 0.78312159
-0.58095938 -0.044153042 0.7852118
-0.58083695 0.050467484 0.78427649
-0.54940426 0.11356942 0.78512931
-0.48897082 -0.17127804 0.80976677
-0.58387417 -0.07604073 0.80748439
-0.58389229 0.082544543 0.80762362
-0.48871583 0.17768677 0.80740094
0 0 0 1 0 0 0 1 0 0 0 1 0 0 0 0 0 521 1 0 0
