ply
format ascii 1.0
comment PCL generated
element vertex 171
property float x
property float y
property float z
element camera 1
property float view_px
property float view_py
property float view_pz
property float x_axisx
property float x_axisy
property float x_axisz
property float y_axisx
property float y_axisy
property float y_axisz
property float z_axisx
property float z_axisy
property float z_axisz
property float focal
property float scalex
property float scaley
property float centerx
property float centery
property int viewportx
property int viewporty
property float k1
property float k2
end_header
-0.30657732 -0.39409456 -0.55579007
-0.13905245 -0.41106421 -0.6035586
0.06431222 -0.40134922 -0.62971771
0.27287126 -0.39500007 -0.60847968
0.44118488 -0.36857057 -0.55936754
-0.31854379 -0.19155252 -0.56604081
-0.14474025 -0.19686152 -0.6329627
0.064956605 -0.19823861 -0.62907296
0.27178538 -0.19726734 -0.60358214
0.4347074 -0.20376585 -0.55424416
-0.32128412 0.019763894 -0.56791234
-0.14732704 0.01703532 -0.63761228
0.066342533 0.018915609 -0.62718642
0.27540022 0.017366506 -0.60273147
0.42144132 0.0044001564 -0.54532826
-0.30271292 0.20809555 -0.55279738
-0.14896652 0.24025691 -0.59954357
0.070371032 0.23350775 -0.6135695
0.27157342 0.22806785 -0.57018137
0.41139853 0.15354016 -0.53861761
-0.30428249 0.3386797 -0.54168534
-0.12952086 0.33820233 -0.6017071
0.044141948 0.33892965 -0.61214364
0.22070616 0.33761689 -0.56925744
-0.50385374 -0.37956131 -0.34654444
-0.38066548 -0.4133583 -0.43450212
-0.20676982 -0.40015408 -0.49982339
0.36601001 -0.33583286 -0.51580417
0.51722407 -0.35247582 -0.46908516
-0.50545138 -0.19287613 -0.36994591
-0.38687539 -0.19915706 -0.44023758
-0.17558816 -0.1887953 -0.49157
0.34526932 -0.18315752 -0.50205266
0.52598751 -0.20119002 -0.44484913
0.63217747 -0.19008392 -0.35847908
-0.5164535 0.027318954 -0.37249109
-0.39325687 0.017332561 -0.444363
-0.16444018 0.022647806 -0.48324937
-0.018488675 0.11229492 -0.51444274
0.29930121 0.031236872 -0.49888885
0.51329273 0.017889597 -0.43900818
0.62979841 0.002697207 -0.34978119
-0.50360537 0.21533853 -0.35677749
-0.38125879 0.24495828 -0.43352196
-0.13901407 0.23399612 -0.39708579
0.067963719 0.25429276 -0.4184458
0.2829954 0.24898979 -0.41854176
0.47598547 0.23538348 -0.41143265
0.61438942 0.14490464 -0.34319931
-0.50332981 0.33933917 -0.36475712
-0.37627098 0.34035736 -0.50551057
0.37079328 0.3385269 -0.50992012
0.50429237 0.33776632 -0.39932409
-0.91736424 -0.33964002 -0.20757522
-0.78698117 -0.3889766 -0.19539919
-0.57506472 -0.42498344 -0.2151791
-0.44456658 -0.40733954 -0.25885057
0.74651015 -0.33322939 -0.13865726
-0.93414867 -0.19698548 -0.21122739
-0.81661832 -0.22428897 -0.17623721
-0.57970089 -0.19567719 -0.20585443
-0.43181419 -0.19431278 -0.23771805
0.59673643 -0.13617949 -0.29869208
0.70354307 -0.17749856 -0.20058793
-0.92077619 -0.031954553 -0.21548927
-0.80112755 0.03186401 -0.18726477
-0.61078531 0.0062351078 -0.23504511
-0.42364731 0.016778521 -0.21838792
0.58272815 0.020185865 -0.29672521
0.70145166 0.01139918 -0.20259787
-0.71533334 0.14046472 -0.17472975
-0.565494 0.23913282 -0.20716402
-0.34905511 0.23198789 -0.19132371
-0.13964412 0.26133507 -0.1987851
0.070223808 0.274174 -0.20241585
0.28280681 0.27848342 -0.20034841
0.49796063 0.27621037 -0.20852435
0.64559245 0.22841179 -0.19994944
-0.58144909 0.33841354 -0.25033343
0.57196724 0.33791167 -0.29983357
0.63842916 0.33813468 -0.18556866
-0.71975982 -0.35520378 -0.086223975
-0.57479852 -0.40118393 -0.0049761534
0.76270151 -0.32004595 -0.041434139
-0.7471025 -0.29117396 -0.091702849
-0.57142329 -0.20072173 0.0047446787
0.75539076 -0.19643584 0.016713083
-0.74776495 0.061003335 -0.085665911
-0.58437538 0.027486295 0.004037559
0.7415123 0.015605196 0.016645044
-0.69740623 0.14280388 -0.081570044
-0.56190598 0.22873875 0.010086626
-0.3639963 0.25280973 0.013253182
-0.14277872 0.2664063 0.01219213
0.066152096 0.27680448 0.014530182
0.28186381 0.26883036 0.0097827613
0.49103969 0.26760507 0.010027558
0.67791021 0.23683861 0.02348423
-0.53508675 0.33820149 0.02199015
0.64710224 0.33854803 0.0070269108
-0.52455264 -0.37344244 0.20759314
-0.45539603 -0.36839956 0.29039037
0.7476145 -0.31299016 0.14897329
-0.53763616 -0.19622613 0.22487706
-0.45377287 -0.1793772 0.30219066
0.59239256 -0.14398621 0.31718326
0.71936131 -0.19051251 0.22561264
-0.54375124 0.02513127 0.22482818
-0.44889334 0.013234787 0.27711171
0.57844436 0.043681689 0.30276632
0.71145308 0.01316417 0.22997051
-0.52493799 0.22732821 0.22399974
-0.35820949 0.25360385 0.22437447
-0.14348531 0.26278681 0.22749096
0.066308141 0.26874813 0.22381186
0.27995658 0.25439069 0.22663063
0.477916 0.24470222 0.21964526
0.67285645 0.23718843 0.22073984
-0.50755286 0.3378481 0.23398435
0.62383044 0.33792084 0.32002443
-0.48267776 -0.34272552 0.3690272
-0.40476465 -0.3740384 0.46166164
0.52993751 -0.3895362 0.49997324
0.61784816 -0.35978529 0.46374744
-0.49174958 -0.19127418 0.38053513
-0.4040665 -0.19401816 0.46980554
0.35897827 -0.16486338 0.53007239
0.53152293 -0.2033713 0.47164083
0.64503109 -0.19638823 0.40523434
-0.491961 0.020522334 0.37309903
-0.39783657 0.018034495 0.46764153
-0.24337389 0.030244507 0.53082544
0.33780664 0.034019992 0.51811361
0.52694213 0.01593896 0.46728623
0.6423074 0.024641991 0.41468632
-0.48243451 0.19815084 0.35967714
-0.3747493 0.23521549 0.44210947
-0.14427206 0.23885784 0.43261337
0.062242448 0.23633274 0.43685746
0.27153736 0.23487881 0.43476599
0.51184666 0.24098745 0.44833684
0.6355716 0.19723246 0.39185137
-0.47034568 0.33708829 0.33204818
-0.4282521 0.33807534 0.38581008
0.48905456 0.33717951 0.46619296
-0.31206477 -0.3772119 0.59227383
-0.14416608 -0.3892777 0.67066562
0.064501882 -0.40071753 0.70794761
0.27996367 -0.39383021 0.67771214
0.47157311 -0.39409813 0.60035121
-0.31711537 -0.20053276 0.60314572
-0.1495446 -0.19474044 0.68338889
0.065325618 -0.19147463 0.71009362
0.27603084 -0.19866611 0.67788476
0.4769212 -0.19940715 0.60832918
-0.31408328 0.017783619 0.59762651
-0.14810771 0.018742844 0.66825032
0.065952897 0.019221529 0.69969285
0.27311522 0.015953414 0.66889781
0.46853769 0.01049529 0.59943271
-0.29531989 0.20713466 0.57425791
-0.14426404 0.2290571 0.63650548
0.067649484 0.22449929 0.66585678
0.27781498 0.23016652 0.64397055
0.45089376 0.22022593 0.580235
-0.17859456 0.33727992 0.62176287
0.065165699 0.33937761 0.68217969
0.30349624 0.33853304 0.63096797
0.097442746 -0.33659056 0.75957227
0.21876663 -0.359083 0.75790155
0.084028542 -0.25125113 0.75952661
0 0 0 1 0 0 0 1 0 0 0 1 0 0 0 0 0 171 1 0 0
