ply
format ascii 1.0
comment PCL generated
element vertex 746
property float x
property float y
property float z
element camera 1
property float view_px
property float view_py
property float view_pz
property float x_axisx
property float x_axisy
property float x_axisz
property float y_axisx
property float y_axisy
property float y_axisz
property float z_axisx
property float z_axisy
property float z_axisz
property float focal
property float scalex
property float scaley
property float centerx
property float centery
property int viewportx
property int viewporty
property float k1
property float k2
end_header
0.22479999 0.069888383 -0.43383053
0.21314022 0.070194639 -0.42719844
0.2384516 0.070367232 -0.42346179
0.189529 0.070814729 -0.41377535
0.20138317 0.07050322 -0.42051789
0.20358217 0.058872018 -0.39854431
0.21548802 0.058607589 -0.40541348
0.22851694 0.058752801 -0.40164095
0.1655218 0.07144507 -0.40012699
0.1775758 0.071128719 -0.40697649
0.25377622 0.071380273 -0.40152907
0.17946735 0.05940726 -0.38463834
0.19157526 0.059138346 -0.39162394
0.14110857 0.072086111 -0.38624796
0.15336683 0.071764439 -0.39321342
0.20586875 0.046929363 -0.37569538
0.21837178 0.04683822 -0.37865552
0.16725647 0.059678365 -0.37759322
0.24391454 0.059620123 -0.37910846
0.11627891 0.072738081 -0.372132
0.12874666 0.072410837 -0.37921655
0.26952109 0.072420895 -0.37900034
0.18143117 0.047368161 -0.36144656
0.19370201 0.047147818 -0.36860129
0.14252004 0.060227465 -0.36332881
0.15494081 0.059951689 -0.37049493
0.20833236 0.034675878 -0.35107768
0.16905496 0.0475903 -0.35423025
0.23383 0.047547325 -0.35562846
0.11735608 0.060786221 -0.34881049
0.12999225 0.060505655 -0.35610095
0.25974125 0.06051157 -0.35594803
0.18355247 0.035014905 -0.33639544
0.19599566 0.034844566 -0.34377182
0.14398116 0.048040736 -0.33960298
0.15657192 0.047814496 -0.34695175
0.10460984 0.061069023 -0.34146383
0.17100012 0.035186626 -0.32896188
0.22371966 0.035184938 -0.32903361
0.11846878 0.048499037 -0.32472005
0.1312803 0.048268799 -0.33219746
0.24972153 0.048276022 -0.3319616
0.078782812 0.061642516 -0.32656315
0.091752678 0.061354544 -0.33404604
0.27601519 0.061428208 -0.33213317
0.19841412 0.022179823 -0.31759113
0.14556414 0.035534482 -0.31389856
0.15833782 0.035359781 -0.32146329
0.10554437 0.048731055 -0.31718397
0.052498929 0.062225934 -0.3114062
0.065698639 0.061932873 -0.31902158
0.17304939 0.022414654 -0.30234104
0.18578762 0.022296749 -0.3099997
0.21340376 0.022444576 -0.30040091
0.1326776 0.035710722 -0.30626708
0.23972124 0.035749052 -0.30460876
0.079352275 0.049201608 -0.3019045
0.092506215 0.048965413 -0.30957431
0.26606658 0.049025819 -0.30761355
0.03918197 0.062521629 -0.30372298
0.29275674 0.062371362 -0.30762821
0.14723137 0.02265352 -0.28682619
0.16019745 0.022533469 -0.29462177
0.10656018 0.036068074 -0.29079252
0.11967704 0.035888746 -0.29856056
0.066081308 0.049439833 -0.29416639
0.012190122 0.063120797 -0.28815776
0.025746195 0.06282004 -0.29597139
0.18817508 0.0091860201 -0.28180486
0.13414904 0.022774603 -0.27896065
0.22951812 0.022832029 -0.27523029
0.07997252 0.036431722 -0.27504724
0.093325868 0.036249015 -0.28295511
0.25618687 0.036329575 -0.27946943
0.03918197 0.04992377 -0.27845156
0.052691799 0.049680438 -0.28635168
0.28288507 0.049797438 -0.28255427
-0.0014880486 0.063424513 -0.28026628
0.30998418 0.063341744 -0.28241801
0.16218652 0.0093083372 -0.26591206
0.17523924 0.0092469528 -0.27389425
0.20292637 0.0092865145 -0.26874471
0.10762899 0.023020037 -0.26302397
0.12094887 0.022896811 -0.27102435
0.066498518 0.036615971 -0.26706767
0.011793869 0.050417326 -0.26242036
0.025549902 0.050169405 -0.27047217
-0.029216856 0.064039938 -0.26427603
-0.015289914 0.063731082 -0.27230358
0.14901489 0.0093702506 -0.25786525
0.094188422 0.023144405 -0.25494313
0.03918197 0.036989827 -0.25088286
0.052902229 0.036801927 -0.25901598
0.2731362 0.036927149 -0.25359172
-0.002087649 0.050667319 -0.25430274
0.30022079 0.050596673 -0.25659621
-0.043271139 0.064352095 -0.25616765
0.32771999 0.064340696 -0.25646377
0.17762297 -0.0043588234 -0.24292839
0.12231093 0.009495982 -0.24153501
0.13572377 0.0094327992 -0.24973732
0.21918377 0.0094874129 -0.24264354
0.066937439 0.023396652 -0.23855907
0.080625132 0.023269884 -0.24678838
0.24610439 0.023230847 -0.24932903
0.025335982 0.03717912 -0.24268305
-0.016096685 0.050919835 -0.24610293
-0.071767509 0.064984605 -0.23973471
-0.057454258 0.064667054 -0.24798495
0.15095696 -0.0043588416 -0.22633028
0.16435093 -0.0043588416 -0.23467147
0.19231987 -0.0043588416 -0.23285735
0.10877471 0.0095597105 -0.23325723
0.053123578 0.023524344 -0.23026174
-0.0027399771 0.037563089 -0.22605628
0.011362588 0.03737025 -0.23440796
0.29058975 0.037542425 -0.22695047
-0.044503629 0.051431511 -0.22948325
-0.030234873 0.051174637 -0.23782742
0.31807467 0.051419709 -0.22986859
-0.086213626 0.065305382 -0.23140031
0.34598705 0.065369584 -0.22973222
0.13743828 -0.0043588961 -0.21791977
0.081325084 0.0096888915 -0.2164793
0.095113158 0.0096239466 -0.22491097
0.23592713 0.0096943565 -0.2157622
0.03918197 0.023653381 -0.22187972
0.26318538 0.023641579 -0.22264862
-0.016973514 0.037757777 -0.21762705
-0.058905482 0.051691163 -0.22105348
-0.11550988 0.065955646 -0.21450597
-0.10079401 0.065629147 -0.22298831
0.12379374 -0.0043588961 -0.20943111
0.20875046 -0.0043588597 -0.20569694
0.067408413 0.0097543811 -0.20796895
0.01090824 0.023914937 -0.20489722
0.025110774 0.023783505 -0.21342796
-0.031340167 0.037954427 -0.20911086
-0.088114418 0.052217383 -0.20396465
-0.073441975 0.051953118 -0.21254492
0.33647144 0.052267764 -0.20232826
-0.13036445 0.066285506 -0.20593601
0.36481109 0.066430047 -0.20217925
0.15304765 -0.018592093 -0.19238144
0.1666812 -0.018525407 -0.20103693
0.18147096 -0.01858772 -0.19294155
0.096119963 -0.0043588597 -0.19221431
0.11002158 -0.0043588597 -0.200863
0.03918197 0.0098871384 -0.19071603
0.053361315 0.0098205237 -0.19937879
-0.0034276694 0.024047587 -0.19627821
0.2807827 0.024064854 -0.19516182
-0.060478896 0.038352899 -0.1918546
-0.045841239 0.038152747 -0.20052314
0.30857256 0.038176496 -0.1994949
-0.10292584 0.052484259 -0.1952951
-0.1453582 0.066618145 -0.19729346
0.13928571 -0.018659346 -0.18363589
0.082087085 -0.0043588597 -0.18348396
0.22568125 -0.0043588779 -0.17771691
0.024868559 0.0099546248 -0.18196309
0.25317755 0.0099075474 -0.18807369
-0.032506369 0.024316534 -0.17881209
-0.01789853 0.024181433 -0.18758631
-0.075255066 0.038555048 -0.18310398
-0.13297123 0.053025566 -0.17771697
-0.1178777 0.052753806 -0.18654352
-0.17577437 0.067293301 -0.17975348
-0.16049385 0.066953942 -0.18856919
0.11136752 -0.018795952 -0.16589409
0.12539296 -0.018727377 -0.17480713
0.053620074 -0.0043588597 -0.16576499
0.067921065 -0.0043588234 -0.17467082
0.010419106 0.010022566 -0.17312694
-0.047253557 0.024452977 -0.16994584
0.2989189 0.02450078 -0.1668399
-0.10523153 0.038965162 -0.16534328
-0.090171717 0.038759053 -0.17427021
0.32710665 0.038829878 -0.17120427
-0.14820993 0.05330018 -0.16879725
0.35543764 0.053142201 -0.17392898
-0.19119993 0.067635529 -0.17086196
0.38421497 0.067523018 -0.17378396
0.15532725 -0.033395141 -0.15536553
0.097207502 -0.018865217 -0.15689546
0.19811049 -0.018806845 -0.16447353
0.03918197 -0.0043588961 -0.15678245
-0.018895492 0.010160496 -0.15520883
-0.0041681379 0.010091249 -0.16421503
0.27096039 0.010127326 -0.15952361
-0.062141337 0.024590671 -0.16100341
-0.12043532 0.03917316 -0.15633947
-0.16359523 0.053577479 -0.15979189
-0.2224986 0.068330236 -0.15281302
-0.20677468 0.06798137 -0.1618765
0.14130136 -0.03353576 -0.14623022
0.17038772 -0.033515718 -0.14753807
0.082910731 -0.018935028 -0.14781886
0.024604905 -0.0043588416 -0.14771354
0.24313712 -0.0043588053 -0.14886183
-0.033764839 0.010230472 -0.14611596
-0.092348494 0.024870098 -0.142851
-0.077172101 0.024729747 -0.15197527
-0.13578576 0.039383136 -0.14724869
0.34622043 0.03950382 -0.14202201
-0.19481295 0.054139882 -0.14152777
-0.17912921 0.053857427 -0.15069956
0.37499726 0.054043803 -0.14464778
-0.23837617 0.068682827 -0.14365292
0.40422401 0.06864962 -0.14451569
0.12713851 -0.033677723 -0.13701475
0.053900145 -0.019076992 -0.12938279
0.068475708 -0.01900571 -0.13864553
0.21526974 -0.019032836 -0.13512367
0.0098868646 -0.0043588597 -0.13855684
-0.0049742088 -0.0043588234 -0.12931132
-0.048778258 0.010301207 -0.136935
0.28929973 0.010353988 -0.13008004
-0.10767151 0.02501186 -0.13364714
0.31762153 0.024950601 -0.13762665
-0.16693512 0.039809134 -0.12880147
-0.15128496 0.039595034 -0.13806975
-0.2106508 0.054425355 -0.13225752
-0.25440717 0.069038458 -0.13441235
0.098396108 -0.033965882 -0.11829454
0.1128376 -0.03382105 -0.12770045
0.18728417 -0.033979334 -0.11742568
0.03918197 -0.019149017 -0.12002957
-0.019980401 -0.0043588597 -0.11997539
0.261141 -0.0043588234 -0.11910814
-0.07924518 0.010444587 -0.1183126
-0.063937359 0.010372435 -0.12767357
-0.12314381 0.025154985 -0.12435365
-0.1827395 0.040025499 -0.11943346
-0.22664395 0.054713566 -0.12289643
-0.27059504 0.069397509 -0.12508136
0.14355883 -0.049091764 -0.10433674
0.083811723 -0.034112055 -0.1088047
0.024319084 -0.019221749 -0.11058432
0.23297513 -0.019266015 -0.10483217
-0.035133861 -0.0043588234 -0.11054784
-0.094703488 0.010517285 -0.10885948
-0.15454605 0.025445465 -0.10548311
-0.1387676 0.025299452 -0.11496913
0.33691633 0.025414564 -0.10748833
-0.19869834 0.040243682 -0.10998231
0.36594018 0.04019909 -0.11191463
-0.24279472 0.055004679 -0.11344296
0.39518011 0.054974161 -0.11443341
-0.3034524 0.070126899 -0.10613376
-0.28694367 0.069760561 -0.11564958
0.42487022 0.069811948 -0.11431539
0.12909299 -0.049314324 -0.094699144
0.15910843 -0.049331263 -0.093966663
0.069082834 -0.034259703 -0.099211633
0.0093094856 -0.0192951 -0.10105503
-0.050437182 -0.0043588597 -0.10101813
-0.11031454 0.010590781 -0.09931314
0.30822074 0.01058773 -0.09970963
-0.17047966 0.025592819 -0.095912457
-0.2148149 0.04046417 -0.10043794
-0.27557704 0.055595264 -0.094263315
-0.25910404 0.05529834 -0.10390526
-0.3201268 0.070497192 -0.096514046
0.11448213 -0.049538895 -0.084974527
0.03918197 -0.034559425 -0.079746246
0.054206986 -0.034408908 -0.089522779
0.20472664 -0.034457896 -0.086340189
-0.021159213 -0.019444127 -0.081692457
-0.0058492273 -0.019369252 -0.091421783
-0.081500396 -0.0043588597 -0.081692576
-0.065891825 -0.0043588961 -0.091403186
0.2797212 -0.0043588597 -0.088394642
-0.14200309 0.010739916 -0.079943895
-0.12607983 0.010664931 -0.089681208
-0.18657157 0.025741592 -0.086246729
-0.24753207 0.040911794 -0.081053555
-0.23109284 0.040686984 -0.090789139
0.3862935 0.040916514 -0.080846727
-0.29221481 0.055895131 -0.084524989
0.41601634 0.055934712 -0.083241045
-0.33696601 0.070870742 -0.086807609
0.44618645 0.071012355 -0.083128393
0.099724829 -0.049765974 -0.075142622
0.024005603 -0.034711536 -0.06986171
-0.036622748 -0.019519802 -0.071865499
0.25125232 -0.019506693 -0.073562384
-0.097265206 -0.0043588597 -0.071884573
-0.15808609 0.010815553 -0.070108831
0.32775423 0.010829171 -0.068349004
-0.20282537 0.025892071 -0.076474965
0.35683188 0.025893558 -0.076380551
-0.26413769 0.041139107 -0.071210802
-0.30901819 0.056197684 -0.07469815
-0.35397416 0.071248136 -0.077003717
0.084818467 -0.049995326 -0.065211654
0.17630619 -0.050066859 -0.062112153
0.0086756572 -0.0348651 -0.059886813
-0.052241698 -0.019596167 -0.061949253
0.29890478 -0.0043588597 -0.056683779
-0.11318862 -0.0043588234 -0.061978042
-0.17433015 0.010891992 -0.06018436
-0.23582265 0.02619724 -0.056654871
-0.2192412 0.026043892 -0.066614747
-0.28090936 0.041368492 -0.061278224
-0.32599291 0.056503616 -0.064762592
-0.38850957 0.072014652 -0.057088256
-0.37115577 0.071629666 -0.067091465
0.13128746 -0.06576246 -0.047187567
0.054549299 -0.050460849 -0.045055151
0.069760606 -0.050226815 -0.055189371
-0.0068104267 -0.035020445 -0.049800515
0.22274205 -0.034952141 -0.05423373
-0.068019271 -0.019673295 -0.051922739
-0.12927303 -0.0043588961 -0.051971197
-0.19073969 0.010969264 -0.050149739
-0.25257364 0.026352219 -0.046584249
0.37739864 0.026388131 -0.044255614
-0.29785261 0.041600384 -0.051235259
0.40731484 0.04165772 -0.048752248
-0.36046031 0.057124559 -0.04459697
-0.34314007 0.056812637 -0.054726064
0.43753824 0.056926727 -0.051022172
-0.40604228 0.072403952 -0.046973526
0.46820194 0.072251879 -0.050925314
0.11633165 -0.066078596 -0.036922216
0.03918197 -0.050697967 -0.034787536
-0.022454977 -0.035177317 -0.039611161
-0.10005882 -0.019830054 -0.03156215
-0.083957478 -0.019751329 -0.04179424
0.27012831 -0.019755252 -0.041275918
-0.16193569 -0.0043587871 -0.031641185
-0.1455209 -0.0043588234 -0.041862667
-0.20731634 0.011047227 -0.040012896
0.34792751 0.011078383 -0.035968482
-0.26949391 0.026508726 -0.036420941
-0.31496692 0.041834489 -0.041099787
-0.37796009 0.057440039 -0.03435415
-0.42375243 0.072796814 -0.036764979
0.10122138 -0.066398256 -0.026540756
0.14754908 -0.066282928 -0.030286908
0.023655511 -0.050938174 -0.024383843
0.19408584 -0.050829999 -0.029069483
-0.054228842 -0.03549581 -0.018926322
-0.038260058 -0.035335675 -0.029326916
0.24135804 -0.035462912 -0.021064997
-0.11632501 -0.019909579 -0.021234632
-0.17851815 -0.0043588961 -0.021324456
0.31872025 -0.0043588597 -0.023935914
-0.24097979 0.011205694 -0.019436479
-0.22406262 0.011126134 -0.029772401
-0.28658754 0.026666757 -0.026153386
-0.34972578 0.04231007 -0.020505786
-0.33225825 0.042071171 -0.03085053
-0.39564034 0.057758607 -0.024005651
-0.44164482 0.073193856 -0.026451349
0.08595378 -0.066721216 -0.016051173
0.0079672113 -0.051180996 -0.013871729
-0.070363574 -0.035657618 -0.0084177852
-0.13276011 -0.019989938 -0.010790467
0.28963533 -0.020012159 -0.0079021454
-0.1952717 -0.0043588234 -0.010901451
-0.25807315 0.011286198 -0.0089837313
-0.30385715 0.026826531 -0.01578021
0.39864907 0.026899192 -0.011062682
-0.36737603 0.042551659 -0.010043979
0.42903394 0.042423368 -0.015599549
-0.41350162 0.058080226 -0.013559937
0.45978239 0.057952296 -0.017715156
-0.45972472 0.073595293 -0.016021073
0.49095362 0.073532835 -0.017645001
0.054936543 -0.067377128 0.0052489638
0.070526361 -0.067047663 -0.0054517984
0.1651479 -0.067341827 0.0041020513
-0.0078854822 -0.051426321 -0.0032494068
0.21249178 -0.051625203 0.0053616762
-0.086666234 -0.035820916 0.0021902919
-0.14936605 -0.020071167 -0.00023770332
-0.21219906 -0.0043588961 -0.00037014484
-0.27534419 0.011367428 0.0015777349
0.3687757 0.011336091 -0.0024973154
-0.33893719 0.027151126 0.0053001642
-0.32130724 0.026988011 -0.0052895546
-0.38520783 0.042795569 0.00051659346
-0.43155119 0.058405619 -0.002995491
-0.47799018 0.074000642 -0.00549227
0.03918197 -0.067713305 0.01616627
-0.023904845 -0.051673934 0.0074744821
-0.10314063 -0.035986137 0.012920082
0.26060718 -0.035991039 0.013240159
-0.16614443 -0.020153198 0.010415137
-0.22930291 -0.0043588597 0.010270953
0.33920217 -0.0043588597 0.0099208951
-0.29279569 0.011449677 0.01224941
-0.35675144 0.027315803 0.016000628
-0.40322602 0.043042056 0.011187553
-0.44978982 0.058734249 0.0076797605
0.48278141 0.059012543 0.016715109
0.10294522 -0.084062934 0.029442787
0.11845442 -0.083631285 0.01822871
0.023258336 -0.068053402 0.02721107
-0.056455642 -0.052177694 0.029285491
-0.04009407 -0.051924489 0.01832211
-0.11978895 -0.036152992 0.02376312
-0.18310001 -0.020236135 0.021189928
0.30980438 -0.020277821 0.026604295
-0.24658605 -0.0043588234 0.021023452
-0.31042871 0.011532578 0.02302283
-0.37475505 0.027482405 0.026823997
0.42061779 0.027427465 0.023252189
-0.42143589 0.043291267 0.021981001
0.4514901 0.043215156 0.0186854
-0.48684093 0.059401523 0.029348314
-0.46821794 0.059066143 0.018457115
0.087265976 -0.084498823 0.040768802
0.0071628168 -0.068397135 0.03837508
0.18340388 -0.068457417 0.040334165
-0.07299234 -0.05243355 0.040365934
0.23153955 -0.052448258 0.041002095
-0.13661307 -0.036321625 0.034710765
-0.20023462 -0.02031998 0.032078683
-0.26405287 -0.0043588961 0.031899989
-0.32824954 0.011616423 0.033920348
0.39033166 0.011602514 0.032110214
-0.3929469 0.027650677 0.037751198
-0.43983582 0.04354291 0.03287816
-0.50566471 0.059740718 0.040365875
0.071414433 -0.084939979 0.052230239
0.1357266 -0.084812745 0.048922837
-0.0091071315 -0.068744317 0.049649715
-0.08970695 -0.052692205 0.051565707
-0.1536175 -0.036492076 0.045785606
0.28052133 -0.036537431 0.048730373
-0.23505095 -0.020490214 0.054193914
-0.21754977 -0.020404551 0.043072224
-0.29954335 -0.0043588597 0.053989768
-0.28170329 -0.0043588234 0.042880952
0.3603816 -0.0043588234 0.044922948
-0.34625953 0.011701212 0.044933617
-0.41133198 0.027820725 0.048794568
-0.45843369 0.043797426 0.043901563
0.47471946 0.044034179 0.05415076
-0.52468693 0.060083326 0.051490664
0.5065766 0.060109433 0.052337348
0.055387408 -0.085386045 0.063818395
-0.025554784 -0.069095567 0.061057985
-0.10660168 -0.052953362 0.062875748
-0.17080325 -0.036664233 0.056968629
-0.25273988 -0.020576745 0.065434694
0.33066976 -0.020552635 0.062301993
-0.31757277 -0.0043588234 0.065206766
-0.36446172 0.011786873 0.056064367
-0.42991343 0.02799252 0.059955835
0.44334194 0.02797389 0.058747053
-0.49622604 0.044314623 0.066292763
-0.47722766 0.044054553 0.055032015
-0.54391658 0.060429927 0.06274581
0.03918197 -0.085836679 0.075524807
-0.042182475 -0.069450453 0.072580516
0.20232165 -0.069614694 0.077916682
-0.12368081 -0.053217646 0.07431972
0.25126135 -0.053300217 0.077894747
-0.18817532 -0.036838494 0.068282962
-0.2706196 -0.020664185 0.076796949
-0.3357963 -0.0043588597 0.076544583
-0.40145275 0.011960954 0.078675032
-0.38285697 0.011873369 0.067303658
0.41263005 0.011877981 0.067901969
-0.44869694 0.028166421 0.071247876
-0.51542681 0.044577233 0.077664196
-0.56335109 0.060779866 0.074111819
0.022795208 -0.086292692 0.087373078
0.15391558 -0.08631143 0.087860823
-0.058993943 -0.069809437 0.084241033
-0.14094675 -0.053484902 0.085888922
-0.20573574 -0.037014537 0.079719901
0.30113557 -0.037103068 0.085468411
-0.28869155 -0.020752534 0.088271081
-0.35421911 -0.0043588597 0.088015914
0.3822982 -0.0043588234 0.081151307
-0.42025018 0.012049484 0.090169728
-0.46768078 0.028341915 0.082651019
-0.53483886 0.044843003 0.089170039
0.49876028 0.044881709 0.09084785
-0.58299994 0.06113391 0.085612297
0.53121263 0.061245244 0.08922559
0.0062239766 -0.086753786 0.099354684
-0.075991906 -0.070172518 0.09603101
-0.15840253 -0.05375503 0.097585261
-0.24143261 -0.037372358 0.10295868
-0.22348624 -0.03719236 0.091270566
-0.30696213 -0.020841934 0.099881709
0.35226652 -0.020836961 0.099242568
-0.3728404 -0.0043588234 0.099601269
-0.43925002 0.012138776 0.10177851
-0.48687068 0.028519448 0.094177783
0.4668611 0.028539527 0.095483661
-0.55445981 0.045111313 0.10079032
-0.60286021 0.061491627 0.097227216
0.088850409 -0.10369574 0.10937697
0.10549133 -0.1038229 0.11212981
-0.010534596 -0.087219812 0.1114608
-0.093178786 -0.070539273 0.10794109
-0.17605135 -0.054028064 0.10941088
-0.2595768 -0.037554286 0.1147759
-0.32543308 -0.02093228 0.11161947
-0.39166772 -0.0043588597 0.11132467
-0.4584606 0.012229267 0.11352581
0.43571395 0.012163321 0.10496241
-0.50627285 0.028699048 0.10584158
-0.57429916 0.04538282 0.11254954
-0.62293857 0.061853256 0.10896975
0.072485931 -0.10427078 0.12182587
-0.027484149 -0.087691478 0.12371582
-0.11055907 -0.070910424 0.11999607
0.22193506 -0.070814483 0.11688143
-0.19389519 -0.054303963 0.12135667
0.27169579 -0.054183297 0.11612982
-0.27792037 -0.037738025 0.12671232
0.32248747 -0.03768893 0.12352097
-0.3441056 -0.021023568 0.12347513
-0.41069996 -0.0043588597 0.12316573
0.40498748 -0.0043588597 0.11864871
-0.47788021 0.012320555 0.12539101
-0.52588516 0.028880358 0.11762226
-0.59435415 0.045657162 0.12442696
-0.64324236 0.062219139 0.1208533
0.55672687 0.062421147 0.12741393
0.055930987 -0.10485297 0.13443118
-0.044627778 -0.088168584 0.13611138
0.17279509 -0.087867044 0.12827712
-0.12813544 -0.071285859 0.13218719
-0.21193966 -0.054583207 0.13344741
-0.29646996 -0.037924018 0.13879341
-0.36298701 -0.021115873 0.13547379
0.37463716 -0.02113156 0.13751549
-0.42994526 -0.0043587871 0.13514918
-0.49751768 0.012413005 0.13739932
-0.54572004 0.029064097 0.12955588
0.49122736 0.029126011 0.1335746
-0.61463505 0.045934733 0.13644773
0.52366072 0.045759633 0.12886441
-0.66376793 0.062588699 0.13285762
0.03918197 -0.10544149 0.14717257
-0.061968304 -0.088650778 0.14863795
-0.1459102 -0.071665138 0.14450485
-0.23018703 -0.054865535 0.14567405
-0.31522745 -0.038112186 0.15100998
-0.38207892 -0.021209307 0.14760607
-0.44940218 -0.0043588234 0.14725459
-0.51737112 0.012506365 0.14952981
0.45962352 0.012458869 0.14334846
-0.56577545 0.029249907 0.14162207
-0.63513881 0.046215244 0.14859092
-0.68452662 0.062962897 0.14500743
0.022235632 -0.1060369 0.1600641
0.1237252 -0.10581071 0.1551677
-0.079510137 -0.089138888 0.16132122
-0.16388869 -0.072049104 0.15697467
0.24228323 -0.072059311 0.15730578
-0.24864078 -0.055151131 0.15803903
0.29287982 -0.05509837 0.1557579
-0.33419436 -0.038302138 0.16335225
0.3446157 -0.038295928 0.16294819
-0.40138248 -0.021303609 0.15986258
-0.46907678 -0.0043588597 0.15949517
0.42849496 -0.0043588597 0.15750676
-0.53744686 0.012600814 0.16179597
-0.58605498 0.029437713 0.15382332
-0.6558761 0.046498988 0.16088229
-0.70551461 0.063340873 0.15728205
0.0050882772 -0.10663994 0.17312038
-0.09725561 -0.089632332 0.17414027
0.19240606 -0.089483306 0.17026949
-0.18207231 -0.072437033 0.16957569
-0.26730433 -0.055439886 0.17054456
-0.35337812 -0.038494483 0.1758464
-0.42090592 -0.021399181 0.17226911
-0.48897561 -0.0043587871 0.17188549
-0.55775183 0.012696461 0.17421234
-0.60656607 0.029627953 0.16617352
0.5164988 0.029735222 0.17314422
-0.6768437 0.04678582 0.17330033
0.54946238 0.046669148 0.16824949
-0.72673965 0.063723095 0.16969532
0.58316946 0.063639648 0.16698438
-0.012263406 -0.10724959 0.1863203
-0.11520968 -0.090131991 0.18712175
-0.20046687 -0.072829999 0.18233418
-0.28618136 -0.055731945 0.18319309
-0.44065067 -0.0214957 0.18481624
0.39782229 -0.021436911 0.17718184
-0.50909668 -0.0043587871 0.18440413
-0.57828367 0.012792979 0.18675733
0.48440149 0.012764945 0.18312049
-0.62730557 0.02982001 0.17865157
-0.69805312 0.047076136 0.18587124
-0.74820995 0.06411007 0.18226159
-0.029823191 -0.10786661 0.19967842
0.14270219 -0.10787903 0.19994879
-0.13337538 -0.090637565 0.20025599
-0.21907493 -0.073227331 0.19524062
0.26340818 -0.07335148 0.19927335
-0.30527362 -0.0560272 0.19597507
0.31485659 -0.056047864 0.19686925
-0.37278056 -0.038689043 0.18848288
-0.46061781 -0.021593343 0.19749415
-0.52944982 -0.0043588961 0.19707739
0.45286375 -0.0043588234 0.19778848
-0.59904927 0.012890586 0.19944525
-0.64828092 0.030014247 0.19127142
-0.71950054 0.047369394 0.19857359
-0.76992124 0.06450101 0.19495928
0.073844336 -0.12567712 0.21005702
-0.23789877 -0.073629051 0.20828545
-0.32458857 -0.056326125 0.20891702
-0.3924031 -0.038885675 0.20125198
0.36756667 -0.03892573 0.20385051
-0.48081651 -0.021692149 0.21032977
-0.55003285 -0.0043588961 0.20988333
-0.62005287 0.012989393 0.21227837
-0.66949606 0.030210804 0.2040354
-0.74119395 0.047666103 0.21142149
0.57622093 0.047612615 0.20910275
0.61059809 0.064903714 0.20803809
0.056624573 -0.12645714 0.22453082
-0.047594845 -0.10849103 0.21319795
-0.15175545 -0.091148555 0.21353376
0.21279016 -0.091162935 0.21390676
-0.2569451 -0.074035823 0.22149587
-0.34412828 -0.056628387 0.22200942
-0.41225412 -0.039084777 0.21418059
-0.50124818 -0.021792047 0.22331333
0.42186517 -0.021753591 0.21830678
-0.57085609 -0.0043588961 0.22284925
0.5101009 0.013082606 0.22438002
-0.69095922 0.030409724 0.21695888
0.54270405 0.030366838 0.21416807
-0.065582804 -0.10912363 0.22689414
-0.17035571 -0.091666222 0.22698212
-0.27621645 -0.074447386 0.23486233
-0.36389673 -0.056934319 0.23525524
-0.43233275 -0.039285876 0.2272464
-0.52191687 -0.021893177 0.23644757
-0.5919171 -0.0043589324 0.23595273
-0.64130211 0.013089468 0.22527194
0.03918197 -0.12724778 0.23920465
-0.08378996 -0.10976338 0.24074483
0.16246909 -0.11003347 0.24659371
-0.18917918 -0.09218999 0.240592
-0.29571497 -0.074863456 0.24837494
0.2853553 -0.074694172 0.24287415
-0.38389552 -0.057243593 0.24864423
0.33767316 -0.057033781 0.23956084
-0.4526481 -0.039489549 0.24047732
0.39138553 -0.039579205 0.24629939
0.47813958 -0.0043588961 0.23956084
0.021512074 -0.12804817 0.25405681
-0.10222086 -0.11041097 0.25476587
-0.2082285 -0.092719719 0.25435328
0.23399597 -0.092910685 0.25931394
-0.47320184 -0.039695658 0.25386345
-0.54282343 -0.021995433 0.24972212
0.44681856 -0.022082146 0.26099813
0.56990153 0.031022456 0.25675356
0.60398442 0.048591342 0.25148225
0.63906252 0.066215277 0.25063407
0.0036103167 -0.12885964 0.26911688
0.092364833 -0.12845218 0.26155579
-0.12089317 -0.11107567 0.2691561
-0.22751048 -0.093256339 0.26829469
-0.31544837 -0.075284898 0.26206172
-0.40413344 -0.057556678 0.26220465
-0.4939951 -0.039903983 0.26739466
0.53676891 0.013412104 0.26718605
-0.014527597 -0.12968121 0.28436255
-0.13981226 -0.11175536 0.2838732
-0.24702808 -0.093799502 0.28240621
-0.33541906 -0.075711422 0.27591324
-0.4246124 -0.057873573 0.27592647
0.36137521 -0.058057714 0.28389966
0.50437909 -0.0043588234 0.28293467
0.18318731 -0.11236291 0.2970258
-0.26678389 -0.094348796 0.29667807
-0.35562921 -0.076142706 0.28991902
0.30817354 -0.076089941 0.28820562
0.41612241 -0.040257957 0.29038441
0.63281697 0.049608015 0.29550207
0.66862577 0.067577571 0.29487455
-0.032906882 -0.13051429 0.29982424
-0.15897501 -0.11244453 0.29879248
0.25607198 -0.094729677 0.30657351
0.47273046 -0.022423334 0.30532026
0.59814578 0.031703312 0.30097783
-0.051532172 -0.1313587 0.31549299
0.11181945 -0.13147447 0.3176415
-0.17838523 -0.1131425 0.3139044
-0.28678578 -0.094905466 0.31113982
0.56446707 0.013754421 0.31165433
-0.07040783 -0.13221359 0.33135891
-0.19804645 -0.11384892 0.32919908
0.38601708 -0.059122246 0.32999635
0.53163588 -0.0043588961 0.32799006
0.3319158 -0.07754229 0.33537257
0.44183141 -0.040963396 0.33620191
0.66277838 0.050664339 0.34124517
0.6993528 0.068993427 0.34085655
-0.089540087 -0.13308099 0.34745407
0.20489573 -0.11483473 0.35054243
0.27907541 -0.096625581 0.3558296
0.49966234 -0.022778109 0.3513962
0.5932532 0.014110208 0.35786915
0.62749505 0.032410715 0.34692371
0.41165569 -0.06022992 0.37795794
0.55996722 -0.0043588234 0.3748126
0.35663748 -0.079054259 0.38447487
0.46857107 -0.041697085 0.38385618
0.6580224 0.033146691 0.3947227
0.69393224 0.051762644 0.3888005
0.73131776 0.070466653 0.38869941
0.22762108 -0.11742234 0.40656614
0.52767301 -0.023146968 0.3993181
0.62319285 0.014480195 0.405936
0.30327344 -0.098677263 0.40913367
0.43835527 -0.061383598 0.4279145
0.58944416 -0.0043588597 0.42353785
0.3824043 -0.080630541 0.43566382
0.49640173 -0.042460516 0.43344462
0.7263968 0.052909024 0.43844318
0.76458865 0.071999758 0.43848836
0.5568254 -0.023530789 0.44918334
0.6543566 0.014865323 0.45596814
0.68979269 0.033912301 0.44445896
0.32858807 -0.10082757 0.46500063
0.46617812 -0.062585607 0.47996211
0.62013453 -0.0043589324 0.47426879
0.5253973 -0.043256119 0.4851191
0.76026893 0.054107692 0.49034452
0.79925138 0.073596925 0.49036002
0.5871973 -0.023930807 0.50114477
0.72289163 0.034710191 0.49628413
0.68682122 0.015266574 0.50808871
0.65211087 -0.0043588961 0.5271157
0.75740004 0.035542142 0.55031645
0.79558444 0.055357166 0.54444838
0.83540022 0.075263008 0.54446483
0 0 0 1 0 0 0 1 0 0 0 1 0 0 0 0 0 746 1 0 0
