ply
format ascii 1.0
comment PCL generated
element vertex 1373
property float x
property float y
property float z
element camera 0
property float view_px
property float view_py
property float view_pz
property float x_axisx
property float x_axisy
property float x_axisz
property float y_axisx
property float y_axisy
property float y_axisz
property float z_axisx
property float z_axisy
property float z_axisz
property float focal
property float scalex
property float scaley
property float centerx
property float centery
property int viewportx
property int viewporty
property float k1
property float k2
end_header
0.1276167 0.27654219 -0.74830472
0.15041311 0.27667883 -0.74576974
0.17324807 0.276815 -0.74324381
-0.16750297 0.29951006 -0.74362028
-0.1446508 0.29935372 -0.74615908
-0.12183853 0.29919851 -0.74868
-0.099064708 0.29904273 -0.75121009
-0.076330394 0.29888794 -0.75372231
-0.053634852 0.29873362 -0.75623035
-0.030977793 0.29857859 -0.75874746
0.036819223 0.29858023 -0.75872076
0.059456911 0.29873437 -0.75621688
0.082133248 0.29888868 -0.75370884
0.10484833 0.29904348 -0.7511965
0.12760277 0.29919925 -0.74866652
0.15039575 0.29935452 -0.74614549
0.17322849 0.29951093 -0.74360681
-0.1676231 0.32236058 -0.74166965
-0.1447427 0.32216775 -0.74445355
-0.12190538 0.3219752 -0.74723232
-0.099111065 0.32178307 -0.75000584
-0.076360002 0.3215923 -0.75276065
-0.053651169 0.32140073 -0.75552368
-0.03098496 0.32120979 -0.75828147
0.036822706 0.32121065 -0.75826824
0.059467789 0.32140175 -0.75551033
0.082155451 0.32159323 -0.7527473
0.10488582 0.32178494 -0.74997902
0.12765849 0.3219761 -0.74721885
0.15047453 0.32216868 -0.7444402
0.1733336 0.32236162 -0.7416563
-0.14489706 0.34509727 -0.74158907
-0.12203745 0.34488282 -0.74437296
-0.099220909 0.3446691 -0.74715197
-0.076447718 0.34445649 -0.74991202
-0.053716838 0.34424341 -0.7526803
-0.031028654 0.34403083 -0.75544369
-0.0083830552 0.34381834 -0.7582016
0.014220082 0.34382048 -0.75817502
0.036844656 0.34403282 -0.75541699
0.059511565 0.34424445 -0.75266695
0.08222124 0.34445763 -0.74989855
0.1049737 0.34467107 -0.74712491
0.12776855 0.34488392 -0.74435961
0.15060684 0.3450982 -0.74157536
-0.099407569 0.36776787 -0.7423023
-0.07659056 0.36751634 -0.74527299
-0.053819433 0.36726516 -0.74823773
-0.031094044 0.36701465 -0.7511965
-0.0084142489 0.36676461 -0.75414944
0.014220082 0.36676699 -0.75412285
0.036877248 0.36701581 -0.75118315
0.059579965 0.36726639 -0.74822426
0.082328372 0.36751747 -0.74525964
0.10512261 0.36776903 -0.74228883
-0.053941593 0.39043379 -0.74294806
-0.031175319 0.39015943 -0.74591756
-0.0084548062 0.38988572 -0.74888098
0.014220082 0.38988811 -0.74885404
0.036917988 0.39016184 -0.74589062
0.059661616 0.39043623 -0.74292111
-0.0085039968 0.41320011 -0.74249077
0.014220082 0.41320282 -0.74246383
-0.053956509 0.45866993 -0.7423023
-0.031204682 0.45847279 -0.74401009
-0.008479272 0.45827737 -0.74570274
0.014220082 0.45827889 -0.74568939
0.036932569 0.45847425 -0.74399674
0.059671346 0.45867151 -0.74228883
-0.053963348 0.48143202 -0.74200618
-0.031176973 0.4809635 -0.74581015
-0.0084492387 0.4804962 -0.74960423
0.014220082 0.48049945 -0.74957728
0.036918815 0.48096675 -0.74578321
0.059676319 0.48143697 -0.74196601
-0.48754147 0.094979726 -0.73167455
0.49318084 0.094979376 -0.7316339
-0.48681721 0.11778696 -0.73595095
0.49249387 0.11778698 -0.73588347
-0.35137638 0.20918618 -0.72616184
0.35697934 0.20918946 -0.726053
-0.26021874 0.25500646 -0.7235477
-0.23666987 0.25463605 -0.73156607
-0.21336924 0.25434065 -0.73796308
-0.19042908 0.25421971 -0.74057889
0.19613045 0.25421971 -0.74057889
0.21905141 0.25434127 -0.73794973
0.242305 0.25463796 -0.7315253
0.2657913 0.25500774 -0.72352052
-0.26011303 0.27781475 -0.72469211
-0.23657236 0.27738219 -0.73271763
-0.21335156 0.27708721 -0.73819256
-0.19041881 0.2769506 -0.74072707
0.19612134 0.2769506 -0.74072707
0.21903552 0.27708796 -0.73817909
0.24221633 0.27738434 -0.73267698
0.2656956 0.27781692 -0.72465122
-0.26008913 0.30065981 -0.72495067
-0.23648062 0.30011475 -0.73380077
-0.21332456 0.29982278 -0.73854339
-0.19039455 0.29966679 -0.7410773
0.19609976 0.29966679 -0.7410773
0.21901123 0.29982364 -0.73852992
0.24213296 0.30011728 -0.73376036
0.26567367 0.30066234 -0.7249099
-0.26030186 0.32367846 -0.72264802
-0.23667446 0.32306442 -0.73151171
-0.21351269 0.32274649 -0.7360996
-0.19054675 0.32255387 -0.73888063
0.19623588 0.3225548 -0.73886704
0.21918052 0.32274753 -0.73608613
0.24230917 0.32306713 -0.73147118
0.26586866 0.32368132 -0.72260702
-0.23693871 0.34611323 -0.72839105
-0.21377303 0.34578013 -0.73271763
-0.19076654 0.34554997 -0.73570764
-0.16780651 0.34532031 -0.73869181
0.17349409 0.34532124 -0.73867822
0.19643128 0.34555104 -0.73569429
0.21941483 0.34578121 -0.73270428
0.2425494 0.34611633 -0.7283504
-0.16813438 0.36852446 -0.7333678
-0.14517902 0.36827132 -0.73635626
-0.12227059 0.36802 -0.73932564
0.12796283 0.36802101 -0.73931193
0.15084915 0.36827365 -0.73632944
0.17378098 0.36852551 -0.73335409
-0.23735461 0.3693617 -0.72347963
-0.21418454 0.36903211 -0.72737205
-0.19113618 0.36877802 -0.73037291
0.19675982 0.36877906 -0.73035932
0.2197852 0.36903328 -0.72735846
0.24292752 0.36936516 -0.72343874
-0.19154485 0.39214036 -0.72447419
-0.16849022 0.39185247 -0.72758949
-0.14548318 0.39156401 -0.73071194
-0.12252452 0.39127627 -0.73382795
-0.099614069 0.39098901 -0.73693705
-0.076753773 0.39070857 -0.73997259
0.082450785 0.39070985 -0.73995912
0.10528824 0.39099148 -0.73691022
0.12817496 0.39127868 -0.73380065
0.15110923 0.3915652 -0.73069835
0.17409235 0.39185375 -0.72757602
0.19712394 0.39214283 -0.72444689
-0.14585382 0.41506711 -0.72383368
-0.12284216 0.4147552 -0.72695065
-0.099878222 0.4144426 -0.73007452
-0.076962568 0.41413066 -0.73319161
-0.054095075 0.41381943 -0.73630238
-0.031275772 0.41351014 -0.73939312
0.036968112 0.4135114 -0.73937964
0.059763934 0.41382208 -0.73627532
0.082607694 0.41413328 -0.73316455
0.10549914 0.41444391 -0.73006094
0.12843914 0.41475657 -0.72693706
0.15142755 0.41506982 -0.72380662
-0.16881973 0.43810675 -0.72223914
-0.14586188 0.43795103 -0.72368395
-0.12292636 0.43779531 -0.72512758
-0.10001311 0.43763998 -0.72656989
-0.0771221 0.43748468 -0.72801077
-0.05425331 0.43732959 -0.72945023
-0.031406708 0.43717462 -0.73088813
-0.0085698506 0.43684617 -0.73393607
0.014220082 0.43684748 -0.73392248
0.037033476 0.43717462 -0.73088813
0.05986901 0.43732959 -0.72945023
0.08272703 0.43748611 -0.72799718
0.10560706 0.43764147 -0.7265563
0.12850931 0.4377968 -0.72511399
0.15143384 0.43795249 -0.72367036
0.17438066 0.43810809 -0.72222519
-0.23716205 0.46058083 -0.72575355
-0.21410191 0.46027002 -0.72844541
-0.19108264 0.45995823 -0.73114586
-0.16811104 0.45965788 -0.73374653
-0.14522709 0.4594596 -0.73546445
-0.12236967 0.45926139 -0.73718035
-0.099538751 0.45906359 -0.7388941
-0.076734692 0.45886737 -0.74059236
0.082436472 0.45886892 -0.74057889
0.10522756 0.45906502 -0.73888052
0.1280454 0.45926306 -0.73716676
0.15088971 0.45946103 -0.73545086
0.17375982 0.45965788 -0.73374653
0.19671223 0.45995975 -0.73113227
0.21970989 0.46027002 -0.72844541
0.24274932 0.46058083 -0.72575355
-0.14570637 0.48333329 -0.72656989
-0.1226772 0.48284644 -0.73052192
-0.099712916 0.48237264 -0.73436916
-0.076808579 0.48190179 -0.7381928
0.082492515 0.48190662 -0.73815215
0.10536773 0.48237768 -0.73432839
0.1283022 0.48284975 -0.7304951
0.15130243 0.48333994 -0.72651541
-0.51489425 0.07177709 -0.70600176
-0.49188927 0.07177709 -0.70600176
-0.46888429 0.07177709 -0.70600176
0.47431952 0.07177709 -0.70600176
0.49732447 0.07177709 -0.70600176
0.52032942 0.07177709 -0.70600176
-0.51255125 0.094883859 -0.7192353
0.51809752 0.094883487 -0.71918058
0.51911104 0.11778704 -0.71319592
-0.51360595 0.1177871 -0.71327841
-0.48935899 0.14067696 -0.72094274
0.4949246 0.14067763 -0.72084701
-0.4669174 0.16360965 -0.71816885
0.4724673 0.16361181 -0.71803212
-0.42064518 0.18644992 -0.7212429
0.42621094 0.18645215 -0.72114742
-0.30779749 0.2327933 -0.70648432
-0.28379264 0.2324073 -0.71651316
0.28932646 0.23241472 -0.71632135
0.31323919 0.23279446 -0.7064569
-0.30770245 0.25575384 -0.70736623
-0.28389543 0.25537878 -0.71548581
0.28940618 0.25538015 -0.71545851
0.31315091 0.25575507 -0.70733869
-0.30757928 0.27868667 -0.70850933
-0.28378168 0.27824956 -0.71662259
0.28930244 0.27825177 -0.71658146
0.31303653 0.27868822 -0.70848179
-0.30773363 0.30176067 -0.70707703
-0.2838406 0.301209 -0.7160337
0.28935555 0.30121067 -0.7160064
0.31318128 0.30176312 -0.70703566
-0.30800411 0.32493126 -0.70456707
-0.2840724 0.32429719 -0.71371734
0.28956956 0.32429904 -0.71368992
0.31343243 0.32493404 -0.70452559
-0.28451926 0.34758648 -0.70925236
-0.26065245 0.34684753 -0.71885264
0.26619008 0.34685063 -0.71881139
0.28998327 0.3475897 -0.70921123
-0.28502402 0.37099358 -0.70420814
-0.26110908 0.37017208 -0.71390939
0.26660866 0.3701756 -0.71386826
0.29044926 0.37099704 -0.70416665
-0.26168808 0.39369527 -0.70764184
-0.23784599 0.39276817 -0.7176764
-0.21464902 0.39242989 -0.72133839
0.22020321 0.39243126 -0.7213248
0.24337424 0.39277202 -0.71763527
0.26713941 0.39369905 -0.70760047
-0.23849529 0.41645062 -0.71000898
-0.21522935 0.41607133 -0.71379972
-0.19204329 0.41572303 -0.71727955
-0.16891471 0.41538104 -0.72069693
0.17446376 0.41538242 -0.72068322
0.19756617 0.41572449 -0.71726596
0.22072551 0.41607267 -0.71378589
0.24396452 0.41645479 -0.70996773
-0.30819017 0.44019726 -0.70284081
-0.28462529 0.43962049 -0.70819259
-0.26114333 0.4390443 -0.71353889
-0.23782861 0.43857631 -0.71788156
-0.21480355 0.43842009 -0.71933091
-0.19180088 0.43826404 -0.72077882
0.19734983 0.43826404 -0.72077882
0.22034135 0.43842009 -0.71933091
0.24335529 0.43857631 -0.71788156
0.26663888 0.43904731 -0.71351159
0.29007864 0.43962204 -0.708179
0.31360382 0.44020027 -0.70281327
-0.28492323 0.46295238 -0.70521569
-0.26074597 0.46149462 -0.71784067
0.26627576 0.46149936 -0.71779966
0.29035619 0.46295723 -0.70517433
-0.16917489 0.48457694 -0.71647191
0.17469364 0.48458368 -0.71641719
-0.56512773 0.071439251 -0.68405581
-0.53963441 0.071632445 -0.69660985
0.54500461 0.071631894 -0.69656825
0.57040173 0.071438499 -0.68401372
-0.53859305 0.094753161 -0.70224655
0.54400903 0.094752699 -0.70219111
-0.54111493 0.1177871 -0.68859613
0.54643339 0.11778707 -0.68849862
-0.51811439 0.14093195 -0.68781471
0.52343309 0.14093313 -0.68767524
-0.44927323 0.18731104 -0.68395782
0.45458788 0.18731874 -0.68362188
-0.37884122 0.21027201 -0.69089627
0.38418418 0.21027806 -0.69070125
-0.3558487 0.23343354 -0.6898514
-0.33177242 0.2331178 -0.69805217
0.3371509 0.2331194 -0.69801068
0.36116439 0.23343512 -0.68980944
-0.35570627 0.25650939 -0.69100761
-0.33163962 0.25613093 -0.69920242
0.33702546 0.25613213 -0.69917464
0.36102924 0.25651076 -0.69097972
-0.35566509 0.27961177 -0.69134176
-0.3315053 0.27912557 -0.70036542
0.33690012 0.279127 -0.70033777
0.36099067 0.27961332 -0.6913141
-0.35595515 0.30287462 -0.68898666
-0.33177081 0.30231553 -0.69806612
0.33714941 0.30231807 -0.69802463
0.36126259 0.30287635 -0.68895876
-0.35643157 0.32627863 -0.68511879
-0.33213934 0.32560277 -0.69487453
0.33749339 0.32560563 -0.69483268
0.36171085 0.32628152 -0.68507671
-0.33271939 0.34908003 -0.68985116
-0.30854198 0.34833142 -0.69957638
0.31393188 0.34833458 -0.69953477
0.33803326 0.3490822 -0.68982327
-0.333408 0.37271422 -0.68388784
-0.3091341 0.37185106 -0.6940825
0.31448171 0.37185457 -0.69404078
0.33867747 0.37271777 -0.68384576
-0.30986521 0.39557454 -0.68729842
-0.28569141 0.39462841 -0.69753909
0.29106531 0.39463222 -0.69749761
0.31516203 0.39557961 -0.68724251
-0.33321258 0.41889539 -0.68558013
-0.30956456 0.41844422 -0.69008791
-0.28598592 0.41799304 -0.69459665
-0.26248047 0.41754594 -0.69906378
0.26786342 0.41754737 -0.69904995
0.2913346 0.4179945 -0.6945827
0.31487864 0.41844565 -0.69007409
0.3384921 0.41889668 -0.68556607
-0.33216181 0.44107676 -0.69467998
0.33751285 0.44107983 -0.69465208
-0.30999017 0.46515521 -0.68613911
0.31528786 0.46517292 -0.68598545
-0.56839353 0.04787346 -0.66708624
-0.54509157 0.047873139 -0.66707218
0.55022705 0.047873139 -0.66707218
0.57352906 0.04787346 -0.66708624
-0.59155929 0.071188748 -0.66777956
0.59671384 0.071187571 -0.66770875
-0.56576395 0.094587691 -0.68074989
0.57102025 0.094587058 -0.68066597
-0.40451795 0.21083999 -0.67245376
0.40970042 0.21084113 -0.67241144
-0.42887896 0.23439202 -0.66494811
-0.40440267 0.23407125 -0.67328548
-0.38005894 0.23375148 -0.68159115
0.38531142 0.23375306 -0.68154907
0.40958977 0.23407221 -0.67325735
0.43400207 0.23439321 -0.66491985
-0.42870495 0.25765806 -0.66613793
-0.40423873 0.25727332 -0.67446887
-0.37990496 0.25689006 -0.68276799
0.3851665 0.256892 -0.68272591
0.40943488 0.2572746 -0.67444074
0.43383721 0.25765932 -0.66610956
-0.404432 0.28059608 -0.67307401
-0.3799746 0.28010243 -0.6822356
0.3852303 0.28010398 -0.68220758
0.40961927 0.2805984 -0.67303181
-0.40478772 0.30401278 -0.67050672
-0.38028467 0.30343637 -0.67986631
0.38552386 0.30343899 -0.67982423
0.40995523 0.30401528 -0.6704644
-0.40549317 0.32764366 -0.66541553
-0.38088235 0.32695889 -0.67529929
0.38608637 0.32696185 -0.67525721
0.41062149 0.32764655 -0.66537309
-0.38156125 0.35059959 -0.67011142
-0.35705432 0.34983355 -0.68006277
0.36229306 0.34983566 -0.68003452
0.3867254 0.3506029 -0.6700691
-0.35784915 0.37358463 -0.67360961
0.36303824 0.37358704 -0.67358136
-0.35881826 0.39756578 -0.66574156
-0.3343347 0.39663094 -0.67586219
0.33954245 0.39663476 -0.67581999
0.3639468 0.39756835 -0.66571295
-0.40496975 0.42053521 -0.66919327
-0.38093391 0.41996363 -0.67490518
-0.3570163 0.4194167 -0.6803714
0.36225584 0.41941804 -0.68035722
0.38613147 0.41996494 -0.67489111
0.41012529 0.42053813 -0.66916502
-0.38154647 0.44371244 -0.67022443
-0.35667628 0.44232136 -0.68313205
0.36194029 0.44232595 -0.68309009
0.38671148 0.44371697 -0.67018187
-0.61895955 0.047433786 -0.64804852
-0.59301788 0.047721073 -0.66049194
0.59811085 0.047720239 -0.6604495
0.62395996 0.047432438 -0.64799118
-0.61906976 0.070876792 -0.6475184
0.62407476 0.070875153 -0.6474179
-0.5940122 0.094393454 -0.65552413
0.5990752 0.094392762 -0.65543842
-0.57036358 0.11778707 -0.6568495
0.57544667 0.11778713 -0.65670717
-0.49934158 0.16447447 -0.6619978
0.50448167 0.16447859 -0.66172814
-0.45472902 0.21157688 -0.64852142
-0.4290469 0.21110645 -0.6638
0.43416312 0.21110764 -0.66375732
0.45973015 0.21157864 -0.64846396
-0.45424655 0.23490369 -0.6516552
0.45927176 0.23490584 -0.65159786
-0.4539628 0.25824195 -0.65349805
0.45900428 0.2582452 -0.65342665
-0.45409915 0.28169864 -0.65261245
-0.4290407 0.28109363 -0.66384244
0.43415529 0.28109524 -0.66381419
0.45913172 0.28170177 -0.65255547
-0.4545196 0.30528295 -0.64988148
-0.42951614 0.30462331 -0.6605916
0.43460768 0.30462596 -0.66054904
0.45953327 0.30528733 -0.64980996
-0.45520145 0.3290267 -0.64545286
-0.43026567 0.3283329 -0.65546715
0.43531781 0.32833585 -0.65542424
0.46017686 0.32902974 -0.64540994
-0.43116638 0.35220096 -0.64930892
-0.40627781 0.35139695 -0.65975285
0.41136259 0.3514002 -0.65971029
0.43617111 0.35220429 -0.649266
-0.40726525 0.37536135 -0.65262675
-0.38245589 0.37445968 -0.663275
0.38756743 0.37446329 -0.66323245
0.41229516 0.37536496 -0.65258396
-0.45504463 0.39934587 -0.64647162
-0.43077725 0.39883795 -0.65196943
-0.40671763 0.39841211 -0.6565789
-0.38273084 0.3979876 -0.66117406
0.38782445 0.3979902 -0.66114569
0.41177425 0.39841357 -0.65656459
0.43579847 0.39883924 -0.65195525
0.46002573 0.39934856 -0.64644301
-0.45486802 0.4226943 -0.64761853
-0.42954731 0.42141733 -0.66037834
0.43463528 0.42142019 -0.66034997
0.45986217 0.42270002 -0.64756131
-0.032699544 0.51660383 -0.64691603
-0.0092050107 0.51601356 -0.65142643
0.014220082 0.51601726 -0.65139782
0.037680224 0.51660943 -0.64687312
-0.62331051 0.023338102 -0.62711477
-0.59970409 0.023337156 -0.62708569
0.60453176 0.023337156 -0.62708569
0.62813842 0.023338102 -0.62711477
-0.64657229 0.046987824 -0.62874103
0.65143681 0.046985149 -0.62862468
-0.55079609 0.14132942 -0.6361959
0.55573988 0.14133132 -0.6359359
-0.48118421 0.18855903 -0.62991595
0.48604265 0.18856034 -0.62985778
-0.48069477 0.2120565 -0.63294327
0.48557654 0.21205831 -0.63288534
-0.48018304 0.23550203 -0.63610923
0.4850913 0.23550481 -0.63603699
-0.48019472 0.25904843 -0.63603699
0.48510244 0.25905174 -0.63596487
-0.48038155 0.28265426 -0.63488102
0.48528036 0.28265822 -0.63480878
-0.48103186 0.30645439 -0.63085783
0.48589984 0.30645895 -0.63078558
-0.48178971 0.33036274 -0.6261704
0.48662156 0.33036765 -0.62609756
-0.45622683 0.35301057 -0.63879287
0.461151 0.35301372 -0.6387496
-0.45732582 0.37713721 -0.63165474
-0.43238842 0.37634981 -0.64095366
0.43732888 0.37635347 -0.64091051
0.46219081 0.37713856 -0.63164043
-0.50546342 0.40125081 -0.62585044
-0.47949991 0.39991271 -0.64033461
0.48443407 0.3999154 -0.64030588
0.51030034 0.40126139 -0.62573421
-0.48048437 0.42403263 -0.63424516
0.48538277 0.42404282 -0.63414395
-0.22142692 0.4948222 -0.63329053
-0.19754596 0.49426007 -0.63785553
0.20245747 0.49426186 -0.63784122
0.22630341 0.49482405 -0.63327599
-0.12742653 0.51911914 -0.62769568
-0.10363295 0.51848733 -0.63252342
-0.07991416 0.51785755 -0.63733613
-0.056269802 0.5172298 -0.64213359
0.06121378 0.51723337 -0.64210474
0.084821425 0.51786137 -0.63730729
0.10850296 0.51848924 -0.63250911
0.1322595 0.51912105 -0.62768126
-0.00940111 0.54296851 -0.62595224
0.014220082 0.54297459 -0.62590861
-0.64902413 0.023037963 -0.61736596
0.65379208 0.023035608 -0.61729264
-0.64935827 0.07038863 -0.6158154
0.65414482 0.070385292 -0.61559606
-0.6236912 0.094160676 -0.62528336
0.62853408 0.094159529 -0.62513804
-0.6031571 0.11778701 -0.60983348
0.60790569 0.11778701 -0.60955417
-0.50747037 0.18892673 -0.61399996
0.51220679 0.18892804 -0.61394119
-0.50692755 0.21254121 -0.61720514
0.51169103 0.21254334 -0.61713183
-0.50657618 0.23614988 -0.61927974
0.51135558 0.23615256 -0.61920667
-0.50672954 0.25986412 -0.61837411
0.51150203 0.25986758 -0.61830115
-0.50718522 0.28368872 -0.61568379
0.51193929 0.28369343 -0.61559594
-0.50787765 0.30764064 -0.61159515
0.5126003 0.30764616 -0.61150706
-0.48280689 0.35446656 -0.61987829
0.48759261 0.35447323 -0.61979055
-0.53257495 0.37929773 -0.60614181
-0.5071134 0.37845382 -0.61610806
-0.48205301 0.37773964 -0.62454152
0.48686561 0.37774208 -0.62451243
0.51186126 0.37845621 -0.61607885
0.53724885 0.37930143 -0.60609758
-0.27100849 0.49809176 -0.60674536
-0.24591497 0.49616531 -0.62238646
0.25071099 0.49617237 -0.62232816
0.27568585 0.49810094 -0.60667181
-0.2233526 0.52166051 -0.60827541
-0.19925763 0.52102274 -0.61315
-0.17523864 0.52038693 -0.61800885
-0.15129529 0.51975286 -0.62285256
0.15609041 0.51975286 -0.62285256
0.17999727 0.52038866 -0.61799419
0.20397897 0.52102464 -0.61313522
0.22803652 0.52166247 -0.60826075
-0.080720328 0.54501885 -0.61115503
-0.056867465 0.54431224 -0.61625445
-0.033096954 0.54364026 -0.62110388
0.037878823 0.54364437 -0.62107456
0.061612226 0.54431635 -0.61622512
0.085426405 0.54502487 -0.61111093
-0.67800945 0.022307105 -0.59363353
0.68260199 0.022303857 -0.59352946
-0.53453469 0.16550478 -0.59507263
0.53912854 0.16550599 -0.5949986
-0.53400481 0.18929449 -0.59806573
0.5386191 0.18929598 -0.59800661
-0.53343403 0.21303126 -0.60128939
0.53807563 0.21303345 -0.6012156
-0.53341049 0.23683715 -0.60142231
0.5380531 0.23684001 -0.6013484
-0.53360146 0.26069692 -0.60034359
0.53823578 0.26070043 -0.60026979
-0.53433001 0.28473702 -0.59622908
0.53893262 0.28474107 -0.59615505
-0.53517884 0.30888227 -0.59143472
0.53974718 0.3088879 -0.59134555
-0.50886106 0.33177483 -0.60578823
0.51353908 0.33178088 -0.6056999
-0.53542113 0.35676143 -0.59006655
-0.51013136 0.35612866 -0.59828782
0.51474446 0.356132 -0.59824336
0.53996879 0.35676369 -0.59003675
-0.55928558 0.38064373 -0.59024489
0.56385064 0.38065383 -0.59012592
-0.53387117 0.40374765 -0.59882057
0.53849882 0.40375724 -0.59871686
-0.2964035 0.50009298 -0.59049785
0.30095503 0.50010031 -0.59043837
-0.24825299 0.52342713 -0.59477603
0.25283653 0.52343506 -0.59471667
-0.17698786 0.54800498 -0.58960521
-0.15279543 0.54725558 -0.59501326
-0.12868716 0.54650873 -0.60040295
-0.10466199 0.54576248 -0.60578823
0.10932665 0.54576671 -0.60575867
0.13331002 0.54651093 -0.60038805
0.15737763 0.54725969 -0.5949837
0.18152864 0.54800904 -0.58957541
-0.033576865 0.57185805 -0.58993256
-0.0096366527 0.57106489 -0.59535456
0.014220082 0.57107157 -0.59531009
0.038118783 0.5718624 -0.58990276
-0.68112874 -0.0021006614 -0.57966077
-0.65576571 -0.0018532425 -0.58608866
-0.63184077 -0.0018538758 -0.58607364
0.63635272 -0.0018538758 -0.58607364
0.66027778 -0.0018532425 -0.58608866
0.68560743 -0.0021035895 -0.57958591
-0.68015701 0.04595495 -0.58401358
0.68470138 0.045949779 -0.58378959
-0.56142098 0.16575715 -0.57868683
0.56588668 0.16575801 -0.57862687
-0.5608179 0.18966673 -0.58195102
0.56531399 0.18966892 -0.58186126
-0.56038988 0.21355528 -0.5842675
0.56490111 0.21355757 -0.58419287
-0.56055552 0.23753193 -0.58337128
0.56505984 0.23753482 -0.58329654
-0.56105012 0.26160461 -0.58069408
0.56553394 0.26160794 -0.5806191
-0.56182551 0.28580028 -0.57649696
0.56627703 0.28580436 -0.57642198
-0.56291741 0.31016615 -0.57058692
0.56732613 0.31017172 -0.57049668
-0.53632092 0.33321619 -0.5849843
0.54083961 0.33322236 -0.58489478
-0.58685464 0.35821688 -0.5711596
-0.56092566 0.35743114 -0.58136761
0.56540936 0.35743463 -0.58132255
0.59126008 0.3582204 -0.5711143
-0.37064588 0.47859895 -0.56971288
-0.34471464 0.47672167 -0.58596909
0.34923226 0.47672862 -0.58590949
0.37503889 0.47860581 -0.56965268
-0.32206714 0.50211537 -0.57407868
0.32649282 0.50212258 -0.57401836
-0.27366272 0.52562094 -0.57801223
0.27811903 0.52563095 -0.57793736
-0.22562802 0.54951364 -0.57871664
-0.20126589 0.54875892 -0.58416307
0.2057641 0.54876107 -0.58414817
0.23008443 0.54951584 -0.57870185
-0.10594155 0.57440138 -0.57254457
-0.081724696 0.57352483 -0.57853711
-0.057600647 0.57265162 -0.58450651
0.062101025 0.57265598 -0.58447671
0.086179361 0.57352924 -0.57850695
0.11035032 0.57440567 -0.5725143
-0.71017152 -0.0029448122 -0.55772769
0.71449238 -0.0029495582 -0.55760622
-0.71159863 0.021011226 -0.55154812
0.71589929 0.021003723 -0.55130386
-0.58911526 0.14192043 -0.55941308
0.5934332 0.14192089 -0.55935228
-0.58854634 0.16600835 -0.56236923
0.59289259 0.16600974 -0.56227815
-0.61544001 0.19044016 -0.54846442
-0.58791155 0.19004288 -0.56566751
0.59228039 0.19004467 -0.56559205
0.61967719 0.19044189 -0.548388
-0.58784467 0.21411741 -0.56601512
0.59221619 0.21411976 -0.56593955
-0.58803666 0.23823839 -0.56501758
0.59240049 0.23824129 -0.564942
-0.58885252 0.26252449 -0.56077814
0.59318376 0.26252788 -0.5607022
-0.58979356 0.28691092 -0.55588853
0.59408993 0.28691575 -0.55579722
-0.59106356 0.3114779 -0.54928935
0.59530926 0.31148344 -0.54919767
-0.5900014 0.33530682 -0.55480838
-0.56427616 0.33472311 -0.5632323
0.5686177 0.33472523 -0.56320202
0.59427828 0.33530894 -0.55477786
-0.61437136 0.35955298 -0.55380344
0.61865836 0.35956237 -0.55368173
-0.58929056 0.38333172 -0.55850232
0.59372491 0.3833935 -0.55777323
-0.44589153 0.45681655 -0.5486325
-0.41948646 0.45511448 -0.56442773
0.42383975 0.45512092 -0.56436718
0.45012376 0.45682314 -0.54857135
-0.39687571 0.48051867 -0.55308759
0.40114129 0.48052564 -0.55302668
-0.34800375 0.50415915 -0.55748463
0.35230222 0.50416672 -0.55742383
-0.29949605 0.52803117 -0.55959511
0.30381122 0.52804106 -0.55951929
-0.25112414 0.55198658 -0.5608691
0.25544795 0.55199713 -0.56079328
-0.20374765 0.57794112 -0.54834211
-0.17915422 0.57705092 -0.55442774
-0.15465577 0.57616419 -0.56049001
-0.13025172 0.57528114 -0.5665288
0.13461442 0.57528555 -0.56649876
0.15897222 0.57616884 -0.56045985
0.18342425 0.57705545 -0.55439734
0.20797105 0.57794565 -0.54831135
-0.03414882 0.60147607 -0.55278277
-0.0099201063 0.60059083 -0.55853248
0.014220082 0.60059798 -0.55848694
0.038404886 0.60148299 -0.55273712
-0.714037 -0.027864434 -0.54098964
-0.68909746 -0.027726896 -0.54396534
0.69328523 -0.027726896 -0.54396534
0.71821904 -0.02786795 -0.54091275
-0.61713278 0.14206983 -0.54000664
0.62131083 0.14207058 -0.53989911
-0.61595732 0.16626215 -0.54587972
0.62017751 0.16626371 -0.54578781
-0.61562359 0.21468604 -0.54754722
0.6198507 0.21468788 -0.54748595
-0.61615342 0.23901269 -0.5448997
0.62036318 0.23901564 -0.54482341
-0.61701596 0.26345688 -0.54059041
0.62119257 0.26346037 -0.5405134
-0.61821699 0.28805849 -0.53458953
0.62235039 0.2880635 -0.53449714
-0.64237815 0.33665311 -0.5353756
-0.6159696 0.33592957 -0.54581869
0.62018043 0.33593273 -0.54577255
0.64650601 0.33665532 -0.53534484
-0.42338613 0.48245883 -0.53628445
0.42752492 0.48246777 -0.53620744
-0.37433693 0.50634396 -0.53974533
0.37850115 0.50635356 -0.53966856
-0.3256332 0.53046602 -0.54098952
0.32980582 0.53047597 -0.54091275
-0.27707282 0.55472642 -0.54109693
0.28124508 0.55473697 -0.54102015
-0.22868367 0.57930428 -0.53902316
0.23283878 0.57931536 -0.53894627
-0.13195942 0.60505199 -0.52955604
-0.10737099 0.60415119 -0.53540635
-0.082873292 0.60325384 -0.54123521
-0.058466546 0.6023646 -0.54701197
0.062678538 0.60237157 -0.54696596
0.087041885 0.60326564 -0.54115844
0.11149484 0.60416073 -0.53534472
0.13603812 0.60505909 -0.52950966
-0.74334699 -0.028838895 -0.5198921
0.74737102 -0.028843142 -0.51979864
-0.7437073 -0.0044593737 -0.51838183
0.74775571 -0.0044689253 -0.51813269
-0.64722383 0.14228486 -0.51206172
0.6511817 0.14228562 -0.51198363
-0.6455996 0.16666259 -0.51987636
0.64962375 0.1666642 -0.5197674
-0.64492762 0.1910257 -0.52310944
0.64897972 0.19102854 -0.52298522
-0.64442772 0.21536462 -0.52551448
0.64850146 0.2153687 -0.52537477
-0.64474046 0.23981678 -0.52400982
0.64880258 0.23982213 -0.52387023
-0.64567077 0.26442945 -0.51953399
0.64968604 0.26443309 -0.51945627
-0.64707762 0.28923461 -0.51276517
0.65104401 0.28923967 -0.51267147
-0.64582932 0.31335714 -0.51877129
-0.61965811 0.31282654 -0.52738953
0.62372422 0.31282839 -0.52735853
0.64982939 0.31335911 -0.51873994
-0.67076933 0.33796218 -0.51648057
0.67476821 0.33796978 -0.51637149
-0.4754304 0.46054244 -0.51406181
0.47940862 0.46055758 -0.51392138
-0.45085198 0.48494923 -0.5147177
0.45483631 0.4849672 -0.51456141
-0.40108961 0.50866669 -0.52088749
0.40510938 0.50867623 -0.52080965
-0.35208428 0.53293186 -0.52214646
0.35611254 0.53294224 -0.52206874
-0.30344439 0.55763006 -0.52014077
0.30745602 0.55764097 -0.52006292
-0.2546441 0.58218884 -0.51930046
0.25864804 0.58220023 -0.51922262
-0.20636091 0.60796696 -0.5106225
-0.18145084 0.60696447 -0.5171355
-0.15664327 0.60596806 -0.5236063
0.16067584 0.60597283 -0.52357519
0.18543382 0.60696918 -0.51710415
0.21029404 0.60797203 -0.51059127
-0.034777448 0.6322611 -0.51195228
-0.010224991 0.63113374 -0.51892686
0.014220082 0.63114107 -0.51888025
0.038719207 0.63226867 -0.51190507
-0.74792302 -0.054309838 -0.50071633
-0.72333771 -0.054309838 -0.50071633
0.72719258 -0.054309838 -0.50071633
0.75177783 -0.054309838 -0.50071633
-0.64883327 0.11778701 -0.50431859
0.65274101 0.11778707 -0.50419283
-0.67641485 0.19178367 -0.4902885
-0.67237961 0.31395841 -0.50900972
0.67631137 0.31396225 -0.50894701
-0.42816624 0.51101935 -0.50178683
0.43203971 0.51102901 -0.50170791
-0.37909171 0.53568071 -0.50114143
0.38295898 0.53569108 -0.50106275
-0.33011106 0.56049865 -0.49944007
0.33396405 0.56050944 -0.49936128
-0.28093109 0.58510983 -0.49932981
0.28478202 0.58512121 -0.49925101
-0.23197849 0.61018413 -0.49622166
0.23580429 0.61019641 -0.49614263
-0.10908684 0.63567615 -0.49082732
-0.084207356 0.63453108 -0.4979105
-0.059437998 0.63339359 -0.50494683
0.063326195 0.63340104 -0.50489962
0.088041745 0.63453865 -0.49786341
0.1128666 0.63568121 -0.49079573
-0.77752107 -0.055406265 -0.48036683
0.78124213 -0.05541151 -0.48027098
-0.77650476 -0.030473851 -0.48449254
0.78028786 -0.030484147 -0.48426974
-0.75433898 0.018618084 -0.47383022
0.75808311 0.018605366 -0.47341394
-0.67954838 0.11778701 -0.47575068
0.683231 0.11778701 -0.4756546
-0.6778357 0.14250329 -0.4836967
0.68157935 0.1425041 -0.48360121
-0.67701668 0.16716105 -0.48749626
0.68079621 0.16716306 -0.4873693
0.68021905 0.19178689 -0.49014604
-0.67673957 0.21649557 -0.48878181
0.68053883 0.21650091 -0.48860729
-0.67718446 0.24125209 -0.48671818
0.68096453 0.24125814 -0.48655915
-0.67812055 0.2661458 -0.48237526
0.6818673 0.2661531 -0.48221588
-0.70501566 0.29139572 -0.47266078
-0.67724949 0.29065445 -0.48641634
0.68100417 0.29065692 -0.48636842
0.70866835 0.29139906 -0.47259665
-0.70142382 0.31520596 -0.48875022
0.70521051 0.31521282 -0.48863912
-0.53074288 0.43981063 -0.47658229
0.53443521 0.439825 -0.4764384
-0.50595635 0.46457118 -0.47667813
0.50965077 0.46458849 -0.47651839
-0.48186129 0.48984805 -0.47229207
0.48552319 0.4898684 -0.47211576
-0.40648842 0.53849554 -0.47963297
0.41019282 0.538508 -0.47953713
-0.35704306 0.56330281 -0.47920215
0.36074096 0.56331384 -0.47912228
-0.3077043 0.58829188 -0.47757328
0.31138992 0.58830583 -0.47747731
-0.25867084 0.6139524 -0.4717468
0.26231015 0.61396718 -0.47165084
-0.15917635 0.63797647 -0.47659826
-0.13407609 0.63682365 -0.48372865
0.13780147 0.63682884 -0.48369694
0.16284709 0.63798153 -0.47656631
-0.75853509 -0.08163359 -0.45624697
0.76204759 -0.08163359 -0.45624697
-0.68126267 0.092948273 -0.46779752
0.68488747 0.092947409 -0.46768486
-0.70918626 0.16767704 -0.45397866
0.71271276 0.16767929 -0.45383298
-0.70945776 0.19265029 -0.45276248
0.71298897 0.19265512 -0.45255148
-0.73455465 0.29250112 -0.45214581
0.73806089 0.29250735 -0.45203221
-0.45814997 0.51557225 -0.46482098
0.46175534 0.51559621 -0.46462774
-0.43450785 0.54158568 -0.45602036
0.43804199 0.54160881 -0.45584214
-0.38432834 0.566154 -0.45862532
0.38787043 0.56616759 -0.45852816
-0.33501053 0.59174293 -0.45397878
0.33851543 0.59175724 -0.45388162
-0.2097128 0.64029706 -0.46224236
-0.18438834 0.63913399 -0.46943641
0.1880042 0.63913929 -0.46940422
0.21327354 0.64030224 -0.46221018
-0.03559101 0.66570902 -0.45911002
-0.01062267 0.6643275 -0.46726704
0.014220082 0.66433847 -0.46720278
0.039126001 0.6657173 -0.4590615
-0.7846489 -0.081930198 -0.45143139
0.7881515 -0.081937246 -0.45131791
-0.7126227 0.092723459 -0.4385854
0.71602046 0.092722833 -0.43848705
-0.71081859 0.11778701 -0.44666672
0.71427494 0.11778701 -0.44658542
-0.70983469 0.14275444 -0.45107424
0.71333539 0.14275548 -0.4509443
-0.70989269 0.21766466 -0.45081437
0.71339846 0.21766967 -0.45065188
-0.71088767 0.24280569 -0.44635737
0.71435571 0.24281126 -0.44621086
-0.73840511 0.26831207 -0.43547249
-0.71019381 0.26766577 -0.44946551
0.71366465 0.26766798 -0.44941688
0.74177235 0.2683152 -0.43540704
-0.58737457 0.41858444 -0.43820882
0.5907743 0.418598 -0.43806136
-0.5623951 0.44369993 -0.4377178
0.56579274 0.44371632 -0.43755388
-0.53808856 0.46925613 -0.43320811
0.54145032 0.4692739 -0.43304384
-0.41226751 0.56936204 -0.43547261
0.41563028 0.56937355 -0.43539047
-0.28578839 0.61780119 -0.44674838
0.28923613 0.61781633 -0.44665051
-0.23653764 0.64437824 -0.43699682
0.23990998 0.64439678 -0.43688226
-0.11132736 0.67019582 -0.43261683
-0.085927866 0.6686008 -0.44203496
-0.060685888 0.66709751 -0.45091176
0.064158142 0.66710573 -0.45086288
0.089331798 0.6686064 -0.4420023
0.11465854 0.6701985 -0.4326005
-0.71442848 0.067535371 -0.43049634
0.7177676 0.067533582 -0.43038118
-0.74340665 0.11778696 -0.41381526
0.74662226 0.11778707 -0.41368246
-0.74272037 0.14301836 -0.41678703
0.74596244 0.14301951 -0.41663778
-0.74292725 0.16826352 -0.41589117
0.74617362 0.16826652 -0.41569197
-0.74334139 0.19354308 -0.41409767
0.74656659 0.19354706 -0.41393161
-0.76845074 0.26927173 -0.41469586
0.77167028 0.26927701 -0.41457939
-0.51434362 0.49533248 -0.42479551
0.51764452 0.49535549 -0.42459738
-0.49047074 0.52153969 -0.41637242
0.49370304 0.5215621 -0.41618979
-0.36287612 0.5954423 -0.42868626
0.36618721 0.5954566 -0.42858732
-0.31335807 0.62175339 -0.42107725
0.31660908 0.62176871 -0.42097807
-0.16256753 0.67340535 -0.41366565
-0.13687362 0.67179728 -0.42316043
0.1401315 0.67179728 -0.42316043
0.1657531 0.67340803 -0.41364908
-0.7947346 -0.10973144 -0.41048861
-0.76944679 -0.10972928 -0.41052175
0.77260739 -0.10972928 -0.41052175
0.79789484 -0.10973144 -0.41048861
-0.82183301 -0.084892549 -0.40332997
0.82500815 -0.084910013 -0.40304565
-0.7464698 0.067074358 -0.40055156
0.74957973 0.06707269 -0.40043437
-0.74456346 0.09249422 -0.40880597
0.74773318 0.092493474 -0.40870595
-0.74439418 0.21893552 -0.40953922
0.74758434 0.21894073 -0.40937269
-0.77257037 0.24468878 -0.3974328
-0.74390972 0.24414191 -0.41163695
0.74708998 0.24414384 -0.411587
0.77564561 0.24469125 -0.39736557
-0.62021405 0.42231542 -0.3978188
0.62331092 0.42233244 -0.39763403
-0.46668437 0.54806989 -0.40647089
0.46984386 0.54809839 -0.40625393
-0.39118016 0.59919983 -0.40299535
0.39429441 0.59921443 -0.40289509
-0.26423362 0.64938045 -0.40605342
0.2673701 0.64940208 -0.40592003
-0.18841 0.67501974 -0.40413237
0.19152322 0.67502546 -0.40409911
-0.82639921 -0.11147282 -0.38535511
0.82940346 -0.11148325 -0.385203
-0.74892265 0.04147277 -0.38993061
0.75197357 0.041467652 -0.38971126
-0.77703321 0.11778696 -0.37873161
0.7799843 0.11778696 -0.37857878
-0.7771669 0.1433156 -0.37817132
0.78011757 0.14331692 -0.37800145
-0.77755606 0.16886944 -0.37654054
0.78049427 0.16887197 -0.37637043
-0.80313909 0.24549937 -0.37637055
0.80606514 0.24550393 -0.37625146
-0.64993531 0.39877576 -0.37611532
0.65292919 0.39881897 -0.37560534
-0.59569347 0.44815689 -0.39318109
0.59875333 0.44817528 -0.39299607
-0.57195061 0.47458649 -0.38374829
0.57493937 0.47460845 -0.3835454
-0.54782379 0.5009988 -0.37572443
0.55074674 0.50102037 -0.3755374
-0.44402555 0.57603276 -0.3873322
0.44703859 0.57606536 -0.38709557
-0.34176603 0.62633854 -0.39129567
0.34479043 0.62635678 -0.39117765
-0.21511117 0.67837465 -0.3843236
0.21807843 0.67839754 -0.38418818
-0.011237879 0.70332009 -0.38734889
0.014220082 0.70334119 -0.38723063
-0.80632126 -0.13863215 -0.36345267
0.80911946 -0.13863215 -0.36345267
-0.78260124 0.06637916 -0.35539889
0.78538519 0.066375941 -0.35519218
-0.77918589 0.092193305 -0.3697108
0.78209144 0.092191294 -0.36945486
-0.77867305 0.1945186 -0.37185991
0.78157139 0.19452217 -0.37170649
-0.80754685 0.22050786 -0.35847723
-0.77842504 0.22006381 -0.37289917
0.78130776 0.22006541 -0.37284803
0.81032318 0.22050992 -0.35840857
-0.5240885 0.5279268 -0.36451435
0.52692914 0.52795422 -0.36429179
-0.42210314 0.60544229 -0.36031473
0.4249174 0.60549009 -0.35998869
-0.37113202 0.63158983 -0.35718811
0.37389687 0.63161105 -0.35705066
-0.29280865 0.65508717 -0.3707515
0.29567465 0.65510947 -0.37061501
-0.062728614 0.70772702 -0.36245883
-0.036896814 0.70563138 -0.37429535
0.039779052 0.70564342 -0.3742274
0.065520011 0.70773619 -0.36240733
-0.83417529 -0.13930246 -0.35474455
0.83693618 -0.13931179 -0.35462403
-0.68294841 0.37599748 -0.34018147
0.68564403 0.37602699 -0.33979952
-0.50162673 0.55625683 -0.34391224
0.50431252 0.55629081 -0.34365213
-0.11494809 0.71196061 -0.33854795
-0.088745795 0.70984095 -0.35052025
0.091444887 0.70984381 -0.35050309
0.11755568 0.71196669 -0.33851326
-0.78737432 0.040213309 -0.33539772
0.79001689 0.040207215 -0.33513629
-0.81429344 0.19546017 -0.33108938
0.81685925 0.19546172 -0.3310194
-0.8417269 0.22153819 -0.32501781
0.84450996 0.22157328 -0.32387817
-0.60662347 0.47994572 -0.33402097
0.60922909 0.47996649 -0.33382905
-0.58308232 0.50733209 -0.32087624
0.58559746 0.50736248 -0.32061255
-0.3228046 0.66221154 -0.32668221
0.32534081 0.66224825 -0.32645452
-0.24457079 0.68712682 -0.33264303
0.24714398 0.68715644 -0.33246863
-0.14134189 0.71410793 -0.32641959
0.14385843 0.71412337 -0.32633197
-0.84426808 -0.16837573 -0.31501448
-0.81825328 -0.16837573 -0.31501448
0.82067859 -0.16837573 -0.31501448
0.8466934 -0.16837573 -0.31501448
-0.82145375 0.11778701 -0.30202234
0.82385117 0.11778701 -0.30172026
-0.82033038 0.14386663 -0.30658269
0.82278383 0.14386974 -0.30619299
-0.82072341 0.16997105 -0.30498707
0.82323247 0.16998135 -0.30431283
-0.84592867 0.1959824 -0.30847788
0.84832549 0.19598435 -0.30838931
-0.63922513 0.45757851 -0.2990346
0.64160305 0.45761946 -0.29862511
-0.56076348 0.53595692 -0.29931939
0.56311113 0.53598988 -0.29905224
-0.48032162 0.58630025 -0.31323266
0.4827944 0.58636141 -0.31279135
-0.16830154 0.71750087 -0.30725598
0.17067128 0.71751654 -0.30716741
-0.82550895 0.065303952 -0.28556013
0.82777607 0.065299407 -0.28527308
-0.82347643 0.091609024 -0.29381132
0.82578546 0.091607526 -0.29361475
-0.40571955 0.64271158 -0.28495014
0.40805659 0.64290237 -0.28371131
-0.27500761 0.69624239 -0.27881873
0.2771821 0.69630343 -0.2784586
-0.85693157 -0.19899544 -0.26516497
-0.83053303 -0.19899544 -0.26516497
0.83257461 -0.19899544 -0.26516497
0.85897315 -0.19899544 -0.26516497
-0.74972355 -0.066613071 -0.27239442
0.75171173 -0.066585861 -0.27290046
-0.8290953 0.038726218 -0.2710017
0.83125091 0.03871955 -0.27071202
-0.85392547 0.17040192 -0.27699852
0.85608029 0.1704033 -0.27690852
-0.67282575 0.43488511 -0.26174819
0.67491806 0.43492195 -0.26134789
-0.5408839 0.56715703 -0.26061976
0.54296058 0.56721652 -0.2601645
-0.35411125 0.67028409 -0.27674615
0.35626191 0.67031622 -0.27654779
-0.78148973 -0.094402291 -0.24891067
0.78334481 -0.094385318 -0.24918544
-0.83271235 0.011920512 -0.25631809
0.83475554 0.011911534 -0.25602603
-0.86253929 0.14435555 -0.24309039
0.864429 0.14435606 -0.24301672
-0.83747756 -0.01529076 -0.23697364
0.8393594 -0.015299954 -0.23673368
-0.70716858 0.41168621 -0.22365248
0.70897627 0.41172239 -0.2232244
-0.86997896 -0.23053381 -0.21380424
-0.84318507 -0.23053381 -0.21380424
0.84483123 -0.23053381 -0.21380424
0.87162519 -0.23053381 -0.21380424
-0.81813568 -0.15071487 -0.20649397
0.81967783 -0.1506989 -0.20670056
-0.87150693 0.11778701 -0.20778954
0.87312531 0.11778701 -0.20771444
-0.89687079 0.14458393 -0.21343017
0.89858067 0.14458594 -0.21316814
-0.4678475 0.62663609 -0.2154119
0.46960887 0.62675089 -0.21462691
-0.79356492 -0.1245485 -0.1966238
0.79505354 -0.12454056 -0.19673693
-0.87669617 0.036794633 -0.18736207
0.87822306 0.03678675 -0.18702018
-0.87487155 0.063902691 -0.19454443
0.87647206 0.063896254 -0.19412827
-0.87393093 0.090873331 -0.19824719
0.87555969 0.090870224 -0.19783211
-0.90446967 0.11778707 -0.18439722
0.90591854 0.11778713 -0.1842829
-0.7422455 0.38795334 -0.18487251
0.74379945 0.38800165 -0.18424499
-0.82756019 -0.18090931 -0.16700101
0.82881057 -0.18089628 -0.16715491
-0.88560283 -0.26395601 -0.15230131
-0.85622185 -0.2630313 -0.1608814
0.85746068 -0.2630313 -0.1608814
0.88683283 -0.26398107 -0.15206873
-0.80396634 -0.1549418 -0.15158439
0.8050946 -0.15492833 -0.15175879
-0.91337752 0.090504766 -0.15036297
0.91455501 0.090504184 -0.15028536
-0.83720052 -0.21179518 -0.12660384
0.83812553 -0.21177515 -0.12681997
-0.89136261 0.0080194175 -0.12962794
0.89330435 0.0079014972 -0.12579775
-0.86965632 -0.29653001 -0.10634446
0.87047529 -0.29653001 -0.10634446
-0.81440485 -0.18604213 -0.10638404
0.81518418 -0.18602687 -0.10656297
-0.8470642 -0.24339679 -0.085270286
0.8476513 -0.24336657 -0.085571766
-0.92683274 0.062430903 -0.098954558
0.92764044 0.062428143 -0.09877491
-0.8554579 -0.33107898 -0.050097466
0.85584384 -0.33107898 -0.050097466
-0.85313481 -0.3019008 -0.059832096
0.8535251 -0.30186552 -0.060137868
-0.85329062 -0.27399197 -0.059179187
0.85370409 -0.27397224 -0.059362888
-0.82511318 -0.2179462 -0.060015559
0.82553005 -0.21792746 -0.060219526
-0.79957396 -0.19089347 -0.049092412
0.7997179 -0.1908015 -0.050179362
-0.79785085 -0.16223741 -0.056810975
0.79772973 -0.16203785 -0.059403539
-0.88602442 -0.33233532 -0.039897919
0.88645983 -0.33240131 -0.039361835
-0.8320033 -0.24890983 -0.030180693
0.83218968 -0.24888897 -0.030387998
-0.80420327 -0.22087103 -0.02835536
0.80440402 -0.22086319 -0.028438568
-0.94108766 0.033495143 -0.044490576
0.94147754 0.033490889 -0.044305563
-0.83640659 -0.27917203 -0.011113644
0.83644575 -0.27914941 -0.011323094
-0.86930299 -0.36672565 0.0079199076
-0.84080225 -0.36672565 0.0079199076
0.84074163 -0.36672565 0.0079199076
0.86924237 -0.36672565 0.0079199076
-0.84087068 -0.30975837 0.0082162619
0.84077466 -0.30974123 0.0080680847
-0.81200868 -0.25259143 0.0066084862
0.81192625 -0.25257662 0.0064604282
-0.84244764 -0.33910245 0.015044689
0.84226102 -0.3390632 0.014725924
-0.81705809 -0.14019582 0.02922678
0.81673658 -0.14016476 0.028777122
-0.93146706 -0.025498934 0.028242469
0.93128157 -0.025503881 0.028370857
-0.81869102 -0.28430796 0.036541104
0.81837761 -0.28429168 0.036390901
-0.79024333 -0.25571391 0.037809849
0.78992134 -0.25569889 0.037659168
-0.79130167 -0.22743657 0.042719722
0.79087007 -0.22739083 0.042223811
-0.85463428 -0.40352553 0.06781435
0.85411257 -0.40352553 0.06781435
-0.82352161 -0.31552753 0.058179736
0.82302254 -0.31550005 0.057940483
-0.82359922 -0.11333559 0.058527589
0.82304126 -0.1133048 0.058027625
-0.82998782 -0.40620399 0.087144852
0.82924592 -0.40615821 0.086813688
-0.82799137 -0.34688139 0.078201771
0.82735187 -0.34685975 0.078025937
-0.79746503 -0.28805569 0.071314454
0.79690278 -0.28804851 0.07124877
-0.79950893 -0.20189223 0.080796599
0.79879123 -0.20185316 0.080334663
-0.83113289 -0.37776473 0.09227407
0.83036089 -0.37772706 0.091986418
-0.80447179 -0.32079795 0.10382164
0.80364048 -0.32077989 0.10366559
-0.94966626 -0.057464965 0.09988308
0.94896889 -0.05747842 0.10017204
0.80856884 -0.35293823 0.12737703
-0.77798307 -0.29298499 0.11705375
0.77701503 -0.29294875 0.11671758
-0.80822903 -0.17594486 0.12125289
0.80720717 -0.17591193 0.12082589
-0.83949322 -0.44154233 0.12972367
-0.81005973 -0.44154567 0.12974632
0.80906129 -0.44154567 0.12974632
0.83849502 -0.44154233 0.12972367
-0.81205022 -0.41338682 0.1389811
0.81093353 -0.41335535 0.13875425
-0.81170315 -0.38366646 0.13737094
0.81061769 -0.38364857 0.13723469
-0.80957818 -0.35295475 0.12751234
-0.78189033 -0.32449657 0.13585246
0.78082669 -0.32448605 0.13576198
-0.7809639 -0.26507926 0.13139534
0.77985328 -0.26502958 0.13089836
-0.78688848 -0.35694396 0.15990007
0.78563958 -0.3569327 0.15980828
-0.8149358 -0.14872742 0.15236866
0.81365401 -0.14869097 0.15184307
-0.79068691 -0.44862914 0.17817521
0.78927398 -0.4485985 0.17796707
-0.79173261 -0.41951489 0.18320644
0.79029477 -0.41949546 0.18306696
-0.78963435 -0.38834345 0.17311096
0.78826511 -0.38831925 0.17292619
-0.75914609 -0.32838574 0.16953444
0.75780147 -0.32836193 0.16932714
-0.76228231 -0.3003296 0.18520391
0.76081222 -0.30030462 0.18497157
0.79071784 -0.24059656 0.18518066
-0.81823856 -0.12005829 0.16769135
0.81686187 -0.12003275 0.16727698
-0.820683 -0.090938784 0.17903221
0.81921852 -0.090916298 0.17861521
-0.79392433 -0.48083842 0.19375157
0.7924332 -0.48083842 0.19375157
-0.76272911 -0.36033556 0.1874361
0.76126862 -0.360324 0.18734324
-0.79219127 -0.24061802 0.18541312
-0.82314181 -0.06164775 0.19043994
0.82159382 -0.061629348 0.19004369
-0.7688728 -0.48459232 0.21813202
0.76716214 -0.48456663 0.21796656
-0.76920408 -0.42458355 0.21978712
0.76748061 -0.42456073 0.21962166
-0.76713586 -0.39309955 0.20945346
0.76549208 -0.39307803 0.20928872
-0.73773181 -0.3634623 0.21282148
0.73607206 -0.36344761 0.21270323
-0.76941246 -0.2740292 0.22082806
0.76764905 -0.27399611 0.22049701
-0.79749131 -0.21291029 0.21091294
0.79582089 -0.21289039 0.21067762
-0.77083617 -0.45590782 0.22794139
0.76904982 -0.45588356 0.2277751
-0.74267226 -0.39689982 0.23849285
0.74081904 -0.39688724 0.238397
-0.7399292 -0.33470255 0.22423959
0.73815519 -0.33467242 0.22397864
-0.80255407 -0.18472192 0.23527133
0.80070037 -0.18470547 0.23505688
-0.77723002 -0.52146131 0.25988734
-0.74680358 -0.52147293 0.25995958
0.74480277 -0.52147293 0.25995958
0.77522975 -0.52146131 0.25988734
-0.7462371 -0.4297421 0.2570163
0.74422783 -0.42971879 0.25684774
-0.74599129 -0.30793136 0.25573885
0.74395621 -0.30789241 0.25537789
-0.77499908 -0.24646801 0.24874079
0.77304304 -0.24644804 0.24852479
-0.80563319 -0.15549749 0.25008571
0.8036651 -0.15548241 0.24986947
-0.74883944 -0.49266058 0.27053845
0.74671686 -0.49262702 0.27032006
-0.74827933 -0.46171266 0.26762807
0.74619257 -0.4616912 0.2674824
-0.71696079 -0.40013278 0.26319706
0.71491796 -0.4001202 0.26310074
-0.7171306 -0.36978024 0.26411664
0.71505928 -0.36975333 0.26389897
-0.78031033 -0.21836042 0.27527702
0.77814478 -0.21833989 0.27503407
-0.80873561 -0.12605169 0.26501191
0.80665231 -0.12603822 0.26479399
-0.81089956 -0.096132837 0.27542317
0.80871147 -0.096114479 0.27508271
-0.81098044 -0.065590896 0.27581251
0.80878454 -0.065574102 0.27544749
-0.72287452 -0.5271709 0.29520619
0.72057194 -0.52714282 0.29503429
-0.72194946 -0.43434012 0.29019916
0.71969414 -0.43432319 0.29007685
-0.72215337 -0.34244636 0.29130256
0.71985042 -0.34240666 0.29095924
-0.75207162 -0.28068459 0.28733313
0.74982387 -0.28066504 0.28713739
-0.78352273 -0.18903711 0.29132712
0.78124261 -0.189022 0.2911309
-0.72493249 -0.49817359 0.30634558
0.72255713 -0.4981584 0.30624688
-0.72406608 -0.46668959 0.30165565
0.72172678 -0.46667522 0.30155694
-0.69541448 -0.4375791 0.31357467
0.69299251 -0.43757218 0.31352508
-0.69407326 -0.40573418 0.30599988
0.69169706 -0.40571803 0.3058759
-0.75727934 -0.25253257 0.31439316
0.75480908 -0.25250748 0.31412041
-0.78657311 -0.1594106 0.30656803
0.78417546 -0.15939692 0.30637014
-0.78932303 -0.12945691 0.32030737
0.78681934 -0.12944472 0.32010829
-0.69803703 -0.56350237 0.32838666
0.69550937 -0.56350237 0.32838666
-0.69824052 -0.53272045 0.32953632
0.69569141 -0.53270853 0.32946146
-0.69884747 -0.50227159 0.3329643
0.69626343 -0.50225246 0.33283913
-0.69800597 -0.47057366 0.32821167
0.69546288 -0.47055906 0.32811201
-0.66765797 -0.44011319 0.33186281
0.66508746 -0.44009924 0.33176267
-0.69760811 -0.37739784 0.32596433
0.69507378 -0.37737924 0.3258146
-0.72869086 -0.31557781 0.32668841
0.72613662 -0.31555361 0.32646382
-0.76094496 -0.22328553 0.33344018
0.75833678 -0.2232666 0.33321488
-0.79085004 -0.098962672 0.32793701
0.78828269 -0.098950468 0.32771218
-0.7916308 -0.068178616 0.33183753
0.78903812 -0.068169408 0.33163726
-0.79202175 -0.037259556 0.3337909
0.78941399 -0.037251674 0.33359039
-0.67079639 -0.56722945 0.35039437
0.66807485 -0.5672037 0.3502425
-0.67107886 -0.4740622 0.35206234
0.66835678 -0.474051 0.35198629
-0.66944295 -0.41049808 0.34240258
0.66678715 -0.41048163 0.34227693
-0.73378533 -0.28738269 0.35426271
0.73101377 -0.28735721 0.35400951
-0.76394528 -0.19347924 0.34903061
0.76121688 -0.19346181 0.34880364
-0.67298514 -0.53818166 0.36331809
0.67016399 -0.53815705 0.3631655
-0.6724087 -0.50642085 0.35991418
0.66962612 -0.50640911 0.35983813
-0.6435287 -0.477319 0.37433016
0.64063561 -0.47730762 0.37425339
-0.64164168 -0.44438028 0.36265719
0.63882291 -0.44435567 0.36247933
-0.67421001 -0.38288951 0.37055075
0.67133313 -0.3828705 0.37039745
-0.70355618 -0.35032797 0.35955894
0.70076287 -0.3503103 0.35940659
-0.73788494 -0.2582655 0.37645257
0.73494661 -0.25824416 0.37622225
-0.76693964 -0.16343054 0.36458957
0.76409578 -0.16341656 0.3643862
-0.76844049 -0.13266447 0.37238848
0.76553172 -0.13265035 0.37215865
-0.76940495 -0.10162794 0.3773998
0.7664575 -0.1016157 0.37716925
-0.76906514 -0.038870089 0.37563384
0.76614547 -0.038863994 0.37548053
-0.76810646 -0.0073850825 0.37065256
0.76522058 -0.0073797926 0.37047422
-0.64536428 -0.57320631 0.38568509
0.64238375 -0.57319295 0.3856076
-0.64641303 -0.54284602 0.39217222
0.64337063 -0.54282117 0.39201772
-0.64561784 -0.51063007 0.3872534
0.64262521 -0.51061803 0.38717592
-0.61506945 -0.48003799 0.3929199
0.61203378 -0.48002654 0.39284241
-0.64467108 -0.41560119 0.38139713
0.64171177 -0.41558093 0.38124287
-0.70810902 -0.3218917 0.38527358
0.70511311 -0.32187209 0.38509357
-0.74082732 -0.22827637 0.39237869
0.73776603 -0.2282567 0.39214623
-0.7697795 -0.070372932 0.37934601
0.7668218 -0.07036338 0.37914097
-0.64754039 -0.60699826 0.39914596
-0.61705339 -0.60817754 0.40580595
0.61391085 -0.60815448 0.40567625
0.64446807 -0.60699826 0.39914596
-0.61821043 -0.51464343 0.41332114
0.61501759 -0.51463133 0.41324317
