ply
format ascii 1.0
comment PCL generated
element vertex 1337
property float x
property float y
property float z
element camera 0
property float view_px
property float view_py
property float view_pz
property float x_axisx
property float x_axisy
property float x_axisz
property float y_axisx
property float y_axisy
property float y_axisz
property float z_axisx
property float z_axisy
property float z_axisz
property float focal
property float scalex
property float scaley
property float centerx
property float centery
property int viewportx
property int viewporty
property float k1
property float k2
end_header
-0.38244063 0.21009566 -0.10774469
0.15114376 0.20999037 -0.10911274
-0.3594678 0.23198849 -0.11175323
0.12902001 0.23167339 -0.11547542
0.1511132 0.23254819 -0.10514319
-0.3370086 0.25405538 -0.11320949
0.12895939 0.25420976 -0.11153853
-0.33863324 0.27716377 -0.10403335
-0.31457201 0.27609995 -0.11466455
0.10683456 0.27607384 -0.11492467
0.1288856 0.27689248 -0.10674465
-0.31612447 0.29926684 -0.1054976
-0.2921581 0.29812214 -0.11611772
0.084709853 0.29806796 -0.11662233
0.10668508 0.29894832 -0.10845208
-0.2936385 0.32134753 -0.10696006
-0.26982555 0.32016641 -0.11718786
0.062545948 0.32023188 -0.11662233
0.084511258 0.3209765 -0.11017263
-0.24871901 0.34321269 -0.10998833
-0.22581154 0.34259722 -0.11498594
0.040243521 0.34276503 -0.11362326
0.062197149 0.34351191 -0.10756004
-0.2047075 0.36584616 -0.1067909
-0.18187749 0.36521882 -0.11158454
-0.15912309 0.36459363 -0.11636245
-0.1367349 0.36432382 -0.11842489
-0.026049316 0.36444566 -0.11749327
-0.0041257441 0.36494204 -0.11369979
0.017855704 0.36543977 -0.1098963
0.039822653 0.3661446 -0.10451126
-0.16062331 0.38855976 -0.10337019
-0.13787434 0.38793868 -0.10785222
-0.1154891 0.38772574 -0.10938942
-0.093129098 0.38751507 -0.11090946
-0.07088615 0.38745764 -0.11132383
-0.048828006 0.38772145 -0.10942018
-0.026874021 0.38825217 -0.10558999
-0.16223603 -0.41494852 -0.089403629
-0.13933975 -0.41427627 -0.094255328
-0.11664367 -0.41377792 -0.097852349
-0.094458342 -0.41396254 -0.096519947
-0.072252616 -0.41414723 -0.095186472
-0.050026476 -0.41433221 -0.093851686
-0.027779818 -0.41451731 -0.092515588
-0.00564982 -0.41501123 -0.088951826
-0.20653296 -0.39212522 -0.092841983
-0.18358985 -0.3914918 -0.097682118
-0.16072309 -0.3908605 -0.10250604
-0.0049102157 -0.39106259 -0.10096169
0.017167479 -0.39156476 -0.097124457
0.039303049 -0.39207026 -0.093261361
0.061466523 -0.39268321 -0.088577867
-0.25121555 -0.36976871 -0.092919707
-0.22773555 -0.368761 -0.10110068
0.061820515 -0.36917061 -0.097774982
0.083941229 -0.36992377 -0.09166038
-0.29614699 -0.34759283 -0.091442704
-0.27244034 -0.34658113 -0.10020435
0.084223829 -0.34650791 -0.10083795
0.10636797 -0.34721425 -0.09472096
-0.31778932 -0.32477975 -0.095667362
0.10652458 -0.32415101 -0.1015023
0.12867776 -0.32504076 -0.093245864
-0.34049374 -0.30266899 -0.09352541
0.12877822 -0.30204383 -0.099771261
0.15100822 -0.30287117 -0.091504812
-0.363666 -0.2807425 -0.089029789
0.15105017 -0.28001046 -0.096953869
-0.36158723 -0.25741342 -0.10028148
0.15108077 -0.25735849 -0.10093069
0.17336547 -0.25824216 -0.090493679
-0.38473809 -0.23546825 -0.095806718
0.17336547 -0.2355697 -0.094488144
-0.40796059 -0.21345501 -0.09131825
0.17336547 -0.21298186 -0.098146677
-0.43125838 -0.19137457 -0.086800218
-0.40571213 -0.19040447 -0.10255229
0.17336547 -0.19059199 -0.099508405
0.19575883 -0.1913736 -0.086815834
-0.42980242 -0.16860355 -0.093805075
0.17336547 -0.1682238 -0.10085344
0.19574839 -0.16890715 -0.088172674
-0.4290449 -0.14609572 -0.09744966
0.17336547 -0.14588995 -0.10190403
0.19573782 -0.14646088 -0.089543819
-0.42828923 -0.12364426 -0.10108531
0.19573699 -0.12408432 -0.089653015
-0.45350385 -0.10177951 -0.087486625
0.19573699 -0.10171276 -0.089652777
-0.45256406 -0.079290666 -0.091847062
0.19573699 -0.079341337 -0.089652777
-0.4517774 -0.056879796 -0.095496774
0.19573711 -0.05697006 -0.08963728
-0.4509927 -0.034525327 -0.099137068
0.19573699 -0.034598254 -0.089652777
0.19573699 -0.012226787 -0.089652777
0.19573699 0.010144727 -0.089652896
-0.45093602 0.032366104 -0.099400043
0.19573699 0.032516293 -0.089652896
-0.45172387 0.05474706 -0.095744729
0.19573699 0.054887801 -0.089652777
-0.45251036 0.077184036 -0.092095733
0.19573699 0.077259369 -0.089652777
-0.45344001 0.099702798 -0.087782979
0.19573687 0.099630207 -0.089668393
-0.4282347 0.1214621 -0.10134792
0.19573699 0.12200225 -0.089652777
-0.4289934 0.14394042 -0.097697377
0.17336547 0.14371042 -0.10196555
0.19573711 0.14437468 -0.08963728
-0.4297508 0.1664744 -0.094053507
0.17336547 0.16604994 -0.10094631
0.19574766 0.16683073 -0.088266253
-0.43110275 0.1892627 -0.087548852
0.17336547 0.18842757 -0.099601269
0.19575822 0.18930808 -0.086893678
-0.40781116 0.21130277 -0.092064619
0.17336547 0.21082862 -0.098224044
-0.38459486 0.23327586 -0.096550941
0.17336547 0.23342811 -0.094752073
-0.3614502 0.25518104 -0.10102344
0.1510828 0.25516531 -0.10119331
0.17336547 0.25612926 -0.090758204
-0.36352783 0.27859053 -0.08977747
0.15105219 0.27784601 -0.097217321
0.17336547 0.2789025 -0.086659789
-0.34036177 0.3004767 -0.094270825
0.12878513 0.29983565 -0.10021973
0.15101157 0.30072784 -0.091940403
-0.31768426 0.32257983 -0.096287489
0.10653492 0.321926 -0.10195029
0.1286847 0.32287905 -0.093696117
-0.29597104 0.34536293 -0.092530966
-0.27227378 0.3442845 -0.10128605
0.084243804 0.34425977 -0.10148692
0.10638302 0.34501299 -0.095372558
0.12858045 0.34605345 -0.086924911
-0.25105423 0.3675172 -0.094022393
-0.22761354 0.36647564 -0.10198104
0.061844945 0.366943 -0.098409772
0.083960861 0.36774293 -0.092298031
-0.22973007 0.39086857 -0.086706519
-0.20641911 0.38989818 -0.093711734
-0.18348306 0.38922787 -0.098549128
-0.0048607439 0.38878214 -0.10176492
0.017210871 0.3893137 -0.097929716
0.039340347 0.38984865 -0.094069004
0.061490513 0.39052308 -0.089200974
-0.16213715 0.41274315 -0.09025991
-0.13924775 0.41203395 -0.095108867
-0.11655381 0.41150141 -0.098750234
-0.094366759 0.41168264 -0.097511649
-0.072168574 0.41187754 -0.096179128
-0.049948782 0.41207036 -0.094860554
-0.027709872 0.41226554 -0.09352541
-0.0055999309 0.41281608 -0.089761853
-0.18688959 -0.44002971 -0.070891261
-0.16376454 -0.43925807 -0.076166391
-0.14107761 -0.43897098 -0.078129888
-0.11845255 -0.43873006 -0.079777002
-0.095871806 -0.43851918 -0.081218839
-0.073549494 -0.43871629 -0.079871178
-0.051206514 -0.43891358 -0.078522205
-0.028842852 -0.43911102 -0.077172041
-0.006458506 -0.43930864 -0.075820565
0.015864298 -0.4397299 -0.072940588
-0.20843977 -0.41649121 -0.078271031
0.061032347 -0.41662613 -0.077297568
0.083316274 -0.41744822 -0.071364522
-0.18521094 -0.41562533 -0.084520102
0.016518608 -0.41554725 -0.085082769
0.038745388 -0.41608709 -0.081187606
-0.25358084 -0.39423132 -0.076747775
-0.22988147 -0.39307112 -0.085613847
0.083656833 -0.39348847 -0.082424521
0.10589334 -0.39456892 -0.074168921
-0.29876396 -0.37194449 -0.07525444
-0.27491763 -0.37085322 -0.084113836
0.10615513 -0.37068197 -0.085504413
0.12842351 -0.37176245 -0.076732159
-0.32008505 -0.34867024 -0.082111478
0.12857179 -0.3481794 -0.086363196
0.15088809 -0.34938765 -0.075899005
-0.342498 -0.32623067 -0.082205415
0.15095048 -0.32603669 -0.084004402
0.17336547 -0.32716799 -0.073507667
-0.3657639 -0.30425519 -0.077674508
0.17336547 -0.30387065 -0.081516504
-0.38910234 -0.2822113 -0.073129654
0.17336547 -0.28099027 -0.08634758
0.19585377 -0.28208616 -0.074483633
-0.3869102 -0.25874811 -0.084520102
0.19581652 -0.25918821 -0.079322338
-0.41022974 -0.2366865 -0.079980969
0.19578047 -0.23637673 -0.084004283
0.21839881 -0.23739354 -0.070796609
-0.43379867 -0.21461482 -0.074577928
0.19576952 -0.21386318 -0.085426331
0.21837357 -0.21476318 -0.072436452
0.21834956 -0.19216311 -0.073995709
-0.45642537 -0.16967455 -0.073932648
0.21832824 -0.16959652 -0.075380206
-0.45544964 -0.14697289 -0.078459501
0.21832389 -0.14710198 -0.075663328
-0.45447356 -0.12434085 -0.082987785
0.21832389 -0.12462282 -0.075663328
0.21832389 -0.10214356 -0.075663447
0.21832389 -0.079664387 -0.075663447
-0.47906554 -0.057222024 -0.073271394
0.21832412 -0.057185464 -0.075647593
-0.47805452 -0.034689531 -0.077800035
0.21832389 -0.034706004 -0.075663447
-0.47704661 -0.012226787 -0.082314849
0.21832389 -0.01222674 -0.075663447
-0.47697675 0.010198915 -0.082628012
0.21832389 0.010252429 -0.075663209
-0.47798789 0.032694168 -0.078098297
0.21832389 0.032731645 -0.075663209
-0.47899872 0.055259168 -0.07357049
0.21832389 0.055210859 -0.075663328
0.21832389 0.077690125 -0.075663447
0.21832365 0.10016857 -0.075679064
-0.45440948 0.1222965 -0.083284974
0.21832389 0.12264846 -0.075663328
-0.45538539 0.14496098 -0.078757405
0.21832389 0.14512768 -0.075663447
-0.45636088 0.16769509 -0.074231625
0.21832679 0.16761854 -0.07547462
0.21834812 0.19019522 -0.074090123
-0.43360579 0.21257737 -0.075506091
0.1957688 0.21180655 -0.085520029
0.21837211 0.21280651 -0.072530746
-0.41007918 0.23461524 -0.080733299
0.1957795 0.23432754 -0.084129453
0.21839735 0.23544852 -0.070891142
-0.38676584 0.25663626 -0.085270047
0.1958141 0.25715682 -0.079635978
-0.38895988 0.28018239 -0.073869705
0.19585134 0.28008947 -0.074798226
-0.36562473 0.30218428 -0.07842803
0.17336547 0.3018159 -0.081845284
-0.34236223 0.32411736 -0.08297205
0.15095469 0.32393491 -0.084551334
0.17336547 0.3251465 -0.074058533
-0.31985718 0.34648061 -0.083456993
0.15089232 0.34734374 -0.076449156
-0.29858607 0.36982927 -0.076354861
-0.27474681 0.36866874 -0.085223317
0.10617027 0.36854607 -0.086160183
0.12843585 0.36967504 -0.077533126
0.083676107 0.39137545 -0.083050489
-0.25341773 0.39209411 -0.077862859
0.10591151 0.39249697 -0.074955583
-0.2319805 0.41563848 -0.070465207
-0.20829603 0.41433609 -0.079369307
-0.18510318 0.41345483 -0.085395098
0.016561523 0.41338393 -0.085879207
0.038782999 0.41395104 -0.082001805
0.061063163 0.41452202 -0.078098297
0.083347827 0.41535714 -0.072389245
-0.18675557 0.43792456 -0.071979284
-0.16366294 0.43714443 -0.077046394
-0.14094064 0.43678182 -0.079400778
-0.1183255 0.43652856 -0.081046462
-0.09577924 0.43634769 -0.082220793
-0.073464558 0.43655506 -0.080874324
-0.05112803 0.43676016 -0.079541802
-0.028772146 0.43696791 -0.078192592
-0.0063955784 0.43717584 -0.076842189
0.015907601 0.43765298 -0.073743701
-0.16605967 -0.46479362 -0.05629003
0.037543893 -0.4649654 -0.055174232
-0.14317396 -0.46442601 -0.058677912
-0.12039697 -0.464169 -0.060347199
-0.097645819 -0.46391222 -0.062014699
-0.07492052 -0.46365583 -0.063680053
-0.052399114 -0.46375597 -0.063030005
-0.029917195 -0.46396601 -0.061665416
-0.007414341 -0.46417633 -0.060299516
0.015109465 -0.46438682 -0.058932424
-0.21057758 -0.44133964 -0.061935306
0.038183063 -0.44030446 -0.06901288
0.060493559 -0.44114009 -0.063299537
0.082833454 -0.44225386 -0.055684328
-0.25597265 -0.41896814 -0.060394883
-0.23213363 -0.41772586 -0.069360375
0.10562328 -0.41867995 -0.062474728
-0.30192506 -0.39698574 -0.055700302
-0.27742261 -0.39539665 -0.067843676
0.12824404 -0.39575905 -0.065074444
0.15073419 -0.39695859 -0.055907607
-0.32350737 -0.37358877 -0.061903596
0.15082449 -0.37288257 -0.06763804
0.17336547 -0.3741723 -0.05716598
0.19600585 -0.35183233 -0.054727674
-0.34500164 -0.35029233 -0.068064809
0.17336547 -0.35060653 -0.065343738
-0.36787534 -0.32795051 -0.066246033
0.19594267 -0.32830742 -0.062934995
-0.39130861 -0.30585727 -0.061665535
0.19589126 -0.30506194 -0.06961298
0.21860181 -0.30626294 -0.057611704
-0.41527772 -0.28390822 -0.054759622
0.21852645 -0.28319263 -0.062506557
-0.41251355 -0.26009861 -0.068570495
0.2184511 -0.2601977 -0.067400932
0.24127148 -0.26121548 -0.055381656
-0.43675321 -0.23819654 -0.060363173
0.2412255 -0.23842677 -0.057373047
0.24118763 -0.21569324 -0.059012055
-0.45814013 -0.19265696 -0.065976977
0.24114947 -0.19298412 -0.060664892
0.24112931 -0.17034234 -0.061538458
-0.4831447 -0.14805646 -0.054998755
0.24112931 -0.14775446 -0.061538458
-0.48212099 -0.12524167 -0.059584379
0.24112931 -0.12516643 -0.061538458
-0.48109698 -0.10249739 -0.064171553
0.24112931 -0.10257856 -0.061538458
-0.48007971 -0.0798245 -0.068728566
0.24112931 -0.079990529 -0.061538458
0.24112967 -0.057402886 -0.061522484
-0.50593776 -0.034870207 -0.054328918
0.24112931 -0.034814715 -0.061538339
0.24112931 -0.01222674 -0.061538458
-0.50487822 -0.012226691 -0.05891645
-0.50481212 0.010379156 -0.05920279
0.24112931 0.010361189 -0.061538339
-0.50587142 0.033055663 -0.054615974
0.24112967 0.032949314 -0.061522484
0.24112967 0.05553738 -0.061522484
-0.48001623 0.077894837 -0.06901288
0.24112931 0.078124978 -0.061538458
-0.48103333 0.10060067 -0.064456701
0.24112892 0.10071233 -0.061554074
-0.48205364 0.12337727 -0.059886336
0.24112931 0.12330089 -0.061538339
-0.48307711 0.14622489 -0.055301785
0.24112931 0.14588882 -0.061538458
0.24112931 0.16847666 -0.061538339
-0.45793551 0.19069138 -0.066926479
0.24114689 0.19111757 -0.060776114
0.24118507 0.21383858 -0.059123278
-0.43655509 0.23625952 -0.061316133
0.24122328 0.23658521 -0.057468534
-0.41236496 0.25811031 -0.069313049
0.21844648 0.25825912 -0.067701221
0.24126449 0.25936928 -0.055684328
-0.41509265 0.28200233 -0.055684447
0.21852157 0.28128782 -0.062823892
-0.39116806 0.30391201 -0.062395453
0.1958887 0.30309838 -0.069944382
0.21859691 0.30439341 -0.057929993
-0.36773801 0.32596278 -0.066989541
0.19593851 0.32636869 -0.063474059
-0.36992085 0.34996414 -0.055174232
-0.34476668 0.34821302 -0.069391847
0.17336547 0.3486433 -0.065897822
0.19600166 0.34995237 -0.055269837
-0.32328439 0.37154806 -0.063220263
0.15082972 0.37088111 -0.068317771
0.17336547 0.37226957 -0.057707191
-0.3017087 0.39497969 -0.057038546
-0.27725232 0.39332935 -0.068949699
0.12825574 0.39376092 -0.065834403
0.15074007 0.39503047 -0.056672335
-0.25581005 0.41694877 -0.061506748
0.10564122 0.41669339 -0.063252091
-0.21043432 0.43930233 -0.063030005
0.038220987 0.43825477 -0.069833994
0.060533218 0.43910229 -0.064330101
0.08286535 0.44027385 -0.056720018
-0.16587213 0.46270573 -0.057914257
-0.14303517 0.46237424 -0.05996573
-0.12026823 0.4621045 -0.061633706
-0.097525656 0.46183273 -0.063315511
-0.07481049 0.46156377 -0.064979434
-0.05231978 0.46171221 -0.064060569
-0.029845715 0.46193269 -0.062696934
-0.0073507577 0.46215343 -0.061332107
0.015166 0.46237162 -0.059981704
0.03759174 0.46298134 -0.056210279
-0.12236747 -0.48994926 -0.040656686
-0.099462688 -0.48967603 -0.042346597
-0.076584071 -0.48940313 -0.044034481
-0.053731605 -0.48913059 -0.045720458
-0.031002998 -0.48908657 -0.045993328
-0.0083803982 -0.48930967 -0.044612765
0.014133334 -0.48992324 -0.040817618
-0.21275416 -0.46648526 -0.045303226
-0.18936434 -0.46563905 -0.050798774
0.05988545 -0.46614692 -0.04750061
0.082344435 -0.46733195 -0.039803028
-0.25848779 -0.44407997 -0.043198824
-0.2344133 -0.44265985 -0.052908182
0.10528968 -0.44337347 -0.048029542
0.12786314 -0.44449902 -0.040334582
-0.28025371 -0.42048407 -0.049454808
0.12806262 -0.41995242 -0.053291559
0.15064292 -0.42123291 -0.044050574
-0.32697749 -0.39885539 -0.041413426
0.17336547 -0.39816582 -0.046682954
-0.34861422 -0.37534305 -0.047660947
0.19606926 -0.37548727 -0.04649055
-0.37015963 -0.35193005 -0.053882122
0.21881084 -0.35306707 -0.044034362
-0.39372015 -0.3297947 -0.049134731
0.21868381 -0.32945517 -0.052285314
0.24163051 -0.33079705 -0.039835215
-0.41816163 -0.30799043 -0.040350676
0.24150312 -0.30748993 -0.045351267
0.24138544 -0.28430662 -0.050446987
-0.43973327 -0.26200771 -0.046025157
0.26432157 -0.26235601 -0.041912079
0.2642661 -0.23947845 -0.043713093
-0.46122223 -0.21620144 -0.051678181
0.26421171 -0.2166308 -0.045479655
-0.48583645 -0.19407554 -0.04294157
0.26416034 -0.1938165 -0.047147989
-0.48417163 -0.17094259 -0.050399065
0.2641564 -0.17111079 -0.047276258
0.2641564 -0.14841309 -0.047276378
0.2641564 -0.12571535 -0.047276378
-0.50945234 -0.10326912 -0.039110065
0.2641564 -0.10301764 -0.047276258
-0.50809258 -0.080372542 -0.044998169
0.26415688 -0.080320284 -0.047260165
-0.50700051 -0.057584479 -0.049726963
0.26415688 -0.057622477 -0.047260046
0.2641564 -0.034924492 -0.047276258
0.2641564 -0.01222674 -0.047276258
0.26415688 0.010471059 -0.047260165
0.26415688 0.033169001 -0.047260284
-0.50693399 0.055803172 -0.050014973
0.26415688 0.055866845 -0.047260165
-0.50800359 0.078622542 -0.045383334
0.2641564 0.078564115 -0.047276378
-0.50936306 0.10156132 -0.039496899
0.26415589 0.10126129 -0.047292233
0.2641564 0.12395956 -0.047276258
0.2641564 0.14665727 -0.047276258
-0.48410022 0.16914319 -0.050718784
0.26415589 0.16935407 -0.047292352
-0.48562109 0.19228639 -0.043905973
0.26415688 0.19205393 -0.047260284
-0.46101558 0.21433783 -0.052636623
0.26420826 0.21488014 -0.045592189
-0.46412581 0.23821627 -0.038206935
0.26426214 0.23773906 -0.0438416
-0.43953657 0.26017424 -0.046971679
0.26431811 0.260631 -0.042024851
0.24137805 0.28249437 -0.050766826
-0.41797477 0.30618709 -0.041284561
0.24149497 0.30571076 -0.045704365
-0.39355075 0.32792306 -0.050014973
0.21867545 0.32759798 -0.052828431
0.24162194 0.3290557 -0.040205717
0.21880269 0.35127091 -0.044564486
-0.3483873 0.37341672 -0.048942447
0.19606519 0.37366819 -0.04701972
-0.32675958 0.3969664 -0.04270041
0.17336547 0.39631006 -0.047436595
0.19613339 0.39759579 -0.038158655
-0.28004432 0.41851252 -0.050814748
0.12807466 0.41803581 -0.054073572
0.15064885 0.41938916 -0.044821501
-0.2582857 0.44214293 -0.044580579
-0.23425844 0.44068876 -0.05402565
0.10531372 0.44145152 -0.049070597
0.12787925 0.44263542 -0.041381121
-0.21259668 0.46454984 -0.046506524
-0.1891616 0.46358991 -0.052445173
0.059926152 0.46421835 -0.048558116
0.082377166 0.46546179 -0.040866137
-0.14533672 0.4885909 -0.03861022
-0.122237 0.48802364 -0.041960359
-0.099342376 0.48773766 -0.043648839
-0.076472566 0.48744938 -0.045351267
-0.053630352 0.48716408 -0.047035575
-0.030930772 0.48716408 -0.047035575
-0.0083161294 0.48739773 -0.045656085
0.01420705 0.48798549 -0.042185545
-0.10130256 -0.51578486 -0.022429228
-0.078268707 -0.51549512 -0.02414012
-0.055261314 -0.51520568 -0.025848866
-0.032280385 -0.51491672 -0.027555466
-0.0095539987 -0.51525521 -0.025555968
-0.19243538 -0.49234036 -0.025865078
-0.16892987 -0.49144027 -0.031433463
-0.14551234 -0.49054343 -0.036980748
0.036608055 -0.49087772 -0.034913063
0.059172772 -0.49183604 -0.028984547
0.081828535 -0.49279568 -0.023048639
-0.26152319 -0.47000423 -0.02244556
-0.23671871 -0.46787587 -0.036270261
0.104921 -0.46852335 -0.032065153
0.12761606 -0.46972093 -0.024286509
-0.28343284 -0.44618517 -0.028805971
0.15055102 -0.44570127 -0.032113791
0.17336547 -0.44707251 -0.022739053
-0.30525154 -0.42246994 -0.03512311
0.17336547 -0.42252138 -0.034751415
0.19623892 -0.42394885 -0.024449468
-0.35237253 -0.40081573 -0.026434183
0.2190996 -0.40096679 -0.025279403
0.19613923 -0.39938059 -0.037400365
-0.37438792 -0.37739566 -0.030995846
0.21895054 -0.37690723 -0.034961581
-0.39650381 -0.3541483 -0.034670472
0.24183652 -0.35458201 -0.030914664
-0.42107397 -0.33230954 -0.025800109
0.26481268 -0.33229196 -0.02596271
0.26464173 -0.30887458 -0.031514406
-0.44274598 -0.28605404 -0.031530499
0.26447141 -0.28554463 -0.03704536
0.2877835 -0.28683007 -0.023130059
-0.46747392 -0.26398513 -0.022673726
0.2876088 -0.26356211 -0.027669311
-0.46433449 -0.23997673 -0.037239075
0.28753883 -0.24057353 -0.02948761
-0.48938364 -0.21790756 -0.027051926
0.28746828 -0.21761182 -0.031319857
0.28740844 -0.19469553 -0.032874703
0.28740844 -0.17188686 -0.032874703
-0.51218826 -0.14933756 -0.027263165
0.28740844 -0.14907832 -0.032874584
-0.51081759 -0.12625727 -0.033198357
0.28740844 -0.12626974 -0.032874823
0.28740844 -0.10346121 -0.032874703
0.28740907 -0.080652967 -0.032858491
0.28740907 -0.057844192 -0.032858491
-0.53604585 -0.035110995 -0.02304852
0.28740844 -0.03503532 -0.032874703
-0.53462929 -0.01222674 -0.028984547
0.28740907 -0.012226787 -0.032858491
-0.5345363 0.010608817 -0.029374123
0.28740907 0.010581987 -0.03285861
-0.53595638 0.033535935 -0.023423314
0.28740907 0.033390716 -0.032858491
0.28740907 0.056199439 -0.03285861
0.28740907 0.079008073 -0.032858491
0.28740844 0.10181617 -0.032874703
-0.51072413 0.12459118 -0.033602834
0.28740844 0.12462475 -0.032874942
-0.5120945 0.14771383 -0.027669311
0.28740844 0.14743339 -0.032874703
0.28740844 0.17024197 -0.032874942
0.28740907 0.19305176 -0.032858491
-0.48910803 0.21621235 -0.028286457
0.28746393 0.21597002 -0.031433225
0.28753445 0.23894502 -0.029601216
-0.46726668 0.26232982 -0.023635149
0.28760442 0.26194665 -0.027783036
-0.44254732 0.28432378 -0.0324862
0.2644605 0.28383216 -0.037400365
0.28776971 0.28522432 -0.023488402
0.26463076 0.30720168 -0.031870723
-0.42088521 0.33061019 -0.026742935
0.26480117 0.33065709 -0.026336551
-0.39633268 0.35238004 -0.035559535
0.2418223 0.35287639 -0.031530499
-0.37408566 0.37555104 -0.032631874
0.21894133 0.37516797 -0.035559535
0.24204265 0.3769438 -0.021988988
-0.35208195 0.39899302 -0.028075337
0.21908782 0.3992745 -0.026043892
-0.30503997 0.42061615 -0.036431789
0.17336547 0.42074868 -0.03552711
0.19623204 0.42223784 -0.025344491
-0.28322798 0.44436675 -0.030136466
0.15055701 0.44394264 -0.032891035
0.17336547 0.44538519 -0.023521066
-0.261323 0.46821839 -0.023814201
-0.2365621 0.4660221 -0.037400246
0.1049453 0.46671438 -0.033117414
0.12763235 0.467971 -0.025344491
-0.19223118 0.49046868 -0.027523041
-0.16874102 0.48952943 -0.033069015
0.036671489 0.48898447 -0.036286235
0.059225231 0.48999029 -0.030347228
0.081870161 0.49099743 -0.024400592
-0.10118216 0.51398951 -0.02373302
-0.078158438 0.51368684 -0.025442123
-0.055161193 0.51338464 -0.02714932
-0.032189265 0.51307988 -0.02887094
-0.0094508678 0.51337022 -0.02723062
-0.17184904 -0.51854146 -0.0061526299
-0.14822486 -0.51758307 -0.011811495
-0.12469161 -0.51663107 -0.017432451
0.013005301 -0.51621592 -0.01988399
0.035637274 -0.51723021 -0.013895154
0.058360547 -0.51824844 -0.0078823566
-0.24046075 -0.49502409 -0.0092643499
-0.21604007 -0.49325716 -0.020194292
0.1045483 -0.493947 -0.015926957
0.12736604 -0.49522087 -0.0080467463
-0.28665936 -0.47225156 -0.0078490973
0.15043058 -0.47092479 -0.016467094
0.17336547 -0.47241884 -0.0067623854
0.19634798 -0.44889423 -0.010283828
-0.30862492 -0.44831327 -0.014255762
-0.33049923 -0.42447975 -0.020618677
0.21931782 -0.42579797 -0.01110518
0.24227883 -0.40273583 -0.011762142
-0.40146601 -0.38011894 -0.0088860989
0.24205658 -0.37857935 -0.02138555
0.265376 -0.38026887 -0.0076682568
-0.42401177 -0.35686746 -0.01112175
0.26507887 -0.35615203 -0.01731801
0.28821349 -0.33380121 -0.011959195
-0.44578838 -0.31033793 -0.016892433
0.28799778 -0.31027082 -0.017563343
0.31131515 -0.28812611 -0.0091000795
0.3111217 -0.26477984 -0.013288379
-0.49361533 -0.24222016 -0.0080960989
0.31103688 -0.24167906 -0.015124321
0.31095144 -0.21860565 -0.01697433
-0.51573777 -0.19598766 -0.011893511
0.31088874 -0.19559115 -0.018331885
-0.51356453 -0.17251043 -0.021303892
0.31088874 -0.17267059 -0.018331766
0.31088874 -0.14975001 -0.018331885
0.31088874 -0.12682945 -0.018331766
0.31088874 -0.10390898 -0.018331885
-0.53890377 -0.08115612 -0.011072397
0.31088948 -0.080988795 -0.018315554
-0.53747189 -0.058087245 -0.017072439
0.31088948 -0.058068119 -0.018315554
0.31088874 -0.035147309 -0.018331766
0.31088948 -0.01222674 -0.018315554
0.31088948 0.010693928 -0.018315434
0.31088948 0.033614546 -0.018315315
-0.53737825 0.056554817 -0.017465115
0.31088948 0.056535214 -0.018315554
-0.53880972 0.079666756 -0.011466622
0.31088948 0.079455972 -0.018315315
0.31088874 0.10237587 -0.018331885
0.31088874 0.1252965 -0.018331885
0.31088874 0.14821707 -0.018331766
-0.51347029 0.17092951 -0.021711707
0.31088874 0.17113769 -0.018331766
-0.5154497 0.19441777 -0.013140678
0.31088874 0.19405812 -0.018331766
0.31094617 0.21707444 -0.017089009
-0.49334723 0.24066429 -0.0092972517
0.31103158 0.24016111 -0.015239
0.31111717 0.26327664 -0.013386846
0.31129843 0.28662801 -0.0094616413
-0.44558781 0.30871192 -0.017857552
0.28798392 0.30870506 -0.017923117
0.28819895 0.33227369 -0.012336612
-0.42382771 0.3552767 -0.01204133
0.26506025 0.35455239 -0.017923117
-0.40114325 0.3784391 -0.010562897
0.26535675 0.37873617 -0.0082937479
-0.37901425 0.40205795 -0.0059548616
0.24226481 0.40116912 -0.012369514
-0.33027822 0.42273819 -0.0219239
0.21930392 0.42418838 -0.012008429
-0.30841297 0.44660982 -0.015566587
0.19634089 0.44728148 -0.011204004
-0.28645411 0.47058383 -0.0091820955
0.15043864 0.46923679 -0.017514229
0.17336547 0.47076723 -0.0080467463
-0.24016473 0.49319893 -0.011400819
-0.21581158 0.49141413 -0.021940231
0.10457211 0.49225789 -0.016958237
0.12738225 0.49358857 -0.0090998411
-0.17165694 0.51680756 -0.0078163147
-0.14804977 0.51581258 -0.01343596
-0.12452802 0.51481563 -0.019067168
0.013079181 0.51442808 -0.021255016
0.035700873 0.51548755 -0.015271783
0.058413111 0.516554 -0.0092478991
-0.056711569 0.53995824 -0.0070095062
-0.1272456 -0.54407716 0.0080884695
-0.10359395 -0.54306561 0.0023758411
-0.080033511 -0.54206103 -0.0032986403
-0.056820676 -0.54165488 -0.005592227
-0.03405939 -0.5423125 -0.0018780231
-0.011242509 -0.54297477 0.0018621683
0.011631444 -0.54363859 0.0056113005
0.034561932 -0.54430699 0.0093870163
-0.19580153 -0.51983136 0.0014644861
0.081176139 -0.51926816 -0.0018614531
0.10408349 -0.52029473 0.0042001009
0.12708378 -0.52132547 0.01028645
-0.26505908 -0.49680138 0.0017296076
0.1503049 -0.49649879 -0.00014162064
-0.31249538 -0.47495139 0.0096867085
0.19647661 -0.4744494 0.0064256191
-0.33484018 -0.45113173 0.0050135851
0.21953788 -0.45086467 0.0031881332
-0.35711563 -0.42738596 0.00035500526
0.24260494 -0.42766362 0.002359271
-0.37932503 -0.40371591 -0.0042726994
0.26567507 -0.40454254 0.0020443201
0.2889109 -0.38197201 0.0061596632
0.28853601 -0.35773844 -0.0035793781
-0.44922185 -0.33504984 -0.00037312508
0.31185284 -0.33536395 0.0025415421
0.31158155 -0.31169498 -0.0033317804
-0.47144723 -0.28857511 -0.0042395592
0.33516845 -0.28960335 0.0068911314
0.33489209 -0.26605433 0.0017626286
0.33479038 -0.24283376 -0.00012493134
-0.52016413 -0.22028567 0.0072734356
0.33468878 -0.2196424 -0.0020103455
0.33460069 -0.19649559 -0.0036454201
0.33460069 -0.17346191 -0.0036455393
-0.54323417 -0.15092346 0.0070738792
0.33460069 -0.1504284 -0.0036455393
-0.54178488 -0.12757358 0.001000762
0.33460069 -0.12739474 -0.0036455393
-0.54034144 -0.10431801 -0.0050480366
0.33460069 -0.10436117 -0.0036455393
0.33460158 -0.081327938 -0.0036289692
0.33460158 -0.058294266 -0.00362885
0.33460158 -0.035260502 -0.0036289692
-0.56620699 -0.012226787 0.0064920187
0.33460158 -0.01222674 -0.0036289692
-0.56608421 0.010881057 0.0059933662
0.33460248 0.010807024 -0.0036123991
0.33460248 0.033840977 -0.0036125183
0.33460248 0.056874745 -0.0036123991
0.33460158 0.07990817 -0.0036289692
-0.54024702 0.10287209 -0.0054438114
0.33460069 0.10294135 -0.0036455393
-0.54169005 0.12617116 0.00060331821
0.33460069 0.12597494 -0.0036454201
0.33460069 0.14900841 -0.0036455393
-0.54313898 0.14956453 0.006675005
0.33460069 0.17204203 -0.0036455393
0.33460069 0.19507569 -0.0036455393
-0.51988012 0.21885513 0.0060434341
0.33468255 0.21822621 -0.0021258593
0.33478415 0.24143116 -0.00024080276
-0.49764103 0.26543105 0.0099365711
0.33488584 0.26466537 0.0016466379
-0.47118771 0.28703004 -0.0054438114
0.33514786 0.28822628 0.0065088272
0.3115648 0.31023836 -0.0036948919
-0.44896752 0.33351371 -0.0015970469
0.31183523 0.33394763 0.0021603107
0.2885125 0.35624382 -0.0041900873
0.28888723 0.38054708 0.0055450201
0.2656562 0.40308154 0.0014314651
-0.35681981 0.4257524 -0.0013158321
0.2425839 0.42615667 0.0014477968
-0.33455354 0.44951779 0.0033210516
0.21952359 0.44935441 0.0022597313
-0.3122209 0.47335956 0.0079888105
0.19646651 0.47289482 0.0051132441
-0.26475152 0.49506658 -0.00037324429
0.15031293 0.49492949 -0.001183629
-0.19553646 0.51806974 -0.00068747997
0.081217855 0.51762211 -0.0032162666
0.1041149 0.51869434 0.0028400421
0.12710455 0.5197739 0.0089373589
-0.12708086 0.54244334 0.0064423084
-0.10344398 0.54139203 0.00075232983
-0.079895139 0.54034179 -0.004932642
-0.033936933 0.54057956 -0.0036454201
-0.01113236 0.5412668 7.3671341e-05
0.011728078 0.54195857 0.0038183928
0.034644946 0.54265529 0.0075895786
-0.082544208 -0.57057518 0.026351452
-0.17526424 -0.54679239 0.023424029
0.080514379 -0.54612064 0.019629836
0.10358515 -0.54720932 0.025779009
-0.15098575 -0.54508948 0.013806343
0.057537325 -0.54503632 0.013505578
-0.24502978 -0.52359873 0.023709655
-0.22032574 -0.5217095 0.012554288
0.15014249 -0.52313221 0.020954967
-0.2900809 -0.49884546 0.014374495
0.17336547 -0.49863213 0.013055086
0.19663051 -0.50079244 0.026418686
0.21979231 -0.47649524 0.01971364
0.24293843 -0.45285532 0.016798973
-0.38434893 -0.43051258 0.022919655
0.26610366 -0.42954859 0.015962481
-0.40674424 -0.40670133 0.018540382
0.28928819 -0.40636402 0.015962481
-0.4295733 -0.38326606 0.01666522
0.31275219 -0.38392472 0.022012591
-0.45322961 -0.3603352 0.018909097
0.31226677 -0.35948008 0.011503339
0.33580613 -0.33710811 0.018724799
-0.47559631 -0.3135305 0.015009403
0.33548623 -0.31330812 0.012787819
0.35928166 -0.29110104 0.023104548
-0.49790514 -0.26684663 0.011119723
0.35891396 -0.26735586 0.017133713
0.35879034 -0.2440078 0.015126467
0.35867202 -0.22069663 0.01320529
-0.54777426 -0.19832738 0.026098847
0.35855487 -0.1974162 0.011303186
-0.54468942 -0.17436823 0.013171911
0.35854769 -0.17426121 0.011186481
0.38273329 -0.17506844 0.026166201
0.35854769 -0.15111338 0.0111866
0.38273329 -0.1518053 0.026166201
0.35854769 -0.12796561 0.011186481
0.38273329 -0.12854221 0.026166201
0.35854769 -0.10481784 0.0111866
0.38273329 -0.10527913 0.02616632
0.3585487 -0.081670448 0.01120317
0.38273448 -0.082016438 0.02618289
-0.57027853 -0.0587046 0.023020506
0.3585487 -0.058522627 0.01120317
0.38273448 -0.058753155 0.026183009
-0.56823921 -0.035401922 0.014741898
0.3585487 -0.035374753 0.01120317
0.38273448 -0.035489969 0.026183128
0.3585487 -0.01222674 0.01120317
0.38273448 -0.012226787 0.026183128
0.35854974 0.010921227 0.011219859
0.38273564 0.011036636 0.026199818
-0.56811577 0.034115866 0.014240742
0.35854974 0.034069292 0.01121974
0.38273564 0.034300014 0.026200056
-0.57015854 0.057478614 0.022533417
0.35854974 0.057217211 0.011219859
0.38273564 0.057563335 0.026199818
0.3585487 0.08036489 0.011203289
0.38273448 0.080826133 0.026183128
0.35854769 0.10351213 0.011186481
0.38273329 0.10408879 0.026166201
0.35854769 0.12665991 0.011186361
0.38273329 0.12735179 0.02616632
0.35854769 0.14980769 0.011186481
0.38273212 0.15061401 0.026149392
-0.54459381 0.17305306 0.012771249
0.35854769 0.17295547 0.0111866
0.38273329 0.17387801 0.026166201
-0.54736465 0.1970176 0.024382234
0.35854667 0.19610204 0.011169791
0.35866481 0.2193974 0.013088465
-0.52435619 0.24360456 0.025425553
0.35878208 0.24272116 0.014992714
0.35889953 0.26607442 0.016899347
0.3592568 0.28984666 0.022701383
-0.47533339 0.31212273 0.013789773
0.33546555 0.31197321 0.012404203
0.33578444 0.33581388 0.018322587
-0.45297194 0.3589361 0.017669439
0.31223595 0.35809457 0.010836482
-0.42910475 0.38169599 0.014324188
0.31272116 0.38261431 0.021340966
-0.40635431 0.40517154 0.016514659
0.28926438 0.40500924 0.015343785
-0.38403249 0.42904654 0.021206617
0.26607531 0.42814505 0.015042901
-0.36164093 0.4529961 0.025913715
0.24291641 0.451446 0.015845537
0.21977219 0.47504359 0.018406391
-0.28981608 0.49727291 0.012654305
0.17336547 0.49712586 0.011786938
0.19662052 0.4993844 0.025122643
-0.22004423 0.52003336 0.010403037
-0.24473643 0.52201462 0.021592855
0.15015554 0.52160162 0.019261122
-0.17501792 0.54518658 0.02129066
-0.15080765 0.54349858 0.012153983
0.057590641 0.5434925 0.012120485
0.080556691 0.54462588 0.018255711
0.10361701 0.54576087 0.024399161
-0.082348973 0.56894243 0.024045944
-0.059152707 0.56906861 0.024701834
-0.035945207 0.56919187 0.025341272
-0.12987593 -0.57205707 0.03437233
-0.10598308 -0.57092392 0.028239012
-0.059328973 -0.57069349 0.026991487
-0.036105067 -0.57081497 0.027648807
-0.012963519 -0.57121378 0.029807806
0.010121763 -0.5719195 0.033627629
0.033265442 -0.57262689 0.037456751
0.056467675 -0.57333624 0.041296005
-0.19989434 -0.54878777 0.034693956
0.12670147 -0.54886276 0.035117507
-0.27052051 -0.52620006 0.039069533
0.17336547 -0.52534717 0.034033775
-0.31693256 -0.50252485 0.037134647
0.22010288 -0.50296944 0.039884925
-0.33947414 -0.47844464 0.032375932
0.24331573 -0.47856179 0.033136845
-0.36194515 -0.45443994 0.027632117
0.26655179 -0.45486188 0.030516982
0.28982437 -0.43147871 0.029892206
0.31324098 -0.40854073 0.032595515
0.33692437 -0.38607574 0.03947711
0.33635151 -0.36148253 0.028845906
-0.4797954 -0.33880726 0.034490705
0.36006004 -0.33894232 0.035744309
0.35964978 -0.31493875 0.029082179
-0.50225055 -0.29179206 0.030584693
0.383692 -0.29266214 0.040003896
0.38328776 -0.26879847 0.034169316
-0.52464396 -0.24489656 0.026671529
0.38305813 -0.24521856 0.030854821
0.38293183 -0.22179316 0.029031634
0.38280565 -0.19839577 0.027210712
0.40718856 -0.17590289 0.041653156
-0.64468545 -0.15246408 0.040428758
0.40716106 -0.15250412 0.041295886
-0.64382541 -0.1289683 0.037236333
0.40716106 -0.12912455 0.041296005
-0.64382076 -0.10561944 0.037219286
-0.57439518 -0.10569684 0.039731979
0.40716106 -0.10574501 0.041296005
-0.64382076 -0.082271382 0.037219524
-0.57233328 -0.082136035 0.031361699
0.4071624 -0.082365885 0.041312933
-0.64382076 -0.058923133 0.037219524
0.4071624 -0.058986135 0.041312933
-0.64382076 -0.035574988 0.037219524
0.4071624 -0.035606436 0.041312933
-0.64381623 -0.012226787 0.037202358
0.40716368 -0.012226691 0.041329861
-0.64381623 0.011121362 0.037202358
0.40716368 0.011153104 0.04132998
-0.64382076 0.03446956 0.037219286
0.40716368 0.034532852 0.04132998
-0.64382076 0.057817757 0.037219286
0.40716368 0.057912737 0.04132998
-0.64382076 0.081165954 0.037219286
-0.57221258 0.080970444 0.03087163
0.4071624 0.081291907 0.041312933
-0.64382541 0.10451473 0.037236452
-0.574278 0.10459252 0.039256454
0.40716106 0.10467098 0.041296005
-0.64382541 0.12786312 0.037236333
0.40716106 0.12805055 0.041296005
-0.64451599 0.15134956 0.039800167
0.40716106 0.15143019 0.041296005
0.40718073 0.17482546 0.041551232
0.38279864 0.19720632 0.027109504
0.38292363 0.22061558 0.028913379
0.38304991 0.24405424 0.030736566
0.38326198 0.26763517 0.033796787
-0.50196791 0.29050902 0.029318452
0.3836661 0.29154086 0.039629936
0.35962588 0.31372884 0.028694272
-0.47952545 0.33753631 0.033238411
0.36001623 0.33774349 0.035032749
0.33631516 0.36022973 0.028171659
0.33688778 0.38489881 0.038797855
0.31320974 0.40730599 0.031919479
0.28978473 0.43016648 0.028862953
0.26652217 0.45355663 0.029554844
-0.33918226 0.47702321 0.030652165
0.24328488 0.47720894 0.031801105
-0.31665304 0.50112605 0.035405517
0.22008273 0.50166303 0.03857708
-0.27011102 0.52461326 0.036269903
0.17336547 0.52391475 0.032325029
-0.19962758 0.54726273 0.032528043
0.1267278 0.54742533 0.033407807
-0.10583207 0.56943482 0.026604056
-0.1296778 0.57054877 0.03239274
-0.012853399 0.56970721 0.028019667
0.010219291 0.57043815 0.031817913
0.033349231 0.57117438 0.035642743
0.056537025 0.57191557 0.039494157
-0.17916 -0.57626748 0.057162166
-0.15442565 -0.57415444 0.045724511
0.079728201 -0.57405037 0.045161724
0.10298558 -0.57526594 0.051740885
-0.22470456 -0.5507921 0.046014667
0.14993185 -0.55120015 0.048319459
0.19679056 -0.52757847 0.047209263
0.24378534 -0.50516582 0.053471446
0.26704898 -0.48064435 0.046663165
-0.39078325 -0.45884451 0.05774653
0.29044819 -0.45714098 0.046099901
-0.41391909 -0.43507174 0.055822253
0.31398934 -0.43409842 0.048798203
-0.43702239 -0.4113265 0.053882957
0.33757508 -0.4110215 0.051552415
-0.4600963 -0.38761157 0.051946402
0.36137801 -0.38825178 0.057145
-0.48421568 -0.36450234 0.054998159
0.3607167 -0.36351037 0.046406865
0.38464406 -0.34088233 0.053745866
-0.50759345 -0.31748426 0.054517746
0.38409898 -0.31661966 0.045878172
0.40849099 -0.29437736 0.058572054
-0.53096384 -0.27048087 0.054037452
0.40803635 -0.27036476 0.052665949
-0.62407166 -0.24676704 0.050970316
0.40760314 -0.2464644 0.047038555
-0.62373579 -0.2232241 0.049687028
-0.55432284 -0.22349109 0.053539991
0.4074626 -0.22291419 0.045212984
-0.62373137 -0.19977896 0.049669981
0.40732092 -0.1993911 0.043372393
-0.62373137 -0.17633489 0.0496701
0.43199772 -0.17681089 0.05850327
-0.6242823 -0.15298818 0.051775217
-0.57855761 -0.15321235 0.056629539
0.43186375 -0.15322579 0.056921482
-0.57647276 -0.12938905 0.048165798
0.43183467 -0.12971278 0.056577802
0.43183616 -0.10621604 0.056595087
0.43183616 -0.08271876 0.056595087
0.43183616 -0.059221387 0.056595087
0.43183616 -0.035724111 0.056595206
-0.60260117 -0.012226787 0.058778644
0.43183759 -0.012226787 0.056612372
-0.60246569 0.011283202 0.058245182
0.43183759 0.011270776 0.056612372
0.43183905 0.034768485 0.056629539
0.43183759 0.058265664 0.056612372
0.43183616 0.0817625 0.056594968
0.43183467 0.10525929 0.056577921
-0.57635069 0.12834494 0.047670364
0.43183467 0.12875633 0.056577921
-0.62450647 0.15204102 0.052631617
-0.57843071 0.15222858 0.056114197
0.43185359 0.15226574 0.0568012
-0.62373137 0.17532535 0.0496701
0.43198898 0.17586301 0.058400035
-0.62373137 0.19876944 0.0496701
0.40731174 0.19832495 0.043253303
-0.62373579 0.22221477 0.049687266
-0.55390161 0.22237571 0.051775098
0.40745342 0.22186123 0.045093417
-0.62373579 0.24565892 0.049687266
0.40759528 0.24542604 0.046936154
-0.53054821 0.26933861 0.05223763
0.40800732 0.26934341 0.05228889
0.40846187 0.29339847 0.058193803
-0.50718766 0.31631613 0.052700162
0.3840718 0.31553861 0.045485735
0.38459536 0.33982301 0.053043127
-0.48382008 0.3633078 0.053163052
0.36067361 0.36238953 0.045707464
-0.45958054 0.38629475 0.049464941
0.36133569 0.38720995 0.056457758
-0.4365285 0.41000742 0.051415443
0.33751974 0.40988421 0.050525427
-0.41344357 0.4337481 0.053351641
0.31394279 0.4329347 0.047789812
0.29040748 0.4559412 0.045042396
-0.39033258 0.45752159 0.05530715
-0.36719185 0.48132554 0.057265162
0.26700747 0.47939372 0.045315266
0.24375486 0.5039621 0.052151918
-0.29651245 0.52813286 0.056148529
0.19677728 0.526245 0.045485973
-0.22442567 0.54936069 0.043883324
0.14994526 0.54985839 0.046577811
-0.17890814 0.57489604 0.054981112
-0.15419418 0.57270116 0.043576837
0.07978382 0.57265866 0.043355465
0.10304011 0.57381785 0.049379468
-0.13378888 -0.60290825 0.073472857
-0.10977384 -0.60210031 0.069274902
-0.08582148 -0.6012879 0.06505394
-0.062212497 -0.60117173 0.06444943
-0.038700163 -0.60129791 0.065105677
-0.015177742 -0.60142434 0.065762281
0.0083538294 -0.6015541 0.066436529
0.031895757 -0.60168386 0.067111135
0.055364087 -0.60223371 0.069967985
-0.20431158 -0.57874238 0.070557475
0.12624563 -0.57766485 0.064725637
-0.25071552 -0.55410808 0.064742923
0.17336547 -0.55355805 0.061637163
-0.29694912 -0.52957284 0.058984995
0.22042052 -0.5298323 0.060517192
0.24426129 -0.53212953 0.074080944
-0.34442103 -0.50647748 0.061585546
0.26769885 -0.50747705 0.067768574
-0.36761516 -0.48264471 0.059656262
0.29118371 -0.48349968 0.065209389
0.31474733 -0.45993608 0.065209627
0.33845824 -0.43675101 0.067941546
0.36221576 -0.41353363 0.07074821
0.38538924 -0.36559966 0.064501166
-0.58305353 -0.34316018 0.0748806
-0.58305782 -0.31952378 0.074897885
0.40894741 -0.31848323 0.064501166
-0.60348064 -0.29471627 0.062240601
-0.60348064 -0.27117544 0.062240601
0.43308893 -0.27195022 0.071389794
-0.60347629 -0.24763337 0.062223434
0.43258753 -0.24788317 0.065468669
0.43227184 -0.22405922 0.061740637
0.43213472 -0.2004226 0.060121179
-0.58065844 -0.17716947 0.065157533
0.45695519 -0.15402167 0.074150562
-0.62709367 -0.12994137 0.062516689
0.45683962 -0.13034092 0.072899699
-0.62788898 -0.10649198 0.065554976
-0.60670489 -0.10678079 0.074932814
0.45675945 -0.10669139 0.072031856
-0.62830073 -0.082961999 0.06712842
-0.60591066 -0.083070092 0.071806192
0.45675945 -0.08307524 0.072031856
-0.62849998 -0.059395269 0.06788981
-0.6049729 -0.05939883 0.068114758
0.45675945 -0.059459187 0.072031856
-0.62859517 -0.035813797 0.06825316
-0.60403299 -0.035784319 0.064414859
0.45675945 -0.035842985 0.072031856
-0.62842304 -0.01222674 0.067595601
0.45676106 -0.01222674 0.072049141
-0.62840945 0.011354875 0.067543745
0.45676264 0.01138965 0.072066665
-0.62858152 0.034946561 0.068201303
-0.6039716 0.034884617 0.064172983
0.45676264 0.035006091 0.072066426
-0.62850904 0.058526821 0.06792438
-0.60490698 0.058525182 0.067855239
0.45676264 0.058622532 0.072066426
-0.62831432 0.082088493 0.067180395
-0.60584897 0.082223505 0.071563363
0.45675945 0.082237907 0.072031975
-0.62794322 0.10561275 0.065762401
-0.60667396 0.10596114 0.074810982
0.45675945 0.10585406 0.072031975
-0.62714332 0.12903936 0.062706232
0.4568316 0.12950639 0.072813034
0.45694715 0.15319587 0.07406354
-0.58052647 0.17624618 0.064622164
0.43212596 0.19948639 0.060017705
0.43226311 0.22313467 0.061637163
-0.60347629 0.24672042 0.062223434
0.43255532 0.24696301 0.065088511
-0.60348064 0.27026272 0.06224072
0.43305808 0.27107415 0.07102561
-0.60348064 0.29380354 0.062240601
-0.58305782 0.31870845 0.074897885
0.40891817 0.31754699 0.064121366
-0.58305353 0.3423447 0.0748806
0.40972367 0.34231055 0.074585199
0.38534015 0.36461723 0.063793302
0.38609147 0.38958898 0.074637294
0.36215276 0.41254467 0.069725394
0.33840418 0.43573537 0.066938281
0.3146987 0.45888394 0.064155817
0.29112387 0.48235855 0.063655257
-0.34401846 0.50515717 0.059208751
0.26765198 0.50634903 0.06624639
0.22039747 0.52864105 0.059019566
0.24423121 0.53107721 0.072778106
-0.2503258 0.55269492 0.061930299
0.17336547 0.55231607 0.059880137
0.19699153 0.55479848 0.073316574
-0.20395526 0.57733703 0.067664742
0.12628256 0.57630968 0.062326908
-0.13346243 0.60142899 0.070210695
-0.10947332 0.60059059 0.066021681
-0.085551143 0.59975785 0.061861396
-0.062033162 0.59980959 0.062119961
-0.038539886 0.59994435 0.06279254
-0.015035242 0.60007542 0.063448191
0.0084795207 0.60020679 0.06410408
0.032005131 0.6003347 0.064743161
0.055434085 0.60101646 0.068149447
0.07883022 0.60225236 0.074324369
-0.15811589 -0.60415787 0.07996583
0.078756317 -0.6035341 0.076724768
0.10210419 -0.60607088 0.089906216
-0.23057258 -0.58249229 0.090854645
0.14970487 -0.58008116 0.077804327
0.17336547 -0.58251828 0.090995193
-0.2772381 -0.55769432 0.084997892
0.19700503 -0.55593681 0.075071812
0.22085354 -0.5583396 0.088642597
-0.32447493 -0.5337739 0.083790898
0.29210186 -0.51091957 0.089063764
0.31572849 -0.48677012 0.086451411
0.33935374 -0.46276638 0.084560633
0.36323786 -0.43943959 0.087344885
0.38723087 -0.4161948 0.091082931
-0.56246108 -0.39200822 0.087643027
0.38613963 -0.39049199 0.075332761
-0.56246108 -0.36827183 0.087642908
0.41061825 -0.36810598 0.086206198
-0.58507192 -0.3677443 0.083074093
-0.51383966 -0.34398097 0.082497478
0.40977854 -0.34320509 0.075297832
0.43434057 -0.32065195 0.08617115
-0.58596861 -0.29697704 0.086714149
-0.53741938 -0.29654065 0.081990719
0.43359524 -0.29611379 0.077368855
-0.56099135 -0.24911605 0.081484199
0.45807043 -0.24948092 0.086223602
-0.60781074 -0.22527482 0.07928586
-0.58627081 -0.22587444 0.087941051
0.45757619 -0.22538477 0.080873251
-0.6081652 -0.20168872 0.080681205
-0.58366221 -0.20148362 0.07735157
0.45723638 -0.20147404 0.077194691
-0.6079303 -0.17795621 0.079756618
0.45708525 -0.17772993 0.075558782
-0.6076867 -0.15423615 0.07879746
-0.6071955 -0.13049357 0.076863885
0.48223293 -0.13102195 0.090591073
0.4821187 -0.10722778 0.089449763
0.48203969 -0.08345928 0.088660121
0.48195896 -0.05970262 0.087853312
0.48193792 -0.035963163 0.087643027
0.48193964 -0.01222674 0.087660551
0.48193964 0.011509636 0.087660551
0.48193964 0.035246156 0.087660551
0.4819572 0.058986723 0.087836027
0.48203442 0.082748242 0.08860755
0.48211345 0.10652238 0.089397073
-0.60716456 0.12968779 0.076742053
0.48222589 0.13032417 0.090520978
-0.6076557 0.15344445 0.078675508
-0.60792142 0.17717615 0.079721689
0.45707563 0.17691335 0.075454712
-0.60813421 0.2009095 0.080559015
-0.58348638 0.20063773 0.076637626
0.45722672 0.20066918 0.077090502
-0.60784614 0.22450401 0.079425335
-0.58618009 0.22513124 0.087572813
0.45754555 0.2245899 0.080541492
-0.56056654 0.24820079 0.079704404
0.45803806 0.24872316 0.085873365
-0.58616287 0.29633158 0.087502837
-0.53700411 0.29560012 0.080192685
0.43356279 0.29527909 0.076985836
0.43428275 0.31984961 0.0854882
-0.51343423 0.34301439 0.080681205
-0.5845083 0.36671007 0.08078599
-0.56246108 0.36755469 0.087643147
0.41056433 0.36729145 0.085505605
-0.56246108 0.3912909 0.087643027
0.38715541 0.41535306 0.089993954
0.36317527 0.43857148 0.086328745
0.33929721 0.46186391 0.083511353
0.31565648 0.48579183 0.084893107
0.29204243 0.50995195 0.087520242
-0.32378048 0.53226638 0.079494834
0.26839837 0.53421235 0.090485692
-0.27682382 0.55643326 0.08216548
0.22082628 0.55730295 0.086871862
-0.23020279 0.58125591 0.088028789
0.14972337 0.57882595 0.07540226
0.17336547 0.58136046 0.088572502
-0.15788108 0.60294545 0.077786922
0.1021601 0.60488647 0.087485313
-0.017582685 -0.63280821 0.10481369
0.0062829554 -0.63281894 0.10486686
0.030120775 -0.63295376 0.10554063
-0.18373337 -0.60739148 0.096768618
0.12565325 -0.60862947 0.10320127
0.19723004 -0.58497626 0.10429966
0.24492644 -0.56086087 0.10288262
0.26846385 -0.53526789 0.092612386
-0.37440163 -0.512362 0.097986102
-0.3978526 -0.48824191 0.096010685
0.36434203 -0.46579608 0.10527456
-0.42153466 -0.46435088 0.095393777
-0.54169261 -0.44126159 0.10049427
-0.44607568 -0.44107059 0.099115968
-0.56513572 -0.41721135 0.098851085
-0.54169261 -0.41742626 0.10049427
-0.47067213 -0.41773194 0.10282958
-0.49532396 -0.39433497 0.10653424
0.41164196 -0.39346913 0.09950459
-0.5662415 -0.34624282 0.10348475
0.43527082 -0.34556076 0.097156763
-0.56697345 -0.32269153 0.10655189
-0.54262465 -0.32248914 0.1045301
-0.5663895 -0.29858345 0.10410476
0.45917657 -0.29803792 0.098198056
-0.58750385 -0.27377561 0.092946649
-0.56461358 -0.27409029 0.096662879
0.45856318 -0.27365798 0.091557264
-0.58741289 -0.24997009 0.092577338
0.48336911 -0.22684471 0.10194468
0.4828282 -0.2026654 0.096539497
0.48248625 -0.17867644 0.093122482
0.48235953 -0.1548394 0.09185636
0.50774843 -0.083880305 0.10688925
0.50766242 -0.059983432 0.10609066
0.50763178 -0.036102898 0.10580671
0.50760502 -0.01222674 0.1055584
0.50760311 0.011647297 0.10554063
0.50763369 0.035525911 0.10582459
0.50766242 0.059408233 0.10609055
0.5077427 0.083309531 0.10683608
0.4823525 0.15415077 0.091786027
0.48247746 0.17799601 0.093034506
0.48279291 0.20199223 0.096186996
0.48333547 0.22621173 0.10160828
-0.58738256 0.24928038 0.092454195
0.48387635 0.25051323 0.10701358
-0.58753854 0.27311224 0.093087435
-0.56444526 0.27337745 0.095957637
0.4585323 0.27293998 0.091223598
-0.56630069 0.29795578 0.10373282
0.45911789 0.29733834 0.097562551
-0.56694382 0.32210636 0.10642767
-0.54246098 0.32182553 0.10382128
-0.56637257 0.34571099 0.10403395
0.43521109 0.34483546 0.096451283
-0.49452156 0.39327604 0.10281181
0.4115577 0.39269996 0.098409772
-0.56391567 0.41587189 0.093738437
-0.54169667 0.41681042 0.10051191
-0.46989298 0.41661212 0.099080801
-0.44532365 0.43989223 0.09535861
-0.54169261 0.44064328 0.10049427
-0.42081332 0.46311629 0.09164536
0.36424923 0.46498266 0.10376799
-0.39739704 0.48719046 0.093544841
0.34053206 0.48927295 0.10642779
-0.37397069 0.51131219 0.095552444
0.24487659 0.55986208 0.1007241
0.19721122 0.58391696 0.10185623
-0.18339768 0.60616273 0.09386158
0.12569058 0.60754675 0.10077727
-0.041526154 0.63244802 0.10589552
-0.017400548 0.63160849 0.10185599
0.0064080209 0.63175195 0.10254633
0.030228823 0.63188815 0.10320139
-0.090290159 -0.63541287 0.1178267
-0.065987527 -0.63454455 0.11348867
-0.04175131 -0.63367522 0.10914516
0.053721204 -0.634377 0.11265123
-0.21008298 -0.61136502 0.11741555
0.14940614 -0.61121023 0.1166116
-0.25728723 -0.58643037 0.11217022
0.2213015 -0.58745891 0.11773729
-0.30579659 -0.56326312 0.11645079
-0.35443366 -0.54002595 0.12070751
0.29317868 -0.53940481 0.11704028
0.31684566 -0.5144074 0.1106391
