ply
format ascii 1.0
comment PCL generated
element vertex 1373
property float x
property float y
property float z
element camera 0
property float view_px
property float view_py
property float view_pz
property float x_axisx
property float x_axisy
property float x_axisz
property float y_axisx
property float y_axisy
property float y_axisz
property float z_axisx
property float z_axisy
property float z_axisz
property float focal
property float scalex
property float scaley
property float centerx
property float centery
property int viewportx
property int viewporty
property float k1
property float k2
end_header
0.4643411 -0.30403495 -0.76113737
-0.47882763 -0.28264374 -0.75985998
0.48548418 -0.28255221 -0.76283461
-0.50031042 -0.26120871 -0.75962991
0.50660151 -0.26109552 -0.76452976
-0.49704391 -0.23949441 -0.77731049
0.5277707 -0.23967154 -0.76580298
-0.5188216 -0.21820726 -0.77485991
-0.54063785 -0.19688234 -0.77240491
0.54712313 -0.19688237 -0.77641416
-0.56249273 -0.17551956 -0.76994568
0.57120502 -0.1754629 -0.7625795
-0.58313161 -0.13287181 -0.77330387
0.5919624 -0.13269758 -0.76576489
-0.60564053 -0.08999595 -0.76805383
0.59149981 -0.089993499 -0.76799023
0.61286938 -0.089994952 -0.76802838
-0.13661587 -0.49871475 -0.74438655
-0.11490259 -0.49835593 -0.74771661
-0.093336523 -0.49826562 -0.74855447
-0.071783371 -0.49817538 -0.74939167
-0.050243117 -0.4980852 -0.7502284
-0.02871575 -0.49799502 -0.75106484
-0.0072012655 -0.49790496 -0.75190043
0.014300352 -0.49781626 -0.75272292
0.035789214 -0.49772644 -0.75355762
0.05726523 -0.49763656 -0.75439179
0.078728423 -0.49754655 -0.75522578
0.10022458 -0.49761719 -0.75457144
0.1220375 -0.49854636 -0.74594945
-0.17927569 -0.47649217 -0.75101322
0.16458897 -0.47598976 -0.75603342
0.18658921 -0.47685164 -0.74742013
-0.24416393 -0.45534658 -0.74708486
-0.22173299 -0.45437324 -0.75762165
0.22888599 -0.45438504 -0.75749356
0.25107312 -0.45517987 -0.74888933
-0.30929464 -0.43418533 -0.74262786
-0.28669322 -0.43337727 -0.75217038
0.29331678 -0.43297321 -0.75694281
0.31561837 -0.43363217 -0.74915993
-0.35204315 -0.41237855 -0.74566531
-0.32931915 -0.41164458 -0.75519997
0.33611673 -0.4114266 -0.75803101
-0.37281966 -0.39044225 -0.7512449
0.38081625 -0.39092016 -0.74434775
-0.39385849 -0.36873871 -0.75444323
0.40165749 -0.36904103 -0.74953341
-0.41484925 -0.34708467 -0.75763446
0.42242354 -0.34724355 -0.75468689
0.48866537 -0.3046926 -0.74405062
0.50992328 -0.28307757 -0.74576873
0.53115743 -0.26148945 -0.74747181
-0.52179933 -0.23977032 -0.7593869
-0.54373509 -0.21834518 -0.75693017
0.55040002 -0.21832629 -0.75938702
-0.56571484 -0.19688237 -0.75444323
0.57464981 -0.1968824 -0.7453683
-0.58693981 -0.15393651 -0.75563598
0.59553146 -0.15382819 -0.74859327
-0.60839552 -0.11099324 -0.75571287
0.61636508 -0.11087311 -0.75181049
-0.050860606 -0.52268714 -0.72349024
-0.029127164 -0.52258873 -0.72434258
-0.0074068494 -0.52249044 -0.72519433
0.014300352 -0.52239358 -0.72603261
0.035994552 -0.52229536 -0.72688341
0.05767566 -0.52219707 -0.72773373
0.079343691 -0.52209908 -0.72858346
0.10107192 -0.52227569 -0.72705352
-0.15883122 -0.49986255 -0.7337364
0.14398563 -0.49948138 -0.73727363
0.16607025 -0.50042212 -0.72854412
-0.22409345 -0.47862047 -0.7297461
-0.2016001 -0.47755289 -0.74041367
0.20872577 -0.47771901 -0.73875386
0.23099984 -0.47859174 -0.7300334
-0.28954118 -0.45731801 -0.72574449
-0.26676637 -0.45632845 -0.73645532
0.27339762 -0.45597959 -0.74023211
0.29586083 -0.45678431 -0.73152101
-0.33211684 -0.43504411 -0.73248565
0.33895963 -0.43496585 -0.73341072
-0.37627503 -0.41386876 -0.72630739
0.35989755 -0.4128806 -0.73914284
-0.39749748 -0.39194444 -0.72956336
0.40501907 -0.39224178 -0.72527301
-0.41866896 -0.37007004 -0.73282468
0.42595688 -0.37021133 -0.73052943
-0.43979564 -0.34824771 -0.73605216
0.44681877 -0.3482638 -0.7357533
-0.4608717 -0.32647476 -0.73928547
0.4676033 -0.32639748 -0.74095768
-0.48222709 -0.3048231 -0.74065971
0.51329243 -0.30535889 -0.72673929
-0.50385833 -0.28324205 -0.74042648
0.53466636 -0.28361005 -0.72847879
-0.52549565 -0.26165789 -0.74018013
-0.54713422 -0.2400696 -0.73994684
0.55404896 -0.24006233 -0.74042648
-0.56920791 -0.21849371 -0.7376374
0.57813489 -0.21856833 -0.72795594
-0.59079969 -0.17527163 -0.7377283
0.59914219 -0.17522147 -0.73122096
-0.6123901 -0.13205226 -0.73781919
0.62010092 -0.13197511 -0.73447847
-0.63398218 -0.088835239 -0.73789704
0.64101112 -0.088828772 -0.7377283
-0.63559628 -0.066903025 -0.7309078
0.6425454 -0.066900611 -0.73085546
0.66590691 -0.066561043 -0.72350335
-0.1605776 -0.52477843 -0.70537877
-0.13813233 -0.52352375 -0.71624446
-0.11613982 -0.52298266 -0.72093022
-0.094366916 -0.52288413 -0.72178411
-0.072607182 -0.52278572 -0.72263741
0.12310326 -0.52329105 -0.71826017
0.14527252 -0.52431273 -0.70941198
-0.20377165 -0.50218308 -0.71220434
-0.18121617 -0.50101912 -0.72300482
0.18829262 -0.50136876 -0.7197603
0.21065404 -0.50232142 -0.71092129
-0.26960003 -0.48078275 -0.70813942
-0.24675977 -0.47969741 -0.71898413
0.25341284 -0.4794699 -0.72125864
0.27596599 -0.4803533 -0.71242929
-0.31248888 -0.4583137 -0.71496511
0.31846401 -0.45759398 -0.72275555
-0.35526809 -0.43601483 -0.72102213
0.3632758 -0.43680292 -0.71171522
0.38400295 -0.4143545 -0.71999693
-0.42255932 -0.3934691 -0.70755601
0.42955387 -0.39358136 -0.70593655
-0.44386896 -0.37142301 -0.71085513
0.45058891 -0.37139785 -0.71126533
-0.46512911 -0.34942803 -0.71414673
0.47154728 -0.349298 -0.71656096
-0.48633993 -0.32748419 -0.71743047
0.49242744 -0.32728058 -0.72183657
-0.50750399 -0.30559158 -0.72069371
0.53895628 -0.30618566 -0.7052592
-0.52924329 -0.28384945 -0.7207067
-0.55103248 -0.26211298 -0.72047031
0.55838078 -0.26217192 -0.7179178
-0.57386541 -0.24045023 -0.7152288
0.58263767 -0.24060054 -0.7054584
-0.59470665 -0.19688232 -0.71960247
0.60280079 -0.19688237 -0.71361828
-0.6164363 -0.15338323 -0.7196945
0.62388617 -0.1533404 -0.71691668
-0.63816458 -0.10988692 -0.71978652
0.64491957 -0.10990032 -0.72022057
0.66999447 -0.087599948 -0.70580387
-0.65989774 -0.066392362 -0.71985233
-0.11758745 -0.54858309 -0.68958795
-0.095568419 -0.54846239 -0.69056821
-0.0735645 -0.54834175 -0.69154775
-0.051575676 -0.54822123 -0.69252682
-0.029601937 -0.54810065 -0.69350505
-0.0076432675 -0.54798025 -0.6944828
0.014300352 -0.54785991 -0.69545972
0.036228936 -0.54773962 -0.69643617
0.058142297 -0.54761785 -0.69742501
0.080040745 -0.54749775 -0.69840002
0.10204516 -0.54786164 -0.69544637
-0.18320893 -0.52606446 -0.69424176
0.16758101 -0.5253408 -0.700508
0.19006474 -0.52644068 -0.69098425
-0.24940705 -0.50454098 -0.69032645
-0.22650155 -0.50335753 -0.70130754
0.2331558 -0.50327986 -0.70202696
0.25579813 -0.5042432 -0.69308972
-0.29261485 -0.481875 -0.69722474
0.29866061 -0.4812426 -0.70354414
0.32181865 -0.48243499 -0.69162846
-0.35962102 -0.46082681 -0.68775976
-0.33561432 -0.45931834 -0.70408952
0.34262043 -0.4595384 -0.70170736
-0.38049382 -0.43814546 -0.6958611
0.38797015 -0.43866873 -0.68968201
-0.40125254 -0.4155944 -0.70389009
0.40855226 -0.41591117 -0.69977438
-0.46946353 -0.37279645 -0.68855309
0.47556043 -0.37260044 -0.69173574
-0.49086082 -0.35062709 -0.69189656
0.49661601 -0.35034645 -0.69710433
-0.51221049 -0.32851017 -0.69521892
0.51759249 -0.32817587 -0.70245302
-0.533508 -0.30644408 -0.69854689
-0.55498517 -0.28446475 -0.70072114
0.56278527 -0.28463987 -0.69503164
-0.57886273 -0.26278931 -0.69118571
-0.59922493 -0.21879393 -0.69864047
0.60710937 -0.21883824 -0.69288886
-0.62053514 -0.1749915 -0.70133424
0.62771624 -0.17497458 -0.69914758
-0.64240444 -0.13121182 -0.70142758
0.64888012 -0.13123617 -0.7024796
0.6741305 -0.108905 -0.68789411
-0.66427875 -0.087434158 -0.70149398
0.69532341 -0.065071419 -0.69125283
-0.68832117 -0.043183967 -0.69275463
0.69497132 -0.043182388 -0.69272792
-0.16277802 -0.5510391 -0.66964841
-0.13996211 -0.54948217 -0.68228829
0.12437412 -0.54911834 -0.68524218
0.14686294 -0.55038255 -0.67497826
-0.22923316 -0.52897352 -0.66904902
-0.2061193 -0.52751184 -0.6817075
0.21274449 -0.52762258 -0.68074811
0.23558645 -0.52881157 -0.67045176
-0.27248871 -0.50573206 -0.67927384
0.27858448 -0.50521386 -0.68408287
0.30151522 -0.5061906 -0.67501903
-0.33918151 -0.48408633 -0.67512763
-0.31580898 -0.48297703 -0.68621206
0.34636477 -0.48467147 -0.66928065
0.3672415 -0.46158814 -0.67951751
-0.40617514 -0.44031546 -0.67023396
-0.42704698 -0.41755599 -0.67840767
0.43370509 -0.4176217 -0.67755449
-0.44801602 -0.39501789 -0.68520188
0.45442745 -0.39493948 -0.68633318
0.50087857 -0.37381995 -0.67193508
-0.5170027 -0.35184568 -0.66928053
0.52203196 -0.35140938 -0.6773783
-0.53848815 -0.32955158 -0.67266941
0.54478401 -0.32950324 -0.67371547
-0.55992573 -0.3073104 -0.67603648
0.58725899 -0.26299298 -0.68236923
-0.60447139 -0.24108034 -0.67429948
0.61195117 -0.2411527 -0.66959393
0.63179868 -0.19688237 -0.68020725
-0.62488043 -0.19688226 -0.68186963
-0.64670283 -0.15281548 -0.68281472
0.65289068 -0.15284163 -0.68451452
0.6783222 -0.13048014 -0.66974366
-0.66871375 -0.10875149 -0.68290925
0.69964457 -0.086342931 -0.67314494
-0.69072986 -0.064689159 -0.68297672
-0.1192194 -0.57518834 -0.65425527
-0.096927434 -0.57505679 -0.65525997
-0.074650958 -0.57492548 -0.65626395
-0.052389957 -0.57479417 -0.65726733
-0.030144421 -0.57466286 -0.65827012
-0.0079143215 -0.57453173 -0.65927196
0.014300352 -0.57440084 -0.66027319
0.036499616 -0.57426983 -0.66127384
0.058683485 -0.574139 -0.66227365
0.08085198 -0.57400811 -0.66327286
0.10317341 -0.57459283 -0.65880549
-0.18579724 -0.55261141 -0.65688264
0.16951452 -0.55165756 -0.66462672
0.19233008 -0.55294174 -0.6542002
-0.2525523 -0.5304482 -0.65627789
0.25859323 -0.53000897 -0.66008115
-0.31933695 -0.50827712 -0.65565896
-0.2957513 -0.50693405 -0.66812181
0.32546112 -0.50804305 -0.6578306
-0.36407769 -0.48623025 -0.65370429
-0.38518578 -0.46320635 -0.6619997
0.39225167 -0.46367162 -0.65696514
0.41305348 -0.44056487 -0.66728973
-0.45330608 -0.41955209 -0.65247798
0.45925388 -0.41935906 -0.65498483
-0.47417399 -0.39671275 -0.66073918
0.47982797 -0.39639419 -0.66533732
-0.49546403 -0.37419164 -0.66589761
0.52664334 -0.37508857 -0.65133345
0.56875771 -0.30777374 -0.66399777
-0.5847553 -0.28563136 -0.66283488
0.59288865 -0.28589582 -0.65424156
-0.63038188 -0.21911269 -0.6572262
0.63686174 -0.21911673 -0.65671766
-0.65105474 -0.17470387 -0.66397035
0.65694922 -0.17472203 -0.66633451
0.68256748 -0.15233117 -0.65136099
-0.67321044 -0.13034898 -0.66406608
0.7040177 -0.10788655 -0.65481973
-0.69537133 -0.085996114 -0.6641345
-0.71752775 -0.041646063 -0.66421664
0.7243495 -0.041559085 -0.66260207
-0.7202332 -0.01881358 -0.6535666
0.72657871 -0.018812686 -0.65355301
0.14858052 -0.57734275 -0.63779163
-0.14199303 -0.57645196 -0.64459908
0.12579462 -0.57596278 -0.64833665
-0.20902072 -0.55419606 -0.64401686
0.21531044 -0.55423367 -0.64371181
0.23845926 -0.55553657 -0.63313305
-0.2760781 -0.5319345 -0.64340651
0.28176787 -0.5312168 -0.64962184
0.3051098 -0.5324316 -0.63909996
-0.34329367 -0.50977707 -0.64174116
0.37129837 -0.48694319 -0.64657974
-0.41121778 -0.46563065 -0.63575697
0.41765672 -0.46578658 -0.63406885
-0.43232045 -0.44252375 -0.6441555
0.43853128 -0.44248971 -0.6445576
-0.50102532 -0.3985315 -0.63448739
0.50585341 -0.39797226 -0.64256024
-0.52188545 -0.37561095 -0.64285159
-0.54355973 -0.35308316 -0.64631677
0.55074269 -0.35334468 -0.64146328
-0.5666343 -0.33094412 -0.64251876
-0.61003476 -0.26377547 -0.64848864
0.6171779 -0.26386875 -0.64444661
0.64201152 -0.24171886 -0.63282585
-0.65660238 -0.19688237 -0.63994837
0.66199952 -0.19688243 -0.64371169
-0.67776674 -0.1522329 -0.64497316
0.70845032 -0.12970647 -0.63624513
-0.70007098 -0.10758585 -0.64505661
-0.72237754 -0.062941015 -0.64512563
0.73055732 -0.062584087 -0.63740158
-0.12100642 -0.60280269 -0.61556506
-0.098409049 -0.60263622 -0.61676633
-0.075830214 -0.6024698 -0.61796665
-0.053269871 -0.60230368 -0.61916602
-0.030728014 -0.60213763 -0.62036455
-0.0082045048 -0.60196978 -0.62157595
0.014300352 -0.60180402 -0.62277222
0.036786795 -0.60163832 -0.62396765
0.059254855 -0.60147285 -0.62516224
0.081704542 -0.60130757 -0.62635565
0.10439529 -0.60230953 -0.6191237
-0.1884553 -0.57986522 -0.61851704
-0.1651206 -0.57815188 -0.63160956
0.17153217 -0.57873106 -0.62718356
0.1946528 -0.58013123 -0.61648381
-0.25609526 -0.55740988 -0.61792433
-0.2324532 -0.55579662 -0.6310221
0.2617763 -0.55684733 -0.622491
-0.32376754 -0.53495014 -0.61728907
-0.29981598 -0.53343552 -0.63040638
0.35077599 -0.51092631 -0.63107812
-0.39018312 -0.48900932 -0.6259346
0.39688477 -0.48944694 -0.62156177
-0.45894676 -0.44477367 -0.61758542
0.46441483 -0.44444531 -0.6214633
-0.48004696 -0.42158562 -0.62606096
0.48521027 -0.42112514 -0.632043
-0.54934186 -0.37724787 -0.61627185
0.57500696 -0.33145192 -0.63152552
-0.59200495 -0.30916113 -0.62795496
0.59943789 -0.30940881 -0.62151957
-0.63597572 -0.24172887 -0.63216877
0.66738158 -0.21940239 -0.61960328
-0.68313527 -0.17438446 -0.62247682
0.68736476 -0.17444688 -0.63058829
-0.70483673 -0.12946323 -0.62570989
-0.72728837 -0.084520444 -0.62579405
-0.7512446 -0.016754121 -0.62012494
-0.14434779 -0.60483462 -0.60090017
0.12740701 -0.60406631 -0.60644519
-0.21200176 -0.58159584 -0.60529232
0.21794362 -0.58154178 -0.60570514
-0.2799508 -0.55903769 -0.60470831
0.28526568 -0.55816942 -0.61175668
0.33024186 -0.53539103 -0.61347103
-0.36974913 -0.51315832 -0.61036682
0.37656441 -0.51386333 -0.60382485
-0.43772584 -0.4680981 -0.60904646
0.4434678 -0.46793544 -0.61080647
0.49071619 -0.44643354 -0.59798396
-0.5072782 -0.4236556 -0.59917128
0.51157969 -0.42291838 -0.6087482
-0.52837259 -0.40038472 -0.60773909
0.53446507 -0.40042514 -0.60715628
0.55809963 -0.37814879 -0.60164261
-0.57383442 -0.35522631 -0.60654473
-0.61763149 -0.28715828 -0.6132443
0.62403136 -0.28721288 -0.61147296
-0.64351457 -0.26493213 -0.59839904
0.64878821 -0.26486322 -0.60138571
-0.6624589 -0.21944104 -0.6145891
-0.6892637 -0.19688243 -0.5967958
0.69298309 -0.19688232 -0.60626018
-0.70998913 -0.15161431 -0.60479379
0.71371955 -0.15175846 -0.61416447
-0.73252183 -0.10635832 -0.60519266
0.73687464 -0.083980076 -0.61175656
0.76024824 -0.016046613 -0.60863447
-0.75303799 0.0062366575 -0.61327255
0.75906634 0.0062357336 -0.61328685
-0.16798709 -0.60702908 -0.58506346
0.15061839 -0.60583645 -0.59367061
0.17403321 -0.60762405 -0.5807699
-0.23593485 -0.58360952 -0.58990562
0.24151807 -0.58315253 -0.59339786
0.26533243 -0.58484101 -0.58049476
-0.30402428 -0.560682 -0.59135818
0.30945805 -0.56015337 -0.59564984
-0.34909251 -0.53756309 -0.59466052
0.35599431 -0.5385763 -0.585886
-0.41729367 -0.49218357 -0.59421575
0.42319083 -0.49219209 -0.59412968
0.47012568 -0.47037745 -0.58437037
-0.48606288 -0.44706392 -0.59053874
0.58183682 -0.35579246 -0.59603667
-0.59942925 -0.33326668 -0.59223473
0.60613132 -0.33345866 -0.58807731
-0.66966116 -0.24247976 -0.58340251
0.67371917 -0.24235949 -0.59121454
0.6988197 -0.21969958 -0.5809871
-0.7163924 -0.17404823 -0.57879984
0.74331146 -0.10575601 -0.58562624
-0.75889039 -0.037695959 -0.59091246
0.76689303 -0.037241414 -0.58247733
-0.12338144 -0.63287473 -0.56414425
-0.10027635 -0.63227379 -0.56825268
-0.077322818 -0.63209236 -0.56949306
-0.054388739 -0.6319133 -0.57071769
-0.031473309 -0.63173217 -0.57195616
-0.0085769538 -0.63155109 -0.57319367
0.014300352 -0.63137025 -0.57442999
0.037158631 -0.63118958 -0.57566512
0.059997901 -0.63100916 -0.57689941
0.10596846 -0.6323058 -0.56803358
0.082818203 -0.63082874 -0.57813275
-0.1918821 -0.60924727 -0.5690552
0.19765274 -0.60942525 -0.5677706
-0.2601561 -0.58569562 -0.57396448
0.28935459 -0.58654255 -0.56749308
-0.32831571 -0.56233948 -0.57790077
0.33529618 -0.56373477 -0.56657243
-0.37604538 -0.54130507 -0.56225443
-0.39678264 -0.51661354 -0.57830679
0.40283975 -0.51685596 -0.57605743
-0.44499987 -0.49542743 -0.56180012
0.44999525 -0.4949894 -0.56617796
-0.46535978 -0.47097379 -0.57791519
-0.51395988 -0.44952857 -0.56143343
0.51919562 -0.44932991 -0.56377828
-0.53501856 -0.42576519 -0.57176685
-0.55914289 -0.40332186 -0.56534421
-0.62541223 -0.31111667 -0.57714617
0.63103634 -0.31109276 -0.57776999
-0.65165877 -0.2887387 -0.56191742
0.65610933 -0.28856927 -0.56742013
-0.6960752 -0.21979775 -0.56825244
0.72302836 -0.1740201 -0.57515669
-0.74035883 -0.128277 -0.57434249
-0.76669049 -0.05906041 -0.56111073
-0.78677011 0.031994894 -0.57183969
0.79247546 0.031992584 -0.57186878
-0.1472033 -0.63524938 -0.54790854
0.12939072 -0.63422579 -0.55490732
-0.21603698 -0.61148953 -0.55287313
0.22148137 -0.61124438 -0.55464208
-0.28464153 -0.58780634 -0.55783582
0.38223603 -0.54182202 -0.55777705
-0.42441112 -0.52014333 -0.54555357
0.42961594 -0.51990563 -0.54776049
-0.49375165 -0.47400159 -0.54513836
0.49746564 -0.4729768 -0.55623245
0.54284376 -0.42668384 -0.559834
0.56687564 -0.40409806 -0.55414116
-0.58428752 -0.38106325 -0.55431795
0.59099656 -0.38142517 -0.54844117
-0.609622 -0.35863999 -0.54319477
0.61522448 -0.35866964 -0.54264522
-0.67817271 -0.26612967 -0.54654634
0.68135452 -0.26588792 -0.55701232
-0.72291356 -0.19688232 -0.55232716
0.7509585 -0.12782061 -0.55458319
0.77366859 -0.058815345 -0.55580556
-0.7936368 0.010872915 -0.5463537
0.79751289 0.010438696 -0.5526222
-0.17128606 -0.63765001 -0.53149486
0.15301974 -0.63616043 -0.5416795
0.17685957 -0.63811451 -0.52831948
-0.2404547 -0.61375427 -0.53652883
0.24551992 -0.61307764 -0.541412
0.26977214 -0.61492705 -0.52806461
-0.30939427 -0.58994013 -0.54153097
0.31536555 -0.59058303 -0.53661823
-0.3559258 -0.56710839 -0.53918087
0.36228007 -0.56806076 -0.53144991
-0.40403968 -0.54549903 -0.5259335
0.40936193 -0.54546607 -0.52621877
-0.47332159 -0.49874353 -0.52866435
0.47731233 -0.49784017 -0.53769147
-0.63514245 -0.3360486 -0.5320034
0.63954622 -0.33582586 -0.53682709
0.6639657 -0.31289396 -0.53097117
-0.7049613 -0.24328633 -0.53101587
0.71024591 -0.24327871 -0.53150988
0.7337299 -0.19688232 -0.53031242
-0.75257248 -0.15040526 -0.52626395
-0.7746495 -0.080860227 -0.53070164
0.78058237 -0.080779046 -0.52858925
0.80464363 -0.010919183 -0.52537775
-0.79823726 0.058486626 -0.52927876
-0.10250656 -0.66411 -0.51030982
-0.079096153 -0.66386491 -0.51190221
-0.055710293 -0.66361988 -0.51349294
-0.032348946 -0.66337532 -0.515082
-0.0090121944 -0.66313326 -0.51665413
0.014300352 -0.66288912 -0.51823997
0.037588496 -0.66264528 -0.51982415
0.060852274 -0.66240156 -0.52140653
0.084094167 -0.6621744 -0.52288187
-0.19573577 -0.64029193 -0.51343226
0.20099817 -0.64028978 -0.51344752
-0.26514205 -0.61604589 -0.51998997
-0.33609939 -0.59400207 -0.51049197
-0.45265886 -0.52375364 -0.51205373
0.45690742 -0.52301377 -0.51891911
-0.52297926 -0.47720218 -0.51049185
-0.54707175 -0.45417792 -0.50652695
-0.66085392 -0.31328833 -0.52072847
-0.68689531 -0.29037511 -0.50877643
0.68916881 -0.28996775 -0.52200878
0.76094252 -0.15021729 -0.51405299
-0.80190754 -0.010320559 -0.51565659
0.82876021 0.059090748 -0.52214432
0.13194193 -0.6674487 -0.48862457
-0.12640756 -0.66590869 -0.49862695
0.10788299 -0.66479546 -0.50585735
-0.22072007 -0.64342117 -0.49203777
0.22552337 -0.64279765 -0.49630082
-0.29010233 -0.61836296 -0.50326812
0.2950342 -0.61798304 -0.50600946
0.34238827 -0.59527487 -0.50076604
-0.38459834 -0.57231641 -0.49689817
0.38990605 -0.57248795 -0.4955045
0.43760115 -0.54963303 -0.49013233
-0.50227946 -0.50213408 -0.49478412
0.50826818 -0.5026719 -0.48940945
0.53144675 -0.47896224 -0.49143863
0.55459458 -0.45528394 -0.49346519
-0.57122731 -0.43109339 -0.50255156
0.57771736 -0.43163943 -0.49545836
-0.59546459 -0.40795478 -0.498474
0.60080999 -0.4080258 -0.49744892
-0.62095457 -0.38510597 -0.48867083
0.62510461 -0.38482219 -0.49328101
-0.71407247 -0.26736999 -0.49283612
-0.78570676 -0.10276392 -0.4884553
0.78973901 -0.10288974 -0.49254429
0.81191343 -0.03266789 -0.49760199
-0.82944745 0.060929552 -0.50043023
-0.15102309 -0.66923511 -0.47702205
0.15627526 -0.67013204 -0.47119534
-0.24605954 -0.64659488 -0.47033894
0.25032637 -0.6453318 -0.47897482
-0.31627133 -0.62190306 -0.47771978
-0.4335247 -0.55042833 -0.48324382
0.48668885 -0.52755421 -0.47678959
-0.64698339 -0.3622033 -0.47706866
0.64984328 -0.36165267 -0.48728514
0.6746828 -0.33839279 -0.48124993
-0.74148685 -0.22050071 -0.47692907
-0.81034929 -0.031952381 -0.48432457
-0.83361143 0.085754976 -0.48540461
0.83865488 0.085753515 -0.48541999
-0.17599024 -0.67260885 -0.45510864
0.18088686 -0.67284387 -0.45358193
0.27573162 -0.64844561 -0.45768631
0.32284868 -0.62410319 -0.4618423
-0.36476979 -0.59964442 -0.46737659
0.37006104 -0.60007781 -0.46406472
-0.4140912 -0.57767475 -0.4533931
0.41820109 -0.57702416 -0.45867527
0.46652138 -0.55389887 -0.45318818
-0.48288631 -0.5283401 -0.46949768
-0.6732105 -0.33912593 -0.46537793
-0.69963825 -0.31587219 -0.45359766
0.72800267 -0.26825261 -0.45462084
0.75063425 -0.22063515 -0.45947552
-0.76980203 -0.17312162 -0.45843995
0.77469623 -0.17311995 -0.45822012
0.81931412 -0.054821074 -0.46932626
-0.83821839 0.039928481 -0.46878064
-0.081433691 -0.69948608 -0.43598843
-0.057446152 -0.69910789 -0.43832791
-0.033494934 -0.69873285 -0.44064772
-0.0095793363 -0.69835567 -0.44298017
0.014300352 -0.69797927 -0.44530904
0.038144335 -0.69760597 -0.44761848
0.061960347 -0.6973123 -0.44943535
0.085905388 -0.69811761 -0.44445384
0.20578313 -0.67558926 -0.43574965
-0.27176321 -0.64981633 -0.44831371
-0.46385548 -0.5554992 -0.43932939
-0.79904324 -0.12511683 -0.43750072
0.80041361 -0.12541747 -0.45052421
-0.8196432 -0.053920597 -0.44982982
-0.84611601 0.11382361 -0.44028246
0.85082483 0.11382683 -0.44025075
-0.10545614 -0.69985962 -0.43367755
0.11057439 -0.70232105 -0.41845119
-0.20131661 -0.67603111 -0.43287981
0.23096831 -0.67836672 -0.4177103
-0.29826185 -0.65370399 -0.42173362
0.44747329 -0.58192503 -0.41888607
0.59170371 -0.46152556 -0.41975546
0.61535668 -0.43730485 -0.42186213
0.6389811 -0.41311797 -0.42394996
0.66431421 -0.38947904 -0.41766202
0.83010405 -0.076911226 -0.4281013
-0.1308427 -0.70488292 -0.40260375
-0.2272708 -0.68002468 -0.40694165
0.30429816 -0.65604544 -0.40572429
0.35216978 -0.63128591 -0.41000521
-0.34712201 -0.63058913 -0.41503322
-0.39620715 -0.60738993 -0.40819049
0.39989111 -0.60657251 -0.41443586
-0.44552639 -0.58410484 -0.40118766
-0.56587827 -0.48697168 -0.40473342
0.57028192 -0.48695964 -0.40486348
-0.58794296 -0.4618693 -0.41569483
-0.61287665 -0.43810418 -0.41147804
-0.63788772 -0.41427839 -0.40720129
-0.66297424 -0.39038938 -0.40288019
0.71497256 -0.31768784 -0.40642238
0.13566004 -0.70659304 -0.39202535
0.25726715 -0.68281591 -0.38881159
-0.54419214 -0.51255208 -0.39068174
0.54937261 -0.5130614 -0.38559151
0.79300475 -0.19688232 -0.38389683
0.81767404 -0.14819312 -0.38257885
-0.8337549 -0.075731508 -0.39745402
-0.85900402 0.14273591 -0.39377701
0.86335063 0.1427377 -0.39376056
-0.15686227 -0.71037024 -0.36866033
0.16117412 -0.71094048 -0.36513233
-0.25429416 -0.68523604 -0.37309253
-0.52230823 -0.53836054 -0.37652016
0.528162 -0.53945684 -0.36634791
-0.37978488 -0.64022815 -0.34546924
0.38249171 -0.63871199 -0.35641181
0.43099064 -0.61357254 -0.36094522
0.7761417 -0.2460334 -0.35258794
-0.79549092 -0.19688237 -0.35731626
-0.87228864 0.17252974 -0.34584022
0.8762573 0.1725278 -0.34585714
-0.18345009 -0.71597725 -0.33397579
0.18712626 -0.71536005 -0.33779323
-0.33239207 -0.66739345 -0.32813823
-0.42942917 -0.61596024 -0.34270072
-0.82524633 -0.14749727 -0.33738661
-0.28447822 -0.69484657 -0.31067002
0.33654496 -0.66785526 -0.32498074
-0.010737555 -0.74771625 -0.29252291
0.014300352 -0.74690282 -0.29732656
0.039264683 -0.74609751 -0.30208123
0.064156026 -0.74529469 -0.30682182
0.21461971 -0.72272062 -0.2922616
-0.7855283 -0.24687156 -0.29814315
-0.88598365 0.2032439 -0.29642236
0.88956708 0.20323969 -0.29645729
-0.086310089 -0.75023979 -0.27762258
-0.061042294 -0.74939501 -0.28261042
-0.035851792 -0.74855584 -0.28756547
-0.51222932 -0.57297486 -0.28798509
0.51568186 -0.57291847 -0.28847444
0.090250053 -0.75384682 -0.25632429
-0.21308425 -0.7274465 -0.2630285
0.29293957 -0.7034992 -0.25447011
-0.9000935 0.23491479 -0.24550796
-0.88885844 0.26759917 -0.19293511
0.89163524 0.26758891 -0.19300902
0.89926445 0.089429632 -0.16385996
-0.90019202 0.11665796 -0.15087008
0.90116161 0.11612757 -0.15661168
-0.90123123 0.14317219 -0.14701271
0.90285313 0.14285834 -0.15014863
-0.90092385 0.1692072 -0.14815354
0.90320122 0.16913579 -0.14881873
-0.90061659 0.19522496 -0.14929402
0.90354949 0.19543354 -0.14748812
-0.90031469 0.22122742 -0.15041447
0.90389806 0.22175176 -0.14615631
-0.90002328 0.2472177 -0.15149629
0.90424693 0.24809082 -0.14482355
-0.89191723 0.069652215 -0.08265686
0.89383936 0.069644585 -0.082755685
-0.89457172 0.097164407 -0.072514653
0.89605755 0.31079614 -0.074023843
-0.8918913 0.33617169 -0.082755804
0.89384437 0.33617467 -0.082735896
0.89729971 0.097450599 -0.069133997
-0.89587879 0.12435724 -0.067520976
0.89954555 0.12502502 -0.060293198
-0.89704317 0.15157257 -0.063071966
-0.89821589 0.1788597 -0.058591723
-0.89895022 0.20602234 -0.055785656
-0.89864582 0.23273943 -0.056948781
-0.89834172 0.25943857 -0.058111072
0.89966249 0.25921345 -0.05983305
-0.89804292 0.28612286 -0.059252501
0.8978563 0.28505731 -0.066942811
-0.89674008 0.3122285 -0.064230204
0.90149647 0.15261914 -0.052613497
0.90345091 0.18033288 -0.044920087
0.90329713 0.20720701 -0.045525432
0.90147603 0.23326354 -0.052693963
-0.88094211 0.34568894 -0.020939469
0.88141233 0.34506261 -0.025006771
-0.88178492 0.0475045 -0.017621517
0.8848201 0.047951385 -0.011172652
-0.88445932 0.075469121 -0.0070941448
0.88681656 0.26664186 -0.0030680895
-0.8850202 0.29365611 -0.0048861504
0.88500768 0.29289049 -0.010411143
-0.88297909 0.31973302 -0.012920737
0.88320625 0.31903058 -0.017724037
0.88832122 0.076249108 0.0030399561
-0.88714963 0.10360087 0.0034962893
0.89081144 0.10441832 0.013149023
-0.88985616 0.13190185 0.01415062
0.8911404 0.13193278 0.014484525
0.89123815 0.15937366 0.014881253
0.89042109 0.1864204 0.011564374
-0.89026988 0.2142861 0.015779257
0.88960552 0.21341707 0.0082538128
-0.88913035 0.24114467 0.011293411
0.88863301 0.24028404 0.0043058395
-0.8870706 0.26746035 0.003185153
-0.89247763 0.16033332 0.024469852
-0.8913697 0.18734126 0.0201087
-0.86677164 0.35378778 0.031663775
0.86813563 0.35397911 0.032907724
-0.86474621 0.37999183 0.023441553
0.86634755 0.38031095 0.025414824
-0.84004867 0.40942991 0.035060406
-0.86958945 0.024090156 0.043103099
0.87317842 0.02476351 0.05403924
-0.87084538 0.30101216 0.048201084
0.87173444 0.30098253 0.047988415
-0.86880642 0.32746232 0.039924145
0.86993128 0.32753658 0.040432096
-0.87346268 0.052800864 0.058826208
0.87450469 0.052854449 0.059596658
-0.87648809 0.081488982 0.071107745
0.87515396 0.08081229 0.062317491
-0.87650406 0.10933159 0.071172357
0.87548155 0.108698 0.063690186
-0.87651992 0.13717537 0.071237087
0.87580425 0.13660301 0.065042496
0.87612718 0.16452877 0.06639576
-0.87653059 0.16501783 0.071280241
-0.87637669 0.19278876 0.070655584
0.87619901 0.19236232 0.066696525
-0.87527442 0.22010572 0.066180825
0.87539446 0.21977608 0.063325405
-0.87418014 0.24735789 0.061738729
0.8745864 0.24713619 0.059939265
-0.87289375 0.27443957 0.056516647
0.87355042 0.27431923 0.055597782
-0.85217172 0.36213201 0.085861206
-0.85014969 0.38871294 0.077388167
0.85262609 0.38994575 0.085014105
0.85084492 0.41658366 0.077301741
-0.8550685 -0.00057329237 0.09800005
0.85516071 -0.00068159401 0.095989585
0.85644388 0.027689233 0.10154593
0.85773098 0.056146756 0.10711932
-0.85623372 0.30858916 0.10288286
0.85802037 0.30934972 0.10837233
-0.85420316 0.33542621 0.094373822
0.85621631 0.33633107 0.10056031
0.85441482 0.36319399 0.092759609
-0.82678705 0.44795138 0.096972585
0.82735151 0.44795138 0.096972585
-0.8576749 0.028143629 0.10892212
-0.85865766 0.056557044 0.11304033
-0.85964268 0.085034713 0.11716795
0.85902208 0.084691659 0.11270952
-0.86010689 0.11339109 0.11911333
0.85971493 0.11310308 0.11571002
-0.8601175 0.14160196 0.11915755
0.86003125 0.14140995 0.1170795
-0.86013335 0.16981556 0.11922395
0.86034769 0.16973831 0.11844981
-0.8601439 0.19802789 0.11926818
0.86067468 0.19809233 0.11986566
-0.85984832 0.22609268 0.11802971
0.86072063 0.22632779 0.12006485
-0.85875767 0.25372827 0.11345923
0.85991895 0.25411415 0.11659348
-0.85766965 0.28129476 0.10890019
0.85911876 0.28184807 0.11312854
-0.83309728 0.42454255 0.1242969
0.83218563 0.42358243 0.11862683
0.83796281 0.0019326657 0.14450526
-0.8371225 0.37073296 0.14172626
0.83710253 0.3705675 0.14065182
-0.83510512 0.39770156 0.13299108
0.83463669 0.39715433 0.12960637
-0.83897805 0.0022158474 0.14976108
-0.83995563 0.030919284 0.15399432
0.8392365 0.030686185 0.15021086
-0.84093034 0.059686854 0.15821469
0.84051418 0.059528813 0.15593421
-0.84190726 0.088520214 0.16244495
0.84179586 0.088460967 0.1616751
-0.84180266 0.28824258 0.16199207
-0.84072691 0.3161341 0.15733409
0.84171498 0.31668526 0.16131282
-0.83914429 0.34363258 0.15048087
0.83958828 0.34382349 0.15178657
-0.81325072 0.43091494 0.16192412
0.81229168 0.43011087 0.15717578
-0.81068105 0.4574132 0.15041339
0.80988955 0.45663738 0.14603138
-0.78454375 0.48784113 0.16113198
0.78460956 0.48783702 0.16110933
-0.84288108 0.11741756 0.16666222
0.84308141 0.11748295 0.16743398
-0.84327972 0.14614974 0.16838789
0.84381205 0.14636375 0.17070675
-0.84329545 0.17474245 0.1684562
0.844127 0.17510895 0.17211771
-0.84330595 0.20333387 0.1685015
0.84444225 0.20387574 0.17352962
-0.84331644 0.23192619 0.16854703
0.84475768 0.23266442 0.17494285
-0.84288639 0.26028401 0.16668487
0.84477293 0.26130939 0.17501104
0.84348214 0.28918976 0.16922891
0.81714469 0.37657791 0.17969108
-0.81584156 0.40425491 0.17352962
0.81470841 0.40342373 0.16838813
-0.81827974 -0.024624437 0.1844517
0.81746507 -0.02477555 0.18117738
-0.82006907 0.004517138 0.1924665
0.81954634 0.0044292361 0.19083309
0.82128984 0.32189655 0.1989218
-0.82096404 0.35035986 0.19647551
0.81955129 0.34953803 0.19085622
-0.81844354 0.37742382 0.18518507
-0.79256964 0.43708694 0.19836783
0.79197943 0.43678212 0.19656777
-0.79003471 0.46382153 0.186607
0.78960884 0.46356559 0.18516207
-0.82179385 0.033764198 0.20019257
0.82156366 0.033764198 0.20019257
-0.82275969 0.062895015 0.20451915
0.82283092 0.063002512 0.20607173
-0.82372785 0.092092797 0.20885575
0.8241021 0.092332676 0.21196938
-0.82469302 0.12135653 0.21317935
0.82448322 0.26607919 0.21373761
-0.82481247 0.29501134 0.21371448
0.82303083 0.29413265 0.2069993
-0.82288378 0.32274932 0.20507503
-0.79511565 0.41017956 0.21017969
0.79435974 0.40983051 0.20802009
-0.76650262 0.49716473 0.21159744
0.7665804 0.49753004 0.21357477
-0.79712379 -0.051985249 0.21949601
-0.79887897 -0.022629693 0.22763908
0.79843754 -0.022629693 0.22763908
0.82537735 0.12175508 0.21788561
-0.82566553 0.15068974 0.21753585
0.82665658 0.1512702 0.22382069
-0.82599372 0.17980112 0.21900582
0.827227 0.18054797 0.22646689
-0.82600415 0.20878188 0.21905243
0.82630867 0.20912172 0.22220647
-0.82601458 0.23776336 0.21909904
0.82539749 0.23763399 0.21797907
-0.82602501 0.26674533 0.21914577
-0.79981005 0.35554981 0.23195899
0.79873496 0.35512716 0.22906995
-0.79767776 0.38310212 0.22206604
0.79675472 0.38271338 0.21954274
-0.76897997 0.4703564 0.22351646
0.76889825 0.4706465 0.225155
-0.74078059 0.5291571 0.22756875
0.74034429 0.52916151 0.22759223
-0.80064678 0.0068544149 0.2358408
0.80049491 0.0069457442 0.23753738
-0.8024224 0.036466971 0.24407876
0.80256307 0.036677048 0.24748802
-0.80412889 0.066184238 0.2519958
0.80311507 0.27056354 0.250144
-0.80359679 0.299698 0.2495271
0.8021692 0.29918331 0.24559307
0.80044591 0.32721466 0.23730171
-0.80169904 0.32768863 0.24072266
-0.77397716 0.41622233 0.24755895
0.77356738 0.41637188 0.24848366
-0.77147299 0.44337755 0.2355113
0.77122557 0.44359291 0.2367835
-0.74507111 0.504076 0.24900544
-0.77706772 -0.050332725 0.26242864
0.77665502 -0.050275624 0.26391006
0.80464709 0.066566512 0.25751483
-0.80508751 0.095756188 0.25644302
0.80591673 0.096308962 0.26362324
-0.80604315 0.12539558 0.26087677
0.80597633 0.12565233 0.26391006
-0.80700624 0.15510605 0.2653451
0.80584717 0.15491624 0.26328862
-0.80773902 0.18477885 0.26874495
0.80571806 0.18417074 0.26266754
-0.80683094 0.21368338 0.26453161
0.80490959 0.21306323 0.25877786
-0.80575001 0.24243037 0.25951695
0.80401379 0.24184729 0.25446784
-0.804672 0.27110183 0.25451565
-0.77824605 0.36083537 0.26809788
0.77748835 0.36083186 0.2680738
-0.77639806 0.38882023 0.25920689
0.77581388 0.38889724 0.25970781
-0.7475093 0.47702616 0.26118731
0.74773407 0.47787666 0.26599097
0.74546158 0.50503236 0.2541827
-0.77902353 -0.020588115 0.27183867
0.77892947 -0.020429507 0.27527404
-0.78076845 0.0092466921 0.2802341
0.78096104 0.0095263273 0.28542447
-0.78252113 0.039212748 0.28866649
-0.78259158 0.27534986 0.28900552
0.78132892 0.27513522 0.28726268
-0.78154093 0.3042028 0.28395033
0.78045332 0.30406386 0.28288794
-0.78010261 0.33271962 0.27702999
0.77917498 0.33264625 0.27650094
-0.7524184 0.4223904 0.28571463
-0.7499584 0.44979817 0.27342343
0.75002074 0.45055169 0.27787304
-0.72321314 0.51113057 0.28718996
0.7225861 0.5114035 0.28866649
-0.7208367 0.53825462 0.27484155
0.72008961 0.53831476 0.27515388
-0.75358641 -0.078745916 0.29155016
0.75316209 -0.078664407 0.29419565
-0.75600147 -0.04874751 0.303617
0.78278941 0.039575815 0.29455948
-0.78428662 0.069313303 0.29716039
0.78335869 0.06933023 0.29740381
-0.78596848 0.099513605 0.30525255
0.78379709 0.099077925 0.2995944
0.78367037 0.12862055 0.29896116
-0.7857756 0.12907465 0.30432463
-0.78547633 0.15857403 0.30288458
0.78354859 0.15815534 0.29835272
-0.78517729 0.18805133 0.3014462
0.78342199 0.18767838 0.29771996
-0.78471142 0.21741997 0.29920459
0.78309095 0.21708186 0.29606605
-0.7836501 0.24642335 0.29409838
0.78221136 0.2461433 0.29167151
-0.75627023 0.36622685 0.3049593
-0.75445133 0.39446521 0.29587197
0.75415885 0.39500451 0.29937506
0.75232643 0.42305964 0.28985333
-0.72560036 0.4838264 0.2995944
0.72510028 0.48430097 0.30227494
-0.69742441 0.54449773 0.30728078
0.69547504 0.54352492 0.30222607
0.6648773 0.57198119 0.2964313
0.75584036 -0.048574358 0.30811238
-0.75843674 -0.018558487 0.31578398
0.75825846 -0.018332556 0.32067728
-0.76041287 0.011694148 0.32565737
0.75908864 0.011658356 0.32499075
-0.76010662 0.27967566 0.3241272
0.75911236 0.27979743 0.32511425
-0.75907624 0.30878711 0.31897926
0.75825375 0.30900604 0.32065272
-0.75805354 0.33782417 0.31386924
0.75739241 0.33814389 0.31617689
0.7558074 0.36666304 0.3079412
-0.73030752 0.42858833 0.32405353
-0.72800308 0.45634478 0.31207919
0.72763693 0.45700949 0.31600499
-0.7000041 0.51742214 0.32124376
0.69790155 0.51644057 0.31593156
-0.66977513 0.57642043 0.31861043
-0.73210132 -0.077458121 0.33337402
0.73190522 -0.07728152 0.33910751
-0.76194245 0.041961715 0.33329988
0.75964469 0.041627809 0.32788014
-0.76234448 0.071956292 0.33530831
0.76020634 0.071643785 0.33079839
-0.76274687 0.10198186 0.33731866
0.760764 0.10170312 0.3336966
-0.76281148 0.13189574 0.33764172
0.76095009 0.13164367 0.33466339
-0.76251829 0.16164936 0.33617663
0.76083082 0.16145222 0.3340435
-0.76222533 0.19138055 0.33471298
0.76071155 0.19125132 0.33342361
-0.76193255 0.22108932 0.33325005
0.76058757 0.22103848 0.33277941
-0.76114476 0.25048989 0.32931399
0.75997299 0.25052124 0.32958603
-0.73386538 0.37172377 0.3425405
-0.73208225 0.40022379 0.33327484
0.73204756 0.40124035 0.33987808
0.73006386 0.42941076 0.3291409
0.7028113 0.46169335 0.34366155
-0.70259798 0.49014509 0.33528328
0.70034987 0.48916709 0.32975912
0.67286336 0.52154988 0.34358692
-0.67226195 0.54938102 0.33265591
0.67050898 0.54880929 0.32968521
0.64292067 0.58140945 0.34353709
-0.73447448 -0.047127426 0.34570551
0.73314726 -0.047122627 0.3458302
-0.73665035 -0.016654149 0.3570118
0.73431498 -0.016878664 0.35215092
0.73549122 0.013464913 0.35851717
0.7360993 0.043717325 0.36180902
-0.73720592 0.28408176 0.35989881
-0.73619682 0.3134557 0.35465503
0.73560721 0.31404322 0.35914516
-0.73519516 0.34275436 0.34945035
0.73476833 0.34346855 0.35460496
0.73366374 0.37261367 0.3486259
-0.70750326 0.43469572 0.36183405
0.70498848 0.43374592 0.35595846
-0.70521539 0.46267366 0.34945035
-0.67728126 0.49469924 0.36100459
0.67523897 0.4940989 0.3576138
-0.67476249 0.52213967 0.34677839
-0.64676148 0.55432421 0.35834169
0.6451841 0.55416965 0.35753846
-0.6443513 0.58152425 0.34411001
-0.71014261 -0.076141909 0.37612009
0.70770705 -0.076289833 0.37131286
0.70884091 -0.045895308 0.37771654
-0.73768491 0.013673469 0.36238742
-0.73819357 0.043915763 0.36503053
-0.73858649 0.074156865 0.36707211
0.73664337 0.073996171 0.36475348
-0.7389797 0.10442971 0.36911559
0.73719287 0.10432293 0.36772776
-0.73937833 0.13473625 0.37118649
0.73774314 0.13469566 0.37070656
-0.73915952 0.16477849 0.37004972
0.73768711 0.16481103 0.37040329
-0.73887289 0.19476785 0.36856031
0.73757052 0.19488896 0.36977196
-0.73858649 0.22473423 0.36707187
0.73745388 0.22495718 0.36914086
-0.73822272 0.25463152 0.36518168
0.73729539 0.25498962 0.36828279
0.73645264 0.28455257 0.36372137
0.70890373 0.37692052 0.37807155
-0.70927316 0.40609556 0.37141395
0.70696509 0.40543491 0.36712241
-0.67982298 0.46706164 0.37536025
0.67762738 0.46644473 0.37171721
-0.64918512 0.52691996 0.37265253
0.64746803 0.52673787 0.37166691
-0.61859369 0.58670062 0.3699739
0.61730552 0.58702433 0.37159085
-0.58814889 0.61642414 0.36798
0.5866161 0.61640835 0.36790442
-0.68352807 -0.10586118 0.39628625
0.68114752 -0.10594862 0.39250207
-0.71115029 -0.045746744 0.38157392
-0.71216071 -0.015267104 0.38704324
0.70997846 -0.015401185 0.38414121
-0.71316928 0.015296414 0.39250207
0.71112418 0.015194431 0.3906126
-0.71405286 0.045902088 0.39728475
0.71213782 0.045843706 0.39633751
-0.71387792 0.28856969 0.39633751
-0.71289098 0.31821156 0.3909955
0.71163064 0.31853569 0.39347315
-0.71191132 0.34777653 0.38569355
0.71026677 0.34778696 0.38576984
-0.71092975 0.37725812 0.38038039
0.68148077 0.40964526 0.39447021
-0.6818825 0.43876284 0.38699245
0.67956793 0.43814588 0.38317513
-0.65163094 0.49931848 0.38709426
0.64976442 0.499102 0.38587189
-0.62092102 0.55933356 0.38437033
0.61949247 0.55960786 0.38579535
-0.59248728 0.59194165 0.3961587
-0.68507212 -0.075252436 0.40500736
0.68280423 -0.075336315 0.40228438
-0.68630326 -0.044577375 0.41196036
0.68413287 -0.044647679 0.41012979
-0.71443629 0.076393798 0.39935994
0.71266836 0.07639204 0.39933443
-0.71482009 0.10691781 0.40143752
0.71320432 0.10698886 0.40236139
-0.71520907 0.13747595 0.40354276
0.71373653 0.13763066 0.40536737
-0.71538943 0.16796242 0.40451908
0.71410549 0.16823326 0.40745115
-0.71510935 0.19821446 0.40300345
0.71399158 0.19859521 0.40680766
-0.71482486 0.2284406 0.40146303
0.71387774 0.22894736 0.40616465
-0.71454525 0.25864625 0.39994955
0.71375936 0.2592864 0.40549588
0.71300441 0.28917259 0.40123224
0.68445599 0.3514269 0.41203809
-0.6856963 0.38137567 0.40853262
0.68313473 0.38074738 0.40423632
-0.68393612 0.41027987 0.39859104
-0.65592521 0.44287831 0.41245079
0.65378594 0.44260323 0.41074848
-0.65394706 0.47136497 0.40077043
0.65194076 0.47112185 0.39933443
-0.62563151 0.50399524 0.41350913
0.62391824 0.50417823 0.41454196
-0.62326962 0.53176892 0.3988986
0.62169927 0.53199631 0.40012932
-0.59473753 0.56441504 0.41077399
0.59342986 0.56513017 0.41449022
0.59131807 0.59272081 0.40005255
-0.56388241 0.62474567 0.4080174
0.56253803 0.6254741 0.41152191
-0.65800744 -0.10520394 0.4247458
0.65572566 -0.10525008 0.42274761
-0.65950584 -0.07437212 0.43359327
0.65733147 -0.074400373 0.43268085
-0.68728662 -0.013859734 0.41751456
0.68523902 -0.013899088 0.41666126
-0.68826824 0.016942859 0.42305899
0.68635321 0.016952783 0.42324018
-0.68924797 0.047829986 0.42859221
0.68746674 0.047905296 0.42981529
-0.68988413 0.078668073 0.43218541
-0.69025809 0.10944749 0.43429756
0.68789458 0.2623865 0.43234205
-0.6900503 0.29310077 0.43312383
0.68710983 0.29243362 0.42770791
-0.68859905 0.32265198 0.42492771
0.68578249 0.32199007 0.41987038
-0.6871447 0.35207468 0.416713
-0.65942192 0.38496864 0.43309784
0.65702397 0.38462955 0.43077898
-0.65791953 0.41422659 0.42422652
0.65563762 0.4139151 0.42220283
-0.62771678 0.47570705 0.42640805
0.62586123 0.47583473 0.42716193
-0.59700054 0.53667849 0.42547297
0.59555334 0.53733194 0.42900872
-0.56602925 0.59725285 0.42269564
0.56466913 0.59809482 0.42690182
0.53441644 0.62918431 0.42937303
-0.66101098 -0.043402404 0.44248033
0.65894532 -0.043395504 0.44266415
-0.66202402 -0.012430325 0.44846225
0.66008663 -0.012371987 0.44972396
0.68826556 0.078830644 0.43453264
0.68878299 0.10970064 0.43758774
-0.69063711 0.14026161 0.43643808
0.6893056 0.14062031 0.44067383
-0.69101185 0.17110653 0.43855476
0.68982464 0.1715854 0.44373822
-0.69092393 0.20172261 0.43805814
0.68939871 0.20203938 0.44122362
-0.69064635 0.23221563 0.4364903
0.68864584 0.23224662 0.43677783
-0.6903736 0.26268768 0.43495011
-0.66223323 0.32589358 0.44969773
0.65958124 0.32548791 0.44659781
-0.66082466 0.35549271 0.44138074
0.65830219 0.35511923 0.43868542
-0.63146466 0.41813183 0.44959259
0.62933087 0.41814816 0.44969773
-0.62963384 0.44705194 0.43826747
0.62763947 0.44712383 0.43871188
-0.60114741 0.48011029 0.4524076
-0.59928441 0.50874001 0.44030714
0.59769237 0.50932902 0.44363356
-0.57037503 0.54165488 0.4524076
-0.56819594 0.56956017 0.4375093
0.56681687 0.57050157 0.44240189
-0.53921616 0.60264146 0.44961905
0.53644735 0.60169536 0.44489193
-0.53714019 0.63027865 0.43463707
-0.50863737 0.63366574 0.45093393
0.50603998 0.63292819 0.44738531
-0.47678673 0.66251987 0.44208741
0.4746854 0.66250306 0.44200897
-0.6321156 -0.1045371 0.45361924
0.62991023 -0.10454088 0.45346117
-0.6335668 -0.073479086 0.46259618
0.63146341 -0.073449761 0.46354866
-0.66297764 0.018615186 0.45409322
0.66116381 0.018738627 0.45638704
-0.66392946 0.049746841 0.45971346
0.66224879 0.049955025 0.46309876
-0.6648885 0.08096765 0.46537638
0.66333312 0.081274495 0.46980667
-0.66528362 0.11201946 0.46770978
-0.66565228 0.14309399 0.4698863
0.66336322 0.14310293 0.46999264
0.66317433 0.17390276 0.46882415
0.66286123 0.20460774 0.46688747
-0.66512644 0.23548017 0.46678114
0.66213328 0.2350062 0.46238422
-0.66427875 0.26578528 0.46177578
0.66140693 0.26533657 0.45789123
-0.66343313 0.29601479 0.45678258
0.66068226 0.2955991 0.45340824
-0.63417053 0.35894978 0.46633053
0.63178962 0.35885793 0.46566796
-0.63281482 0.38860279 0.45794415
0.63055986 0.38856411 0.45768023
-0.60299724 0.45128024 0.4644227
0.60111678 0.4517042 0.46704674
0.59940726 0.48060995 0.45535874
-0.57245791 0.51340407 0.46664882
0.56898141 0.54269248 0.45802331
-0.5412932 0.57477534 0.46460795
0.53849769 0.57399625 0.46055937
-0.51070434 0.60606605 0.46672845
0.50797206 0.60533428 0.46307254
-0.47990012 0.63708079 0.46736503
0.47740811 0.6367116 0.46558833
-0.449083 0.66809982 0.4679749
0.44680294 0.66812271 0.46808124
-0.60423529 -0.13502887 0.47246408
0.60198694 -0.13502079 0.472996
-0.60584438 -0.10386078 0.4829154
0.60369599 -0.10381981 0.48468041
-0.63502455 -0.04228124 0.47161341
0.63302433 -0.04220134 0.47368789
-0.63636369 -0.010978356 0.47989726
0.63450682 -0.010820419 0.48331642
-0.63728839 0.020313919 0.48561692
0.66355646 0.11228733 0.47118807
-0.66601676 0.17419975 0.47203851
-0.66597629 0.20509933 0.47179937
0.63527751 0.23780175 0.48832226
-0.63731432 0.26855665 0.48577762
0.6345768 0.26832497 0.48377109
-0.63650173 0.29896688 0.48075128
0.63387764 0.29877955 0.47922993
-0.63553625 0.32917589 0.47477913
0.63302433 0.32903308 0.47368765
-0.60587734 0.39228654 0.48312926
0.60373122 0.39254862 0.48492146
-0.60457528 0.42199332 0.47467256
0.60255164 0.42232955 0.47685671
-0.57422781 0.48457128 0.47874975
0.57257134 0.48544884 0.48393154
0.57093817 0.51437712 0.47214508
-0.5433895 0.54670399 0.47973704
0.54056072 0.54607338 0.4763236
-0.51279122 0.57825226 0.48267484
0.50991619 0.57751739 0.47885656
-0.48186153 0.60938066 0.48328972
0.479233 0.60900098 0.48139238
-0.45092553 0.64052421 0.48393154
0.44851115 0.64052421 0.48393154
-0.41997677 0.67167181 0.4845469
0.41774783 0.67208135 0.48644686
-0.57729876 -0.13460882 0.49974585
0.57507658 -0.13457389 0.5020113
-0.60724682 -0.072573006 0.49202442
0.60519069 -0.072484381 0.49489975
-0.60865563 -0.041143462 0.50117493
0.6066969 -0.040988535 0.505198
0.63555413 0.020556405 0.49011874
-0.63821566 0.051695064 0.49135351
0.6359964 0.051795974 0.49299169
-0.63914126 0.083164081 0.49707913
0.63631916 0.083026186 0.49508786
-0.63967699 0.11453541 0.50039268
0.6364392 0.11418714 0.49586797
-0.63939381 0.14552884 0.49864101
0.63625705 0.14519389 0.4946847
-0.6391108 0.17649536 0.49689054
0.63607496 0.17618231 0.4935019
-0.63883245 0.20743801 0.49516869
0.63588881 0.20715009 0.49229312
-0.63813323 0.23807333 0.4908433
-0.60924166 0.30195123 0.50498199
0.60672456 0.30200124 0.50538754
-0.60845631 0.33246082 0.49988055
0.60605329 0.33258092 0.50079751
-0.60718477 0.36245435 0.49162173
0.60491157 0.36264408 0.49299169
-0.57734609 0.42590344 0.50006914
0.57540208 0.42656404 0.50436068
-0.57600844 0.45556414 0.49092388
0.57421792 0.4563548 0.49581432
-0.54695117 0.48909181 0.50544143
0.54417676 0.48883998 0.50395536
-0.54525214 0.51810139 0.49317932
0.54244328 0.51766396 0.4907093
-0.51489472 0.5502165 0.49874878
0.51187563 0.54948062 0.49476528
-0.48384196 0.58146501 0.49936843
0.48107234 0.5810709 0.49732137
-0.45277962 0.61272293 0.49998832
0.45023003 0.6127013 0.49988079
-0.42170778 0.64399046 0.50060868
0.41934863 0.64437175 0.50244331
-0.39062911 0.67527342 0.50125575
0.38842809 0.67608237 0.50500894
-0.57912582 -0.10318359 0.51223779
0.57696748 -0.10310435 0.51565766
-0.58053738 -0.071653455 0.52188873
0.57791394 -0.071634799 0.52248836
-0.61007077 -0.0095710456 0.51036692
0.60754013 -0.0095435828 0.5109632
-0.61119086 0.022039607 0.51764202
0.60804403 0.021865278 0.51440835
-0.61160982 0.053481653 0.52036309
0.60834998 0.053243831 0.5165
-0.61184049 0.084880903 0.52186131
0.60866022 0.084656551 0.51862121
-0.6120671 0.11630128 0.52333331
0.60897076 0.11610217 0.52074432
-0.61183625 0.14749269 0.52183414
0.60881144 0.1473083 0.51965523
-0.61156368 0.17863597 0.52006388
0.60863632 0.17848773 0.51845765
-0.61129135 0.20975216 0.51829481
0.60846132 0.20964877 0.51726127
-0.61081427 0.24069794 0.51519585
0.60807979 0.24063928 0.51465273
-0.61002904 0.27136487 0.51009607
0.60739744 0.27135223 0.50998759
-0.58089638 0.33566213 0.52434254
-0.57985663 0.36600327 0.51723409
0.57766855 0.36648589 0.52071714
-0.57859874 0.39601678 0.50863338
0.57653117 0.39658344 0.51250863
-0.54857016 0.45979995 0.51712513
0.54585046 0.45973843 0.51674485
0.51523983 0.49190956 0.52207923
-0.51672381 0.52156228 0.51272583
0.51359379 0.52085197 0.50871468
-0.48583484 0.55332041 0.51554894
0.48292628 0.55291915 0.51337695
-0.45464852 0.58469915 0.51617384
0.45196256 0.58465731 0.51595664
-0.4234556 0.61609286 0.51682639
0.42095944 0.61643589 0.51853967
-0.39224988 0.64749122 0.51745129
0.3899169 0.64825481 0.52112579
-0.36103457 0.67889917 0.5180769
0.35862243 0.67957395 0.52120757
-0.29854995 0.71038347 0.51900196
-0.26726493 0.71038347 0.51900196
0.26458728 0.71040785 0.51911116
0.29587692 0.71041995 0.51916552
-0.54999018 -0.13418338 0.52737331
0.54741669 -0.13416278 0.52871275
-0.55174863 -0.1025409 0.54006386
0.54853898 -0.10260495 0.53728867
-0.58189565 -0.039988652 0.5311749
0.57865906 -0.040116087 0.52786517
-0.58268553 -0.0083606243 0.53657508
0.57940227 -0.0085150152 0.53322911
-0.58333254 0.023298159 0.54099894
0.58008659 0.023145571 0.53816772
-0.58355391 0.054845735 0.54251266
0.5803836 0.054710343 0.54031157
0.58068097 0.086307958 0.54245734
-0.5834372 0.21209578 0.54171443
0.58069241 0.2121786 0.54254031
-0.58316767 0.2433572 0.53987169
0.58052081 0.24351127 0.54130149
-0.58240861 0.27420378 0.53468204
0.57986969 0.27442545 0.53660274
-0.58165157 0.30497187 0.52950573
0.57922006 0.30526859 0.53191447
0.57857192 0.33604074 0.5272367
-0.55097252 0.39979458 0.53446269
0.54847789 0.40013969 0.53682208
-0.54976684 0.42985892 0.52576208
0.54715914 0.43001026 0.52674484
-0.52009284 0.4632504 0.53846979
