ply
format ascii 1.0
comment PCL generated
element vertex 1332
property float x
property float y
property float z
element camera 0
property float view_px
property float view_py
property float view_pz
property float x_axisx
property float x_axisy
property float x_axisz
property float y_axisx
property float y_axisy
property float y_axisz
property float z_axisx
property float z_axisy
property float z_axisz
property float focal
property float scalex
property float scaley
property float centerx
property float centery
property int viewportx
property int viewporty
property float k1
property float k2
end_header
0.047017261 -0.24354032 -0.20879441
0.066209167 -0.2439698 -0.20507568
-0.20182379 -0.22502318 -0.20333052
-0.18219207 -0.22434604 -0.20961303
-0.16294877 -0.22412273 -0.21168506
-0.1437376 -0.22389978 -0.21375382
-0.12455846 -0.22367719 -0.21581912
-0.1054118 -0.2234562 -0.21786982
0.10398389 -0.22345021 -0.21792543
0.12317309 -0.22380844 -0.21460265
0.14241333 -0.22416618 -0.21128219
0.16170594 -0.22452629 -0.20794147
0.18104985 -0.224886 -0.20460296
-0.20143713 -0.20541809 -0.20789659
-0.18189825 -0.20486443 -0.21342969
-0.16269331 -0.20466995 -0.21537286
-0.14353283 -0.20449923 -0.21707892
-0.12448998 -0.2044981 -0.21708995
-0.10544781 -0.2044981 -0.21708995
-0.08640521 -0.20449702 -0.21710116
-0.067363128 -0.20449702 -0.21710116
-0.048321299 -0.2044981 -0.21708995
-0.029279819 -0.20450258 -0.21704549
-0.010237567 -0.20450591 -0.21701205
0.0088052023 -0.20451039 -0.21696752
0.0278484 -0.20451146 -0.21695626
0.046890743 -0.20450591 -0.21701205
0.065931968 -0.20449923 -0.21707892
0.084972501 -0.20449364 -0.21713465
0.10401175 -0.20448698 -0.21720147
0.12305049 -0.20448138 -0.21725708
0.14220916 -0.20470007 -0.21507156
0.16145955 -0.20501325 -0.21194237
0.18075867 -0.20532718 -0.20880544
0.20010585 -0.20564075 -0.20567191
-0.16443631 -0.24568582 -0.19021434
-0.14500375 -0.24534163 -0.19319409
-0.12565228 -0.24507296 -0.19552052
-0.10633681 -0.24480501 -0.1978426
-0.087057695 -0.24453861 -0.20014918
-0.067813881 -0.24427146 -0.20246255
0.085458316 -0.24439919 -0.20135719
0.10476515 -0.24482971 -0.1976276
0.12412992 -0.24526164 -0.19388682
0.14363578 -0.24587262 -0.18859649
-0.24173714 -0.22676471 -0.18717062
-0.22171636 -0.22589171 -0.19527107
0.20044582 -0.22524676 -0.2012555
0.21989506 -0.22560966 -0.19788784
0.23957846 -0.22618541 -0.19254637
-0.2411696 -0.20692474 -0.19284183
-0.2212428 -0.20616856 -0.20039761
0.2195029 -0.20595627 -0.20251894
0.23906727 -0.20640048 -0.19808024
0.25916153 -0.20730618 -0.18902963
-0.18410525 -0.24631563 -0.18475991
0.1633289 -0.24668187 -0.18158811
0.18313743 -0.24750364 -0.1744712
-0.28217384 -0.22853038 -0.17078769
-0.26188955 -0.22764474 -0.1790058
0.25978351 -0.22723424 -0.18281424
0.28014782 -0.2282925 -0.17299443
-0.28138682 -0.20844966 -0.17760348
-0.26121643 -0.20768437 -0.18525141
0.27940345 -0.20821977 -0.17990154
0.29979229 -0.20913872 -0.17071825
-0.20499052 -0.24848953 -0.16593295
0.20305867 -0.24833009 -0.16731369
0.22312613 -0.24920571 -0.15973061
-0.32314172 -0.23031801 -0.15420055
-0.30258986 -0.22942057 -0.16252726
0.30067092 -0.22935793 -0.16310912
-0.34264204 -0.21077293 -0.15438807
-0.32209775 -0.20999345 -0.16217786
-0.30168071 -0.20921972 -0.16990852
0.32033083 -0.21006447 -0.16146743
-0.1082752 -0.1911107 -0.15587503
-0.088686205 -0.19092926 -0.1578393
-0.069127172 -0.19074701 -0.15981215
-0.049598582 -0.19056503 -0.16178203
-0.030100556 -0.19038449 -0.16373712
-0.01063256 -0.19020309 -0.16570079
0.0088052023 -0.19002192 -0.16766155
0.028225908 -0.18999839 -0.16791654
0.047695033 -0.19028887 -0.1647718
0.067212753 -0.19058014 -0.16161901
0.086779267 -0.1908721 -0.15845835
0.10639428 -0.19116364 -0.15530157
-0.10832278 -0.17168453 -0.15484488
-0.088725343 -0.17151712 -0.15682238
-0.069158792 -0.171351 -0.15878522
-0.04962226 -0.171184 -0.16075671
-0.030116139 -0.17101727 -0.16272509
-0.01064034 -0.17085083 -0.16469043
0.0088052023 -0.17068475 -0.16665256
0.028233763 -0.1706641 -0.1668961
0.047710784 -0.17093062 -0.16374874
0.067236438 -0.17119785 -0.16059339
0.086810917 -0.17146559 -0.15743029
0.1064344 -0.17173411 -0.15425932
-0.088764958 -0.15209022 -0.15579313
-0.069190077 -0.15193807 -0.15776926
-0.049645692 -0.15178621 -0.15974224
-0.030131733 -0.15163456 -0.16171217
-0.010648124 -0.15148315 -0.16367894
0.0088052023 -0.1513329 -0.16563118
0.028241623 -0.15131411 -0.16587502
0.047726542 -0.15155664 -0.16272485
0.067260139 -0.15179969 -0.15956712
0.086842597 -0.15204345 -0.1564014
-0.088804156 -0.13264671 -0.15477461
-0.069221392 -0.13250977 -0.15675229
-0.049669139 -0.13237289 -0.15872687
-0.030147342 -0.13223638 -0.16069835
-0.010655915 -0.13209997 -0.16266692
0.0088052023 -0.13196464 -0.16462058
0.02824958 -0.13194937 -0.16484129
0.047742315 -0.13216695 -0.16170037
0.067283861 -0.13238586 -0.15854001
0.086874306 -0.13260542 -0.15537179
-0.049750946 -0.11309969 -0.15518445
-0.030202156 -0.11297932 -0.15713805
-0.01068346 -0.11285922 -0.15908879
0.0088052023 -0.11273861 -0.161048
0.028277345 -0.11272705 -0.16123438
0.047797807 -0.11292031 -0.15809637
0.067366496 -0.11311345 -0.15496194
-0.010711083 -0.093563989 -0.15550047
0.0088052023 -0.093457997 -0.15746534
0.028305281 -0.093450412 -0.15760559
0.047853634 -0.093619436 -0.15447009
-0.34382939 -0.23122129 -0.14581901
0.32135725 -0.23043293 -0.15313399
0.34220594 -0.23151523 -0.14309174
-0.38411087 -0.21234533 -0.13867545
-0.36331156 -0.21155617 -0.14656192
0.3410207 -0.21099705 -0.1521486
0.36186361 -0.2119365 -0.14276081
-0.18722467 -0.19218573 -0.1442377
-0.16722658 -0.191659 -0.14994037
-0.14754596 -0.19147664 -0.15191382
-0.12789525 -0.19129355 -0.15389591
0.12605882 -0.19145715 -0.15212512
0.14577267 -0.1917513 -0.14894062
0.16553606 -0.19204617 -0.14574838
0.18534914 -0.19234186 -0.14254779
0.20521212 -0.19263826 -0.13933945
-0.18731105 -0.17267783 -0.14311534
-0.1672983 -0.17218749 -0.1489054
-0.14760888 -0.17201933 -0.15089226
-0.12795085 -0.17185228 -0.15286428
0.12610655 -0.17200238 -0.15109199
0.14582849 -0.17227222 -0.14790487
0.1656 -0.17254281 -0.14470989
0.18542126 -0.17281403 -0.14150691
0.20529246 -0.17308594 -0.13829577
-0.18739752 -0.15315263 -0.14199209
-0.16736923 -0.15269923 -0.14788139
-0.14767256 -0.15254706 -0.14985806
-0.12800585 -0.15239426 -0.15184331
-0.10836986 -0.15224163 -0.1538257
0.1064741 -0.15228765 -0.15322787
0.12615484 -0.15253259 -0.15004611
0.14588498 -0.15277819 -0.14685661
0.16566473 -0.15302433 -0.14365894
0.18549426 -0.15327109 -0.14045322
-0.18748407 -0.13361035 -0.14086765
-0.16744104 -0.13319615 -0.1468448
-0.14773558 -0.13305828 -0.14883488
-0.12806091 -0.13292062 -0.15082169
-0.10841753 -0.13278399 -0.15279377
0.10651383 -0.13282539 -0.15219551
0.12620263 -0.13304609 -0.14901125
0.14594088 -0.13326727 -0.14581907
0.16572878 -0.13348894 -0.14261889
0.1855665 -0.13371116 -0.13941056
-0.16768061 -0.11382619 -0.1433872
-0.14794962 -0.11370477 -0.14535904
-0.12824918 -0.11358359 -0.14732772
-0.10857864 -0.11346179 -0.14930534
-0.088939123 -0.11334085 -0.15126818
-0.069329917 -0.11322011 -0.15322775
0.086983673 -0.11330687 -0.15182
0.10664998 -0.11350164 -0.14865822
0.1263648 -0.11369604 -0.1455006
0.14612862 -0.11389101 -0.14233506
0.1659417 -0.11408637 -0.13916153
-0.16793229 -0.094412357 -0.1397543
-0.148173 -0.094305918 -0.14173174
-0.12844434 -0.094199449 -0.14370614
-0.10874621 -0.094093263 -0.14567757
-0.089078091 -0.093986571 -0.14765751
-0.069440924 -0.093880609 -0.14962298
-0.049834073 -0.093774825 -0.15158516
-0.030257484 -0.09366931 -0.15354431
0.067450441 -0.093788818 -0.15132689
0.087096244 -0.093959183 -0.14816397
0.10679059 -0.094129473 -0.14500499
0.12653394 -0.094300136 -0.14183825
0.14632711 -0.094471857 -0.13865167
-0.14839703 -0.074851528 -0.13809419
-0.12864006 -0.074760124 -0.14007425
-0.1089137 -0.074668899 -0.14205122
-0.089217909 -0.07457757 -0.14402515
-0.069552243 -0.074486069 -0.14600766
-0.04991743 -0.074395187 -0.14797574
-0.030312968 -0.074304394 -0.14994037
-0.010738783 -0.074213773 -0.15190214
0.0088052023 -0.074122764 -0.15387255
0.028333206 -0.074117884 -0.15397799
0.047909625 -0.074263133 -0.15083349
0.067534909 -0.074409381 -0.14766932
0.087208778 -0.07455533 -0.14450932
0.10693161 -0.0747016 -0.14134115
0.12670414 -0.074848823 -0.13815349
-0.089387767 -0.055142887 -0.13961196
-0.069688641 -0.055067219 -0.1415779
-0.050019845 -0.05499167 -0.14354074
-0.030381324 -0.054916218 -0.1455006
-0.010772906 -0.054840401 -0.14746928
0.0088052023 -0.054765366 -0.14942288
0.028367817 -0.054763019 -0.14948183
0.047978655 -0.054883562 -0.14634961
0.067638174 -0.055004887 -0.14319801
0.087346442 -0.055126354 -0.14003873
-0.03047874 -0.035517775 -0.13917351
-0.010821629 -0.035457321 -0.14113992
0.0088052023 -0.035396792 -0.14310354
0.028416919 -0.035396792 -0.14310354
0.048077099 -0.035493754 -0.13995564
-0.38568571 -0.23309359 -0.12844634
-0.36465424 -0.23213056 -0.13738197
0.36322194 -0.23260736 -0.1329577
0.38440406 -0.23370701 -0.12275475
-0.40605488 -0.21376809 -0.12445891
0.38286299 -0.21288422 -0.13329124
0.40401718 -0.21383765 -0.1237632
-0.22784519 -0.19360028 -0.12892461
-0.20747454 -0.19289139 -0.13659811
0.22536194 -0.1931937 -0.13332701
0.24589913 -0.19404384 -0.12412322
-0.22795013 -0.17397563 -0.1277886
-0.20757015 -0.17332521 -0.13546914
0.22546083 -0.17360553 -0.13215929
0.24600777 -0.17438568 -0.12294692
-0.22805513 -0.15433352 -0.12665182
-0.20766585 -0.15374172 -0.13433897
0.20537378 -0.15351857 -0.1372394
0.22555979 -0.15399952 -0.13099051
0.24611653 -0.15470938 -0.12176973
-0.22816026 -0.13467397 -0.12551391
-0.20776162 -0.134141 -0.13320786
0.20545425 -0.13393407 -0.13619417
0.22565885 -0.13437565 -0.12982059
-0.22849169 -0.11514789 -0.12192583
-0.20806968 -0.1146771 -0.12956965
-0.18776977 -0.11420989 -0.13715637
0.18580498 -0.11428304 -0.13596845
0.20571715 -0.11447945 -0.132779
0.22597584 -0.11489226 -0.12607706
-0.20840704 -0.095175892 -0.12558579
-0.18807372 -0.094765157 -0.13320786
0.16616909 -0.094643295 -0.13546902
0.18606146 -0.09481591 -0.13226652
0.20600282 -0.094988212 -0.12906802
0.22632533 -0.095371813 -0.12195003
-0.20874546 -0.07561399 -0.12158936
-0.18837956 -0.075260751 -0.12923527
-0.1681847 -0.074943148 -0.13611096
0.14652552 -0.07499589 -0.13496959
0.16639715 -0.075143822 -0.13176584
0.18631785 -0.075291678 -0.12856591
0.20628932 -0.075440429 -0.12534618
-0.18874539 -0.055725232 -0.12448299
-0.16848987 -0.055447251 -0.13170612
-0.1486686 -0.055371024 -0.13368434
-0.12887795 -0.055295035 -0.13565922
-0.10911731 -0.055218704 -0.13764322
0.10710366 -0.055248357 -0.13687146
0.12690946 -0.055370122 -0.13370806
0.14676502 -0.05549264 -0.13052505
0.16667008 -0.055615492 -0.12733406
0.18662481 -0.055738598 -0.12413514
-0.16894545 -0.035950147 -0.12513047
-0.14906263 -0.035883836 -0.12728602
-0.12922154 -0.03582231 -0.12928301
-0.1094119 -0.035761274 -0.13126493
-0.089632884 -0.035700403 -0.13324362
-0.069884434 -0.035639606 -0.13521934
-0.050166473 -0.035578884 -0.13719189
0.067786194 -0.035591297 -0.13678813
0.087544307 -0.035689011 -0.13361275
0.10735161 -0.035787098 -0.13042957
0.12720773 -0.035884909 -0.12725025
0.14711387 -0.035983458 -0.12405103
-0.12956749 -0.016252477 -0.12286282
-0.10970798 -0.016206484 -0.12485474
-0.089879237 -0.016160592 -0.12684339
-0.070080839 -0.016114403 -0.12884092
-0.05031354 -0.01606863 -0.13082343
-0.03057682 -0.016022928 -0.1328029
-0.010870595 -0.015977353 -0.13477921
0.0088052023 -0.015931796 -0.13675255
0.028466174 -0.015932847 -0.13670504
0.048176035 -0.016006202 -0.13352942
0.067934975 -0.016079675 -0.13034594
0.087743163 -0.016153373 -0.12715453
0.10760034 -0.016226947 -0.12396717
-0.0702786 0.0035082251 -0.12241852
-0.050461635 0.0035388768 -0.12441099
-0.030675394 0.0035695061 -0.12640041
-0.010919806 0.0036001131 -0.12838662
0.0088052023 0.0036307648 -0.13038176
0.028515771 0.0036290102 -0.13026243
0.048275478 0.0035798475 -0.12707084
0.068084501 0.0035305619 -0.12387115
0.0088052023 0.023273196 -0.1216495
0.028583737 0.023271536 -0.12143332
-0.40852591 -0.23517063 -0.10917342
0.40594232 -0.23494586 -0.1112591
-0.4285489 -0.21538645 -0.10828704
0.4253296 -0.21479836 -0.11416382
-0.28969961 -0.19575378 -0.1056124
-0.2689572 -0.19503197 -0.11342609
-0.2483386 -0.19431351 -0.12120479
0.26658469 -0.19490026 -0.11485273
0.28742021 -0.19576283 -0.10551506
-0.26908112 -0.17528923 -0.11227643
-0.24845298 -0.17462984 -0.12006199
0.26670325 -0.17517136 -0.11366802
-0.26920512 -0.15552878 -0.11112571
-0.24856742 -0.15492888 -0.1189183
0.26682192 -0.15542434 -0.11248225
-0.26932925 -0.13575056 -0.10997415
-0.24868201 -0.13521031 -0.11777341
0.24622537 -0.1350151 -0.1205914
0.26694068 -0.13565907 -0.11129552
-0.26970229 -0.11609702 -0.10651278
-0.24903478 -0.11562069 -0.11424839
0.24656478 -0.11545627 -0.11691725
0.26730132 -0.11602445 -0.10769188
-0.24943824 -0.096004084 -0.11021656
-0.22886193 -0.095589101 -0.11791807
0.24694875 -0.095867008 -0.11276054
-0.24984299 -0.07632602 -0.10617226
-0.22923219 -0.075968541 -0.11391002
0.22667693 -0.075789012 -0.11779761
0.24733508 -0.076214775 -0.10857856
-0.22966748 -0.05631353 -0.10919762
-0.20914517 -0.056018263 -0.11686897
0.2066285 -0.055861555 -0.12094021
0.22708911 -0.056169868 -0.11293006
-0.2097393 -0.036420628 -0.10985273
-0.18928228 -0.036184981 -0.11750817
0.16706976 -0.036082223 -0.12084395
0.18707559 -0.036181226 -0.11762875
0.20713061 -0.036280118 -0.11441767
0.22770461 -0.03654971 -0.10566121
-0.1898212 -0.016537849 -0.11050767
-0.16942844 -0.016361192 -0.11815917
-0.14945789 -0.01629857 -0.12086803
0.12750751 -0.016301107 -0.12075979
0.1474645 -0.016375337 -0.11754435
0.16747148 -0.016449839 -0.11432087
0.18752864 -0.016524412 -0.11108941
0.20765677 -0.0166054 -0.10758245
-0.16991405 0.0033346899 -0.11114991
-0.14985587 0.0033849031 -0.11440563
-0.12991519 0.0034156777 -0.11641049
-0.11000498 0.0034466721 -0.11842436
-0.090126358 0.0034774728 -0.12042302
0.087943032 0.0034812056 -0.12066358
0.10785127 0.0034316033 -0.11744791
0.12780882 0.0033822432 -0.11423641
0.14781691 0.0033324249 -0.11100453
0.16787523 0.0032825768 -0.10776466
-0.15039738 0.023149751 -0.10561252
-0.13038893 0.023165165 -0.10761893
-0.11041097 0.023180721 -0.1096344
-0.090464152 0.023196159 -0.11164677
-0.070548415 0.023211597 -0.11365592
-0.05066368 0.023227103 -0.11566192
-0.030810067 0.023242468 -0.11765283
-0.010987038 0.023257857 -0.11965281
0.048411563 0.023246907 -0.11823148
0.06828887 0.023222204 -0.11502194
0.088215835 0.023197452 -0.11180419
0.10819265 0.023172602 -0.1085785
0.12821952 0.023147753 -0.10534477
-0.050883405 0.043050092 -0.10614794
-0.011060052 0.043050043 -0.1101681
0.0088052023 0.043050092 -0.1121797
0.0286573 0.043050092 -0.1118769
0.068510666 0.043050092 -0.10541773
-0.030956136 0.04305014 -0.10816568
0.048559062 0.04305014 -0.10865146
-0.43186054 -0.23737362 -0.088733077
0.42813724 -0.23650464 -0.096795857
-0.45136094 -0.21704388 -0.091725647
0.44807845 -0.21652046 -0.09695518
-0.33156568 -0.19721168 -0.089829981
-0.31056818 -0.19647996 -0.09775126
0.30840737 -0.19663167 -0.096109569
-0.33171889 -0.17728907 -0.088659048
-0.31071153 -0.17661767 -0.096587539
-0.28983319 -0.17595151 -0.10445583
0.28754881 -0.1759627 -0.1043219
0.30854613 -0.17675988 -0.094907701
-0.31085649 -0.15673846 -0.095410705
-0.28996685 -0.15613133 -0.10329825
0.28767753 -0.15614444 -0.10312748
0.30868506 -0.1568698 -0.093704581
-0.31100008 -0.13684036 -0.094244897
-0.29010063 -0.13629334 -0.10213953
0.28780639 -0.13630791 -0.10193193
0.30882412 -0.13696119 -0.092500389
-0.31141192 -0.11705849 -0.090901196
-0.29049429 -0.11657636 -0.098730385
0.28818703 -0.11659665 -0.098400116
0.30922213 -0.11717229 -0.089053512
-0.29096547 -0.096842974 -0.094649851
-0.2701394 -0.09642221 -0.10245675
0.26772028 -0.096365675 -0.10350543
0.28864145 -0.096868023 -0.094183505
-0.29143813 -0.077047296 -0.090556502
-0.27057794 -0.076685503 -0.098387837
0.26814058 -0.076643169 -0.099305451
0.28909737 -0.077075198 -0.089953065
-0.27107999 -0.056908876 -0.093729138
-0.25031129 -0.056610145 -0.10149258
0.2477812 -0.056523256 -0.1037491
0.26862246 -0.056879632 -0.094490409
-0.25102186 -0.036896624 -0.09439218
-0.2303195 -0.036658153 -0.10213941
0.24845748 -0.036834024 -0.096428335
-0.23097394 -0.016894646 -0.095054865
-0.21033664 -0.016715843 -0.10279822
0.22832362 -0.016818535 -0.09835124
0.2491376 -0.017033014 -0.08906579
-0.21093731 0.0030969232 -0.095704913
-0.19036399 0.0032162219 -0.10345668
0.18798402 0.0032325611 -0.10451669
0.20821866 0.0031674504 -0.10028332
0.22894613 0.0030244738 -0.090999603
-0.19110146 0.023059424 -0.093876421
-0.17057468 0.023118977 -0.10161459
0.14829658 0.023122733 -0.10210282
0.16842407 0.023097662 -0.098852694
0.18860215 0.023072593 -0.095594585
0.20898165 0.023032453 -0.090371728
-0.13090417 0.043050092 -0.098057449
-0.11085191 0.043050043 -0.10008782
-0.090831034 0.043050043 -0.10211492
-0.070841834 0.043050092 -0.10412693
0.088512301 0.043049995 -0.10217601
0.10856417 0.043050043 -0.098926187
0.12866645 0.043049995 -0.095668137
0.16902375 0.043049995 -0.089115143
-0.17129645 0.043050189 -0.091196597
-0.15098788 0.04305014 -0.096023798
0.14881931 0.04305014 -0.092402041
-0.11129669 0.063066997 -0.090457976
-0.091201097 0.063051343 -0.092500269
-0.071137048 0.063035682 -0.094539464
-0.051104754 0.06302008 -0.09656322
-0.031103471 0.063004419 -0.098595858
-0.011133511 0.062988713 -0.1006254
0.0088052023 0.062973261 -0.10263962
0.028731415 0.062976375 -0.10224926
0.04870785 0.063001446 -0.098987401
0.068734407 0.063026465 -0.09572953
0.088811375 0.063051634 -0.092463493
0.10893895 0.063076802 -0.089189112
-0.011220694 0.083101854 -0.089300096
0.0088052023 0.083070345 -0.091344178
0.028819341 0.083078392 -0.090827286
0.45223394 -0.23913175 -0.072418511
-0.47469312 -0.21884483 -0.07372874
0.47169015 -0.21858057 -0.076369941
-0.35269013 -0.19794683 -0.081872225
0.32954773 -0.19750683 -0.08663547
0.3508431 -0.1983884 -0.077091694
-0.35285336 -0.17796353 -0.080694258
0.32969689 -0.17756291 -0.085424602
0.35100272 -0.17837192 -0.075872004
-0.35301673 -0.15796211 -0.079515219
-0.33187225 -0.15734842 -0.08748734
0.32984614 -0.15760046 -0.08421278
0.3511641 -0.15833743 -0.074638844
-0.35318026 -0.13794258 -0.078335106
-0.33202574 -0.13738982 -0.086314201
0.32999709 -0.13762034 -0.082987249
0.35132402 -0.13828343 -0.07341677
-0.35362682 -0.11803074 -0.075112283
-0.33245465 -0.11754285 -0.0830369
0.33041096 -0.11775279 -0.079626918
-0.33299515 -0.097691283 -0.078906655
-0.31191754 -0.097266197 -0.086795926
0.30971396 -0.097373977 -0.084794104
0.33093789 -0.097882956 -0.075348854
-0.33353737 -0.077776767 -0.074763298
-0.31242478 -0.07741119 -0.082677722
0.310206 -0.07751032 -0.080532908
-0.3129918 -0.057511434 -0.078074157
-0.29197222 -0.057209097 -0.085931242
0.28961205 -0.05723802 -0.085177422
0.31075424 -0.057599522 -0.075784981
-0.29280201 -0.037378527 -0.078745186
-0.27184981 -0.037137024 -0.086585999
0.26936033 -0.037120715 -0.087116957
0.29041246 -0.037409157 -0.077750802
-0.27262256 -0.01725588 -0.079415798
-0.25173631 -0.017074957 -0.087252617
0.27010244 -0.01724932 -0.079701424
-0.25245351 0.0028564036 -0.08008635
-0.23163313 0.0029770657 -0.087919056
0.24982156 0.0028807148 -0.081661522
-0.23252417 0.022939298 -0.078272998
-0.21175027 0.022999581 -0.086104333
0.22978832 0.022960659 -0.081053972
-0.21264309 0.043050092 -0.075560629
-0.19190732 0.043050092 -0.083408356
0.1892785 0.043050092 -0.085832477
0.20981739 0.043050043 -0.079515219
-0.19272065 0.063202731 -0.072842896
-0.17202322 0.063142158 -0.080706716
-0.15158203 0.063098505 -0.086375892
-0.13142323 0.063082702 -0.088424802
0.12911731 0.063102067 -0.085906506
0.14934666 0.063127428 -0.082615674
0.16962719 0.06315279 -0.079316497
0.18995909 0.063178249 -0.076008976
-0.15228875 0.083323479 -0.074900448
-0.13204063 0.083291627 -0.076967239
-0.11182448 0.083260074 -0.079030931
-0.091640234 0.083228275 -0.081091285
-0.071487807 0.08319667 -0.083148301
-0.051367126 0.083165012 -0.085202098
-0.031278111 0.083133355 -0.087252736
0.04888396 0.083128825 -0.087548852
0.068999521 0.083179593 -0.084249794
0.089165747 0.083230317 -0.080954671
0.10938352 0.083281383 -0.077638924
0.12965272 0.083332546 -0.074314594
-0.031482682 0.10348192 -0.073965669
-0.01132272 0.10343383 -0.076046407
0.0088052023 0.10338613 -0.078111351
0.028922301 0.10340135 -0.077452302
0.049090393 0.10347787 -0.074140191
-0.45556539 -0.23961028 -0.067978978
-0.37481809 -0.19923833 -0.06789124
0.37229511 -0.19927657 -0.067477822
0.39390552 -0.20017111 -0.057793021
-0.37502894 -0.17916963 -0.066449881
0.37246537 -0.17918667 -0.066249132
0.39408839 -0.18000856 -0.056542575
-0.37524 -0.15907905 -0.065006673
0.37263751 -0.15907905 -0.065006673
-0.37545127 -0.13896626 -0.063562036
0.3728081 -0.1389513 -0.063775897
-0.3759999 -0.11897303 -0.059811354
0.35175392 -0.11833753 -0.070131838
0.37325266 -0.1189265 -0.060567319
-0.35423899 -0.098133817 -0.070694387
0.35231784 -0.098396376 -0.065822542
0.3738541 -0.098913297 -0.056226611
-0.35493666 -0.078197137 -0.065659583
0.3314665 -0.077947885 -0.071056962
0.35288364 -0.078389399 -0.061499238
-0.35569808 -0.058200791 -0.060164273
-0.33413693 -0.057815269 -0.070181966
0.33204788 -0.057963245 -0.06633693
0.35349756 -0.058330067 -0.056807935
-0.33508879 -0.03786625 -0.062908411
-0.31388071 -0.037621416 -0.070856988
0.311618 -0.037700012 -0.068304598
0.33297586 -0.037992552 -0.058802545
-0.31477609 -0.017621431 -0.063587308
-0.29363492 -0.017438047 -0.071531713
0.29121739 -0.017466821 -0.070281863
0.31248668 -0.017686252 -0.060781419
-0.31567493 0.0024900213 -0.056289732
-0.29447392 0.0026128292 -0.064265847
-0.27339956 0.0027351528 -0.072206259
0.27084875 0.0027356409 -0.072243571
0.29202694 0.0025898106 -0.062770069
-0.27444771 0.022817805 -0.062480748
-0.25342214 0.022878723 -0.070406795
0.25074577 0.022888379 -0.071656764
0.27185348 0.022815609 -0.062203944
-0.2544888 0.043049995 -0.059748232
0.23071423 0.043050092 -0.070119262
0.25176203 0.043050092 -0.060655475
-0.23350288 0.04305014 -0.067678392
-0.23448955 0.06332466 -0.056997418
-0.21354209 0.063263401 -0.064943969
0.21065919 0.06323541 -0.068580091
0.2316469 0.06330847 -0.059105277
-0.1936879 0.083548658 -0.060277581
-0.17288855 0.083426535 -0.068217039
0.14997289 0.083383709 -0.070994437
0.17034546 0.083435118 -0.067653179
0.19076921 0.083486572 -0.064316154
-0.15311405 0.10376978 -0.061499238
-0.1327623 0.10372178 -0.063574612
-0.11244208 0.10367374 -0.065659583
-0.092154086 0.10362566 -0.067740977
-0.071898237 0.10357771 -0.069819093
-0.051674463 0.10352977 -0.07189399
0.069309972 0.10355489 -0.070806921
0.089581124 0.10363205 -0.067465305
0.10990357 0.10370915 -0.064127743
0.13027838 0.1037867 -0.060768962
0.15070535 0.10386445 -0.057401597
-0.072312504 0.12416775 -0.056365669
-0.05198466 0.12410317 -0.058461785
-0.031689152 0.12403879 -0.060554624
-0.01142589 0.12397446 -0.062644243
0.0088052023 0.12391023 -0.064730644
0.029026326 0.12393461 -0.063939273
0.049299166 0.12403796 -0.060579896
0.069623634 0.12414131 -0.057224751
-0.47965139 -0.24188295 -0.046891212
0.47678784 -0.24180889 -0.047578335
-0.49835312 -0.22067228 -0.055468023
0.49573335 -0.22070265 -0.055164576
-0.39750448 -0.20073572 -0.051681399
-0.39772916 -0.1805438 -0.050222039
-0.39795408 -0.16032961 -0.04876101
0.39429921 -0.15984151 -0.055101335
-0.39817926 -0.14009289 -0.047298551
0.39452508 -0.13965936 -0.053557038
-0.39873052 -0.11996421 -0.043717861
0.3950946 -0.11959805 -0.049663067
-0.37674245 -0.098993793 -0.05473429
0.3958914 -0.099560633 -0.044215441
-0.37748787 -0.078937262 -0.049637794
0.37445757 -0.078834064 -0.051871538
-0.37828282 -0.058815226 -0.044202447
0.3751018 -0.058699079 -0.047222137
-0.35692096 -0.038222417 -0.051338911
0.35449076 -0.038287669 -0.049218655
0.3761611 -0.038584553 -0.039577246
-0.35815385 -0.018109694 -0.042441368
-0.33604428 -0.017805647 -0.05560714
0.33390921 -0.017906923 -0.051224589
0.35548967 -0.01812952 -0.041585326
-0.33700508 0.0023665279 -0.048265219
0.31336039 0.0024427101 -0.053215027
0.33484796 0.0022947341 -0.043602943
-0.31687957 0.0226948 -0.046509266
-0.29559934 0.022756448 -0.054519296
0.29311407 0.022742353 -0.052682877
0.31452924 0.022668414 -0.043092489
-0.29684514 0.043050092 -0.043730617
-0.27560338 0.043050092 -0.051757455
0.27296236 0.043049995 -0.051123023
0.29431832 0.043050189 -0.041508675
-0.27676854 0.063448206 -0.040946245
-0.25556543 0.063386314 -0.048989892
0.25278684 0.063381873 -0.04956162
0.27408195 0.063456006 -0.039935708
-0.23566791 0.083795547 -0.044240952
-0.2146136 0.083671659 -0.052289844
0.21166269 0.083621472 -0.0555439
0.23275986 0.083769113 -0.045961738
-0.19481839 0.10413714 -0.045592308
-0.17389981 0.10395175 -0.053620338
0.17118472 0.10394248 -0.05402565
0.19176501 0.10403666 -0.049942613
0.21283469 0.10425892 -0.040319443
-0.15401132 0.12445843 -0.046929479
-0.13349141 0.12436249 -0.050044298
-0.11306546 0.12429714 -0.052163243
-0.092672735 0.12423246 -0.054266095
0.090000413 0.12424534 -0.053848267
0.11042951 0.12434957 -0.0504632
0.13091113 0.12445394 -0.047069311
0.15144546 0.12455881 -0.043666959
0.17203273 0.12466391 -0.040255666
-0.072803438 0.1450609 -0.040421963
-0.052351989 0.14497872 -0.042556286
-0.031933248 0.14489624 -0.044700027
-0.011547647 0.14481431 -0.046827555
0.0088052023 0.14473256 -0.048951626
0.029149234 0.14477026 -0.047972679
0.049545817 0.14490166 -0.044559717
0.069995441 0.14503378 -0.041125178
-0.50413036 -0.24419388 -0.025448561
-0.5223431 -0.22252402 -0.036963701
0.52016973 -0.2228595 -0.033612132
-0.42047304 -0.20225185 -0.035269737
0.41701391 -0.20187514 -0.039346933
-0.42071187 -0.18193509 -0.033792019
0.41725451 -0.18159696 -0.037784338
-0.42095101 -0.16159578 -0.032312989
0.4174954 -0.16129489 -0.036219716
-0.42118832 -0.14123286 -0.030844927
0.41773853 -0.1409699 -0.034640431
-0.42174098 -0.12096752 -0.027426362
0.41830701 -0.12075064 -0.030948043
-0.3995218 -0.099864349 -0.038578749
0.41915768 -0.10057329 -0.025422812
-0.40031809 -0.07968688 -0.033406496
0.39669338 -0.079440914 -0.038732409
-0.40114132 -0.059436545 -0.028059244
0.39753252 -0.059246577 -0.032994986
0.39893922 -0.039083377 -0.023377299
-0.37958938 -0.038717166 -0.035269856
-0.38090667 -0.018483415 -0.026263356
0.37722656 -0.018353581 -0.031888127
-0.35939327 0.0021391511 -0.03349638
0.3564927 0.0021456853 -0.033920765
-0.33838174 0.022627298 -0.037745833
0.33610225 0.022594035 -0.033419371
0.35783181 0.022519073 -0.023688078
-0.31821805 0.043050092 -0.035642147
0.31582895 0.043049995 -0.031836629
-0.34010956 0.04305014 -0.024542809
-0.31956601 0.063573256 -0.024698138
-0.29810262 0.063510537 -0.03284049
0.29553145 0.063530482 -0.030252218
-0.27816156 0.084045313 -0.028020382
-0.25684983 0.083920062 -0.036155462
0.25401101 0.083917722 -0.036309481
0.27541915 0.084067598 -0.026573658
-0.23704115 0.10451166 -0.029375434
-0.21586472 0.10432364 -0.037514925
0.23405956 0.10448308 -0.030613303
-0.17492242 0.12470683 -0.03886044
0.1928252 0.12483676 -0.034640431
-0.19596156 0.12495674 -0.03074193
0.21402127 0.12513642 -0.024905086
-0.1550868 0.14548254 -0.029465675
-0.13435678 0.14530867 -0.033985019
-0.11380541 0.14522561 -0.036142588
-0.093287893 0.14514318 -0.038284063
0.090498216 0.1451664 -0.037681699
0.11105435 0.1452992 -0.034229159
0.13166347 0.14543197 -0.030780554
0.15232685 0.14556551 -0.027310133
0.17304344 0.14569893 -0.023843527
-0.052773967 0.16620842 -0.024283886
-0.032214314 0.16610861 -0.026444316
-0.011687953 0.16600902 -0.028601408
0.0088052023 0.1659089 -0.030767679
0.02929081 0.16596371 -0.029581785
0.049829699 0.16612354 -0.02612114
0.50181204 -0.24453726 -0.022262335
-0.54667234 -0.22440213 -0.018197536
0.54500908 -0.22505179 -0.011704683
-0.54653716 -0.20376876 -0.018847823
-0.52590913 -0.20374118 -0.0191468
-0.44372684 -0.20378558 -0.018665671
0.44051346 -0.20364036 -0.020238042
0.52294862 -0.20373876 -0.019172788
0.54359764 -0.20377721 -0.018756747
-0.44398239 -0.18334372 -0.01715672
0.4407697 -0.18321703 -0.018652678
-0.44423607 -0.16287777 -0.015658975
0.4410263 -0.16276948 -0.017065525
-0.44448778 -0.14238803 -0.014172435
0.44128534 -0.14229859 -0.015463352
-0.44503862 -0.12198399 -0.010920048
0.44184861 -0.12191881 -0.011978865
-0.42258415 -0.10074642 -0.022210717
-0.42342851 -0.080445223 -0.016987562
0.4200139 -0.080312535 -0.01986146
-0.42428252 -0.060065955 -0.011704564
0.42088377 -0.059969559 -0.014211535
-0.4025355 -0.039217986 -0.019003749
-0.40393719 -0.018861257 -0.0098997355
0.40035805 -0.0187741 -0.013676524
-0.38223293 0.0018881671 -0.017195702
0.37847951 0.001975175 -0.022845864
-0.36104876 0.022502586 -0.021549106
0.38024801 0.022414356 -0.010082841
-0.36289886 0.043050043 -0.0081970692
0.3374972 0.043050092 -0.022094011
0.35932481 0.043050043 -0.01227951
-0.34185293 0.063676998 -0.011220813
0.31713825 0.063605547 -0.020497799
0.33890405 0.06368129 -0.010671496
-0.32118091 0.084298342 -0.011586785
-0.29960582 0.084171586 -0.019822478
0.29698348 0.084218405 -0.016778946
0.31870696 0.084370382 -0.0069123507
-0.2797834 0.10489053 -0.01297164
-0.25834662 0.10470046 -0.02119875
0.25543925 0.10470851 -0.020848274
0.2769765 0.10493579 -0.01101172
-0.23842987 0.12546183 -0.01434207
-0.217131 0.12520871 -0.022560716
0.2353733 0.12543847 -0.015098453
-0.19733252 0.14611897 -0.012932539
-0.17614426 0.14579976 -0.021224737
0.19409333 0.14598787 -0.016336322
-0.15631917 0.16689336 -0.0094547272
-0.1353478 0.16660981 -0.015593648
-0.11465408 0.16650933 -0.017768264
-0.09399347 0.16640842 -0.019952297
-0.073367 0.16630839 -0.02211988
0.070422374 0.1662845 -0.022638559
0.091068946 0.16644564 -0.0191468
0.11176863 0.16660616 -0.015671849
0.13252284 0.16676778 -0.012174964
0.15333137 0.16692971 -0.0086688995
-0.032499082 0.18761504 -0.007948041
-0.011830105 0.18749721 -0.010135174
0.0088052023 0.18737952 -0.012318611
0.029434366 0.18745424 -0.010933042
0.050117359 0.1876426 -0.0074368715
-0.57075441 -0.20533255 -0.0019185543
-0.4670915 -0.20524396 -0.0028793812
0.46415564 -0.20532289 -0.0020238161
0.56838417 -0.20565163 0.001535058
-0.46754616 -0.18477012 -0.00031149387
0.46462655 -0.1848606 0.00075662136
-0.46781236 -0.16417497 0.0011920929
0.46489927 -0.16426539 0.0023670197
-0.46808121 -0.14355767 0.0027104616
0.46517685 -0.14364746 0.0040057898
-0.46862453 -0.12301245 0.0057789087
0.46573067 -0.12310463 0.0072760582
-0.44593072 -0.10163869 -0.0056525469
0.44275677 -0.10160044 -0.0063613653
-0.44682628 -0.081213072 -0.00036418438
0.44366872 -0.081196614 -0.00072002411
-0.44772547 -0.060706928 0.0049449205
0.44458446 -0.060706928 0.0049449205
-0.42576447 -0.039725102 -0.0025373697
0.42238757 -0.039666429 -0.0044441223
-0.42725664 -0.019244466 0.0066927671
0.42390037 -0.019214127 0.0053817034
-0.40535456 0.0016340129 -0.00069367886
0.40178341 0.0016839541 -0.0039314032
-0.38399234 0.022376558 -0.0051665306
0.40366709 0.022267893 0.008947134
-0.38596931 0.043050092 0.0083501339
0.38223499 0.043049995 0.0042570829
-0.36476758 0.063804097 0.0052890778
0.36087725 0.063760206 -0.00041699409
-0.34394944 0.084550649 0.0047994852
0.34059137 0.084523283 0.0030276775
-0.32342747 0.10534372 0.0066530704
-0.30135423 0.10508201 -0.0046807528
0.29867303 0.10516458 -0.0011020899
0.32052907 0.10539488 0.0088676214
-0.28142509 0.12597302 0.002261281
-0.25986034 0.12571648 -0.0060726404
0.2568818 0.12574232 -0.0052323341
0.27855083 0.12604871 0.0047200918
-0.24010521 0.14676288 0.0037941933
-0.21865173 0.14643961 -0.0046015978
0.21544574 0.14637035 -0.0064007044
0.23695742 0.14675561 0.0036091805
-0.19889125 0.16766788 0.0073157549
-0.17753838 0.16727921 -0.0011022091
0.17419444 0.16709203 -0.0051534176
0.19553751 0.16753834 0.0045082569
-0.13635266 0.18820792 0.0030539036
-0.11551398 0.18808912 0.00084888935
-0.094709381 0.1879705 -0.0013524294
-0.073938794 0.18785208 -0.0035502911
-0.053201817 0.18773313 -0.0057575703
0.070854694 0.18783218 -0.0039182901
0.091646485 0.18802235 -0.00039064884
0.11249295 0.1882129 0.00314641
0.1333943 0.18840399 0.0066927671
-0.57342857 -0.22727275 0.010487795
0.57026148 -0.22728074 0.010567546
-0.49073637 -0.20672072 0.013108015
0.48810601 -0.20701998 0.016346812
0.59355003 -0.20755485 0.022137761
-0.49140626 -0.18621345 0.016733885
0.48883253 -0.18652824 0.020450115
-0.49169004 -0.16548966 0.018269897
0.48912421 -0.16578422 0.022097468
-0.49197167 -0.14474131 0.019794345
0.48941624 -0.14501512 0.023746729
-0.49250621 -0.1240537 0.022687197
-0.46956882 -0.10254206 0.011112452
0.46669579 -0.10264239 0.012974858
-0.47051686 -0.081990436 0.016466975
0.46766499 -0.082093462 0.018697739
-0.47146872 -0.061357334 0.021842837
0.4686383 -0.061457366 0.024444938
-0.44928154 -0.040238336 0.014133334
0.44616896 -0.040257312 0.014746308
-0.45086423 -0.019632109 0.023478508
0.44778019 -0.019660689 0.024713278
-0.42876118 0.0013770759 0.015999794
0.42542216 0.0013884418 0.015266299
-0.40721929 0.02224892 0.011418104
-0.40932617 0.043050092 0.025102854
0.40579444 0.04305014 0.023491859
-0.38796827 0.063932955 0.022017002
0.38424337 0.063907743 0.018751144
-0.36701861 0.08480826 0.021534681
0.36312869 0.084735155 0.016787291
-0.34638688 0.10573108 0.023424864
0.34254938 0.10562709 0.018924952
-0.32572639 0.126683 0.025317669
-0.30312258 0.12623084 0.010633945
0.30038103 0.1263575 0.014746308
0.32237428 0.12666851 0.024847507
-0.28341705 0.1474151 0.020744562
-0.26169321 0.14708799 0.012242794
0.2586301 0.14714369 0.01369381
0.280467 0.14753544 0.023867607
-0.24199919 0.16845225 0.024297118
-0.22037704 0.16805854 0.015773177
0.21706338 0.16800505 0.014613152
0.23875017 0.16847454 0.024780512
-0.17895463 0.18908554 0.019339561
-0.15756939 0.18862785 0.010846496
0.15435003 0.18859483 0.01023531
0.1754676 0.18887971 0.015519738
0.19701274 0.18943368 0.025801539
-0.11665531 0.2103308 0.025559425
-0.095657386 0.21019019 0.023277402
-0.074695118 0.21005069 0.021012306
-0.05376751 0.20991066 0.018737912
-0.03287518 0.20977166 0.016480327
-0.012017541 0.20963198 0.014213324
0.0088052023 0.20949268 0.011950135
0.029623432 0.20959592 0.013627052
0.050497308 0.20981853 0.017241359
0.071427353 0.21004254 0.020878434
0.092413284 0.21026626 0.024511814
0.59736776 -0.2302112 0.039849877
-0.59919626 -0.20853674 0.032767057
-0.51466417 -0.20821518 0.029286504
0.51238847 -0.20874149 0.034983993
-0.5155732 -0.1876764 0.034010172
0.51339531 -0.18822031 0.040433764
-0.51587266 -0.16682103 0.035565853
0.51370418 -0.16732454 0.042105556
-0.51616979 -0.14594094 0.037109733
-0.5169062 -0.1251775 0.04093647
0.48995849 -0.12430754 0.026809692
-0.49350399 -0.10345675 0.028087974
0.49097982 -0.10369866 0.032577872
-0.4945057 -0.082777604 0.033510208
0.49200785 -0.083002761 0.03838408
-0.49551147 -0.062015936 0.03895402
-0.47309214 -0.040758155 0.031012177
0.47029263 -0.040856779 0.034213066
-0.47476989 -0.020024925 0.040488124
-0.45246246 0.0011167265 0.032915592
0.44939896 0.0010886826 0.034727097
-0.43073705 0.022119477 0.02822268
0.42742106 0.022119233 0.028249502
-0.43297699 0.04305014 0.042078376
-0.41145661 0.064063132 0.03894043
0.40794483 0.064057425 0.038194299
-0.39037803 0.085069388 0.03849268
0.38666707 0.085034668 0.036242962
-0.36963359 0.10612321 0.040406585
0.36574566 0.10603956 0.03678453
0.34481758 0.12705319 0.037340164
-0.30547881 0.14781138 0.031039119
0.30246735 0.14792937 0.034104943
-0.28565469 0.1692472 0.041507244
-0.263758 0.16884843 0.03287518
0.26060182 0.16894837 0.035038114
-0.22215167 0.19002262 0.036730409
-0.20048407 0.18955249 0.02800715
0.21872741 0.18999559 0.036229372
-0.1592444 0.21109968 0.038045168
-0.13776696 0.2105611 0.029299974
0.11345606 0.21049143 0.028168678
0.1345562 0.21071815 0.031848788
0.15571354 0.21094531 0.035538912
-0.033263639 0.23235986 0.041711211
-0.012211544 0.23220083 0.03941524
0.0088052023 0.23204103 0.037109852
0.029819233 0.23217627 0.039062619
-0.60306543 -0.23123679 0.050098777
0.51401591 -0.14640392 0.043793082
0.51453727 -0.12552728 0.046614766
-0.51841688 -0.1045721 0.048786044
0.51562107 -0.10477124 0.052481055
-0.51993358 -0.08384721 0.056667089
0.51670957 -0.083926007 0.058372498
0.49304026 -0.062218398 0.044215202
-0.4972018 -0.041284367 0.048102736
0.49476594 -0.041464925 0.053961992
-0.49911946 -0.020440467 0.058482528
0.47200269 -0.020113207 0.04431057
-0.47645938 0.00085315853 0.050030231
0.4737255 0.00078463554 0.054483175
-0.45454693 0.021988571 0.045223594
0.45151716 0.021968575 0.047829628
0.4296926 0.043050092 0.04300344
-0.43523985 0.064195059 0.056076169
0.43199101 0.064209349 0.057932377
-0.41403139 0.08533369 0.055664062
0.41054618 0.08533857 0.055979967
-0.39317101 0.10652007 0.057588339
0.38947999 0.10649583 0.05654335
-0.34885824 0.12720609 0.042309642
0.36840338 0.12766138 0.057093382
-0.32855126 0.14847407 0.048253059
0.32463583 0.14832696 0.044433355
-0.30840155 0.16993284 0.056351066
0.28261921 0.1694257 0.045373678
0.30480415 0.1699068 0.055787563
-0.26590666 0.19097182 0.054346085
-0.24395876 0.19049576 0.045509934
0.24060944 0.19056185 0.046737671
0.2626608 0.19113253 0.057327032
-0.20261522 0.21218638 0.0556916
-0.18086039 0.21164161 0.046846747
0.17721045 0.21145535 0.043820381
0.19899321 0.21210602 0.054387212
-0.13925795 0.23341697 0.056969523
-0.11782917 0.23300162 0.050974488
-0.096633956 0.23284057 0.04864943
-0.075475067 0.23268069 0.046341777
-0.054351486 0.23252018 0.044024587
0.050890379 0.23243336 0.042772174
0.072018869 0.23269108 0.046491981
0.093204938 0.23294953 0.050221801
0.11444936 0.23320958 0.053975463
0.13575141 0.2334694 0.057726026
-0.62838149 -0.21182457 0.068359256
0.62377286 -0.21141934 0.063971639
-0.54297137 -0.19039391 0.066101432
0.53832287 -0.1899377 0.060714364
-0.54342884 -0.16934766 0.068386912
0.53865206 -0.16888863 0.06242466
-0.54388422 -0.1482655 0.070662379
0.53897905 -0.14781256 0.064123631
-0.54456043 -0.12721635 0.07404089
0.53947955 -0.12676573 0.066724539
0.54062515 -0.10585949 0.072677374
-0.52146173 -0.063003294 0.064607382
0.51780272 -0.062991001 0.06428957
0.51959658 -0.042081848 0.073999047
0.4965798 -0.02057264 0.0642066
-0.50167 0.00051038712 0.072288036
0.49840477 0.00047609955 0.074514151
-0.47865635 0.021856153 0.062438607
0.47596279 0.021815622 0.067693949
-0.45692298 0.043050043 0.059253812
0.45393685 0.043050092 0.062797666
-0.45932591 0.064328797 0.07344234
-0.43798423 0.085601449 0.073052883
-0.41700861 0.1069222 0.075001478
-0.37228137 0.127736 0.059515357
-0.35191748 0.14914493 0.065686345
0.34787151 0.14900836 0.062134862
-0.33170864 0.17074281 0.073887587
0.32751068 0.17053226 0.069329977
-0.28822324 0.19156432 0.0653404
0.28488341 0.19170761 0.067998767
-0.24654932 0.21328643 0.073553681
-0.22451107 0.21273459 0.064593554
0.22094497 0.21276191 0.065036178
-0.18280232 0.23465759 0.074876308
-0.16095942 0.23403525 0.065893769
0.15714373 0.23377106 0.062079787
0.17899358 0.234512 0.072774768
-0.012463849 0.25574052 0.072190762
0.0088052023 0.25555462 0.069773912
0.030074468 0.25574279 0.072218537
-0.033770174 0.25592694 0.074611664
-0.54616988 -0.10636631 0.082082033
-0.54778588 -0.085393965 0.090156078
0.54235965 -0.085003003 0.081689954
0.54411638 -0.064012155 0.090818167
-0.52396387 -0.042193003 0.077608943
0.52151448 -0.02103857 0.08438015
-0.50496858 0.021642869 0.090142131
0.50076568 0.021660428 0.087848544
-0.48130524 0.043050043 0.077399611
0.47853711 0.043050043 0.082894444
0.45638761 0.064363472 0.077957869
-0.46223998 0.085872337 0.090649128
0.43477565 0.085647061 0.076018929
0.41355869 0.10695849 0.07657671
-0.39600131 0.1282725 0.076939225
0.39233705 0.12827933 0.077162504
-0.37558493 0.14982516 0.083356738
0.37172303 0.14979064 0.082460284
0.35127425 0.17147596 0.089761972
-0.31151667 0.19253363 0.083328724
0.30727926 0.19228713 0.07875371
-0.26873139 0.21384183 0.082572222
0.24306768 0.21342279 0.075767994
0.26536083 0.21408707 0.086555719
-0.20478804 0.23528399 0.083917499
0.20101388 0.23525871 0.083552957
-0.11937083 0.25667673 0.084352016
-0.097914308 0.25648916 0.081913948
-0.076495044 0.25630069 0.079466224
-0.055113874 0.25611368 0.077036858
0.051403746 0.25604278 0.076116443
0.072793618 0.25634483 0.080039501
0.094243795 0.25664657 0.083959579
0.11575367 0.2569471 0.087862492
-0.63495404 -0.23591229 0.096819162
0.63086587 -0.23580462 0.095744014
-0.65833962 -0.21519959 0.10489416
0.65506095 -0.21545219 0.1076293
-0.57132906 -0.19330089 0.10043204
0.56633371 -0.19282737 0.094839573
-0.57181305 -0.1719937 0.10276079
0.56686872 -0.17158972 0.097512603
-0.57230377 -0.15065286 0.10512173
0.56740481 -0.15031125 0.100191
0.56806135 -0.1290288 0.10347152
-0.54941136 -0.064299233 0.09827745
0.54692394 -0.043048911 0.1054064
-0.52665788 -0.02120547 0.091607451
-0.52937925 -4.7013164e-06 0.1057483
0.52391982 0.00012381375 0.097399354
0.50349909 0.043050043 0.10328674
-0.48493403 0.064517058 0.097895026
0.4811399 0.06451989 0.098263144
0.45935896 0.085959986 0.096338034
-0.44114789 0.10732912 0.092622757
0.43799332 0.10742827 0.096918225
-0.42002589 0.12881632 0.094599247
0.41662085 0.12890597 0.097512603
-0.39955574 0.15051344 0.10124111
0.3959274 0.15058407 0.10307348
-0.35531521 0.17156316 0.091649771
-0.33511442 0.19351499 0.10153913
0.33089739 0.19335973 0.098659873
-0.29194707 0.21490845 0.099893212
0.28782848 0.21475667 0.097427845
-0.24919356 0.2365492 0.10217822
-0.22691798 0.23591441 0.093017936
0.22320551 0.23601043 0.094401598
0.2455714 0.23676787 0.10533524
-0.16324911 0.258118 0.10307348
-0.14123392 0.25739169 0.093638897
0.1373248 0.25724947 0.091790676
0.1592012 0.25790143 0.10026193
0.0088052023 0.27991876 0.10654593
-0.57289314 -0.12930502 0.10795736
-0.57460582 -0.10820468 0.11619747
0.56992006 -0.10801929 0.11275816
0.57178831 -0.086869106 0.12209237
-0.55200046 -0.043227717 0.11121321
0.55001312 -0.021894872 0.12145853
-0.53286594 0.021383204 0.12386572
0.52768457 0.021430075 0.11777651
-0.50878757 0.043050043 0.11081302
-0.48936883 0.086369529 0.12294269
0.48430842 0.086277589 0.11697245
-0.46677822 0.10790239 0.11744618
0.4627921 0.10790531 0.11757553
-0.44435668 0.12936667 0.11247194
0.44126436 0.12954181 0.11816454
-0.4238376 0.1512108 0.11935747
0.4204964 0.15138984 0.12400997
-0.37922904 0.17239489 0.10965574
0.37539044 0.17243308 0.11048436
-0.3590259 0.19450994 0.12000477
0.35499033 0.19450599 0.11993289
-0.31555906 0.21604441 0.1183368
0.31117246 0.21583132 0.11487794
-0.27214664 0.23755516 0.1166997
0.26811358 0.23753133 0.1163553
-0.20772897 0.25958425 0.12212121
-0.18541396 0.2588492 0.11257207
0.18138279 0.25877199 0.11157084
0.20374486 0.25964975 0.12297153
-0.099364921 0.28102428 0.11960196
-0.077649921 0.28080171 0.11697233
-0.055975862 0.28058064 0.11436212
-0.034342058 0.28036004 0.11175668
-0.012748299 0.28013864 0.10914183
0.030362001 0.28017482 0.10957003
0.051983312 0.28052965 0.11376035
0.073669434 0.28088558 0.11796319
0.095420644 0.28124246 0.12217879
-0.60039884 -0.19628012 0.13561416
0.59643948 -0.19635649 0.13651645
-0.60091662 -0.17470776 0.13801658
0.5970118 -0.17480426 0.13927019
-0.60144162 -0.15310071 0.14045215
-0.5763256 -0.086979032 0.12447178
-0.57805252 -0.065627366 0.13278055
0.5736661 -0.065577127 0.13147449
-0.55487084 -0.021989487 0.12555468
-0.55776489 -0.0005322285 0.14001441
0.55314642 -0.0004972592 0.13773966
-0.51266646 0.06477809 0.13180792
0.50733179 0.06472522 0.1249336
0.46627805 0.13018775 0.13913894
-0.40345228 0.17323661 0.127882
0.39986676 0.17340389 0.13150346
-0.38325578 0.19551812 0.13871622
-0.33948344 0.21719433 0.13701153
0.33525524 0.21715672 0.13639987
-0.29584071 0.23889384 0.13602161
0.29127192 0.23860393 0.13183689
-0.23019774 0.26032549 0.13175011
0.226293 0.26053786 0.13450909
-0.14350913 0.28240114 0.13586164
-0.1212799 0.28153938 0.1256845
0.11723724 0.28160065 0.12640703
0.13919859 0.28210455 0.1323595
-0.66905838 -0.24121529 0.14981031
-0.69003564 -0.2190153 0.14620018
0.59758228 -0.15320896 0.14201474
-0.60196429 -0.13145544 0.1428771
0.59815079 -0.13157079 0.14475
-0.60374701 -0.11008793 0.15114796
0.60008955 -0.11024585 0.15407765
-0.58072609 -0.044287935 0.14564347
0.5765636 -0.044297352 0.14595115
-0.53694147 0.043049995 0.1450429
0.53208977 0.043050092 0.1416204
0.51245528 0.086845741 0.15387154
-0.49450076 0.1086987 0.15192759
0.48917642 0.10855526 0.14571667
-0.47167271 0.13040972 0.14634681
-0.45013395 0.15232125 0.14820969
0.44543189 0.15220675 0.14523327
-0.42885444 0.17434794 0.15194237
0.42471534 0.17439018 0.15285504
0.37945169 0.19566917 0.141518
-0.36373001 0.21836078 0.15595078
-0.31986144 0.24025002 0.15559661
0.3154352 0.2401693 0.15443146
-0.25323847 0.26141977 0.14596581
0.24902681 0.2614333 0.14614165
-0.18845409 0.28414482 0.15645254
-0.16590051 0.28327036 0.14612699
0.16159219 0.28314382 0.14463294
0.6679185 -0.24256569 0.16330385
0.68877566 -0.2201643 0.15863907
-0.6302107 -0.19933522 0.1716944
-0.60557526 -0.088602915 0.15962994
0.60208422 -0.088789716 0.16367483
-0.60741442 -0.066989146 0.1681627
-0.58377767 -0.022792384 0.16032541
0.57987344 -0.022842333 0.16248822
-0.56144822 0.021117246 0.15841734
0.55714291 0.021116516 0.15850604
-0.54107887 0.065045461 0.16654122
0.53656489 0.065040052 0.16584277
-0.51742423 0.086902559 0.15756011
-0.40808067 0.19663961 0.15952623
0.40429169 0.19685034 0.16343737
0.35970858 0.21850163 0.15823996
-0.27704525 0.2629351 0.16564965
0.27231631 0.26264259 0.16185093
-0.21117361 0.28502679 0.16686821
0.18418227 0.28419346 0.15702844
0.20696968 0.28525108 0.16951776
-0.10142397 0.30760002 0.17309773
-0.079271577 0.30728039 0.16963696
-0.057190165 0.30703148 0.1669426
-0.035150304 0.30678302 0.16425347
-0.013151888 0.30653509 0.16156936
0.0088052023 0.30628774 0.15889037
0.030770507 0.30663377 0.16263652
0.052802794 0.30703565 0.16698742
0.074902028 0.30743736 0.17133641
0.62745982 -0.19999279 0.17945933
-0.63076752 -0.17749222 0.17418838
0.62806827 -0.17811526 0.18228245
-0.63132185 -0.15561004 0.17667174
0.62867481 -0.1561937 0.18509614
-0.63188052 -0.13369085 0.17917442
0.62928563 -0.13423008 0.18793023
-0.63362646 -0.11201967 0.18699515
0.60409242 -0.06718833 0.17333663
-0.61016315 -0.045373909 0.18091512
0.60707545 -0.045582555 0.18768871
-0.58685791 -0.0010730699 0.17514539
0.58323419 -0.001136817 0.17927933
-0.5657919 0.043050043 0.18011963
0.56186336 0.04305014 0.1830343
-0.52291811 0.10951544 0.18729675
0.5183841 0.10951686 0.18735695
-0.49975544 0.13149542 0.18160617
0.49481222 0.13141492 0.17899442
-0.47804135 0.15369704 0.18395185
0.47282767 0.1535316 0.17965448
-0.45652831 0.17600246 0.18776441
0.45109665 0.17573757 0.18202698
-0.3883844 0.21957877 0.17572892
0.38454458 0.21986859 0.1804347
-0.34421903 0.24162623 0.1754595
0.33999017 0.24176104 0.17740548
-0.30118638 0.26447254 0.18562329
0.29658219 0.2644169 0.18490028
-0.23448946 0.28634477 0.18243277
0.22995901 0.28631932 0.18213212
-0.12395655 0.30857351 0.18363595
0.097069092 0.30784187 0.1757139
0.11930696 0.3082543 0.18017972
0.63115835 -0.11253822 0.19661856
-0.63635826 -0.090432093 0.1992321
-0.61340392 -0.023615234 0.19595063
0.61062431 -0.023818709 0.20476341
-0.59074098 0.020844607 0.19382763
0.58746517 0.020793835 0.20041883
-0.57020229 0.065319568 0.20215511
-0.5461756 0.087448522 0.19302487
0.54209095 0.087490514 0.19575334
-0.435707 0.19862938 0.19645143
0.43010613 0.19826618 0.18971205
-0.36898845 0.2430585 0.19613266
0.36494491 0.24337855 0.20075381
-0.3256675 0.26603195 0.20587862
-0.25860369 0.28817502 0.20404613
0.25365898 0.28790393 0.200845
-0.16952381 0.31054363 0.20496202
-0.14665638 0.30955565 0.19426703
0.141995 0.30942968 0.19290364
0.16488506 0.31061548 0.20574081
-0.70644945 -0.20281877 0.21283185
0.70184743 -0.20286819 0.21341538
0.72423011 -0.20287719 0.21352291
0.63329262 -0.09076862 0.2065202
-0.64056861 -0.068910986 0.21809196
0.63543826 -0.068848751 0.21647501
-0.61823285 -0.0017383285 0.21835399
0.61422199 -0.0017956868 0.22207284
-0.59536493 0.043050092 0.21607482
0.56665701 0.065364145 0.20794261
-0.52854496 0.1326085 0.21775305
0.52444589 0.13272673 0.22159398
-0.50665772 0.15510716 0.22059035
