ply
format ascii 1.0
comment PCL generated
element vertex 1338
property float x
property float y
property float z
element camera 0
property float view_px
property float view_py
property float view_pz
property float x_axisx
property float x_axisy
property float x_axisz
property float y_axisx
property float y_axisy
property float y_axisz
property float z_axisx
property float z_axisy
property float z_axisz
property float focal
property float scalex
property float scaley
property float centerx
property float centery
property int viewportx
property int viewporty
property float k1
property float k2
end_header
0.26427677 0.29436529 -0.1543237
-0.26604304 0.31770891 -0.15274107
-0.2422362 0.31608629 -0.16152287
0.24070506 0.31616658 -0.16108787
0.26445037 0.3177951 -0.15227342
-0.24244076 0.3395468 -0.15910709
-0.21875226 0.33786106 -0.16786647
0.21721682 0.33780646 -0.16815007
0.24084136 0.33950645 -0.15931726
-0.24264568 0.36304528 -0.15668726
-0.2189386 0.3612923 -0.16544592
0.21733892 0.36110377 -0.16638768
0.24097668 0.36287075 -0.15755951
-0.21912409 0.38475847 -0.16303635
-0.19590896 0.38406515 -0.16637266
0.19435683 0.38398117 -0.16677618
0.21750264 0.38455302 -0.16402459
-0.24285093 0.38658184 -0.1542635
0.24111331 0.38626581 -0.15578437
-0.24305776 0.41016001 -0.1518209
-0.21930987 0.40826267 -0.16062295
-0.19609967 0.40761662 -0.16362047
-0.17294517 0.407004 -0.16646242
0.1713912 0.40689456 -0.16697025
0.1945143 0.40748763 -0.16421914
0.21767905 0.40807843 -0.1614778
0.2412501 0.40968859 -0.15400743
-0.21951097 0.43184841 -0.15801048
-0.19629069 0.43121177 -0.16086304
-0.17311467 0.43057597 -0.16371036
-0.14998277 0.42994159 -0.16655207
0.14842786 0.42980152 -0.16717958
0.17152897 0.43041879 -0.16441369
0.19467203 0.43103421 -0.16165769
0.21785685 0.4316473 -0.15891171
0.24138707 0.43313932 -0.15222836
-0.21972406 0.45551032 -0.15524244
-0.19648208 0.45485038 -0.15810061
-0.17328447 0.45419145 -0.16095293
-0.15013106 0.45353413 -0.16380012
-0.12702173 0.4528777 -0.16664183
0.12546201 0.45267069 -0.16753793
0.14854179 0.45332325 -0.16471303
0.17166455 0.45397341 -0.16189754
0.19482912 0.45461792 -0.15910709
0.21803494 0.45525646 -0.1563412
-0.21993636 0.47921228 -0.15248466
-0.1966728 0.47852898 -0.15534794
-0.17345366 0.47784716 -0.15820587
-0.15027882 0.47716647 -0.16105795
-0.12714814 0.4764871 -0.16390479
-0.10406151 0.47580898 -0.16674614
0.10250214 0.47553813 -0.16788137
0.12555692 0.47620857 -0.16507196
0.14865522 0.47688031 -0.16225731
0.17179793 0.47755671 -0.15942228
0.19498371 0.47823101 -0.1565969
0.21821335 0.47890645 -0.15376639
-0.12727548 0.50014353 -0.16114795
-0.10416742 0.49944222 -0.16399467
-0.08110334 0.49874246 -0.16683602
0.079547539 0.49840009 -0.16822469
0.10257804 0.4990921 -0.165416
0.12565199 0.49978542 -0.16260207
0.14876951 0.50047982 -0.15978265
-0.035687495 -0.07339786 -0.13477767
-0.012471562 -0.07349892 -0.1366539
0.010715488 -0.073504627 -0.13676059
0.033915922 -0.073405311 -0.13491499
-0.15175092 -0.050132453 -0.13373947
-0.12840681 -0.050311923 -0.13665378
-0.10514823 -0.050426409 -0.13851249
-0.081917852 -0.050541595 -0.14038408
-0.058716703 -0.050655887 -0.1422379
-0.035544131 -0.050769851 -0.14408958
-0.01239997 -0.050884649 -0.14595413
0.010715488 -0.050905228 -0.14628744
0.033842497 -0.050792262 -0.14445364
0.056997772 -0.050679147 -0.1426177
0.080181718 -0.050565019 -0.14076412
0.10339381 -0.050451621 -0.13892353
0.12663431 -0.050338179 -0.13708055
0.14990893 -0.050217032 -0.13511336
-0.17468616 -0.027231425 -0.13819265
-0.15121116 -0.027616844 -0.14375591
-0.12797725 -0.027769193 -0.14595413
-0.10479069 -0.027897254 -0.1478014
-0.081632659 -0.028025016 -0.14964616
0.079962283 -0.028067887 -0.15026569
0.10310087 -0.027941138 -0.14843678
0.12626769 -0.027814314 -0.14660549
0.14946352 -0.027686357 -0.14475679
0.17283368 -0.027370661 -0.14020133
0.19633402 -0.026987463 -0.13467085
-0.24458757 -0.0037146062 -0.13375461
-0.22096509 -0.0041278303 -0.13912117
-0.19742653 -0.0045394599 -0.14446878
-0.17397147 -0.0049496591 -0.14979732
0.17224497 -0.0050520003 -0.1511265
0.19565871 -0.0046293139 -0.14563608
0.21915841 -0.0042049438 -0.14012551
0.24274452 -0.0037794113 -0.13459444
-0.29091308 0.019415885 -0.13468611
-0.26721546 0.018961757 -0.14004934
-0.24360201 0.01850912 -0.14539361
-0.22007228 0.018058211 -0.15071905
0.21840148 0.018030047 -0.15105104
0.24190037 0.018495113 -0.14556038
0.2654855 0.018961757 -0.14004934
0.28915736 0.019430101 -0.13451803
-0.3136127 0.042187244 -0.13934946
-0.28978088 0.041573018 -0.14599967
0.26456031 0.041113317 -0.15097558
0.28819335 0.041669488 -0.14495397
0.31200686 0.042306781 -0.13805568
-0.33680183 0.065373421 -0.13915181
-0.31291723 0.064707726 -0.14580262
0.28768453 0.064241499 -0.15046215
0.31145161 0.064927816 -0.14360404
0.33532763 0.065617204 -0.1367147
-0.35999402 0.088562429 -0.13895392
-0.33605659 0.087845534 -0.14560568
0.31089836 0.087465614 -0.14913237
0.33472911 0.088205427 -0.1422683
-0.38345039 0.11198506 -0.13676047
-0.35919899 0.11098656 -0.14540887
0.33413443 0.11071193 -0.14778626
0.35806596 0.1115422 -0.14059651
-0.38357413 0.13528767 -0.13581514
-0.35908145 0.1339885 -0.14636314
0.33396167 0.13361594 -0.14938927
0.35811687 0.1347532 -0.14015591
-0.35961762 0.15767047 -0.14201009
0.3343384 0.15716237 -0.14589369
0.35851243 0.15836161 -0.13672984
-0.36015344 0.18141919 -0.13765955
-0.33586597 0.18008938 -0.14725637
0.33470619 0.18075114 -0.14248085
-0.33636659 0.20382899 -0.14292133
0.31099069 0.2030555 -0.14820981
0.33507481 0.20439351 -0.13906038
-0.33689502 0.2276724 -0.13834488
-0.31269857 0.22621179 -0.1478318
0.31133169 0.22667801 -0.14480233
0.33544266 0.22808751 -0.13564754
-0.33743563 0.2516031 -0.13366318
-0.31319994 0.25006497 -0.1431793
0.28768033 0.24888012 -0.15050745
0.31167346 0.25035453 -0.1413871
-0.31355202 0.27375484 -0.13991249
-0.28950369 0.27225488 -0.14876926
0.28794432 0.27244455 -0.14764988
0.31192458 0.27393019 -0.13887775
-0.28974754 0.29578012 -0.14633286
0.28813455 0.29591143 -0.14559066
-0.31381783 0.29735345 -0.13744628
0.31213188 0.29746687 -0.13680625
-0.31408238 0.32098806 -0.13499141
-0.28999177 0.31934363 -0.14389241
0.28832507 0.31941086 -0.14352822
0.31233948 0.32103592 -0.13473177
-0.29023641 0.34294528 -0.14144802
-0.26626891 0.34124273 -0.15029597
0.26460505 0.34121341 -0.15044689
0.2885102 0.34293073 -0.14152396
-0.29048297 0.36658859 -0.13898432
-0.26649374 0.36481172 -0.14786184
0.26475608 0.36465144 -0.14866364
0.28867593 0.3664394 -0.13972986
-0.29072836 0.39026737 -0.13653171
-0.26671895 0.38841909 -0.14542389
0.26490599 0.38811368 -0.14689326
0.28884047 0.38997287 -0.13794899
-0.29098642 0.41401112 -0.13395345
-0.26694456 0.41206503 -0.14298213
0.26505736 0.41160738 -0.14510548
0.28900656 0.41353744 -0.1361506
-0.26717332 0.43575621 -0.14050555
-0.24326366 0.43377304 -0.14938927
0.2652089 0.43512893 -0.14331579
0.28917289 0.43713051 -0.1343503
-0.26741931 0.45952874 -0.1378423
-0.24346989 0.45742452 -0.1469537
0.24152419 0.45661783 -0.15044701
0.26536065 0.45867848 -0.14152396
-0.26766577 0.48334324 -0.13517439
-0.24368674 0.48114336 -0.14439297
0.24166147 0.48012424 -0.14866364
0.26551256 0.48225617 -0.13972986
-0.035976678 -0.11907797 -0.11599493
-0.01261609 -0.11915044 -0.11787903
0.010715488 -0.11913744 -0.11753941
0.034064069 -0.11906533 -0.11567044
-0.129274 -0.095818907 -0.11787903
-0.10586996 -0.095905751 -0.11976087
-0.082494527 -0.095993355 -0.1216557
-0.059148673 -0.096079931 -0.12353301
-0.035831518 -0.096167266 -0.12542307
-0.012543602 -0.096253738 -0.12729549
0.010715488 -0.09624888 -0.12718821
0.033989821 -0.096162349 -0.12531567
0.057292782 -0.096076399 -0.123456
0.080624431 -0.09599039 -0.12159431
0.10398528 -0.095903635 -0.11971462
0.12737456 -0.095817372 -0.11784828
-0.17594001 -0.072484836 -0.11783278
-0.1522951 -0.072797716 -0.12364054
-0.12883906 -0.072994739 -0.12729561
-0.10550797 -0.073095441 -0.12916565
-0.082205296 -0.073196873 -0.13104904
-0.058932018 -0.073297471 -0.13291442
0.05714481 -0.073305666 -0.13306725
0.080402195 -0.073206022 -0.13121712
0.1036886 -0.07310532 -0.12934959
0.12700327 -0.073005512 -0.12749493
0.15040547 -0.072836682 -0.12436306
0.17399247 -0.072531357 -0.11869693
-0.22272037 -0.049059585 -0.11631942
-0.19897293 -0.049418733 -0.12214839
-0.17531662 -0.049776167 -0.12795508
0.173411 -0.049870595 -0.12948751
0.197001 -0.049522743 -0.12384057
0.2206783 -0.049174711 -0.11818779
-0.26938185 -0.025735289 -0.11659741
-0.24558079 -0.026111305 -0.12202525
-0.22186477 -0.026486069 -0.12743366
-0.1982334 -0.026859537 -0.13282275
0.2199209 -0.026602954 -0.12911975
0.24359484 -0.026216805 -0.12354827
0.26735631 -0.025829494 -0.1179564
-0.31596321 -0.0024662465 -0.11753953
-0.29208618 -0.0028840005 -0.12296402
-0.26829442 -0.0033000112 -0.12836885
0.26641747 -0.0033519864 -0.12904322
0.29017782 -0.0029230714 -0.1234715
0.31402603 -0.0024925172 -0.11787915
-0.33865327 0.020395398 -0.12311769
-0.31469536 0.019871563 -0.12930357
0.31291643 0.019900143 -0.12896657
0.33689415 0.020474851 -0.12217915
-0.36204687 0.043763369 -0.1222868
-0.33755031 0.04280442 -0.13266981
0.33592671 0.042944074 -0.13115597
0.36057872 0.044082284 -0.11883569
-0.38575175 0.067372471 -0.11917496
-0.36096203 0.066179663 -0.13109469
0.3597365 0.066676646 -0.12612951
-0.40950543 0.091030151 -0.11605668
-0.38459671 0.089742869 -0.12800097
0.35889834 0.08916232 -0.13338804
0.38366938 0.090526283 -0.12073171
-0.4088555 0.11383408 -0.12074721
0.38298756 0.11319667 -0.12626755
0.38311613 0.13659239 -0.1252234
-0.4092401 0.13748562 -0.11797166
-0.38402373 0.15893081 -0.13237941
0.38324481 0.16000405 -0.12417853
-0.38459873 0.18275967 -0.1279856
0.35890716 0.18202159 -0.13331175
0.38337362 0.18343201 -0.12313318
-0.38517541 0.20665789 -0.12357903
-0.36069271 0.20523885 -0.13328123
0.35930455 0.20573774 -0.12987018
0.38368267 0.20709017 -0.12062395
-0.38575175 0.23062378 -0.11917508
-0.36124492 0.22914219 -0.12879801
0.35970283 0.2295081 -0.12642109
0.38411009 0.23093504 -0.11715353
-0.36177599 0.25308672 -0.12448621
0.33581299 0.25183791 -0.13221133
0.36006472 0.25328061 -0.12328672
-0.36208099 0.27678692 -0.12200975
-0.33774453 0.27526629 -0.13098764
0.33604544 0.27542448 -0.130054
0.36030638 0.27692497 -0.12119389
-0.36238837 0.30052841 -0.11951423
-0.33802924 0.29893363 -0.12852228
0.33626837 0.29902864 -0.12798584
0.36054841 0.30060214 -0.11909783
-0.36272097 0.32434636 -0.11681366
-0.33831614 0.32264227 -0.12603736
0.33649325 0.32266784 -0.12589908
0.36079079 0.32431221 -0.11699891
-0.33861598 0.34641075 -0.12344074
-0.31434742 0.34466118 -0.13253224
0.31254584 0.34463453 -0.13266993
0.33671844 0.34633976 -0.12380981
-0.33892703 0.3702386 -0.12074721
-0.31461447 0.36837602 -0.13005388
0.31273866 0.36823803 -0.13074291
0.33694392 0.37004429 -0.12171733
-0.33923858 0.39410889 -0.11804891
-0.3149035 0.39217126 -0.12737238
0.3129195 0.39184606 -0.12893605
0.33714148 0.39372748 -0.11988413
-0.3151947 0.41601211 -0.12467039
0.313099 0.41547918 -0.12714231
0.33733761 0.41743588 -0.1180644
-0.29125413 0.43781614 -0.1312784
-0.31548473 0.43989217 -0.12197912
0.31328025 0.43914396 -0.12533092
0.33753234 0.44116938 -0.11625755
-0.31577697 0.46381837 -0.11926746
-0.29152378 0.46166694 -0.12858343
0.28933939 0.46075135 -0.13254774
0.31346172 0.46283686 -0.12351763
-0.012755334 -0.16539586 -0.099790573
0.010715488 -0.16537777 -0.099009395
-0.13015203 -0.14189664 -0.098868728
-0.10659896 -0.14195681 -0.10082114
-0.08307603 -0.14201684 -0.10277092
-0.059582826 -0.14207721 -0.10473382
-0.036120109 -0.14213711 -0.10667872
-0.012687238 -0.14219731 -0.10863662
0.010715488 -0.14217971 -0.10806203
0.034137599 -0.14211991 -0.10611868
0.057589419 -0.14206046 -0.10418892
0.081071377 -0.14200047 -0.1022408
0.10458291 -0.14194089 -0.10030591
-0.15339281 -0.11858816 -0.10326958
-0.12971164 -0.11878569 -0.10840356
-0.10623424 -0.11885854 -0.11029732
-0.082785577 -0.11893202 -0.11220396
-0.059366684 -0.11900459 -0.11409295
0.057441704 -0.11899281 -0.11378336
0.080848083 -0.1189206 -0.11190963
0.10428338 -0.11884844 -0.11003351
0.12774825 -0.11877549 -0.10813963
0.15140925 -0.11856358 -0.10263062
-0.20038566 -0.095074251 -0.10175729
-0.17656851 -0.095345274 -0.10762691
-0.15284212 -0.095616072 -0.11348927
0.15090556 -0.095618248 -0.11353588
0.17457809 -0.095354676 -0.10782886
0.19833885 -0.095090792 -0.10211599
-0.24742523 -0.071536884 -0.10024357
-0.22350559 -0.071853518 -0.1061188
-0.19967692 -0.072169781 -0.11198711
0.19766802 -0.07222487 -0.11300933
0.22143149 -0.071918115 -0.10731602
0.24528553 -0.071609303 -0.10158575
-0.29445994 -0.048008069 -0.099243879
-0.27047777 -0.048346162 -0.10473394
-0.24655813 -0.048700184 -0.11048341
0.24444547 -0.0488244 -0.11249828
0.26830205 -0.048472717 -0.10678756
0.29224133 -0.048124313 -0.10113335
-0.31738862 -0.024884388 -0.10431337
-0.29326841 -0.025357917 -0.11115015
0.29120579 -0.025440529 -0.11234331
0.3152107 -0.025004029 -0.10604107
-0.36483693 -0.0010880977 -0.099634409
-0.34027702 -0.0018134117 -0.10905576
0.3382951 -0.0018229187 -0.10917997
0.36284277 -0.00105685 -0.099228144
-0.38806379 0.022225261 -0.10150778
-0.36312282 0.021205574 -0.11355126
0.36140886 0.021366894 -0.11164618
0.38636604 0.022451401 -0.098837495
-0.41197804 0.045987397 -0.098212242
-0.38691354 0.044871002 -0.1102972
0.38547689 0.045262784 -0.10605657
-0.41073811 0.068574756 -0.10716057
0.38457096 0.067949146 -0.11341202
0.40961528 0.069232613 -0.10058701
-0.43461418 0.092329323 -0.10400212
0.40864927 0.091901898 -0.10796869
-0.43480337 0.11591712 -0.10270846
0.40848058 0.11516085 -0.10925758
-0.43521416 0.1397115 -0.099900007
0.40861875 0.13868898 -0.10820162
-0.40962753 0.16118234 -0.11517549
0.40875703 0.16223332 -0.10714495
-0.41001353 0.18492073 -0.1123898
0.4088954 0.18579385 -0.1060878
-0.41040024 0.20870271 -0.10959899
0.40903386 0.20937103 -0.1050297
-0.41078335 0.23252368 -0.10683417
0.40915614 0.23294529 -0.10409546
-0.41103339 0.25623211 -0.1050297
-0.38623467 0.25454187 -0.11548471
0.38445279 0.2547217 -0.1143713
0.40923768 0.25648379 -0.10347235
-0.38657686 0.2783348 -0.1128701
0.3847121 0.27843702 -0.11226594
-0.4112578 0.27993667 -0.10341001
0.40928662 0.2799896 -0.10309815
-0.41162953 0.30385464 -0.10072744
-0.38693383 0.30218786 -0.11014199
0.38497177 0.30218506 -0.11015761
0.40953764 0.3037746 -0.10118008
-0.41201052 0.32782632 -0.097977638
-0.38728943 0.32608098 -0.10742486
0.38523182 0.32596624 -0.10804641
0.40981558 0.32762706 -0.099056244
-0.36305419 0.34820676 -0.11410832
0.36103347 0.34805495 -0.11489737
-0.38764569 0.35001689 -0.10470283
0.3854903 0.34977734 -0.10594773
-0.3880046 0.37399882 -0.10196018
-0.36338991 0.37211287 -0.11138248
0.36127469 0.37182772 -0.11280823
0.38575104 0.37362438 -0.10383058
-0.38836211 0.39802086 -0.099228024
-0.36372432 0.39605886 -0.10866761
0.36150911 0.39562023 -0.11077797
0.3860122 0.39750481 -0.10171056
-0.36405933 0.42004752 -0.10594773
-0.33955249 0.4180252 -0.11533022
0.36172053 0.41940105 -0.10894716
0.38625059 0.4213782 -0.099774957
-0.36439687 0.44408286 -0.10320723
-0.33986521 0.44198102 -0.11262238
0.36193219 0.44321078 -0.10711384
-0.34017846 0.46597946 -0.10990942
0.33772895 0.46493471 -0.11443329
0.36214235 0.46704537 -0.10529423
-0.012892725 -0.21220016 -0.081943274
0.010715488 -0.21219091 -0.080757618
-0.10728727 -0.18860717 -0.082938552
-0.083624989 -0.18863809 -0.084942818
-0.059993643 -0.18866892 -0.08694458
-0.036393642 -0.18869916 -0.088912368
-0.012823828 -0.18872955 -0.09089303
0.010715488 -0.18871447 -0.089902878
0.034277443 -0.1886844 -0.087952375
0.05786971 -0.18865411 -0.085983396
0.081492722 -0.18862346 -0.083996296
0.10514639 -0.18859285 -0.082006454
-0.15448582 -0.16500774 -0.082985997
-0.1306061 -0.16514756 -0.089037895
-0.1069418 -0.1652139 -0.091913939
-0.083349481 -0.16525963 -0.093890667
-0.059787635 -0.16530514 -0.09586513
-0.036256477 -0.16535038 -0.097821236
0.034207374 -0.16533262 -0.097054839
0.057729147 -0.16528791 -0.095113277
0.08128123 -0.16524261 -0.093153596
0.10486357 -0.1651973 -0.09119153
0.12856404 -0.16509923 -0.086944461
0.15240857 -0.16496181 -0.080994844
-0.20181866 -0.14134869 -0.081073999
-0.17783639 -0.14153242 -0.087038875
-0.15394722 -0.14171538 -0.092980981
0.12816106 -0.14185192 -0.097414494
0.15191656 -0.14167419 -0.091646791
0.17576206 -0.14149594 -0.085857391
-0.22509204 -0.11790455 -0.085510612
-0.20110027 -0.11813281 -0.091442823
-0.17720032 -0.11836091 -0.097367644
0.1751671 -0.11834293 -0.096898198
0.19901551 -0.11812076 -0.091128707
0.22295427 -0.11789784 -0.085337162
-0.27239487 -0.094253108 -0.08398056
-0.24829951 -0.094527408 -0.089918613
-0.22429612 -0.094801337 -0.095849395
0.22219014 -0.094825223 -0.096366048
0.24613164 -0.094558641 -0.090594411
0.27016386 -0.094291002 -0.084800839
-0.29572231 -0.07080327 -0.08662951
-0.27143887 -0.071218282 -0.094329596
0.26922959 -0.071299314 -0.095833898
0.29330635 -0.070963651 -0.089604259
-0.34357199 -0.046854958 -0.080520272
-0.31892303 -0.047443405 -0.09007585
0.31652549 -0.04761748 -0.09290266
0.34113339 -0.046998054 -0.0828439
-0.36659789 -0.023569465 -0.085337162
-0.34191591 -0.024229482 -0.09486258
0.33970812 -0.024313003 -0.09606874
0.36436486 -0.023618788 -0.086046457
-0.4144251 0.00038091838 -0.080551982
-0.38955164 -0.00035703182 -0.090138793
0.38754979 -0.00028687716 -0.089226604
-0.4132013 0.023251981 -0.089383841
0.41153464 0.023545146 -0.085920334
-0.43724272 0.047112703 -0.086030722
0.41058391 0.046451777 -0.093184829
-0.46131012 0.071008265 -0.082843781
-0.43592346 0.069786757 -0.095050573
0.43487209 0.070527077 -0.08765316
-0.46062297 0.094128549 -0.087306857
0.43411648 0.093503416 -0.093106508
-0.46106225 0.118025 -0.08445394
0.43426433 0.11714911 -0.092039347
-0.46149984 0.14196399 -0.081611514
0.43441233 0.14081112 -0.090971589
-0.43562573 0.16354957 -0.097086072
0.43455821 0.16448763 -0.089918494
-0.43603805 0.1874319 -0.094266891
0.43469548 0.1881716 -0.088927865
-0.43641672 0.21132389 -0.091678262
0.4348045 0.21184129 -0.088141203
-0.43674073 0.23519808 -0.089462638
0.43491793 0.23552778 -0.087322474
-0.4369801 0.25901303 -0.087826371
0.43503797 0.25923458 -0.08645618
-0.43722197 0.28285623 -0.086172581
0.43509474 0.28287745 -0.086046457
-0.43746182 0.30672204 -0.084532619
0.43514717 0.30652118 -0.085668206
-0.43770191 0.33061367 -0.082891226
0.43519962 0.33017045 -0.085289836
-0.43794459 0.35453391 -0.081232071
-0.41239008 0.35183829 -0.095238686
0.4100939 0.35151291 -0.096929431
0.43525204 0.35382587 -0.084911108
-0.4127703 0.37589347 -0.092494488
0.41037261 0.37543184 -0.094799876
0.43530452 0.37748706 -0.084532619
-0.41315338 0.39999491 -0.089730024
0.41065168 0.39938444 -0.092667341
0.43543571 0.401272 -0.083585858
-0.41353497 0.4241367 -0.086975932
-0.38872027 0.42208594 -0.096491337
0.41092911 0.42336714 -0.090547323
0.43573338 0.42533064 -0.081437588
-0.41391724 0.44832218 -0.084217072
-0.38908112 0.44619757 -0.093733907
0.38647774 0.44526076 -0.097930908
0.41117191 0.44732326 -0.08869195
-0.084181905 -0.23580837 -0.06685698
-0.060410779 -0.23580837 -0.068882346
-0.012962023 -0.23580837 -0.072941065
0.058154356 -0.23580837 -0.067495227
0.081920236 -0.23580837 -0.065483809
-0.10798493 -0.23580825 -0.064812899
-0.036670636 -0.23580825 -0.070920944
0.010715488 -0.23580825 -0.071525693
0.034419335 -0.23580825 -0.069519758
-0.15556072 -0.21205452 -0.063038111
-0.13152306 -0.21210183 -0.069185138
-0.10763477 -0.21213831 -0.073910356
-0.083902627 -0.21215375 -0.075926542
-0.060201604 -0.21216933 -0.077939987
-0.036531609 -0.21218477 -0.079950929
0.034348056 -0.21217568 -0.078779459
0.058011606 -0.21216024 -0.076766968
0.081705838 -0.21214487 -0.074767947
0.10545883 -0.2121224 -0.071859717
0.12937593 -0.2120762 -0.065851092
-0.17907536 -0.18836063 -0.066920877
-0.15502197 -0.18845478 -0.073036432
-0.1310631 -0.18854876 -0.079143643
0.1289686 -0.18850717 -0.076434135
0.15289518 -0.18841518 -0.070459366
0.176915 -0.18832272 -0.06446135
-0.17846118 -0.16486707 -0.076893806
-0.22669764 -0.16458443 -0.064653158
-0.20253199 -0.16472578 -0.070777774
0.17634508 -0.16482416 -0.075037956
0.20037474 -0.16468619 -0.069057584
0.22449808 -0.16454738 -0.063054085
-0.2500633 -0.14097965 -0.069089532
-0.22589454 -0.1411643 -0.075085521
0.19969705 -0.14131749 -0.080061555
0.22372392 -0.14113793 -0.074228168
0.24784231 -0.14095762 -0.06837213
-0.27345577 -0.11740354 -0.072495818
-0.24917841 -0.11767472 -0.079539418
0.24698387 -0.11767413 -0.079523563
0.27118155 -0.11741464 -0.07278204
0.2957944 -0.11702537 -0.062670112
-0.32176626 -0.093316093 -0.063694
-0.29695544 -0.093806267 -0.074307561
0.29454491 -0.093893602 -0.076196194
0.31920707 -0.093427628 -0.066106677
-0.34524187 -0.069694981 -0.066058874
-0.32042742 -0.070236817 -0.07611692
0.31785646 -0.070424676 -0.079602599
0.34256938 -0.06988132 -0.069519639
-0.36837351 -0.046263799 -0.070920944
0.36590201 -0.046375453 -0.072734237
0.39083451 -0.045748726 -0.062558055
-0.41642228 -0.022239417 -0.066138506
-0.39143226 -0.022906587 -0.075767636
0.38918599 -0.022918627 -0.075942516
0.41416937 -0.022215068 -0.065787315
-0.4398441 0.0013282895 -0.068244815
0.41248155 0.00052464008 -0.078684449
0.4379285 0.0015322268 -0.065595746
-0.4640837 0.025331199 -0.064828873
-0.43854198 0.024287999 -0.077147603
0.4369173 0.024648309 -0.0728935
0.4359065 0.047652364 -0.080188155
-0.46270993 0.04824695 -0.073751569
0.46144539 0.048863202 -0.067080379
-0.48690316 0.072241396 -0.070523024
0.4603442 0.071832418 -0.07460916
-0.48717096 0.096115977 -0.068866491
0.46018171 0.095377207 -0.075720191
-0.4876326 0.12015465 -0.066010833
0.46033961 0.119158 -0.07464087
-0.48804331 0.14419854 -0.063470006
0.46049055 0.14294973 -0.073608518
-0.46191633 0.16592884 -0.078906178
0.46060681 0.16672608 -0.072813869
-0.46230429 0.18990952 -0.076386571
0.4607231 0.19051456 -0.072018981
-0.46269286 0.2139295 -0.073862672
0.46083945 0.21431559 -0.071223497
-0.46296695 0.237874 -0.0720824
0.46096516 0.23813868 -0.07036376
-0.46322173 0.26182577 -0.070427418
0.46109328 0.2619777 -0.069487929
-0.46347928 0.285806 -0.068754911
0.46119115 0.28579509 -0.068818569
-0.4637346 0.30980933 -0.067096353
0.46124712 0.30957216 -0.068436027
-0.46399266 0.3338415 -0.065419912
0.46130309 0.33335495 -0.068053365
-0.46424857 0.3578968 -0.063757777
0.46135908 0.35714388 -0.067670584
-0.43818519 0.37847674 -0.079586744
0.46141505 0.38093847 -0.067287683
-0.43842837 0.40244895 -0.077924132
0.46147108 0.40473914 -0.066904902
-0.43866953 0.42644334 -0.076275349
0.46152708 0.42854553 -0.066521883
0.43601611 0.44939828 -0.079396844
0.10578567 -0.23580842 -0.061245203
0.12978794 -0.23580837 -0.055146933
-0.18032871 -0.23580825 -0.046568751
-0.15610908 -0.23580825 -0.052861929
-0.13198677 -0.23580831 -0.059145808
0.15388671 -0.23580825 -0.048992276
-0.20393291 -0.21195848 -0.050557375
-0.1796965 -0.21200675 -0.056834459
0.15338589 -0.21202984 -0.059835315
0.17749406 -0.21198274 -0.053715229
0.20169798 -0.21193554 -0.047570825
-0.25204289 -0.1880341 -0.045711398
-0.22747646 -0.18816991 -0.054535866
-0.20322572 -0.1882658 -0.06076479
0.20102963 -0.18822974 -0.058423877
0.22524326 -0.18813549 -0.052298069
-0.27576423 -0.16418834 -0.047506332
-0.2509841 -0.16443573 -0.058215141
0.24881212 -0.16437939 -0.055773854
0.27348754 -0.16414315 -0.04554975
-0.29945329 -0.14037175 -0.049347401
-0.27460605 -0.14070113 -0.060043454
0.27232948 -0.14067596 -0.059225798
0.29705495 -0.14036192 -0.049024343
-0.32311425 -0.11658345 -0.051186085
-0.2982001 -0.1169946 -0.06186986
0.32057121 -0.11663309 -0.052475333
-0.34674713 -0.092823267 -0.053022742
0.34403345 -0.092957795 -0.055934668
0.36902234 -0.092485532 -0.045711398
-0.39524922 -0.068646267 -0.046601057
-0.37016788 -0.069171816 -0.056352496
0.36745259 -0.069331035 -0.059305906
0.39249945 -0.068777949 -0.049040556
-0.41844726 -0.045069307 -0.051524639
-0.39333069 -0.045669064 -0.061261296
0.41593462 -0.045116931 -0.052298307
-0.46687761 -0.020891368 -0.046681881
-0.44156939 -0.021568134 -0.056448817
0.43932059 -0.021505758 -0.055548906
0.46467739 -0.020773813 -0.044983387
-0.46546543 0.0022822171 -0.055854201
0.4635933 0.0025485456 -0.052394867
-0.48983371 0.026384145 -0.052394748
0.46251678 0.025760859 -0.059755087
0.48833597 0.026882887 -0.046503901
-0.5142566 0.05054006 -0.048927546
-0.48837969 0.049388885 -0.061389327
0.48719844 0.050081551 -0.053892255
-0.51354939 0.073984563 -0.053103566
0.4863798 0.073373377 -0.059209704
-0.51399696 0.0980995 -0.050460458
0.48654523 0.097272575 -0.058134913
-0.51443166 0.1222465 -0.047894001
0.48666883 0.12115663 -0.057332277
-0.51486701 0.1464335 -0.045323253
0.48679247 0.14505324 -0.056529164
-0.48845473 0.16828185 -0.060925126
0.48691618 0.16896233 -0.055725813
-0.48886684 0.19240513 -0.058375597
0.48703998 0.19288373 -0.054921746
-0.4892225 0.21651652 -0.056175709
0.48716873 0.21682233 -0.054085255
-0.48949283 0.2405805 -0.05450356
0.48730502 0.24078137 -0.053200006
-0.48976344 0.26467061 -0.052829742
0.48743892 0.26475126 -0.052330494
-0.4900369 0.28878945 -0.051137805
0.48757541 0.2887376 -0.051444173
-0.49030811 0.31293184 -0.049460173
0.48764238 0.31265759 -0.051008821
-0.49058217 0.33710331 -0.04776454
0.48770195 0.33657533 -0.050621867
-0.49089581 0.36134803 -0.045824647
0.48776159 0.3604992 -0.050234914
-0.46450478 0.38197803 -0.062093973
0.48782119 0.38442922 -0.049847603
-0.4647859 0.40611845 -0.060267925
0.48788083 0.40836483 -0.049460411
-0.46508959 0.43031871 -0.058295608
0.48794046 0.43230659 -0.049072981
-0.20538631 -0.25981963 -0.029579163
-0.18096612 -0.25976852 -0.036218166
-0.15666369 -0.25971967 -0.042569757
-0.13274863 -0.25971898 -0.042650819
-0.10883795 -0.25971898 -0.042650819
-0.084927261 -0.25971898 -0.042650819
-0.061016571 -0.25971898 -0.042650819
-0.037105884 -0.25971898 -0.042650819
-0.013195198 -0.25971898 -0.042650819
0.010715488 -0.25971898 -0.042650819
0.034626175 -0.25971898 -0.042650819
0.058536861 -0.25971898 -0.042650819
0.082447544 -0.25971898 -0.042650819
0.10635823 -0.25971898 -0.042650819
0.13026893 -0.25971898 -0.042650819
0.15439105 -0.25975421 -0.038072824
0.17867231 -0.25980213 -0.031849742
-0.22926053 -0.23580821 -0.03136003
-0.20464815 -0.23580831 -0.040233612
0.17808068 -0.23580831 -0.042829037
0.20240714 -0.23580831 -0.036055565
-0.25310889 -0.21182437 -0.033122301
-0.22829035 -0.21190773 -0.043963194
0.2261534 -0.21187073 -0.039161801
0.25089532 -0.21179032 -0.02871263
-0.2769303 -0.18786739 -0.034883022
0.2498523 -0.18798098 -0.042261481
0.27464902 -0.18782049 -0.03183341
-0.30071667 -0.16393931 -0.036722779
0.29832667 -0.16390559 -0.035257578
-0.34966949 -0.1397057 -0.02771461
-0.32447493 -0.14003968 -0.03856039
0.32194585 -0.14004508 -0.038739324
0.34700072 -0.13972679 -0.028401971
-0.37346548 -0.11575179 -0.029579043
-0.3482033 -0.11616875 -0.040412068
0.34551051 -0.11623869 -0.042229176
0.3706173 -0.11584102 -0.031898737
-0.39718607 -0.091843054 -0.031800747
-0.37190342 -0.092326269 -0.04226172
0.39417902 -0.09200947 -0.035404325
-0.42048925 -0.068117499 -0.036787868
0.4177154 -0.068220049 -0.038690448
0.4430981 -0.067659616 -0.028287292
-0.46932456 -0.043792456 -0.030788302
-0.44372037 -0.044466853 -0.041742802
0.44119996 -0.044481859 -0.041985989
0.46683475 -0.043758065 -0.030233026
-0.49325794 -0.019819751 -0.031213164
-0.49129623 0.0032448322 -0.043347716
0.48966157 0.0036646426 -0.037893891
-0.51601785 0.027558297 -0.038527846
0.5152809 0.028487831 -0.027551055
-0.54125828 0.052178055 -0.031196833
0.51346433 0.051476717 -0.038787961
-0.54100978 0.076036364 -0.032600522
0.51299453 0.07512635 -0.041694045
-0.54109067 0.1000737 -0.032143712
0.51312566 0.099131823 -0.040882826
-0.5415504 0.12436512 -0.029546499
0.51325685 0.12314981 -0.040071368
0.51338816 0.14718047 -0.039259076
-0.51530313 0.17066059 -0.042747974
0.51351953 0.1712234 -0.038446665
-0.51573998 0.19492793 -0.040168524
0.51365095 0.19527936 -0.037633777
-0.51603711 0.21911427 -0.038414121
0.51379555 0.21935952 -0.036738992
-0.51632357 0.24331808 -0.036722898
0.51393765 0.24345082 -0.035860062
-0.51661307 0.26755077 -0.035013199
0.51407981 0.26755607 -0.034980774
-0.51691115 0.2918182 -0.033252954
0.51422471 0.29167742 -0.03408432
-0.51725113 0.31615674 -0.031245947
0.51433802 0.31577837 -0.033383369
-0.51759428 0.3405295 -0.029219508
0.51440132 0.33983266 -0.032991886
-0.5179351 0.36493093 -0.027207136
0.51446462 0.36389297 -0.032600403
-0.49122036 0.38563591 -0.04381752
0.51453054 0.38796264 -0.032192469
-0.49154264 0.40995204 -0.041823745
0.5145939 0.41203529 -0.031800747
-0.23024245 -0.25990412 -0.018604636
0.20324488 -0.25987446 -0.022452116
0.22805083 -0.25995672 -0.01177454
-0.25418362 -0.23580842 -0.020430923
0.22709395 -0.23580837 -0.025585413
-0.27928203 -0.23580825 -0.0094249249
0.25194746 -0.23580831 -0.015044808
-0.30326796 -0.21165574 -0.0112288
-0.27810135 -0.21174027 -0.02220583
0.27580404 -0.21170929 -0.018193245
-0.32722455 -0.18753119 -0.013047218
-0.30199039 -0.18769971 -0.023995042
0.29960975 -0.18765916 -0.021368027
0.32473204 -0.18749809 -0.010897994
-0.35114771 -0.16343565 -0.014912844
-0.32584503 -0.16368821 -0.025847673
0.32333273 -0.1636658 -0.024880528
0.34850428 -0.16342497 -0.014450788
-0.37504038 -0.13936934 -0.016792893
0.37222463 -0.13940588 -0.017978907
-0.39890438 -0.11533196 -0.01867044
0.39588961 -0.11544149 -0.021515727
-0.42255306 -0.091385439 -0.02189374
0.4195098 -0.091528013 -0.024979115
0.44548473 -0.090885222 -0.011063457
-0.47224429 -0.066772401 -0.011824131
-0.44593978 -0.067567006 -0.026568532
0.46940157 -0.06681855 -0.01268363
-0.49570364 -0.042886823 -0.016083956
0.4932963 -0.042776033 -0.014285684
-0.52060467 -0.018450111 -0.011443853
0.49139261 -0.019503564 -0.02665031
-0.51830131 0.0046538413 -0.02504456
0.51711065 0.005332157 -0.016232491
-0.54344112 0.029223055 -0.018868089
0.54202169 0.053995103 -0.011526465
0.54135036 0.077748626 -0.015490294
0.54067802 0.10144046 -0.01946044
0.54014355 0.1251654 -0.022616267
-0.54200816 0.14869517 -0.026961446
0.54028261 0.1493313 -0.021795034
-0.54246944 0.17306754 -0.024355769
0.54042172 0.17351019 -0.020973325
-0.5428589 0.19742382 -0.022156477
0.54056656 0.1977061 -0.020118356
-0.54316145 0.22174218 -0.020447373
0.54071975 0.22192279 -0.019213676
-0.54349649 0.24611518 -0.018555403
0.54087031 0.24615064 -0.018324852
-0.54385817 0.27054149 -0.016512632
0.54102373 0.27039492 -0.017418981
-0.54421735 0.29499686 -0.01448369
0.54117441 0.29465061 -0.016529083
-0.54457998 0.31948709 -0.012435794
0.54132807 0.31892288 -0.01562202
-0.54494017 0.34400636 -0.010401487
0.54140621 0.34312701 -0.015160441
0.54147613 0.36732882 -0.014747858
-0.51827908 0.38936704 -0.025175691
0.54154319 0.39153349 -0.014351726
-0.51862359 0.41383499 -0.023141623
-0.2563991 -0.28437459 0.0057328939
-0.23146902 -0.28424519 -0.0026711226
-0.20725057 -0.28424519 -0.0026711226
-0.18303211 -0.28424519 -0.0026711226
-0.15881367 -0.28424519 -0.0026711226
-0.13459522 -0.28424519 -0.0026711226
-0.11037676 -0.28424519 -0.0026711226
-0.086158305 -0.28424519 -0.0026711226
-0.061939862 -0.28424519 -0.0026711226
-0.03772141 -0.28424519 -0.0026711226
-0.013502961 -0.28424519 -0.0026711226
0.010715488 -0.28424519 -0.0026711226
0.03493394 -0.28424519 -0.0026711226
0.059152387 -0.28424519 -0.0026711226
0.083370835 -0.28424519 -0.0026711226
0.10758929 -0.28424519 -0.0026711226
0.13180774 -0.28424519 -0.0026711226
0.15602618 -0.28424519 -0.0026711226
0.18024464 -0.28424519 -0.0026711226
0.20446308 -0.28424519 -0.0026711226
0.2290289 -0.28432241 0.0023425817
-0.28049856 -0.26007608 0.0037447214
-0.25528112 -0.25998986 -0.0074697733
0.25302681 -0.26003945 -0.0010237694
-0.30456936 -0.23580825 0.0017755032
0.27697489 -0.23580825 -0.0043662786
0.30217808 -0.23580831 0.0064352751
-0.32861367 -0.21157053 -0.0001578331
0.30088288 -0.21162772 -0.0075857639
0.32613057 -0.21154553 0.0030767918
-0.35263619 -0.18736139 -0.0020223856
0.3500213 -0.18733607 -0.00037419796
-0.37662822 -0.16318139 -0.0039010048
0.37384444 -0.1631825 -0.0039509535
-0.40083283 -0.13897341 -0.0039342642
0.39772379 -0.13905621 -0.0066239834
-0.42505077 -0.11476212 -0.0038678646
0.42157778 -0.11496643 -0.0091766119
0.44794649 -0.11435519 0.0067028999
-0.47519982 -0.090033785 0.0073723793
-0.44872352 -0.090722352 -0.0075359344
0.47199985 -0.090139449 0.0050811768
-0.49879843 -0.065970227 0.0030601025
0.49602598 -0.065949559 0.0034440756
-0.52289152 -0.041769445 0.0020591021
0.52077508 -0.041500017 0.0064353943
0.51895368 -0.017991975 -0.0048315525
-0.54585874 0.0061803609 -0.0052134991
0.54494184 0.0070217997 0.0057160854
-0.57134885 0.03097102 0.0017756224
0.54299802 0.030332983 -0.0057611465
-0.57099164 0.055045187 -0.0001578331
-0.57071173 0.079131335 -0.001672864
-0.57049048 0.10322851 -0.0028705597
-0.57026631 0.12730527 -0.0040838718
0.56919521 0.12841758 0.0055490732
-0.57004535 0.15136543 -0.0052797794
0.5684858 0.15220571 0.0015419722
-0.56996256 0.17550528 -0.0057280064
0.56779289 0.17594451 -0.0023716688
-0.57033384 0.19997856 -0.0037183762
0.56778991 0.20016298 -0.0023881197
-0.57071483 0.22449052 -0.0016562939
0.56794894 0.2245149 -0.0014897585
-0.5710932 0.24903232 0.00039207935
0.56811106 0.2488834 -0.00057411194
-0.57147515 0.27360857 0.0024595261
0.56827039 0.27326345 0.00032532215
-0.57185769 0.298217 0.0045295954
0.56843263 0.29766035 0.0012419224
-0.57223755 0.32285494 0.0065857172
0.56859207 0.32206815 0.0021423101
0.56872505 0.34646243 0.0028933287
-0.5453037 0.36856025 -0.0083481073
0.56879598 0.37080091 0.0032939911
-0.54566479 0.39314324 -0.006308794
0.56886691 0.39514542 0.0036945343
-0.28172693 -0.28454867 0.017042041
0.25412104 -0.28448945 0.013190508
0.27950972 -0.28467998 0.025568724
-0.30589673 -0.26016319 0.015039444
0.27817595 -0.26012295 0.0098178387
0.30367681 -0.26022169 0.022659302
-0.33009753 -0.23580825 0.013610601
0.32779965 -0.23580825 0.019755363
-0.35434818 -0.21147078 0.01280427
0.35188016 -0.21143939 0.016873598
-0.378692 -0.1871324 0.012854576
0.37594992 -0.18711036 0.014282823
-0.40303874 -0.16279286 0.01292181
0.39998028 -0.16282114 0.011696219
-0.42738888 -0.13845178 0.013005733
0.42397356 -0.13857114 0.0091307163
0.45048553 -0.1380816 0.025027275
-0.45153648 -0.11416315 0.011696339
0.47462532 -0.11372678 0.023031235
-0.50193131 -0.089337811 0.022439718
0.49878931 -0.08938624 0.021392584
-0.5256058 -0.065160662 0.018086433
0.52292567 -0.065071747 0.019738674
-0.55072194 -0.040525734 0.022253752
-0.54829758 -0.017064109 0.0085611343
0.54689986 -0.016460061 0.017277718
-0.57377142 0.007727921 0.014888287
0.57205725 0.032659501 0.021713495
0.5713405 0.056691617 0.017665267
0.57062256 0.080660909 0.013610601
0.56990945 0.10457066 0.0095832348
-0.60030109 0.15524244 0.026195288
-0.60026526 0.17965856 0.026009083
-0.60015118 0.20401561 0.025416374
0.59706622 0.20395467 0.024976373
-0.59997529 0.22831661 0.024502516
0.59656948 0.22799268 0.022287726
-0.59979951 0.25260362 0.023589253
0.59607667 0.25199258 0.019620538
-0.59962386 0.27687681 0.022676229
0.59582752 0.27616471 0.018271923
-0.59983212 0.3014735 0.023758292
0.59599882 0.30070138 0.019198895
-0.60023594 0.32626688 0.025856614
0.59616709 0.32524949 0.020109773
-0.57262105 0.34752822 0.0086616278
0.59633857 0.34981471 0.021038055
-0.57300192 0.37223077 0.010723114
0.59643221 0.37431318 0.021544576
-0.28369385 -0.30941063 0.03833437
-0.25915971 -0.30941063 0.03833437
-0.23462562 -0.30941063 0.03833437
-0.2100915 -0.30941063 0.03833437
-0.18555741 -0.30941063 0.03833437
-0.16102329 -0.30941063 0.03833437
-0.13648918 -0.30941063 0.03833437
-0.11195506 -0.30941063 0.03833437
-0.087420955 -0.30941063 0.03833437
-0.062886849 -0.30941063 0.03833437
-0.038352732 -0.30941063 0.03833437
-0.013818622 -0.30941063 0.03833437
0.010715488 -0.30941063 0.03833437
0.035249598 -0.30941063 0.03833437
0.059783708 -0.30941063 0.03833437
0.084317818 -0.30941063 0.03833437
0.10885192 -0.30941063 0.03833437
0.13338605 -0.30941063 0.03833437
0.15792015 -0.30941063 0.03833437
0.18245426 -0.30941063 0.03833437
0.20698838 -0.30941063 0.03833437
0.23152247 -0.30941063 0.03833437
0.25605661 -0.30941063 0.03833437
-0.30759555 -0.28477925 0.032015085
0.30541676 -0.28492525 0.041494846
-0.33199129 -0.26028734 0.031182528
0.3296811 -0.26034412 0.038556218
-0.3563762 -0.23580837 0.030367255
0.35390082 -0.23580831 0.035622954
-0.3807925 -0.2113391 0.029908895
0.37809366 -0.21131648 0.032848477
-0.40527067 -0.18686883 0.029976845
0.40226319 -0.18686482 0.030231237
-0.42975217 -0.16239698 0.030061483
0.42639524 -0.16245303 0.027635455
0.45307562 -0.16208161 0.043719411
-0.45423502 -0.13792402 0.03014636
0.47727579 -0.13758513 0.041152835
-0.50510019 -0.11299502 0.042042017
-0.4781917 -0.11358152 0.026805043
0.50157905 -0.11309244 0.039512277
-0.52891934 -0.088635176 0.037651777
0.52585733 -0.08862488 0.037873745
-0.55315232 -0.064196363 0.03598094
0.55077827 -0.063970119 0.040178537
-0.57891148 -0.03926599 0.042709112
0.54883784 -0.040127426 0.028720856
-0.57634896 -0.015659168 0.028839707
0.57524484 -0.014905572 0.039717317
-0.60208267 0.0093110055 0.035452724
0.57316881 0.008736521 0.027991772
-0.60170257 0.033655584 0.033477902
-0.60132301 0.057970166 0.031505346
-0.60100591 0.082286805 0.029857874
0.60040885 0.083608866 0.043068886
-0.60077083 0.1066241 0.028636098
0.59961295 0.10771525 0.03876102
-0.60053587 0.13094231 0.027415276
0.59881926 0.13175654 0.034464955
0.59805906 0.15575409 0.030350089
0.5975638 0.17987582 0.027669549
0.62475872 0.32911146 0.041922331
-0.60063702 0.35109013 0.027940869
0.62423903 0.35317427 0.039222121
-0.60104191 0.37594897 0.030044556
0.6243903 0.37786633 0.04000771
-0.30940217 -0.30968165 0.050068021
0.28112647 -0.30955678 0.044661522
0.30720943 -0.3099319 0.060901165
-0.33390805 -0.28504026 0.048968077
0.33159366 -0.28517413 0.057667732
-0.35842687 -0.26041776 0.04812634
0.35594928 -0.26046792 0.054630399
-0.38293484 -0.23580842 0.047302365
0.38026673 -0.23580825 0.051667571
-0.40752903 -0.21120568 0.047233701
0.4045752 -0.21119215 0.049002409
-0.43214113 -0.186602 0.047302365
0.42884547 -0.18661658 0.046358705
-0.45675433 -0.16199729 0.047371149
0.48002756 -0.16170636 0.059966803
-0.48121536 -0.13742216 0.046444416
0.50440085 -0.13707127 0.057840347
-0.53227115 -0.11240224 0.057443261
0.52881712 -0.11245076 0.056182981
-0.55616754 -0.087925836 0.053010583
0.55320823 -0.087855741 0.054527164
-0.58148038 -0.063084647 0.056614399
0.57729977 -0.038735554 0.051323414
-0.60475975 -0.014237255 0.049363256
0.60273606 0.010866866 0.055665255
0.60196888 0.035182834 0.051512837
0.60120684 0.059437335 0.047387958
-0.63166732 0.11009005 0.060797453
-0.63141453 0.13465133 0.059534431
-0.63137645 0.15932527 0.059344172
0.62843454 0.15953186 0.061022401
-0.63134181 0.18399832 0.059171319
0.62790537 0.18388075 0.058272362
-0.63130379 0.20866671 0.058981061
0.62738031 0.20819038 0.055544376
-0.63111353 0.23322055 0.058030605
0.62685287 0.23245606 0.052803993
-0.63092685 0.25776276 0.057097793
0.62632966 0.25668296 0.050084949
-0.63074028 0.28229064 0.056165576
0.62580401 0.28086621 0.047353983
-0.63055378 0.30680418 0.055234075
0.62528259 0.30501074 0.044644356
-0.63036746 0.33130336 0.054302931
-0.63017774 0.35578549 0.053355098
-0.33588761 -0.31008044 0.067335844
0.33355907 -0.31031069 0.077306986
-0.36051658 -0.28530595 0.06622386
0.35803926 -0.28542596 0.074022889
-0.38514778 -0.26054969 0.065269113
0.38248372 -0.26059285 0.070867538
-0.409812 -0.23580831 0.064679146
0.40691465 -0.23580825 0.067996264
-0.43455854 -0.21107084 0.064748645
0.43132472 -0.2110666 0.065303802
-0.45930615 -0.1863324 0.064818025
0.45569637 -0.18636602 0.062633157
0.48282483 -0.18611261 0.079091549
-0.4840548 -0.16159281 0.064887404
0.507258 -0.16132692 0.076398134
-0.53566188 -0.13646695 0.077464461
-0.50830847 -0.13694672 0.061888218
0.53181118 -0.1365519 0.074703813
-0.55970562 -0.11180375 0.072993755
0.55634159 -0.11180242 0.073028564
-0.58407187 -0.087111413 0.07064116
0.58143008 -0.086926237 0.07465148
-0.61017799 -0.061958075 0.077516913
0.57935745 -0.062743425 0.062945008
-0.607467 -0.037989974 0.063430309
0.60616958 -0.037323684 0.074249983
-0.63353992 -0.01279673 0.070153594
0.60399139 -0.013329789 0.062459826
-0.63307333 0.011802778 0.067822456
-0.63267004 0.036393255 0.065807223
-0.63226718 0.060952842 0.063794613
0.63146424 0.062151045 0.07676506
-0.63191682 0.085507751 0.062044024
0.63061762 0.086540759 0.072365999
0.62977332 0.11086401 0.067978978
0.62896132 0.13513929 0.063759923
0.65666175 0.28591758 0.078601718
0.65614724 0.31032622 0.076031089
0.65563011 0.33469301 0.073447227
-0.33788812 -0.33540937 0.08589828
-0.3124364 -0.33523965 0.080387473
-0.28757855 -0.33523965 0.080387473
-0.2627207 -0.33523965 0.080387473
-0.23786288 -0.33523965 0.080387473
-0.21300504 -0.33523965 0.080387473
-0.18814722 -0.33523965 0.080387473
-0.16328937 -0.33523965 0.080387473
-0.13843153 -0.33523965 0.080387473
-0.1135737 -0.33523965 0.080387473
-0.088715866 -0.33523965 0.080387473
-0.063858017 -0.33523965 0.080387473
-0.039000187 -0.33523965 0.080387473
-0.014142349 -0.33523965 0.080387473
0.010715488 -0.33523965 0.080387473
0.035573326 -0.33523965 0.080387473
0.060431164 -0.33523965 0.080387473
0.085289001 -0.33523965 0.080387473
0.11014684 -0.33523965 0.080387473
0.13500467 -0.33523965 0.080387473
0.1598625 -0.33523965 0.080387473
0.18472034 -0.33523965 0.080387473
0.20957819 -0.33523965 0.080387473
0.23443601 -0.33523965 0.080387473
0.25929385 -0.33523965 0.080387473
0.28415167 -0.33523965 0.080387473
0.30902895 -0.33524609 0.080597878
-0.36266053 -0.31048355 0.084791183
0.36030897 -0.31072116 0.095083237
-0.38741383 -0.28557453 0.083667278
0.38475806 -0.28568062 0.090563536
-0.41215453 -0.26068312 0.082579136
0.40928638 -0.26071903 0.087252498
-0.43700007 -0.23580842 0.082368493
0.43383589 -0.23580825 0.084492445
-0.4618834 -0.21093471 0.082438827
0.45835087 -0.21093969 0.08178997
-0.48676783 -0.18605995 0.082508922
-0.51155412 -0.1611983 0.081965089
0.5603283 -0.13587865 0.096569061
-0.58817959 -0.11103842 0.092874885
0.58509773 -0.11094253 0.095366001
0.60897845 -0.061315015 0.08945322
-0.63656455 -0.036645308 0.085265398
0.63421816 -0.011347443 0.091074944
0.63316441 0.01317136 0.085599422
0.63231319 0.037694752 0.081176281
-0.66384977 0.063998401 0.09676373
-0.66345644 0.088792861 0.094871283
-0.66319197 0.11362517 0.093598843
-0.66314799 0.13856024 0.093386889
0.65996057 0.13875616 0.095083475
-0.66311491 0.16349867 0.093228102
0.65940189 0.16338322 0.092292309
-0.66307819 0.1884321 0.093051314
0.65884072 0.18796587 0.089488506
-0.66304523 0.21336544 0.092892528
0.65828055 0.21250597 0.086689472
-0.66292048 0.23823184 0.092292309
0.65772486 0.2370061 0.083912969
-0.66271871 0.2630319 0.091321945
0.65717709 0.2614699 0.081176162
-0.66252083 0.28781986 0.090369701
-0.662323 0.3125934 0.089418054
-0.66212535 0.3373524 0.088466883
-0.36543164 -0.33611417 0.10878956
0.33579513 -0.33583283 0.099651098
-0.39030838 -0.31100029 0.10716784
-0.41516036 -0.28591138 0.10554779
0.41251087 -0.2860328 0.11343193
-0.44007385 -0.26085213 0.10455179
0.43709493 -0.26088944 0.10939598
-0.46524781 -0.23580837 0.10544121
0.46173409 -0.23580825 0.10620642
-0.49043548 -0.21075082 0.10633099
0.48632509 -0.21077624 0.10302329
-0.51563698 -0.18567957 0.10722148
0.51087075 -0.18579279 0.099863648
-0.54005057 -0.1607039 0.10337865
0.53553766 -0.16083372 0.097755194
-0.56415558 -0.13583088 0.098127127
-0.61431146 -0.085801929 0.098995328
0.61274529 -0.085300863 0.10984194
-0.64116579 -0.06030187 0.10825491
0.63716108 -0.035345659 0.10636663
-0.66729563 -0.0098046362 0.1133424
-0.66488874 0.014415503 0.10176229
-0.66427678 0.039188594 0.098817945
0.66322887 0.040254921 0.11141264
0.662283 0.06491527 0.10668719
0.66138613 0.0895271 0.10220611
0.66052365 0.11408839 0.097896934
0.68890876 0.26655692 0.11421871
0.6883626 0.29125047 0.11159122
0.68781364 0.31590128 0.10895026
-0.3419418 -0.3617574 0.12351167
-0.31675199 -0.3617574 0.12351167
-0.29156217 -0.3617574 0.12351167
-0.26637238 -0.3617574 0.12351167
-0.24118257 -0.3617574 0.12351167
-0.21599275 -0.3617574 0.12351167
-0.19080295 -0.3617574 0.12351167
-0.16561316 -0.3617574 0.12351167
-0.14042334 -0.3617574 0.12351167
-0.11523354 -0.3617574 0.12351167
-0.090043724 -0.3617574 0.12351167
-0.064853922 -0.3617574 0.12351167
-0.039664119 -0.3617574 0.12351167
-0.014474316 -0.3617574 0.12351167
0.010715488 -0.3617574 0.12351167
0.035905294 -0.3617574 0.12351167
0.061095096 -0.3617574 0.12351167
0.086284906 -0.3617574 0.12351167
0.11147471 -0.3617574 0.12351167
0.13666451 -0.3617574 0.12351167
0.16185431 -0.3617574 0.12351167
0.18704413 -0.3617574 0.12351167
0.21223392 -0.3617574 0.12351167
0.23742372 -0.3617574 0.12351167
0.26261353 -0.3617574 0.12351167
0.28780335 -0.3617574 0.12351167
0.31299314 -0.3617574 0.12351167
0.33859214 -0.36191481 0.12760067
0.36328748 -0.33654314 0.12272024
-0.41865611 -0.31157979 0.13226056
0.38793415 -0.31125212 0.11806965
-0.44368532 -0.28629735 0.13061559
-0.46901444 -0.26105723 0.13119376
0.4903053 -0.23580842 0.13023615
-0.49440253 -0.23580831 0.13209772
0.51504952 -0.21059164 0.12700558
-0.54477346 -0.18530938 0.13126612
0.53980905 -0.18541838 0.12417734
-0.56907398 -0.16018364 0.12590623
0.56479675 -0.16025177 0.12295413
-0.59329849 -0.13513935 0.12058187
0.58976901 -0.13510334 0.12174952
-0.61875623 -0.109914 0.12209117
0.61655986 -0.10959071 0.13048887
-0.64583665 -0.084296241 0.13159132
0.64112955 -0.059292287 0.12698758
-0.6698246 -0.034166798 0.12550986
0.66625953 0.016323984 0.12655497
-0.69565153 0.092147708 0.12839448
-0.69560486 0.11735189 0.12817788
0.69221157 0.11755988 0.13010955
-0.69556594 0.14255676 0.1279974
0.69166011 0.14249429 0.12745643
-0.69553095 0.167761 0.12783527
0.69110954 0.16738811 0.12480736
-0.69549209 0.19296038 0.12765491
0.69055617 0.19223952 0.12214482
-0.6954571 0.21815962 0.12749255
0.69000733 0.21705306 0.11950457
0.68945575 0.2418237 0.11685073
-0.69541043 0.24334857 0.12727594
-0.69520062 0.26841748 0.1263026
-0.69498706 0.29346865 0.12531161
-0.69477749 0.31850749 0.12433934
-0.3685537 -0.36223131 0.13582754
-0.39360851 -0.33688933 0.13396156
0.3911773 -0.33726481 0.14615583
0.41595364 -0.31179056 0.14138377
0.44067019 -0.28639126 0.13671589
0.46551222 -0.26107472 0.1334728
-0.51980466 -0.21054539 0.13300228
0.56934154 -0.18502414 0.14978969
-0.59850234 -0.15965608 0.14874804
0.59451365 -0.15966068 0.14854705
-0.62323308 -0.13437667 0.14535344
0.64514863 -0.083544448 0.14787149
-0.67305583 -0.058534309 0.14105642
0.66932213 -0.0078290552 0.14185655
-0.6999166 0.043368548 0.14818168
-0.69736701 0.067655593 0.13635349
0.6957705 0.068660587 0.14723253
0.69276768 0.092587233 0.1327852
0.72129637 0.27174938 0.14794445
0.72071433 0.29669082 0.14524388
-0.37224591 -0.38899291 0.16780305
-0.34671515 -0.38899291 0.16780305
-0.3211844 -0.38899291 0.16780305
-0.29565364 -0.38899291 0.16780305
-0.27012289 -0.38899291 0.16780305
-0.2445921 -0.38899291 0.16780305
-0.21906134 -0.38899291 0.16780305
-0.1935306 -0.38899291 0.16780305
-0.16799983 -0.38899291 0.16780305
-0.14246908 -0.38899291 0.16780305
-0.11693831 -0.38899291 0.16780305
-0.091407552 -0.38899291 0.16780305
-0.065876797 -0.38899291 0.16780305
-0.040346034 -0.38899291 0.16780305
-0.014815273 -0.38899291 0.16780305
0.010715488 -0.38899291 0.16780305
0.036246248 -0.38899291 0.16780305
0.061777011 -0.38899291 0.16780305
0.087307766 -0.38899291 0.16780305
0.11283854 -0.38899291 0.16780305
0.13836928 -0.38899291 0.16780305
0.16390005 -0.38899291 0.16780305
0.1894308 -0.38899291 0.16780305
0.21496157 -0.38899291 0.16780305
0.24049231 -0.38899291 0.16780305
0.26602307 -0.38899291 0.16780305
0.29155385 -0.38899291 0.16780305
0.31708461 -0.38899291 0.16780305
0.34261537 -0.38899291 0.16780305
-0.39699286 -0.36321723 0.16143918
0.36634672 -0.36281952 0.15110648
-0.42222419 -0.33767653 0.15952563
-0.44744423 -0.31216836 0.15774298
0.44437593 -0.31233665 0.16503298
-0.47284114 -0.28670895 0.1573571
0.46935421 -0.2867682 0.16119993
-0.49843287 -0.26126575 0.15827572
