ply
format ascii 1.0
comment PCL generated
element vertex 1366
property float x
property float y
property float z
element camera 0
property float view_px
property float view_py
property float view_pz
property float x_axisx
property float x_axisy
property float x_axisz
property float y_axisx
property float y_axisy
property float y_axisz
property float z_axisx
property float z_axisy
property float z_axisz
property float focal
property float scalex
property float scaley
property float centerx
property float centery
property int viewportx
property int viewporty
property float k1
property float k2
end_header
0.41860858 -0.31973666 -0.63230777
-0.1163696 -0.45135534 -0.60142303
-0.094487265 -0.45044768 -0.60928285
-0.072726861 -0.4495436 -0.61711252
0.077487074 -0.44954693 -0.61708438
0.099187002 -0.45044941 -0.60926855
0.12100948 -0.45135868 -0.60139465
-0.20266703 -0.4297449 -0.6017071
0.20731586 -0.42975706 -0.60159349
-0.30891421 -0.38527679 -0.61591852
0.31367517 -0.38528591 -0.61581993
-0.35216549 -0.3640123 -0.61351275
0.35693547 -0.36403856 -0.61320317
-0.46164429 -0.30029574 -0.60143733
-0.69737262 -0.084598556 -0.60792637
0.70206153 -0.084598556 -0.60792637
-0.13837534 -0.45226794 -0.59351921
0.1429546 -0.45227122 -0.5934906
-0.26811361 -0.40888089 -0.59457552
0.2727102 -0.40889233 -0.5944612
0.46633369 -0.30031487 -0.60112488
-0.0086745648 -0.47619992 -0.57491636
0.013109301 -0.47620165 -0.57490194
-0.16083784 -0.4538089 -0.58017421
0.16531926 -0.4538222 -0.58005881
-0.22668368 -0.43284917 -0.57290363
0.23111182 -0.43286163 -0.57278764
-0.39975175 -0.34495324 -0.58197534
0.40428668 -0.34497881 -0.58164406
-0.72832322 -0.062237501 -0.57193232
0.73273498 -0.062237501 -0.57193232
-0.052615713 -0.47819138 -0.55874705
-0.030582663 -0.47719371 -0.56684768
0.034955394 -0.47719544 -0.56683302
0.056926198 -0.47819322 -0.55873263
-0.2928631 -0.41177523 -0.56565368
0.2972382 -0.41178685 -0.56553733
-0.33700636 -0.39024478 -0.5621388
0.34138149 -0.39027578 -0.56180298
-0.70827788 -0.062077381 -0.56499791
0.71255374 -0.0620851 -0.56533325
-0.097061329 -0.48020411 -0.54240692
-0.074774906 -0.47919488 -0.55060029
0.079023138 -0.47919852 -0.55057096
0.10124672 -0.48020774 -0.54237723
-0.18460673 -0.45718467 -0.55093884
0.18886411 -0.4571982 -0.55082119
-0.2511963 -0.43601453 -0.54353166
0.25539947 -0.43602741 -0.54341316
-0.44843754 -0.32546386 -0.54964316
0.45272988 -0.32548732 -0.54930425
-0.6713506 -0.10557865 -0.53653181
0.67541438 -0.10558119 -0.5368588
-0.6899063 -0.083719537 -0.55083585
0.69407845 -0.083724558 -0.5511595
-0.14202107 -0.48224175 -0.52586281
-0.11947676 -0.48122084 -0.5341512
0.12359884 -0.4812246 -0.53412127
0.14607957 -0.48224545 -0.52583265
-0.20887393 -0.46063292 -0.52107692
0.21290253 -0.46064675 -0.52095687
-0.38530201 -0.37113154 -0.5294379
0.38942966 -0.37115943 -0.52910912
-0.60865432 -0.17206976 -0.52009988
0.61179012 -0.17200483 -0.52431929
0.65656561 -0.12765813 -0.52239871
-0.65260792 -0.12765802 -0.52208352
-0.73797405 -0.039295234 -0.53505921
0.74210203 -0.039295234 -0.53505921
0.013109301 -0.50695872 -0.50633574
-0.0092023825 -0.5069567 -0.50635087
-0.27622429 -0.43924797 -0.5135287
0.28019619 -0.43925935 -0.51342309
-0.32127875 -0.41746092 -0.5088383
0.32524237 -0.41749591 -0.50848973
-0.63367885 -0.14996102 -0.50747383
0.63752258 -0.14995852 -0.50780725
-0.054217543 -0.50917685 -0.48938596
-0.0316444 -0.50806445 -0.49788547
0.035486151 -0.50806445 -0.49788547
0.057994097 -0.5091787 -0.4893707
-0.16588107 -0.4856388 -0.49828255
0.16973244 -0.48565376 -0.49816048
-0.23365438 -0.46415395 -0.49058354
0.23744819 -0.46416634 -0.49047601
-0.43473592 -0.35158062 -0.49588382
0.43861365 -0.35160771 -0.49553216
-0.72640669 -0.038019791 -0.49363434
0.73013282 -0.038030066 -0.49397111
-0.74787551 -0.015748486 -0.49722886
0.75171226 -0.015748486 -0.49722886
-0.099762157 -0.51142108 -0.47223699
-0.076923065 -0.51029569 -0.48083663
0.080633938 -0.51029766 -0.48082125
0.10340744 -0.51142508 -0.47220612
-0.37030217 -0.39830142 -0.47492301
0.3740111 -0.39833438 -0.47456634
-0.70766383 -0.060085513 -0.47874963
0.71127707 -0.060093425 -0.47908986
-0.122736 -0.5125531 -0.46358681
0.12631492 -0.51255715 -0.46355546
-0.19040014 -0.48945266 -0.46731806
0.19401425 -0.48946792 -0.46719337
-0.25896162 -0.46774673 -0.45946968
0.26251826 -0.4677611 -0.45934439
-0.30495176 -0.44571906 -0.45348501
0.30848637 -0.44575638 -0.45313871
-0.68872821 -0.082378149 -0.46371174
0.69223112 -0.082383156 -0.46404004
-0.78074771 0.0084317178 -0.45829344
0.78428471 0.0084317178 -0.45829344
-0.14645053 -0.5151605 -0.44366217
0.14988072 -0.51517713 -0.44353545
-0.66959697 -0.10490119 -0.44851875
0.67298472 -0.1049037 -0.44885015
-0.032759029 -0.54047298 -0.42548835
0.036043465 -0.54047298 -0.42548835
-0.0097564152 -0.53924096 -0.43437982
0.013109301 -0.53924316 -0.43436396
-0.2154485 -0.49335057 -0.43567073
0.21882014 -0.49336618 -0.43554342
-0.65026706 -0.12765802 -0.43316758
0.65353853 -0.12765802 -0.43350267
-0.76440018 0.0095496476 -0.43409288
0.76765776 0.0095325857 -0.43445945
-0.10230781 -0.54315966 -0.40609908
-0.079102963 -0.54261327 -0.41004241
-0.0558994 -0.54171026 -0.41655958
0.059115347 -0.5417124 -0.41654348
0.082268879 -0.54261553 -0.41002631
0.10544349 -0.54316193 -0.40608299
-0.17122544 -0.51936936 -0.41150045
0.17440918 -0.51938635 -0.41137087
-0.24104246 -0.49733335 -0.40333426
-0.35472652 -0.42652464 -0.41826892
0.35799819 -0.42656177 -0.4178983
-0.6307354 -0.1506525 -0.4176563
0.6338926 -0.15065004 -0.417979
-0.74547017 -0.01272171 -0.41859126
0.74861425 -0.012735322 -0.41894579
-0.79150116 0.033264026 -0.41838181
0.79473096 0.033264026 -0.41838181
-0.14936036 -0.54543704 -0.38966286
-0.1255731 -0.54370517 -0.40216172
0.12867859 -0.54370749 -0.40214539
0.15237203 -0.54544616 -0.38959706
0.24416514 -0.4973473 -0.40322042
-0.28798681 -0.47507662 -0.39599061
0.29107893 -0.47511995 -0.39561439
-0.61099875 -0.17388828 -0.40198243
0.61403704 -0.17388321 -0.40230846
-0.70701122 -0.057968952 -0.38709784
0.70991659 -0.057977356 -0.38745987
-0.72634155 -0.035226569 -0.40292728
0.7293669 -0.03523767 -0.4032855
-0.7736541 0.034322724 -0.39873648
0.77668285 0.034312114 -0.39893246
-0.1964276 -0.5234499 -0.38031924
0.19936737 -0.52345639 -0.38026953
-0.59105384 -0.19736916 -0.38614309
0.59397525 -0.19736198 -0.38645589
-0.68747592 -0.080952317 -0.37110066
0.69026381 -0.080957726 -0.37144983
-0.75505406 0.012008131 -0.38086462
0.75794619 0.011998877 -0.38106298
-0.80255878 0.058780283 -0.37734091
0.80547261 0.058780283 -0.37734091
-0.24517801 -0.52682936 -0.35449576
-0.22069854 -0.5251314 -0.36747074
0.22354098 -0.52514023 -0.3674041
0.24792242 -0.52684039 -0.35441184
-0.33853856 -0.4558627 -0.35936391
0.34135371 -0.45590246 -0.3589952
-0.66773242 -0.10418078 -0.3549329
0.6703977 -0.10418348 -0.35528576
-0.73622739 -0.010574192 -0.36279583
0.73898536 -0.010581166 -0.36297977
-0.78205115 0.059438527 -0.3666538
0.78483617 0.059427232 -0.36683714
-0.26939213 -0.50432652 -0.34655619
0.2720761 -0.50433701 -0.34647155
-0.64777732 -0.12765813 -0.33859193
0.65031874 -0.12765807 -0.33894873
-0.7171784 -0.033427306 -0.34449291
0.71979249 -0.033433646 -0.34469581
-0.76330185 0.037035346 -0.34839725
0.76594299 0.037024394 -0.34859967
-0.29547665 -0.50745612 -0.32114744
0.29796582 -0.50746667 -0.32106149
-0.62760717 -0.15138818 -0.32207501
0.63002342 -0.15138553 -0.3224355
-0.69789881 -0.056557328 -0.32596815
0.70037133 -0.056561947 -0.32617366
-0.74432588 0.014361084 -0.32991993
0.7468257 0.014351651 -0.33012497
-0.79063386 0.085097551 -0.33386159
0.79316109 0.085083395 -0.33406603
-0.32008669 -0.48465377 -0.31305015
0.32251424 -0.48466367 -0.31296384
-0.60721862 -0.17537555 -0.30537903
0.60951167 -0.17537028 -0.30572617
-0.67838436 -0.079968862 -0.30721796
0.68071353 -0.079971954 -0.3074261
-0.72511488 -0.0085894987 -0.31123543
0.72747594 -0.0085970163 -0.31142557
-0.77173316 0.062606752 -0.31520796
0.77411771 0.062594071 -0.31541479
-0.58660799 -0.19962412 -0.28850126
0.58877307 -0.19961606 -0.28885221
-0.65862703 -0.10366742 -0.28825569
0.66081494 -0.103669 -0.28844869
-0.70567304 -0.031820364 -0.29230475
0.70788932 -0.031826213 -0.29249716
-0.75259703 0.039840281 -0.29634321
0.75484151 0.03982985 -0.29653549
-0.80162984 0.11197117 -0.29184949
0.80388558 0.11197117 -0.29184949
-0.34688935 -0.48765671 -0.28704393
0.34911749 -0.48766685 -0.28695619
-0.56577164 -0.22413824 -0.2714386
0.56780744 -0.22412723 -0.2717936
-0.68599182 -0.05533728 -0.27314103
0.68806154 -0.055341654 -0.27333581
-0.73322999 0.016794786 -0.27722955
0.73532832 0.016785756 -0.27742386
-0.78034502 0.08873862 -0.28130734
0.78246748 0.088723928 -0.28151882
-0.37443078 -0.46675569 -0.25829041
0.37645084 -0.46677685 -0.25809371
-0.63862991 -0.12765813 -0.26904166
0.64067096 -0.12765802 -0.26923716
-0.71362334 -0.0065358952 -0.2578789
0.71556962 -0.0065442026 -0.25809371
-0.76105523 0.065883145 -0.26200736
0.76303011 0.065869927 -0.26222157
-0.61838472 -0.15194622 -0.24958956
0.62027365 -0.15194459 -0.24980533
-0.66606671 -0.079145439 -0.2537396
0.66798431 -0.07914868 -0.25395489
0.6955691 -0.030163735 -0.23850489
-0.74152553 0.042743444 -0.2424674
0.74335104 0.042731658 -0.24268436
-0.78893286 0.11538503 -0.24750125
0.79081172 0.11537388 -0.24764538
-0.81331265 0.13971387 -0.24721313
0.81522477 0.13971387 -0.24721313
-0.40256128 -0.44552368 -0.22841835
0.40435338 -0.44554389 -0.22821772
-0.59788686 -0.17653775 -0.2298944
0.59962529 -0.17653435 -0.23011303
-0.6458894 -0.10325075 -0.23411465
0.64766067 -0.10325222 -0.23431456
-0.6937685 -0.030157693 -0.23830581
-0.72174728 0.019313335 -0.22270143
0.72342575 0.019303948 -0.22290277
-0.7690376 0.092320681 -0.22960281
0.77077937 0.092310801 -0.22974873
-0.79353058 0.14122199 -0.22940254
0.7952742 0.14121117 -0.2295301
-0.57713139 -0.20143813 -0.20995188
0.57871753 -0.20143311 -0.21017325
-0.62546283 -0.12765813 -0.21422541
0.62708211 -0.12765813 -0.21442771
-0.6736691 -0.054074667 -0.21846914
0.675318 -0.054079287 -0.21867073
-0.74891543 0.068993479 -0.21150053
0.75051862 0.068984494 -0.21164799
-0.77355134 0.1181733 -0.21127939
0.77515167 0.11816199 -0.21142685
-0.55611026 -0.2266528 -0.18977594
0.55754548 -0.22664645 -0.18998146
-0.60477835 -0.15237355 -0.19408488
0.60624373 -0.15237199 -0.19428968
-0.6533162 -0.07829307 -0.19838226
0.6548115 -0.078296363 -0.1985867
-0.70172429 -0.0044108406 -0.20266819
0.70324558 -0.0044194907 -0.20289063
-0.72856253 0.045398712 -0.19319046
0.73002547 0.045390606 -0.19333971
-0.75333822 0.09485893 -0.19296682
0.75479835 0.094848797 -0.19311595
-0.77811289 0.14432468 -0.19276178
0.77957028 0.14431195 -0.19291091
-0.8006705 0.16826175 -0.20129633
0.80222917 0.16826175 -0.20129633
-0.43285143 -0.4249652 -0.18627942
0.43436059 -0.42501187 -0.18577385
-0.58383119 -0.17740305 -0.17368853
0.58514053 -0.1773999 -0.17389596
-0.63270515 -0.10281898 -0.17804074
0.63404131 -0.10282085 -0.17826641
-0.68144757 -0.028435692 -0.18238103
0.68281388 -0.028442577 -0.18260634
-0.70797479 0.021531716 -0.17466915
0.70929599 0.021524742 -0.17482018
-0.73289204 0.071275607 -0.17444313
0.73421031 0.071266517 -0.17459393
-0.75780827 0.12102501 -0.17423558
0.7591238 0.1210134 -0.1743865
-0.78273231 0.17078255 -0.17400932
0.78404486 0.17076866 -0.17416012
-0.53482521 -0.25218865 -0.16932476
0.53610402 -0.25218061 -0.16953278
-0.61182719 -0.12765802 -0.15745842
0.61300963 -0.12765798 -0.15766799
-0.66091239 -0.052766688 -0.16183531
0.66212159 -0.052772097 -0.16206336
-0.68714833 -0.0026120692 -0.15593338
0.688326 -0.0026179254 -0.15608573
-0.56261605 -0.20275263 -0.15303135
0.56376439 -0.20274733 -0.15326083
-0.64010972 -0.077410415 -0.14104509
0.64116383 -0.077413663 -0.14125669
-0.71220863 0.047418714 -0.15570438
0.71338338 0.047410443 -0.15585697
-0.73726803 0.09745501 -0.15549433
0.73844004 0.097444445 -0.15564716
-0.76233524 0.14749978 -0.15526545
0.76350427 0.14748682 -0.15541816
-0.78765994 0.19765447 -0.15400577
0.78885454 0.19765447 -0.15400577
-0.5411247 -0.22842789 -0.13212776
0.54211646 -0.22842135 -0.13234079
-0.59068471 -0.15281618 -0.13659263
0.59170771 -0.15281442 -0.13680482
-0.66607875 -0.027037531 -0.13697839
0.6671114 -0.0270423 -0.137133
-0.69128376 0.023283362 -0.136747
0.69231343 0.02327618 -0.13690126
-0.71648806 0.073610142 -0.13653469
0.71751493 0.073600605 -0.13668895
-0.74170011 0.12394498 -0.13630307
0.742724 0.1239333 -0.13645756
-0.76691574 0.17428716 -0.13607144
0.76793659 0.17427291 -0.1362257
-0.51935834 -0.25443614 -0.11093402
0.52018821 -0.2544277 -0.11114979
-0.56926882 -0.1782997 -0.11545682
0.57013029 -0.17829621 -0.11567187
-0.6190424 -0.10237193 -0.1199671
0.61993176 -0.10237375 -0.12020099
-0.64476192 -0.051749818 -0.11780143
0.64564776 -0.051753409 -0.11795747
-0.67011338 -0.0011353642 -0.11756694
0.67099619 -0.001141414 -0.11772323
-0.69546419 0.049485415 -0.11735213
0.69634825 0.049477994 -0.1174891
-0.72082275 0.10011397 -0.11711776
0.72169971 0.10010315 -0.11727417
-0.74618483 0.15074979 -0.11688352
0.74705881 0.15073662 -0.1170398
-0.77154595 0.20139103 -0.11666858
0.77241701 0.20137526 -0.11682475
-0.54757404 -0.20411476 -0.094045997
0.54826874 -0.20410931 -0.094283581
-0.5976975 -0.12765792 -0.098634958
0.59842741 -0.12765798 -0.098852158
-0.62319338 -0.076753795 -0.098397851
0.62393075 -0.076756105 -0.098555923
-0.64869297 -0.025842398 -0.098160744
0.64942729 -0.02584707 -0.098318577
-0.67419618 0.025076613 -0.097923636
0.67492747 0.025069147 -0.09808147
-0.69969881 0.076001391 -0.097706199
0.70042711 0.07599166 -0.09786427
-0.72520918 0.12693457 -0.097468972
0.72593451 0.12692232 -0.097627163
-0.75071865 0.17787318 -0.097251534
0.75144106 0.17785855 -0.097409725
-0.79962939 0.22791506 -0.1054157
-0.77623618 0.22882052 -0.097014189
0.7769556 0.22880362 -0.097172499
0.80044997 0.22791506 -0.1054157
-0.24322367 -0.33272439 -0.07486105
-0.21759038 -0.33272439 -0.07486105
-0.19195706 -0.33272439 -0.07486105
-0.16632378 -0.33272439 -0.07486105
-0.14069048 -0.33272439 -0.07486105
-0.11505718 -0.33272439 -0.07486105
-0.089423873 -0.33272439 -0.07486105
-0.063790582 -0.33272439 -0.07486105
-0.038157288 -0.33272439 -0.07486105
-0.012523993 -0.33272439 -0.07486105
0.013109301 -0.33272439 -0.07486105
0.038742594 -0.33272439 -0.07486105
0.064375892 -0.33272439 -0.07486105
0.09000919 -0.33272439 -0.07486105
0.11564248 -0.33272439 -0.07486105
0.14127578 -0.33272439 -0.07486105
0.16690907 -0.33272439 -0.07486105
0.19254237 -0.33272439 -0.07486105
0.21817565 -0.33272439 -0.07486105
0.24380897 -0.33272439 -0.07486105
-0.57572305 -0.15325955 -0.079003572
0.5763166 -0.15325826 -0.079143643
-0.60136873 -0.10205478 -0.078763604
0.60195583 -0.10205596 -0.078923464
-0.62701815 -0.050842747 -0.078523993
0.62760216 -0.050846525 -0.078683734
-0.65267128 0.00037676096 -0.078283668
0.65325218 0.00037057698 -0.078443766
-0.67832392 0.051602364 -0.078063726
0.67890197 0.05159387 -0.078223944
-0.70398432 0.10283622 -0.077823877
0.70455921 0.10282537 -0.077983856
-0.72964388 0.15407594 -0.077603698
0.73021585 0.15406223 -0.077763915
-0.75531155 0.20532425 -0.07736361
0.75588048 0.20530836 -0.077523828
-0.52559185 -0.23026767 -0.072374582
0.52612406 -0.23026095 -0.072595119
-0.55348945 -0.17916706 -0.059117556
0.55392742 -0.17916456 -0.059279323
-0.5792833 -0.12765807 -0.058894992
0.57971835 -0.12765813 -0.059056878
-0.60508436 -0.076141909 -0.058652282
0.60551625 -0.076144464 -0.058814049
-0.63088918 -0.024618268 -0.058409452
0.63131797 -0.024623238 -0.058571458
-0.65669364 0.026911899 -0.058186889
0.65711945 0.026904434 -0.058348656
-0.68250579 0.078450128 -0.05794394
0.6829285 0.078440249 -0.058105946
-0.70831728 0.12999438 -0.057721376
0.70874125 0.12998335 -0.057862878
-0.73408705 0.18152685 -0.057700992
0.73451847 0.18151723 -0.0578022
-0.75850362 0.23242797 -0.063541651
0.75897938 0.23241715 -0.063642383
-0.50332308 -0.25676605 -0.050397158
0.50368434 -0.25675681 -0.050641179
-0.71200138 0.15720682 -0.040629268
0.71229768 0.1571966 -0.040751934
-0.73658103 0.20841001 -0.046529412
0.73692632 0.20839997 -0.046631217
-0.7610746 0.25943393 -0.052408934
0.76146448 0.25942224 -0.052510262
-0.34984103 -0.30913317 -0.036964417
-0.32391602 -0.30913317 -0.036964417
-0.29799098 -0.30913317 -0.036964417
-0.27206597 -0.30913317 -0.036964417
-0.24614096 -0.30913317 -0.036964417
-0.2202159 -0.30913317 -0.036964417
-0.19429089 -0.30913317 -0.036964417
-0.16836587 -0.30913317 -0.036964417
-0.14244084 -0.30913317 -0.036964417
-0.11651582 -0.30913317 -0.036964417
-0.09059079 -0.30913317 -0.036964417
-0.064665765 -0.30913317 -0.036964417
-0.038740747 -0.30913317 -0.036964417
-0.012815722 -0.30913317 -0.036964417
0.013109301 -0.30913317 -0.036964417
0.039034326 -0.30913317 -0.036964417
0.064959347 -0.30913317 -0.036964417
0.090884373 -0.30913317 -0.036964417
0.1168094 -0.30913317 -0.036964417
0.14273442 -0.30913317 -0.036964417
0.16865943 -0.30913317 -0.036964417
0.19458446 -0.30913317 -0.036964417
0.22050948 -0.30913317 -0.036964417
0.24643449 -0.30913317 -0.036964417
0.27235955 -0.30913317 -0.036964417
0.29828456 -0.30913317 -0.036964417
0.32420957 -0.30913317 -0.036964417
0.35013461 -0.30913317 -0.036964417
-0.48075858 -0.28361624 -0.028128028
0.48094988 -0.28360492 -0.028375149
-0.53098172 -0.2053853 -0.039033175
0.53126919 -0.20538196 -0.039176464
-0.55693245 -0.15356898 -0.038787603
0.5572136 -0.15356766 -0.038951397
-0.58288687 -0.1017453 -0.038541913
0.58316493 -0.10174638 -0.038705826
-0.60884517 -0.049913697 -0.038296103
0.60912001 -0.049917534 -0.038460135
-0.6348033 0.0019245893 -0.038070798
0.63507515 0.0019181371 -0.038234591
-0.66076905 0.053770721 -0.037825108
0.66103774 0.053761974 -0.03798902
-0.68673849 0.10562454 -0.037579179
0.68700409 0.10561323 -0.037743092
-0.71443403 0.1841463 -0.029343367
0.71464336 0.18413489 -0.029466748
-0.73909169 0.23547353 -0.035282969
0.73934591 0.23546021 -0.035406232
0.74178606 0.26270455 -0.024084687
-0.50820851 -0.23192155 -0.018664837
0.50833702 -0.23191646 -0.018830776
-0.53431123 -0.17979336 -0.018437028
0.53443676 -0.17979075 -0.018602729
0.5605433 -0.12765813 -0.018354297
-0.56042099 -0.12765802 -0.018188357
-0.58653462 -0.075515024 -0.017939687
0.58665371 -0.075517729 -0.018105388
-0.61264825 -0.023365095 -0.017711639
0.61276424 -0.023370259 -0.01787746
-0.63876933 0.028792739 -0.01746273
0.63888216 0.028785184 -0.017628789
-0.66485697 0.080946997 -0.017400622
0.664976 0.080939278 -0.017525077
-0.68968928 0.13263763 -0.023382425
0.68985355 0.13262825 -0.023506284
-0.69205916 0.1596327 -0.011979938
0.69213551 0.1596223 -0.01210475
-0.71688306 0.21126707 -0.017981172
0.71700472 0.21125449 -0.018105388
-0.74161929 0.26271874 -0.02396071
-0.45891604 -0.285 0.0018255711
-0.43269238 -0.285 0.0018255711
-0.40646875 -0.285 0.0018255711
-0.38024515 -0.285 0.0018255711
-0.35402149 -0.285 0.0018255711
-0.32779786 -0.285 0.0018255711
-0.30157426 -0.285 0.0018255711
-0.2753506 -0.285 0.0018255711
-0.24912697 -0.285 0.0018255711
-0.22290337 -0.285 0.0018255711
-0.19667973 -0.285 0.0018255711
-0.17045611 -0.285 0.0018255711
-0.14423248 -0.285 0.0018255711
-0.11800883 -0.285 0.0018255711
-0.091785207 -0.285 0.0018255711
-0.065561585 -0.285 0.0018255711
-0.039337955 -0.285 0.0018255711
-0.013114327 -0.285 0.0018255711
0.013109301 -0.285 0.0018255711
0.03933293 -0.285 0.0018255711
0.065556556 -0.285 0.0018255711
0.091780193 -0.285 0.0018255711
0.11800382 -0.285 0.0018255711
0.14422743 -0.285 0.0018255711
0.17045107 -0.285 0.0018255711
0.1966747 -0.285 0.0018255711
0.22289832 -0.285 0.0018255711
0.24912196 -0.285 0.0018255711
0.27534556 -0.285 0.0018255711
0.30156919 -0.285 0.0018255711
0.32779285 -0.285 0.0018255711
0.35401645 -0.285 0.0018255711
0.38024008 -0.285 0.0018255711
0.40646374 -0.285 0.0018255711
0.43268734 -0.285 0.0018255711
0.45891097 -0.285 0.0018255711
-0.48515499 -0.25878012 0.001930356
0.48512587 -0.2587738 0.0017626286
-0.51141495 -0.20633675 0.0021611452
0.51138282 -0.20633282 0.0019931793
-0.53768182 -0.15388614 0.0024126768
0.53764653 -0.1538849 0.0022450686
-0.56395257 -0.10142795 0.002664566
0.563914 -0.10142928 0.0024967194
-0.59022731 -0.048961848 0.0029164553
0.59018546 -0.048965782 0.0027484894
-0.61650193 0.0035109818 0.0031473637
0.61645705 0.0035045445 0.0029792786
-0.64214659 0.055813611 8.5830688e-05
0.64213181 0.055806726 -3.9935112e-05
-0.66714722 0.10781546 -0.0059579611
0.66717798 0.10780656 -0.0060830116
-0.66945297 0.13486587 0.0055625439
0.66939497 0.13485618 0.0054365396
-0.69444513 0.18681054 -0.00050055981
0.69443297 0.18679903 -0.0006262064
-0.71934861 0.23857097 -0.0065422058
0.71938205 0.23855741 -0.0066674948
-0.7218309 0.26605999 0.0049741268
0.72177547 0.26604545 0.0048481226
-0.74619329 0.29126751 -0.0034718513
0.74622911 0.29126751 -0.0034718513
-0.48824146 -0.2332056 0.023032665
0.48804963 -0.2332003 0.022862792
-0.51466423 -0.18043533 0.023266196
0.51446939 -0.18043272 0.023096323
-0.54109412 -0.12765802 0.023520947
0.540896 -0.12765798 0.023351192
-0.56752795 -0.074872859 0.023776174
0.56732655 -0.074875459 0.023605943
-0.59393561 -0.022085086 0.023860931
0.59374303 -0.022088327 0.023754716
-0.61920053 0.030419439 0.017753839
0.61905044 0.030413404 0.017626762
-0.64437157 0.082735881 0.011647224
0.64426762 0.082728118 0.011520863
-0.64661175 0.10984148 0.023287416
0.64641798 0.10983269 0.023159862
-0.67177445 0.16210039 0.01716125
0.67162699 0.16208972 0.017034292
-0.69684732 0.21417309 0.011056662
0.69674593 0.21416016 0.0109303
-0.69926584 0.24172162 0.022692919
0.69907475 0.24170791 0.022565603
-0.72433007 0.29373592 0.01656878
0.72418529 0.29372025 0.016441941
-0.46441618 -0.26030397 0.041519523
-0.43788698 -0.26030397 0.041519523
-0.41135779 -0.26030397 0.041519523
-0.3848286 -0.26030397 0.041519523
-0.3582994 -0.26030397 0.041519523
-0.33177021 -0.26030397 0.041519523
-0.30524102 -0.26030397 0.041519523
-0.27871183 -0.26030397 0.041519523
-0.25218263 -0.26030397 0.041519523
-0.22565344 -0.26030397 0.041519523
-0.19912425 -0.26030397 0.041519523
-0.17259507 -0.26030397 0.041519523
-0.14606586 -0.26030397 0.041519523
-0.11953666 -0.26030397 0.041519523
-0.093007468 -0.26030397 0.041519523
-0.066478275 -0.26030397 0.041519523
-0.039949086 -0.26030397 0.041519523
-0.013419892 -0.26030397 0.041519523
0.013109301 -0.26030397 0.041519523
0.039638493 -0.26030397 0.041519523
0.06616769 -0.26030397 0.041519523
0.092696883 -0.26030397 0.041519523
0.11922608 -0.26030397 0.041519523
0.14575526 -0.26030397 0.041519523
0.17228445 -0.26030397 0.041519523
0.19881366 -0.26030397 0.041519523
0.22534284 -0.26030397 0.041519523
0.25187203 -0.26030397 0.041519523
0.27840123 -0.26030397 0.041519523
0.30493042 -0.26030397 0.041519523
0.33145961 -0.26030397 0.041519523
0.3579888 -0.26030397 0.041519523
0.384518 -0.26030397 0.041519523
0.41104719 -0.26030397 0.041519523
0.43757638 -0.26030397 0.041519523
0.46410558 -0.26030397 0.041519523
-0.57057655 -0.048064604 0.041777134
0.57024664 -0.048067115 0.041669726
-0.59601134 0.0047595352 0.035584688
0.59572834 0.0047553033 0.035477757
-0.62135881 0.057395145 0.029435635
0.62111861 0.057388321 0.029307842
-0.62353182 0.084555745 0.041197538
0.62320095 0.084547728 0.041068792
-0.64886719 0.13713263 0.035007238
0.64858311 0.13712279 0.03487885
-0.67411172 0.18952082 0.028838992
0.6738742 0.18950902 0.0287112
-0.67646074 0.21712704 0.040575385
0.67613685 0.21711622 0.040468216
-0.70170093 0.26945871 0.034408689
0.70141941 0.26944393 0.034280419
-0.4913632 -0.2073116 0.044376493
0.49100682 -0.20730767 0.044204473
-0.51795411 -0.15421119 0.044634342
0.5175944 -0.15420982 0.044462323
-0.54454899 -0.10110293 0.04489255
0.544186 -0.10110426 0.044720292
-0.57258284 -0.021168523 0.053623915
0.57216167 -0.02117192 0.053515792
-0.59810126 0.03178817 0.047388792
0.59772736 0.031783208 0.047281146
-0.62571579 0.11190137 0.053018808
0.62529761 0.1118938 0.052910686
-0.65113401 0.16460903 0.046785831
0.65076303 0.16459994 0.046678305
-0.67883015 0.24492477 0.05241394
0.678415 0.24491318 0.052305937
-0.70414817 0.29738349 0.046183348
0.70378023 0.2973702 0.046075583
-0.73150271 0.32442772 0.049845695
-0.70661682 0.32550281 0.058060408
0.70615727 0.32548875 0.057952046
0.73112804 0.32442772 0.049845695
-0.46777344 -0.2345209 0.065748096
0.46725637 -0.23451617 0.065595984
-0.49452731 -0.18109357 0.066009641
0.49400407 -0.18109086 0.065835476
-0.52126843 -0.12765813 0.066161752
0.52075231 -0.12765813 0.066053033
-0.5469721 -0.074316896 0.059881687
0.54650348 -0.074318714 0.059772968
-0.5489074 -0.047369994 0.07185328
0.54834658 -0.047372453 0.071744204
-0.57460302 0.0059130937 0.065552354
0.57408988 0.0059086084 0.065443635
-0.60020566 0.059003115 0.059274435
0.59974009 0.05899708 0.059165835
-0.60232455 0.086406007 0.071241736
0.60176671 0.086399272 0.071132779
-0.62791884 0.13943698 0.064943075
0.62740874 0.1394286 0.064834356
-0.65342057 0.19227625 0.058667302
0.65295804 0.19226633 0.058558822
-0.65572292 0.22013469 0.07063055
0.65516812 0.22012387 0.070521355
-0.68121594 0.27291423 0.064334035
0.68070889 0.27290165 0.064225316
-0.44320697 -0.23502663 0.08217144
-0.41636479 -0.23502663 0.08217144
-0.38952267 -0.23502663 0.08217144
-0.36268052 -0.23502663 0.08217144
-0.33583844 -0.23502663 0.08217144
-0.30899629 -0.23502663 0.08217144
-0.28215414 -0.23502663 0.08217144
-0.25531203 -0.23502663 0.08217144
-0.22846989 -0.23502663 0.08217144
-0.20162775 -0.23502663 0.08217144
-0.17478561 -0.23502663 0.08217144
-0.1479435 -0.23502663 0.08217144
-0.12110136 -0.23502663 0.08217144
-0.094259217 -0.23502663 0.08217144
-0.067417093 -0.23502663 0.08217144
-0.04057496 -0.23502663 0.08217144
-0.013732829 -0.23502663 0.08217144
0.013109301 -0.23502663 0.08217144
0.039951432 -0.23502663 0.08217144
0.066793561 -0.23502663 0.08217144
0.093635701 -0.23502663 0.08217144
0.12047783 -0.23502663 0.08217144
0.14731996 -0.23502663 0.08217144
0.17416209 -0.23502663 0.08217144
0.20100421 -0.23502663 0.08217144
0.22784634 -0.23502663 0.08217144
0.2546885 -0.23502663 0.08217144
0.28153062 -0.23502663 0.08217144
0.30837274 -0.23502663 0.08217144
0.33521488 -0.23502663 0.08217144
0.36205703 -0.23502663 0.08217144
0.38889912 -0.23502663 0.08217144
0.41574126 -0.23502663 0.08217144
0.44258338 -0.23502663 0.08217144
-0.47080836 -0.20831098 0.087651014
0.47011957 -0.20830685 0.087474704
-0.49723527 -0.15451823 0.084524035
0.49657533 -0.15451734 0.08439219
-0.52311832 -0.10084672 0.078177094
0.52250957 -0.10084746 0.078067541
-0.52498102 -0.073848911 0.090275884
0.52427584 -0.073851071 0.090143681
-0.55085617 -0.020236187 0.083908081
0.55020237 -0.020239435 0.083798289
-0.57663721 0.033181861 0.077563524
0.57603145 0.033176839 0.077453852
-0.57868546 0.060640335 0.089658022
0.57798654 0.060634285 0.089547515
-0.60445815 0.11399886 0.083292365
0.60380745 0.11399125 0.083182454
-0.63013715 0.16716321 0.076949954
0.62953448 0.16715388 0.076840401
-0.63237083 0.19508211 0.08904016
0.631675 0.19507189 0.088929892
-0.65804124 0.24818625 0.082676888
0.65739357 0.2481745 0.082566977
-0.68361825 0.30109745 0.076336622
0.68301862 0.30108398 0.076227307
-0.68589163 0.32938111 0.087695122
0.68520868 0.32936949 0.087606788
-0.47294644 -0.18166417 0.10308158
0.47214451 -0.1816622 0.10294807
0.49825782 -0.12765813 0.096534014
-0.49901131 -0.12765802 0.096666932
-0.52685678 -0.04666315 0.10245895
0.5260576 -0.04666625 0.10232568
-0.55281848 0.0070865452 0.096046925
0.55206776 0.0070816278 0.095914006
-0.58074802 0.088290095 0.10183656
0.57995516 0.088283226 0.1017257
-0.6066066 0.14178358 0.095426798
0.60586238 0.1417753 0.095315933
-0.60877007 0.16976251 0.10764587
0.60793161 0.169753 0.10753453
-0.63462007 0.22319542 0.10121453
0.63383037 0.22318421 0.10110366
-0.66037571 0.27643293 0.094807029
0.65963447 0.2764203 0.094696283
-0.66186541 0.30432582 0.102548
0.66107279 0.30431747 0.10248137
-0.68933189 0.35864747 0.10488355
0.6885336 0.35864747 0.10488355
-0.44839787 -0.20910048 0.12183738
-0.42149413 -0.20914625 0.12381625
-0.39433143 -0.20914625 0.12381625
-0.36716869 -0.20914625 0.12381625
-0.34000599 -0.20914625 0.12381625
-0.31284326 -0.20914625 0.12381625
-0.28568056 -0.20914625 0.12381625
-0.25851786 -0.20914625 0.12381625
-0.23135512 -0.20914625 0.12381625
-0.20419241 -0.20914625 0.12381625
-0.1770297 -0.20914625 0.12381625
-0.14986698 -0.20914625 0.12381625
-0.12270427 -0.20914625 0.12381625
-0.095541552 -0.20914625 0.12381625
-0.068378836 -0.20914625 0.12381625
-0.041216128 -0.20914625 0.12381625
-0.014053413 -0.20914625 0.12381625
0.013109301 -0.20914625 0.12381625
0.040272016 -0.20914625 0.12381625
0.067434728 -0.20914625 0.12381625
0.094597444 -0.20914625 0.12381625
0.12176016 -0.20914625 0.12381625
0.14892288 -0.20914625 0.12381625
0.17608558 -0.20914625 0.12381625
0.20324829 -0.20914625 0.12381625
0.23041101 -0.20914625 0.12381625
0.25757372 -0.20914625 0.12381625
0.28473645 -0.20914625 0.12381625
0.31189916 -0.20914625 0.12381625
0.33906186 -0.20914625 0.12381625
0.36622459 -0.20914625 0.12381625
0.39338729 -0.20914625 0.12381625
0.42055002 -0.20914625 0.12381625
0.44745237 -0.20909739 0.12170255
-0.47464702 -0.15475561 0.11535418
0.47375047 -0.15475453 0.11521971
-0.50079978 -0.10061012 0.10889494
0.49995199 -0.10061131 0.10876083
-0.50260079 -0.073372714 0.12120831
0.50165808 -0.073374882 0.12107348
-0.52874565 -0.019287191 0.1147275
0.52785188 -0.019291371 0.11459303
-0.55479449 0.034600124 0.10827017
0.55395299 0.034595102 0.10815871
-0.55678439 0.062306508 0.12057924
0.55584794 0.062300459 0.12046719
-0.58282501 0.11613321 0.11410069
0.58193761 0.11612554 0.11398888
-0.6107778 0.19784831 0.11898565
0.60985571 0.19784005 0.11889553
-0.63638133 0.25121164 0.11074746
0.63552201 0.25120187 0.11065841
-0.63763809 0.27905905 0.1175499
0.63672638 0.27904874 0.11746049
-0.63889974 0.30701476 0.12437892
0.63793546 0.30700362 0.12428892
-0.66316849 0.33221078 0.10931885
0.66231954 0.33219922 0.10922956
-0.66447657 0.36020374 0.11611581
0.66357523 0.36019135 0.11602616
-0.45002124 -0.18214391 0.13424194
0.44898009 -0.1821419 0.13410628
-0.47635952 -0.12765802 0.12771308
0.4753677 -0.12765802 0.1275779
-0.47808409 -0.1003695 0.14015901
0.4769963 -0.10037058 0.14002287
-0.50441444 -0.045943819 0.13360858
0.50337619 -0.045946918 0.13347268
-0.5306477 0.0082811862 0.12708211
0.52965873 0.0082761198 0.12694657
-0.53256321 0.036043644 0.13952339
0.53148162 0.036038384 0.1394099
-0.55878824 0.090207651 0.13297486
0.5577563 0.090200722 0.13286209
-0.58491653 0.14417188 0.12645102
0.58393401 0.14416324 0.12633812
-0.58621305 0.17200305 0.13410616
0.58517516 0.17199554 0.13401568
0.58628941 0.1998734 0.14090872
-0.61198783 0.22565784 0.12581992
0.61101311 0.22564866 0.12572992
-0.61319858 0.25357288 0.13265836
0.61217117 0.25356311 0.13256812
-0.61441809 0.28159893 0.13954616
0.61333758 0.28158855 0.13945532
-0.64016211 0.33507591 0.13121188
0.63914514 0.33506405 0.1311214
-0.6414336 0.363249 0.13809395
0.64036357 0.36323649 0.13800311
-0.45165598 -0.15499708 0.14673424
0.45051861 -0.1549961 0.14659739
-0.47982082 -0.072888017 0.15269303
0.47863647 -0.072890081 0.15255606
-0.5062409 -0.018321142 0.14609599
0.50510639 -0.018325366 0.14595926
-0.53430223 0.063936055 0.15081859
0.5331403 0.06393227 0.1507504
-0.56032062 0.1180976 0.14245415
0.55921906 0.11809136 0.14236331
-0.56144023 0.14593692 0.14938009
0.56028533 0.14592995 0.14928889
-0.56256425 0.17388521 0.15633321
0.56135225 0.17387559 0.15621853
-0.58738047 0.19988175 0.14099956
-0.58855247 0.2278692 0.14791977
0.58740807 0.22786026 0.14782846
-0.58972901 0.25596625 0.15486717
0.58853114 0.25595647 0.15477562
-0.61564231 0.30973452 0.14646053
0.61450851 0.30972308 0.14636946
-0.61686736 0.33797693 0.15337932
0.61568409 0.33796781 0.15331078
-0.42668504 -0.1826323 0.16596103
-0.39925909 -0.18264055 0.16649127
-0.37176785 -0.18264055 0.16649127
-0.34427661 -0.18264055 0.16649127
-0.3167854 -0.18264055 0.16649127
-0.28929415 -0.18264055 0.16649127
-0.26180294 -0.18264055 0.16649127
-0.23431171 -0.18264055 0.16649127
-0.2068205 -0.18264055 0.16649127
-0.17932928 -0.18264055 0.16649127
-0.15183805 -0.18264055 0.16649127
-0.12434682 -0.18264055 0.16649127
-0.096855596 -0.18264055 0.16649127
-0.069364369 -0.18264055 0.16649127
-0.04187315 -0.18264055 0.16649127
-0.014381924 -0.18264055 0.16649127
0.013109301 -0.18264055 0.16649127
0.040600527 -0.18264055 0.16649127
0.06809175 -0.18264055 0.16649127
0.095582977 -0.18264055 0.16649127
0.1230742 -0.18264055 0.16649127
0.15056542 -0.18264055 0.16649127
0.17805664 -0.18264055 0.16649127
0.20554787 -0.18264055 0.16649127
0.2330391 -0.18264055 0.16649127
0.26053032 -0.18264055 0.16649127
0.28802153 -0.18264055 0.16649127
0.31551275 -0.18264055 0.16649127
0.34300399 -0.18264055 0.16649127
0.3704952 -0.18264055 0.16649127
0.39798644 -0.18264055 0.16649127
0.42540053 -0.18263038 0.16582286
-0.45330238 -0.12765802 0.15931463
0.452068 -0.12765792 0.15917683
-0.45496044 -0.10012455 0.17198479
0.45362845 -0.10012563 0.17184603
-0.48156995 -0.045211516 0.16531599
0.48028824 -0.045214757 0.16517806
-0.5080803 0.0094972104 0.15867221
0.50684887 0.0094918013 0.15853441
-0.50918686 0.037277535 0.16623771
0.50790346 0.037273228 0.16614544
-0.51021349 0.06514509 0.17325675
0.50887603 0.065140024 0.17316425
-0.53537363 0.091735229 0.15777755
0.53415471 0.091729477 0.15768552
-0.53644919 0.11964321 0.16476345
0.5351764 0.11963692 0.16467118
-0.53752893 0.14766105 0.17177689
0.53620213 0.14765392 0.17168438
-0.56368893 0.201941 0.16329038
0.56242687 0.20193239 0.16319835
-0.56482184 0.23010878 0.1702981
0.56350571 0.2300996 0.17020571
-0.59090632 0.28417081 0.16181862
0.58965486 0.2841602 0.16172671
-0.5920921 0.31248838 0.1688205
0.59078664 0.31247699 0.16872811
-0.61810118 0.36633283 0.16034794
0.61686033 0.36631995 0.16025615
-0.64578712 0.39396834 0.16165769
-0.61933982 0.39479989 0.16734409
0.61804509 0.39478654 0.16725194
0.64455169 0.39396834 0.16165769
-0.42825139 -0.15524311 0.17867863
0.42686886 -0.15524203 0.17853916
-0.45643544 -0.072417572 0.18325579
0.45502231 -0.072418854 0.18316269
-0.4573628 -0.044633634 0.19034219
0.45589507 -0.044635698 0.19024861
-0.48287547 -0.017439179 0.17473793
0.48152727 -0.01744213 0.1746453
-0.48384947 0.01038605 0.18176758
0.48244712 0.010382414 0.18167448
-0.48483056 0.038321942 0.1888479
0.48337364 0.038317725 0.18875456
-0.51124418 0.093122482 0.18030381
0.50984919 0.093115151 0.18018758
-0.51227897 0.12121014 0.18737841
0.51082939 0.12120199 0.18726158
-0.53861296 0.1757891 0.17881775
0.53723192 0.17578129 0.17872477
-0.53969771 0.20402621 0.18586338
0.53826237 0.20401751 0.18576992
-0.5659591 0.25838757 0.17733312
0.56458879 0.25837749 0.17724049
-0.56709713 0.28677517 0.1843729
0.56567252 0.28676438 0.18427968
-0.59328258 0.34091753 0.1758498
0.59192294 0.34090525 0.17575729
-0.59447378 0.36945546 0.1828835
0.59305996 0.36944258 0.18279052
-0.59567362 0.39810902 0.18996847
0.59420526 0.39809531 0.18987513
-0.42982897 -0.12765802 0.19148695
0.42834774 -0.12765802 0.19134676
-0.43074918 -0.099916942 0.19895768
0.42921579 -0.099917635 0.1988641
-0.4316296 -0.072065674 0.20610631
0.43004116 -0.072067052 0.20601213
-0.45829383 -0.016739801 0.19745648
0.45677128 -0.016742557 0.19736266
-0.45922855 0.011264816 0.20459902
0.45765096 0.01126118 0.20450509
-0.48581555 0.066368237 0.19595647
0.48430386 0.066363126 0.19586265
-0.48680446 0.094525799 0.20309293
0.48523772 0.094520003 0.20299876
-0.51331437 0.14940692 0.19445765
0.51181352 0.14939986 0.19436383
-0.51435733 0.1777174 0.20158827
0.51280153 0.17770953 0.2014941
-0.54079032 0.23237668 0.19295979
0.53930026 0.23236729 0.19286621
-0.54188722 0.26083958 0.20008492
0.54034233 0.26082951 0.19999075
-0.56824338 0.3152774 0.19146359
0.56676418 0.31526583 0.19137013
-0.56939417 0.34389246 0.19858229
0.56786013 0.34388018 0.19848859
-0.57054579 0.37261778 0.20570588
0.56895679 0.37260467 0.20561182
-0.4040049 -0.15546575 0.20759118
-0.3764796 -0.15548581 0.2102108
-0.34865183 -0.15548581 0.2102108
-0.32082403 -0.15548581 0.2102108
-0.29299626 -0.15548581 0.2102108
-0.26516849 -0.15548581 0.2102108
-0.23734069 -0.15548581 0.2102108
-0.20951292 -0.15548581 0.2102108
-0.18168515 -0.15548581 0.2102108
-0.15385737 -0.15548581 0.2102108
-0.1260296 -0.15548581 0.2102108
-0.098201804 -0.15548581 0.2102108
-0.070374027 -0.15548581 0.2102108
-0.042546254 -0.15548581 0.2102108
-0.014718476 -0.15548581 0.2102108
0.013109301 -0.15548581 0.2102108
0.040937077 -0.15548581 0.2102108
0.068764858 -0.15548581 0.2102108
0.096592635 -0.15548581 0.2102108
0.12442041 -0.15548581 0.2102108
0.15224819 -0.15548581 0.2102108
0.18007596 -0.15548581 0.2102108
0.20790374 -0.15548581 0.2102108
0.23573151 -0.15548581 0.2102108
0.26355928 -0.15548581 0.2102108
0.29138708 -0.15548581 0.2102108
0.31921485 -0.15548581 0.2102108
0.34704262 -0.15548581 0.2102108
0.37487042 -0.15548581 0.2102108
0.40240827 -0.15546507 0.20752084
-0.40483433 -0.12765813 0.21477401
0.40317982 -0.12765813 0.21467948
-0.40566704 -0.099739619 0.22198558
0.40395695 -0.099740304 0.22189069
-0.43251067 -0.044104308 0.21325946
0.43086711 -0.044106476 0.21316516
-0.43339816 -0.016031183 0.22046494
0.43169907 -0.016034231 0.22037005
-0.46016699 0.039380699 0.21176994
0.45853126 0.039375186 0.2116518
-0.46110606 0.067607075 0.21894586
0.45941794 0.067601949 0.21885073
-0.48779723 0.12279521 0.21025789
0.48617229 0.12278707 0.21013975
-0.48879072 0.15117522 0.21742785
0.48711357 0.15116803 0.21733284
-0.5154044 0.20614 0.20874715
0.51379019 0.20612924 0.20862937
-0.51645219 0.23467349 0.21591115
0.51478606 0.23466407 0.21581614
-0.51750761 0.26332271 0.22312701
0.51578587 0.26331264 0.22303188
-0.54298854 0.28941518 0.20723772
0.54138505 0.28940171 0.2071197
-0.54409051 0.31810176 0.2143954
0.54243535 0.31809026 0.21430087
-0.54520059 0.34690541 0.22160542
0.54348981 0.34689295 0.22151029
-0.5717057 0.40146041 0.21288109
0.57006145 0.40144646 0.21278667
-0.5728972 0.43044341 0.22025144
0.57121074 0.43044341 0.22025144
0.37764475 -0.12765813 0.2379334
-0.37947768 -0.12765802 0.23802924
-0.40650305 -0.071709841 0.22922587
0.4047372 -0.071711212 0.22913051
-0.40734246 -0.043567814 0.23649526
0.40552062 -0.043569975 0.23639929
-0.43428922 0.012153998 0.2276994
0.43253434 0.012150362 0.22760379
-0.43518379 0.040451929 0.23496246
0.433373 0.040447488 0.23486674
-0.46205196 0.095947161 0.22617376
0.46030816 0.095941409 0.22607863
-0.4630017 0.12440063 0.23343098
0.46120197 0.12439401 0.23333526
-0.48979148 0.17967029 0.22464979
0.48805863 0.17966203 0.22455466
-0.49079618 0.20827897 0.23190069
0.48900753 0.20827012 0.23180497
-0.49180159 0.23699977 0.23915672
0.489957 0.23699023 0.23906076
-0.51856726 0.2920866 0.23037183
0.51678973 0.29207569 0.23027635
-0.51956457 0.32090944 0.23719001
0.51773775 0.3209005 0.23711824
-0.54631507 0.37582386 0.22884429
0.54454851 0.37581074 0.2287488
-0.54697335 0.40442055 0.23311996
0.54518086 0.40441352 0.23307228
-0.54756677 0.43301809 0.2369746
0.54574114 0.43300706 0.23690259
-0.35312337 -0.12765802 0.25489295
-0.32495162 -0.12765802 0.25489295
-0.29677987 -0.12765802 0.25489295
-0.26860812 -0.12765802 0.25489295
-0.24043638 -0.12765802 0.25489295
-0.21226464 -0.12765802 0.25489295
-0.18409289 -0.12765802 0.25489295
-0.15592116 -0.12765802 0.25489295
-0.12774941 -0.12765802 0.25489295
-0.099577665 -0.12765802 0.25489295
-0.071405925 -0.12765802 0.25489295
-0.043234184 -0.12765802 0.25489295
-0.015062441 -0.12765802 0.25489295
0.013109301 -0.12765802 0.25489295
0.041281044 -0.12765802 0.25489295
0.069452785 -0.12765802 0.25489295
0.097624533 -0.12765802 0.25489295
0.12579627 -0.12765802 0.25489295
0.15396801 -0.12765802 0.25489295
0.18213975 -0.12765802 0.25489295
0.21031149 -0.12765802 0.25489295
0.23848324 -0.12765802 0.25489295
0.26665497 -0.12765802 0.25489295
0.29482672 -0.12765802 0.25489295
0.32299846 -0.12765802 0.25489295
0.35117021 -0.12765802 0.25489295
-0.38026229 -0.09956003 0.24530971
0.37837568 -0.099560618 0.24523747
-0.38105267 -0.071349189 0.25264347
0.37910715 -0.071350768 0.25254691
-0.40818518 -0.015312843 0.24379361
0.40630713 -0.015315786 0.24369729
-0.40902853 0.013054579 0.25109708
0.40709421 0.01305075 0.25100052
-0.43608192 0.068863168 0.24225461
0.43421501 0.068857968 0.24215853
-0.43698075 0.097386897 0.24955213
0.43505755 0.097380906 0.24945533
-0.46395203 0.15296628 0.24069285
0.46209931 0.15296076 0.24062097
-0.46490932 0.18164815 0.24800837
0.46299735 0.18164004 0.24791181
-0.46557292 0.21023531 0.25307906
0.46362776 0.21023078 0.25303018
-0.49262753 0.26569289 0.24511707
0.49074328 0.2656877 0.24506915
-0.49316177 0.29423451 0.24897301
0.49124789 0.29422897 0.24892485
-0.49370053 0.3228395 0.25286114
0.49175352 0.32283068 0.25278866
-0.52012604 0.34944719 0.24102914
0.518273 0.34944111 0.2409811
-0.52069223 0.37804866 0.24490058
0.5188061 0.37803876 0.24482834
-0.52125615 0.40670741 0.24875581
0.51934028 0.40669686 0.24868357
-0.5218212 0.43542677 0.25261939
0.51987898 0.43541932 0.25257099
-0.35453111 -0.099378087 0.26896012
0.35246068 -0.099378772 0.26886261
-0.38184622 -0.043024726 0.26000679
0.37984401 -0.043026887 0.25990975
-0.38264298 -0.014585942 0.26739991
0.38058382 -0.014588989 0.26730239
-0.40987805 0.041536912 0.2584542
0.40788704 0.041532397 0.25835717
-0.41065791 0.070100039 0.26520836
0.40862012 0.070097297 0.26515925
-0.41110808 0.098591223 0.26910627
0.40904027 0.098588273 0.26905787
-0.43788615 0.126027 0.25690281
0.43590635 0.1260203 0.25680602
-0.43840003 0.15453537 0.26107514
0.43639368 0.15453158 0.2610265
-0.43888208 0.18308602 0.26498902
0.4368428 0.18307988 0.26491606
-0.4393622 0.21169545 0.26888692
0.43729284 0.21168871 0.26881373
-0.46607968 0.23878054 0.25695145
-0.43984333 0.24036591 0.27279317
0.43774673 0.24036114 0.2727443
0.46410474 0.23877583 0.25690281
-0.46659076 0.26738906 0.26085651
0.46458271 0.26738107 0.26078379
-0.4670997 0.29605579 0.26474583
0.4650647 0.29605019 0.26469719
-0.46761295 0.32478642 0.26866758
0.46554473 0.32477748 0.26859438
-0.4942371 0.35150236 0.2567333
-0.46812409 0.35357523 0.27257335
0.4660258 0.35356575 0.27249992
0.49226344 0.35149604 0.2566849
-0.49477479 0.38022602 0.2606138
0.49277124 0.38021934 0.26056516
-0.49531695 0.40901411 0.26452672
0.49328011 0.40900356 0.26445377
-0.49585691 0.43786001 0.26842368
0.49379006 0.43784875 0.26835072
-0.35527459 -0.070983633 0.27638948
0.35314691 -0.070985109 0.27629149
-0.35577029 -0.042531967 0.28134263
0.35360897 -0.042533152 0.28129351
-0.35616383 -0.014035486 0.28527534
0.35397229 -0.014037155 0.28522599
-0.38327429 0.013907596 0.27325761
-0.35656074 0.014522627 0.28924119
0.35433635 0.014519885 0.28916705
0.38117489 0.01390563 0.27320874
-0.38369629 0.042401433 0.2771734
0.38156673 0.042399153 0.27712405
-0.38412181 0.070957571 0.28112161
0.38195938 0.070953444 0.28104794
-0.38454562 0.099573389 0.28505385
0.38235536 0.099570245 0.28500473
-0.411562 0.12714471 0.27303779
-0.38497031 0.12825026 0.28899467
0.38274971 0.12824671 0.28894532
0.40946126 0.12713979 0.27296436
-0.41201407 0.15575759 0.27695262
0.4098832 0.15575187 0.27687919
-0.41246712 0.18443136 0.28087604
0.41030866 0.18442722 0.28082716
-0.41292393 0.21316852 0.2848326
0.41073239 0.21316166 0.28475869
-0.41337895 0.24196498 0.2887727
0.41115701 0.24195768 0.28869879
-0.44032851 0.26910001 0.27673256
0.43819875 0.26909208 0.27665889
-0.44081169 0.29789287 0.28065526
0.43865168 0.29788435 0.28058159
-0.44129589 0.32674712 0.28458655
0.43910849 0.32674104 0.28453743
-0.44178417 0.35566616 0.28855073
0.43956339 0.35565656 0.28847682
-0.4686363 0.38242561 0.27648747
0.46651089 0.38241881 0.27643836
-0.46914962 0.4113372 0.28040993
0.46699402 0.41133004 0.28036082
-0.46966726 0.44031435 0.28436506
0.4674781 0.44030297 0.28429139
-0.4975858 0.468153 0.2809006
-0.47018275 0.46934986 0.28830421
0.46796635 0.46934181 0.2882551
0.49543244 0.468153 0.2809006
-0.32814506 -0.099220127 0.28946316
-0.3006624 -0.099133424 0.30074346
-0.2721377 -0.099133424 0.30074346
-0.243613 -0.099133424 0.30074346
-0.21508829 -0.099133424 0.30074346
-0.1865636 -0.099133424 0.30074346
-0.15803888 -0.099133424 0.30074346
-0.1295142 -0.099133424 0.30074346
-0.10098949 -0.099133424 0.30074346
-0.072464786 -0.099133424 0.30074346
-0.043940097 -0.099133424 0.30074346
-0.015415397 -0.099133424 0.30074346
0.013109301 -0.099133424 0.30074346
0.041634001 -0.099133424 0.30074346
0.070158698 -0.099133424 0.30074346
0.098683394 -0.099133424 0.30074346
0.1272081 -0.099133424 0.30074346
0.1557328 -0.099133424 0.30074346
0.18425748 -0.099133424 0.30074346
0.21278219 -0.099133424 0.30074346
0.24130689 -0.099133424 0.30074346
0.2698316 -0.099133424 0.30074346
0.29835629 -0.099133424 0.30074346
0.32592162 -0.099220619 0.28941357
-0.32850996 -0.070721477 0.29341328
0.3262561 -0.070722356 0.29336369
-0.32887793 -0.042161196 0.29739678
0.32659131 -0.04216297 0.29732239
-0.32924441 -0.013540268 0.30136383
0.32692721 -0.013542533 0.30128944
-0.32961166 0.015142292 0.30533969
0.32726595 0.015140519 0.30528986
-0.35695598 0.043141305 0.29319084
0.35470346 0.043138936 0.29314172
-0.35735208 0.071821108 0.29714906
0.35506907 0.071818456 0.29709947
-0.35775152 0.10056393 0.30114067
0.35543549 0.1005594 0.3010658
-0.35814935 0.12936728 0.30511558
0.35580269 0.12936206 0.30504096
-0.38539857 0.15699042 0.29296839
0.38314492 0.1569847 0.29289424
-0.3858251 0.18579035 0.29692614
0.38354096 0.18578415 0.29685175
-0.38625255 0.21465199 0.30089223
0.38394031 0.21464758 0.30084264
-0.38668358 0.24357818 0.30489194
0.38433805 0.24357067 0.30481732
-0.4138349 0.27082312 0.29272139
0.41158521 0.27081788 0.29267204
-0.41429469 0.29974592 0.29670322
0.41201168 0.29973727 0.29662907
-0.4147526 0.3287279 0.30066907
0.41243905 0.32871866 0.30059445
-0.4152115 0.35777223 0.30464303
0.41286999 0.35776573 0.30459344
-0.44227043 0.38464421 0.29249895
0.44001925 0.3846339 0.2924248
-0.44275779 0.41368413 0.2964555
0.44047898 0.41367698 0.29640615
-0.44324619 0.4427864 0.30042088
0.44093683 0.44277865 0.30037105
-0.44373864 0.47195494 0.3044194
0.44139564 0.47194284 0.30434453
-0.30141005 -0.070472687 0.30957305
0.29903021 -0.070473865 0.30949819
-0.30174822 -0.04178787 0.31356609
0.29933763 -0.041789539 0.31349123
-0.3020871 -0.013041221 0.31756794
0.2996476 -0.013042696 0.31751812
-0.30242881 0.015768439 0.32160389
0.29995632 0.015765488 0.32152832
-0.32997969 0.043886483 0.30932367
0.32760334 0.043884218 0.30927384
-0.33035082 0.07269378 0.3133415
0.32794142 0.072689742 0.3132664
-0.33072048 0.10156162 0.31734288
0.32828236 0.10155867 0.31729257
-0.3310909 0.13049208 0.32135284
0.32862189 0.13048865 0.32130277
-0.35854802 0.1582322 0.30909932
0.35617298 0.15822835 0.30904949
-0.35895002 0.18716146 0.31311667
0.35654175 0.18715508 0.31304157
-0.35935041 0.21615101 0.31711757
0.35691133 0.21614401 0.31704223
-0.35975167 0.24520297 0.32112682
0.35728401 0.24519785 0.32107699
-0.38711286 0.27256417 0.30887496
0.38473916 0.27255875 0.30882514
-0.38754305 0.30161232 0.31286681
0.38513863 0.30160654 0.31281674
-0.38797688 0.33072609 0.31689227
0.38553894 0.33071679 0.31681716
-0.38840893 0.35989976 0.32090127
0.38594013 0.35988992 0.32082617
-0.41567427 0.38688225 0.30865085
0.4132992 0.38687187 0.30857599
-0.41613513 0.41605157 0.31264198
0.41372934 0.41604054 0.31256711
-0.41659698 0.44528377 0.31664193
0.41416311 0.4452759 0.31659186
-0.41706273 0.47458273 0.32067549
0.4145951 0.47457063 0.32060039
-0.27407032 -0.070222035 0.32584918
0.27156574 -0.070223212 0.32577384
-0.27438045 -0.041411199 0.3298775
0.27184659 -0.041412376 0.32982719
-0.27469316 -0.012537062 0.33393991
0.27212626 -0.01253932 0.33386409
-0.27500463 0.016398907 0.33798587
0.27240655 0.016395956 0.33791006
-0.30276912 0.044639319 0.32562268
0.3002657 0.044635698 0.32554758
-0.30311021 0.073572636 0.32965076
0.3005777 0.073569894 0.32960045
-0.30345201 0.10256827 0.33368742
0.30088842 0.10256512 0.33363688
-0.30379671 0.13162859 0.33775795
0.30119982 0.13162346 0.33768213
-0.33146444 0.15948685 0.32539642
0.32896218 0.15948103 0.32532108
-0.33183649 0.18854232 0.32942402
