ply
format ascii 1.0
comment PCL generated
element vertex 1336
property float x
property float y
property float z
element camera 0
property float view_px
property float view_py
property float view_pz
property float x_axisx
property float x_axisy
property float x_axisz
property float y_axisx
property float y_axisy
property float y_axisz
property float z_axisx
property float z_axisy
property float z_axisz
property float focal
property float scalex
property float scaley
property float centerx
property float centery
property int viewportx
property int viewporty
property float k1
property float k2
end_header
-0.11910886 -0.29237232 -0.25051552
-0.097194999 -0.29209304 -0.252783
-0.075316176 -0.2918143 -0.25504678
-0.053472582 -0.29153734 -0.25729436
-0.031663455 -0.29125962 -0.25955081
-0.0098890997 -0.29098198 -0.26180404
0.011850569 -0.290705 -0.2640534
0.033564955 -0.2905775 -0.26508832
0.055334777 -0.29102105 -0.2614876
0.077160537 -0.29146716 -0.25786507
0.099042356 -0.29191449 -0.25423324
0.12097998 -0.29236138 -0.25060469
-0.097308278 -0.27062389 -0.2498396
-0.075410977 -0.27037802 -0.25196809
-0.053546507 -0.27013269 -0.25409323
-0.031714812 -0.26988763 -0.25621533
-0.0099158082 -0.26964295 -0.25833434
0.011850569 -0.26939866 -0.26045018
0.033593357 -0.26928905 -0.26139915
0.055388402 -0.26968101 -0.25800467
0.077235892 -0.27007395 -0.2546019
0.09913604 -0.27046785 -0.25119084
-0.031828687 -0.24890207 -0.24881881
-0.0099726617 -0.24867256 -0.25094879
0.011850569 -0.24844326 -0.25307572
0.033650771 -0.2483501 -0.25394058
0.05550351 -0.2487178 -0.25052828
-0.22958454 -0.29432562 -0.23465717
-0.20711513 -0.29349238 -0.24142206
-0.18506046 -0.29321137 -0.2437039
-0.16304193 -0.29293221 -0.24596959
0.14297445 -0.29281107 -0.24695402
0.16502568 -0.2932618 -0.24329394
0.18713303 -0.29371223 -0.23963743
0.2093098 -0.29418603 -0.23579097
0.23154663 -0.29466105 -0.23193437
-0.22973856 -0.27258706 -0.23283809
-0.2072901 -0.27185825 -0.23914921
-0.18522745 -0.27161065 -0.24129367
-0.16319802 -0.27136332 -0.24343508
-0.14120173 -0.27111641 -0.2455731
-0.11923853 -0.27087 -0.24770784
0.12108901 -0.27086261 -0.2477718
0.143095 -0.27125838 -0.24434429
0.1651542 -0.27165508 -0.24090868
0.18726683 -0.27205279 -0.23746461
0.20943305 -0.27245134 -0.23401231
0.23165308 -0.27285111 -0.23055142
-0.20786637 -0.25075099 -0.23166293
-0.18574622 -0.25052008 -0.23380589
-0.16365846 -0.25028804 -0.23595858
-0.14160401 -0.25005642 -0.23810792
-0.1195828 -0.24982513 -0.24025387
-0.097594261 -0.24959277 -0.24240971
-0.075639412 -0.24936222 -0.24454916
-0.05371758 -0.24913202 -0.2466855
0.077408984 -0.24908642 -0.24710745
0.099367365 -0.24945615 -0.24367839
0.12137887 -0.24982648 -0.24024111
0.14344367 -0.25019786 -0.23679554
0.16556197 -0.25057012 -0.23334146
0.18773398 -0.25094336 -0.22987902
-0.14200771 -0.22888409 -0.23061627
-0.1199283 -0.2286682 -0.23277354
-0.097882241 -0.22845252 -0.23492783
-0.075869441 -0.22823735 -0.23707873
-0.053889845 -0.22802241 -0.23922622
-0.031943358 -0.2278078 -0.24137068
-0.010029912 -0.22759347 -0.24351192
0.011850569 -0.22737823 -0.24566269
0.033708394 -0.22729893 -0.24645567
0.055619027 -0.22764219 -0.243025
0.077582672 -0.22798641 -0.23958594
0.099599525 -0.22833137 -0.23613894
0.12166977 -0.22867726 -0.2326833
-0.07610029 -0.20699991 -0.22958159
-0.05406272 -0.20680042 -0.23174053
-0.032058436 -0.20660125 -0.23389626
-0.010087363 -0.20640256 -0.23604864
0.055735163 -0.20645483 -0.23548186
0.077757299 -0.20677422 -0.23202485
0.011850569 -0.20620389 -0.23819798
0.033766314 -0.2061363 -0.23893064
0.011850569 -0.18491687 -0.23070669
0.033824552 -0.18486106 -0.23136586
-0.27534264 -0.2966159 -0.21606272
-0.25238863 -0.29546618 -0.22539651
0.25384372 -0.29513729 -0.22806704
0.27637413 -0.29584542 -0.22231805
0.29953867 -0.297225 -0.21111739
-0.27531782 -0.27449539 -0.21631092
-0.25246176 -0.27353767 -0.22460479
0.25392708 -0.27325156 -0.22708243
0.27641499 -0.27385285 -0.22187579
0.29945478 -0.27499837 -0.21195579
-0.25321829 -0.25239438 -0.21641523
-0.23042804 -0.25150186 -0.22469574
0.20995986 -0.25131726 -0.22640836
0.23223983 -0.25169224 -0.22292906
0.25457409 -0.25206822 -0.21944141
0.27719834 -0.25271967 -0.21339589
-0.23112147 -0.23029603 -0.21650672
-0.2084457 -0.22953241 -0.22413749
-0.18626681 -0.22931688 -0.22629154
-0.16412051 -0.2291003 -0.22845554
0.1437936 -0.22902377 -0.22921932
0.16597122 -0.22937138 -0.22574687
0.18820281 -0.22971968 -0.22226608
0.2104886 -0.23006894 -0.2187767
0.23282878 -0.23041891 -0.2152788
0.25522351 -0.23076977 -0.21177256
-0.20902808 -0.20820169 -0.21657205
-0.18679017 -0.20800166 -0.2187376
-0.16458502 -0.20780058 -0.22091305
-0.14241351 -0.20760001 -0.22308499
-0.12027563 -0.20739974 -0.22525382
-0.098171234 -0.20719968 -0.22741926
0.099832922 -0.20709436 -0.22855914
0.12196273 -0.20741652 -0.22507215
0.1441454 -0.20773704 -0.22160262
0.16638264 -0.20805945 -0.21811169
0.18867417 -0.20838268 -0.21461236
0.21102016 -0.20870681 -0.21110427
-0.18731539 -0.18657236 -0.21115661
-0.16505198 -0.18638831 -0.21333033
-0.14282149 -0.18620349 -0.21551394
-0.12062478 -0.18601875 -0.21769428
-0.098461762 -0.18583444 -0.21987128
-0.076332361 -0.18565039 -0.22204483
-0.054236505 -0.18546653 -0.22421533
-0.032174118 -0.18528302 -0.22638237
-0.010145117 -0.1850998 -0.22854614
0.05585191 -0.18515468 -0.22789878
0.07793285 -0.18544894 -0.22442299
0.10006756 -0.18574409 -0.22093892
0.12225674 -0.18604088 -0.21743339
0.14449967 -0.18633732 -0.21393228
-0.098753825 -0.16435614 -0.21228325
-0.07656607 -0.16418891 -0.21445531
-0.054411512 -0.16402097 -0.21663725
-0.032290611 -0.16385317 -0.2188158
-0.010203278 -0.16368586 -0.22099102
0.011850569 -0.16351853 -0.22316307
0.033883095 -0.16347264 -0.22376066
0.055969488 -0.16374192 -0.22026187
0.078109637 -0.16401096 -0.21676773
0.10030386 -0.16428059 -0.21326494
-0.032407522 -0.14230871 -0.21122211
-0.010261644 -0.14215721 -0.21340895
0.011850569 -0.14200588 -0.21559244
0.033942051 -0.14197059 -0.21610188
0.05608749 -0.14221348 -0.21259755
-0.32170147 -0.29893622 -0.19722426
-0.29844552 -0.29777139 -0.20668083
0.32288513 -0.29861537 -0.19982874
-0.32142821 -0.27642614 -0.19959092
-0.29830533 -0.27545729 -0.20798165
0.32265469 -0.27615175 -0.20196688
0.34601644 -0.27731317 -0.19190824
-0.29919824 -0.25419614 -0.19969666
-0.27614212 -0.25329328 -0.20807374
0.30030927 -0.25379518 -0.20341682
0.32358137 -0.2548781 -0.19336843
-0.27697122 -0.23196904 -0.19978917
-0.25398037 -0.2311307 -0.20816559
0.27798754 -0.23146228 -0.20485246
0.30117023 -0.23246695 -0.19481385
-0.2547456 -0.20974346 -0.19988155
-0.2318189 -0.20896854 -0.20827055
0.23342082 -0.2090316 -0.2075876
0.25587639 -0.20935725 -0.20406222
0.27878025 -0.21007709 -0.19627118
-0.23252141 -0.18751922 -0.19997394
0.23401709 -0.18753041 -0.19984186
0.25653386 -0.18783058 -0.19629765
-0.20966004 -0.18680888 -0.20836264
0.16679698 -0.18663453 -0.21042258
0.18914886 -0.18693246 -0.20690441
0.2115555 -0.18723111 -0.20337737
-0.21029766 -0.16529547 -0.20007968
-0.18784432 -0.16503049 -0.20352232
-0.16552143 -0.16486226 -0.20570779
-0.14323163 -0.16469337 -0.20790279
-0.12097579 -0.16452461 -0.21009481
0.12255232 -0.16455081 -0.20975363
0.14485525 -0.16482182 -0.20623374
0.16721284 -0.16509333 -0.20270538
0.18962528 -0.1653657 -0.19916821
0.21209279 -0.16563869 -0.19562209
0.23461555 -0.1659123 -0.19206762
-0.18837605 -0.14337397 -0.19584739
-0.16599335 -0.14322175 -0.19804442
-0.14364395 -0.14306879 -0.20025122
-0.12132867 -0.14291614 -0.20245481
-0.099047437 -0.14276379 -0.20465493
-0.0768006 -0.14261235 -0.20683867
-0.054587152 -0.14246044 -0.209032
0.07828708 -0.1424568 -0.20908457
0.10054101 -0.14270075 -0.20556307
0.12284951 -0.14294526 -0.2020328
0.14521274 -0.14319052 -0.19849408
0.16763093 -0.14343627 -0.19494641
-0.14405847 -0.12132902 -0.19255888
-0.12168343 -0.12119265 -0.19477403
-0.099342614 -0.12105638 -0.19698608
-0.077036381 -0.12092118 -0.19918132
-0.054763716 -0.12078542 -0.20138633
-0.032525059 -0.12064977 -0.20358825
-0.010320321 -0.12051439 -0.20578659
0.011850569 -0.12037925 -0.20798165
0.034001224 -0.12035254 -0.20841491
0.056206126 -0.12056951 -0.2048918
0.078465477 -0.12078701 -0.20135999
0.10077946 -0.12100503 -0.19781947
0.12314828 -0.12122355 -0.19427049
-0.054941233 -0.098994806 -0.19370008
-0.032643218 -0.098875448 -0.19591367
-0.010379307 -0.098756492 -0.19812369
0.011850569 -0.098638237 -0.20031738
0.034060717 -0.098618403 -0.20068693
0.056325398 -0.098809108 -0.19714499
0.078644827 -0.099000543 -0.1935941
-0.36870983 -0.30132186 -0.17785513
0.37018204 -0.30147883 -0.17658055
-0.34510908 -0.300107 -0.18771863
0.34641722 -0.30001846 -0.18843758
-0.39165398 -0.27940103 -0.17382646
-0.3680931 -0.27839169 -0.18256807
-0.34468469 -0.277399 -0.19116426
0.36955988 -0.27849975 -0.18163192
-0.36918253 -0.2569392 -0.17424333
-0.34571713 -0.25601903 -0.18278193
-0.32239047 -0.2551057 -0.19125724
0.34701779 -0.25597006 -0.18323624
0.37061736 -0.25706825 -0.17304635
-0.34675723 -0.2345161 -0.17433751
-0.32335833 -0.23366164 -0.18287551
-0.30009773 -0.23281355 -0.19135022
0.32451501 -0.23347853 -0.18470526
0.34802362 -0.23449723 -0.17452574
-0.32433182 -0.21209322 -0.17444491
-0.30100098 -0.21130569 -0.18296909
-0.27780506 -0.21052162 -0.19145668
0.302035 -0.21100976 -0.18617272
0.32545283 -0.21194918 -0.17600334
-0.30190951 -0.18967302 -0.17453885
-0.2786451 -0.18895137 -0.18306255
-0.25551531 -0.18823269 -0.19154966
0.27957892 -0.18856502 -0.18762529
0.30290627 -0.18942522 -0.17746627
-0.27948868 -0.1672544 -0.17463326
-0.25628939 -0.16659725 -0.18316948
-0.23322691 -0.16594498 -0.19164264
0.2571938 -0.16618663 -0.18850422
0.28038114 -0.16692278 -0.17894089
-0.25706926 -0.14483713 -0.17472732
-0.2339365 -0.14424574 -0.18326306
-0.21093997 -0.14365882 -0.19173551
0.1901051 -0.1436836 -0.19137692
0.21263392 -0.14393064 -0.18781173
0.23521827 -0.14417823 -0.18423784
0.25787997 -0.14444403 -0.18040097
-0.23465016 -0.12242061 -0.17483461
-0.21158502 -0.12189573 -0.18335652
-0.18891063 -0.1216017 -0.18813157
-0.16646782 -0.12146562 -0.19034028
0.14557277 -0.12144358 -0.1906991
0.168052 -0.12166318 -0.18713248
0.19058669 -0.12188341 -0.18355691
0.21317703 -0.12210411 -0.17997265
0.23582324 -0.12232536 -0.17637944
-0.21223378 -0.1000064 -0.17492867
-0.18944807 -0.099712819 -0.18037415
-0.1669448 -0.099593297 -0.18259478
-0.14447518 -0.099473014 -0.18482542
-0.12204006 -0.099353001 -0.18705249
-0.099639371 -0.099233165 -0.18927622
-0.077273428 -0.099114209 -0.19148314
0.10101917 -0.099192306 -0.19003451
0.12344918 -0.099385336 -0.18645275
0.14593413 -0.099578112 -0.18287539
0.16847463 -0.099771455 -0.17928934
0.19107088 -0.099964991 -0.17569458
-0.14500196 -0.077592313 -0.17504966
-0.12249213 -0.077489957 -0.17726505
-0.10001603 -0.077387169 -0.17949045
-0.0775747 -0.07728523 -0.1816988
-0.055167455 -0.077183217 -0.18390417
-0.03279401 -0.077080965 -0.18611944
-0.010454796 -0.076979488 -0.18831778
0.011850569 -0.076877415 -0.19052625
0.034136888 -0.076865256 -0.1907922
0.056477703 -0.077028692 -0.1872524
0.078873217 -0.077192649 -0.18370378
0.10132363 -0.07735689 -0.18014669
0.12382968 -0.077522337 -0.1765672
0.1463906 -0.077687383 -0.17299247
-0.055419143 -0.055263449 -0.17300582
-0.032961544 -0.055177588 -0.17523777
-0.010538435 -0.055092346 -0.1774528
0.011850569 -0.055006716 -0.17967772
0.034221314 -0.055001054 -0.17982519
0.056646965 -0.055138271 -0.17625856
-0.41650203 -0.30386525 -0.15720487
-0.39252231 -0.30258992 -0.16755986
0.39420244 -0.30300787 -0.16416609
-0.43920818 -0.28144148 -0.15615714
-0.41535917 -0.28041807 -0.16501856
0.39328521 -0.27970725 -0.17117488
0.41718388 -0.28092507 -0.16062868
-0.41652787 -0.25879449 -0.1570282
-0.39278448 -0.25786346 -0.16566765
0.39438322 -0.25817427 -0.16278446
-0.39396846 -0.23623882 -0.15712321
-0.3702924 -0.2353742 -0.16576254
0.37169778 -0.23552315 -0.16427422
-0.37141049 -0.21368454 -0.15721846
-0.34780174 -0.2128865 -0.16585708
0.3490355 -0.2128952 -0.16576231
0.37278479 -0.21384792 -0.15544927
-0.34885401 -0.19113162 -0.15731382
-0.32531253 -0.1904002 -0.16595185
0.32639775 -0.19029145 -0.16723573
0.35005349 -0.19116284 -0.15694642
-0.3262974 -0.16857927 -0.15742242
-0.30282333 -0.16791439 -0.16605997
0.30378148 -0.16770954 -0.16872072
0.32734692 -0.16850179 -0.15842867
-0.30374393 -0.14602952 -0.15751767
-0.28033715 -0.14543109 -0.1661545
0.28118941 -0.14515151 -0.17019105
0.3046633 -0.14586376 -0.15990925
-0.28119197 -0.12348121 -0.15761292
-0.25785244 -0.1229493 -0.16624928
0.25861901 -0.12261525 -0.17167318
0.28200135 -0.12324791 -0.16140175
-0.25864142 -0.10093427 -0.15770817
-0.23536916 -0.10046893 -0.16634381
0.21372309 -0.1001593 -0.17209065
0.23643149 -0.10035402 -0.16847777
0.25936365 -0.10065566 -0.16287935
-0.2362652 -0.078483135 -0.15576243
-0.21304876 -0.078086883 -0.16434193
-0.19012557 -0.077798039 -0.17059541
-0.16754693 -0.077695459 -0.17281747
0.16900705 -0.07785292 -0.16940904
0.19167921 -0.078018814 -0.16581643
0.21440727 -0.078185037 -0.16221535
0.2371915 -0.078351885 -0.15860534
0.19236548 -0.055969138 -0.15467286
-0.19088851 -0.055780087 -0.15958333
-0.16822323 -0.055693444 -0.16183579
-0.14559282 -0.055606831 -0.16408479
-0.12299782 -0.055520829 -0.16631687
-0.10043678 -0.055434551 -0.16855896
-0.077910796 -0.055349004 -0.17078424
0.079127431 -0.055275377 -0.17269647
0.10166341 -0.055413384 -0.16911209
0.12425543 -0.055552166 -0.16550553
0.14690278 -0.055690754 -0.16190362
0.16960606 -0.055829767 -0.15829265
-0.12350731 -0.033385884 -0.15528584
-0.10086122 -0.033316713 -0.15753126
-0.07824941 -0.033247348 -0.15978682
-0.055672716 -0.033178348 -0.16202545
-0.033130333 -0.033109155 -0.16427422
-0.010622704 -0.033040348 -0.16650617
0.011850569 -0.032971766 -0.16873443
0.034306273 -0.03297003 -0.16878831
0.056817308 -0.033080731 -0.16519439
0.07938388 -0.033191737 -0.16159165
0.1020062 -0.033302907 -0.15798008
0.12468445 -0.03341442 -0.15435934
-0.010707609 -0.010821868 -0.15547645
0.011850569 -0.010770004 -0.15772164
0.034391988 -0.010771599 -0.15765369
-0.44066727 -0.30516151 -0.14668047
0.41843057 -0.30455184 -0.15163124
0.44286552 -0.30610728 -0.1390022
-0.46433407 -0.2832793 -0.14024115
0.44125813 -0.28215331 -0.14999199
0.4655081 -0.28339037 -0.1392777
-0.44041216 -0.25973129 -0.14833701
0.41831711 -0.25928795 -0.15245008
0.44242081 -0.26040962 -0.14204264
-0.44198084 -0.23813771 -0.13814819
-0.41778505 -0.23710851 -0.14843285
0.39553928 -0.23655634 -0.15395057
0.41954988 -0.23759679 -0.1435535
-0.41904959 -0.21529476 -0.13978708
-0.39515936 -0.21448724 -0.14852846
0.39670238 -0.2148075 -0.14506292
-0.3963573 -0.19260763 -0.1398834
-0.37253517 -0.19186744 -0.14862442
0.37387833 -0.19204137 -0.14657068
0.39787433 -0.19292738 -0.13610744
-0.37366647 -0.16992211 -0.13997972
-0.34991243 -0.16924927 -0.14872003
0.35107926 -0.16929975 -0.14806342
0.37498021 -0.17010327 -0.1376245
-0.35097542 -0.14723693 -0.14008975
-0.32728961 -0.14663145 -0.14882946
0.32830331 -0.14658113 -0.14955461
0.35210961 -0.14730276 -0.13914001
-0.32828769 -0.12455444 -0.14018619
-0.30466995 -0.12401605 -0.14892554
0.30554909 -0.12388486 -0.1510576
0.32926401 -0.12452634 -0.14064026
-0.30560142 -0.10187332 -0.14028251
-0.28205174 -0.10140243 -0.14902103
0.28281942 -0.10121243 -0.15254569
0.30644163 -0.10177332 -0.14213872
-0.28310814 -0.079282135 -0.13846505
-0.25961712 -0.078881174 -0.14714587
0.26028839 -0.078658804 -0.15195894
0.28382647 -0.079135284 -0.14164388
-0.23728505 -0.056390759 -0.14371812
-0.21397048 -0.056057718 -0.15236831
0.21518126 -0.056108739 -0.15104413
0.23805359 -0.05624887 -0.14740634
0.26134357 -0.056553241 -0.13949776
-0.21489979 -0.03384747 -0.1402961
-0.19165631 -0.033594791 -0.14850116
-0.1689055 -0.033525396 -0.15075719
-0.14618887 -0.033455614 -0.15302324
0.14741887 -0.033526238 -0.15072966
0.17020965 -0.033638198 -0.14709139
0.19305703 -0.033750545 -0.1434437
0.21596116 -0.033863146 -0.13978708
0.23892231 -0.03397603 -0.13612127
-0.1924624 -0.01125161 -0.13686609
-0.1695921 -0.011188325 -0.13960803
-0.14678873 -0.011135478 -0.14189148
-0.12402131 -0.011083167 -0.14415753
-0.10128838 -0.011030715 -0.14643359
-0.078590602 -0.010978181 -0.14870644
-0.055928227 -0.010926094 -0.150962
-0.033300616 -0.010874007 -0.15321422
0.056988951 -0.010854881 -0.15404594
0.079641983 -0.01093867 -0.15041578
0.10235117 -0.011022653 -0.14677632
0.12511677 -0.011106972 -0.14312792
0.14793892 -0.011191431 -0.13947034
0.1708179 -0.011276226 -0.13580394
-0.078934804 0.011460043 -0.13752806
-0.056185659 0.011495214 -0.13981462
-0.033471983 0.011530109 -0.14208376
-0.010793159 0.011565279 -0.14436328
0.011850569 0.011600144 -0.14662564
0.034478255 0.011597373 -0.14644754
0.057162117 0.011541139 -0.1427983
0.079902381 0.011484798 -0.13913989
0.10269882 0.011428539 -0.13548636
0.011850569 0.034140304 -0.135445
-0.4670521 -0.30802557 -0.12342775
0.46764216 -0.30778065 -0.1254164
-0.49007162 -0.28536698 -0.12216067
0.48993346 -0.28463504 -0.12849879
0.49115634 -0.26268455 -0.12093437
-0.46580449 -0.26158401 -0.1311456
0.46669617 -0.26153922 -0.1315608
-0.46751377 -0.2398967 -0.12057185
0.44373134 -0.23864467 -0.13308251
0.46808767 -0.23970149 -0.12252283
-0.44360104 -0.21641831 -0.12762463
0.42079204 -0.215775 -0.13458884
0.44505188 -0.21674813 -0.12405372
-0.44523284 -0.19454311 -0.11702597
-0.42032161 -0.19335221 -0.13109016
0.4220399 -0.19381849 -0.12558329
-0.42160118 -0.17127971 -0.12234175
-0.3975623 -0.17059883 -0.13118708
0.39905167 -0.17091262 -0.1271112
-0.39877442 -0.14845978 -0.12243927
-0.37480444 -0.14784698 -0.131284
0.37608713 -0.14803034 -0.12863755
0.40023616 -0.14876325 -0.11805987
-0.37594914 -0.12564129 -0.12253678
-0.35204637 -0.12509575 -0.13139474
0.35314786 -0.12517263 -0.13014829
0.37720251 -0.1258232 -0.1195817
-0.35312366 -0.10282362 -0.122648
-0.32929164 -0.102347 -0.13149154
0.33023208 -0.1023379 -0.13165784
0.35419089 -0.10290606 -0.12111568
-0.33050907 -0.080091044 -0.12094831
-0.30673838 -0.079685479 -0.12973261
0.3075307 -0.079614982 -0.13125634
0.33140275 -0.080098167 -0.12079513
-0.30805963 -0.05740096 -0.11747301
-0.28432775 -0.057062004 -0.12627792
-0.26073626 -0.056725156 -0.13503075
0.28498697 -0.056954134 -0.12908137
0.30879682 -0.057357278 -0.11860454
-0.26186469 -0.03438564 -0.12281513
-0.23831216 -0.034115601 -0.13158834
0.26240772 -0.03425901 -0.12693071
-0.23934901 -0.011656318 -0.11934435
-0.21583679 -0.011453543 -0.12812424
0.19375387 -0.011361104 -0.13212824
0.21674708 -0.011446062 -0.12844336
0.23979773 -0.011531394 -0.12474918
-0.19330765 0.011262029 -0.12466586
-0.17028481 0.011318933 -0.12836015
-0.1473939 0.011354301 -0.13066089
-0.12453859 0.011389699 -0.13295805
-0.1017193 0.011424758 -0.13523805
0.12555239 0.011372 -0.13181007
0.14846298 0.011315294 -0.12812436
0.17143083 0.011258334 -0.12442958
0.19445612 0.011201289 -0.12072527
0.21753907 0.011144217 -0.1170119
-0.17098281 0.033998519 -0.11702597
-0.1480037 0.034016386 -0.11934435
-0.12506045 0.0340342 -0.12165916
-0.10215299 0.034052037 -0.12397039
-0.079281226 0.034069791 -0.12627804
-0.056445386 0.034087405 -0.12856829
-0.033644646 0.034105074 -0.13086855
-0.010879466 0.034122717 -0.13315177
0.034565289 0.034137979 -0.13514125
0.057336409 0.034109697 -0.13147771
0.080164462 0.034081385 -0.12779129
0.10304956 0.034052849 -0.12409556
0.12599191 0.034024537 -0.12039065
0.14899108 0.033996001 -0.11669052
-0.056706782 0.056852683 -0.11724949
-0.03381864 0.056852683 -0.11956763
-0.010966325 0.056852683 -0.12186813
0.011850569 0.056852739 -0.12417912
0.034652889 0.056852739 -0.12376165
0.057512261 0.056852739 -0.12005591
0.4933728 -0.31002134 -0.10722363
-0.5162968 -0.28759119 -0.10289764
0.51607144 -0.28693432 -0.10858762
-0.49153844 -0.26348573 -0.11349952
0.51745123 -0.26489317 -0.10044038
-0.4933506 -0.24167536 -0.10279894
0.49298871 -0.24099474 -0.10959935
-0.4692331 -0.21805225 -0.10993648
0.46948555 -0.21772824 -0.11344337
0.4948352 -0.21913843 -0.098177314
-0.47096705 -0.19605179 -0.099210262
0.4463785 -0.19471599 -0.1149838
0.47089201 -0.1956201 -0.10430813
-0.44687423 -0.17250971 -0.10636473
0.42329538 -0.17172767 -0.11652267
0.44771323 -0.17254871 -0.10585797
-0.42289856 -0.14908113 -0.11347127
0.42455858 -0.14950126 -0.10740638
-0.42446163 -0.12685768 -0.10278487
-0.39999375 -0.12618923 -0.11363947
0.40142977 -0.12647869 -0.10893893
0.4258315 -0.12713884 -0.098219752
-0.40122035 -0.10378596 -0.10478723
-0.37709886 -0.10330287 -0.11375165
0.37832305 -0.10347904 -0.110484
0.4026289 -0.10405597 -0.09977603
-0.37847492 -0.080909252 -0.10323644
-0.35441971 -0.080498636 -0.11212564
0.35544607 -0.08058551 -0.11024535
0.37965935 -0.081075519 -0.099634647
-0.35594776 -0.058084305 -0.099719405
-0.3319315 -0.057741236 -0.10862982
0.33277595 -0.057763468 -0.10805321
-0.30939186 -0.034930896 -0.10511148
-0.28555751 -0.034657445 -0.11398971
0.28615615 -0.034582417 -0.1164248
0.31007242 -0.034907851 -0.10585797
-0.28679749 -0.012066092 -0.10159886
-0.26300249 -0.011860546 -0.11049807
0.26347983 -0.011773456 -0.11426985
0.28733405 -0.012018148 -0.10367346
-0.26414981 0.010852616 -0.098078132
-0.24039444 0.010990001 -0.10699832
-0.21678157 0.011126269 -0.11585128
0.24077165 0.011068553 -0.11209762
0.26456231 0.010905068 -0.10148597
-0.21773313 0.033894293 -0.10349011
-0.19415992 0.033962563 -0.11236405
0.17204848 0.033967212 -0.1129669
0.19516379 0.033938594 -0.10923409
0.21833721 0.033909749 -0.105492
0.2417572 0.033862032 -0.099295139
-0.14861819 0.056852683 -0.10794079
-0.079630718 0.056852628 -0.11492765
0.1034026 0.056852628 -0.11263037
0.12643431 0.056852628 -0.10889673
0.14952394 0.056852628 -0.10515368
-0.19501936 0.056852739 -0.099959731
-0.17168531 0.056852739 -0.1056186
-0.12558635 0.056852739 -0.11027348
-0.10259055 0.056852739 -0.11260235
0.080428898 0.056852739 -0.11634088
0.17267096 0.056852795 -0.1014154
-0.12611562 0.079847142 -0.09881413
-0.10303146 0.079829112 -0.10114706
-0.079982907 0.079811074 -0.10349023
-0.056970503 0.079793096 -0.10582983
-0.033994183 0.079775065 -0.10816586
-0.011053853 0.079757199 -0.11049819
0.011850569 0.07973922 -0.11282682
0.034741275 0.079743311 -0.11227989
0.057689261 0.079772092 -0.10855961
0.080695063 0.079800881 -0.10481548
0.10375881 0.079829723 -0.10106218
-0.4942508 -0.31122106 -0.097483516
-0.54287308 -0.28984958 -0.08333981
0.54298788 -0.28954124 -0.086010814
-0.51758158 -0.26541036 -0.095641375
0.54411215 -0.26713264 -0.079661012
-0.519499 -0.2434753 -0.084811687
0.51939756 -0.24306141 -0.088947892
-0.49517354 -0.21970586 -0.092035294
-0.49701199 -0.19757856 -0.0811795
0.49669588 -0.1971138 -0.08666718
-0.47271129 -0.17389108 -0.08842063
0.47230715 -0.17337547 -0.095116615
-0.4485296 -0.1503184 -0.095613003
0.44905829 -0.15024579 -0.096661806
0.47395968 -0.15109634 -0.08438313
-0.45019478 -0.12796545 -0.084797144
0.45040959 -0.12780376 -0.087423086
-0.426038 -0.10447465 -0.092007041
0.42711034 -0.10463722 -0.08899045
-0.42788568 -0.082011282 -0.079374433
-0.40267441 -0.081322223 -0.094293714
0.40404597 -0.081569165 -0.088947773
-0.40441221 -0.058775801 -0.081752062
-0.38010821 -0.058429223 -0.090755582
0.35692623 -0.05817252 -0.097426891
0.38124952 -0.058584508 -0.086724043
-0.35748863 -0.035482202 -0.087209105
-0.33336744 -0.035205413 -0.096194148
0.33415949 -0.03523552 -0.095215917
0.35842085 -0.035566021 -0.084483027
-0.33481377 -0.01248024 -0.08366847
-0.31073371 -0.012272511 -0.092660546
0.31135902 -0.012264695 -0.093001485
0.33555654 -0.012512859 -0.082252741
-0.31208685 0.010575943 -0.080105424
-0.28804645 0.010714699 -0.089118838
0.28852341 0.01074063 -0.090798378
0.31265676 0.010574821 -0.08003366
-0.2653054 0.033756401 -0.085568309
-0.24144858 0.033825569 -0.09454906
0.26565421 0.033779591 -0.088591576
0.19587697 0.056852628 -0.09765327
0.21914156 0.056852683 -0.093881965
0.24275126 0.056852683 -0.086381674
-0.24251044 0.056852739 -0.082009673
-0.21869372 0.056852739 -0.091011643
-0.19588497 0.079934403 -0.087465763
-0.17239411 0.079883322 -0.094109178
-0.14923666 0.079865232 -0.096463442
0.12688071 0.079858847 -0.097299457
0.1500603 0.079887748 -0.093541384
0.17329904 0.07991682 -0.08975935
0.19659661 0.079945885 -0.085967898
0.2199522 0.079975061 -0.082181215
-0.15017451 0.10314561 -0.079059124
-0.12691823 0.10310893 -0.081437111
-0.10369872 0.1030724 -0.083811402
-0.080515414 0.10303573 -0.086196303
-0.057369258 0.10299926 -0.088563204
-0.034259383 0.10296269 -0.090940475
-0.011186244 0.10292628 -0.093299866
0.011850569 0.10288988 -0.095669627
0.034874707 0.10290091 -0.094946265
0.057957016 0.10295916 -0.091168165
0.08109805 0.10301764 -0.087365866
0.10429747 0.10307605 -0.083568454
0.12755628 0.10313497 -0.079747081
-0.56980294 -0.29213935 -0.063509226
0.57031828 -0.29218972 -0.063074589
-0.54393959 -0.26735827 -0.077567101
-0.54596472 -0.24529715 -0.066605926
0.54617542 -0.24515699 -0.068007588
-0.52142787 -0.2213795 -0.073917508
0.52135891 -0.22106098 -0.077366352
-0.52337331 -0.19912393 -0.06292963
0.52333552 -0.19888969 -0.065695047
-0.4988614 -0.17528915 -0.070258975
0.49857101 -0.17491892 -0.075067997
-0.4744705 -0.15157053 -0.07753861
0.50046062 -0.1525517 -0.063378692
-0.47624013 -0.1290866 -0.06659162
0.47574821 -0.12870637 -0.072766185
-0.45187423 -0.10545097 -0.073888779
0.45176926 -0.10522266 -0.078126907
0.47755063 -0.10614227 -0.061059237
-0.45381376 -0.082846656 -0.061291099
0.4286077 -0.082066387 -0.078184247
0.45334652 -0.082567006 -0.067343116
-0.43011931 -0.059455138 -0.064103007
0.40574762 -0.058999378 -0.075944662
0.43042445 -0.059417892 -0.065072894
-0.40647084 -0.036107522 -0.066895127
-0.38175154 -0.035759468 -0.078198671
0.38285524 -0.035898503 -0.073687315
0.40746599 -0.036233228 -0.062813878
-0.38341054 -0.012899283 -0.065521479
-0.35903892 -0.012689058 -0.074622273
0.35992679 -0.012762543 -0.071440935
0.38447317 -0.013013985 -0.060551286
-0.36060408 0.010295849 -0.061914802
-0.33627227 0.010436315 -0.071037531
0.33696419 0.010407977 -0.069191456
-0.31345135 0.033616833 -0.067444205
-0.2893059 0.033686787 -0.076533437
0.2897231 0.033696696 -0.07781136
0.3139658 0.033613078 -0.066952944
-0.29057595 0.056852795 -0.063842297
-0.26647073 0.056852739 -0.072953463
0.26675552 0.056852739 -0.075585485
0.29093325 0.056852739 -0.064710975
-0.2676459 0.080143981 -0.060231805
-0.24358118 0.080073692 -0.069364548
-0.21966128 0.08000391 -0.078442454
0.24375395 0.080043055 -0.07335639
0.26786649 0.080126844 -0.062465906
-0.19720203 0.10330876 -0.068455219
-0.17346853 0.10318252 -0.076662779
0.15087372 0.10319372 -0.075930238
0.17425042 0.10325264 -0.072103739
0.19768755 0.10331196 -0.06825316
0.22118364 0.10337115 -0.064406991
-0.10453537 0.12668417 -0.062074304
-0.081184119 0.12662873 -0.064479351
-0.057869662 0.12657295 -0.066895127
-0.034592677 0.12651761 -0.069292545
-0.011352628 0.12646222 -0.071686029
0.011850569 0.12640712 -0.074075699
0.035042569 0.12642868 -0.073140383
0.058293816 0.12651761 -0.069292545
0.081604525 0.12660661 -0.065434575
0.10497449 0.1266956 -0.061581373
-0.59724963 -0.29455128 -0.042622089
-0.57061815 -0.26932979 -0.059273481
0.57114947 -0.26940498 -0.058575869
-0.57275343 -0.24714138 -0.048178196
0.5733301 -0.24728198 -0.046772838
-0.54800189 -0.22307353 -0.055579305
0.54825473 -0.22301038 -0.056263447
-0.55005682 -0.20068829 -0.04445672
0.55035037 -0.20069073 -0.044427395
-0.52533042 -0.17670423 -0.051875949
0.52532756 -0.17654593 -0.053932786
-0.50072682 -0.15283808 -0.059244275
0.52733511 -0.15402731 -0.042078614
-0.50260341 -0.13022153 -0.048163533
0.50236505 -0.13000984 -0.051598549
-0.47802508 -0.10643913 -0.055550098
-0.48005563 -0.083691865 -0.042989254
0.47961041 -0.083475202 -0.047680736
-0.45619565 -0.060158897 -0.045820355
0.45555115 -0.059910584 -0.052269936
-0.43237787 -0.036669079 -0.048660994
0.43225509 -0.03657056 -0.051861286
-0.40860659 -0.013223451 -0.051481843
0.40919754 -0.013267275 -0.049582362
-0.38508359 0.010154545 -0.052736759
0.3614476 0.010239843 -0.058270812
0.38610712 0.010070533 -0.047285318
-0.3621825 0.033475697 -0.049099803
-0.3377431 0.033546433 -0.05829978
0.33838412 0.033528846 -0.056015968
0.36298004 0.033444162 -0.04499948
-0.31482738 0.056852683 -0.054676175
0.31528628 0.056852683 -0.053757787
0.33981654 0.056852683 -0.042724848
-0.33922642 0.056852795 -0.045454025
-0.31621513 0.080285899 -0.041799426
-0.29185677 0.080214776 -0.05104363
0.29215398 0.080211416 -0.051496387
-0.24521548 0.10359193 -0.050064802
-0.22113581 0.10345012 -0.059287906
0.24527949 0.1035385 -0.053539157
0.26956049 0.10370904 -0.042460561
-0.19885252 0.12708704 -0.044632912
-0.17487013 0.12687303 -0.05390358
-0.15135033 0.12679592 -0.057238221
-0.12792449 0.12674019 -0.059651017
0.12840417 0.12678488 -0.057718277
0.15189445 0.12687461 -0.053830743
0.17544433 0.12696439 -0.049947739
0.1990546 0.12705411 -0.04605484
-0.081862584 0.15056597 -0.042445779
-0.058377694 0.15049036 -0.044896722
-0.034930825 0.15041547 -0.047329187
-0.011521429 0.15034071 -0.049757719
0.011850569 0.15026599 -0.052182317
0.035213009 0.1503024 -0.050999641
0.058635343 0.15042219 -0.047109485
0.082118139 0.15054283 -0.043194652
0.59829086 -0.29501152 -0.038636684
-0.59762317 -0.27132556 -0.04075563
0.59856588 -0.27170789 -0.037207603
-0.59987116 -0.24900807 -0.029524088
0.60087252 -0.24943881 -0.025221944
-0.57490158 -0.22478841 -0.037016034
0.57553053 -0.22498728 -0.034862518
-0.57706845 -0.20227171 -0.025756836
0.57774836 -0.20251705 -0.0228585
-0.55212408 -0.17813677 -0.033267379
0.5524624 -0.17819585 -0.032498717
-0.52730453 -0.15412107 -0.040726304
-0.5292905 -0.13137037 -0.029509306
0.52935851 -0.13133192 -0.03013134
-0.50449634 -0.1074394 -0.036986589
0.50428432 -0.10729189 -0.039726138
-0.50661707 -0.084547654 -0.02446413
0.50643933 -0.084458351 -0.026395321
-0.4825871 -0.060870606 -0.027330041
0.482171 -0.060727391 -0.031048894
-0.45859975 -0.037237357 -0.030205369
0.45797852 -0.037068967 -0.035673857
-0.43465966 -0.013648938 -0.033060312
0.43410391 -0.013522755 -0.038519025
-0.41076425 0.0098955669 -0.03591013
0.41094622 0.009900216 -0.036219835
0.43617496 0.0097055919 -0.023572326
-0.38691145 0.033395998 -0.038769126
0.38775361 0.033358805 -0.033917427
0.41270843 0.033272892 -0.022754192
-0.38896641 0.056852628 -0.023066401
-0.36377433 0.056852683 -0.036175609
0.36452594 0.056852628 -0.031611204
-0.36537981 0.080429614 -0.023140907
-0.34072238 0.080357537 -0.032498717
0.31661835 0.080296382 -0.040446877
0.34126157 0.080382124 -0.029316664
-0.29381624 0.1038783 -0.031463265
-0.26944232 0.10373492 -0.040785074
0.29401958 0.10388082 -0.031300664
-0.24725747 0.12751852 -0.025949836
-0.22298087 0.12730217 -0.035319924
0.22288543 0.12719759 -0.039843678
0.24719204 0.12745517 -0.028694272
-0.15254338 0.15079206 -0.035098433
-0.12894477 0.15071629 -0.037561297
-0.1053848 0.15064101 -0.040005445
0.10566151 0.15066358 -0.039269686
0.12926516 0.15078445 -0.035349369
-0.17635055 0.15095319 -0.02986455
0.1529296 0.15090542 -0.031419039
0.17665592 0.15102723 -0.027463555
0.20044282 0.15114889 -0.02351284
-0.035273928 0.17466393 -0.025043726
-0.01169271 0.17456912 -0.02750802
0.011850569 0.17447446 -0.0299685
0.035385858 0.17452912 -0.028545976
0.05898216 0.17468163 -0.02458322
-0.62516189 -0.29704309 -0.021042109
0.62680626 -0.29792944 -0.013366461
-0.62496072 -0.27334571 -0.022010088
0.6263721 -0.2740435 -0.015535593
-0.62732404 -0.25089806 -0.010639429
-0.6021328 -0.22652419 -0.018224359
0.60319448 -0.22699235 -0.013156772
-0.60441422 -0.20387472 -0.0068255663
-0.57924843 -0.1795869 -0.014429092
0.57998371 -0.17986937 -0.010759473
-0.55420941 -0.1554199 -0.021980286
0.55459112 -0.15552403 -0.020475984
-0.55630744 -0.13253328 -0.010624409
0.55673659 -0.13267282 -0.0083581209
-0.53129387 -0.10845208 -0.018194318
0.53139526 -0.10845701 -0.018104672
-0.53350383 -0.085413739 -0.0057125092
0.53364688 -0.085455269 -0.0048094988
-0.50930148 -0.061590966 -0.0086132288
0.50916588 -0.061555739 -0.009529233
-0.48514464 -0.037813049 -0.011509061
0.48475975 -0.037729185 -0.014234543
-0.46103102 -0.014079522 -0.014413953
0.46043035 -0.013975684 -0.018910408
-0.43696499 0.0096089803 -0.017298698
-0.41294417 0.03325301 -0.020177841
0.43851838 0.033149004 -0.0066601038
-0.41514462 0.056852683 -0.0042976141
0.38941652 0.056852683 -0.02041626
0.41448823 0.056852683 -0.0091539621
-0.39104265 0.080552332 -0.0072011948
0.36608556 0.080468319 -0.018104792
0.39109233 0.08055535 -0.0068104267
-0.34301803 0.10416847 -0.012617826
-0.31834146 0.10402307 -0.022069573
0.31865871 0.10405393 -0.020058632
0.34347984 0.10422834 -0.008733511
-0.29625928 0.12795503 -0.0070509911
-0.27168363 0.12773633 -0.01652205
0.27167851 0.12771483 -0.017447948
0.2963472 0.12797694 -0.0061036348
-0.22485539 0.15153511 -0.0109694
-0.2005282 0.15124325 -0.020446062
0.22462238 0.151418 -0.014773011
-0.17785461 0.17541845 -0.0054415464
-0.15375397 0.17514168 -0.012632728
-0.12998074 0.17504556 -0.01513195
-0.10624672 0.17494996 -0.01761198
-0.082550555 0.17485407 -0.020103216
-0.058893178 0.17475893 -0.022575498
0.082639366 0.17483403 -0.020624995
0.10635829 0.17498732 -0.016641498
0.13013895 0.17514111 -0.01264751
0.15398087 0.17529462 -0.0086584091
0.17788477 0.17544854 -0.0046589375
-0.011866516 0.1991553 -0.0049300194
0.011850569 0.19903986 -0.0074266195
0.035561286 0.19911705 -0.0057575703
-0.65570462 -0.30076608 0.011200547
0.65593785 -0.3009735 0.012996435
-0.65394866 -0.27604684 0.0030536652
0.65457654 -0.27641255 0.0064467192
0.62880534 -0.25162467 -0.0033788681
-0.62970185 -0.22828175 0.00080084801
0.63125479 -0.22902618 0.0088596344
0.60553771 -0.20436965 -0.00098109245
-0.60670972 -0.18105504 0.0046432018
0.60789961 -0.18156691 0.011291623
-0.5814476 -0.15673459 -0.0030019283
0.58223671 -0.15704209 0.0014356375
-0.58366024 -0.13371074 0.0084952116
0.58450484 -0.13403201 0.013712168
-0.55842382 -0.1094774 0.00083112717
0.55889642 -0.10963953 0.0038406849
-0.56072199 -0.086290479 0.013270497
-0.53634483 -0.062320236 0.010333538
0.53654385 -0.062395792 0.012296081
-0.51201385 -0.038395304 0.0074023008
0.51192266 -0.038399164 0.0075237751
-0.48772642 -0.014515426 0.0044615269
0.4873772 -0.014476273 0.0027661324
-0.46348748 0.009318918 0.0015413761
0.46290934 0.0093729086 -0.0019615889
-0.43929428 0.033108175 -0.001373291
-0.44164783 0.056852628 0.014718175
0.44088575 0.056852683 0.010424972
-0.41737217 0.080698453 0.011778593
0.41642866 0.08065135 0.0056735277
-0.36800882 0.10433509 -0.0017956495
0.3684833 0.1044037 0.0026603937
0.39367449 0.10458079 0.014154077
-0.34587196 0.12839715 0.012098193
-0.32098874 0.12817532 0.0024939775
0.32119894 0.12824073 0.0053249598
-0.27395958 0.1521228 0.0081156492
-0.24933216 0.15182824 -0.0014488697
0.24913619 0.15176699 -0.0034390688
0.27383292 0.15211904 0.0079942942
-0.2267589 0.17615741 0.013758063
-0.20223078 0.17578682 0.0041283369
0.20185183 0.17560345 -0.00063383579
0.22638816 0.17604019 0.010713935
-0.1549817 0.19985175 0.010151386
-0.13103206 0.19973525 0.0076299906
-0.10712083 0.19961837 0.0050977468
-0.083249167 0.19950238 0.0025846958
-0.05941629 0.19938633 7.5817108e-05
-0.035622105 0.19927067 -0.0024291277
0.059333924 0.19930276 -0.0017353296
0.08316873 0.19948904 0.0022972822
0.10706596 0.19967571 0.0063406229
0.13102525 0.19986233 0.010379195
0.15504792 0.20005001 0.014443874
0.68332034 -0.27888218 0.029361725
-0.65750945 -0.25392166 0.019573927
0.65713966 -0.25384203 0.018778801
0.65972334 -0.23109077 0.031209588
0.63372689 -0.20624875 0.021211147
-0.63288933 -0.2058192 0.016136646
-0.6363554 -0.18322361 0.032812715
0.63621879 -0.18328895 0.033661246
-0.60902536 -0.15806593 0.01621294
0.61028033 -0.15858203 0.023662567
-0.61165398 -0.13499485 0.029346108
-0.58589238 -0.11051542 0.020093918
0.5867939 -0.11083908 0.026102424
-0.58827782 -0.087178111 0.032488942
0.56124109 -0.086466596 0.017083049
-0.56372333 -0.063058585 0.029515624
-0.53921568 -0.038984831 0.02654779
0.53947306 -0.039078649 0.029592633
-0.51475459 -0.014957096 0.023585916
0.51471013 -0.014984321 0.024766803
-0.49034008 0.0090250485 0.020629406
0.49002612 0.009035185 0.01997149
-0.46596959 0.032961719 0.01766324
0.4654181 0.032980815 0.01519084
0.46795267 0.056852683 0.032519937
-0.44402835 0.080846421 0.030993819
0.4432795 0.08082094 0.027700543
-0.39425263 0.10462958 0.017327189
0.4198834 0.10485668 0.032072544
-0.37171569 0.12877135 0.028300285
0.34623584 0.12850665 0.01683867
0.3714599 0.12877458 0.028438568
-0.32367879 0.15271826 0.027454495
-0.29874173 0.15241946 0.017755032
0.29871351 0.15247373 0.019512653
0.32378158 0.15283157 0.03113246
-0.27627376 0.17690456 0.033167601
-0.25144035 0.17653042 0.023447752
0.25111276 0.17648377 0.022237301
-0.20396087 0.20072691 0.02910006
-0.17938292 0.20027779 0.019374847
0.17913291 0.20023757 0.018503666
0.20343028 0.2005375 0.024997115
-0.13209911 0.22479391 0.030732036
-0.10800916 0.22465636 0.028177142
-0.08395867 0.22451891 0.025626421
-0.059947547 0.2243817 0.023079872
-0.035975702 0.2242447 0.020537615
-0.012043027 0.22410788 0.01799953
0.011850569 0.22397134 0.015465379
0.035739347 0.22407411 0.017373204
0.059690982 0.22429405 0.021456122
0.083705723 0.22451466 0.025549769
0.10778382 0.22473595 0.029653907
0.68804049 -0.30539188 0.051260114
-0.68619347 -0.28013408 0.040978074
0.68724751 -0.25672445 0.047581553
-0.66111189 -0.2315598 0.03628695
0.66232461 -0.2081552 0.043724656
-0.63985568 -0.16038267 0.04965353
0.63873076 -0.16014421 0.046211839
0.61267722 -0.13541175 0.036116958
-0.61501712 -0.11191937 0.046149611
0.61509633 -0.11205606 0.04868722
0.58923304 -0.087492898 0.039304495
-0.59171921 -0.063861251 0.050371051
0.56431293 -0.0632478 0.034433007
-0.56675911 -0.039582204 0.045947313
0.56741941 -0.039767925 0.05197835
-0.54211664 -0.01540387 0.042932749
0.54243523 -0.01549964 0.047083139
-0.51752418 0.0087277628 0.039939404
0.51752889 0.0086928718 0.042203307
-0.49297878 0.032813296 0.03695178
0.49270234 0.032810047 0.037353992
-0.46848017 0.056852683 0.033969879
-0.47101489 0.080996022 0.050433278
0.47051799 0.080992997 0.05005908
-0.42082387 0.1049277 0.036688924
-0.39824036 0.12922163 0.047799349
0.3971197 0.1290907 0.042125702
-0.34901702 0.15308404 0.039335251
0.34903798 0.15319197 0.042839646
-0.30126446 0.17728154 0.042963862
0.27602202 0.17693059 0.033846617
0.30112097 0.17738201 0.045574188
-0.25358152 0.2016339 0.048734069
-0.22869325 0.20117895 0.038886189
0.22818349 0.2010746 0.036627173
0.2531237 0.20161659 0.048360229
-0.18093607 0.22554094 0.044594765
-0.15630846 0.22501184 0.034772754
0.13192554 0.22495762 0.033769369
0.1561304 0.22517918 0.037880182
0.18039995 0.22540209 0.042016983
0.20504095 0.22589433 0.051150918
-0.084778756 0.25011119 0.052259564
-0.060559083 0.24994515 0.04956007
-0.036381282 0.2497801 0.046880841
-0.012244647 0.24961449 0.044190764
0.011850569 0.24945 0.041520715
0.035942916 0.24959157 0.043817878
0.060101841 0.24985783 0.048141956
0.084327251 0.2501238 0.052462459
-0.69163173 -0.30701753 0.065338254
-0.68970001 -0.25763559 0.056685328
0.6913873 -0.23437731 0.066787839
-0.66474998 -0.20895465 0.053165555
-0.66843098 -0.18610498 0.070243239
0.66586256 -0.18537392 0.060746789
-0.64339727 -0.13729487 0.066693187
0.64126301 -0.13681264 0.05886364
-0.61853951 -0.088621974 0.063748479
0.61762583 -0.088533431 0.061830521
0.59248471 -0.064112663 0.056904435
-0.56982422 -0.015856687 0.062537789
0.57056099 -0.016022634 0.069722176
-0.54505116 0.0084263869 0.059506893
0.54543084 0.0083454028 0.064771414
-0.52032572 0.032662921 0.056481719
0.52037936 0.032637097 0.059836149
0.49540865 0.056852683 0.054932237
-0.49564782 0.056852795 0.053462505
-0.49834272 0.081147626 0.070132613
-0.44772878 0.10522947 0.056293845
0.44700301 0.10520297 0.054572582
-0.42509931 0.12967771 0.06754446
0.42416668 0.12961437 0.064802885
-0.37549365 0.1536888 0.058973432
0.37448484 0.15355512 0.054635167
-0.35258597 0.17833151 0.070243239
-0.32641265 0.17766093 0.052821755
0.32640773 0.17783618 0.057374597
0.35188752 0.17829454 0.069279909
-0.30382854 0.20255068 0.068585515
-0.27862576 0.20209092 0.05862844
0.27825069 0.20216192 0.060165763
-0.23065925 0.2266096 0.064425111
-0.20571916 0.2260735 0.054478645
0.23001021 0.22653237 0.062993646
-0.15790038 0.25085369 0.064314961
-0.1333427 0.25044361 0.057656646
-0.10903956 0.25027698 0.054947853
0.10862002 0.25039151 0.056810737
0.13297962 0.25065911 0.061155081
0.15740736 0.25092834 0.06552732
0.18192351 0.25122178 0.070290565
-0.71933901 -0.28436917 0.080274105
0.71767497 -0.28389022 0.075829387
-0.69352102 -0.23502527 0.073801517
0.69557816 -0.21175452 0.086230755
-0.67214876 -0.16300428 0.08749187
0.6698882 -0.16249318 0.080115318
-0.6469776 -0.11395459 0.08391881
0.64429712 -0.11342135 0.074023128
-0.62333006 -0.06529744 0.087683558
0.6210621 -0.064989626 0.079686046
-0.5962863 -0.04044925 0.074102402
0.59577322 -0.040467788 0.07470417
-0.57388633 0.0080412254 0.084524393
0.57373834 0.0079928376 0.087667465
-0.5480141 0.032510802 0.076241374
0.54846048 0.032461349 0.082660556
-0.52315438 0.056852683 0.073184252
0.52326483 0.056852739 0.077684999
-0.526016 0.081301145 0.090081096
0.49814808 0.081167623 0.072725296
-0.47497365 0.10553516 0.076146364
0.47451919 0.1055547 0.077415228
-0.45229888 0.13013943 0.087539792
0.45160428 0.13014497 0.087779403
-0.40230513 0.15430108 0.078860044
0.4011772 0.15418436 0.075068474
0.37803742 0.17891498 0.085401297
-0.32951179 0.20315085 0.081578255
0.30356771 0.2027113 0.072060943
0.32908008 0.20326634 0.084078074
-0.28101644 0.22769183 0.084508419
-0.25575784 0.22714901 0.074434757
0.25516751 0.22717455 0.074910164
0.28051594 0.22782148 0.086917281
-0.20785269 0.25214449 0.085273504
-0.1827942 0.25149754 0.07476747
0.20698924 0.25199142 0.082787991
-0.037029404 0.27681261 0.088977695
-0.01256815 0.27662125 0.086214781
0.011850569 0.27643013 0.083456755
0.036269657 0.27662453 0.086262584
-0.72266924 -0.2614392 0.094694376
0.72136396 -0.26120502 0.092354059
-0.69738036 -0.21216594 0.091089129
-0.70128578 -0.18905641 0.10858321
0.69982105 -0.18885098 0.10591519
-0.67591095 -0.13965063 0.10494626
0.67396373 -0.13932897 0.099723577
-0.65060723 -0.090360075 0.1013819
0.6482451 -0.090007499 0.093748212
0.62566561 -0.041357685 0.1036067
-0.60092306 -0.016680155 0.098195553
0.59909922 -0.016553413 0.092706561
-0.57836413 0.032260396 0.10876119
0.57695204 0.032283023 0.10581827
0.55152464 0.056852683 0.1007539
-0.55133528 0.056852739 0.094999313
0.52618051 0.081344604 0.095721602
-0.50256497 0.10584459 0.096251249
0.5024361 0.10591119 0.10057676
-0.47984308 0.13060676 0.10777426
-0.42945787 0.15492119 0.098999619
0.42854086 0.15489744 0.098227739
-0.37934875 0.1791025 0.090272903
0.40532106 0.17981222 0.10871279
-0.35622436 0.20408264 0.10175252
0.35478562 0.20382483 0.096171021
-0.30643493 0.22823717 0.094630361
0.30605769 0.22847347 0.099015832
-0.25847551 0.25345355 0.10652924
-0.23307955 0.2527968 0.095865965
0.23225543 0.25276813 0.095400572
0.25772232 0.25355017 0.10809767
-0.13530056 0.27757952 0.10004544
-0.1106689 0.27738774 0.097279429
-0.086079493 0.2771953 0.094502091
-0.061533313 0.27700433 0.091745377
0.060757138 0.27693218 0.090705156
0.08531329 0.2772409 0.09515965
0.10993794 0.27754921 0.099610925
0.13463221 0.2778596 0.10409081
0.15939528 0.27816972 0.108567
-0.75407994 -0.28905153 0.12372053
0.75398022 -0.28947449 0.12764597
-0.72671854 -0.23857503 0.11222839
0.725779 -0.23856594 0.112131
-0.70523447 -0.16569096 0.12627089
0.70411688 -0.16566142 0.12584567
-0.6797148 -0.11603862 0.12259352
0.67809004 -0.11587597 0.11957633
-0.65570211 -0.066768244 0.12589467
0.65375388 -0.06659019 0.12127173
-0.62819397 -0.041615713 0.11198509
-0.60563105 0.0074541606 0.12265897
0.60294574 0.007594794 0.11352646
0.58020264 0.056852739 0.12417793
-0.55565792 0.081527025 0.1194135
0.55462682 0.081524335 0.11907125
-0.53091741 0.10619526 0.11902249
0.53076488 0.10627311 0.12407994
0.47944501 0.13068338 0.1110934
-0.456956 0.15554881 0.11938083
0.45630392 0.1556201 0.12169611
-0.40645131 0.17988274 0.11054242
-0.38327736 0.20502569 0.12216938
0.38194788 0.20489155 0.11926687
-0.33293393 0.22924492 0.11333168
0.33179659 0.22913133 0.11122298
-0.28404081 0.25411358 0.11724806
0.28339326 0.25433835 0.12089682
-0.18566518 0.27905795 0.12138605
-0.16039574 0.27831227 0.11062348
0.18451348 0.27884784 0.11835468
0.011850569 0.30414349 0.12653279
-0.75644583 -0.26533607 0.13363421
0.75647336 -0.26581711 0.13844121
-0.73080891 -0.21545587 0.12994039
0.73024571 -0.21564196 0.13213921
-0.70922709 -0.14206533 0.14415562
0.70846671 -0.1421805 0.14602625
-0.68356085 -0.09216401 0.14043736
0.68226814 -0.092128947 0.13967812
-0.63313293 -0.017568376 0.13666165
0.63099873 -0.017445106 0.13131845
0.60809755 0.032009091 0.14141154
-0.58291394 0.056852739 0.1333878
-0.5077408 0.13108002 0.12826848
0.50770032 0.13123012 0.13476908
-0.48480582 0.15618399 0.14000821
0.48447928 0.15635346 0.14551294
-0.433902 0.18067288 0.13107228
0.43300667 0.18072206 0.13235283
-0.41067916 0.20598084 0.14284921
0.40955412 0.20599148 0.14308059
-0.35993421 0.23035228 0.13388085
0.35842147 0.23013817 0.12990737
-0.31033826 0.25512275 0.13363433
0.30927232 0.25513393 0.13381517
-0.23671669 0.28056324 0.14311373
-0.21110418 0.2798076 0.13220489
0.20997393 0.27974138 0.13125265
0.23563902 0.28064108 0.14423847
-0.11234212 0.30523798 0.140751
-0.08741571 0.30501825 0.13789737
-0.062533736 0.30480033 0.13506496
-0.037695184 0.30458155 0.13222146
-0.012900455 0.3043628 0.12938273
0.036605507 0.30440205 0.12989116
0.061430484 0.30475232 0.13444018
0.086326167 0.30510473 0.13901842
0.11129224 0.30545691 0.14359307
-0.76073343 -0.2422121 0.15160143
0.76117063 -0.24287535 0.15878105
-0.73494869 -0.19208035 0.14786577
0.73476863 -0.19242927 0.15239942
-0.71326441 -0.11817506 0.16224051
-0.68886322 -0.068274826 0.16503716
-0.66087592 -0.042810459 0.15078735
0.6593622 -0.042764474 0.14929283
-0.63814873 0.0068527535 0.16172218
0.63642532 0.0068866946 0.15951598
-0.61041194 0.031962216 0.14750111
-0.58753759 0.081827223 0.15841365
0.58504927 0.081774406 0.1515516
-0.56253052 0.1067989 0.1582303
0.55972254 0.10665922 0.14915991
0.53637463 0.13178469 0.15878117
-0.46170512 0.18147255 0.15185094
0.46110508 0.18164566 0.15634537
-0.43843421 0.20694762 0.16378057
-0.38728362 0.23147394 0.15469599
0.38594273 0.23142903 0.15386355
-0.33748341 0.25647217 0.15554547
0.33575591 0.25617915 0.15078712
-0.26250342 0.28132415 0.15409672
0.26151216 0.28154826 0.15732932
-0.1629656 0.30659014 0.15831375
-0.13748403 0.30574366 0.14731896
0.13632989 0.30581126 0.14819765
0.16152743 0.30631408 0.15472925
-0.7901932 -0.29404145 0.17002225
-0.79105961 -0.26932964 0.17353964
-0.76506919 -0.21882848 0.16977012
0.76592755 -0.21964215 0.17937934
0.73934889 -0.16892272 0.17291641
-0.73913491 -0.16844293 0.16599262
0.71287161 -0.11840251 0.16646242
-0.7173472 -0.094015881 0.18052936
0.68804091 -0.06836769 0.16745222
-0.6661306 -0.018478546 0.17606866
0.6650694 -0.018518705 0.17780769
-0.61527067 0.056852683 0.17274797
0.61333686 0.056852739 0.16977012
-0.53878975 0.13194001 0.16550648
-0.51494217 0.15719418 0.17281532
0.51307881 0.15709825 0.16970301
-0.49098715 0.18256211 0.1801573
0.48962313 0.18258233 0.18068159
0.43757144 0.20710714 0.16723406
-0.41499114 0.2326111 0.17579877
0.41387922 0.23274025 0.17819607
-0.36500058 0.25784001 0.17775679
0.36343637 0.25775877 0.17643988
-0.28893605 0.28244266 0.17024088
0.28759724 0.28246367 0.17054355
-0.21445337 0.30830154 0.1805464
-0.18862104 0.30744219 0.16938353
0.18718448 0.30732983 0.16792226
0.21305028 0.30835223 0.18120623
-0.088788912 0.33361125 0.18249321
-0.063561425 0.33336341 0.17956519
-0.038379092 0.33311585 0.17664242
-0.013241803 0.33286864 0.17372489
0.011850569 0.33262226 0.17081261
0.036950596 0.33295304 0.17471945
0.062122889 0.33335051 0.17941308
0.79242152 -0.29566321 0.18507004
0.79261184 -0.27056327 0.18586755
-0.79816467 -0.24690308 0.20238233
-0.76945382 -0.195181 0.18814397
0.77074522 -0.1961122 0.20024037
-0.74336827 -0.14453903 0.18432379
0.74399132 -0.14511715 0.19371188
