ply
format ascii 1.0
comment PCL generated
element vertex 1377
property float x
property float y
property float z
element camera 0
property float view_px
property float view_py
property float view_pz
property float x_axisx
property float x_axisy
property float x_axisz
property float y_axisx
property float y_axisy
property float y_axisz
property float z_axisx
property float z_axisy
property float z_axisz
property float focal
property float scalex
property float scaley
property float centerx
property float centery
property int viewportx
property int viewporty
property float k1
property float k2
end_header
0.078874774 -0.50709766 -0.55324972
0.10117163 -0.50867313 -0.54121089
-0.38128489 -0.39727384 -0.55533886
0.38559234 -0.39729136 -0.55514896
-0.46931115 -0.33170158 -0.55305958
0.47363061 -0.33172488 -0.55272329
-0.49076033 -0.30960751 -0.55576217
0.49511287 -0.30963179 -0.55536807
-0.51260245 -0.28768191 -0.55611241
0.51695812 -0.2877022 -0.55573297
-0.53622472 -0.26619011 -0.54718423
0.54050153 -0.2662043 -0.54687583
-0.64691728 -0.090352103 -0.54359734
0.65108979 -0.090353534 -0.54368556
-0.69153154 -0.068294168 -0.54110765
0.69567996 -0.068296529 -0.54121077
-0.20810212 -0.48827058 -0.52808809
0.21218419 -0.48828709 -0.5279541
-0.31876835 -0.44409347 -0.52750766
0.32285756 -0.44411433 -0.52731431
-0.44973561 -0.35474914 -0.5385102
0.45392957 -0.35476971 -0.53824425
-0.56216264 -0.24497975 -0.52737379
0.56630152 -0.244994 -0.5270015
-0.73827422 -0.045956478 -0.53077877
0.74236774 -0.045956478 -0.53077877
-0.11989201 -0.51115328 -0.52225852
0.12392338 -0.51116502 -0.52216887
-0.27552277 -0.4673751 -0.5174849
0.27953336 -0.46739936 -0.51727498
-0.36438945 -0.42301857 -0.51702023
0.36840847 -0.42304415 -0.51676536
-0.43127719 -0.37875846 -0.51524973
0.43530387 -0.37878889 -0.5148896
-0.67549634 -0.067715056 -0.51603019
0.67945558 -0.067717075 -0.51612031
-0.72000551 -0.045492157 -0.5157001
0.72395712 -0.045495458 -0.51580501
-0.14336294 -0.51432556 -0.49801826
0.14720987 -0.51434135 -0.49789691
-0.703834 -0.044736646 -0.49116576
0.70760077 -0.044739559 -0.49125719
-0.77057773 -0.022399552 -0.49290478
-0.74832267 -0.022379644 -0.49238634
0.75209743 -0.022383139 -0.49247766
0.77437967 -0.022399552 -0.49290478
-0.23414078 -0.49397063 -0.48180938
0.23787504 -0.49399906 -0.48157883
-0.59218508 -0.2240243 -0.48937869
0.59609151 -0.22404456 -0.48872137
-0.65912813 -0.067130573 -0.49072301
0.66288948 -0.067133136 -0.49082971
-0.41517761 -0.40484178 -0.47341287
0.41890237 -0.40489042 -0.4728874
-0.68739259 -0.043967441 -0.46617949
0.69096375 -0.043970697 -0.46628809
-0.732014 -0.021457545 -0.46842921
0.73560458 -0.021461144 -0.46852219
-0.1685407 -0.52033174 -0.45212233
0.17204477 -0.52037066 -0.45182455
-0.71541494 -0.020523086 -0.44415307
0.71881908 -0.020526782 -0.4442476
-0.78106338 0.0017886311 -0.45398653
-0.76008981 0.0020915866 -0.44742763
0.76351774 0.0020872504 -0.44752192
0.78456575 0.0017886311 -0.45398653
-0.30725268 -0.47758412 -0.42907202
0.31064138 -0.47767419 -0.42829156
-0.35449556 -0.45599598 -0.41706586
0.35792887 -0.45619673 -0.41520286
-0.69845092 -0.019587286 -0.41984022
0.70166826 -0.019590937 -0.41993642
-0.74332482 0.0031780005 -0.42390406
0.74657595 0.003174305 -0.42398393
-0.79181182 0.026628524 -0.41409349
0.79500711 0.026628524 -0.41409349
-0.7263267 0.0042888075 -0.39985669
0.72938919 0.0042843223 -0.39995408
-0.77123392 0.027126655 -0.40484941
0.77433753 0.027122468 -0.40493035
-0.70889825 0.0053877383 -0.37606108
0.71177793 0.0053833127 -0.37616003
-0.75408989 0.028383344 -0.38152778
0.75701016 0.028378025 -0.38162637
-0.68904585 -0.04073403 -0.36117554
0.69159955 -0.040766455 -0.3622247
-0.80286855 0.052153096 -0.37305605
-0.78188074 0.052700371 -0.36417115
0.78467059 0.052695334 -0.36425412
0.80574793 0.052153096 -0.37305605
-0.73666042 0.029656172 -0.35790706
0.73939931 0.029650897 -0.35800719
-0.71874988 0.030902505 -0.33477867
0.72131503 0.03089802 -0.33486331
-0.7642988 0.054106399 -0.34134054
0.76691324 0.054101065 -0.34142494
-0.81424236 0.078391239 -0.33084142
0.81679678 0.078391239 -0.33084142
-0.67416233 -0.086955898 -0.32300508
0.67652756 -0.086965166 -0.3236028
-0.70056105 -0.015410192 -0.31131315
0.70287681 -0.015425421 -0.31170905
-0.74644631 0.055532634 -0.3181814
0.74888277 0.0555273 -0.31826699
-0.79202986 0.078768611 -0.32539439
0.79452068 0.07876265 -0.32547963
-0.72810161 0.056923792 -0.29559076
0.73036456 0.056918412 -0.29567766
-0.77401322 0.080313236 -0.30310011
0.7763328 0.080307126 -0.30318654
-0.6845268 -0.062185109 -0.27657819
0.68658382 -0.062193684 -0.27694786
-0.70813191 0.0098924935 -0.27853036
0.71019733 0.0098747015 -0.27891707
-0.75574648 0.081883892 -0.28042734
0.75789183 0.081877872 -0.28051519
-0.80196089 0.10536964 -0.28745079
0.80418122 0.10536964 -0.28745079
-0.66381383 -0.11017778 -0.26106822
0.66574621 -0.11018074 -0.26147711
-0.78330702 0.10698135 -0.26651514
0.78534442 0.1069745 -0.26660347
0.69391346 -0.037093364 -0.24294233
-0.71317983 0.035111398 -0.25667202
0.71509564 0.03509517 -0.25697505
-0.73700219 0.083417475 -0.25829315
0.73897755 0.083411217 -0.25838208
-0.76462185 0.10868394 -0.24439812
0.76648939 0.10867704 -0.24448788
-0.69210392 -0.037084095 -0.2426368
-0.71730268 0.060420096 -0.23881984
0.71906018 0.060395703 -0.23921633
-0.8136431 0.13312142 -0.24281657
-0.79222441 0.13408722 -0.23141205
0.79399109 0.13407962 -0.23150241
0.81551993 0.13312142 -0.24281657
-0.64864534 -0.13435304 -0.21773434
0.65026689 -0.13435304 -0.21804476
-0.67206144 -0.085413292 -0.22280443
0.67371607 -0.085418269 -0.22313213
-0.69809985 -0.011733055 -0.21577859
0.69970143 -0.011745036 -0.21608949
-0.72091299 0.085849792 -0.22318673
0.72256553 0.085827127 -0.22351432
-0.74549729 0.11035444 -0.22269523
0.74719816 0.11034745 -0.22278607
-0.7731207 0.13590898 -0.2098968
0.77472657 0.13590281 -0.20997012
0.67989945 -0.060263783 -0.19338238
-0.70257825 0.013717592 -0.19571757
0.7040326 0.013704777 -0.19599533
-0.72602266 0.11201997 -0.20106101
0.72755742 0.11201292 -0.20115352
-0.80100507 0.16168378 -0.19684708
0.80252802 0.16168378 -0.19684708
-0.63071877 -0.15911512 -0.18484652
0.63210273 -0.15911329 -0.18508875
-0.65590364 -0.1095753 -0.18281269
0.65729237 -0.10957634 -0.18294346
-0.67847914 -0.060255654 -0.19302988
-0.70626444 0.039285734 -0.17920542
0.70757496 0.039266557 -0.17956078
-0.75364053 0.13771479 -0.18857133
0.75508255 0.13770862 -0.18864584
-0.78128541 0.16354014 -0.17675233
0.78263128 0.16353156 -0.17684591
-0.68376142 -0.034802005 -0.16852307
0.68501937 -0.034808755 -0.16874909
-0.70937318 0.064948902 -0.1652801
0.71058398 0.064929143 -0.1656009
-0.73375016 0.13949065 -0.16759992
0.73503113 0.13948418 -0.16767526
-0.63757205 -0.1343531 -0.15060568
0.63867307 -0.1343531 -0.15094829
-0.66193736 -0.084350489 -0.15378308
0.66308314 -0.084354132 -0.15401113
-0.68816161 -0.0091283321 -0.14810872
0.68926573 -0.0091365129 -0.14831865
-0.71177012 0.090605453 -0.15454316
0.71291006 0.09058708 -0.15480912
-0.71352178 0.1162049 -0.14669657
0.71459699 0.11618288 -0.14698291
-0.76146632 0.16547762 -0.15577769
0.76265556 0.16547062 -0.15585363
-0.81300366 0.19108026 -0.14961505
-0.78916448 0.1915655 -0.14476728
0.79026824 0.19155781 -0.1448437
0.81416297 0.19108026 -0.14961505
-0.66710067 -0.058775596 -0.12894094
0.66805834 -0.058780521 -0.12915325
-0.69177765 0.016691417 -0.1313324
0.69274819 0.016680673 -0.13156366
-0.71494383 0.14180021 -0.14032686
0.71598619 0.14178227 -0.14053762
-0.74116129 0.16735007 -0.13550913
0.74219483 0.16734286 -0.13558578
-0.61755252 -0.15957899 -0.12459278
0.61847991 -0.15957727 -0.12480557
-0.64330178 -0.10910699 -0.12197816
0.64421475 -0.10910837 -0.12215257
-0.69468486 0.042592272 -0.11784446
0.69555122 0.042579755 -0.11807775
-0.72060096 0.16924573 -0.1149857
0.72147697 0.1692387 -0.11506367
-0.76896828 0.19360952 -0.12434125
0.76991516 0.1936018 -0.12441862
-0.59614378 -0.185123 -0.10393155
0.59691674 -0.18512008 -0.10412753
-0.62318486 -0.1343531 -0.095325947
0.62388992 -0.13435304 -0.095522881
-0.64828545 -0.083477587 -0.097078204
0.64900249 -0.083480641 -0.097275019
-0.67125767 -0.032967232 -0.10894036
0.6720531 -0.032975115 -0.10919428
-0.69732493 0.068624496 -0.10559642
0.69810069 0.068611205 -0.10581195
-0.69901258 0.094539136 -0.097766876
0.69971961 0.094521388 -0.09802258
-0.74833614 0.19560115 -0.10444093
0.74913019 0.19559319 -0.10451925
-0.79997754 0.22136666 -0.10087168
0.80076164 0.22136666 -0.10087168
-0.57358623 -0.21087688 -0.087962031
0.57423747 -0.21087231 -0.088160038
-0.6746816 -0.0069866627 -0.092467189
0.67537332 -0.0069920868 -0.092605591
-0.70069116 0.12057094 -0.089979053
0.70134622 0.1205544 -0.090196252
-0.70153129 0.14639346 -0.086081266
0.70215213 0.14637335 -0.086319089
-0.70216805 0.1721888 -0.08312726
0.70276606 0.17216678 -0.08336544
-0.72737664 0.19758312 -0.084634662
0.72801864 0.19757511 -0.084713936
-0.77623099 0.22211744 -0.093907118
0.77694327 0.22210883 -0.093985796
-0.60173017 -0.15997078 -0.073694348
0.60227323 -0.15996943 -0.073873758
-0.62799382 -0.10870935 -0.07033813
0.62850595 -0.10871092 -0.070538044
-0.6524269 -0.057561927 -0.076386571
0.65298802 -0.057566114 -0.076565742
-0.67787075 0.019195095 -0.077123404
0.67843217 0.01918593 -0.077322602
-0.68030918 0.045418695 -0.065391421
0.68077999 0.045407951 -0.065591931
-0.70603842 0.19953085 -0.065171003
0.70653099 0.19952293 -0.065250993
-0.75531691 0.22423969 -0.074213266
0.75588244 0.22423334 -0.07427299
-0.55535585 -0.21186927 -0.044989944
0.55567694 -0.21186449 -0.045192957
-0.57900274 -0.18583995 -0.05736959
0.57942128 -0.18583715 -0.057550907
-0.60641128 -0.13435304 -0.048356891
0.60675883 -0.134353 -0.048539281
-0.63206035 -0.082740508 -0.049207807
0.63241309 -0.082743317 -0.049389958
-0.65598309 -0.031417772 -0.058618546
0.656407 -0.031423345 -0.058799863
-0.68239146 0.071717396 -0.055373311
0.68278491 0.071705028 -0.055574775
-0.68406039 0.098032385 -0.047343612
0.68439591 0.098019853 -0.047526002
-0.7339586 0.2262942 -0.055151343
0.73437339 0.22628547 -0.055231929
-0.78653085 0.25256336 -0.050745964
-0.76204699 0.25321865 -0.045071125
0.76238346 0.25320935 -0.045152545
0.78692907 0.25256336 -0.050745964
-0.5309189 -0.23797512 -0.036318541
0.53118408 -0.23797074 -0.036461473
-0.58375782 -0.16030321 -0.03051281
0.58397257 -0.16030188 -0.030676603
-0.63573313 -0.056493446 -0.030123472
0.63593853 -0.056497738 -0.030308008
-0.65908074 -0.0050883144 -0.043141246
0.6593892 -0.0050944686 -0.043303967
-0.66173548 0.02137734 -0.029877782
0.66194153 0.021369845 -0.030041456
-0.68527186 0.12430187 -0.041514635
0.68556237 0.12428771 -0.041697621
-0.68609321 0.15050204 -0.037562847
0.68635327 0.15048634 -0.037746429
-0.68648762 0.17657326 -0.035665393
0.68674928 0.17656375 -0.035767555
-0.68676353 0.20261647 -0.034337997
0.68699867 0.20259823 -0.034521699
-0.71233213 0.22836111 -0.035971761
0.71259964 0.22835244 -0.0360533
-0.56017578 -0.18646869 -0.01652956
0.5602873 -0.18646649 -0.01667428
-0.61053014 -0.10836858 -0.026063085
0.61070561 -0.10837007 -0.02624774
-0.63902152 -0.030014202 -0.013036609
0.63909888 -0.030019231 -0.013201714
-0.66382897 0.047895953 -0.01941812
0.66395432 0.047887132 -0.019582987
-0.69024181 0.23034073 -0.01760304
0.69037253 0.23033403 -0.017664909
-0.74037898 0.25537556 -0.026391506
0.74057645 0.25536841 -0.026453257
-0.51075715 -0.23912382 0.00098788738
0.51073575 -0.23911935 0.00084197521
-0.53580219 -0.21276721 -0.0061115026
0.53583765 -0.21276429 -0.0062363148
-0.58796418 -0.1343531 -0.0067555904
0.58799565 -0.13435304 -0.0069215298
-0.61423928 -0.082075097 -0.0059866905
0.61427087 -0.082077019 -0.0061115026
-0.64155191 -0.0034234226 0.00011181831
0.64153939 -0.0034273118 7.7486038e-06
-0.66579026 0.074535191 -0.0096188784
0.66583997 0.074524894 -0.0097848177
-0.66700828 0.10106766 -0.0035332441
0.66702706 0.1010619 -0.0036165714
-0.66825575 0.12770556 0.0026997328
0.6682145 0.12769423 0.0025532246
-0.71838343 0.25751114 -0.007897377
0.7184388 0.25750393 -0.0079594851
-0.74668688 0.28483754 0.0018644333
0.74666667 0.28482997 0.0018017292
-0.54017949 -0.18704599 0.020966053
0.54000288 -0.18704371 0.020818233
-0.5644812 -0.16060661 0.008892417
0.56439662 -0.16060543 0.0087456703
-0.5917421 -0.10805567 0.014582157
0.59161609 -0.1080567 0.014455795
-0.61754245 -0.055523157 0.011892319
0.61743253 -0.055526555 0.011745214
-0.64398479 0.023346454 0.012753487
0.64386314 0.02333872 0.012585282
-0.66880798 0.1541449 0.0054583549
0.66875345 0.15413602 0.0053538084
-0.66924363 0.18057303 0.0076352358
0.6691643 0.18055947 0.0074887276
-0.66929817 0.20684429 0.007907629
0.66920859 0.20682536 0.0077191591
-0.6690886 0.23297729 0.0068603754
0.66901517 0.23296146 0.0067139864
-0.69602334 0.25960225 0.010213494
0.69593972 0.2595951 0.010150552
-0.72430003 0.28701633 0.01955235
0.72414392 0.28700846 0.01948905
-0.46312556 -0.26663697 0.035295129
0.46284753 -0.26663285 0.035188913
-0.48933649 -0.24012838 0.033614516
0.48906764 -0.24012454 0.033486724
-0.51507735 -0.21357915 0.029048681
0.51483655 -0.21357511 0.028878927
0.56801832 -0.13435304 0.031149387
-0.56827575 -0.134353 0.03129828
-0.59498006 -0.081476912 0.032870531
0.59470224 -0.081479721 0.032679081
-0.62025791 -0.028793976 0.026590228
0.62003833 -0.028797925 0.026463032
-0.64584571 0.050150752 0.022423029
0.64565337 0.050142661 0.022275329
-0.64747614 0.077030092 0.030894637
0.64721841 0.077021077 0.030746222
-0.64870828 0.10389653 0.03729713
0.6484012 0.10388629 0.037148118
-0.67332578 0.26165974 0.028030992
0.67310131 0.26164985 0.027945995
-0.70167482 0.28921509 0.037403822
0.70138168 0.28920722 0.037340164
-0.51890898 -0.18755358 0.053935766
0.51848567 -0.18755205 0.05382812
-0.5439449 -0.16087876 0.044258475
0.54358542 -0.16087744 0.04408741
-0.57155615 -0.10777804 0.05066824
0.57114595 -0.10777932 0.05049634
-0.59790319 -0.054657444 0.049380183
0.59750885 -0.05466035 0.049251199
-0.62272859 -0.001889497 0.039963126
0.62240213 -0.0018952638 0.039813757
-0.62481749 0.02512534 0.05126977
0.62440377 0.0251185 0.051119089
-0.64958298 0.13071872 0.041842461
0.64923686 0.13070549 0.041671395
-0.65030748 0.1575446 0.045607209
0.64993632 0.15753202 0.045457125
-0.65047234 0.18415986 0.046463728
0.65009063 0.18414401 0.046292424
-0.65062493 0.2107821 0.047256708
0.65024102 0.21076705 0.047106862
-0.65030336 0.23715083 0.045585752
0.64993632 0.23713697 0.045457363
-0.65025395 0.26365715 0.045328856
0.64990073 0.26364982 0.045264602
-0.67860967 0.29131222 0.054430604
0.67818582 0.29130411 0.054366112
-0.73179924 0.31790507 0.054344654
0.73138851 0.31790507 0.054344654
-0.44048372 -0.267759 0.064446449
0.43998185 -0.2677547 0.064338207
-0.46709588 -0.24106249 0.063948512
0.46659702 -0.24105915 0.063840508
-0.4932673 -0.21430533 0.060489416
0.49279127 -0.21430218 0.060359836
-0.54733443 -0.1343531 0.065225959
0.54682326 -0.1343531 0.065117598
-0.57456863 -0.080928899 0.068456173
0.57403171 -0.080930673 0.068347573
-0.60049033 -0.027642459 0.063991904
0.59998327 -0.027646251 0.063861966
-0.62649691 0.052194893 0.060359716
0.6260131 0.052186862 0.06020844
-0.62798071 0.079339206 0.068390965
0.62743491 0.079329893 0.068239212
-0.70712453 0.31911927 0.063624024
0.70662934 0.31911093 0.063559175
-0.38951281 -0.29539672 0.085157156
0.3888554 -0.29539263 0.085069537
-0.49684322 -0.18803102 0.084938049
0.49618176 -0.18802914 0.084828615
-0.52240026 -0.16112801 0.076612115
0.52180535 -0.16112722 0.076524973
-0.55045027 -0.10751741 0.084499955
0.5497871 -0.10751849 0.084368706
-0.57727462 -0.053847924 0.08443439
0.57660747 -0.053851418 0.084280968
-0.60259354 -0.00050741434 0.075870991
0.60199493 -0.00051249564 0.075740337
-0.60454422 0.026770458 0.08688879
0.60386068 0.026764497 0.086757064
-0.62902063 0.10644078 0.07401979
0.62843531 0.10643166 0.073889256
-0.62988245 0.13355474 0.078684449
0.62925726 0.13354306 0.078531623
-0.6304394 0.16060083 0.081699133
0.62979484 0.16058962 0.081567883
-0.63065761 0.18752398 0.08288002
0.63000399 0.18751191 0.082749009
-0.63058484 0.21430753 0.082486629
0.62993425 0.21429445 0.082355142
-0.63037479 0.24100517 0.081349254
0.62972903 0.24098845 0.081196308
-0.62979776 0.26745576 0.078226089
0.62918001 0.2674408 0.078095198
-0.65529823 0.2934196 0.071539998
-0.63156033 0.29541802 0.087766051
0.63088059 0.29540992 0.087700248
0.65474313 0.29341137 0.071474671
-0.68385303 0.32134455 0.080627918
0.6832273 0.32133597 0.080562472
-0.41694248 -0.26874009 0.089939594
0.41624501 -0.26873606 0.089829803
-0.44400108 -0.24190544 0.09132421
0.44329482 -0.24190253 0.091236234
-0.47067598 -0.21498173 0.089785695
0.46997806 -0.21497917 0.089675784
-0.52554339 -0.13435295 0.09702754
0.52478796 -0.134353 0.09691751
-0.55312157 -0.080427468 0.10102463
0.55233103 -0.080429628 0.10089195
-0.57945967 -0.026615538 0.097336531
0.57870728 -0.026617706 0.09727025
-0.60605049 0.054082796 0.095396161
0.60530138 0.054075807 0.095263958
-0.60735643 0.081456527 0.102772
0.60655421 0.081449822 0.10266137
-0.66017365 0.32347065 0.096873164
0.65942734 0.32346469 0.096829057
-0.36510319 -0.29643857 0.10771394
0.36427271 -0.29643446 0.10762501
-0.39286193 -0.26967239 0.11416137
0.3919811 -0.269669 0.11407208
-0.42022777 -0.24268401 0.11661327
0.41932741 -0.24268121 0.11652398
-0.44723758 -0.21558839 0.11605573
0.44633809 -0.21558578 0.11594439
-0.47383764 -0.18845689 0.11260295
0.47296387 -0.18845508 0.11249161
-0.49997002 -0.16135649 0.10631645
0.49914074 -0.16135551 0.10618329
-0.52827394 -0.10728449 0.1147629
0.52738506 -0.10728532 0.11467397
-0.55553347 -0.053120159 0.11594439
0.5546279 -0.053123318 0.11581063
-0.58157068 0.00079856813 0.10980117
0.58071148 0.00079335272 0.1096679
-0.58317798 0.028267339 0.1192919
0.58224559 0.028261021 0.11915779
-0.60836112 0.10882594 0.10844636
0.6075151 0.10881819 0.10833538
-0.6090616 0.13615043 0.11240268
0.6081813 0.13614012 0.11226916
-0.60955447 0.16343646 0.11518657
0.60864896 0.16342323 0.11503041
-0.60975581 0.19061323 0.11632347
0.60884905 0.19060288 0.11621165
-0.60965312 0.21763591 0.11574364
0.60874325 0.21762009 0.11558747
-0.60939664 0.24455579 0.11429524
0.60850179 0.24454124 0.11416137
-0.60884893 0.27126348 0.11120141
0.60798168 0.27125049 0.1110903
-0.60812539 0.29780108 0.10711467
0.60728586 0.29778486 0.10698175
-0.63622707 0.32558429 0.11302578
0.63535279 0.32557565 0.11295915
-0.68961191 0.35213727 0.10940135
0.68877733 0.35213727 0.10940135
-0.34010816 -0.29737037 0.12789094
0.33912292 -0.29736644 0.12780094
-0.36807045 -0.27048418 0.13524699
0.36703017 -0.27048147 0.13517892
-0.47677231 -0.16156788 0.13378239
0.47573531 -0.16156715 0.13366961
-0.50280732 -0.1343531 0.12571478
0.50183159 -0.134353 0.12560284
-0.53084177 -0.079959147 0.13144147
0.5298211 -0.079961069 0.13132894
-0.5576281 -0.025643609 0.12890148
0.55662262 -0.025647804 0.12876666
-0.58469898 0.05585438 0.12827253
0.5837009 0.055848628 0.12816024
-0.58575791 0.083412156 0.13452578
0.58471173 0.083405152 0.134413
-0.58625442 0.30153847 0.13745737
0.58518559 0.30152458 0.13734436
-0.61190325 0.3276031 0.1284523
0.61091065 0.3275944 0.12838495
-0.66503024 0.35389811 0.12210882
0.66408956 0.35389191 0.12206411
-0.26031053 -0.32573786 0.15011907
0.25915936 -0.32573539 0.15007377
-0.31465417 -0.29822835 0.14646292
0.31352854 -0.29822519 0.14639485
-0.39578399 -0.24338786 0.13946736
0.39470822 -0.24338496 0.13937688
-0.42319021 -0.21615687 0.14066505
0.42210454 -0.21615474 0.14057481
-0.45023039 -0.18886209 0.13892508
0.44915745 -0.1888606 0.13883471
-0.47937959 -0.13435289 0.15259862
0.47820055 -0.134353 0.15250754
-0.50542092 -0.1070626 0.14358437
0.50430751 -0.10706339 0.14347124
-0.53296596 -0.052443564 0.1452384
0.53184563 -0.052445337 0.14517045
-0.55948228 0.0019751787 0.14037132
0.55839187 0.0019708872 0.14025819
-0.56103235 0.029683664 0.14996004
0.55986804 0.029678389 0.14984632
-0.58678621 0.11105347 0.14059722
0.58569324 0.11104563 0.14048409
-0.58731508 0.1385612 0.14372039
0.58620167 0.13855423 0.14362967
-0.58779109 0.16609071 0.14653111
0.5866524 0.16608115 0.14641774
-0.58794099 0.19348542 0.14741611
0.58679175 0.19347297 0.1472801
-0.58790636 0.22078495 0.14721179
0.58676243 0.22077347 0.1470983
-0.58749926 0.24784414 0.14480782
0.5863775 0.24783434 0.14471722
-0.58703518 0.27482742 0.14206755
0.58592725 0.27481186 0.14193189
-0.58728439 0.32957757 0.14353907
0.58617973 0.32957166 0.14349389
-0.64076585 0.35604358 0.13759279
-0.6161986 0.35813862 0.15271235
0.61501908 0.35812914 0.15264416
0.63970226 0.35603416 0.13752508
-0.23389465 -0.32645723 0.16346717
0.23264101 -0.32645467 0.16342139
-0.28873885 -0.29899049 0.16296351
0.28748667 -0.2989873 0.16289449
-0.34286115 -0.27125993 0.15540075
0.34166405 -0.27125627 0.15530932
-0.37080353 -0.24403869 0.16060638
0.3695679 -0.24403672 0.1605382
-0.39848387 -0.21666908 0.16284895
0.397228 -0.21666697 0.1627574
-0.42584643 -0.18922088 0.16223085
0.42459458 -0.1892194 0.16213918
-0.4528285 -0.16176039 0.15877831
0.45160258 -0.1617597 0.15868676
-0.48172799 -0.1068628 0.16954684
0.48041838 -0.10686359 0.16945481
-0.50766993 -0.079535633 0.15896106
0.50643486 -0.0795376 0.15882397
-0.53492397 -0.02474907 0.15795624
0.53369898 -0.024752617 0.1578418
-0.53661299 0.003074348 0.16892648
0.53530335 0.003069818 0.16881156
-0.56234348 0.057460323 0.15807009
0.56111664 0.057454064 0.15795624
-0.5634011 0.08526507 0.16461253
0.56212389 0.085258022 0.16449821
-0.56418383 0.11305276 0.16945481
0.56286579 0.11304314 0.16931701
-0.56436223 0.2781173 0.17055821
0.56303918 0.27810419 0.1704433
-0.5636012 0.30503553 0.16585088
0.56231797 0.30502421 0.16575873
-0.56273872 0.33179909 0.16051507
0.56149656 0.33178717 0.16042364
-0.59132332 0.36017221 0.16738796
0.59003127 0.36016256 0.16731894
-0.64603746 0.38746125 0.16612589
0.64476621 0.38746125 0.16612589
-0.20721266 -0.32712355 0.17583168
-0.18021114 -0.32766056 0.18579912
0.17878628 -0.32765794 0.18575299
0.20586421 -0.32712093 0.17578554
-0.26244798 -0.29967973 0.17788553
0.2610814 -0.29967648 0.17781615
-0.31709039 -0.27193087 0.17283607
0.31576169 -0.27192825 0.17276728
-0.34528002 -0.24462274 0.17957175
0.34389886 -0.2446208 0.17950249
-0.37325633 -0.21714292 0.18336594
0.37184545 -0.21714139 0.18329632
-0.40096802 -0.18956174 0.18436193
0.39954636 -0.18956026 0.18426919
-0.42833269 -0.16194226 0.18241644
0.42692533 -0.16194177 0.18232405
-0.45525649 -0.1343531 0.17733133
0.45388764 -0.1343531 0.17723906
-0.48384827 -0.079137005 0.18484867
0.48242077 -0.079138383 0.18475604
-0.50971282 -0.051804319 0.17292833
0.50837642 -0.051806495 0.1728363
-0.51145631 -0.023920916 0.18484867
0.51002485 -0.023924462 0.18473268
-0.53801721 0.030981079 0.17804718
0.53663731 0.030975655 0.17793167
-0.53922498 0.058959499 0.18589199
0.53778803 0.058954433 0.18579924
-0.56481981 0.14084519 0.17338908
0.56347495 0.1408361 0.17327368
-0.56511408 0.16851918 0.17520905
0.56375164 0.16850735 0.17507088
-0.56528932 0.19615303 0.17629313
0.56392205 0.19614245 0.17617762
-0.56523335 0.22366048 0.17594719
0.56386876 0.22364895 0.17583168
-0.56488311 0.25096649 0.17378032
0.56353521 0.25095409 0.17366529
-0.53935355 0.33522934 0.18672705
0.53791016 0.33521724 0.18663442
-0.56613332 0.36212945 0.18151414
0.56473291 0.36211991 0.18144476
-0.62044311 0.3890056 0.17668533
0.61908275 0.38899881 0.1766392
-0.15301135 -0.32814533 0.19479656
-0.12560901 -0.32854056 0.20212996
0.12405987 -0.32853937 0.20210671
0.15151848 -0.32814416 0.19477332
-0.23582484 -0.30030042 0.19132698
-0.20886248 -0.30082217 0.20262158
0.20730901 -0.30082116 0.20259809
0.23435669 -0.30029833 0.19128072
-0.29095951 -0.27256036 0.18918824
-0.26442429 -0.27311331 0.20355785
0.26286164 -0.27311161 0.20351136
0.28950718 -0.27255839 0.18914163
-0.31936249 -0.24517277 0.19743216
0.31784433 -0.2451705 0.19736218
-0.34754923 -0.21757896 0.20224702
0.34599346 -0.21757743 0.20217681
-0.40317103 -0.16210422 0.2034409
0.40160498 -0.16210373 0.20337081
-0.43049571 -0.13435319 0.19997835
0.42895576 -0.13435319 0.19990814
-0.45742321 -0.10667541 0.19388771
0.45592675 -0.1066763 0.19379473
-0.48565984 -0.051226988 0.19792247
0.48413163 -0.051229253 0.19782901
-0.51303405 0.0041022599 0.1956358
0.51152271 0.0040987134 0.19554257
-0.54020149 0.086966127 0.19223464
0.53871226 0.086958885 0.19211841
-0.54091549 0.11495224 0.19687212
0.5393973 0.11494747 0.19680214
-0.54150534 0.14294772 0.20070314
0.53995079 0.14293866 0.20058584
-0.54177183 0.17082448 0.2024343
0.54020745 0.17081656 0.20234072
-0.54190165 0.19864558 0.20327711
0.54032725 0.198635 0.20316005
-0.54177547 0.22631361 0.20245755
0.54021084 0.22630419 0.20236409
-0.54158813 0.2539261 0.20124078
0.54003286 0.25391608 0.20114732
-0.54097295 0.28119904 0.19724548
0.5394451 0.28118533 0.19712877
-0.54028034 0.3083483 0.19274664
0.53879052 0.30833697 0.19265366
-0.54067487 0.36404109 0.19530928
0.53917217 0.36403471 0.19526279
-0.59530669 0.39108598 0.19090843
0.59383714 0.39107901 0.19086194
-0.098039709 -0.32884121 0.20770836
-0.070358835 -0.32908171 0.21217406
-0.04258614 -0.32924163 0.21514189
-0.014757253 -0.32932812 0.21674538
0.013096323 -0.32932812 0.21674538
0.040937558 -0.32924163 0.21514189
0.068732738 -0.32908046 0.21215081
0.096447811 -0.32884002 0.20768511
-0.18168186 -0.30130565 0.21309209
0.18004684 -0.30130374 0.213045
-0.23755808 -0.27360553 0.21634448
0.23589587 -0.27360284 0.21627367
-0.29295376 -0.24564394 0.21273911
0.29132006 -0.24564241 0.21269178
-0.32135811 -0.21796674 0.21903551
0.31967556 -0.21796545 0.21898794
-0.37550825 -0.18986785 0.20426083
0.37393641 -0.18986687 0.20419073
-0.43252888 -0.10650162 0.21648598
0.4308618 -0.10650212 0.21641517
-0.45933324 -0.078773081 0.20848334
0.45772436 -0.078774557 0.20838928
-0.48738039 -0.023136087 0.21033967
0.48575652 -0.02313894 0.21024561
-0.4887163 0.0050392896 0.2199806
0.48701504 0.0050347596 0.21986222
-0.51430929 0.032196119 0.20435476
0.512734 0.032192856 0.20428431
-0.51543921 0.06037052 0.21208
0.5138045 0.06036675 0.21200967
-0.51632184 0.088559836 0.21811438
0.51463729 0.088554025 0.21801996
-0.51629072 0.31144649 0.21790183
0.51461112 0.31143785 0.2178309
-0.51537389 0.33848876 0.21163309
0.51373929 0.33847642 0.21153879
-0.51488227 0.36583728 0.20827198
0.51328009 0.3658306 0.20822501
-0.56989008 0.39311093 0.20475316
0.56831431 0.39310396 0.20470619
-0.54415685 0.39503747 0.21792555
0.54247993 0.3950305 0.21787822
-0.15424554 -0.30169499 0.22151732
-0.12662251 -0.30201554 0.2284615
-0.098858908 -0.30228588 0.23431242
0.097062193 -0.30228502 0.23428869
0.12487067 -0.30201459 0.22843802
0.15254696 -0.30169386 0.22149384
-0.21043336 -0.27405909 0.22812915
0.20868222 -0.27405736 0.22808158
-0.26622805 -0.24608268 0.22698987
0.264485 -0.2460814 0.22694254
-0.29481485 -0.2183288 0.23471749
0.2930119 -0.21832767 0.23466957
-0.34957951 -0.19014949 0.22253478
0.34786749 -0.1901482 0.22246385
-0.37756187 -0.1622573 0.22331607
0.37584326 -0.1622567 0.22324502
-0.40525013 -0.1343531 0.22144628
0.40354538 -0.1343531 0.22137558
0.40520167 -0.10634559 0.23674381
-0.43424681 -0.078435272 0.23043358
0.43246958 -0.078436553 0.23033857
-0.46104825 -0.050680503 0.22158825
0.45933837 -0.050682575 0.22149384
-0.46257004 -0.022431493 0.233217
0.46077058 -0.022434548 0.23312163
-0.48999679 0.033344671 0.22922146
0.48822743 0.03334035 0.22912669
-0.49094325 0.061662406 0.23605216
0.489115 0.061654717 0.23590922
-0.51702034 0.11675493 0.22289002
0.51529896 0.11674832 0.22279525
-0.5174396 0.14487635 0.22575653
0.51569289 0.14486717 0.22563803
-0.51780397 0.17301022 0.22824776
0.5160414 0.17300232 0.22815299
-0.51780397 0.20095243 0.22824776
0.5160414 0.20094366 0.22815299
-0.51770681 0.22882803 0.22758329
0.51594925 0.22881858 0.22748816
-0.51741529 0.25655025 0.22559071
0.51567644 0.25654256 0.22551954
-0.51695454 0.28410816 0.22244012
0.51523668 0.28409714 0.22234547
-0.49083757 0.3415845 0.23528945
0.48902142 0.34157199 0.23519421
-0.48984212 0.36858535 0.22810543
0.48808134 0.36857218 0.22801042
-0.51819319 0.39693654 0.23090887
0.51641667 0.3969295 0.23086154
-0.60105991 0.4239707 0.22487962
-0.57359231 0.42439789 0.22765446
0.57184005 0.42439073 0.22760689
0.59933639 0.4239707 0.22487962
-0.070972003 -0.3024897 0.23872507
-0.042992644 -0.30262008 0.24154496
-0.01495829 -0.30268076 0.24286115
0.013096323 -0.30268076 0.24286115
0.041140806 -0.30262008 0.24154496
0.069141507 -0.30248857 0.23870099
-0.18300521 -0.27442548 0.23765063
-0.1553752 -0.274746 0.24597502
-0.12757215 -0.27502155 0.25313389
0.12563035 -0.27502057 0.25310957
0.15348832 -0.27474517 0.24595094
0.18118115 -0.27442381 0.23760295
-0.23918809 -0.24647939 0.2398715
-0.2118251 -0.24681368 0.25072837
0.20989996 -0.24681225 0.25068009
0.23734619 -0.2464779 0.23982358
-0.26788715 -0.21864808 0.24854207
0.26597813 -0.21864688 0.24849415
-0.32326302 -0.19041286 0.23965633
0.32141966 -0.19041188 0.23958457
-0.35147715 -0.16239707 0.24149728
0.34961906 -0.16239649 0.2414254
-0.37942076 -0.1343531 0.24056458
0.37756932 -0.134353 0.24049282
-0.40702483 -0.10634519 0.23681545
-0.4086757 -0.078116789 0.25111306
0.40674248 -0.07811787 0.25104105
-0.43587479 -0.05017098 0.24365091
0.43399566 -0.050173149 0.24355507
-0.46385399 0.0059263408 0.24302828
0.46198192 0.0059236884 0.24295652
-0.46499699 0.034385711 0.25176215
0.46305761 0.034382448 0.25169003
-0.49179053 0.090041131 0.24216676
0.48992452 0.090036795 0.24209499
-0.49239796 0.11839409 0.24655044
0.49049506 0.11838754 0.24645472
-0.49280703 0.14670436 0.24950278
0.49088138 0.14669703 0.2494067
-0.49307346 0.17497294 0.25142562
0.49113613 0.17496677 0.2513535
-0.49314678 0.20314236 0.25195479
0.49120224 0.20313348 0.25185835
-0.49304348 0.23119234 0.25120926
0.49110785 0.23118506 0.25113702
-0.49269718 0.25904197 0.24871016
0.49077767 0.25903159 0.24861419
-0.49227834 0.28679264 0.24568737
0.49038211 0.28678143 0.2455914
-0.49162483 0.31428802 0.24097097
0.48976493 0.31427622 0.24087548
-0.46471384 0.37156361 0.24959874
0.46279117 0.3715536 0.24952674
-0.49189663 0.39869505 0.24293268
0.49002787 0.39868814 0.24288476
-0.54766816 0.42641145 0.24073184
0.54581559 0.426404 0.24068427
-0.52142268 0.42829865 0.25298917
0.51947612 0.4282912 0.25294125
-0.099617347 -0.27524507 0.25894344
-0.071529925 -0.27539676 0.26288378
-0.043361813 -0.2754983 0.26552331
-0.015143197 -0.27555078 0.26688087
0.013096323 -0.27555078 0.26688087
0.04132539 -0.2754983 0.26552331
0.069513448 -0.27539587 0.26285994
0.097631581 -0.27524507 0.25894344
-0.18422942 -0.24711064 0.26036918
-0.15643717 -0.2473754 0.26896775
0.15437236 -0.24737382 0.26891911
0.18223155 -0.2471098 0.26034439
-0.24063833 -0.21893127 0.26080406
0.23863675 -0.21893069 0.26077974
-0.29648438 -0.19064036 0.25443399
-0.26939034 -0.19085053 0.26806962
0.267331 -0.19084963 0.26802099
0.2945278 -0.19063938 0.25436199
-0.32492653 -0.16252176 0.25766432
0.32294449 -0.16252108 0.25759208
-0.35315305 -0.1343531 0.25824344
0.35116822 -0.134353 0.25819552
-0.38107911 -0.10619773 0.255952
0.37910914 -0.10619822 0.25587976
-0.3825708 -0.077829152 0.26979339
0.38049424 -0.07783024 0.2697202
-0.41011596 -0.049710549 0.26358569
0.40808663 -0.049712323 0.26351321
-0.43721771 -0.021774605 0.25455439
0.43525463 -0.021777563 0.25445807
-0.43847623 0.0067634135 0.26477206
0.43643725 0.0067606568 0.26469958
-0.46590203 0.06288144 0.25867808
0.46390942 0.062877595 0.2586056
-0.46666783 0.091418386 0.26452982
0.46463013 0.091413856 0.26445735
-0.46722952 0.11993708 0.26882184
0.46515575 0.11993037 0.2687248
-0.4670358 0.28929293 0.26734173
0.4649764 0.28928447 0.26726878
-0.46639222 0.31693023 0.26242411
0.46437079 0.31692135 0.26235139
-0.46567467 0.34441799 0.25694048
0.46369246 0.34440517 0.25684416
-0.43906477 0.37432808 0.26955044
0.43698895 0.374318 0.26947749
-0.46537811 0.40041244 0.25467479
-0.43858966 0.40202397 0.26569283
0.43654636 0.40201688 0.26564443
0.46342227 0.4004091 0.25465071
-0.49495971 0.43015367 0.26503861
0.49292073 0.43014622 0.26499021
-0.12843998 -0.24758221 0.2756809
-0.10029501 -0.24774441 0.28095186
-0.072039269 -0.24786714 0.28493917
0.069853008 -0.24786624 0.28491485
0.098139271 -0.24774362 0.2809273
0.12632461 -0.24758136 0.27565634
-0.21313091 -0.21918824 0.27193177
-0.18537541 -0.21941221 0.28163588
0.18321382 -0.21941191 0.2816118
0.21104251 -0.21918707 0.27188337
-0.24200882 -0.19104293 0.28058517
0.23985341 -0.19104235 0.28053629
-0.29802582 -0.16263691 0.27263749
0.2685982 -0.16274208 0.28631127
0.29593089 -0.16263641 0.27258885
0.32438543 -0.1343531 0.27460873
-0.32649627 -0.134353 0.27465737
-0.35469821 -0.10606111 0.27368391
0.35259223 -0.1060618 0.27361047
-0.38391036 -0.049280286 0.28222287
0.38173807 -0.049282059 0.28214967
-0.41139162 -0.021156162 0.27463329
0.4092772 -0.021158628 0.27456033
-0.41250533 0.0075142384 0.28427804
0.41031665 0.0075112879 0.28420484
-0.43944201 0.035348758 0.27261293
0.43733978 0.035344228 0.27251565
-0.44035468 0.064031675 0.28002322
0.43819818 0.064027831 0.27995002
-0.44097829 0.09268415 0.28508627
0.43878281 0.092679709 0.28501284
-0.46764606 0.14843668 0.27200496
0.46554777 0.14842902 0.27190769
-0.46779886 0.17681436 0.27317274
0.46569461 0.17680825 0.27309954
-0.46789122 0.20516746 0.27387846
0.46577853 0.20515855 0.27378118
-0.46778294 0.2333781 0.2730509
0.46567962 0.2333708 0.27297795
-0.46747109 0.26140839 0.27066791
0.46538311 0.26139784 0.27057064
-0.44069189 0.31943506 0.28276098
0.43851432 0.31942618 0.28268754
-0.43997297 0.34703314 0.27692401
0.43784031 0.34702349 0.27685082
-0.41203377 0.404145 0.28019416
0.4098765 0.40413439 0.28012097
-0.46818766 0.43186349 0.27614391
0.4660635 0.4318561 0.27609503
-0.52618539 0.46169513 0.28555167
0.52399474 0.46169513 0.28555167
-0.043702625 -0.24795091 0.28765976
-0.015313918 -0.24799401 0.28905833
0.013096323 -0.24799341 0.28903377
0.04149561 -0.24795014 0.28763521
-0.15738554 -0.21959388 0.28949988
-0.1292256 -0.21974626 0.29609168
-0.10092531 -0.21986908 0.30142105
0.098612554 -0.21986908 0.30142105
0.1269531 -0.21974558 0.29606688
0.15516359 -0.21959348 0.28947556
-0.21432324 -0.19120795 0.29129326
-0.18638964 -0.1913491 0.3004576
0.184082 -0.19134822 0.30040824
0.21208578 -0.19120726 0.29124415
-0.27079839 -0.16274267 0.28636014
-0.24321978 -0.16283247 0.29806364
0.2409298 -0.16283208 0.29801428
-0.27203199 -0.1343531 0.30238521
0.2697084 -0.1343531 0.30233562
0.29721197 -0.1343531 0.28923023
-0.29943502 -0.134353 0.28927886
-0.32785377 -0.10594055 0.28935301
0.32562977 -0.10594095 0.2893039
-0.35603058 -0.077564389 0.28699768
0.32677937 -0.077319629 0.30287945
0.35382205 -0.077565566 0.286924
-0.35728616 -0.048880182 0.29954422
0.35498103 -0.048881754 0.29947007
-0.38508663 -0.020586513 0.29313743
0.38283026 -0.020588681 0.29306328
-0.38608599 0.0082119405 0.30241001
0.38376066 0.0082102567 0.30236018
-0.41342604 0.036255911 0.29225194
0.41117594 0.036252469 0.29217827
-0.41422817 0.065065011 0.29919875
0.41192722 0.065062359 0.29914939
-0.44151592 0.12136628 0.289451
0.43928397 0.12135957 0.28935277
-0.44189417 0.15001599 0.29252231
0.43964145 0.15001036 0.29244864
-0.44204569 0.17855702 0.29375231
0.43978342 0.17855076 0.2936784
-0.44210631 0.20704891 0.29424465
0.43984026 0.20704217 0.29417074
-0.44196081 0.23538087 0.29306352
0.43970388 0.23537354 0.29298961
-0.44175184 0.26363909 0.29136693
0.43950516 0.26362842 0.29126871
-0.44128621 0.29163057 0.28758609
0.43907145 0.2916221 0.28751242
-0.41455045 0.32180345 0.30198967
0.41222534 0.32179439 0.30191529
-0.41381821 0.34948337 0.29564822
0.41154194 0.34947371 0.29557407
-0.41297793 0.37693608 0.28837121
0.41075772 0.37692595 0.28829753
-0.38556972 0.40669376 0.2976197
0.38327885 0.40668291 0.29754579
-0.44121975 0.43354213 0.28704679
-0.41398895 0.435094 0.29712665
0.41170394 0.43508649 0.2970773
0.43901482 0.43353826 0.28702223
-0.4979583 0.46187735 0.28667891
-0.47103366 0.46368992 0.29789102
0.46874201 0.46368194 0.29784191
0.49575582 0.46187341 0.28665435
-0.072515883 -0.2199654 0.30557716
-0.044019692 -0.220027 0.30825341
-0.015472187 -0.22005855 0.30961812
0.013096323 -0.22005855 0.30961812
0.04165414 -0.22002631 0.30822885
0.070170745 -0.21996459 0.30555236
-0.15825631 -0.19147055 0.30835283
-0.12995768 -0.19157463 0.31511128
0.12753876 -0.19157425 0.31508648
0.15588921 -0.19147006 0.30832803
-0.2153876 -0.16291359 0.30857599
-0.1873323 -0.16298574 0.31795156
0.18488997 -0.16298535 0.31790173
0.2130184 -0.16291329 0.30855119
-0.2443388 -0.1343531 0.31421554
0.24192446 -0.1343531 0.31416595
-0.30067047 -0.10582878 0.30386913
-0.27316886 -0.10572635 0.31715381
0.27073157 -0.10572685 0.31710374
0.29833508 -0.10582916 0.30381978
-0.32910788 -0.077318937 0.30292904
-0.30183339 -0.077093013 0.31760228
0.29939222 -0.077093899 0.31755269
-0.33021945 -0.04852394 0.31496203
0.32779825 -0.048525125 0.3149122
-0.35831666 -0.020072162 0.30984151
0.3559345 -0.020073645 0.30979192
-0.35925055 0.0088573843 0.31917346
0.35679424 0.0088544339 0.31909859
-0.3869752 0.037106097 0.31066072
0.38458386 0.037102744 0.31058657
-0.38765079 0.066020474 0.31692946
0.38521117 0.066016525 0.31685483
-0.41483036 0.093874604 0.30441344
0.41248655 0.093869969 0.30433929
-0.41533393 0.12270518 0.30877459
0.41295654 0.12269996 0.3087002
-0.41562343 0.15146019 0.31128204
0.41322675 0.15145425 0.31120741
-0.41583869 0.18019928 0.31314576
0.41342765 0.18019296 0.31307113
-0.41582432 0.20878343 0.31302154
0.41341424 0.20877658 0.31294692
-0.41569227 0.23726375 0.31187832
0.41329104 0.2372563 0.3118037
-0.41546285 0.26563561 0.3098911
0.41307691 0.2656275 0.30981696
-0.41504481 0.29378802 0.30627072
0.41268671 0.29377955 0.30619633
-0.38787648 0.32390159 0.31902373
0.38542074 0.3238923 0.3189491
-0.38721353 0.3517375 0.31287253
0.38480765 0.35173094 0.3128227
-0.38648069 0.37938887 0.30607235
0.3841247 0.3793785 0.30599821
-0.35865483 0.40897572 0.31322062
0.35624665 0.40896839 0.31317079
-0.38654745 0.43656665 0.306692
-0.3589088 0.43796247 0.31575882
0.3564834 0.43795866 0.31573403
0.38419166 0.4365629 0.30666721
-0.44382259 0.46535313 0.30817926
-0.41643098 0.46698529 0.31827557
0.41398314 0.46697718 0.31822574
0.44145212 0.46534503 0.30812967
-0.10151575 -0.19165902 0.32059586
-0.072955079 -0.19172072 0.32459509
-0.044312142 -0.19176163 0.32724869
-0.015617171 -0.19177997 0.32845199
0.013096323 -0.19177997 0.32845199
0.041800555 -0.19176163 0.32724869
0.070463926 -0.19172072 0.32459509
0.099054798 -0.19165872 0.32057106
-0.15907586 -0.16304845 0.32609665
-0.13063152 -0.16309881 0.33261859
0.12807782 -0.16309842 0.33259332
0.15657216 -0.16304824 0.32607186
-0.18819851 -0.1343531 0.33402622
0.18563358 -0.13435319 0.33400095
0.21389505 -0.13435319 0.3248204
-0.21639104 -0.134353 0.32486999
-0.24536507 -0.10563518 0.32902873
0.24283823 -0.10563528 0.32900369
-0.27417958 -0.076897845 0.33028328
0.27164117 -0.076898828 0.33023322
-0.30279881 -0.048199736 0.32900345
0.30026793 -0.048201412 0.32892835
-0.33117631 -0.019595571 0.3253206
0.32867536 -0.019597046 0.32527053
-0.3320502 0.0094580799 0.33478081
0.3294743 0.0094552338 0.33470523
-0.36004865 0.03786777 0.32714856
0.35753322 0.0378654 0.32709849
-0.36067402 0.066907823 0.33339798
0.35811046 0.066905156 0.33334744
-0.38826129 0.094994083 0.32259429
0.38577804 0.094989449 0.32251918
-0.38865763 0.12391733 0.32627189
0.38614857 0.12391399 0.32622182
-0.38893041 0.15280895 0.32880294
0.38640186 0.15280499 0.32875288
-0.38912508 0.18167807 0.3306092
0.38658261 0.18167372 0.33055913
-0.3891305 0.21041285 0.33065951
0.38658765 0.2104082 0.3306092
-0.38901693 0.23903777 0.3296057
0.38648218 0.23903288 0.32955563
-0.38874131 0.26748472 0.32704842
0.3862263 0.26747918 0.32699835
-0.38835558 0.29577392 0.32346952
0.3858656 0.2957654 0.32339442
-0.36081243 0.32584244 0.33478081
0.3582359 0.32583302 0.33470547
-0.36020166 0.35380596 0.32867754
0.35767445 0.35379934 0.32862747
-0.35952786 0.38158804 0.32194483
0.35705021 0.38157779 0.32186973
-0.33140537 0.41110802 0.32780015
0.32888532 0.41110069 0.32774985
-0.3310492 0.43922281 0.32394445
-0.3030645 0.44048476 0.33214104
0.30051139 0.44047719 0.33209097
0.32856095 0.439219 0.32391942
-0.3887791 0.46846014 0.32739937
0.38626137 0.46845216 0.32734907
-0.1020409 -0.16313735 0.3376509
-0.073344544 -0.16316663 0.34145963
-0.044571377 -0.16318683 0.34408677
-0.015746484 -0.1631958 0.34525025
0.013096323 -0.1631958 0.34525025
0.041930176 -0.16318683 0.34408677
0.070723183 -0.16316652 0.34143412
0.099449247 -0.16313735 0.3376509
-0.15979125 -0.1343531 0.34158552
-0.13122295 -0.1343531 0.34798443
0.12855096 -0.13435289 0.34795892
0.15716831 -0.13435289 0.34156024
-0.21726973 -0.10555731 0.33913791
-0.18895476 -0.1054885 0.34806049
0.18628061 -0.1054889 0.34800971
0.21466525 -0.1055574 0.33911288
-0.24624904 -0.076720908 0.3417877
-0.21806443 -0.076562695 0.35204232
0.21536058 -0.076563187 0.35201705
0.24362242 -0.076721594 0.34173715
-0.27506712 -0.047903918 0.34181273
0.27243993 -0.047905304 0.34176242
-0.30370182 -0.019153573 0.33966768
0.30109075 -0.019155346 0.33961737
-0.30444896 0.009985745 0.34849131
0.30177 0.009983778 0.34844053
-0.3327488 0.038569599 0.34234321
0.33011675 0.038567334 0.34229243
-0.33333781 0.06773366 0.34871948
0.33065668 0.067730993 0.34866846
-0.36123586 0.096005037 0.33901203
0.35862908 0.096002087 0.33896148
-0.36159956 0.12505181 0.34264624
0.3589648 0.12504835 0.3425957
-0.36186269 0.15407698 0.34527552
0.35920534 0.15407114 0.3451997
-0.36198679 0.18302496 0.34651577
0.35931987 0.18301846 0.34643948
-0.36199436 0.21188442 0.34659159
0.35932925 0.21187977 0.34654081
-0.36192852 0.24067174 0.34593332
0.35926846 0.24066679 0.34588277
-0.36165267 0.2692228 0.34317696
0.3590138 0.26921737 0.34312642
-0.36129898 0.29764169 0.33964241
0.35868731 0.29763573 0.3395921
-0.33341274 0.32765901 0.34953034
0.33072534 0.32765287 0.34947979
-0.3328585 0.35574955 0.34353077
0.33021733 0.35574299 0.34348023
-0.33219901 0.38358992 0.33639157
-0.30456707 0.38545984 0.34988558
0.30187732 0.38545269 0.3498348
0.32961282 0.38358301 0.33634126
-0.30384925 0.41309851 0.34140885
0.3012248 0.41309106 0.3413583
-0.2752344 0.44230849 0.34398568
0.27259049 0.44230056 0.34393513
-0.36094844 0.46987319 0.3361398
-0.33292389 0.47118241 0.34423864
-0.30471313 0.47237408 0.35161078
0.30201015 0.47236598 0.35156024
0.33027941 0.47117823 0.34421337
0.3583661 0.46986908 0.33611476
-0.41989952 0.50070751 0.34831393
-0.39103585 0.50071192 0.3483392
0.38836196 0.50071192 0.3483392
0.41722581 0.50070751 0.34831393
-0.044810198 -0.1343531 0.35959852
0.042049583 -0.1343531 0.35959852
-0.10251767 -0.134353 0.35313451
-0.073704623 -0.134353 0.35705078
-0.015866751 -0.134353 0.36087334
0.013096323 -0.134353 0.36087334
0.070963621 -0.134353 0.35705078
0.09980683 -0.134353 0.35313451
-0.16044915 -0.10542867 0.35582912
-0.13177405 -0.10537889 0.36230242
-0.10295978 -0.10533897 0.36749208
0.10013781 -0.10533927 0.36746633
0.12899184 -0.10537928 0.36227715
0.15771557 -0.10542926 0.35577857
-0.1896562 -0.076423809 0.36107767
-0.16105288 -0.076303348 0.36890066
0.15821967 -0.076303646 0.36887491
0.18688184 -0.076424599 0.36102664
-0.24705629 -0.047635607 0.35343945
-0.21878907 -0.047395974 0.3638097
0.21599329 -0.047397256 0.36375821
0.24433996 -0.047636792 0.35338867
-0.27590543 -0.018752284 0.3527025
0.27319437 -0.018754058 0.35265195
-0.24777298 -0.018411227 0.36378372
0.244977 -0.018412799 0.3637327
-0.27654618 0.010468155 0.36102664
0.27377108 0.010466278 0.36097538
-0.30509192 0.039204106 0.35608399
-0.27713656 0.039786875 0.36869562
0.27430239 0.039784312 0.3686446
0.30235445 0.039201841 0.35603297
-0.30566174 0.068493053 0.36281312
0.30287248 0.068490103 0.36276233
-0.33380434 0.096914083 0.3537699
0.33108431 0.096911028 0.35371888
-0.30604708 0.097751349 0.36736405
0.30322281 0.09774819 0.36731279
-0.33415449 0.12608503 0.35756028
0.33140528 0.12608148 0.35750949
-0.33442521 0.15524809 0.36049092
0.33165342 0.15524416 0.3604399
-0.3344959 0.18427317 0.36125648
0.33171824 0.18426873 0.36120522
-0.3345077 0.21325092 0.3613838
0.33172902 0.21324618 0.36133277
-0.33440164 0.24210311 0.36023581
0.33163184 0.24209787 0.36018479
-0.33417568 0.27079767 0.3577894
0.33142468 0.27079207 0.35773838
-0.33388653 0.29937559 0.35465944
-0.30607527 0.30088097 0.36769688
0.30324644 0.30087203 0.36762011
0.33115965 0.29936957 0.35460865
-0.3056531 0.3292824 0.36271107
0.30286461 0.32927626 0.36266005
-0.30517378 0.35751879 0.35705101
0.27432722 0.35908324 0.36900318
0.3024289 0.35751224 0.35699999
-0.27658746 0.38707763 0.36156261
0.27380821 0.38707078 0.36151135
-0.27595237 0.41483945 0.35331237
-0.24779423 0.41641581 0.36409056
0.24499746 0.41641212 0.36406505
0.27323663 0.414832 0.35326159
-0.24713202 0.44393218 0.35453236
0.24440725 0.44392437 0.35448158
-0.21881425 0.44542331 0.36421835
0.21601669 0.44541949 0.36419284
-0.2763578 0.47350055 0.35857904
-0.24782608 0.47446591 0.36455047
0.24502577 0.47446179 0.36452496
0.27360326 0.4734965 0.35855353
-0.36299524 0.50210959 0.35659277
-0.33480495 0.50346589 0.36460173
0.33200368 0.50346154 0.36457598
0.3602531 0.50210094 0.35654175
-0.074034519 -0.10530949 0.3713361
-0.045030825 -0.10528929 0.37392843
-0.015977139 -0.10527962 0.37521327
0.013096323 -0.10527983 0.37518775
0.042159896 -0.10528929 0.37392843
0.071183152 -0.10530989 0.37131035
-0.13227299 -0.076205269 0.37526476
-0.10334969 -0.076129958 0.38015473
-0.074323975 -0.076072991 0.38387001
0.07137613 -0.076073088 0.38384402
0.10043024 -0.076130256 0.38012922
0.12939097 -0.076205671 0.37523901
-0.19027397 -0.047194496 0.37254179
-0.16156438 -0.047022782 0.37997472
0.1586459 -0.047023378 0.37994897
0.18741134 -0.04719568 0.37249053
-0.21939804 -0.018105946 0.3736974
-0.19080649 -0.017837338 0.38242447
0.18786897 -0.017837927 0.38239849
0.21652611 -0.018107325 0.3736459
-0.24836732 0.010904625 0.37236226
-0.21994023 0.011294782 0.38250172
0.21700051 0.011292905 0.38244998
0.24550685 0.010903448 0.37233651
-0.24890186 0.040312454 0.38007772
0.24598041 0.040309995 0.38002622
-0.27763432 0.06915842 0.37516177
0.27475038 0.069155663 0.37511051
-0.2779929 0.098518342 0.37981999
0.27507311 0.098514989 0.37976873
-0.30637258 0.12703054 0.37120783
-0.27828878 0.12789343 0.3836633
0.27533934 0.12788998 0.38361156
0.30351669 0.1270252 0.37113082
-0.30659428 0.15627472 0.37382567
0.30372021 0.15627079 0.37377441
-0.30669001 0.18543325 0.37495601
0.3038072 0.18542893 0.37490499
-0.30670089 0.2145168 0.37508476
0.30381712 0.21451186 0.3750335
-0.30656818 0.24343224 0.37351787
0.30369645 0.24342702 0.37346637
-0.30636388 0.27223277 0.37110507
-0.2782689 0.27355826 0.38340509
0.27532145 0.27355254 0.38335359
0.30351076 0.27222717 0.37105405
-0.27797905 0.30226004 0.37963974
0.27506059 0.30225408 0.37958825
-0.27759871 0.33075911 0.37469947
0.27471834 0.33075267 0.37464797
-0.27716416 0.35908967 0.36905444
-0.24888222 0.36049521 0.37979424
0.24596454 0.36049187 0.37976873
-0.24836375 0.38856715 0.37231076
-0.21991958 0.38993275 0.38216627
0.21698382 0.38992912 0.38214076
0.24550369 0.38856369 0.37228549
-0.21941701 0.41786617 0.37400568
-0.19079536 0.4190672 0.382218
0.18785824 0.41905969 0.38216627
0.21654409 0.41786236 0.37397993
-0.19026706 0.44668525 0.37241375
-0.16153701 0.44775802 0.37938201
-0.13266782 0.44870347 0.3855232
0.12970684 0.44869947 0.38549745
0.1586231 0.44775409 0.3793565
0.18740658 0.44668114 0.37238824
-0.21917681 0.47536379 0.37010515
-0.19040821 0.47616059 0.3750335
-0.16152273 0.47681355 0.37907279
-0.13255848 0.47739708 0.38268244
0.12961936 0.47739297 0.38265669
0.15861119 0.47680944 0.37904727
0.1875276 0.47615653 0.37500775
0.2163353 0.47536379 0.37010515
-0.10351101 0.47783554 0.38539398
0.10055182 0.47783554 0.38539398
-0.30641165 0.50466287 0.37166941
-0.27787593 0.50578606 0.37830055
-0.24920036 0.50681663 0.38438642
0.24624735 0.50681216 0.38436067
0.27496961 0.50578165 0.37827456
0.30355617 0.50465864 0.3716439
-0.045221671 -0.076035142 0.38632452
-0.016072033 -0.076016307 0.38754022
0.013096323 -0.076016307 0.38754022
0.04225532 -0.076035142 0.38632452
-0.13269269 -0.046879753 0.38616979
