ply
format ascii 1.0
comment PCL generated
element vertex 1341
property float x
property float y
property float z
element camera 0
property float view_px
property float view_py
property float view_pz
property float x_axisx
property float x_axisy
property float x_axisz
property float y_axisx
property float y_axisy
property float y_axisz
property float z_axisx
property float z_axisy
property float z_axisz
property float focal
property float scalex
property float scaley
property float centerx
property float centery
property int viewportx
property int viewporty
property float k1
property float k2
end_header
-0.61285323 0.1065871 -0.30734956
-0.61176306 0.13023739 -0.31378722
-0.58764738 0.22572641 -0.31513286
-0.56457096 0.2979171 -0.30986309
-0.5407626 0.3458685 -0.30904293
-0.51628858 0.39322841 -0.31293488
-0.46987867 0.46669203 -0.30157256
-0.37278956 0.5843184 -0.31370199
-0.34926647 0.60910529 -0.3092649
-0.27795506 0.65867746 -0.30134928
-0.25339296 0.6803171 -0.31189454
-0.18177423 0.72906798 -0.3080169
-0.13387281 0.75274932 -0.30907679
-0.062014747 0.77849418 -0.30195045
-0.014248148 0.80008167 -0.31112671
0.057626069 0.8246907 -0.30856407
0.081863448 0.826186 -0.30301476
0.10606137 -0.82942915 -0.29949331
0.13037738 -0.8305921 -0.29505002
0.010133646 -0.80628705 -0.2960844
-0.037792791 -0.7845307 -0.2868365
-0.11005449 -0.75871617 -0.29399765
-0.15829241 -0.73603535 -0.28806686
-0.20621854 -0.71039563 -0.294981
-0.23075384 -0.68865061 -0.28432035
-0.30265698 -0.63903773 -0.29113007
-0.39972252 -0.54405957 -0.28338242
-0.4232043 -0.51895177 -0.28941751
-0.44659388 -0.49393779 -0.29544663
-0.4954434 -0.42259076 -0.28955603
-0.51995295 -0.37477547 -0.28648949
-0.5445106 -0.32686636 -0.28341722
-0.56740981 -0.27792448 -0.29142392
-0.59061807 -0.20538528 -0.29675639
-0.61477864 -0.061221823 -0.29598093
-0.61574364 -0.037230447 -0.29028261
-0.61671227 -0.013151312 -0.28456354
-0.61670929 0.010971576 -0.28458083
-0.61573786 0.0350063 -0.2903173
-0.61476988 0.058953069 -0.29603267
-0.59060413 0.20310587 -0.29684246
-0.56739652 0.27568412 -0.29151034
-0.54449534 0.32468444 -0.28352129
-0.51993853 0.37256828 -0.28659356
-0.49543208 0.42036071 -0.28964233
-0.44657993 0.49165484 -0.29556727
-0.4231894 0.51671135 -0.28955579
-0.39971036 0.54186743 -0.28350413
-0.32734066 0.61432397 -0.2831912
-0.30264619 0.63677526 -0.29128563
-0.23074661 0.68643796 -0.28447676
-0.20621324 0.70810413 -0.29511893
-0.15828919 0.7337957 -0.2882055
-0.11005342 0.75642991 -0.29413569
-0.037794128 0.78231156 -0.28692317
0.010129936 0.80398715 -0.29620492
0.10605291 0.82709759 -0.29963064
0.13037023 0.82830405 -0.29515338
0.034747988 -0.81011456 -0.28101754
0.059288442 -0.81225991 -0.27257252
0.083736092 -0.81335467 -0.26826286
-0.013337165 -0.78826427 -0.27167988
-0.086004004 -0.76231652 -0.27891064
-0.13442944 -0.73953283 -0.2729224
-0.18298863 -0.71628976 -0.26857853
-0.25545722 -0.66675651 -0.27358699
-0.32735136 -0.61651975 -0.28305233
-0.35217512 -0.59388834 -0.2749151
-0.37614995 -0.56926447 -0.27732408
-0.47370499 -0.44931498 -0.27050674
-0.57005107 -0.25517493 -0.27426875
-0.59317648 -0.18220881 -0.28093064
-0.59316242 0.18005176 -0.28101766
-0.57004029 0.25306863 -0.27433848
-0.47369206 0.4472281 -0.27061176
-0.37613869 0.56711799 -0.27744615
-0.35216331 0.59175622 -0.27505493
-0.25544873 0.66462755 -0.27374423
-0.18298431 0.71420103 -0.26871872
-0.13442728 0.73740941 -0.27306235
-0.086004004 0.76014608 -0.27904987
-0.013339587 0.78615725 -0.2717849
0.034742624 0.80792564 -0.2811569
0.059282795 0.81014055 -0.27269495
0.083729476 0.81126851 -0.26838541
0.10825081 -0.81445241 -0.26394117
0.13283291 -0.81555337 -0.25960767
0.15744179 -0.81652248 -0.25579286
0.18208317 -0.81741285 -0.25228775
0.01135689 -0.79203856 -0.25635839
-0.061719984 -0.76595604 -0.2636596
-0.1103343 -0.74306017 -0.25764847
-0.15909538 -0.71970111 -0.25329757
-0.20770377 -0.69466996 -0.25639379
-0.28021008 -0.6443212 -0.26473248
-0.30505621 -0.62162977 -0.25650001
-0.40297627 -0.52518338 -0.25086927
-0.42669475 -0.49985242 -0.25703013
-0.45028871 -0.47457859 -0.26344848
-0.49882543 -0.40168917 -0.26371253
-0.52354103 -0.35345796 -0.26059508
-0.54808855 -0.3049942 -0.25895476
-0.57249027 -0.23207019 -0.25842512
-0.59572965 -0.15878722 -0.26513696
-0.59768939 -0.13498122 -0.25301421
-0.59768367 0.13304278 -0.25304949
-0.59571826 0.15675341 -0.26520729
-0.57247669 0.2300849 -0.25851369
-0.54807562 0.30300286 -0.25904298
-0.52352637 0.35145053 -0.26070082
-0.4988116 0.39965612 -0.26381791
-0.45027649 0.47254518 -0.26355398
-0.42667955 0.49786195 -0.25717139
-0.40296382 0.52324218 -0.25099349
-0.30504519 0.61963439 -0.25665879
-0.28020036 0.64226127 -0.26489079
-0.20769696 0.69266778 -0.25657058
-0.1590921 0.71772969 -0.25343919
-0.11033321 0.74105418 -0.25778961
-0.061721064 0.76390249 -0.26380026
0.011352539 0.79004008 -0.25649989
0.10824326 0.81239939 -0.26406407
0.13282312 0.81352895 -0.25974858
0.15743089 0.81452733 -0.25593424
0.18207116 0.81544465 -0.2524296
0.20687769 -0.81857616 -0.24770868
0.036121786 -0.79475629 -0.24532545
0.060784921 -0.79602557 -0.24017298
0.085528284 -0.79729897 -0.23500371
-0.012437992 -0.77333343 -0.23274457
-0.037199143 -0.76962662 -0.24827766
-0.086004004 -0.74662626 -0.24220741
-0.13496915 -0.72314584 -0.23786759
-0.18402743 -0.69931525 -0.23484242
-0.23251468 -0.67244935 -0.24619734
-0.25738102 -0.64969456 -0.23788536
-0.33001053 -0.59876704 -0.24850845
-0.35491455 -0.57541883 -0.24256408
-0.37916511 -0.55061328 -0.24468458
-0.45363528 -0.45430893 -0.23446596
-0.47725868 -0.42885947 -0.24165428
-0.50221235 -0.3803941 -0.23783171
-0.52680176 -0.33150536 -0.23706257
-0.55140573 -0.28259447 -0.2362752
-0.57495421 -0.20873141 -0.24242163
-0.59863609 -0.11079558 -0.24715781
-0.59947097 -0.086503856 -0.24199343
-0.60027093 -0.062129147 -0.23704469
-0.60027385 0.060315713 -0.23702681
-0.59947097 0.084651746 -0.24199343
-0.59863323 0.10890328 -0.24717557
-0.5749433 0.20687141 -0.24249268
-0.55138999 0.28077656 -0.23638248
-0.52678937 0.32968166 -0.2371521
-0.5022006 0.37856305 -0.23792124
-0.4772433 0.42699292 -0.24177933
-0.45362079 0.45249653 -0.23459148
-0.37915361 0.54871857 -0.24480903
-0.354904 0.5735395 -0.24268878
-0.33000097 0.59684104 -0.24863291
-0.25737235 0.64784086 -0.23804641
-0.23250645 0.67052674 -0.24637532
-0.18402246 0.69748253 -0.23500359
-0.13496694 0.72129261 -0.23801064
-0.086004004 0.74473429 -0.24236786
-0.03720133 0.76769161 -0.24841964
-0.012441307 0.77151746 -0.23288798
0.036116295 0.79284275 -0.2454679
0.06077832 0.79415148 -0.24031579
0.085521549 0.79546916 -0.235129
0.20686786 0.8166523 -0.24781537
0.1103534 -0.79858094 -0.22979951
0.13525856 -0.79986256 -0.2245965
0.16018665 -0.80096138 -0.22013617
0.18518139 -0.80205435 -0.21569943
0.012515716 -0.77667916 -0.21872485
-0.061434954 -0.75022292 -0.22663283
-0.11060666 -0.72662818 -0.22226834
-0.15988208 -0.70268017 -0.21923149
-0.20914111 -0.6780917 -0.21905053
-0.28237692 -0.62681657 -0.22954798
-0.30739784 -0.60353488 -0.22270191
-0.33246222 -0.58000529 -0.21666014
-0.40606451 -0.50555211 -0.22000945
-0.42990279 -0.47987121 -0.22726297
-0.55387735 -0.25940052 -0.21937609
-0.5773102 -0.1851086 -0.22711909
-0.60107344 -0.037678532 -0.23208058
-0.6018784 -0.013151312 -0.22710109
-0.60188133 0.011414286 -0.22708297
-0.60107923 0.035903476 -0.2320447
-0.57730186 0.18336779 -0.22717321
-0.55386674 0.25771657 -0.21944869
-0.48044878 0.40594625 -0.21575379
-0.42989117 0.47811615 -0.22737098
-0.40605366 0.50385195 -0.22011793
-0.33245245 0.57832485 -0.21678698
-0.30738783 0.60180372 -0.22284627
-0.28236806 0.62503177 -0.22969162
-0.20913413 0.67637748 -0.21923137
-0.15987833 0.70096713 -0.21939433
-0.11060554 0.72489476 -0.22241282
-0.061436061 0.74845493 -0.22677672
0.012512363 0.77497965 -0.21883333
0.11034453 0.79678655 -0.22994328
0.13524982 0.79811275 -0.2247225
0.1601769 0.79924566 -0.22026241
0.18517067 0.80037266 -0.21582615
0.21024726 -0.80315483 -0.21123207
0.2353339 -0.80413705 -0.20724463
0.2601819 -0.80443335 -0.20604134
0.037375972 -0.77810717 -0.21274066
0.062309161 -0.77943605 -0.20717192
0.087313399 -0.78069991 -0.20187616
-0.03662347 -0.75385928 -0.2108866
-0.086004004 -0.73014075 -0.20653367
-0.13549849 -0.70607424 -0.20348501
-0.18502957 -0.68157393 -0.20229685
-0.2341582 -0.65515292 -0.21061373
-0.25928199 -0.63200128 -0.20260787
-0.3576231 -0.55638957 -0.21057749
-0.3821193 -0.53135306 -0.2127043
-0.45694488 -0.43355104 -0.20580399
-0.48046219 -0.40760955 -0.21564496
-0.50521791 -0.35838643 -0.21486485
-0.52998823 -0.30914086 -0.21406639
-0.55594254 -0.23575385 -0.20525658
-0.57944834 -0.16118474 -0.21323109
-0.58161366 -0.1370538 -0.19916713
-0.58160245 0.13552816 -0.19924033
-0.57943994 0.15955128 -0.2132858
-0.55593187 0.23417911 -0.20532966
-0.52997309 0.30749291 -0.21417534
-0.50520605 0.35673273 -0.21495557
-0.45693225 0.43196246 -0.20591342
-0.38210756 0.52970505 -0.2128315
-0.35761237 0.55475706 -0.21070468
-0.25927508 0.63042706 -0.20273578
-0.23415065 0.65350854 -0.21077752
-0.1850245 0.6799922 -0.2024616
-0.13549624 0.70448607 -0.20363116
-0.086004004 0.7285282 -0.20667958
-0.036625709 0.75221217 -0.21103203
0.037371762 0.77645355 -0.21284974
0.062303275 0.77782083 -0.20729947
0.087305516 0.77912074 -0.20202267
0.21023382 0.80150282 -0.21137762
0.23531748 0.80251104 -0.20740879
0.26016819 0.80282605 -0.20616877
0.11239909 -0.78196329 -0.1965816
0.13756754 -0.78323102 -0.1912694
0.1628205 -0.78450727 -0.18592131
0.31246817 -0.78519118 -0.1830554
-0.011565953 -0.75753194 -0.19498408
0.01347293 -0.75922847 -0.18763804
-0.061157905 -0.73368824 -0.19064331
-0.1108738 -0.70950574 -0.18756437
-0.16063984 -0.68487382 -0.18641984
-0.2104063 -0.6600433 -0.18617976
-0.28441387 -0.60838097 -0.19647157
-0.30964187 -0.58467036 -0.19031155
-0.33489251 -0.56070608 -0.18508971
-0.38488209 -0.51128149 -0.18279612
-0.4090457 -0.48528925 -0.19021952
-0.43309873 -0.459416 -0.19760883
-0.48333073 -0.38564524 -0.19235528
-0.50826722 -0.33605856 -0.19156408
-0.53297365 -0.28629953 -0.19252074
-0.55799371 -0.21188389 -0.19123256
-0.58268225 -0.11248705 -0.19222641
-0.5834682 -0.087770954 -0.18712151
-0.58418542 -0.062969558 -0.18246305
-0.58418256 0.061575375 -0.18248153
-0.5834654 0.086340956 -0.18713987
-0.58268225 0.11101817 -0.19222653
-0.55798566 0.21041897 -0.19128776
-0.53296089 0.28481993 -0.19261289
-0.50825518 0.33458492 -0.19165587
-0.48331714 0.38416186 -0.19246566
-0.43308491 0.45788699 -0.19773734
-0.40903097 0.48381326 -0.19036686
-0.38486844 0.50986135 -0.18294418
-0.33488256 0.55926925 -0.18521893
-0.30963296 0.58319265 -0.19044065
-0.28440484 0.60685134 -0.19661832
-0.21040063 0.65859038 -0.18632746
-0.16063643 0.68341786 -0.18656754
-0.11087267 0.70803982 -0.18771195
-0.061159037 0.73219764 -0.19079041
-0.011569351 0.75600678 -0.19513118
0.013468951 0.75776404 -0.18776739
0.11239004 0.78042489 -0.19672823
0.13755859 0.7817378 -0.19139826
0.16281056 0.78305519 -0.18605042
0.31245452 0.78376573 -0.18316638
0.18815576 -0.78578347 -0.1805737
0.21357672 -0.78706813 -0.17519009
0.23865904 -0.78734785 -0.17401803
0.26333457 -0.78668678 -0.17678833
0.28788447 -0.7858541 -0.18027723
0.038576983 -0.7606374 -0.18153715
0.06377691 -0.76205587 -0.17539454
0.089070648 -0.76347136 -0.16926563
-0.036064722 -0.73727095 -0.17459488
-0.086004004 -0.71297145 -0.17148542
-0.1360081 -0.68820667 -0.17038512
-0.18601966 -0.66325307 -0.17014277
-0.23575573 -0.63711679 -0.17602658
-0.26105052 -0.61331069 -0.16978812
-0.36012614 -0.53647542 -0.18101847
-0.43595833 -0.43809581 -0.17107522
-0.45999312 -0.41207314 -0.17940569
-0.48612869 -0.36326036 -0.16963911
-0.51098025 -0.31313458 -0.17083287
-0.53580064 -0.26303834 -0.17211866
-0.56007648 -0.18780972 -0.17699265
-0.58485609 -0.038093917 -0.1781069
-0.58552575 -0.013151363 -0.17375731
-0.58552289 0.011824494 -0.17377627
-0.58485037 0.036733292 -0.17814398
-0.56006831 0.18645461 -0.17704856
-0.5357877 0.26171646 -0.172212
-0.51096803 0.31182122 -0.17092597
-0.48611945 0.36195695 -0.16971374
-0.45998025 0.41068837 -0.17951703
-0.43594623 0.4367744 -0.17118704
-0.36011517 0.53507096 -0.18114817
-0.26104245 0.61198598 -0.16993761
-0.23574886 0.63574302 -0.17617536
-0.18601507 0.66192341 -0.1702919
-0.1360058 0.68687379 -0.17053437
-0.086004004 0.71162921 -0.17163432
-0.036067013 0.7359035 -0.17474353
0.038572714 0.75922436 -0.18164825
0.063771755 0.76069009 -0.17550611
0.0890636 0.76214814 -0.1693964
0.18814634 0.78437692 -0.18068492
0.21356641 0.78570318 -0.17530155
0.23864974 0.78599638 -0.17411101
0.26332253 0.78530937 -0.17689991
0.28786951 0.78444541 -0.18040669
0.11446017 -0.76489192 -0.16311395
0.13992518 -0.76624858 -0.15723956
0.16544886 -0.76750982 -0.15177798
0.26640856 -0.76832116 -0.14826524
0.29125375 -0.767667 -0.15109837
0.31603497 -0.76697451 -0.15409648
0.34064293 -0.76605767 -0.15806651
-0.010837726 -0.73975873 -0.16345096
0.014429815 -0.74129647 -0.15656245
0.039801627 -0.74282396 -0.14972031
-0.060885556 -0.7164678 -0.15526414
-0.11113057 -0.69156861 -0.15420949
-0.1613898 -0.66649491 -0.15394592
-0.21157888 -0.6410256 -0.15571582
-0.28644049 -0.58940613 -0.16356349
-0.31178087 -0.56505048 -0.15943766
-0.33718562 -0.54063272 -0.15530169
-0.3626309 -0.51610947 -0.15143812
-0.38751411 -0.49054238 -0.15430379
-0.41179764 -0.4642503 -0.16272032
-0.46297652 -0.39012384 -0.15356898
-0.48868674 -0.34033102 -0.14886999
-0.5136863 -0.28988701 -0.15015447
-0.53820127 -0.23925002 -0.1547935
-0.5620023 -0.16346656 -0.16382575
-0.56380582 -0.1388886 -0.15149474
-0.56379753 0.13773076 -0.15155137
-0.56199408 0.16221347 -0.16388166
-0.53819346 0.23806494 -0.15484989
-0.51367646 0.28873512 -0.15023005
-0.48867744 0.33918801 -0.14894557
-0.46296561 0.38894099 -0.15366304
-0.41178828 0.46299484 -0.16281414
-0.38750368 0.48934802 -0.1544168
-0.36262131 0.51493639 -0.15155137
-0.33717549 0.53942579 -0.1554333
-0.31177181 0.56381088 -0.15956914
-0.28643239 0.58813393 -0.1636945
-0.21157451 0.63981533 -0.15582883
-0.16138676 0.6652934 -0.15407765
-0.11112955 0.69036412 -0.15434134
-0.060886569 0.71525419 -0.15539587
-0.010840327 0.73848557 -0.16356349
0.014426917 0.7400806 -0.1566565
0.039797261 0.74165618 -0.14983356
0.11445209 0.76361614 -0.16324496
0.13991606 0.76501775 -0.15737092
0.16543727 0.76631659 -0.15192854
0.26639634 0.76716381 -0.14837861
0.29124063 0.76648772 -0.15121174
0.31602108 0.76577222 -0.15420949
0.3406257 0.76482046 -0.158198
0.19105659 -0.76877117 -0.14631677
0.21640135 -0.76916474 -0.14461207
0.24143504 -0.76878005 -0.14627862
0.065251216 -0.74421823 -0.14347494
0.090798229 -0.74561775 -0.13720584
0.36942029 -0.74689049 -0.13150489
0.39450657 -0.74656224 -0.13297498
-0.010148011 -0.72114062 -0.13358533
-0.035541188 -0.71963078 -0.14059043
-0.086004004 -0.69496447 -0.13787186
-0.13651335 -0.66977292 -0.13756764
-0.18696415 -0.64415216 -0.1394695
-0.23729688 -0.61832285 -0.14265954
-0.26278573 -0.59400553 -0.13758659
-0.2882984 -0.56946093 -0.13339472
-0.41451108 -0.44273758 -0.13560629
-0.43883479 -0.41638654 -0.14438474
-0.53992206 -0.21489279 -0.14237487
-0.56532854 -0.11406183 -0.14108407
-0.5659849 -0.088937782 -0.1365968
-0.56664306 -0.06374497 -0.13209689
-0.56663465 0.062737592 -0.13215411
-0.5659737 0.087894894 -0.13667297
-0.565323 0.11298519 -0.14112198
-0.53991419 0.21380372 -0.14243174
-0.43882459 0.41527352 -0.14447951
-0.41450155 0.44169149 -0.13570154
-0.2882902 0.56842142 -0.13352811
-0.26277855 0.59293282 -0.13771975
-0.23728988 0.61720645 -0.14281106
-0.18696123 0.64307058 -0.13956428
-0.13651101 0.6686933 -0.13771963
-0.086004004 0.69388527 -0.13800514
-0.035542943 0.71853399 -0.14070427
-0.010150649 0.72009772 -0.13370001
0.065245956 0.7430985 -0.14358866
0.090793103 0.74455053 -0.13730109
0.36940175 0.74585837 -0.13163865
0.39450377 0.74554521 -0.13299406
0.19104536 0.76762414 -0.14644909
0.21639262 0.76803994 -0.14470696
0.24142747 0.76764661 -0.14635456
0.11644325 -0.74702251 -0.13091278
0.14218551 -0.74842858 -0.1246146
0.16802658 -0.7498399 -0.11829233
0.19364174 -0.75039923 -0.11578727
0.21893056 -0.75007647 -0.1172328
0.24417026 -0.74969399 -0.11894667
0.26938379 -0.7493118 -0.12065876
0.2945711 -0.74892986 -0.12236905
0.31962138 -0.74834746 -0.12497878
0.34460181 -0.74771422 -0.12781465
0.015353352 -0.72265261 -0.12656987
0.040963888 -0.7241714 -0.119524
-0.060624488 -0.69839841 -0.12135065
-0.11138588 -0.67308021 -0.12104332
-0.1621035 -0.64731389 -0.12304091
-0.21274348 -0.62150079 -0.12545824
-0.31387636 -0.54485357 -0.12919211
-0.33940917 -0.51996177 -0.12641656
-0.36493802 -0.49494648 -0.12419248
-0.39003181 -0.4691931 -0.12704861
-0.44144154 -0.39397725 -0.1201973
-0.46575373 -0.3675845 -0.12951732
-0.49127305 -0.31710306 -0.12787199
-0.51620191 -0.26620895 -0.13093185
-0.54165596 -0.19034944 -0.12986147
-0.54339784 -0.16561602 -0.11729062
-0.56730014 -0.038482778 -0.12760401
-0.56789178 -0.013151312 -0.12355924
-0.56788892 0.012210894 -0.12357843
-0.5672974 0.037511162 -0.12762308
-0.54338986 0.16472095 -0.11734843
-0.54164803 0.18935703 -0.12991893
-0.5161919 0.26520547 -0.13100815
-0.49126363 0.31612214 -0.12794852
-0.46574485 0.36658961 -0.12959373
-0.44143325 0.3930535 -0.12027395
-0.39002299 0.46821198 -0.12714422
-0.36492991 0.4939867 -0.12428844
-0.33940035 0.51898092 -0.12653136
-0.3138684 0.54385054 -0.12930691
-0.21273832 0.62052029 -0.12559259
-0.1621013 0.64635849 -0.12313688
-0.11138485 0.6721316 -0.12117767
-0.060625523 0.69744617 -0.12148511
0.015349813 0.72166383 -0.12668478
0.040960178 0.72324097 -0.1196202
0.1164362 0.7459994 -0.13102722
0.14217754 0.74745375 -0.12472951
0.1680177 0.74891388 -0.11840773
0.19363196 0.74949229 -0.11590302
0.21892168 0.74916291 -0.11732924
0.24416257 0.74877155 -0.11902356
0.26937753 0.74838048 -0.12071621
0.29456228 0.74798137 -0.1224457
0.3196072 0.74736977 -0.12509406
0.34458685 0.74671483 -0.12792933
0.066684276 -0.72569668 -0.1124481
0.092515275 -0.72722846 -0.10534143
0.11845756 -0.72876668 -0.098204613
0.34844363 -0.7287122 -0.098457694
0.37360281 -0.72809535 -0.10131967
0.39867038 -0.72740847 -0.10450685
0.42354363 -0.72651803 -0.10863733
-0.035096899 -0.70039725 -0.11173296
-0.0094648078 -0.70200402 -0.104002
-0.086004004 -0.67642099 -0.10435176
-0.13699248 -0.65050739 -0.10644722
-0.18790519 -0.62455839 -0.1089083
-0.23865393 -0.59830928 -0.11327863
-0.26443863 -0.57394588 -0.10691273
-0.29015279 -0.54904187 -0.10328341
-0.31582898 -0.52387363 -0.10100842
-0.34154046 -0.49867073 -0.098730564
-0.39239955 -0.44721183 -0.10141706
-0.41699111 -0.42052016 -0.11082399
-0.46843332 -0.34459007 -0.10631156
-0.49354434 -0.29333538 -0.10943091
-0.51860821 -0.2421771 -0.11254466
-0.54500782 -0.14065246 -0.10567153
-0.54500246 0.13984802 -0.10571015
-0.51859808 0.24131563 -0.11262178
-0.49353486 0.29249683 -0.10950851
-0.46842659 0.34377638 -0.10636961
-0.41698146 0.41966531 -0.11092079
-0.3923924 0.4464311 -0.10149503
-0.34153146 0.4979035 -0.098847389
-0.31582224 0.52309114 -0.10110581
-0.2901468 0.54824138 -0.10338032
-0.26443234 0.5731132 -0.10702884
-0.23864768 0.59742332 -0.11341381
-0.18790102 0.62370491 -0.10904372
-0.13699099 0.64967954 -0.10654414
-0.086004004 0.67560035 -0.10448754
-0.035098683 0.69952315 -0.11184895
-0.0094675049 0.70118928 -0.10411847
0.06667982 0.72482038 -0.11254454
0.09251003 0.72640681 -0.10543859
0.11845155 0.7280001 -0.098301888
0.34842837 0.72793913 -0.098574638
0.37358397 0.72729605 -0.10145593
0.39865053 0.72658461 -0.10464275
0.42351985 0.72565818 -0.10879195
0.14446981 -0.73018104 -0.091643095
0.17028756 -0.73076779 -0.088921309
0.19586195 -0.73062843 -0.0895679
0.22142644 -0.73048896 -0.090214491
0.24695356 -0.73029071 -0.091134548
0.27237803 -0.72991544 -0.0928756
0.29777592 -0.72954047 -0.094614744
0.3231473 -0.72916609 -0.0963521
0.04214479 -0.70515496 -0.088842869
0.068107501 -0.70665312 -0.081634521
0.42741627 -0.70626873 -0.083483696
0.45159429 -0.70434922 -0.092719078
0.01628802 -0.70362252 -0.096215248
-0.060390078 -0.67911345 -0.090899467
-0.034655921 -0.68067646 -0.083090663
-0.11162712 -0.65372932 -0.089705348
-0.16281596 -0.62764692 -0.0921911
-0.21385026 -0.60124415 -0.096703053
-0.23996291 -0.57766742 -0.084938169
-0.36723602 -0.47334921 -0.097054362
-0.41946179 -0.3979103 -0.086136341
-0.4440555 -0.37120295 -0.095942259
-0.47058624 -0.32081708 -0.08766675
-0.4958365 -0.26929668 -0.090821266
-0.52083707 -0.21777877 -0.095512748
-0.52228004 -0.19279443 -0.084486246
-0.54652911 -0.11549028 -0.094692826
-0.54733151 -0.090039261 -0.088901877
-0.54787797 -0.064470798 -0.084957838
-0.54842579 -0.038841493 -0.08100462
-0.54842305 0.038228504 -0.081024289
-0.54787797 0.063827716 -0.084957957
-0.54733151 0.089365937 -0.088901758
-0.54652101 0.11477005 -0.094751358
-0.52227491 0.19215263 -0.084525585
-0.52083451 0.21705289 -0.095532417
-0.49582684 0.2686018 -0.090899706
-0.47057718 0.32014531 -0.08774507
-0.44404709 0.3704662 -0.096020222
-0.41945392 0.39724848 -0.086214662
-0.36722946 0.47260168 -0.097132325
-0.23995747 0.57700354 -0.085056067
-0.213845 0.60048544 -0.096839666
-0.1628128 0.62692195 -0.092328072
-0.11162637 0.65303034 -0.08980298
-0.060390979 0.67840028 -0.091017127
-0.034657434 0.68002731 -0.083189011
0.016285017 0.70287186 -0.096313119
0.04214026 0.70445663 -0.088960648
0.068102956 0.70601457 -0.081733108
0.42740113 0.70561582 -0.083582163
0.45157534 0.70362115 -0.092836261
0.32313764 0.72841787 -0.096430063
0.14446303 0.72946471 -0.091741204
0.17027999 0.7300722 -0.089019299
0.195852 0.72992355 -0.08968544
0.22141559 0.72977924 -0.090331793
0.24694572 0.72958273 -0.091212749
0.27237171 0.7291984 -0.092934132
0.29776919 0.72881001 -0.094673276
0.094182864 -0.7081579 -0.074394941
0.12037162 -0.70966905 -0.067123652
0.24964277 -0.71026385 -0.06426239
0.27539104 -0.71012759 -0.06491828
0.30103517 -0.70982176 -0.066389084
0.3266201 -0.70945448 -0.068156123
0.35217816 -0.70908767 -0.069921255
0.37770647 -0.70871705 -0.071704268
0.40292716 -0.70794827 -0.075402975
-0.0088006929 -0.68224686 -0.075244784
0.017177083 -0.68382853 -0.067342043
0.455392 -0.68345118 -0.069227338
0.47967881 -0.68168551 -0.078048468
-0.086004004 -0.65698797 -0.072773099
-0.13747197 -0.63076699 -0.075304031
-0.18879715 -0.60421181 -0.079941154
-0.21495286 -0.58052623 -0.068056941
-0.26602271 -0.55320752 -0.077515483
-0.29188195 -0.52784622 -0.075205207
-0.31777698 -0.50244987 -0.072891831
-0.34357524 -0.47677952 -0.07229805
-0.36937761 -0.45109236 -0.071763515
-0.39469498 -0.4247393 -0.076568127
-0.44641823 -0.34782171 -0.074019313
-0.4727658 -0.29677668 -0.068790793
-0.49798149 -0.24488866 -0.073406219
-0.52373004 -0.16764289 -0.0734061
-0.54897487 -0.013151312 -0.077042103
-0.54897213 0.012569161 -0.077061772
-0.52372485 0.16708677 -0.073445797
-0.49797416 0.2443299 -0.073465466
-0.47275436 0.29624888 -0.068889976
-0.44640756 0.3472521 -0.074118137
-0.39468586 0.42414793 -0.076666832
-0.36936921 0.45053717 -0.071862698
-0.3435691 0.47622237 -0.072377205
-0.31777012 0.50188446 -0.072990656
-0.29187584 0.52726227 -0.075304031
-0.26601738 0.55260491 -0.077614188
-0.21494828 0.57999235 -0.068175793
-0.18879229 0.60357851 -0.080098629
-0.13747014 0.63017541 -0.075422645
-0.086004004 0.65641505 -0.072891831
-0.0088029727 0.68165791 -0.075343609
0.017173417 0.68329632 -0.067461371
0.45537597 0.68290859 -0.069326401
0.47966546 0.68107951 -0.078127265
0.094177514 0.70757473 -0.074493766
0.12036552 0.70914191 -0.067223072
0.24963282 0.70975876 -0.064361572
0.2753846 0.70962596 -0.064978004
0.30103058 0.70931309 -0.066428781
0.32661521 0.70893228 -0.068195581
0.35216779 0.70854336 -0.070000529
0.37769276 0.70815474 -0.071803212
0.4029128 0.7073577 -0.07550168
0.14645505 -0.71052855 -0.062988758
0.17231755 -0.71061957 -0.062550902
0.19811599 -0.71053684 -0.062949061
0.22388442 -0.71040028 -0.063605785
0.043278739 -0.68542159 -0.0593822
0.069504693 -0.68702245 -0.051384091
0.40619117 -0.68668145 -0.053087234
0.43089056 -0.6851142 -0.060917497
-0.060179509 -0.65876371 -0.063546181
-0.034222946 -0.66041458 -0.054967999
0.48360455 -0.66043383 -0.054867983
0.50812501 -0.65894383 -0.062610507
-0.11186931 -0.6339187 -0.058244824
-0.16348898 -0.60720277 -0.063048363
-0.18968758 -0.58341104 -0.051023364
-0.24120413 -0.55635166 -0.058065176
-0.26755944 -0.53188115 -0.048997641
-0.29357874 -0.50614142 -0.047652245
-0.31956041 -0.48026419 -0.047150016
-0.39683819 -0.40169418 -0.053367376
-0.4217065 -0.37467715 -0.063705325
-0.44879717 -0.32411692 -0.051945448
-0.47468781 -0.27227393 -0.05214572
-0.50001121 -0.22015499 -0.056926847
-0.52519494 -0.14232515 -0.062212348
-0.52658576 -0.11681766 -0.051584601
-0.52658051 0.11642996 -0.051624656
-0.52518713 0.1418543 -0.062271953
-0.50000381 0.21972342 -0.056986809
-0.4746809 0.2718783 -0.052205801
-0.44878638 0.32371801 -0.052045465
-0.42169654 0.37418628 -0.063804626
-0.3968308 0.4012844 -0.053447366
-0.31955206 0.47989452 -0.047270656
-0.2935726 0.50577009 -0.047752619
-0.26755404 0.53149873 -0.049097896
-0.24119951 0.55589885 -0.058164954
-0.18968388 0.58300775 -0.051143646
-0.16348577 0.60670274 -0.063187718
-0.11186838 0.63345826 -0.05836463
-0.060180277 0.65826571 -0.063645482
-0.034224484 0.65998232 -0.055068016
0.48358762 0.66000235 -0.054967999
0.50812501 0.65847278 -0.062610388
0.043274909 0.68495476 -0.059481859
0.069500059 0.68661696 -0.051484466
0.40617949 0.6862672 -0.053166986
0.43087524 0.68463564 -0.061017156
0.14645094 0.71004182 -0.063048363
0.17231144 0.71013188 -0.062630534
0.19810925 0.71004599 -0.063028574
0.22387524 0.70990008 -0.063705206
0.09585692 -0.68863475 -0.043328047
0.12216374 -0.68969643 -0.038023353
0.14821412 -0.68978155 -0.037598968
0.17427103 -0.68986636 -0.037174821
0.20033447 -0.68995136 -0.036749959
0.22638391 -0.68999183 -0.036547899
0.2523495 -0.68985832 -0.037214994
0.27830482 -0.68972492 -0.037881851
0.30424988 -0.68959129 -0.038548589
0.33015245 -0.68940544 -0.039477348
0.35592723 -0.68904626 -0.04127264
0.38122857 -0.68804288 -0.046285629
-0.008133769 -0.66206998 -0.046366334
0.018082984 -0.66369504 -0.037922263
0.40936548 -0.66495341 -0.031383872
0.43438423 -0.66363668 -0.038225293
0.45910066 -0.66208547 -0.046285748
-0.059969652 -0.63797575 -0.036285281
0.48755425 -0.63885128 -0.031546354
0.51206005 -0.63721824 -0.040385365
-0.086004004 -0.63636959 -0.044978738
0.53729975 -0.63645518 -0.044515729
-0.13792369 -0.61022764 -0.045964122
-0.16416454 -0.58632863 -0.033795834
-0.21599154 -0.5590989 -0.041071177
-0.24243647 -0.53459293 -0.031383991
-0.34555137 -0.45438191 -0.046627402
-0.37148905 -0.42840239 -0.046828508
-0.39891768 -0.37821722 -0.030856729
-0.42394131 -0.35108864 -0.041373491
-0.4509235 -0.29987386 -0.032215476
-0.47661501 -0.2475179 -0.035455823
-0.50203371 -0.19516441 -0.040506244
-0.50323969 -0.16961482 -0.03071475
-0.5276584 -0.091090403 -0.043388486
-0.52810949 -0.065163769 -0.03994143
-0.52856147 -0.039184242 -0.036487222
-0.52900916 -0.013151312 -0.03306663
-0.52900916 0.012907688 -0.033066511
-0.52856147 0.038914092 -0.036487222
-0.52810949 0.064867198 -0.039941311
-0.52765572 0.090766557 -0.043408632
-0.50323468 0.16938706 -0.030755281
-0.5020287 0.19486094 -0.040546656
-0.47660804 0.24725127 -0.0355165
-0.4509148 0.29962927 -0.032296419
-0.42393124 0.35077026 -0.041474342
-0.39890832 0.37797907 -0.030958056
-0.37148225 0.42804232 -0.046908855
-0.34554362 0.45401999 -0.046728015
-0.24243179 0.53434587 -0.031485558
-0.21598767 0.5587768 -0.041171789
-0.16416174 0.5860579 -0.033917189
-0.13792183 0.60986257 -0.046084642
-0.086004004 0.63601494 -0.045079231
-0.059970431 0.63768798 -0.036386371
0.48753709 0.63859987 -0.031647801
0.5120458 0.63690281 -0.040465713
0.53729975 0.63612342 -0.044515729
-0.0081360862 0.66170394 -0.046466589
0.018079877 0.6633938 -0.038023353
0.40935361 0.66470653 -0.031465173
0.43436873 0.66333324 -0.038326144
0.45908439 0.66171998 -0.046386242
0.095851496 0.68829143 -0.043428659
0.12215878 0.68939817 -0.038104057
0.14820851 0.68948621 -0.037679791
0.17426635 0.68957859 -0.03723526
0.20032932 0.68966693 -0.036810637
0.22637646 0.68970466 -0.036628604
0.25233936 0.68956184 -0.037315845
0.27829611 0.68942738 -0.037962675
0.30424291 0.68929309 -0.038609028
0.33014995 0.68910843 -0.039497375
0.35592198 0.68873096 -0.041312814
0.38122016 0.68768495 -0.046346068
0.044414967 -0.66524625 -0.029862404
0.070874691 -0.66681266 -0.021722913
0.097382367 -0.66810268 -0.015019417
0.12367125 -0.66838652 -0.013544559
0.35902816 -0.66761047 -0.017577171
0.38424802 -0.66627908 -0.024494767
-0.033801079 -0.63958645 -0.027567029
-0.0074967667 -0.6412093 -0.018783212
0.43775535 -0.64166272 -0.016329527
0.46281099 -0.64036858 -0.023333549
-0.11209671 -0.61328351 -0.028704762
-0.086004004 -0.61499304 -0.019049048
0.51625401 -0.61540931 -0.016698122
0.54076546 -0.61380553 -0.025756836
-0.13837868 -0.58927274 -0.016411781
-0.19052327 -0.56187749 -0.0238837
-0.21702895 -0.53725106 -0.014118433
-0.26893908 -0.50968939 -0.023394585
-0.29518062 -0.48379886 -0.021641493
-0.32135597 -0.4577052 -0.021233201
-0.34741825 -0.43141422 -0.022375703
-0.37346476 -0.40514332 -0.023496509
-0.42597318 -0.32696903 -0.021070242
-0.45291805 -0.27523285 -0.013708591
-0.47845525 -0.22245879 -0.019518614
-0.50445527 -0.14391741 -0.020845532
-0.5044502 0.143766 -0.02088654
-0.47845054 0.22231649 -0.019559622
-0.45291144 0.27513298 -0.013769865
-0.42596501 0.3268097 -0.021151781
-0.37345439 0.40495831 -0.023618937
-0.34741038 0.43123969 -0.022477627
-0.32134891 0.4575384 -0.021335244
-0.29517311 0.48362514 -0.021763802
-0.26893467 0.50950766 -0.023476243
-0.2170258 0.53714025 -0.014200211
-0.19052014 0.56168741 -0.023985624
-0.1383771 0.58913934 -0.016513824
-0.11209592 0.61305469 -0.02880621
-0.086004004 0.61483866 -0.019150853
0.51623952 0.61527681 -0.016779661
0.54074669 0.61359942 -0.025858521
-0.033802643 0.63936561 -0.027668476
-0.007499598 0.64105219 -0.018905759
0.43773955 0.64152813 -0.016431808
0.4627946 0.64018035 -0.023435473
0.044411048 0.66500688 -0.029963851
0.070869982 0.66663593 -0.021824956
0.097377941 0.66798168 -0.015101433
0.1236662 0.66827691 -0.013626337
0.35902548 0.66748202 -0.017597675
0.38424236 0.66609347 -0.024535298
0.14998151 -0.66866666 -0.012088776
0.17625584 -0.66880101 -0.011390924
0.20251833 -0.6688838 -0.01096034
0.22878744 -0.66896701 -0.010528922
0.25506318 -0.66904986 -0.010097742
0.28126597 -0.66899049 -0.010406017
0.30742127 -0.66886032 -0.011083126
0.33354604 -0.66869825 -0.011924624
0.018942915 -0.64283282 -0.0099951029
0.04551965 -0.64446503 -0.0011613369
0.36177701 -0.64531279 0.0034278631
0.38730675 -0.64423239 -0.002420187
0.41258103 -0.64294297 -0.0093995333
-0.059764899 -0.61665058 -0.0096871853
-0.03338087 -0.61831737 -0.00027322769
0.46639538 -0.61816031 -0.0011613369
0.49147552 -0.61687994 -0.0083922148
-0.11229809 -0.59162116 -0.0025441647
0.54521042 -0.59176475 -0.0016978979
0.56971669 -0.59018546 -0.011021852
-0.16479492 -0.56468773 -0.0065000057
0.59693289 -0.56475413 -0.0060884953
-0.1913617 -0.53993982 0.0033452511
-0.24360198 -0.51221162 -0.0061500072
-0.27027404 -0.48698878 0.0013798475
-0.32299429 -0.43446746 0.0024138689
-0.34923899 -0.4080039 0.0012763739
-0.37539804 -0.38147104 -0.00066578388
-0.40085995 -0.35424531 -0.0098307133
-0.42798412 -0.30251917 -0.00097548962
-0.45456195 -0.25008154 0.0015454292
-0.48016304 -0.19709225 -0.0047291517
-0.5056501 -0.11806285 -0.011144996
-0.50678819 -0.092048466 -0.0019043684
-0.50678569 -0.065749094 -0.0019251108
-0.50678569 -0.039450228 -0.0019251108
-0.50678569 -0.013151463 -0.0019251108
-0.50678569 0.013147404 -0.0019251108
-0.50678569 0.039446272 -0.0019251108
-0.50678569 0.065745138 -0.0019251108
-0.50678819 0.092044607 -0.0019043684
-0.50564504 0.11798636 -0.011185765
-0.48015589 0.197063 -0.0047907829
-0.45455527 0.25009957 0.001483202
-0.42797792 0.30251685 -0.0010375977
-0.40085047 0.35416949 -0.0099333525
-0.37539101 0.38146731 -0.00074827671
-0.349231 0.40801173 0.0011731386
-0.32298857 0.43448621 0.0023311377
-0.2702685 0.48699513 0.0012766123
-0.24359722 0.51215935 -0.0062530041
-0.19135851 0.53995973 0.0032417774
-0.16479254 0.56463122 -0.0066028833
0.59692878 0.56471485 -0.0061087608
-0.1122973 0.59159452 -0.0026470423
0.54519516 0.59174782 -0.0017806292
0.5697009 0.59009725 -0.011103868
-0.059765693 0.61656827 -0.0097897053
-0.033382457 0.61830717 -0.00037670135
0.46637869 0.6181432 -0.0012645721
0.49146158 0.6168111 -0.0084745884
0.018939756 0.6427471 -0.010097742
0.38730103 0.64421672 -0.0024614334
0.41257197 0.64286965 -0.0094609261
0.045515686 0.64444709 -0.0012645721
0.36177158 0.64534223 0.0033863783
0.14997584 0.66856825 -0.012170792
0.17624952 0.66870785 -0.011473179
0.20251136 0.66879416 -0.011042118
0.22877987 0.6688804 -0.010611176
0.25505501 0.66896683 -0.010179877
0.28125268 0.66889673 -0.01052916
0.30741185 0.66876936 -0.011165261
0.33354354 0.66861337 -0.011945128
0.072216317 -0.64603257 0.0073240995
0.098701596 -0.64642769 0.0094623566
0.12518024 -0.64670414 0.01095891
0.15168206 -0.64698082 0.012456417
0.17820539 -0.64725393 0.013934374
0.20473395 -0.64748859 0.015205264
0.23120706 -0.64757353 0.015663981
0.25768512 -0.64765441 0.016101956
0.28416997 -0.64773524 0.016540051
0.3104232 -0.64743477 0.01491344
0.33614188 -0.64637011 0.0091506243
-0.0068506971 -0.61999345 0.0091924667
0.019810103 -0.62158251 0.018167615
0.39026368 -0.62171543 0.018919349
0.41583854 -0.62064499 0.012872338
0.44117033 -0.61940175 0.0058515072
-0.086004004 -0.59322232 0.0069092512
-0.059564129 -0.59482867 0.016394019
0.49529195 -0.59444737 0.014142871
0.52039701 -0.59318721 0.006701827
-0.13880135 -0.56752348 0.01104188
0.54890764 -0.56869912 0.018313885
0.57305968 -0.56676483 0.0063489676
0.60020334 -0.54100317 0.010251999
-0.21800537 -0.51475662 0.011249781
0.62744796 -0.51521021 0.01435101
-0.244757 -0.48941037 0.018856883
-0.29673341 -0.46095124 0.0035727024
-0.40272659 -0.32987392 0.010376573
-0.42984557 -0.2776449 0.017624855
-0.45616674 -0.22467291 0.016435742
-0.48184729 -0.1714887 0.0098571777
-0.4822436 -0.14523132 0.013288975
-0.4822436 -0.11881521 0.013288975
-0.4822436 -0.092399299 0.013288975
-0.4822436 -0.065983288 0.013288975
-0.4822436 -0.039567225 0.013288975
-0.4822436 -0.013151413 0.013288975
-0.4822436 0.013264548 0.013288975
-0.4822436 0.039680563 0.013288975
-0.4822436 0.066096574 0.013288975
-0.4822436 0.092512585 0.013288975
-0.4822436 0.11892854 0.013288975
-0.4822436 0.14534445 0.013288975
-0.48184007 0.17157215 0.0097948313
-0.45616001 0.22480609 0.016372919
-0.42983925 0.27778625 0.017562389
-0.40271896 0.3299565 0.010293365
-0.29672703 0.46097535 0.0034694672
-0.24475217 0.4895511 0.018752337
-0.21800217 0.51484132 0.011166692
0.62743926 0.51532525 0.014309525
0.60018671 0.54107958 0.010168791
-0.13879976 0.5676018 0.010937929
0.54889995 0.56884402 0.018272161
0.57305169 0.56681764 0.0063076019
-0.086004004 0.5932681 0.0068055391
0.52037871 0.59323144 0.006598115
-0.059564777 0.59495091 0.016310334
0.49527782 0.59455234 0.014059305
-0.0068530962 0.62005585 0.0090885162
0.019806251 0.62171012 0.018042684
0.39025784 0.62186456 0.018877745
0.41583246 0.62074733 0.012830973
0.44115442 0.61943865 0.0057480335
0.072213441 0.64608806 0.0072618723
0.098697126 0.64649552 0.0093792677
0.12517515 0.64678347 0.010875702
0.15167628 0.6470716 0.01237309
0.17819898 0.64735615 0.013851285
0.20472689 0.64760071 0.015122056
0.23119934 0.64768898 0.015580535
0.25767678 0.64777321 0.016018629
0.28415871 0.64785349 0.016435623
0.31041354 0.64754456 0.014830351
0.33613676 0.64644361 0.0091094971
0.046609297 -0.6231724 0.027148008
0.073289156 -0.62377518 0.030551672
0.099972963 -0.62421852 0.033055902
0.12669554 -0.62466264 0.035563946
0.31278574 -0.62462902 0.035374284
0.33876997 -0.62376398 0.03048861
0.36456007 -0.622738 0.024694443
-0.032977097 -0.59644735 0.025952458
-0.0062416717 -0.59807509 0.035564184
0.41900945 -0.59790373 0.034551859
0.44463021 -0.59684891 0.02832365
0.47001332 -0.59564561 0.021218657
-0.086004004 -0.57090873 0.031982303
0.49911624 -0.57167524 0.03672421
0.52443737 -0.57051092 0.029521704
-0.11248585 -0.56927001 0.021846294
-0.16542974 -0.54265624 0.020988584
-0.13918701 -0.54498136 0.036091208
0.55194664 -0.54477674 0.034762621
0.57623547 -0.54294288 0.022850871
-0.19214636 -0.51732767 0.028828025
0.60363972 -0.51712167 0.027420878
-0.21897858 -0.49185976 0.036534548
0.63098568 -0.49114454 0.03137207
-0.27154055 -0.46374014 0.024882913
0.65838534 -0.46510208 0.035289884
-0.29821241 -0.43756822 0.027588844
-0.32464105 -0.41087976 0.026183128
-0.35094333 -0.38406637 0.0234164
-0.37719983 -0.35729182 0.02061224
-0.4045049 -0.30511057 0.029626608
-0.43164289 -0.2524398 0.035585046
-0.45748419 -0.19889149 0.028660059
-0.45748192 -0.17235623 0.028638959
-0.45748192 -0.14582203 0.028638959
-0.45748192 -0.11928796 0.028638959
-0.45748192 -0.092753842 0.028638721
-0.45748192 -0.066219538 0.028639197
-0.45747966 -0.039685376 0.028617859
-0.45747966 -0.013151312 0.028618097
-0.45747966 0.013382599 0.028617859
-0.45747966 0.039916657 0.028618097
-0.45748192 0.066451028 0.028639197
-0.45748192 0.092985235 0.028638959
-0.45748192 0.1195193 0.028638959
-0.45748192 0.1460534 0.028639197
-0.45748192 0.17258756 0.028638959
-0.45748419 0.19912302 0.028660059
-0.43163443 0.25271821 0.035500765
-0.40449905 0.30534363 0.029563427
-0.37719095 0.35745028 0.020507693
-0.35093528 0.38424549 0.023311615
-0.32463381 0.41107941 0.026078105
-0.29820597 0.43777788 0.027484179
-0.27153492 0.46392816 0.024778247
0.65836716 0.46537292 0.035205483
-0.21897452 0.49213669 0.036429048
0.63096821 0.4913846 0.031287909
-0.19214377 0.51754755 0.028744102
0.60363138 0.51733744 0.027379155
-0.16542733 0.54281181 0.020884037
-0.1391854 0.54525316 0.035985708
0.5519349 0.54504514 0.034699559
0.57623142 0.54312634 0.022830129
-0.11248521 0.569435 0.021762729
-0.086004004 0.57115161 0.031898141
0.499102 0.57195461 0.036640048
0.52442616 0.57073838 0.029458642
-0.032978386 0.59664327 0.025868297
-0.0062436163 0.59834486 0.035479784
0.41900015 0.59816951 0.034488797
0.44461727 0.59706318 0.028240085
0.46999639 0.59580135 0.021114111
0.046605259 0.62337309 0.027043343
0.073286235 0.62400967 0.03048861
0.099969551 0.62447226 0.03299284
0.12669036 0.62493163 0.035479784
0.31277847 0.62490052 0.035310984
0.33876222 0.62399793 0.030425429
0.36455184 0.62292755 0.024631262
0.1534058 -0.62497634 0.037336469
0.18012233 -0.62524188 0.038836241
0.20686205 -0.62550771 0.040337205
0.23362504 -0.62577373 0.0418396
0.26034552 -0.62592351 0.042686105
0.28669131 -0.62543648 0.03993535
0.020643398 -0.59971225 0.045229554
0.047526032 -0.60068351 0.050965548
0.3413288 -0.60073382 0.051263332
0.36737794 -0.59988099 0.046226621
0.39323723 -0.59889072 0.040379643
-0.059365645 -0.57255703 0.042178154
-0.032569375 -0.57421499 0.052434564
0.44801456 -0.57387072 0.050306082
0.47367889 -0.57283443 0.043894172
-0.11267418 -0.54655486 0.046311378
0.52724105 -0.54640788 0.045356989
-0.16602091 -0.51992512 0.046587467
0.55488116 -0.52051884 0.050646424
0.5794217 -0.51887482 0.039406657
0.6069622 -0.49289715 0.04402101
-0.24584688 -0.46603942 0.042453289
0.63458079 -0.4668529 0.048668981
-0.2727868 -0.44008356 0.048010349
0.66214502 -0.44066522 0.052732706
-0.29963106 -0.41370201 0.050625086
-0.32614008 -0.38669631 0.047818899
-0.3526029 -0.35972998 0.044975162
-0.37896681 -0.33274713 0.041479588
-0.40617365 -0.27995947 0.047691703
-0.43250197 -0.22638081 0.044169307
-0.43249774 -0.19972493 0.044127107
-0.43249559 -0.17307061 0.044106007
-0.43249559 -0.14641729 0.044106007
-0.43249559 -0.11976413 0.044106007
-0.43249559 -0.093110956 0.044106007
-0.43249559 -0.066457741 0.044105768
-0.43249559 -0.039804578 0.044105768
-0.43249559 -0.013151413 0.044105768
-0.43249559 0.013501953 0.044106007
-0.43249559 0.04015512 0.044105768
-0.43249559 0.066808335 0.044105768
-0.43249559 0.093461402 0.044106007
-0.43249559 0.12011451 0.044106007
-0.43249559 0.14676778 0.044106007
-0.43249559 0.17342089 0.044106007
-0.43249774 0.20007561 0.044127107
-0.43249983 0.22673033 0.044148326
-0.40616578 0.2803303 0.047606826
-0.37896144 0.33307099 0.041416049
-0.3525964 0.36007795 0.044890404
-0.32613271 0.38706312 0.047712803
-0.29962456 0.41408962 0.050518632
-0.27278107 0.4404501 0.047904015
0.66213125 0.44107357 0.05266881
-0.24584198 0.4663626 0.04234755
0.6345675 0.46722966 0.048605084
0.60695374 0.49324086 0.04397881
-0.16601846 0.52027839 0.046481371
0.55486542 0.52090645 0.050561428
0.57941353 0.51918268 0.039364696
-0.11267353 0.54690862 0.046226621
0.52722985 0.54675782 0.045293331
-0.059366293 0.5728783 0.042093635
-0.032570686 0.57461512 0.052349329
0.44800472 0.57425827 0.050242186
0.47366178 0.57316524 0.043787837
0.020640783 0.60005623 0.045144796
0.047522753 0.60107177 0.050880551
0.074372694 0.6016261 0.054011106
0.34132093 0.60112822 0.051199555
0.36736679 0.60023278 0.046141863
0.39322841 0.59920114 0.040315866
0.1533985 0.62525523 0.037230968
0.18011583 0.62553626 0.038751841
0.20685489 0.62581354 0.040252686
0.2336172 0.62609112 0.04175508
0.26033705 0.62624758 0.042601585
0.28668219 0.62573934 0.03985095
0.20900522 -0.6031698 0.06564641
0.23596503 -0.60342795 0.067170501
0.074376643 -0.60121381 0.05409646
0.10124356 -0.60164374 0.056635141
0.12814976 -0.60207421 0.059177756
0.1550954 -0.60250533 0.06172359
0.18206729 -0.60290837 0.064102292
0.26252085 -0.60296273 0.0644238
0.28890342 -0.60229141 0.060460687
0.31514955 -0.60150981 0.05584538
-0.005623199 -0.57581711 0.06234467
0.021396451 -0.57700372 0.069685459
0.37013847 -0.57662153 0.067321181
0.39624822 -0.5757789 0.062108994
0.4221769 -0.57482511 0.056208253
-0.086004004 -0.54813784 0.056592464
-0.05917507 -0.54973 0.066934466
0.47728211 -0.54961437 0.06618309
0.50238711 -0.54805225 0.056037545
-0.13954014 -0.52174467 0.059027791
-0.11285577 -0.52333492 0.069900632
0.53007066 -0.52208269 0.061338425
-0.19293362 -0.49433458 0.054394841
0.55784285 -0.49603656 0.066676855
0.58260167 -0.49454758 0.055930853
-0.21988963 -0.46836254 0.060204148
0.61031258 -0.46843514 0.06076026
-0.24692506 -0.4422743 0.065796733
0.63806492 -0.44222924 0.065432072
-0.27396756 -0.41593042 0.06992209
0.66589648 -0.41595525 0.070137382
0.68952143 -0.41428527 0.055674791
0.69182903 -0.38865682 0.066011071
-0.32764012 -0.36218134 0.069470406
-0.35415953 -0.33493808 0.065195918
-0.38053244 -0.30767974 0.059968829
-0.40728998 -0.25411585 0.059776306
-0.40728998 -0.22734208 0.059776306
-0.40728801 -0.20056705 0.059754968
-0.40728599 -0.17379247 0.05973351
-0.40728599 -0.14701889 0.05973351
-0.40728599 -0.12024541 0.05973351
-0.40728599 -0.093471885 0.059733748
-0.40728599 -0.066698417 0.05973351
-0.40728599 -0.039924785 0.05973351
-0.40728408 -0.013151413 0.059712172
-0.40728408 0.013621962 0.059712172
-0.40728599 0.04039564 0.05973351
-0.40728599 0.067169115 0.05973351
-0.40728599 0.093942642 0.05973351
-0.40728599 0.12071607 0.05973351
-0.40728599 0.14748968 0.05973351
-0.40728599 0.17426322 0.05973351
-0.40728599 0.20103654 0.05973351
-0.40728801 0.22781152 0.059754848
-0.40728801 0.25458524 0.059754848
-0.38052702 0.30814648 0.059904695
-0.35415292 0.33544227 0.065110087
-0.32763416 0.36271763 0.069384456
0.69181943 0.38917097 0.065968275
-0.27396291 0.41646895 0.06983614
0.66588259 0.41649812 0.070072889
0.6895119 0.41471949 0.055631995
-0.24692109 0.44278038 0.065710902
0.63805598 0.44273832 0.065389037
-0.21988633 0.46882495 0.060118556
0.610304 0.46890798 0.060717702
-0.19293034 0.49474874 0.054288507
0.55782694 0.49654815 0.066590786
0.58258939 0.49497959 0.055866718
-0.13953882 0.52219695 0.058942199
-0.11285511 0.52387083 0.069814682
0.53005546 0.52255267 0.061252594
-0.086004004 0.54857057 0.056507111
-0.05917573 0.55024248 0.066848636
0.47726828 0.55012083 0.06609714
0.50237262 0.54848099 0.055952072
-0.0056251734 0.57629341 0.062259078
0.39623636 0.57625353 0.062023401
0.42216444 0.57525426 0.056122899
0.021394454 0.57754034 0.069621086
0.37012726 0.57713616 0.06723547
0.10123894 0.60207564 0.056549907
0.12814449 0.60252571 0.059092164
0.15508947 0.6029765 0.061637998
0.1820607 0.60339755 0.064016461
0.20899792 0.60367095 0.065560579
0.2359571 0.60394073 0.067084908
0.26251441 0.60345817 0.064359426
0.2888965 0.60275656 0.060396552
0.31514215 0.60193932 0.055781484
0.048382476 -0.57757449 0.073216677
0.075422198 -0.57814306 0.07673347
0.10251762 -0.57871634 0.080279112
0.12962401 -0.57917482 0.083115935
0.15675485 -0.57958853 0.085675478
0.23784299 -0.57988364 0.087500215
0.26448697 -0.57932901 0.084069967
0.29108125 -0.57877928 0.080668569
0.31754154 -0.57811528 0.076560855
0.3438735 -0.5773657 0.07192421
-0.0050502867 -0.55284274 0.087152362
-0.032185625 -0.55133522 0.077359915
0.39921308 -0.5522815 0.083506346
0.42538118 -0.55145156 0.078116298
0.45137936 -0.55053478 0.072160959
-0.086004004 -0.52493525 0.08084178
0.47977084 -0.52504295 0.081577778
0.50510675 -0.52365607 0.072096229
-0.16658764 -0.49665308 0.071127176
-0.13989466 -0.49816734 0.082054615
0.50773388 -0.49893686 0.087608814
0.53292644 -0.49753177 0.077467799
-0.19366473 -0.47070941 0.078137755
0.56082797 -0.47132394 0.082834244
0.58569616 -0.46990743 0.072010279
-0.22079737 -0.44449016 0.083788276
0.61363494 -0.44369844 0.077359915
0.64158738 -0.41736874 0.082379341
-0.30098256 -0.38936388 0.072570443
0.66827375 -0.39029023 0.081166267
0.69415033 -0.36287558 0.07640934
0.69646615 -0.33693215 0.086783171
0.71987212 -0.33550179 0.071299553
-0.35565752 -0.30977017 0.084655762
0.72221076 -0.30949691 0.081426501
-0.38184786 -0.28210032 0.075502872
-0.38184965 -0.25520694 0.075524569
0.75063181 -0.25604558 0.087630391
-0.38184965 -0.22831181 0.075524569
-0.38184786 -0.2014156 0.075502872
-0.38184601 -0.1745197 0.075481176
-0.38184601 -0.14762492 0.075481176
-0.38184601 -0.12073037 0.075481176
-0.38184601 -0.093835533 0.075481415
-0.38184601 -0.066940792 0.075481415
-0.38184601 -0.040046155 0.075481415
-0.38184601 -0.013151363 0.075481415
-0.38184601 0.013743278 0.075481176
-0.38184601 0.040638119 0.075481176
-0.38184601 0.067532912 0.075481176
-0.38184786 0.094428301 0.075502872
-0.38184786 0.1213231 0.075502872
-0.38184786 0.14821793 0.075502872
-0.38184601 0.17511161 0.075481415
-0.38184786 0.20200776 0.075502872
-0.38184965 0.22890416 0.075524449
-0.38184786 0.25579759 0.075502872
0.75063181 0.25673118 0.08763051
-0.38184601 0.28269067 0.075481176
-0.35565084 0.31042492 0.084569097
0.72220075 0.3101306 0.081382871
0.69645643 0.33760676 0.086740017
0.71986711 0.33605954 0.071278095
0.69414067 0.36347008 0.076366544
-0.30097592 0.38992092 0.072462559
0.66825974 0.39091864 0.081101537
-0.24793653 0.41866863 0.087695718
0.64157391 0.41800585 0.082314253
-0.22079404 0.44513467 0.083701491
0.6136176 0.44429362 0.077273607
-0.19366205 0.47130975 0.078051209
0.56081194 0.47196063 0.082747579
0.58567959 0.47046077 0.07192409
-0.16658565 0.49719909 0.071041346
-0.13989332 0.49879721 0.081967831
0.50771916 0.49960962 0.087521911
0.53291118 0.49812636 0.077381492
-0.086004004 0.52555186 0.080733418
0.47975683 0.52566844 0.081491232
0.50509578 0.52421212 0.072031736
-0.032186959 0.55192769 0.077273607
-0.0050517917 0.55351406 0.087087274
0.39919806 0.55291784 0.083397865
0.42536861 0.55204982 0.078029633
0.45136607 0.55108726 0.072075009
0.048379153 0.57813448 0.073130488
0.075418219 0.57873011 0.076647043
0.10251412 0.5793342 0.080214024
0.12961866 0.57981104 0.083029509
0.15675032 0.58024812 0.085610747
0.23783697 0.58055705 0.087435007
0.26448047 0.57997626 0.084004879
0.29107422 0.57940012 0.08060348
0.31753409 0.57870454 0.076495886
0.34386289 0.57791573 0.071837902
0.18392704 -0.58000648 0.088260889
0.21111359 -0.58037579 0.090544939
0.022071607 -0.55352944 0.091611862
0.049249142 -0.55416393 0.095733523
0.07646431 -0.55471247 0.099295855
0.10373588 -0.55526519 0.10288703
0.26647758 -0.55543083 0.10396159
0.29322082 -0.55490112 0.10052121
0.31990671 -0.55436569 0.097043991
0.34644866 -0.55371714 0.092831969
0.37286454 -0.55299664 0.088151932
-0.058983423 -0.52654231 0.091829658
-0.031795982 -0.52812755 0.10266781
