ply
format ascii 1.0
comment PCL generated
element vertex 1399
property float x
property float y
property float z
element camera 0
property float view_px
property float view_py
property float view_pz
property float x_axisx
property float x_axisy
property float x_axisz
property float y_axisx
property float y_axisy
property float y_axisz
property float z_axisx
property float z_axisy
property float z_axisz
property float focal
property float scalex
property float scaley
property float centerx
property float centery
property int viewportx
property int viewporty
property float k1
property float k2
end_header
-0.0096105002 0.59241438 0.08647716
0.018124282 0.59385443 0.094979763
0.45927185 0.59325856 0.091461778
0.48583388 0.59214228 0.084870815
0.07277149 0.6188798 0.080415964
0.10036504 0.61926973 0.082619548
0.12799267 0.6196605 0.084826231
0.15565445 0.62005156 0.087035298
0.18334888 0.62043929 0.089224815
0.21107896 0.62083143 0.091439366
0.23884143 0.62122017 0.093634486
0.26664007 0.62161314 0.095854521
0.32177663 0.62147415 0.095069528
0.348616 0.62030071 0.088442445
0.37535912 0.61913574 0.08186245
0.29447764 -0.62124854 0.098122239
0.12902203 -0.59455913 0.10392833
0.15683232 -0.59492016 0.10616124
0.18467717 -0.59528148 0.10839701
0.21255492 -0.59563971 0.11061263
0.2404689 -0.59600204 0.11285388
0.37901449 -0.59578967 0.11154044
0.40587068 -0.59470868 0.10485303
0.045799345 -0.59348631 0.097291231
0.073505789 -0.59384221 0.099493504
0.10124728 -0.59420228 0.10172093
0.43262732 -0.59363163 0.09818995
-0.037047692 -0.56622434 0.099628329
-0.0092176497 -0.56812805 0.11199343
0.48960567 -0.56772399 0.1093688
-0.064687356 -0.53857809 0.099583268
0.51729834 -0.53998959 0.10923338
-0.064687356 -0.51274312 0.11260462
0.54498512 -0.51225394 0.10907483
-0.092404097 -0.4846155 0.10964012
0.57266951 -0.48452082 0.10891664
-0.12007526 -0.45653427 0.10668039
0.60035145 -0.45679018 0.10875857
-0.14770098 -0.42849919 0.10372567
0.62803096 -0.42906207 0.10860026
-0.17528135 -0.40051001 0.1007756
0.65571254 -0.40133858 0.10846472
-0.20281562 -0.37256446 0.097807646
-0.17568186 -0.37416321 0.11378288
0.6833874 -0.37361515 0.10830665
-0.20331632 -0.34614047 0.11081636
0.71105975 -0.34589407 0.10814834
-0.23078959 -0.31795174 0.10534894
0.73873478 -0.31817734 0.10801291
-0.23078959 -0.29026818 0.10534894
0.76640242 -0.29046091 0.1078546
-0.23078959 -0.2625843 0.10534894
-0.23078959 -0.23490064 0.10534918
-0.23078959 -0.20721692 0.10534883
-0.23078959 -0.17953326 0.10534918
-0.23078959 -0.15184949 0.10534918
-0.23078959 -0.12416583 0.10534894
-0.23078959 -0.096482076 0.10534894
-0.23078959 -0.068798468 0.10534894
-0.23078959 -0.041114651 0.10534894
-0.23078959 -0.013431092 0.10534894
-0.23078959 0.014252721 0.10534894
-0.23078959 0.041936435 0.10534894
-0.23078959 0.069620095 0.10534894
-0.23078959 0.097303957 0.10534894
-0.23078959 0.12498747 0.10534883
-0.23078959 0.15267123 0.10534894
-0.23078959 0.180355 0.10534918
-0.23078959 0.2080386 0.10534894
-0.23078959 0.23572247 0.10534894
-0.23078959 0.26340601 0.10534894
-0.23078959 0.29108971 0.10534918
0.76639199 0.29129809 0.10780966
-0.23078959 0.31877339 0.10534894
0.73871964 0.31901333 0.10794508
-0.20331459 0.34699991 0.11077106
0.71105003 0.34673277 0.10810316
-0.20281389 0.37332329 0.097762823
-0.17568049 0.37504488 0.1137377
0.68337798 0.37445483 0.10826135
-0.17527927 0.40128866 0.10070825
0.65570354 0.40217924 0.10841966
-0.14769994 0.42930287 0.10368049
0.62802225 0.42990321 0.10855508
-0.12007457 0.45736024 0.10663521
0.60034311 0.45763218 0.10871339
-0.092403576 0.48546082 0.10957229
0.57266152 0.48536381 0.10887158
-0.064687356 0.51361066 0.11253703
0.54497749 0.51309776 0.10902989
-0.064687356 0.53934497 0.099516034
0.51728737 0.54083073 0.10916531
-0.037048727 0.56698024 0.099493504
-0.009219043 0.56898624 0.11190271
0.018566906 0.56934875 0.11414564
0.48959869 0.56856918 0.10932374
0.045796588 0.59423071 0.097201467
0.073503181 0.59460741 0.099425793
0.10124417 0.59498465 0.10165322
0.1290196 0.59536219 0.10388339
0.15682952 0.59574038 0.10611629
0.18467246 0.59611511 0.10832906
0.21254967 0.59649056 0.11054504
0.24046315 0.59686995 0.11278605
0.3790006 0.59663993 0.11142731
0.40585893 0.5955112 0.10476279
0.43261486 0.59438282 0.098100066
0.29447085 0.62200272 0.098055124
0.26841557 -0.5963611 0.11507523
0.296399 -0.59672439 0.11732221
0.32441485 -0.59708422 0.11954856
0.35205829 -0.59687489 0.11825347
0.018569008 -0.56847328 0.11423612
0.046389565 -0.56881559 0.11645901
0.074245349 -0.56916183 0.11870766
0.10213481 -0.56950492 0.12093651
0.13005997 -0.56985211 0.1231904
0.15802002 -0.57019943 0.12544727
0.18601342 -0.57054394 0.12768435
0.21404321 -0.57089221 0.12994683
0.43676794 -0.57060373 0.1280725
0.46363944 -0.56956458 0.12132323
-0.036925111 -0.5409137 0.11555183
-0.0089848638 -0.54260463 0.12711298
0.49177569 -0.54207098 0.12346387
-0.036830306 -0.51485789 0.12786686
0.51957303 -0.51422572 0.12330449
-0.064687356 -0.48672009 0.1257211
0.54736799 -0.48638287 0.12314475
-0.092504896 -0.45851156 0.12273479
0.57516044 -0.45854253 0.12298524
-0.12027653 -0.43034977 0.11975348
0.60295039 -0.43070468 0.12282598
-0.14800239 -0.40223446 0.11677694
0.63074237 -0.40287152 0.12268913
-0.14830601 -0.37577832 0.12992358
0.65852767 -0.3750385 0.12252963
-0.17608601 -0.34762689 0.12690771
0.68631047 -0.34720778 0.12237012
-0.20375052 -0.31936988 0.12209702
0.71409577 -0.31938159 0.12223387
-0.20375052 -0.29155731 0.12209702
0.74187392 -0.29155573 0.12207437
-0.20375052 -0.26374477 0.12209725
0.76964951 -0.26373208 0.12191498
-0.20375052 -0.23593211 0.12209725
0.79742819 -0.23591235 0.12177849
-0.20375052 -0.20811942 0.12209725
0.79845613 -0.20833424 0.12608612
-0.20375052 -0.18030678 0.12209702
0.79845613 -0.1804911 0.12608612
-0.20375052 -0.15249419 0.12209702
0.79845613 -0.15264776 0.12608612
-0.20375052 -0.12468165 0.12209725
0.79845613 -0.12480421 0.12608612
-0.20375052 -0.096868962 0.12209702
0.79845613 -0.096961074 0.12608612
-0.20375052 -0.069056422 0.12209725
0.79845613 -0.069117732 0.12608612
-0.20375052 -0.041243527 0.12209725
0.79845613 -0.041274488 0.12608612
-0.20375052 -0.013430838 0.12209725
0.79845613 -0.013430939 0.12608612
-0.20375052 0.01438165 0.12209725
0.79845613 0.014412303 0.12608612
-0.20375052 0.04219434 0.12209725
0.79845613 0.042255647 0.12608612
-0.20375052 0.070007034 0.12209702
0.79845613 0.070099093 0.12608612
-0.20375052 0.097819522 0.12209725
0.79845613 0.097942442 0.12608612
-0.20375052 0.12563221 0.12209725
0.79845613 0.12578557 0.12608612
-0.20375052 0.1534448 0.12209725
0.79845613 0.15362893 0.12608612
-0.20375052 0.18125749 0.12209725
0.79845613 0.18147236 0.12608612
-0.20375052 0.20907018 0.12209702
0.79846156 0.20931709 0.12610888
-0.20375052 0.23688267 0.12209725
0.79741192 0.23685585 0.1217103
-0.20375052 0.26469535 0.12209702
0.76963902 0.26467779 0.12186956
-0.20375052 0.29250795 0.12209725
0.74186373 0.29250208 0.12202883
-0.20375052 0.32032064 0.12209725
0.71408105 0.32032695 0.12216544
-0.17608461 0.34861013 0.12686205
0.68630099 0.34815592 0.12232494
-0.14830494 0.37678429 0.12987816
0.65851849 0.37598747 0.12248421
-0.14800134 0.40313885 0.11673176
0.63073361 0.40382147 0.12264371
-0.12027583 0.43127677 0.11970794
0.60294199 0.4316552 0.12278032
-0.092504375 0.45945832 0.12266648
0.57515234 0.45949405 0.12293971
-0.064687356 0.48768908 0.12565267
0.54736024 0.48733521 0.12309933
-0.036830835 0.51584291 0.12779844
0.51956564 0.51517898 0.12325859
-0.036925636 0.54180342 0.11548364
-0.008985918 0.54358327 0.12704456
0.49176514 0.54302156 0.12339532
0.046387471 0.56971186 0.11639142
0.074242726 0.57007527 0.11863959
0.10213166 0.57043552 0.12086809
0.13005629 0.57080001 0.1231221
0.15801579 0.57116485 0.12537885
0.18601023 0.57153016 0.12763846
0.21403794 0.57189202 0.12987792
0.43675214 0.57158178 0.1279583
0.46362281 0.57049066 0.12120938
0.26840931 0.59724617 0.11500716
0.2963922 0.59762669 0.11725378
0.32440752 0.5980038 0.11948073
0.35204518 0.59777659 0.11813974
0.24210615 -0.57123739 0.13218904
0.27020597 -0.57158661 0.13445723
0.29833871 -0.57193273 0.13670504
0.32650888 -0.57228273 0.13897884
0.35471439 -0.57263339 0.14125586
0.38271981 -0.57269007 0.14162385
0.4097929 -0.57164305 0.13482404
0.019015864 -0.54355139 0.13358605
0.046986841 -0.54388344 0.13585615
0.074991986 -0.54421258 0.13810611
0.10303295 -0.54454535 0.14038146
0.1311091 -0.5448786 0.1426599
0.15921912 -0.54520887 0.14491808
0.18736567 -0.54554307 0.14720237
0.46605045 -0.54416895 0.13780737
-0.0088272914 -0.51617169 0.13734829
0.019322857 -0.51749235 0.1468792
0.49395925 -0.51621294 0.13764644
-0.036751486 -0.48834077 0.13810587
-0.0086688176 -0.4895885 0.14764071
0.52186561 -0.48825958 0.13748574
-0.064687356 -0.46050104 0.13888681
0.54976946 -0.46030867 0.13732505
-0.092606433 -0.43221724 0.13592494
0.57767087 -0.43236041 0.13716447
-0.12047928 -0.40397447 0.13292193
0.60557407 -0.40441677 0.13702643
-0.12068351 -0.37740606 0.14618683
0.63347065 -0.37647322 0.13686597
-0.14861183 -0.34912902 0.14316666
0.66136479 -0.34853214 0.1367054
-0.17645842 -0.32080144 0.13900208
0.68926132 -0.3205952 0.13656735
-0.17645842 -0.2928586 0.13900185
0.71715069 -0.29265895 0.13640678
-0.17645842 -0.26491576 0.13900185
0.74503762 -0.26472497 0.13624609
-0.17645842 -0.23697321 0.13900208
0.77292734 -0.23679478 0.1361084
-0.17645842 -0.20903046 0.13900185
0.77442437 -0.20922387 0.14259088
-0.17645842 -0.18108758 0.13900185
0.77442437 -0.18125327 0.14259076
-0.17645842 -0.1531449 0.13900185
0.77442437 -0.15328299 0.14259088
-0.17645842 -0.1252021 0.13900208
0.77442437 -0.12531249 0.14259076
-0.17645842 -0.097259156 0.13900208
0.77442437 -0.097342104 0.14259076
-0.17645842 -0.069316626 0.13900208
0.77442437 -0.069371715 0.14259088
-0.17645842 -0.041373678 0.13900208
0.77442437 -0.041401327 0.14259088
-0.17645842 -0.013431041 0.13900208
0.77442437 -0.013431041 0.14259076
-0.17645842 0.0145118 0.13900208
0.77442437 0.014539347 0.14259076
-0.17645842 0.042454489 0.13900208
0.77442437 0.042509787 0.14259076
-0.17645842 0.070397332 0.13900208
0.77442437 0.070480123 0.14259088
-0.17645842 0.09834002 0.13900208
0.77442437 0.098450512 0.14259088
-0.17645842 0.12628286 0.13900208
0.77442437 0.12642096 0.14259076
-0.17645842 0.15422554 0.13900208
0.77442437 0.15439139 0.14259076
-0.17645842 0.18216839 0.13900208
0.77442437 0.18236183 0.14259088
-0.17645842 0.21011108 0.13900185
0.77442437 0.21033227 0.14259076
-0.17645842 0.23805393 0.13900208
0.77291149 0.23784877 0.13603985
-0.17645842 0.26599661 0.13900185
0.74502736 0.26578096 0.13620031
-0.17645842 0.29393944 0.13900185
0.71714079 0.2937158 0.136361
-0.17645842 0.32188234 0.13900185
0.68925172 0.32165295 0.1365217
-0.14861023 0.35023481 0.14309764
0.66135567 0.34959048 0.13665938
-0.12068279 0.37853715 0.14614058
0.63346183 0.37753257 0.13681984
-0.12047857 0.40500322 0.13287604
0.60556555 0.40547714 0.13698065
-0.092605904 0.43326575 0.13585615
0.57766682 0.43342409 0.13714135
-0.064687356 0.46157193 0.13881814
-0.036672577 0.46282023 0.14835703
0.54976171 0.46137071 0.13727915
-0.03675184 0.48940825 0.13805985
-0.0086698867 0.49072623 0.14757168
0.52185816 0.48932242 0.13743985
-0.0088283494 0.51722962 0.13727915
0.019321248 0.51862353 0.14680994
0.49395216 0.51727653 0.13760054
0.019013755 0.54457635 0.13349462
0.046984017 0.54492587 0.13576448
0.074989334 0.54527563 0.13803709
0.10302976 0.54562598 0.14031255
0.13110539 0.54597682 0.14259088
0.15921627 0.54632807 0.14487207
0.18736084 0.54667598 0.14713287
0.46604037 0.54522979 0.13773847
0.24210034 0.57225454 0.13212049
0.27019966 0.57262117 0.13438857
0.29833186 0.57298464 0.13663638
0.32650143 0.57335222 0.13891006
0.35470372 0.57371652 0.14116359
0.38270563 0.57377231 0.14150882
0.40977788 0.57267308 0.13470936
0.21554582 -0.545874 0.1494658
0.24376304 -0.54620892 0.15175581
0.2720136 -0.54654092 0.15402544
0.30030179 -0.54687673 0.15632081
0.32862556 -0.5472129 0.15861952
0.35698241 -0.54754609 0.16089749
0.38537753 -0.54788315 0.16320193
0.41378105 -0.54818982 0.16529894
0.44012016 -0.54628342 0.15226519
0.047590569 -0.51868176 0.15546298
0.075747579 -0.51899666 0.15773678
0.1039408 -0.51931548 0.16003716
0.13216835 -0.51963145 0.16231716
0.16043261 -0.51995087 0.16462278
0.46814138 -0.51821607 0.15210307
0.019561805 -0.49084285 0.15722597
0.49616003 -0.4901512 0.15194094
-0.03667222 -0.46167329 0.14840329
-0.0085094534 -0.46285418 0.15799224
0.52417624 -0.462089 0.15177906
-0.064687356 -0.43374869 0.14918864
-0.036592323 -0.4348565 0.15878212
0.55219382 -0.4340319 0.1516403
-0.064687356 -0.40684414 0.15954888
-0.092708722 -0.40573025 0.14921188
0.5802052 -0.40597439 0.15147841
-0.092794202 -0.37882003 0.16031623
0.60821408 -0.37791944 0.15131629
-0.12088923 -0.35064229 0.15954888
0.63622046 -0.34986687 0.15115416
-0.14891025 -0.32224837 0.15608907
0.66422898 -0.32181862 0.15101528
-0.14891025 -0.29417396 0.15608883
0.66711116 -0.29489198 0.16541564
0.69223058 -0.29377094 0.15085328
-0.14891025 -0.26609978 0.15608907
0.69522333 -0.26673454 0.16525233
0.72022969 -0.26572573 0.15069163
-0.14891025 -0.23802535 0.15608907
0.72333801 -0.23858124 0.16511261
0.74823147 -0.2376844 0.15055263
-0.14891025 -0.20995115 0.15608907
0.75017238 -0.21012117 0.15924668
-0.14891025 -0.18187667 0.15608907
0.75017238 -0.18202287 0.15924692
-0.14891025 -0.15380266 0.15608907
0.75017238 -0.15392406 0.15924692
-0.14891025 -0.12572825 0.15608907
0.75017238 -0.12582555 0.15924692
-0.14891025 -0.097653933 0.15608907
0.75017238 -0.097726747 0.15924692
-0.14891025 -0.069579676 0.15608907
0.75017238 -0.069628246 0.15924692
-0.14890972 -0.041505102 0.15606582
0.75017238 -0.041529745 0.15924692
-0.14890972 -0.013431041 0.15606582
0.75017238 -0.013430939 0.15924692
-0.14890972 0.014643122 0.15606582
0.75017238 0.014667562 0.15924692
-0.14890972 0.042717185 0.15606582
0.75017238 0.042766321 0.15924692
-0.14891025 0.070792057 0.15608907
0.75017238 0.070864774 0.15924692
-0.14891025 0.098866172 0.15608883
0.75017238 0.098963328 0.15924668
-0.14891025 0.12694053 0.15608883
0.75017238 0.12706208 0.15924692
-0.14891025 0.1550148 0.15608883
0.75017238 0.15516064 0.15924668
-0.14891025 0.18308912 0.15608883
0.75017238 0.18325929 0.15924692
-0.14891025 0.21116348 0.15608907
0.75017238 0.21135785 0.15924692
-0.14891025 0.2392378 0.15608907
0.72332799 0.23985954 0.165066
0.74821597 0.23884939 0.15048349
-0.14891025 0.26731205 0.15608907
0.69521368 0.26801383 0.16520584
0.72021973 0.26689282 0.15064538
-0.14891025 0.29538637 0.15608907
0.66710186 0.29617211 0.16536903
0.69222099 0.29493892 0.15080726
-0.14891025 0.32346052 0.15608883
0.66421974 0.32298765 0.15096915
-0.12088816 0.35187405 0.15947926
0.63621157 0.35103643 0.15110815
0.6082055 0.37908977 0.15126979
-0.092793837 0.38005981 0.1602695
-0.092708185 0.40688133 0.14914262
-0.064687356 0.40807769 0.15950251
0.58019698 0.40714571 0.1514318
-0.064687356 0.43489939 0.14911962
-0.036592864 0.43608102 0.15871239
0.55218595 0.43520415 0.15159404
-0.0085101649 0.46407518 0.15794599
0.52416873 0.46326202 0.1517328
0.019560196 0.49205434 0.15715635
0.49615294 0.4913252 0.15189469
0.047587708 0.51987547 0.15536988
0.075744897 0.52021158 0.15766716
0.10393758 0.52054799 0.15996754
0.13216585 0.52088481 0.16227043
0.1604283 0.52121866 0.16455305
0.46813464 0.51939106 0.15205681
0.21554227 0.54702818 0.14941978
0.24375714 0.54737723 0.15168655
0.27200937 0.54773027 0.15397918
0.30029482 0.54807991 0.15625143
0.32861805 0.54843402 0.15854967
0.35697436 0.54878449 0.16082788
0.38536894 0.54913932 0.16313183
0.41376579 0.54945505 0.16518247
0.44011056 0.54745561 0.15219581
0.18873097 -0.52026772 0.16690862
0.21706651 -0.52058798 0.16922033
0.24543791 -0.52090883 0.17153513
0.27384305 -0.52122658 0.17382944
0.30228615 -0.52154815 0.17615008
0.33076274 -0.52186692 0.17845011
0.35927784 -0.52218908 0.18077648
0.38754219 -0.52218908 0.18077648
0.41525322 -0.52160347 0.17654896
0.44211692 -0.52023524 0.16667521
0.047941573 -0.49210396 0.16686201
0.076470748 -0.49336845 0.17652535
0.10485746 -0.49380788 0.17988312
0.13324039 -0.49411258 0.18221116
0.44412953 -0.49398029 0.18119967
0.47024882 -0.49205825 0.16651213
0.019802131 -0.46404156 0.16763234
0.048263699 -0.46523517 0.17732286
0.47237647 -0.46569529 0.18105876
0.49837822 -0.46388367 0.1663487
-0.0083491728 -0.43596745 0.16840279
0.02004382 -0.43708682 0.17809784
0.50061762 -0.43740976 0.18089402
0.52650887 -0.43571413 0.16620862
-0.036512151 -0.40788388 0.16919696
-0.008187972 -0.40892661 0.17887294
0.52885628 -0.40912673 0.18072939
0.55463344 -0.40754426 0.16604519
-0.064687356 -0.37978607 0.16996849
-0.036431514 -0.38075703 0.17967188
0.55709243 -0.38084632 0.18056488
0.58275551 -0.37937704 0.16588211
-0.092874438 -0.35167599 0.17073977
-0.064687356 -0.35257271 0.18044734
0.58532602 -0.35256833 0.18040025
0.61087495 -0.35121229 0.16571891
-0.12107377 -0.32355633 0.17153513
-0.092955321 -0.32437855 0.18124676
0.61356139 -0.32429492 0.18025935
0.63899648 -0.32305199 0.16557908
-0.12110116 -0.29550016 0.17331433
0.64179009 -0.29602203 0.18009496
-0.12110116 -0.26729318 0.17331409
0.67001623 -0.26775146 0.17993021
-0.12110116 -0.23908612 0.17331409
0.69824475 -0.23948492 0.17978907
-0.12110116 -0.2108793 0.17331433
0.72569686 -0.21102703 0.17605603
-0.12110116 -0.18267244 0.17331409
0.72569686 -0.18279894 0.17605603
-0.12110116 -0.15446539 0.17331409
0.72569686 -0.15457115 0.17605639
-0.12110116 -0.12625863 0.17331433
0.72569686 -0.12634306 0.17605639
-0.12110116 -0.098051772 0.17331409
0.72569686 -0.098115064 0.17605639
-0.12110116 -0.069844708 0.17331409
0.72569686 -0.06988702 0.17605627
-0.12110116 -0.041637901 0.17331409
0.72569686 -0.041659083 0.17605627
-0.12110116 -0.013431143 0.17331409
0.72569686 -0.013431041 0.17605627
-0.12110116 0.01477592 0.17331409
0.72569686 0.014797001 0.17605639
-0.12110116 0.04298288 0.17331409
0.72569686 0.043025043 0.17605627
-0.12110116 0.07118959 0.17331409
0.72569686 0.071253188 0.17605627
-0.12110116 0.099396549 0.17331433
0.72569686 0.099480972 0.17605639
-0.12110116 0.12760361 0.17331409
0.72569686 0.12770896 0.17605627
-0.12110116 0.15581031 0.17331409
0.72569686 0.15593706 0.17605627
-0.12110116 0.18401727 0.17331409
0.72569686 0.18416509 0.17605627
-0.12110116 0.21222433 0.17331409
0.72569686 0.21239309 0.17605639
-0.12110116 0.24043106 0.17331409
0.69823503 0.24087639 0.17974222
-0.12110116 0.26863798 0.17331433
0.67000681 0.26914367 0.17988336
-0.12110116 0.29684496 0.17331409
0.64178103 0.29741511 0.18004775
-0.12107305 0.3248831 0.17148829
-0.092954963 0.32578021 0.18119991
0.61355269 0.32568896 0.18021226
0.63898754 0.32433298 0.16553235
-0.09287408 0.35299632 0.17069316
-0.064687356 0.35396793 0.18040025
0.58532184 0.35396549 0.18037689
0.61086637 0.352494 0.16567206
-0.064687356 0.38110003 0.16992164
-0.036431875 0.38214567 0.17962492
0.55708444 0.38224185 0.18051779
0.58274716 0.38065973 0.1658355
-0.036512688 0.40918896 0.16912711
-0.0081886984 0.41030887 0.17882609
0.52884871 0.4105233 0.18068254
0.55462551 0.40882778 0.16599882
-0.0083498918 0.43726876 0.16835618
0.020042732 0.43846273 0.17805088
0.50061041 0.43880719 0.18084717
0.52650136 0.43699843 0.16616213
0.019801043 0.46533662 0.16758549
0.048262246 0.46660468 0.17727625
0.47236615 0.46709055 0.18098831
0.49837101 0.46516854 0.16630185
0.04793942 0.49338949 0.16679192
0.076469839 0.49473476 0.17650211
0.10485421 0.4951936 0.17981267
0.13323659 0.49551624 0.18214107
0.44412303 0.49537939 0.18115282
0.47024202 0.49334419 0.16646528
0.18872772 0.52155626 0.16686201
0.21706112 0.52189106 0.16915035
0.24543197 0.52222973 0.17146516
0.27383655 0.52256513 0.17375934
0.30227911 0.52290463 0.17607987
0.33075517 0.52324092 0.17837954
0.35926968 0.52358121 0.18070602
0.38753927 0.523588 0.18075299
0.41524714 0.52296638 0.17650187
0.44211048 0.52152234 0.1666286
0.16165936 -0.49441776 0.18454266
0.19011275 -0.49472025 0.18685341
0.2186038 -0.49502608 0.18919063
0.24712907 -0.49532917 0.19150662
0.27569246 -0.49563581 0.19384992
0.30428988 -0.49593964 0.19617212
0.33292586 -0.49624693 0.19852114
0.36093789 -0.49580637 0.19515312
0.38878518 -0.49524555 0.19086826
0.4165709 -0.49468926 0.18661737
0.076876432 -0.46643528 0.18706584
0.10564049 -0.46763861 0.19683623
0.41789579 -0.46762696 0.19674134
0.44568884 -0.46709868 0.19245315
0.048587665 -0.43821248 0.18784451
0.077283561 -0.43934372 0.1976428
0.47451764 -0.43911913 0.19569814
0.020286903 -0.40997759 0.18862355
0.048913494 -0.41103417 0.19842637
0.50287133 -0.41072199 0.19553196
-0.0080254897 -0.38173315 0.18942666
0.020531386 -0.38271219 0.19920969
0.53122246 -0.38232759 0.19536614
-0.036350418 -0.35347435 0.19020653
0.55957097 -0.35393557 0.19520009
-0.064687356 -0.3252036 0.19098687
0.5879212 -0.3255482 0.19505811
-0.0930283 -0.29684034 0.19072628
0.61626482 -0.2971611 0.19489217
-0.093028113 -0.26849785 0.19070292
0.64460593 -0.26877668 0.19472635
-0.093028113 -0.24015716 0.19070292
0.67294919 -0.24039596 0.19458401
-0.093028113 -0.21181618 0.19070268
0.70099503 -0.21194129 0.19302118
-0.093028113 -0.1834756 0.19070268
0.70099503 -0.18358263 0.19302094
-0.093028113 -0.15513493 0.19070292
0.70099503 -0.15522398 0.19302118
-0.093028113 -0.12679395 0.19070292
0.70099503 -0.12686549 0.19302142
-0.093028113 -0.098453216 0.19070292
0.70099503 -0.098506838 0.19302118
-0.093028113 -0.070112497 0.19070268
0.70099503 -0.070148341 0.19302118
-0.093028113 -0.041771717 0.19070292
0.70099503 -0.041789539 0.19302118
-0.093028113 -0.013430939 0.19070292
0.70099503 -0.013430939 0.19302118
-0.093028113 0.014909736 0.19070292
0.70099503 0.01492766 0.19302118
-0.093028113 0.043250516 0.19070292
0.70099503 0.04328626 0.19302118
-0.093028113 0.071591288 0.19070292
0.70099503 0.071644962 0.19302118
-0.093028113 0.099932119 0.19070292
0.70099503 0.10000341 0.19302118
-0.093028113 0.12827264 0.19070292
0.70099503 0.128362 0.19302118
-0.093028113 0.15661347 0.19070292
0.70099503 0.1567205 0.19302118
-0.093028113 0.1849543 0.19070292
0.70099503 0.18507931 0.19302118
-0.0930283 0.21329661 0.19072652
0.70099503 0.2134379 0.19302118
-0.0930283 0.24163742 0.19072652
0.67293972 0.2419015 0.19453692
-0.0930283 0.26997834 0.19072652
0.64459682 0.27028263 0.19467866
-0.0930283 0.29831934 0.19072652
0.61625612 0.29866812 0.19484496
-0.064687356 0.32667992 0.19093943
0.5879128 0.32705605 0.19501066
-0.036350783 0.35494453 0.19015932
0.55956697 0.35544658 0.19517672
-0.0080265775 0.38319445 0.18935573
0.020530283 0.38425124 0.19916248
0.53121477 0.38383704 0.1953187
0.020285815 0.4114348 0.18857634
0.048912033 0.4125666 0.19837868
0.502864 0.41223261 0.19548464
0.048586212 0.43966326 0.18779719
0.077281728 0.44087002 0.19759536
0.47451073 0.44063058 0.1956507
0.076874629 0.46787965 0.18701839
0.10563938 0.46916154 0.19681263
0.41788954 0.46914586 0.1966939
0.44568551 0.46858785 0.19242966
0.16165501 0.4958393 0.18447196
0.19010951 0.49616271 0.1868062
0.21859835 0.49648327 0.18911958
0.24712507 0.4968074 0.19145954
0.27568591 0.4971289 0.19377911
0.30428511 0.49745405 0.19612479
0.33291817 0.49777609 0.19844997
0.36093241 0.49731266 0.19510567
0.38878226 0.49672228 0.19084466
0.41656476 0.49612999 0.18657029
0.13432416 -0.46831459 0.20232391
0.16289805 -0.46860182 0.20465684
0.19150971 -0.46889251 0.20701671
0.22015612 -0.46918052 0.20935559
0.24884079 -0.46947202 0.21172142
0.2775622 -0.46976376 0.21409023
0.3060686 -0.46974599 0.2139467
0.33412182 -0.46921295 0.20961845
0.36211234 -0.4686839 0.20532393
0.39003503 -0.46815342 0.20101571
0.36329329 -0.44141173 0.21555138
0.39129174 -0.44091138 0.21121919
0.10613164 -0.44047862 0.20746994
0.41922796 -0.44041508 0.20692122
0.44709611 -0.43991709 0.2026093
0.07769303 -0.41209614 0.2082814
0.44851118 -0.41258553 0.21282172
0.47639298 -0.4121218 0.2085197
0.049241215 -0.38369894 0.20906913
0.50514299 -0.38382074 0.21028733
0.020777278 -0.35528964 0.20985723
0.53361136 -0.35531595 0.2101438
-0.0078624301 -0.35438052 0.20001757
-0.036268853 -0.32603464 0.20080185
-0.0076984316 -0.32687002 0.21066952
0.56207347 -0.32681137 0.20997655
-0.064687356 -0.29767635 0.20158648
-0.036186822 -0.29843637 0.21145833
0.59053296 -0.29830948 0.20980954
0.61898988 -0.26980993 0.20964217
-0.064687356 -0.26971579 0.2082814
-0.064687356 -0.24123965 0.2082814
0.64744431 -0.24131313 0.20947492
-0.064687356 -0.21276364 0.20828152
0.67590088 -0.21282005 0.20933175
0.67606342 -0.18437351 0.21014392
-0.064687356 -0.18428726 0.20828116
-0.064687356 -0.15581144 0.20828116
0.67606342 -0.15588319 0.21014392
-0.064687356 -0.12733528 0.20828116
0.67606342 -0.1273926 0.21014392
0.67606342 -0.098902278 0.2101438
-0.064687356 -0.098858692 0.20825756
-0.064687356 -0.070382826 0.20825732
0.67606342 -0.070411898 0.21014392
-0.064687356 -0.041906957 0.20825756
0.67606342 -0.041921418 0.2101438
-0.064687356 -0.013431041 0.20825732
0.67606342 -0.013430939 0.21014392
-0.064687356 0.015044774 0.20825756
0.67606342 0.015059338 0.21014392
-0.064687356 0.043520693 0.20825732
0.67606342 0.043549716 0.21014392
-0.064687356 0.071996816 0.20825756
0.67606342 0.0720402 0.21014392
-0.064687356 0.10047324 0.20828116
0.67606342 0.10053068 0.21014392
-0.064687356 0.12894931 0.20828116
0.67606342 0.12902115 0.21014392
-0.064687356 0.15742554 0.20828116
0.67606342 0.15751147 0.2101438
-0.064687356 0.1859016 0.20828116
0.67606342 0.18600191 0.21014392
-0.064687356 0.21437767 0.20828116
0.67589134 0.21443933 0.20928407
-0.064687356 0.24285375 0.2082814
0.64743972 0.24293475 0.20945132
-0.064687356 0.27132979 0.2082814
0.61898112 0.27143088 0.20959449
-0.064687356 0.2992349 0.20153904
-0.036187187 0.30007097 0.2114104
0.59052455 0.2999312 0.20976162
-0.036269218 0.32758653 0.2007544
-0.0076991655 0.32849815 0.21062183
0.56206536 0.32843414 0.20992887
-0.0078635253 0.35592395 0.19994628
0.020776168 0.35691103 0.20980954
0.53360367 0.35693952 0.21009636
0.04923974 0.38531381 0.20902157
0.50513566 0.38544515 0.21023953
0.077691197 0.41370466 0.20823348
0.44850785 0.41423166 0.21279776
0.47638601 0.4137322 0.20847225
0.10613053 0.44208342 0.2074461
0.36329049 0.44307873 0.21552742
0.39128882 0.44254512 0.21119535
0.41922176 0.44201279 0.20687354
0.44709277 0.44148481 0.20258546
0.13432032 0.46987319 0.20225251
0.16289513 0.4701817 0.20460939
0.19150479 0.47048748 0.20694506
0.22015245 0.47079673 0.20930791
0.24883471 0.47110319 0.21164978
0.27755558 0.47141311 0.21401834
0.30606622 0.47140059 0.21392286
0.33411926 0.47083414 0.20959449
0.36210686 0.47026905 0.20527625
0.39003211 0.46970841 0.20099187
0.13513511 -0.44162196 0.21737337
0.16415189 -0.44250461 0.22501647
0.1929221 -0.44278023 0.22740233
0.22172742 -0.4430531 0.22976696
0.25057143 -0.44332939 0.23215926
0.27889889 -0.44291374 0.22856009
0.3070969 -0.44241279 0.22422183
0.33522666 -0.44191039 0.21986949
0.10662673 -0.41316393 0.21818936
0.13571453 -0.4142347 0.22812593
0.33633757 -0.41445595 0.23017776
0.36448079 -0.41398799 0.22583544
0.39255548 -0.41351849 0.2214793
0.42056757 -0.41305277 0.21715748
0.078104869 -0.3846907 0.21898091
0.1071236 -0.38568807 0.22894633
0.39382625 -0.38597327 0.23179662
0.42191458 -0.38553852 0.22745073
0.44993412 -0.38510197 0.22309077
0.47788799 -0.38466677 0.21874106
0.049570829 -0.35620558 0.21977341
0.078519106 -0.35712644 0.22974288
0.45136487 -0.35746589 0.23341691
0.47939473 -0.35706189 0.22904289
0.50736254 -0.35666105 0.22470343
0.021025136 -0.32771015 0.22059023
0.04990235 -0.32855281 0.23054016
0.53601569 -0.32808501 0.22501671
-0.0075334795 -0.29920039 0.22138321
0.021273896 -0.29996845 0.23136127
0.564592 -0.29946715 0.22484767
-0.03610431 -0.27067843 0.22217691
-0.0073675774 -0.27137005 0.23215902
0.59316576 -0.27085176 0.22467935
-0.036074847 -0.24233112 0.22600448
0.62173688 -0.242239 0.22451055
-0.036074847 -0.21371873 0.22600448
0.65031016 -0.21363027 0.22436607
-0.036074847 -0.18510593 0.226004
0.65089905 -0.18517172 0.22742641
-0.036074847 -0.15649341 0.226004
0.65089905 -0.15654829 0.22742641
-0.036074847 -0.12788108 0.226004
0.65089905 -0.12792481 0.22742665
-0.036074847 -0.099268541 0.22600424
0.65089905 -0.099301286 0.22742617
-0.036075033 -0.070655599 0.22597992
0.65089905 -0.070678003 0.22742617
-0.036075033 -0.04204322 0.22597992
0.65089905 -0.042054422 0.22742641
0.65089905 -0.013431143 0.22742641
-0.036075033 -0.013430939 0.22598016
-0.036075033 0.015181341 0.22597992
0.65089905 0.015192543 0.22742641
-0.036074847 0.043793928 0.226004
0.65089905 0.043815821 0.22742641
-0.036074847 0.072406515 0.22600424
0.65089905 0.072439507 0.22742641
-0.036074847 0.101019 0.22600424
0.65089905 0.10106289 0.22742641
-0.036074847 0.12963158 0.22600448
0.65089905 0.12968627 0.22742641
-0.036074847 0.15824406 0.22600424
0.65089905 0.15830976 0.22742641
-0.036074847 0.1868566 0.22600424
0.65089905 0.18693322 0.22742641
-0.036074847 0.21546914 0.22600448
0.65030086 0.21536526 0.22431815
-0.036074847 0.24408151 0.22600424
0.62173247 0.24397643 0.22448647
-0.036104683 0.2723957 0.22212851
-0.0073683225 0.27316421 0.23211086
0.59316152 0.2725901 0.22465527
-0.0075342245 0.30091128 0.22133529
0.021272779 0.30175629 0.23131311
0.56458384 0.30120459 0.22479975
0.021024033 0.32941443 0.22054207
0.049901605 0.33033574 0.23051584
0.53600788 0.32982343 0.22496855
0.049569339 0.35790318 0.21972549
0.078517243 0.35890085 0.22969472
0.4513616 0.35927108 0.2333926
0.47939122 0.35883328 0.22901881
0.50735885 0.35839894 0.22467935
0.078103021 0.38638207 0.21893299
0.10712136 0.38745594 0.22889817
0.39382321 0.38776591 0.2317723
0.42191142 0.38729739 0.22742641
0.44993073 0.3868275 0.22306645
0.47788447 0.3863588 0.21871698
0.10662453 0.41484866 0.2181412
0.13571323 0.41599873 0.22810185
0.33633494 0.41623574 0.23015368
0.36447799 0.41573435 0.2258116
0.3925525 0.41523132 0.22145545
0.42056131 0.41472951 0.21710956
0.13513383 0.44330308 0.21734929
0.16414744 0.44423857 0.22494423
0.19291709 0.44453228 0.22733009
0.22172369 0.44482669 0.2297188
0.25056529 0.44511831 0.23208654
0.27889663 0.44468102 0.22853601
0.30709445 0.44414663 0.22419775
0.33522403 0.44361058 0.21984541
0.16496012 -0.41531414 0.23814046
0.19434844 -0.41637558 0.24798954
0.22310765 -0.41634399 0.247697
0.25151598 -0.41587171 0.24331391
0.27985555 -0.41539776 0.23891675
0.30813086 -0.41492757 0.23455417
0.13629733 -0.38668823 0.23894107
0.16562976 -0.38769639 0.24901402
0.28081763 -0.38772807 0.24933112
0.30917066 -0.38728917 0.24494445
0.33745468 -0.38684857 0.24054325
0.36567491 -0.38641173 0.23617685
0.10762334 -0.35805237 0.23976624
0.13688482 -0.35898343 0.24984396
0.36687571 -0.35868138 0.24657595
0.39510405 -0.3582747 0.24217117
0.42326909 -0.35787091 0.23780096
0.078935742 -0.32940179 0.24056756
0.108126 -0.33025557 0.25064933
0.42462796 -0.3300468 0.2481848
0.45280373 -0.3296757 0.24380052
0.48090988 -0.32930312 0.23940217
0.50895375 -0.3289336 0.23503864
0.0502358 -0.30073902 0.24136913
0.4824335 -0.30138934 0.24981916
0.51055378 -0.30105165 0.2454313
0.53843933 -0.30063421 0.24000919
0.021524094 -0.27206537 0.24219549
0.56713086 -0.27190211 0.23983896
-0.0072007068 -0.24337757 0.24299777
0.59581977 -0.24317251 0.2396692
-0.0071864761 -0.21468407 0.24392188
0.62451053 -0.21444692 0.23952353
-0.0071868524 -0.18593256 0.2438978
0.62549406 -0.18597625 0.24484694
-0.0071868524 -0.15718229 0.2438978
0.62549406 -0.15721886 0.24484694
-0.0071868524 -0.12843204 0.2438978
0.62549859 -0.12846218 0.24487126
-0.0071868524 -0.09968175 0.2438978
0.62549859 -0.099704206 0.24487126
-0.0071868524 -0.070931487 0.2438978
0.62549859 -0.070946455 0.24487102
-0.0071868524 -0.042181212 0.24389756
0.62549859 -0.042188849 0.24487126
-0.0071868524 -0.013431143 0.2438978
0.62549859 -0.013430838 0.24487102
-0.0071868524 0.015319333 0.2438978
0.62549859 0.015326767 0.24487126
-0.0071868524 0.044069607 0.2438978
0.62549859 0.044084374 0.24487126
-0.0071868524 0.072819874 0.2438978
0.62549859 0.072842076 0.24487126
-0.0071868524 0.10157015 0.2438978
0.62549859 0.10159999 0.2448715
-0.0071868524 0.13032033 0.2438978
0.62549859 0.13035789 0.24487102
-0.0071868524 0.1590706 0.2438978
0.62549859 0.15911551 0.24487102
-0.0071864761 0.18782213 0.24392211
0.62549859 0.18787317 0.24487102
-0.0071864761 0.21657261 0.24392211
0.62450159 0.21629861 0.23947513
-0.0072014518 0.24525551 0.24294913
0.59581548 0.24502672 0.23964489
0.021522969 0.27393672 0.24214685
0.56712675 0.27375713 0.23981488
0.050235048 0.30260557 0.24134505
0.4824335 0.30332324 0.24981916
0.51055008 0.30294958 0.24540675
0.53843147 0.30248827 0.23996055
0.078934789 0.33126217 0.24054325
0.1081249 0.33219346 0.25062501
0.42462796 0.33196807 0.2481848
0.45280033 0.33156085 0.2437762
0.48090637 0.33115447 0.23937786
0.50895 0.33075139 0.23501432
0.1076211 0.35990396 0.2397176
0.1368822 0.36091247 0.24979484
0.36687291 0.36058792 0.24655163
0.39510107 0.360147 0.24214685
0.42326593 0.35970962 0.23777688
0.13629603 0.38853586 0.23891675
0.16562825 0.38962132 0.2489897
0.28081536 0.38965553 0.2493068
0.30916822 0.38918269 0.2449199
0.33745205 0.38870832 0.24051893
0.36567211 0.38823783 0.23615277
0.16495864 0.41715512 0.23811638
0.19434504 0.41828966 0.2479409
0.22310765 0.41826138 0.24769723
0.25151396 0.41775256 0.24328959
0.27985334 0.41724488 0.23889244
0.30812848 0.41674113 0.23453009
0.19492747 -0.3884303 0.25634754
0.22391315 -0.38861161 0.25816047
0.25239992 -0.38817054 0.25375307
0.16608892 -0.35959539 0.25646985
0.19533534 -0.36012796 0.26223457
0.25328887 -0.36031416 0.26425064
0.28178501 -0.3599034 0.25980389
0.31021625 -0.35949585 0.25539243
0.33857805 -0.35908711 0.25096691
0.13724847 -0.33075884 0.25659239
0.1664515 -0.33124697 0.26235759
0.31126773 -0.33154693 0.2658993
0.33970767 -0.33117008 0.26144874
0.36808318 -0.33079618 0.25703347
0.39638901 -0.33042106 0.25260389
0.079336002 -0.30147758 0.25096667
0.10840616 -0.30192024 0.25671494
0.13756576 -0.30236399 0.26248038
0.3692975 -0.30275428 0.2675494
0.39768118 -0.30241135 0.26309502
0.42600089 -0.30207121 0.25867546
0.45425057 -0.30173001 0.2542423
0.050534338 -0.27267981 0.25106442
0.07956101 -0.2730782 0.25681269
0.108677 -0.27347755 0.26257885
0.45570552 -0.27362749 0.26474249
0.48396569 -0.2733193 0.26029456
0.5121628 -0.27301365 0.25588214
0.5402897 -0.27270687 0.25145519
0.021731734 -0.24388202 0.25118673
0.050715104 -0.24423596 0.25693524
0.079787672 -0.24459107 0.26270163
0.51378083 -0.24481837 0.26639163
0.54198462 -0.24454412 0.26194012
0.56969446 -0.24411549 0.25497639
0.02186732 -0.21539196 0.25705779
0.050896451 -0.21570261 0.26282442
0.59849966 -0.2152705 0.25480497
0.021981202 -0.18676816 0.261989
0.59985423 -0.18678975 0.26245606
0.021980636 -0.1578777 0.26196444
0.59985423 -0.1578964 0.26245582
0.021980636 -0.12898828 0.26196444
0.59985423 -0.12900345 0.26245582
0.021980636 -0.10009894 0.26196444
0.59985858 -0.10011096 0.26248038
0.021980636 -0.071209706 0.26196444
0.59985858 -0.071217649 0.26248038
0.021980636 -0.042320222 0.26196444
0.59985858 -0.042324293 0.26248062
0.021980636 -0.013431143 0.26196444
0.59985858 -0.013431041 0.26248038
0.021980636 0.015458445 0.26196444
0.59985858 0.015462314 0.26248062
0.021980636 0.044347625 0.26196444
0.59985858 0.044355672 0.26248038
0.021980636 0.073237009 0.26196444
0.59985858 0.073248826 0.26248038
0.021980636 0.1021264 0.26196444
0.59985858 0.10214228 0.26248038
0.021980636 0.13101557 0.26196444
0.59985858 0.13103554 0.26248038
0.021981202 0.15990597 0.261989
0.59985858 0.15992889 0.26248062
0.021980636 0.18879424 0.26196444
0.59985858 0.18882215 0.26248038
0.021866754 0.21737994 0.25703323
0.050895691 0.21773516 0.26279986
0.59849095 0.21723981 0.25475609
0.021731168 0.24582453 0.25116217
0.050714351 0.24622293 0.25691068
0.079786733 0.24662234 0.26267707
0.51377708 0.24687807 0.26636684
0.54198462 0.24657129 0.26193988
0.56968611 0.24608536 0.25492728
0.050534338 0.27462319 0.25106442
0.07956101 0.27506581 0.25681269
0.108677 0.27550957 0.26257885
0.45570213 0.27567431 0.26471817
0.48396569 0.27533376 0.2602948
0.51215905 0.27499214 0.25585759
0.5402897 0.2746534 0.25145519
0.079335064 0.30341831 0.25094235
0.10840502 0.30390489 0.25669038
0.13756444 0.30439332 0.26245606
0.36929464 0.30482242 0.2675246
0.39767814 0.3044453 0.26307023
0.42599767 0.3040711 0.2586509
0.45424718 0.30369571 0.25421798
0.13724847 0.33274469 0.25659239
0.16644999 0.33327511 0.26233304
0.31126523 0.33360207 0.26587451
0.33970767 0.33319327 0.26144874
0.36808038 0.33278322 0.25700891
0.39638597 0.33237413 0.25257957
0.16608892 0.36158049 0.25646985
0.19533534 0.36215746 0.26223481
0.25328678 0.36235651 0.26422608
0.28178501 0.36191398 0.25980389
0.3102138 0.3614701 0.25536811
0.33857542 0.36102724 0.25094259
0.19492747 0.39041427 0.2563473
0.22391315 0.39060965 0.25816071
0.25239789 0.39013204 0.25372875
0.22467192 -0.36066213 0.26801741
0.19574453 -0.33173662 0.26814044
0.22512795 -0.33222783 0.27394164
0.25418276 -0.33230126 0.2748071
0.28275788 -0.33192235 0.27033532
0.16681524 -0.30280918 0.26826394
0.19615497 -0.30325586 0.27406538
0.22558545 -0.3037037 0.27988446
0.28373855 -0.30378589 0.2809509
0.31232506 -0.30344063 0.2764653
0.34084368 -0.30309597 0.2719897
0.13788274 -0.27387831 0.2683624
0.1671786 -0.27428025 0.27416432
0.19656505 -0.27468351 0.27998388
0.34198874 -0.2748659 0.28261459
0.37051857 -0.27455461 0.27812445
0.39898062 -0.27424416 0.2736448
0.42737824 -0.27393636 0.26920068
0.10894983 -0.2449473 0.26848567
0.13820201 -0.24530451 0.27428758
0.16754463 -0.24566308 0.28010762
0.40029043 -0.24591991 0.28427923
0.42876339 -0.24564317 0.27978528
0.45716864 -0.24536683 0.27530181
0.48551011 -0.24509309 0.27085364
0.080015048 -0.21601443 0.26860893
0.10922353 -0.21632712 0.27441132
0.13852233 -0.21664059 0.2802316
0.48705953 -0.21670613 0.28144729
0.51540798 -0.21646436 0.27696025
0.54368907 -0.21622306 0.27248347
0.57190716 -0.21598394 0.26804221
0.051078364 -0.18707953 0.26873219
0.08024314 -0.18734762 0.27453506
0.10949807 -0.18761632 0.28035557
0.54519033 -0.18768191 0.28177035
0.57311571 -0.18737741 0.27517807
0.051260084 -0.15836531 0.274634
0.080470994 -0.1585893 0.28045475
0.54519033 -0.15863982 0.28177011
0.57311571 -0.15838623 0.27517807
0.051431693 -0.12955017 0.28020704
0.54519033 -0.12959825 0.28177011
0.57311571 -0.12939528 0.27517831
0.051431693 -0.10052039 0.2802068
0.54519033 -0.10055634 0.28177011
0.57311571 -0.1004043 0.27517807
0.051431693 -0.071490481 0.2802068
0.54519033 -0.07151451 0.28177035
0.57311994 -0.071413383 0.27520263
0.051431693 -0.042460863 0.28020704
0.54519033 -0.042472776 0.28177011
0.57311994 -0.04242206 0.27520287
0.051431693 -0.013431143 0.2802068
0.54519439 -0.013431041 0.28179514
0.57311994 -0.013431143 0.27520311
0.051431693 0.015598881 0.2802068
0.54519439 0.015610999 0.28179514
0.57311994 0.015560283 0.27520311
0.051431693 0.044628497 0.28020704
0.54519439 0.044652939 0.28179514
0.57311994 0.044551406 0.27520311
0.051431693 0.073658317 0.2802068
0.54519439 0.073694982 0.28179514
0.57311994 0.073542632 0.27520287
0.051431693 0.10268814 0.2802068
0.54519439 0.10273702 0.28179514
0.57311994 0.10253395 0.27520287
0.051431693 0.13171776 0.2802068
0.54519439 0.13177906 0.28179514
0.57311994 0.13152517 0.27520287
0.051259331 0.16048902 0.27460921
0.08047004 0.16075796 0.2804302
0.54519439 0.1608209 0.28179514
0.57311994 0.1605164 0.27520287
0.051076852 0.18915637 0.26868308
0.080241233 0.18946892 0.27448571
0.10949579 0.18978269 0.28030598
0.54519439 0.18986283 0.28179514
0.57311994 0.18950762 0.27520311
0.080014095 0.21809138 0.26858437
0.10922238 0.21844864 0.27438676
0.13852097 0.21880722 0.2802068
0.48705596 0.21888207 0.28142273
0.51540416 0.21860558 0.27693522
0.54368907 0.21833153 0.27248347
0.57190299 0.21805646 0.26801741
0.10894869 0.24702297 0.26846111
0.13820069 0.247425 0.27426302
0.16754311 0.24782823 0.28008282
0.40028733 0.24811734 0.28425443
0.42876017 0.24780597 0.27976048
0.45716524 0.24749525 0.27527726
0.48550647 0.24718724 0.27082908
0.13788274 0.27595481 0.2683624
0.1671786 0.27640143 0.27416408
0.19656505 0.27684954 0.27998364
0.3705157 0.27670434 0.27809942
0.39898062 0.27636147 0.2736448
0.42737502 0.27601749 0.26917613
0.34198612 0.27704999 0.28258955
0.16681372 0.30488306 0.26823938
0.19615327 0.30537418 0.27404034
0.22558354 0.30586702 0.27985966
0.28373623 0.30595726 0.28092611
0.31232262 0.30557734 0.27644026
0.34084368 0.30520058 0.27198946
0.19574453 0.33381149 0.26814067
0.22512795 0.33434731 0.27394164
0.25418067 0.33442506 0.27478254
0.28275788 0.3340143 0.27033556
0.22467192 0.36273611 0.26801741
0.25508171 -0.30413014 0.28542292
0.22604243 -0.27508783 0.28582132
0.25561124 -0.27549353 0.29167664
0.28472239 -0.27548838 0.29160178
0.31338841 -0.27517584 0.28709066
0.19697811 -0.24602242 0.28594553
0.22650282 -0.24638313 0.29180157
0.25611925 -0.24674487 0.29767597
0.31446028 -0.24675265 0.2978009
0.34313762 -0.24647382 0.29327452
0.3717466 -0.24619585 0.28875911
0.16791181 -0.21695544 0.28606999
0.19739245 -0.21727072 0.29192626
0.22696467 -0.21758755 0.29780114
0.37298447 -0.21767782 0.29947937
0.40160459 -0.21743377 0.2949487
0.43015635 -0.2171901 0.29042947
0.45864004 -0.21694733 0.28592074
0.13884361 -0.18788619 0.28619421
0.16828017 -0.18815657 0.29205096
0.19780813 -0.18842809 0.29792607
0.43155724 -0.18857631 0.30113399
0.46012324 -0.18836774 0.29662454
0.48861778 -0.18815908 0.29210126
0.51704431 -0.1879504 0.28758848
0.10977234 -0.15881422 0.28629386
0.13916458 -0.15903963 0.29215133
0.16864814 -0.15926552 0.2980262
0.46082103 -0.15940559 0.30166066
0.48904163 -0.15914911 0.294999
0.51716703 -0.15889451 0.28838551
0.080700532 -0.12974133 0.28641808
0.11004867 -0.12992178 0.29227602
0.13948794 -0.13010255 0.29815161
0.46082103 -0.13021065 0.30166066
0.48904163 -0.13000564 0.294999
0.51716703 -0.12980177 0.28838551
0.080930784 -0.10080188 0.29240072
0.11032583 -0.10093773 0.29827678
0.46082103 -0.10101574 0.3016609
0.48904526 -0.10086247 0.29502404
0.51716703 -0.1007091 0.28838527
0.081037521 -0.071720943 0.29517376
0.11038598 -0.07178887 0.2995795
0.46082103 -0.071820743 0.3016609
0.48904526 -0.071718596 0.29502404
0.51716703 -0.071616657 0.28838575
0.081037521 -0.04257594 0.295174
0.11038598 -0.042609852 0.29957974
0.46082449 -0.042626042 0.30168593
0.48904526 -0.04257492 0.29502404
0.51716703 -0.042523697 0.28838575
0.081037521 -0.013431143 0.295174
0.46082449 -0.013431143 0.30168593
0.51716703 -0.013431041 0.28838575
0.11038598 -0.013430838 0.2995795
0.48904526 -0.013430939 0.2950238
0.081037521 0.015714061 0.29517376
0.11038482 0.015747666 0.29955447
0.46082449 0.015763961 0.30168593
0.48904526 0.015712738 0.29502404
0.51716703 0.015661716 0.28838551
0.081036568 0.044858653 0.29514873
0.11038482 0.04492658 0.29955447
0.46082449 0.044959169 0.30168593
0.48904526 0.044856515 0.29502404
0.51716703 0.044754371 0.28838551
0.081036568 0.074003451 0.29514897
0.11038482 0.074104987 0.29955447
0.46082449 0.074154273 0.30168593
0.48904526 0.0740005 0.29502404
0.51716703 0.073847227 0.28838551
0.080928862 0.10306199 0.29235089
0.1103235 0.10324296 0.29822671
0.46082449 0.10334938 0.30168593
0.48904526 0.10314427 0.29502404
0.51716703 0.10293988 0.28838551
0.080698624 0.13195504 0.28636849
0.11004634 0.13218051 0.29222572
0.13948658 0.13240761 0.29812682
0.46082449 0.13254459 0.30168593
0.48904526 0.13228805 0.29502404
0.51716703 0.13203254 0.28838551
0.10977121 0.16102752 0.28626907
0.13916324 0.16129801 0.29212606
0.16864659 0.16156952 0.29800141
0.46082449 0.16173969 0.30168593
0.48904526 0.16143192 0.29502404
0.51716703 0.16112529 0.28838527
0.13884094 0.19009717 0.28614461
0.16827708 0.19041298 0.29200137
0.1978064 0.19073081 0.29790127
0.43155396 0.19090363 0.30110872
0.46011978 0.19066074 0.29659951
0.48861414 0.19041705 0.29207599
0.51704049 0.19017375 0.28756344
0.16791029 0.21916661 0.28604519
0.19739072 0.21952742 0.29190147
0.22696273 0.21988904 0.2977761
0.37297863 0.21999089 0.29942906
0.40160149 0.21971348 0.2949239
0.43015313 0.21943526 0.29040444
0.45864004 0.21915896 0.28592074
0.19697635 0.24823274 0.28592074
0.22650088 0.2486385 0.29177678
0.25611925 0.24904718 0.29767597
0.31445527 0.24905227 0.29775107
0.34313494 0.24874045 0.29324973
0.37174368 0.24842755 0.28873432
0.22604243 0.27729884 0.28582108
0.25561124 0.27774948 0.29167688
0.28472012 0.27774188 0.29157698
0.3133859 0.27739456 0.28706539
0.25507963 0.30633599 0.28539836
0.28571188 -0.24703063 0.30231321
0.25662887 -0.21790493 0.30369389
0.28638548 -0.21822342 0.30960524
0.31553566 -0.21816665 0.30854762
0.344293 -0.21792112 0.30399525
0.22742794 -0.18870024 0.30381954
0.2571401 -0.18897317 0.30973113
0.28694493 -0.18924706 0.31566131
0.34545499 -0.18920633 0.31477654
0.37422645 -0.18899655 0.31023514
0.40292621 -0.18878625 0.3056792
0.19822337 -0.15949242 0.30391967
0.22789077 -0.15972023 0.30983222
0.25765079 -0.15994824 0.31576216
0.40408093 -0.15992095 0.31505477
0.43250102 -0.15966289 0.30834615
0.16901881 -0.13028392 0.30404556
0.1986417 -0.13046621 0.3099581
0.22835703 -0.1306487 0.31588876
0.40408093 -0.13062315 0.31505477
0.43250102 -0.1304163 0.30834568
0.13980147 -0.101069 0.30396998
0.16928674 -0.10117125 0.30839622
0.19884087 -0.1012736 0.31283247
0.22846214 -0.10137585 0.31725419
0.40408093 -0.10132513 0.31505477
0.43250102 -0.10116993 0.30834591
0.13980147 -0.071856484 0.30397022
0.16928674 -0.071924515 0.30839622
0.19884087 -0.071992949 0.31283271
0.22846214 -0.072060674 0.31725395
0.40408093 -0.072027065 0.31505477
0.43250102 -0.071923599 0.30834591
0.13980147 -0.042643663 0.30397022
0.16928674 -0.042677574 0.30839622
0.19884087 -0.042711996 0.31283271
0.22846214 -0.042746011 0.31725419
0.40408093 -0.042728901 0.31505477
0.43250102 -0.042677369 0.30834615
0.16928674 -0.013431041 0.30839622
0.22846214 -0.013431041 0.31725419
0.40408093 -0.013431041 0.31505477
0.43250102 -0.013431041 0.30834615
0.13980147 -0.013430939 0.30396998
0.19884087 -0.013430939 0.31283271
0.13980147 0.015781682 0.30396998
0.16928674 0.015815798 0.30839622
0.19884087 0.015850015 0.31283247
0.22846214 0.015884131 0.31725419
0.40408093 0.015867025 0.31505477
0.4325043 0.015815493 0.30837119
0.13980147 0.044994406 0.30397022
0.16928519 0.045062229 0.30837095
0.19883911 0.045130361 0.3128072
0.22846214 0.045198798 0.31725419
0.40408093 0.045164987 0.31505477
0.4325043 0.045062229 0.30837095
0.13980147 0.074207023 0.30397022
0.16928519 0.07430876 0.30837119
0.19883911 0.074411109 0.31280744
0.22846214 0.074513972 0.31725419
0.40408093 0.07446295 0.31505477
0.4325043 0.07430876 0.30837119
0.13980147 0.10341985 0.30396998
0.16928519 0.1035555 0.30837095
0.19883911 0.10369186 0.3128072
0.22846214 0.10382894 0.31725419
0.40408093 0.10376111 0.31505477
0.4325043 0.1035555 0.30837095
0.16901727 0.13263431 0.30402029
0.19863994 0.13286202 0.30993259
0.22835509 0.13309014 0.31586349
0.40408093 0.13305907 0.31505477
0.4325043 0.13280183 0.30837119
0.19822164 0.16184174 0.30389488
0.22788887 0.16211477 0.3098067
0.25764865 0.16238861 0.31573713
0.40408093 0.16235703 0.31505477
0.4325043 0.16204837 0.30837119
0.22742601 0.19104844 0.3037945
0.25713795 0.191367 0.30970585
0.37422061 0.19139276 0.3101846
0.40292311 0.19114855 0.30565393
0.28694254 0.19168647 0.31563604
0.34545225 0.19163871 0.31475151
0.25662673 0.2202519 0.30366886
0.28638315 0.22061588 0.30957997
0.31553316 0.22055089 0.30852234
0.34429032 0.22027054 0.30396998
0.28570956 0.24936666 0.30228794
0.31661725 -0.18941775 0.31935489
0.28750378 -0.16017713 0.32171118
0.31745023 -0.16040683 0.3276788
0.34662628 -0.16032887 0.32564533
0.37547547 -0.16015193 0.32105196
0.25815451 -0.13082799 0.32171094
0.28791648 -0.13096568 0.32617867
0.31774831 -0.13110347 0.33065689
0.34693867 -0.1310384 0.32854402
0.3755604 -0.13083033 0.32178724
0.25815451 -0.1014787 0.32171094
0.28791648 -0.10158197 0.32617891
0.31774831 -0.10168554 0.33065689
0.34693867 -0.10163655 0.32854378
0.3755604 -0.10148064 0.32178748
0.25815451 -0.072129317 0.32171094
0.28791648 -0.072198465 0.32617891
0.31774831 -0.072267205 0.33065689
0.34693867 -0.072234817 0.32854354
0.3755604 -0.07213074 0.32178748
