ply
format ascii 1.0
comment PCL generated
element vertex 1346
property float x
property float y
property float z
element camera 0
property float view_px
property float view_py
property float view_pz
property float x_axisx
property float x_axisy
property float x_axisz
property float y_axisx
property float y_axisy
property float y_axisz
property float z_axisx
property float z_axisy
property float z_axisz
property float focal
property float scalex
property float scaley
property float centerx
property float centery
property int viewportx
property int viewporty
property float k1
property float k2
end_header
0.10041928 -0.21403474 -0.20800376
0.1228063 -0.2142792 -0.20511544
0.1452785 -0.21459845 -0.20134556
-0.10023146 -0.19209504 -0.20363569
-0.07785365 -0.19192424 -0.20585489
-0.055519395 -0.19178474 -0.20766807
-0.033221334 -0.19168666 -0.20894265
-0.010949416 -0.19165358 -0.20937181
0.011315897 -0.19162667 -0.20972049
0.033585753 -0.19169894 -0.20878172
0.055870071 -0.19177121 -0.20784271
0.078192435 -0.19192222 -0.20588183
0.1005571 -0.19210342 -0.20352805
-0.055647045 -0.16988912 -0.20214081
-0.033306155 -0.1697996 -0.20343375
-0.010991814 -0.16976985 -0.20386434
0.011315897 -0.16974646 -0.20420098
0.03362827 -0.16981182 -0.20325863
0.055955157 -0.16987699 -0.20231593
-0.4371984 -0.28296039 -0.18853533
-0.41331744 -0.28188816 -0.19848454
0.41360199 -0.28188956 -0.19847119
0.43744224 -0.28298828 -0.18827689
-0.34767485 -0.26068032 -0.18707931
-0.32430047 -0.25986782 -0.1951983
0.32454902 -0.25985968 -0.1952796
0.34786814 -0.26067904 -0.1870929
-0.23565637 -0.23842475 -0.18511748
-0.21272367 -0.23784781 -0.19136178
-0.18992826 -0.23732606 -0.19701135
0.19021295 -0.23734596 -0.19679511
0.21293928 -0.23783162 -0.1915381
0.23584244 -0.23843229 -0.18503559
-0.21308687 -0.21584344 -0.1866436
-0.19024731 -0.21535543 -0.19240654
-0.16756199 -0.21495742 -0.19710612
0.16781729 -0.21493122 -0.19741702
0.19049825 -0.21537614 -0.19216239
0.21326233 -0.2158238 -0.1868751
-0.19056831 -0.19331628 -0.18777347
-0.1678464 -0.19295332 -0.19248784
-0.14519861 -0.19259247 -0.19717371
-0.12268969 -0.192343 -0.20041502
0.12298099 -0.19233051 -0.2005769
0.14548868 -0.19262165 -0.19679511
0.16806681 -0.19293022 -0.19278634
0.19078529 -0.19333714 -0.18750131
-0.16819458 -0.17094973 -0.1868341
-0.14550228 -0.17062378 -0.1915381
-0.12294751 -0.17039546 -0.19483268
-0.10044637 -0.17017233 -0.19805229
-0.078024067 -0.17001522 -0.2003206
0.078320868 -0.17001522 -0.2003206
0.10072821 -0.17017812 -0.19797111
0.12319687 -0.17038611 -0.1949681
0.14574778 -0.17064816 -0.19118524
0.16837361 -0.17093173 -0.1870929
-0.14583065 -0.14859638 -0.18544459
-0.12322393 -0.14838684 -0.18884826
-0.1006762 -0.14818779 -0.19208097
-0.07820598 -0.14804411 -0.19441271
-0.055783615 -0.14793244 -0.19622684
-0.033396706 -0.14785072 -0.1975522
-0.011037178 -0.14782497 -0.19797122
0.011315897 -0.1478042 -0.19830883
0.033673655 -0.14786243 -0.19736302
0.056046195 -0.14792162 -0.19640279
0.078458242 -0.1480467 -0.19437218
0.10091166 -0.14819193 -0.19201314
0.12342981 -0.14838269 -0.18891597
0.14602742 -0.14861572 -0.18513119
-0.12352861 -0.12631896 -0.18225157
-0.10093006 -0.12614477 -0.18548548
-0.078407481 -0.12601632 -0.18786871
-0.055934556 -0.12591809 -0.18969107
-0.033497032 -0.12584561 -0.19103575
-0.011087328 -0.12582302 -0.19145668
0.011315897 -0.12580609 -0.19176888
0.033723928 -0.12585664 -0.19083226
0.056146603 -0.12590784 -0.18988121
0.078610003 -0.12602001 -0.18780065
0.10111434 -0.12614766 -0.185431
0.12368527 -0.1263175 -0.18227911
-0.033611465 -0.10378245 -0.18360341
-0.011144526 -0.10376281 -0.18402648
0.011315897 -0.10374837 -0.18434024
0.03378126 -0.10379251 -0.18338501
0.056261122 -0.10383604 -0.18244302
-0.48590577 -0.2854141 -0.16576719
0.48601025 -0.28546327 -0.16531134
-0.4614495 -0.28417736 -0.17724371
0.46154964 -0.28416404 -0.17736697
-0.39508682 -0.26251346 -0.16876185
-0.37123579 -0.26153991 -0.1784904
0.37137973 -0.26155218 -0.17836714
0.3951335 -0.26250789 -0.16881704
-0.30516636 -0.24027082 -0.16513157
-0.28184581 -0.23961112 -0.17227328
-0.25866997 -0.23898622 -0.17903805
0.25880295 -0.23898622 -0.17903805
0.28192288 -0.23960742 -0.17231452
0.30520886 -0.24028617 -0.16496575
-0.28253561 -0.21764395 -0.16538036
-0.25919962 -0.21697298 -0.17330432
-0.23605646 -0.21637273 -0.18039286
0.23621039 -0.21638438 -0.18025589
0.25928265 -0.21696711 -0.17337322
0.28256857 -0.21764863 -0.16532505
-0.25965112 -0.19480619 -0.16841722
-0.23645899 -0.19425026 -0.17563891
-0.21345124 -0.19376749 -0.18191016
0.21358645 -0.19374543 -0.18219697
0.23658058 -0.19426501 -0.17544687
0.25969177 -0.19479662 -0.16854143
-0.23694564 -0.17212355 -0.16989195
-0.21389492 -0.17169005 -0.17614663
-0.19095844 -0.17127472 -0.18214226
0.1911355 -0.1712974 -0.18181443
0.21398 -0.17166439 -0.17651701
0.23702621 -0.17213967 -0.16965771
-0.21437854 -0.14955592 -0.16986442
-0.19138333 -0.14917755 -0.17600942
-0.16857021 -0.14888647 -0.18073463
0.16870667 -0.14887553 -0.18091249
0.19151667 -0.1492011 -0.17562532
0.21441892 -0.1495364 -0.17018127
-0.19184823 -0.12701693 -0.16929936
-0.16898295 -0.12676188 -0.17403257
-0.14619136 -0.12650764 -0.17875063
0.14633477 -0.12652239 -0.17847669
0.16906998 -0.12675446 -0.17417002
0.19193169 -0.12703919 -0.16888595
-0.16945879 -0.10458139 -0.1663059
-0.14660639 -0.10436241 -0.17104864
-0.12387905 -0.10419535 -0.17466438
-0.10122144 -0.10404525 -0.17791498
-0.078637682 -0.10393075 -0.18039274
-0.056106985 -0.10384621 -0.18222439
0.078783296 -0.10393522 -0.18029714
0.10134535 -0.10404453 -0.17792881
0.12397836 -0.10419535 -0.17466438
0.14668676 -0.10437123 -0.170856
0.16948929 -0.10457755 -0.16638887
-0.12423834 -0.08196234 -0.16688561
-0.10152019 -0.081836432 -0.17015362
-0.078874573 -0.081738502 -0.17269957
-0.056284428 -0.081667595 -0.17454088
-0.033729438 -0.081613727 -0.17594087
-0.011203496 -0.081597269 -0.17636621
0.011315897 -0.081585191 -0.17668164
0.03384015 -0.081621572 -0.17573512
0.056378979 -0.081658095 -0.17478812
0.078961298 -0.081742719 -0.17258966
0.10158306 -0.081834272 -0.17020881
0.12427882 -0.081963308 -0.16685808
-0.056495346 -0.059415385 -0.16540802
-0.033869274 -0.059370719 -0.1668582
-0.011273395 -0.059357531 -0.16728604
0.011315897 -0.059347689 -0.16760337
0.033910073 -0.059377059 -0.16665113
0.056519352 -0.059407324 -0.16567039
-0.51086301 -0.28684846 -0.15245879
0.51076072 -0.28682891 -0.1526401
-0.44356978 -0.26467603 -0.14715207
-0.4191398 -0.26352265 -0.15867698
0.41915834 -0.26355329 -0.15837157
0.4434368 -0.26466203 -0.1472919
-0.35244274 -0.24181935 -0.14836884
-0.32872766 -0.24103519 -0.15685749
0.32867789 -0.24102488 -0.15696859
0.35237515 -0.24184778 -0.14806116
-0.32986611 -0.21920055 -0.14699829
-0.30607009 -0.21837503 -0.15674627
0.30603564 -0.21837866 -0.15670443
0.32975394 -0.21920165 -0.14698434
-0.30661929 -0.19609693 -0.15165019
-0.28302872 -0.19541937 -0.16045284
0.28302884 -0.19542783 -0.16034174
0.30653584 -0.19609269 -0.15170598
-0.3072685 -0.17380461 -0.14562643
0.30712742 -0.17379296 -0.14579439
-0.28361404 -0.17318264 -0.15460408
-0.26019359 -0.17263252 -0.16254473
0.26018083 -0.17261714 -0.16276634
0.28357691 -0.17319611 -0.15440929
-0.2842688 -0.15089858 -0.14806128
-0.2607947 -0.15040743 -0.15603733
-0.23748104 -0.14994371 -0.16356897
0.23751624 -0.14996073 -0.16329229
0.26072353 -0.15038776 -0.15635705
0.28418785 -0.15091509 -0.14779544
-0.26144373 -0.12811011 -0.14901161
-0.23806114 -0.12769493 -0.15671837
-0.2149047 -0.12735477 -0.16302931
0.21489622 -0.12734064 -0.16329241
0.23804799 -0.12771285 -0.15638483
0.26131952 -0.12809357 -0.14931905
-0.23873623 -0.10539239 -0.14874625
-0.21551576 -0.10509942 -0.15509117
-0.1923949 -0.10480753 -0.16140914
0.19241263 -0.10482294 -0.16107666
0.2154509 -0.10509045 -0.15528607
0.23866613 -0.10541054 -0.14835477
-0.21613769 -0.082727171 -0.14701235
-0.19295415 -0.082483746 -0.15333676
-0.1699457 -0.082288869 -0.15839934
-0.14703254 -0.082106344 -0.16314006
0.14704825 -0.082110666 -0.16302931
0.16991757 -0.082287312 -0.15844119
0.192903 -0.082492366 -0.15311384
0.21601541 -0.082722403 -0.14713812
-0.17052814 -0.059922382 -0.14894176
-0.14753979 -0.059775077 -0.15372694
-0.12466623 -0.059655152 -0.15762162
-0.10187597 -0.059553877 -0.16091037
-0.079156145 -0.059472382 -0.16355515
0.079173125 -0.059476651 -0.16341686
0.10186554 -0.059550107 -0.16103482
0.12463648 -0.059656844 -0.15756619
0.14747857 -0.059775546 -0.15371299
0.17043018 -0.059922852 -0.14892769
-0.12509683 -0.037206784 -0.14829886
-0.102234 -0.037130333 -0.15160823
-0.079439484 -0.037066996 -0.1543535
-0.056707583 -0.03702388 -0.15621793
-0.034009766 -0.036988795 -0.15773296
-0.011343621 -0.03697899 -0.15816319
0.011315897 -0.036971897 -0.15846872
0.033980548 -0.036994398 -0.15749645
0.056660391 -0.037017174 -0.15650988
0.079386294 -0.037070788 -0.15418661
0.10214979 -0.037125796 -0.15180361
0.12499694 -0.037209034 -0.14820099
-0.056956068 -0.014515106 -0.14545822
-0.034174822 -0.014491111 -0.14701211
-0.011426123 -0.014484514 -0.14744592
0.011315897 -0.014479861 -0.14773965
0.034063198 -0.014495045 -0.14676023
0.056825362 -0.01450976 -0.14579439
-0.53604758 -0.28829566 -0.13902938
0.53597218 -0.28835636 -0.13846672
-0.46820772 -0.26584825 -0.13543797
0.46806586 -0.26588786 -0.13504279
-0.40070528 -0.24368116 -0.12821436
-0.37648457 -0.24274194 -0.13838208
0.37628376 -0.24272636 -0.138551
0.40049332 -0.24371392 -0.12786019
-0.35389829 -0.22008511 -0.1365515
0.35371232 -0.22009116 -0.13648093
-0.35456073 -0.19767329 -0.13117313
-0.33046007 -0.19685102 -0.14185429
0.3303144 -0.19685647 -0.14178395
0.35431707 -0.19766784 -0.13124371
-0.33115375 -0.17448217 -0.13584673
0.33097094 -0.17449287 -0.13569164
-0.33194184 -0.15207109 -0.12902188
-0.30799913 -0.1514661 -0.13884664
0.30779457 -0.15144882 -0.13912785
0.33171725 -0.15208694 -0.12876701
-0.30877888 -0.12904772 -0.13161135
-0.28497005 -0.12853903 -0.14105356
0.28484309 -0.12855783 -0.14070261
0.30851567 -0.12903106 -0.13192236
-0.2857976 -0.1061297 -0.13278449
-0.2622022 -0.1057594 -0.14080095
0.26202059 -0.10574832 -0.14103973
0.28561366 -0.10614919 -0.13236058
-0.26297015 -0.083286151 -0.13248777
-0.23943637 -0.08297877 -0.14047754
0.23929417 -0.082989492 -0.14019656
0.2627328 -0.083280772 -0.13262916
-0.24028178 -0.060490392 -0.13049412
-0.2168844 -0.060280554 -0.13731205
-0.19362429 -0.060084894 -0.14366436
0.19349012 -0.060087502 -0.1435802
0.21669225 -0.060278721 -0.13736856
0.24005088 -0.060494296 -0.1303668
-0.21763603 -0.037686042 -0.12754822
-0.19429882 -0.037538685 -0.13392818
-0.17111433 -0.037411697 -0.13942325
-0.14805104 -0.037300557 -0.14423919
0.14791223 -0.03729853 -0.14432347
0.17094462 -0.037412725 -0.13938117
0.19408107 -0.037537329 -0.13398468
0.21737459 -0.037686601 -0.12751985
-0.17179677 -0.014778621 -0.12834191
-0.14864698 -0.014704112 -0.1331799
-0.12559907 -0.014638633 -0.13742495
-0.10265213 -0.014587622 -0.14074457
-0.079770789 -0.014543701 -0.14359426
0.079635121 -0.014546528 -0.14341187
0.10248297 -0.014583934 -0.14098346
0.12541875 -0.014641516 -0.13724172
0.14841846 -0.014701311 -0.13336337
0.17154635 -0.014780562 -0.12821436
-0.103081 0.0081202425 -0.12960243
-0.08011017 0.0081430748 -0.13257253
-0.057210602 0.0081574824 -0.13443625
-0.034343686 0.008169841 -0.13604414
-0.01151053 0.0081731118 -0.13648105
0.011315897 0.0081754383 -0.1367768
0.034147535 0.0081679579 -0.13580453
0.056994803 0.0081601981 -0.13478911
0.079890668 0.0081414115 -0.13234651
0.10282382 0.0081226248 -0.12991393
-0.493343 -0.26720786 -0.12185252
0.49301273 -0.26719362 -0.12199485
-0.42530984 -0.24476391 -0.11649215
0.4249475 -0.24475473 -0.11659205
-0.40294993 -0.22216287 -0.11201501
-0.37826818 -0.2210843 -0.12475276
0.37798852 -0.22108781 -0.12471008
0.40256321 -0.22216037 -0.11204374
-0.37897581 -0.19858381 -0.11934578
0.3786633 -0.19859248 -0.1192317
-0.37978709 -0.17605489 -0.11314631
-0.35532874 -0.17523792 -0.12493742
0.35501736 -0.17522123 -0.12517893
0.37943929 -0.17606986 -0.11293149
-0.35620719 -0.15276188 -0.1178056
0.35582429 -0.15273821 -0.11819077
-0.35713226 -0.13019642 -0.11029494
-0.33277792 -0.12957746 -0.12178135
0.33250999 -0.1295974 -0.12141144
0.35670292 -0.13018101 -0.11058176
-0.33377665 -0.10703734 -0.113132
-0.30970341 -0.10658015 -0.12303317
0.30938387 -0.10657031 -0.12324655
0.33345163 -0.10705861 -0.11267364
-0.31063169 -0.083981678 -0.1144197
-0.28665113 -0.083603114 -0.12425554
0.28639257 -0.08361575 -0.12392879
0.3102572 -0.083977804 -0.11451972
-0.28769267 -0.061003014 -0.11384773
-0.26389867 -0.060738504 -0.12243605
0.2635923 -0.060737252 -0.1224786
0.28733575 -0.061006978 -0.11371875
-0.2648322 -0.038037397 -0.11233008
-0.24113287 -0.03785003 -0.12044311
0.24081258 -0.037849367 -0.12047148
0.2644577 -0.038039088 -0.11225855
-0.24212463 -0.01508043 -0.10873091
-0.21851353 -0.014966268 -0.11614931
-0.19508518 -0.014867235 -0.12257814
0.19477126 -0.014864188 -0.1227771
0.21817127 -0.014968153 -0.1160208
0.2416998 -0.015077159 -0.1089462
-0.19589247 0.0079765413 -0.11092591
-0.17249751 0.0080229267 -0.11696327
-0.14925814 0.0080605 -0.12183821
-0.12611422 0.0080945287 -0.12627184
0.12585028 0.0080926996 -0.12603068
0.14893763 0.0080627725 -0.122123
0.17216571 0.0080210436 -0.11672056
0.19548169 0.0079788696 -0.11124134
-0.14995284 0.030999597 -0.10894632
-0.080495946 0.030999597 -0.12004411
-0.057499245 0.030999541 -0.12193799
0.03424333 0.030999597 -0.12336028
0.080180705 0.030999597 -0.11978757
0.10321425 0.030999597 -0.11723447
0.12634012 0.030999597 -0.11330366
0.14953497 0.030999597 -0.10919023
-0.12670062 0.030999709 -0.1135757
-0.10356914 0.030999653 -0.11692035
-0.034535244 0.030999653 -0.12360191
-0.011606283 0.030999653 -0.12404251
0.011315897 0.030999709 -0.12432671
0.05718784 0.030999653 -0.12225091
-0.057799943 0.054038227 -0.10891759
-0.034734599 0.054024927 -0.11065352
-0.011706039 0.054021489 -0.11108351
0.011315897 0.054019384 -0.11135578
0.034343354 0.05402714 -0.11036682
0.057389144 0.05403623 -0.10917604
-0.54473394 -0.27019408 -0.092013001
-0.51876032 -0.26860863 -0.10785508
0.51840365 -0.26864314 -0.10751021
0.54419184 -0.27019104 -0.092042327
-0.47546011 -0.24715823 -0.090575218
-0.45014024 -0.24587408 -0.10447526
0.44974983 -0.24590603 -0.10412967
0.47489423 -0.24714729 -0.090691447
-0.42802554 -0.22335595 -0.09792459
0.42755818 -0.2233707 -0.097751021
-0.42886901 -0.20067665 -0.092158318
-0.40373945 -0.19958663 -0.10631716
0.40328628 -0.19957119 -0.10651851
0.42836934 -0.20069683 -0.091897011
-0.404634 -0.17697543 -0.099861026
0.4041065 -0.1769484 -0.10025096
-0.40568727 -0.15433514 -0.092260003
-0.38072973 -0.15349236 -0.1059432
0.38034254 -0.15351376 -0.10559785
0.40511042 -0.1543155 -0.092579246
-0.38171291 -0.13083574 -0.098430753
0.38128591 -0.13086227 -0.097939253
-0.35824311 -0.10758496 -0.1012758
0.35776085 -0.10757831 -0.10141993
-0.35936075 -0.0848369 -0.092201829
-0.33481616 -0.08437781 -0.10412967
0.33440036 -0.084387727 -0.10387063
0.35882527 -0.0848369 -0.092201829
-0.33607781 -0.06163872 -0.093203068
-0.31176394 -0.06130898 -0.10391366
0.31132007 -0.061309397 -0.10389936
0.33555001 -0.06163872 -0.093203068
-0.31290263 -0.038475789 -0.093348145
-0.28874302 -0.038244776 -0.10335183
0.28828537 -0.038242728 -0.1034385
0.31239194 -0.038479447 -0.093188643
-0.28996056 -0.015350651 -0.091185451
-0.26591867 -0.015206065 -0.10056865
0.26546472 -0.015209276 -0.10036659
0.28938907 -0.015345886 -0.091490507
-0.24314751 0.0078665912 -0.096651673
-0.2194155 0.0079264995 -0.10443211
0.21899113 0.0079245046 -0.10418737
0.24262063 0.0078690853 -0.096984386
-0.22043858 0.030999597 -0.09114182
-0.19680925 0.030999597 -0.097693205
-0.17329493 0.030999597 -0.10401452
0.19630177 0.030999541 -0.09792459
0.2199201 0.030999597 -0.09077847
0.17286824 0.030999653 -0.10368335
-0.17412975 0.054180317 -0.090458989
-0.15067932 0.054141693 -0.09546423
-0.12731273 0.054104451 -0.1003232
-0.10407642 0.054078072 -0.10374105
-0.080896929 0.054052856 -0.10702157
0.080482826 0.05405524 -0.10670531
0.10362176 0.054076076 -0.10400021
0.12685198 0.054106832 -0.10000563
0.15016091 0.054140471 -0.095638156
0.1736012 0.054183256 -0.090081096
-0.081349239 0.077332109 -0.092332482
-0.058138736 0.077302679 -0.094247222
-0.034959089 0.077274591 -0.096072555
-0.011818253 0.07726799 -0.096506953
0.011315897 0.077263892 -0.096767426
0.034455732 0.077279188 -0.095768452
0.057615638 0.077299304 -0.09446454
0.080823123 0.077337712 -0.091969728
-0.57111377 -0.27186376 -0.075327754
0.57047552 -0.27187842 -0.075181127
-0.50110292 -0.24850151 -0.076032162
0.50046426 -0.2485137 -0.075900078
-0.45355231 -0.22467792 -0.082313299
0.45289153 -0.22464949 -0.082649231
-0.4544968 -0.20190668 -0.076178789
0.45377785 -0.20187512 -0.076589584
-0.42980939 -0.17795452 -0.085728526
0.42927659 -0.17798075 -0.085349441
-0.43094027 -0.15521351 -0.07799685
0.4303624 -0.15524328 -0.077513456
-0.40677619 -0.13159174 -0.084401369
0.40616155 -0.13158393 -0.084547281
-0.40810466 -0.10880724 -0.074813962
-0.38294828 -0.10815246 -0.08899045
0.38242573 -0.10816655 -0.088685036
0.40743721 -0.10880788 -0.074799299
-0.38419914 -0.085328266 -0.079432368
0.38356894 -0.085329399 -0.079403043
-0.36071187 -0.06200736 -0.081231833
0.36011225 -0.062012739 -0.081056356
-0.33735383 -0.038734317 -0.082152605
0.33671266 -0.038728215 -0.0824157
-0.31421947 -0.015505433 -0.081129432
0.31363386 -0.015510809 -0.080778599
-0.29122174 0.0077274907 -0.078582883
-0.2670393 0.00780336 -0.088437676
0.26650441 0.0078005884 -0.088088393
0.29056388 0.0077290423 -0.078773379
-0.26833171 0.030999487 -0.074446678
-0.24430718 0.030999541 -0.082956076
0.2676844 0.030999597 -0.074152946
0.24368705 0.030999653 -0.083131433
-0.22152947 0.054284174 -0.076970935
-0.19776654 0.054231025 -0.083876014
0.19716066 0.054230198 -0.083978176
0.22089095 0.054285727 -0.076765537
-0.1750851 0.077599727 -0.074946046
-0.15149669 0.077517435 -0.080295801
-0.1280077 0.077440843 -0.085276723
-0.10464808 0.077385202 -0.088888764
0.1040817 0.077382542 -0.089063168
0.12742901 0.077444941 -0.085014105
0.15086482 0.07751593 -0.080398083
0.17442547 0.077602386 -0.074784517
-0.10524579 0.10093667 -0.073359609
-0.08182586 0.10085598 -0.076853633
-0.058492362 0.10080793 -0.078934431
-0.035193656 0.10076399 -0.080836892
-0.011935389 0.10075346 -0.081290364
0.011315897 0.10074808 -0.081524253
0.034573264 0.10077175 -0.080500603
0.057852488 0.10080461 -0.079080939
0.081178658 0.10086241 -0.076574922
0.10456254 0.10093457 -0.073447585
-0.59813255 -0.27372462 -0.056733489
0.59735543 -0.27374098 -0.056570172
-0.52725965 -0.2499963 -0.059850931
0.52649015 -0.25000453 -0.059762001
-0.47951049 -0.22609994 -0.065519929
0.47883791 -0.2261374 -0.065076709
-0.48052287 -0.20320928 -0.059257627
0.47981375 -0.20324937 -0.058738232
-0.48167431 -0.18028191 -0.052134871
-0.45553583 -0.17908373 -0.069430113
0.4547841 -0.17906433 -0.069709897
-0.45679158 -0.15624335 -0.061273932
0.45600718 -0.15623873 -0.061347961
-0.45806783 -0.13328466 -0.052984357
-0.43215448 -0.13238427 -0.069695234
0.43147427 -0.13239542 -0.069489002
0.45724785 -0.13329116 -0.052865028
-0.43364424 -0.10951414 -0.059509754
0.43284267 -0.10950937 -0.059613585
-0.40944159 -0.085877433 -0.065165162
0.40872502 -0.085885361 -0.064958453
-0.41104281 -0.062857926 -0.05360961
-0.38570487 -0.062416986 -0.067926288
0.38494802 -0.062408313 -0.068206549
0.41026866 -0.062871672 -0.053162932
-0.38723963 -0.039333776 -0.056198478
-0.362082 -0.039012574 -0.070107579
0.36141896 -0.039020941 -0.069739461
0.3864032 -0.03932929 -0.056391716
-0.36368722 -0.015875742 -0.057075381
-0.33882803 -0.015686154 -0.069385886
0.33809149 -0.015682608 -0.069621563
0.36292589 -0.015881725 -0.056688905
-0.3403576 0.0075546969 -0.056139112
-0.31560105 0.0076484084 -0.068309665
0.31492001 0.007645471 -0.067926168
0.33954132 0.0075549185 -0.056168795
-0.31720614 0.030999597 -0.053416252
-0.29265034 0.030999653 -0.064307928
0.29189873 0.030999653 -0.064322829
0.31637508 0.030999709 -0.053386569
-0.26970196 0.054417789 -0.059613466
-0.24551873 0.054348182 -0.068648815
0.24480076 0.05434807 -0.068663597
0.26891434 0.054417729 -0.059628487
-0.24688427 0.077945098 -0.052522421
-0.22276291 0.077815361 -0.060947895
-0.19884501 0.07770209 -0.068309784
0.19812649 0.077702194 -0.068294883
0.22198376 0.07781475 -0.060992241
0.24605478 0.077947311 -0.05237329
-0.17608413 0.10127462 -0.05872345
-0.15235026 0.10114228 -0.064455986
-0.12873621 0.10102568 -0.069503784
0.12802941 0.10102767 -0.069415212
0.15159979 0.1011415 -0.064485312
0.17528534 0.10127228 -0.058827281
-0.10592234 0.12479023 -0.055782199
-0.082366765 0.12468228 -0.05928731
-0.058893718 0.12461239 -0.061555386
-0.035460204 0.12455171 -0.063524127
-0.012068395 0.1245368 -0.064012289
0.011315897 0.12452949 -0.064248681
0.034706339 0.12456147 -0.063213468
0.058120485 0.12460873 -0.06167388
0.08158201 0.12468782 -0.059109211
0.10510694 0.12479068 -0.055767298
-0.62579823 -0.27575898 -0.036404371
0.62476689 -0.27572581 -0.036735654
-0.55391651 -0.25161651 -0.042311192
0.55295712 -0.25159582 -0.042535901
-0.50616425 -0.22774044 -0.046146512
0.50524515 -0.22772524 -0.046325922
-0.50729185 -0.20473114 -0.039488316
0.50635302 -0.20473239 -0.039473176
0.48086941 -0.18029946 -0.051881552
-0.48309034 -0.15734562 -0.043375611
0.48216975 -0.15734187 -0.043435574
-0.48451447 -0.13427714 -0.034566045
0.48347497 -0.13425606 -0.034957886
-0.45965564 -0.11029191 -0.042670846
0.45878935 -0.11030776 -0.042326093
-0.4351418 -0.086489171 -0.049270511
0.43422204 -0.086474322 -0.049658775
-0.43692899 -0.063367777 -0.037051678
0.43595016 -0.063363507 -0.037187219
-0.41272897 -0.039674602 -0.041440606
0.41184396 -0.039681911 -0.041125417
-0.38900799 -0.016097248 -0.042685986
0.38809317 -0.016097471 -0.042671084
-0.36540592 0.0074544437 -0.043120861
0.36448914 0.0074546654 -0.043150783
-0.34208775 0.030999597 -0.041155577
0.3411836 0.030999597 -0.040930152
-0.31889033 0.054585703 -0.037788987
-0.29414618 0.054496758 -0.049360156
0.2932961 0.05449798 -0.049195766
0.31790584 0.054583378 -0.038089991
-0.271249 0.078093782 -0.042865992
0.27030581 0.078088798 -0.043195844
-0.24830906 0.10180636 -0.035696268
-0.22405218 0.10161 -0.044199944
-0.19997182 0.10142884 -0.052045584
0.19913547 0.10143189 -0.051911354
0.22312434 0.10160241 -0.044529557
0.24736875 0.10181545 -0.035304546
-0.20125598 0.12547609 -0.033510327
-0.17721878 0.12526694 -0.040299535
-0.15331833 0.12507629 -0.04649055
-0.12956254 0.12491853 -0.051613212
0.12871231 0.12491681 -0.051672935
0.15243579 0.12507957 -0.046385646
0.17626512 0.1252563 -0.040645123
-0.10662764 0.14894322 -0.037458062
-0.082929246 0.14880605 -0.041020513
-0.059311137 0.14871135 -0.043480635
-0.035738122 0.14863458 -0.045472741
-0.012206618 0.14861214 -0.046056628
0.011315897 0.14860299 -0.046296
0.034844749 0.14864385 -0.045233369
0.058399204 0.1487079 -0.043570518
0.082001485 0.14880893 -0.040945411
0.10567398 0.14894721 -0.037352681
-0.58112216 -0.25337067 -0.023322701
0.58014333 -0.25341409 -0.022851944
-0.5333885 -0.2295112 -0.025235295
0.53234512 -0.22951502 -0.025189638
-0.53467256 -0.20638672 -0.017982602
0.53352183 -0.20636672 -0.018241763
-0.5084883 -0.18164763 -0.032423496
0.50752681 -0.1816622 -0.032212138
-0.50999612 -0.15856835 -0.023520231
0.50899822 -0.15859368 -0.023110032
-0.48630011 -0.11117636 -0.023520231
0.48519617 -0.11116453 -0.0237782
-0.46125662 -0.087143496 -0.032272577
0.4603371 -0.087163754 -0.031744123
-0.46326435 -0.063916527 -0.019231915
0.46217382 -0.063917801 -0.019186258
-0.43877047 -0.040066689 -0.024461389
0.43773031 -0.040069349 -0.024340034
-0.41470981 -0.016336545 -0.027145386
0.41365767 -0.016334716 -0.027266502
-0.3908515 0.0073426645 -0.028599024
0.38985991 0.0073406156 -0.028326511
-0.36735493 0.030999597 -0.027296782
0.3662796 0.030999597 -0.027645111
-0.3439033 0.054680802 -0.025432348
0.3429094 0.054684848 -0.024916768
-0.32078856 0.078443088 -0.020175815
-0.29583359 0.078253329 -0.032498956
0.29487896 0.078260154 -0.032061219
0.31969553 0.078442648 -0.020206332
-0.27286369 0.10204443 -0.02538681
0.27180868 0.10204316 -0.025447488
-0.2499782 0.12601559 -0.015984893
-0.22552492 0.125736 -0.025068402
0.20028634 0.12548479 -0.03322351
0.22446108 0.12573078 -0.025235295
0.24886538 0.12601936 -0.015862703
-0.17839999 0.14957204 -0.021118999
-0.15432568 0.14931507 -0.027796626
-0.13042238 0.14911491 -0.032997251
0.12942299 0.1491067 -0.03320837
0.15330698 0.14932555 -0.027524114
0.17730747 0.14956507 -0.021301627
-0.10743828 0.17350462 -0.01639688
-0.083575778 0.17333704 -0.020023346
-0.059790693 0.17321274 -0.022715092
-0.03605694 0.1731182 -0.024764895
-0.012365382 0.17308727 -0.025432348
0.011315897 0.17307886 -0.025614381
0.035003953 0.17312801 -0.024552584
0.058719829 0.17321143 -0.022745609
0.082482897 0.17333356 -0.020099521
0.10632441 0.1735124 -0.016229033
-0.65410566 -0.27794611 -0.014549613
0.65308672 -0.27800116 -0.013999701
-0.60915118 -0.25536984 -0.0016810894
0.60788918 -0.25535557 -0.001835227
-0.56141156 -0.23150051 -0.0017427206
0.56027788 -0.23154745 -0.0011882782
-0.53600609 -0.18316993 -0.010450721
0.53477645 -0.18314335 -0.010833621
-0.53771156 -0.15996644 -0.00081837177
0.53645432 -0.15995979 -0.00092625618
-0.51152313 -0.13535824 -0.014504075
0.51047099 -0.13538539 -0.01399982
-0.51353562 -0.11214175 -0.0026203394
0.5123105 -0.11214175 -0.0026203394
-0.48810363 -0.087909713 -0.01236403
0.48695356 -0.087909713 -0.01236403
-0.4902243 -0.06453184 0.00075435638
0.48903263 -0.064543754 0.0011398792
-0.46534127 -0.04049895 -0.0057419538
0.46408403 -0.040490136 -0.006125927
-0.44087791 -0.016599726 -0.010052562
0.43977797 -0.016607322 -0.0095621347
-0.41678554 0.0072161444 -0.01216507
0.41561192 0.0072175302 -0.012333393
0.3918637 0.030999597 -0.01205802
-0.39296609 0.030999653 -0.012440443
-0.36939782 0.054794192 -0.010711193
0.3682332 0.054794081 -0.010726452
-0.34604752 0.078648135 -0.006862998
0.34485674 0.078648247 -0.0068475008
-0.32277179 0.10258981 -0.0017735958
-0.29765272 0.10230008 -0.014320731
0.29652196 0.10230114 -0.014274716
0.3215664 0.10259585 -0.001511693
-0.27470678 0.12634051 -0.0054347515
0.27351898 0.12634617 -0.0052503347
-0.22706237 0.15018874 -0.0050964355
-0.20261936 0.14985251 -0.013831735
0.2014862 0.14985596 -0.013739944
0.22585846 0.15018997 -0.0050657988
-0.17975177 0.17430037 0.00083148479
-0.15549341 0.17397901 -0.006125927
-0.13141213 0.17372775 -0.011568427
0.13024651 0.1737164 -0.011813283
0.15430667 0.17399037 -0.0058801174
0.17850427 0.17430392 0.000908494
-0.08426784 0.19827116 0.0024521351
-0.060303494 0.19811153 -0.00051021576
-0.036398116 0.19799861 -0.0026050806
-0.012535185 0.19795716 -0.0033744574
0.011315897 0.19794807 -0.0035436153
0.035174087 0.19800693 -0.0024510622
0.059062876 0.19811398 -0.00046372414
0.082998358 0.19825873 0.0022203922
-0.68348789 -0.28046414 0.010611892
0.68215752 -0.28046268 0.010596514
-0.63788569 -0.25753447 0.021751642
0.63644791 -0.25752291 0.021626592
-0.5627892 -0.20821089 0.0057141781
0.56162053 -0.20826319 0.0063948631
-0.56428558 -0.1848509 0.013813257
0.56298351 -0.18487033 0.01409328
-0.53943318 -0.13661972 0.0089051723
0.53814036 -0.13662639 0.00902915
-0.54154718 -0.11322554 0.020844936
0.54022348 -0.11324794 0.021329284
-0.51558214 -0.088749938 0.0094636679
0.51418877 -0.088732094 0.008998394
-0.49249136 -0.040972836 0.014778018
0.49118984 -0.040981531 0.015151739
-0.46771812 -0.016903698 0.0096962452
0.46639597 -0.016903531 0.0096806288
-0.44318169 0.0070786513 0.0056986809
0.44191617 0.0070773214 0.0058686733
0.41786838 0.030999541 0.0049095154
-0.41913003 0.030999709 0.0047547817
-0.395271 0.054916497 0.0051724911
0.39395928 0.05491478 0.004956007
-0.37170696 0.078877509 0.0080369711
0.37043738 0.078882501 0.0083627701
-0.34828597 0.10291999 0.012522697
0.34692925 0.10291683 0.012382746
-0.3250832 0.1271136 0.019673467
-0.29974604 0.12671098 0.006596446
0.29842561 0.12670289 0.0063331127
0.32371461 0.1271223 0.019954443
-0.27664733 0.15098429 0.015572071
-0.25173569 0.15056853 0.0047702789
0.2504299 0.15055667 0.0044608116
0.27531779 0.15100051 0.015992641
-0.22881539 0.17507839 0.017676115
-0.20418708 0.17466831 0.0087966919
0.20286074 0.17465821 0.0085796118
0.22745351 0.17509142 0.017956614
-0.15676257 0.19907811 0.017426491
-0.13247319 0.19875357 0.011403918
-0.10830601 0.19847026 0.0061473846
0.10702201 0.19848534 0.0064259768
0.13113594 0.19874763 0.01129508
0.15537955 0.19907382 0.017348647
-0.036773592 0.2233575 0.021782875
-0.012721866 0.22330168 0.020876169
0.011315897 0.22329012 0.020688772
0.035360761 0.22335863 0.021798372
-0.71380514 -0.28321955 0.038145304
0.71220976 -0.28319427 0.037892461
-0.59051073 -0.23380402 0.025461674
0.58908391 -0.23381069 0.025539994
-0.59207112 -0.21035522 0.033569813
0.59063435 -0.21038312 0.03393209
-0.56624663 -0.16152123 0.024427652
0.56476337 -0.16150388 0.024145722
-0.56821519 -0.13803032 0.035083055
0.56664395 -0.13801324 0.034767509
-0.54382807 -0.089683801 0.033727169
0.54236853 -0.089694165 0.033995271
-0.51798379 -0.06523665 0.023644567
0.51653367 -0.065232329 0.023503661
-0.52050108 -0.041520923 0.038508773
0.51900792 -0.041527905 0.038809061
-0.49519324 -0.017239422 0.031491756
0.49364984 -0.017233714 0.031129837
-0.47022259 0.0069227032 0.025963187
0.46883023 0.0069198795 0.026323795
-0.44583863 0.030999597 0.023863673
0.44436193 0.030999597 0.023519397
-0.42159784 0.055050388 0.022564888
0.42024851 0.05505449 0.023096681
-0.39788312 0.079140589 0.025132656
0.39643472 0.079139419 0.025054336
-0.37419122 0.10328215 0.028206825
0.37274337 0.10328503 0.028332472
-0.35086006 0.1275799 0.034814835
0.34937572 0.12758815 0.035082936
-0.30194008 0.15148276 0.028520823
0.30048686 0.15148753 0.028646588
-0.27893263 0.17612389 0.040311337
-0.25373751 0.17557424 0.028410912
0.25227237 0.17557347 0.028395414
0.2773596 0.17611444 0.0401057
-0.20587942 0.19992933 0.033223271
-0.18121073 0.19946039 0.024521589
0.17979272 0.19947645 0.024819255
0.20437549 0.19992673 0.033176064
-0.13363536 0.22426796 0.036566019
-0.10926637 0.22393128 0.031098247
-0.085027054 0.22368556 0.027108192
-0.060867116 0.22348765 0.023895144
0.059439112 0.22349244 0.023973465
0.083568402 0.22367299 0.026904225
0.10778753 0.22394294 0.031287074
0.13211226 0.22427377 0.036660671
-0.66753393 -0.259936 0.0477494
0.66604 -0.25998893 0.048321843
-0.62077385 -0.23642296 0.056389332
0.61900836 -0.23638511 0.055941939
-0.59363657 -0.18678325 0.041704297
0.59219319 -0.18682933 0.042369485
-0.59579903 -0.16327712 0.052940369
0.59422278 -0.16330278 0.053355217
-0.5706141 -0.11448286 0.048067451
0.56902415 -0.1144895 0.048210502
-0.54656702 -0.066023596 0.049196839
0.54485947 -0.066008359 0.048703551
-0.52345347 -0.017615713 0.055941701
0.52182406 -0.017620314 0.056229472
-0.49805284 0.0067439787 0.049180746
0.49642408 0.0067442004 0.049149156
-0.47316355 0.030999653 0.045065165
0.4715876 0.030999653 0.045176148
-0.44864035 0.055207834 0.043019176
0.44708145 0.055208832 0.043146014
-0.42455947 0.079430148 0.043938875
0.4229511 0.079427317 0.043748379
-0.40060586 0.10369169 0.045938253
0.39905781 0.10370123 0.046351194
-0.37711781 0.12810808 0.05196774
0.37545413 0.12810314 0.051808476
-0.35362834 0.15264776 0.058788657
-0.32758212 0.15203467 0.042860746
0.32598156 0.15202492 0.042607188
0.35194606 0.15265326 0.058932781
-0.30445248 0.1767388 0.053626418
0.30282241 0.17675287 0.053929567
-0.25591058 0.20105287 0.054073095
-0.23076633 0.20045707 0.043019176
0.22918332 0.20045197 0.042924166
0.25427485 0.2010709 0.05440855
-0.18282638 0.22514191 0.050756812
-0.1581502 0.22467512 0.043177724
0.15656084 0.22465962 0.042924166
0.18119898 0.22515172 0.050916076
-0.085894726 0.24972349 0.055286884
-0.0615099 0.24947694 0.051728845
-0.037201535 0.24932814 0.049578547
-0.012935225 0.24925971 0.04859221
0.011315897 0.24924868 0.048433185
0.035574488 0.24932697 0.049562812
0.059868883 0.24948809 0.051888108
0.084222391 0.24971911 0.055222869
-0.74533594 -0.28630593 0.068987131
0.74366373 -0.28635111 0.069438338
-0.69847453 -0.26270682 0.077744007
0.69669014 -0.26273215 0.078019381
-0.62258983 -0.21281025 0.065462351
0.62083131 -0.21280652 0.065414071
-0.62441629 -0.18906161 0.074587941
0.62266529 -0.18908614 0.074943542
-0.5980975 -0.13963607 0.064883828
0.59630823 -0.13962314 0.064642787
-0.57311589 -0.090756975 0.061608911
0.5715071 -0.090781026 0.062234402
-0.54946113 -0.042145215 0.065542579
0.54771399 -0.042145602 0.06555903
-0.52674007 0.0065424778 0.07534802
0.52486509 0.006544916 0.075040698
0.49958998 0.030999541 0.069712162
-0.50128073 0.030999653 0.069148183
-0.4763658 0.055383731 0.065864444
0.47458053 0.055381957 0.065639377
-0.45186883 0.079755947 0.065092683
0.45016927 0.079761162 0.065430284
-0.42765999 0.10416231 0.066314578
0.425919 0.10416491 0.066427231
-0.40389645 0.12869662 0.071083069
0.40208614 0.12869224 0.070937872
-0.38020486 0.15334982 0.077031255
0.37841523 0.15336606 0.077452302
-0.33041167 0.1774542 0.069115996
0.32865697 0.1774646 0.06934166
-0.28142238 0.20176357 0.06726408
0.27966344 0.20176622 0.067312241
-0.23289564 0.22636876 0.070679784
-0.20772608 0.22570354 0.059877753
0.20603764 0.22572136 0.060166001
0.23110513 0.22636795 0.070663571
-0.1597461 0.25093642 0.07279408
-0.13496855 0.25042629 0.065430403
-0.11037286 0.25003934 0.059845567
0.10866395 0.25003269 0.059749484
0.13323322 0.25045076 0.065783978
0.1579442 0.25094211 0.072874784
-0.65149927 -0.2390362 0.087249994
0.64953017 -0.23901403 0.086989284
-0.62674195 -0.16532576 0.086207151
0.62499911 -0.16537905 0.087070704
-0.60085315 -0.11592095 0.07920289
0.59897423 -0.11591502 0.079073191
-0.60377884 -0.092019297 0.094404578
0.60187936 -0.092034429 0.094797611
-0.5761987 -0.066919439 0.078294873
0.57436502 -0.066921987 0.078376055
-0.57958061 -0.042862438 0.096600056
0.57755685 -0.042857893 0.096403241
-0.55273658 -0.018048476 0.084042549
0.55096006 -0.018058896 0.084725857
-0.50493789 0.055583127 0.091771126
0.50293082 0.055580303 0.091411591
-0.48000485 0.080131687 0.089500904
0.47813267 0.080138177 0.089925289
-0.45541734 0.10469432 0.0893538
0.45345253 0.10468906 0.089125514
-0.43131649 0.12936242 0.092702985
0.42939401 0.1293709 0.0929811
-0.35685831 0.17826942 0.086761117
0.35494339 0.17826858 0.086745024
-0.3073011 0.20256266 0.082091808
0.30540442 0.20255128 0.081880689
-0.25835192 0.22712162 0.082904339
0.25645596 0.2271117 0.082741857
-0.20990629 0.25222182 0.091346145
-0.18471111 0.25153008 0.081360817
0.18283166 0.2515198 0.081214905
0.20796187 0.25222632 0.091411591
-0.11160105 0.2768335 0.091754913
-0.08686088 0.27644154 0.086663485
-0.062224992 0.27613595 0.0826931
-0.03767636 0.27596095 0.080419421
-0.01317149 0.27587339 0.079283834
0.011315897 0.27586606 0.079186559
0.035811529 0.27595589 0.080354691
0.060347412 0.27615723 0.082969546
0.08494848 0.27644154 0.086663485
0.10964542 0.27682343 0.091624022
-0.73084641 -0.26586527 0.11193597
0.72868401 -0.26584238 0.11168766
-0.65473318 -0.21568519 0.10280895
0.65265697 -0.21566993 0.10261142
-0.65690207 -0.19173977 0.11324418
0.65485466 -0.19176379 0.11359203
-0.62944925 -0.14151403 0.099734426
0.62744892 -0.1415177 0.09980011
-0.60725784 -0.067972168 0.11248231
0.60519868 -0.067980811 0.11276388
-0.55653751 0.0063103847 0.10551035
0.55441862 0.0063131005 0.1051476
-0.530442 0.030999597 0.097206712
0.52852267 0.030999653 0.097665787
-0.40743327 0.15416114 0.098109007
0.40546101 0.15416995 0.098338723
-0.38386899 0.179194 0.10678017
0.38177127 0.17918175 0.10651612
-0.33361417 0.20346469 0.098831058
0.33160484 0.20346281 0.098798394
-0.31040871 0.22898397 0.11314476
-0.2841596 0.22798318 0.096895218
0.28218788 0.22799745 0.097124696
0.30833077 0.22900945 0.11355877
-0.2353778 0.25302401 0.10292423
0.23336761 0.25305134 0.10331917
-0.16153038 0.27792293 0.10590601
-0.13648096 0.27732778 0.098174572
0.13447803 0.2773239 0.098125219
0.15948431 0.27794698 0.10621929
-0.013439678 0.30331096 0.11412239
0.011315897 0.30330947 0.11410582
-0.68292075 -0.24173617 0.1191355
0.68083435 -0.24176717 0.11950123
-0.65958804 -0.16778675 0.12616694
0.65756541 -0.16784647 0.12713587
-0.63265765 -0.11760961 0.11576402
0.6304605 -0.11759504 0.11544871
-0.63612974 -0.093509167 0.13311172
0.63393718 -0.093524575 0.13351417
-0.61126024 -0.043709509 0.13327956
0.60894555 -0.04370413 0.13304472
-0.58338797 -0.018558994 0.117208
0.58134919 -0.018568579 0.11782253
-0.56086379 0.030999541 0.12994528
0.55868626 0.030999597 0.13034689
-0.53459817 0.05581389 0.12174797
0.53241295 0.055813778 0.12173116
-0.5091359 0.080566451 0.11773968
0.50704819 0.080572933 0.11815476
-0.48404831 0.10530426 0.11576402
0.48184401 0.10529351 0.11529958
-0.45955205 0.13012975 0.11762309
0.45748192 0.13014759 0.11820459
-0.43540567 0.15508896 0.1222142
0.43322396 0.15509024 0.12224758
-0.41157323 0.18025461 0.12974453
0.4092921 0.18024057 0.12944329
-0.36047184 0.20450053 0.11805522
0.35834467 0.20451406 0.11830437
-0.33720386 0.2301538 0.13213933
0.33497155 0.23017237 0.13244116
-0.26121032 0.25397575 0.11666024
0.25909129 0.25399753 0.11697567
-0.28745866 0.25508052 0.13260877
0.28519827 0.25508523 0.13267565
-0.21237659 0.27954686 0.12700212
-0.18681855 0.27866781 0.11558151
0.18469426 0.27868304 0.11578059
0.21015573 0.27954933 0.1270355
-0.11300274 0.30450058 0.12817204
-0.087956585 0.30399895 0.12224746
-0.063045487 0.30365807 0.11822128
-0.038216695 0.30342889 0.11551511
0.036080405 0.30340922 0.11528301
0.06089041 0.30365938 0.11823797
0.085776806 0.30402294 0.12253082
0.11077236 0.30450478 0.12822199
-0.76507008 -0.26953685 0.15168202
0.76254356 -0.26949149 0.15119016
-0.68918717 -0.21917999 0.14820814
0.68682915 -0.21919051 0.14834356
-0.66287696 -0.14379102 0.14199078
0.66047788 -0.14377484 0.14168739
-0.58782649 0.0060352329 0.14123225
0.58543134 0.0060380585 0.14087832
-0.53952986 0.081076518 0.15086794
0.5372054 0.081084281 0.15137672
-0.51381528 0.10601828 0.14668548
0.51139128 0.10601079 0.14636421
-0.4888429 0.13103135 0.14690542
0.48656815 0.13105269 0.14759898
-0.46431279 0.15616503 0.15017295
0.46192092 0.15616769 0.15024066
-0.38798994 0.2056959 0.14023805
0.38572341 0.20572323 0.14074349
-0.31420249 0.25635856 0.15105462
0.31178033 0.25634795 0.15090179
-0.23825023 0.28056577 0.14023805
0.23592424 0.28056449 0.14022112
-0.16361398 0.30588925 0.14457297
-0.13820703 0.30512503 0.13554525
0.1359151 0.30511779 0.13546121
0.16124877 0.30587661 0.14442098
-0.71606153 -0.24490213 0.15652382
0.71373606 -0.24495119 0.15710247
-0.69182771 -0.19501084 0.1604588
0.68952811 -0.19507116 0.16132879
-0.66667646 -0.11966536 0.16027129
0.66416329 -0.11965755 0.1601007
-0.64030182 -0.069249339 0.15395677
0.63789421 -0.069252998 0.15407562
-0.61575323 -0.019165993 0.15662587
0.61345953 -0.019179069 0.15747678
-0.59296143 0.030999597 0.16902602
0.59051818 0.030999597 0.16960895
-0.56576556 0.056090094 0.15763021
0.56326354 0.056088101 0.15737486
-0.44015741 0.18149072 0.1565069
0.4376784 0.18148041 0.15628576
-0.4163664 0.20710391 0.16637063
0.41390157 0.20713079 0.16686702
-0.36462718 0.23150256 0.15404165
0.36222905 0.23152143 0.15434754
-0.26453835 0.28177613 0.15596247
0.26207286 0.28175661 0.15570712
-0.21525484 0.30791947 0.16854584
-0.189275 0.3068122 0.1554693
0.18682377 0.30679774 0.15529931
0.21270472 0.30790922 0.16842592
-0.089259386 0.33272555 0.16455734
-0.064003982 0.33227909 0.15972567
-0.038848326 0.33198494 0.15654075
-0.013753777 0.33183569 0.15492535
0.011315897 0.33182949 0.15485752
0.036397353 0.33197713 0.15645564
0.061525214 0.33225542 0.15946996
0.086746968 0.33272389 0.16454005
-0.69528186 -0.17088541 0.17648363
0.69274241 -0.17090458 0.17679393
-0.67087054 -0.09533111 0.18044984
0.6684435 -0.095371015 0.18148613
-0.64514858 -0.044746332 0.17817247
0.64256817 -0.044750653 0.17836213
-0.62121326 0.0056984536 0.18499696
0.61847669 0.0057012811 0.18463337
-0.54513973 0.10687986 0.1839931
0.54243892 0.10687432 0.18375075
-0.51952207 0.13211162 0.18198717
0.51696098 0.13212863 0.1825403
-0.49447036 0.15744612 0.18345678
0.4918381 0.15745273 0.18362963
-0.46989298 0.1829603 0.18832433
0.46714985 0.18294424 0.18797731
-0.39284921 0.23308212 0.17969024
0.39026845 0.23310778 0.18010461
-0.34154546 0.25783896 0.17242408
0.33896595 0.25783423 0.17235541
-0.29129392 0.2831744 0.17412579
0.28868341 0.28315178 0.17383361
-0.24162383 0.30923337 0.18406212
0.23895924 0.30923045 0.18402779
-0.14024282 0.33411711 0.17962146
-0.11465643 0.33333331 0.17113614
0.11209799 0.33334595 0.17127335
0.13762213 0.33413452 0.17981136
-0.80190682 -0.27395886 0.19955182
0.79906291 -0.27393466 0.1992898
-0.75156879 -0.24872485 0.20166659
0.74884921 -0.24875435 0.20201635
-0.72722238 -0.22366875 0.20651805
0.72469366 -0.22377813 0.20793951
-0.69940794 -0.14668131 0.1956265
0.69661689 -0.14667097 0.19543469
-0.67630696 -0.070870444 0.20660579
0.67336941 -0.070854813 0.20609713
-0.65087456 -0.019938137 0.20678127
0.64807796 -0.019941296 0.20699179
-0.59902418 0.056430422 0.20184135
0.59617251 0.056428093 0.20154428
-0.5716458 0.081691884 0.19084156
0.56906676 0.081704244 0.19164109
-0.4458437 0.20878398 0.19754434
0.44312114 0.20880178 0.19787574
-0.36966056 0.25958547 0.19763148
0.36690897 0.25959516 0.19777119
-0.31867349 0.2848376 0.19573104
0.31590378 0.28482282 0.19553959
-0.26848555 0.31080094 0.20257628
0.26567137 0.31079057 0.20245373
-0.19222669 0.33631358 0.20339882
-0.16608195 0.33511028 0.19037259
0.16337681 0.33512139 0.1904943
0.18942605 0.33633131 0.20359135
-0.039618585 0.36207381 0.20657074
-0.014136365 0.3618789 0.20462489
0.011315897 0.36187029 0.20453727
0.036782328 0.36206326 0.2064656
-0.73123813 -0.19944814 0.2245065
0.72814232 -0.19940892 0.22393918
-0.70403504 -0.12228993 0.21709347
0.70139015 -0.12235022 0.21840048
-0.62765539 0.030999597 0.21847105
0.62479681 0.030999541 0.21884203
-0.55222631 0.13346189 0.22583687
0.54917938 0.13344976 0.22544646
-0.52630395 0.15900439 0.22393906
0.52345759 0.15903503 0.22473693
-0.42211443 0.23496678 0.21029353
0.41931957 0.23500153 0.21085632
-0.34682435 0.28681406 0.22140622
0.3438729 0.28681272 0.22138858
-0.29597241 0.31268045 0.22477233
0.29297882 0.31266245 0.22455955
-0.21877006 0.33778083 0.21928382
0.21584982 0.3378005 0.21949601
-0.11670792 0.36386159 0.22443545
-0.090855345 0.36305609 0.21638751
-0.065173425 0.36245337 0.21036375
0.062309321 0.36245686 0.21039903
0.087942295 0.36304727 0.2162993
0.11373823 0.36387217 0.22454178
-0.73581439 -0.17510527 0.24500537
-0.6825316 -0.046094552 0.23655415
0.67963332 -0.046113953 0.23739386
-0.65779287 0.0052646939 0.24134743
0.65489662 0.0052563809 0.24242246
-0.60665745 0.082497336 0.24315751
0.6034292 0.082487747 0.24253011
-0.57867873 0.10795537 0.23056388
0.57574898 0.10796789 0.23109782
-0.50123298 0.18476418 0.22738135
0.49824768 0.18476745 0.2274524
-0.47687137 0.21085814 0.2360363
0.4737547 0.21083692 0.23564351
-0.39880198 0.26169088 0.22802103
0.39584035 0.2617144 0.22835863
-0.24583249 0.33957756 0.23873448
0.24273953 0.33956441 0.23859143
-0.14280564 0.36492956 0.23510814
0.13975258 0.36493501 0.23516178
-0.84278828 -0.27958375 0.26044202
0.83971661 -0.27965057 0.26116693
-0.79070026 -0.2535868 0.25908399
0.78727663 -0.2535193 0.25828755
0.73278755 -0.17513517 0.24549007
-0.71027964 -0.097856812 0.2460649
0.70706922 -0.09784361 0.24572361
-0.63543993 0.056869835 0.25892103
0.63244241 0.056879919 0.26022482
-0.45291066 0.23732257 0.24854553
0.44973087 0.23731264 0.24838352
-0.37600124 0.289211 0.25254381
0.37285465 0.28924149 0.25294042
-0.32426876 0.31495583 0.25164235
0.32109302 0.31496194 0.25171459
-0.2735436 0.34175551 0.26230907
0.27026373 0.34173703 0.26210952
-0.16920598 0.36625457 0.24834764
0.1660639 0.36628687 0.24867141
-0.092286132 0.39360657 0.26285326
-0.06623967 0.39292559 0.2565335
-0.040326662 0.39249754 0.25256157
-0.014490401 0.39228773 0.25061548
0.011315897 0.39228961 0.25063348
0.037137873 0.39250726 0.25265181
0.063022949 0.39294899 0.25675035
0.089018665 0.39361256 0.26290786
-0.74182123 -0.15079209 0.27191281
0.73843557 -0.15078029 0.27169383
-0.71770746 -0.073146589 0.28052604
0.71441329 -0.073162884 0.28105772
-0.69066262 -0.020998735 0.27567458
0.68751109 -0.021015417 0.27675343
-0.56117475 0.16111124 0.27867544
0.55773389 0.16109911 0.27836406
-0.53505772 0.18710631 0.2780894
0.53168583 0.18711054 0.27818096
-0.42942524 0.2643331 0.2661587
0.42612886 0.26433188 0.26614046
-0.19604245 0.36795685 0.26535892
0.19275445 0.36795685 0.26535892
-0.11852059 0.39454177 0.27152979
0.11518116 0.39452785 0.27140212
-0.040725887 0.42131293 0.27849221
-0.014688937 0.42107216 0.27640581
0.011315897 0.42108056 0.27647913
0.037337918 0.4213298 0.27863872
-0.77385366 -0.23072356 0.29816294
0.77083868 -0.23090473 0.3005172
-0.6670059 0.030999597 0.28737843
0.66376096 0.030999541 0.28848338
-0.61635804 0.10945887 0.29566371
0.61272866 0.10944474 0.2950536
-0.58800882 0.13523002 0.28325999
0.58476967 0.13526393 0.2843622
-0.51016986 0.2135196 0.28542805
0.50684303 0.21356216 0.28621888
-0.48600966 0.24039978 0.29851484
0.48255116 0.24043742 0.29912651
-0.40680325 0.29232404 0.29298365
0.40326422 0.29229856 0.2926513
-0.35369241 0.31779176 0.28513396
0.35025769 0.31779647 0.28518915
-0.30212003 0.34443548 0.29132235
0.29866499 0.34447122 0.29170966
-0.22343041 0.37007761 0.28655005
0.21997815 0.37007588 0.28653181
-0.17182148 0.3972744 0.29688513
-0.14500847 0.39575636 0.28280091
0.1415855 0.39575455 0.28278244
0.16830276 0.39730233 0.29714429
-0.11959991 0.42374709 0.29957139
-0.093123548 0.42264748 0.29004955
-0.066853076 0.42184439 0.28309476
0.063428544 0.42184439 0.28309476
0.089643784 0.4226391 0.289976
0.11605254 0.42376193 0.29970121
-0.74931848 -0.12637305 0.30549622
0.74603844 -0.12644094 0.30696678
-0.64687979 0.083655253 0.3183639
0.64313865 0.083651483 0.31812012
-0.46253818 0.26792663 0.31802642
0.45895761 0.26798633 0.31888866
-0.25156754 0.37274811 0.31323493
0.24792393 0.37276679 0.31342185
-0.19910486 0.39923599 0.31508636
0.195426 0.39921975 0.31493664
-0.14636928 0.42521262 0.31226349
0.14272094 0.42521468 0.31228209
-0.8360514 -0.26028284 0.33816135
-0.78168756 -0.20690143 0.33208466
0.77786058 -0.20689356 0.33197117
-0.72851127 -0.048267625 0.33064902
0.72474808 -0.048270673 0.33078122
-0.70173579 0.0045901928 0.32895064
0.69839269 0.0045735147 0.33112133
-0.38490456 0.32156128 0.32964873
0.3811847 0.32161081 0.33023393
-0.33212239 0.34801957 0.33012056
0.32836026 0.34804395 0.33038473
-0.22697067 0.40166774 0.33764935
0.22314836 0.40170637 0.33800972
-0.17352599 0.42708933 0.32851684
0.16975616 0.42710018 0.32861114
0.88836908 -0.28792879 0.35078049
0.83259231 -0.26042101 0.33979297
-0.68039232 0.057603739 0.3542608
0.67635363 0.057601135 0.35391641
-0.57423836 0.19069621 0.35581207
0.5701673 0.19067138 0.35527575
-0.44029444 0.29665276 0.34921479
0.43629986 0.29661465 0.34871864
-0.28084278 0.37627795 0.34850872
0.27697349 0.37635449 0.34927213
-0.20122074 0.42950585 0.34944379
0.19728236 0.42949924 0.34938657
-0.76125318 -0.10220195 0.35895705
0.75791961 -0.10232248 0.36208844
-0.60221773 0.16437638 0.36351204
0.59835994 0.16441876 0.36460912
-0.54857785 0.21763083 0.36172318
0.5445717 0.21763915 0.36187685
-0.25573152 0.40486601 0.36732662
0.25168663 0.40490961 0.36773169
-0.79257953 -0.18337247 0.37924802
0.78813744 -0.18329599 0.37800562
-0.63250798 0.13830358 0.3830781
0.62822419 0.13828802 0.38257205
-0.5243395 0.2452617 0.37746227
0.52012318 0.24523428 0.37701619
-0.3646512 0.353257 0.38681865
0.36045945 0.35328591 0.38713074
-0.22968331 0.43266499 0.37680304
0.22554578 0.43268061 0.3769387
-0.50186896 0.27408707 0.40694559
0.49770981 0.27419654 0.40852451
-0.42004412 0.32755962 0.40048599
0.41573864 0.32757622 0.40068269
-0.31238401 0.38167444 0.40243328
0.30805248 0.38168833 0.40257108
-0.28591985 0.40929961 0.40846539
0.28155756 0.409338 0.40882087
-0.6682108 0.11254291 0.42920303
-0.25993448 0.43787509 0.42192495
0.25545365 0.43789586 0.422104
-0.75257242 -0.023563836 0.44227898
