ply
format ascii 1.0
comment PCL generated
element vertex 1326
property float x
property float y
property float z
element camera 0
property float view_px
property float view_py
property float view_pz
property float x_axisx
property float x_axisy
property float x_axisz
property float y_axisx
property float y_axisy
property float y_axisz
property float z_axisx
property float z_axisy
property float z_axisz
property float focal
property float scalex
property float scaley
property float centerx
property float centery
property int viewportx
property int viewporty
property float k1
property float k2
end_header
0.10101298 -0.42673126 -0.23268855
0.12335723 -0.42726246 -0.23022437
0.14573963 -0.42779461 -0.2277559
0.16816023 -0.42832753 -0.22528315
0.19061917 -0.42886141 -0.22280645
0.21311654 -0.42939612 -0.22032547
-0.21146348 -0.40714106 -0.21989477
-0.18894365 -0.4066253 -0.22237647
-0.16646317 -0.4061133 -0.22483981
-0.14402008 -0.40559927 -0.22731316
-0.12161525 -0.40508607 -0.22978234
-0.099248603 -0.40457359 -0.23224711
-0.07692048 -0.40406516 -0.23469388
0.078717269 -0.40406516 -0.23469388
0.101027 -0.40457669 -0.23223305
0.1233748 -0.40508893 -0.22976816
0.14576073 -0.40560213 -0.22729897
0.16818413 -0.4061133 -0.22483981
0.19064654 -0.40662822 -0.22236216
0.21314737 -0.40714404 -0.21988034
-0.21149887 -0.38488522 -0.2194351
-0.18897544 -0.3843883 -0.22191787
-0.1664905 -0.38389227 -0.22439611
-0.14404394 -0.38339707 -0.22687018
-0.12163634 -0.38290557 -0.22932589
-0.099266149 -0.38241211 -0.2317915
-0.076934047 -0.38191935 -0.23425305
0.078727454 -0.38191935 -0.23425305
0.1010406 -0.38241211 -0.2317915
0.12339181 -0.38290557 -0.22932589
0.14578119 -0.38339993 -0.22685587
0.16820881 -0.38389519 -0.22438169
0.19067478 -0.38439116 -0.22190344
0.21317822 -0.38488522 -0.2194351
-0.18900624 -0.36214158 -0.22147322
-0.1665187 -0.36166725 -0.22393799
-0.14406858 -0.36119083 -0.22641289
-0.12165677 -0.36071536 -0.22888362
-0.099283144 -0.36024073 -0.23135018
-0.076947615 -0.35976675 -0.23381245
-0.054654367 -0.35932925 -0.23608589
0.056461874 -0.35932925 -0.23608589
0.078737959 -0.35976955 -0.23379815
0.10105464 -0.36024353 -0.23133588
0.12340882 -0.36071536 -0.22888362
0.14580165 -0.36119083 -0.22641289
0.16823272 -0.36166725 -0.22393799
0.19070214 -0.36214426 -0.22145879
-0.18910962 -0.3400816 -0.21998072
-0.16662104 -0.33965746 -0.22227621
-0.14416723 -0.3392314 -0.2245822
-0.12174911 -0.338806 -0.2268846
-0.09936709 -0.338384 -0.22916901
-0.07701993 -0.33796003 -0.23146403
-0.054708183 -0.33753666 -0.23375547
-0.03243199 -0.33711657 -0.23602915
0.034239065 -0.33711657 -0.23602915
0.056497972 -0.33753935 -0.23374116
0.078791864 -0.33796003 -0.23146403
0.10112135 -0.338384 -0.22916901
0.12348633 -0.33880857 -0.2268703
0.14588621 -0.3392314 -0.2245822
0.16832227 -0.33965746 -0.22227621
0.19079408 -0.34008417 -0.21996653
-0.16676594 -0.31774446 -0.2199235
-0.14429459 -0.31733802 -0.22221887
-0.12185808 -0.31692967 -0.22452486
-0.099457219 -0.31652209 -0.2268275
-0.07709191 -0.31611511 -0.22912598
-0.054762416 -0.31571123 -0.23140717
-0.032467868 -0.31530544 -0.23369861
-0.010208742 -0.31490287 -0.23597229
0.012015381 -0.31490287 -0.23597229
0.034257006 -0.31530544 -0.23369861
0.05653391 -0.31571123 -0.23140717
0.078846179 -0.31611761 -0.22911203
0.1011939 -0.3165246 -0.22681296
0.1235766 -0.31692967 -0.22452486
0.14599536 -0.31733802 -0.22221887
0.16844983 -0.31774697 -0.21990907
-0.14442137 -0.29540652 -0.21986592
-0.12196658 -0.29501528 -0.22217596
-0.099548049 -0.29462713 -0.22446764
-0.077164464 -0.29423723 -0.22677028
-0.05481641 -0.29384789 -0.22906923
0.056570128 -0.29385033 -0.22905469
0.078900263 -0.29423723 -0.22677028
0.10126612 -0.29462713 -0.22446764
0.12366757 -0.29501772 -0.22216153
0.14610471 -0.29540899 -0.21985149
-0.032504026 -0.29346165 -0.23135006
-0.010226681 -0.29307359 -0.23364162
0.012015381 -0.29307359 -0.23364162
0.034275085 -0.29346165 -0.23135006
-0.12207592 -0.27306771 -0.21980858
-0.099638462 -0.27269423 -0.2221185
-0.077237122 -0.27232382 -0.22441041
-0.054874122 -0.27197468 -0.22657013
-0.032544859 -0.27163059 -0.22869813
-0.010248381 -0.27128714 -0.23082292
0.012015381 -0.27128714 -0.23082292
0.034295499 -0.27163059 -0.22869813
0.056608379 -0.27197468 -0.22657013
0.078954756 -0.27232382 -0.22441041
0.10133889 -0.27269667 -0.22210419
0.12375868 -0.27307004 -0.21979415
-0.077367328 -0.25066161 -0.22018194
-0.054972291 -0.25033259 -0.22231913
-0.032610212 -0.25000405 -0.22445345
-0.010281009 -0.24967599 -0.22658443
0.012015381 -0.24967599 -0.22658443
0.034328178 -0.25000405 -0.22445345
0.056673829 -0.25033259 -0.22231913
0.079052411 -0.25066161 -0.22018194
-0.032675534 -0.22831184 -0.22021043
-0.010313624 -0.22799924 -0.22234797
0.012015381 -0.22799924 -0.22234797
0.034360837 -0.22831184 -0.22021043
-0.23417178 -0.43040636 -0.2156384
0.23582412 -0.43041262 -0.21560967
-0.25738108 -0.40989015 -0.2066685
-0.23427302 -0.40827414 -0.21444285
0.23591617 -0.40828028 -0.214414
0.25896457 -0.40989617 -0.20663941
-0.25749356 -0.38768408 -0.20545077
-0.23437437 -0.38612393 -0.21324611
0.23600829 -0.38612965 -0.21321726
0.25906768 -0.38768998 -0.20542181
-0.25760478 -0.36545679 -0.20424676
-0.234477 -0.36395815 -0.21203399
0.23610161 -0.36396369 -0.21200514
0.25916964 -0.36546227 -0.20421779
-0.21153316 -0.36261949 -0.21898985
0.21321006 -0.36262217 -0.21897554
-0.25771612 -0.34321114 -0.20304167
-0.23460788 -0.34183523 -0.21048844
-0.21163495 -0.34050897 -0.21766746
0.21330266 -0.34051421 -0.21763885
0.23622058 -0.3418406 -0.21045971
0.25927293 -0.34321913 -0.20299804
-0.23487738 -0.31997845 -0.20730579
-0.21187875 -0.31870458 -0.21450043
-0.18927388 -0.31815407 -0.21761
0.19094007 -0.31815663 -0.2175957
0.21352211 -0.31870976 -0.21447158
0.23646557 -0.31998357 -0.20727682
-0.23514871 -0.2980763 -0.20410144
-0.2121242 -0.29685518 -0.21131206
-0.18943842 -0.29619077 -0.21523523
-0.16691194 -0.29579827 -0.21755242
0.1685776 -0.29580072 -0.217538
0.19108544 -0.29619077 -0.21523523
0.213743 -0.29686007 -0.21128297
0.23671225 -0.29808125 -0.20407248
-0.21237016 -0.27495775 -0.20811665
-0.18960221 -0.27418914 -0.21287096
-0.16705821 -0.27381629 -0.21517754
-0.14454915 -0.27344164 -0.21749496
0.14621356 -0.27344164 -0.21749496
0.16870479 -0.27381629 -0.21517754
0.19123192 -0.27419156 -0.21285665
0.21396439 -0.27496246 -0.20808768
-0.21266808 -0.25311503 -0.20424664
-0.18983939 -0.2523143 -0.20944774
-0.16727848 -0.2519829 -0.21160078
-0.14475089 -0.25165185 -0.21375084
-0.12225655 -0.25132123 -0.21589768
-0.099795394 -0.25099126 -0.2180413
0.101464 -0.25099126 -0.2180413
0.12390866 -0.25132123 -0.21589768
0.14638649 -0.25165185 -0.21375084
0.1688983 -0.25198504 -0.21158636
0.19144276 -0.25231653 -0.2094332
0.21423252 -0.25311956 -0.20421755
-0.19013739 -0.23051503 -0.20514619
-0.16754299 -0.23019928 -0.20730567
-0.14498121 -0.22988167 -0.20947671
-0.12245368 -0.22956681 -0.21162975
-0.099959426 -0.22925249 -0.21377957
-0.077498354 -0.22893837 -0.21592641
-0.055070415 -0.22862488 -0.21807015
0.056739248 -0.22862488 -0.21807015
0.079150684 -0.22893837 -0.21592641
0.10159522 -0.22925249 -0.21377957
0.12407349 -0.22956899 -0.2116152
0.14658457 -0.22988397 -0.20946205
0.16912897 -0.23019928 -0.20730567
0.19170676 -0.23051503 -0.20514619
-0.16780737 -0.20834938 -0.20301247
-0.14521299 -0.20804968 -0.20517528
-0.12265208 -0.20775047 -0.20733464
-0.10012449 -0.20745161 -0.20949113
-0.077630222 -0.20715332 -0.21164417
-0.055169173 -0.20685542 -0.21379423
-0.032741267 -0.20655796 -0.21594095
-0.010346442 -0.20626092 -0.21808445
0.012015381 -0.20626092 -0.21808445
0.034393705 -0.20655796 -0.21594095
0.056805082 -0.20685542 -0.21379423
0.079249583 -0.20715332 -0.21164417
0.10172728 -0.20745161 -0.20949113
0.12423825 -0.20775047 -0.20733464
0.14678256 -0.20804968 -0.20517528
0.16936031 -0.20834938 -0.20301247
-0.12285037 -0.18586773 -0.20304167
-0.10028949 -0.18558478 -0.20520425
-0.07776247 -0.18530399 -0.2073493
-0.055272222 -0.18504447 -0.20933199
-0.032812312 -0.18478343 -0.21132648
-0.010383134 -0.18452284 -0.21331835
0.012015381 -0.18452284 -0.21331835
0.034429226 -0.18478343 -0.21132648
0.05687378 -0.18504447 -0.20933199
0.079349108 -0.18530586 -0.20733476
0.10185973 -0.18558663 -0.20518959
0.12440406 -0.18586957 -0.20302701
-0.055416144 -0.16338292 -0.20309985
-0.032908134 -0.1631363 -0.20510268
-0.010431088 -0.16289172 -0.20708847
0.012015381 -0.16289172 -0.20708847
0.034477137 -0.1631363 -0.20510268
0.056969732 -0.16338292 -0.20309985
-0.30397129 -0.41315106 -0.1909796
-0.28061441 -0.41151777 -0.19883776
0.28213787 -0.41152373 -0.19880867
0.3054345 -0.41315708 -0.19095039
-0.30410394 -0.39082679 -0.18974888
-0.28073546 -0.38924977 -0.19762814
0.2822496 -0.38925567 -0.19759893
0.30555764 -0.39083263 -0.18971968
-0.3042351 -0.36848119 -0.18853164
-0.28085661 -0.36696354 -0.19641757
0.28236279 -0.36697194 -0.19637382
0.30567947 -0.36848679 -0.18850243
-0.30436638 -0.34611681 -0.1873138
0.30580136 -0.34612229 -0.18728435
-0.28097934 -0.34466144 -0.1951915
0.28247473 -0.34466687 -0.1951623
-0.30456272 -0.32384065 -0.18549192
-0.28121918 -0.32254782 -0.19279456
-0.25799146 -0.3212612 -0.20006096
0.25952286 -0.32126376 -0.2000463
0.28269613 -0.32255289 -0.19276524
0.30598366 -0.32384595 -0.18546259
-0.28154159 -0.3005369 -0.18957305
-0.25828758 -0.29930353 -0.19685543
0.25979555 -0.29930848 -0.1968261
0.28299373 -0.30054179 -0.1895436
-0.28186616 -0.27847975 -0.18632972
-0.25858569 -0.27729991 -0.19362807
-0.23542064 -0.27612606 -0.2008903
0.23695947 -0.27613065 -0.20086133
0.26006883 -0.27730477 -0.19359875
0.28329334 -0.27848458 -0.1863004
-0.25888312 -0.25524551 -0.19040847
-0.23570302 -0.25414529 -0.1975553
0.2372162 -0.25414976 -0.19752622
0.2603415 -0.2552501 -0.19037914
-0.2593264 -0.2333726 -0.18560958
-0.23614334 -0.23238593 -0.19235563
-0.21306539 -0.23140165 -0.19908535
0.21459009 -0.23140585 -0.19905627
0.23761533 -0.23238802 -0.19234097
0.2607466 -0.23337469 -0.18559504
-0.23658395 -0.21054709 -0.18715215
-0.2134641 -0.2096113 -0.19390583
-0.19045141 -0.2086817 -0.20061386
0.19198766 -0.20868579 -0.20058489
0.21494895 -0.20961523 -0.19387662
0.23801591 -0.21054918 -0.18713748
-0.21386425 -0.18774354 -0.18870795
-0.19080989 -0.18686256 -0.19543958
-0.16807255 -0.18643498 -0.19870675
-0.14544468 -0.18615121 -0.20087564
0.14698184 -0.18615305 -0.20086122
0.16959311 -0.18643698 -0.19869196
0.19230632 -0.18686631 -0.19541049
0.2153091 -0.18774742 -0.1886785
-0.19124174 -0.16509423 -0.18920636
-0.16841954 -0.16461805 -0.19307244
-0.14575648 -0.16436955 -0.1950891
-0.12312531 -0.16412336 -0.19708872
-0.10052445 -0.16387561 -0.1990999
-0.077955082 -0.16362998 -0.20109403
0.079493232 -0.16362998 -0.20109403
0.10204724 -0.16387561 -0.1990999
0.12463263 -0.16412336 -0.19708872
0.1472491 -0.16437137 -0.19507456
0.16989674 -0.16461977 -0.19305778
0.19269019 -0.16509768 -0.18917716
-0.16880855 -0.14279303 -0.18675566
-0.14609641 -0.14255911 -0.18878114
-0.1234156 -0.14232555 -0.19080377
-0.10076602 -0.14209226 -0.19282377
-0.078148074 -0.14186111 -0.19482625
-0.055560686 -0.14162844 -0.19684076
-0.033004589 -0.14139783 -0.19883788
-0.010479138 -0.14116591 -0.20084655
0.012015381 -0.14116591 -0.20084655
0.034525365 -0.14139783 -0.19883788
0.057066094 -0.14162844 -0.19684076
0.079637975 -0.14186111 -0.19482625
0.10224095 -0.14209396 -0.19280922
0.12487508 -0.14232722 -0.19078922
0.14753978 -0.14255911 -0.18878114
0.17023633 -0.14279303 -0.18675566
-0.12370781 -0.1204356 -0.18447721
-0.1010092 -0.12021697 -0.18650591
-0.078341901 -0.1199986 -0.18853188
-0.055706196 -0.11978215 -0.19054019
-0.033101235 -0.11956447 -0.19256043
-0.010527394 -0.11934698 -0.19457793
0.012015381 -0.11934698 -0.19457793
0.034573689 -0.11956447 -0.19256043
0.057163097 -0.11978215 -0.19054019
0.079783678 -0.12000024 -0.18851721
0.10243504 -0.12021697 -0.18650591
0.12511805 -0.1204356 -0.18447721
-0.033207119 -0.097694427 -0.18568313
-0.010581621 -0.097509146 -0.18753397
0.012015381 -0.097509146 -0.18753397
0.034626629 -0.097694427 -0.18568313
-0.32745403 -0.4147931 -0.18307912
0.32885826 -0.41480222 -0.18303502
-0.35121691 -0.39400068 -0.17389178
-0.32759693 -0.39240947 -0.18184173
0.32899001 -0.39241531 -0.18181217
0.35254905 -0.39400652 -0.17386222
-0.35137028 -0.37153819 -0.17264676
-0.3277382 -0.37000415 -0.18061817
0.32912192 -0.37000969 -0.1805886
0.35269284 -0.37154391 -0.1726172
-0.35152191 -0.34905407 -0.17141533
-0.32788134 -0.34758285 -0.17937863
0.32925546 -0.34758833 -0.17934918
0.352835 -0.34905955 -0.17138577
-0.35167372 -0.32655117 -0.17018306
-0.32802287 -0.32514015 -0.17815292
0.32938758 -0.32514533 -0.17812335
0.35297906 -0.3265591 -0.17013848
-0.35200518 -0.30427644 -0.16749191
-0.32840031 -0.30302444 -0.1748842
-0.30491164 -0.30177638 -0.18225431
0.30630767 -0.30178121 -0.18222487
0.32973984 -0.30302951 -0.17485452
0.35328808 -0.30428144 -0.16746223
-0.32877687 -0.28085729 -0.17162311
-0.30526292 -0.27966553 -0.17899477
0.30663389 -0.27967033 -0.17896521
0.3300913 -0.28086209 -0.17159343
-0.32915422 -0.25864097 -0.16835487
0.33044356 -0.25864556 -0.16832507
-0.3056134 -0.25750348 -0.17574275
-0.28218997 -0.25637177 -0.18309379
0.28359225 -0.25637624 -0.18306446
0.30695933 -0.25750813 -0.17571318
-0.30601418 -0.23535979 -0.17202377
-0.28261644 -0.23436391 -0.17883229
0.28398594 -0.23436812 -0.17880285
0.30733153 -0.23536405 -0.17199397
-0.30658281 -0.21337441 -0.16674781
-0.283142 -0.21242759 -0.17358077
-0.25980929 -0.21148518 -0.18038201
0.2611905 -0.2114892 -0.18035245
0.28447106 -0.21243164 -0.17355108
0.30785951 -0.21337855 -0.16671789
-0.28366944 -0.19041276 -0.16831028
-0.2602939 -0.18951958 -0.17513597
-0.23702614 -0.18863052 -0.18193007
0.23841791 -0.18863243 -0.1819154
0.26163474 -0.18952355 -0.17510629
0.28495795 -0.19041681 -0.16828048
-0.26078027 -0.16747567 -0.16987109
-0.23746991 -0.16663578 -0.17668951
-0.21430549 -0.16586155 -0.18297613
0.21570519 -0.16586336 -0.18296123
0.23882134 -0.1666376 -0.17667472
0.26208055 -0.1674794 -0.16984129
-0.23808251 -0.14479077 -0.16945493
-0.21486345 -0.14406639 -0.17572796
-0.19174178 -0.14334342 -0.18198907
0.1931347 -0.14334682 -0.18195963
0.21620736 -0.14406815 -0.17571318
0.23937941 -0.14479417 -0.16942525
-0.21542415 -0.12216353 -0.16844404
-0.19224426 -0.12148538 -0.17473614
-0.16919835 -0.12087211 -0.18042624
-0.14643779 -0.12065455 -0.18244576
0.14783239 -0.12065455 -0.18244576
0.17057818 -0.12087369 -0.1804117
0.19358134 -0.12148851 -0.17470658
0.216712 -0.12216508 -0.16842926
-0.19274926 -0.099519312 -0.16744733
-0.16960986 -0.098889142 -0.17374372
-0.14677987 -0.098653555 -0.17609787
-0.1240006 -0.098449439 -0.17813802
-0.10125626 -0.098254293 -0.18008709
-0.078544267 -0.098067075 -0.18195963
-0.055861503 -0.097881258 -0.183815
0.057266634 -0.097881258 -0.183815
0.079935111 -0.098067075 -0.18195963
0.10263269 -0.098254293 -0.18008709
0.1253626 -0.098450899 -0.17812324
0.14812629 -0.098655045 -0.17608309
0.17093909 -0.098892212 -0.17371392
0.19403024 -0.099522322 -0.16741753
-0.14722034 -0.076723635 -0.16792345
-0.12438587 -0.076550603 -0.16979682
-0.10157975 -0.076376438 -0.17168248
-0.078803182 -0.076203883 -0.17355096
-0.056055106 -0.076030105 -0.17543197
-0.033336248 -0.075857937 -0.1772958
-0.01064599 -0.075684637 -0.17917192
0.012015381 -0.075684637 -0.17917192
0.034691196 -0.075857937 -0.1772958
0.0573957 -0.076030105 -0.17543197
0.080129303 -0.076203883 -0.17355096
0.10289148 -0.076376438 -0.17168248
0.1256831 -0.076550603 -0.16979682
0.14850385 -0.076725096 -0.16790867
-0.056250155 -0.054055125 -0.16698599
-0.033465888 -0.053895146 -0.16887522
-0.010710844 -0.053736672 -0.1707474
0.012015381 -0.053736672 -0.1707474
0.034756016 -0.053895146 -0.16887522
0.057525739 -0.054055125 -0.16698599
-0.39884412 -0.39721182 -0.15784752
-0.37496689 -0.39560333 -0.16588402
0.37623763 -0.39560929 -0.16585422
0.40005323 -0.39721784 -0.1578176
-0.39901644 -0.37462565 -0.15660369
-0.37512878 -0.37307778 -0.16464686
0.37638998 -0.3730835 -0.16461718
0.40021604 -0.37463143 -0.15657365
-0.39919102 -0.35202327 -0.15534401
-0.37529078 -0.35053328 -0.16340899
0.37654433 -0.3505415 -0.16336405
0.40038088 -0.35202888 -0.15531397
-0.39936364 -0.32939908 -0.15409815
0.40054393 -0.32940438 -0.15406811
-0.3754549 -0.3279725 -0.16215503
0.37669694 -0.32797793 -0.16212511
-0.39957389 -0.30680171 -0.15258074
-0.3757287 -0.30553469 -0.16006255
0.37695467 -0.30553964 -0.16003275
0.40074053 -0.30680427 -0.1525656
-0.40003264 -0.28447077 -0.14927006
-0.37616172 -0.28326103 -0.15675366
-0.35240886 -0.28205487 -0.16421461
0.35366651 -0.2820597 -0.16418469
0.37736037 -0.28326342 -0.15673888
0.40117577 -0.28447568 -0.14924002
-0.37659377 -0.26093528 -0.1534524
-0.35281524 -0.25978646 -0.1609149
0.35404754 -0.25979105 -0.16088498
0.37776884 -0.26093996 -0.15342236
-0.37702677 -0.23855996 -0.1501435
-0.35322076 -0.23746604 -0.15762281
-0.32953417 -0.2363776 -0.16506445
0.33079818 -0.23638198 -0.16503453
0.3544277 -0.2374703 -0.15759289
0.37817639 -0.23856431 -0.15011346
-0.35379177 -0.21528125 -0.15298653
-0.33013245 -0.21432555 -0.15988314
0.33135659 -0.21432966 -0.15985334
0.35496303 -0.21528533 -0.15295649
-0.33074844 -0.1922138 -0.15454865
-0.30715504 -0.19131219 -0.16143799
0.30838943 -0.19131419 -0.16142309
0.33192989 -0.19221574 -0.15453362
-0.33136493 -0.17002046 -0.14920986
-0.30772775 -0.16916889 -0.15612388
-0.28419876 -0.16831937 -0.16302097
0.28544655 -0.16832301 -0.16299117
0.30892122 -0.16917074 -0.15610886
0.3325069 -0.17002422 -0.1491797
-0.3083398 -0.14698586 -0.15044487
-0.28482145 -0.14625216 -0.1567986
-0.26140201 -0.14551991 -0.16314018
0.26265049 -0.14552328 -0.16311049
0.28601998 -0.14625385 -0.1567837
0.30949104 -0.14698929 -0.15041459
-0.28555977 -0.1242137 -0.14942074
-0.26208067 -0.12352684 -0.15579402
-0.23870192 -0.12284291 -0.16214001
0.23994252 -0.12284616 -0.16211009
0.26327258 -0.12353 -0.1557641
0.28670153 -0.12421533 -0.14940548
-0.23932444 -0.10078606 -0.15478885
-0.21598765 -0.10015213 -0.16112411
0.21721916 -0.10015351 -0.16110921
0.24050844 -0.10078904 -0.15475881
-0.21659441 -0.078079969 -0.15324187
-0.19333035 -0.077542394 -0.15906024
-0.17015722 -0.077006996 -0.16485572
0.17141804 -0.077009797 -0.16482592
0.19454674 -0.077545196 -0.1590302
0.21776526 -0.07808122 -0.15322697
-0.19398566 -0.05552718 -0.14960158
-0.17073838 -0.055034578 -0.15541899
-0.14767779 -0.054694563 -0.15943432
-0.12477677 -0.05453375 -0.16133332
-0.10190566 -0.054374456 -0.16321492
-0.079063125 -0.05421406 -0.16510904
0.080324605 -0.054215342 -0.16509414
0.10315222 -0.054374456 -0.16321492
0.12600942 -0.054535002 -0.16131842
0.14889526 -0.054694563 -0.15943432
0.17192574 -0.055035889 -0.15540397
0.19512928 -0.055529684 -0.14957142
-0.14813706 -0.032537431 -0.15091121
-0.12517062 -0.032391429 -0.15280616
-0.10223287 -0.032244608 -0.15471375
-0.079325028 -0.032099113 -0.15660381
-0.056446329 -0.031953841 -0.15849137
-0.033596504 -0.031807587 -0.16039157
-0.010776068 -0.031662628 -0.16227436
0.012015381 -0.031662628 -0.16227436
0.034821324 -0.031807587 -0.16039157
0.057656519 -0.031953841 -0.15849137
0.080520682 -0.032099113 -0.15660381
0.10341445 -0.032245815 -0.15469873
0.12633705 -0.032391429 -0.15280616
0.14928961 -0.032538474 -0.15089619
-0.033745941 -0.0096741021 -0.15068543
-0.010851962 -0.0095542222 -0.15241539
0.012015381 -0.0095542222 -0.15241539
0.034896042 -0.0096741021 -0.15068543
-0.44779345 -0.37850913 -0.13642466
-0.42303661 -0.37618491 -0.14850163
0.42417404 -0.37619075 -0.14847136
0.44884261 -0.37852088 -0.13636374
-0.44827354 -0.35609481 -0.13330626
-0.42321965 -0.35351869 -0.14725006
0.42434746 -0.35352418 -0.1472199
0.44929874 -0.35610607 -0.13324535
-0.42355308 -0.3310152 -0.14497042
0.42466754 -0.33102587 -0.14490998
-0.42400658 -0.3086156 -0.14186978
0.42509717 -0.30862597 -0.14180934
-0.42468747 -0.28641975 -0.13721466
0.42574018 -0.28642714 -0.13716888
-0.42546186 -0.26425055 -0.13191986
-0.40056145 -0.26216689 -0.14545369
0.40167916 -0.26217607 -0.14539337
0.42647594 -0.26425987 -0.13185894
-0.40129313 -0.24001825 -0.14017308
0.40236825 -0.24002486 -0.14012766
-0.40202534 -0.2177889 -0.13488901
-0.37756345 -0.21624345 -0.1460427
0.37867963 -0.21624544 -0.14602768
0.40306178 -0.21779725 -0.13482821
-0.37835139 -0.19411486 -0.14002156
-0.35445189 -0.19311959 -0.147627
0.35558191 -0.19312355 -0.14759696
0.37942499 -0.19412091 -0.13997602
-0.3793219 -0.17206553 -0.13260567
0.38034031 -0.1720731 -0.13254464
-0.35511252 -0.170876 -0.14226353
0.35620126 -0.17087969 -0.14223313
-0.35577554 -0.14855221 -0.13688028
-0.3319836 -0.14774707 -0.14385188
0.33308434 -0.14775056 -0.14382172
0.35682285 -0.14855561 -0.13685012
-0.33282018 -0.12559471 -0.13660693
-0.30913836 -0.12490183 -0.14303505
0.31023258 -0.12490517 -0.14300489
0.33386517 -0.12559795 -0.13657653
-0.3099409 -0.10270748 -0.13558865
-0.28630179 -0.10206524 -0.14200604
-0.26276264 -0.10142434 -0.14841104
0.26389778 -0.10142732 -0.14838099
0.28738645 -0.10206681 -0.1419909
0.31097779 -0.10271052 -0.13555825
-0.28704602 -0.079804897 -0.13456941
-0.26344803 -0.079211533 -0.14099145
-0.23995002 -0.07861951 -0.14740086
0.24107715 -0.078622192 -0.1473707
0.26452479 -0.079212934 -0.14097631
0.28807482 -0.079807609 -0.13453913
-0.26428041 -0.057019204 -0.1319809
-0.24075599 -0.056519508 -0.13788271
-0.2173254 -0.056022972 -0.14374614
0.21842316 -0.056024253 -0.143731
0.2418099 -0.056522071 -0.13785231
0.26528782 -0.057020605 -0.13196564
-0.21806112 -0.033824608 -0.13418913
-0.19464517 -0.033370942 -0.14008236
-0.17132233 -0.032920271 -0.14593697
0.1724367 -0.032921463 -0.14592183
0.19571552 -0.033373341 -0.14005184
0.21908528 -0.0338258 -0.13417399
-0.17191002 -0.01066424 -0.13639414
-0.14861938 -0.010278597 -0.14196062
-0.1255884 -0.01015377 -0.14376116
-0.10258754 -0.010033384 -0.14549899
-0.079613976 -0.0099141896 -0.1472199
-0.05666659 -0.0097941011 -0.14895368
0.057803363 -0.0097941011 -0.14895368
0.080737397 -0.0099141896 -0.1472199
0.10369819 -0.010034382 -0.14548409
0.12668578 -0.010154858 -0.14374614
0.14970303 -0.010279551 -0.14194548
0.17295092 -0.010665342 -0.136379
-0.12609027 0.012110963 -0.13289487
-0.10300588 0.012217924 -0.13463044
-0.079947792 0.012325466 -0.136379
-0.056916662 0.012433022 -0.13812554
-0.033912454 0.012540475 -0.13986993
-0.010935123 0.012647837 -0.14161253
0.012015381 0.012647837 -0.14161253
0.034979299 0.012540475 -0.13986993
0.057970073 0.012433022 -0.13812554
0.080987759 0.012325466 -0.136379
0.10403239 0.012217924 -0.13463044
0.12710401 0.01211004 -0.13287985
-0.47369754 -0.3588486 -0.11840093
0.4746086 -0.35885993 -0.11833942
-0.47420776 -0.33627829 -0.11524475
-0.44875464 -0.33363375 -0.13018131
0.44975582 -0.33364442 -0.1301204
0.47509453 -0.3362892 -0.11518312
-0.44923675 -0.31112537 -0.12705004
0.45021382 -0.31113586 -0.12698889
-0.44976705 -0.28861964 -0.12360549
0.45071539 -0.28862712 -0.12355947
-0.45059204 -0.2663556 -0.11824703
0.45149916 -0.2663627 -0.1182009
-0.42624125 -0.24200469 -0.12659121
0.42721221 -0.24201152 -0.12654531
-0.42702341 -0.21967962 -0.12124336
0.42795324 -0.21968603 -0.12119722
-0.42792782 -0.19738156 -0.11505985
-0.40303528 -0.19574046 -0.12760031
0.40401566 -0.19574836 -0.12753928
0.42881012 -0.19738761 -0.11501372
-0.40407357 -0.173605 -0.12010705
0.40499431 -0.17361078 -0.12006092
-0.38029921 -0.1499081 -0.12513733
0.38125831 -0.14991346 -0.12509131
-0.38131168 -0.12766451 -0.11740088
-0.35676798 -0.12643361 -0.12882268
0.35775506 -0.12643847 -0.12877691
0.38221121 -0.12766951 -0.11735475
-0.35794938 -0.10434446 -0.1192311
-0.33368376 -0.10335413 -0.1291281
0.33466956 -0.10335562 -0.12911284
0.35886264 -0.10434905 -0.11918509
-0.33461726 -0.081054121 -0.12104392
-0.31074744 -0.080402046 -0.12810457
0.31172678 -0.080404788 -0.12807417
0.33554411 -0.081058502 -0.12099779
-0.31160772 -0.058023393 -0.12012231
-0.28789803 -0.057520986 -0.12605572
0.2888599 -0.057522386 -0.12604034
0.3125256 -0.058026075 -0.12009168
-0.2888658 -0.035195202 -0.11638498
-0.26517022 -0.034736112 -0.12234831
-0.24156974 -0.034280062 -0.12827277
0.2425485 -0.034281194 -0.12825763
0.26610476 -0.034738526 -0.12231767
0.28975326 -0.035196394 -0.11636949
-0.24238743 -0.011895895 -0.1186161
-0.21880151 -0.011483297 -0.12457073
-0.19530892 -0.011072397 -0.13050187
0.19630556 -0.011074588 -0.13047135
0.21975273 -0.011485428 -0.12454021
0.24329187 -0.011896893 -0.11860085
-0.19607913 0.011278942 -0.11938477
-0.17262587 0.011610672 -0.12476993
-0.14925659 0.011941105 -0.13013566
0.15024921 0.011940047 -0.1301204
0.17357732 0.011609644 -0.12475455
0.19698924 0.011278003 -0.11936951
-0.14989887 0.03433755 -0.11821628
-0.12659584 0.034538791 -0.12194932
-0.10342669 0.034632891 -0.1236974
-0.080284037 0.034727871 -0.12545884
-0.057168908 0.034821823 -0.12720287
-0.034080423 0.03491649 -0.12896013
-0.011019009 0.035011113 -0.13071537
0.012015381 0.035011113 -0.13071537
0.035063282 0.03491649 -0.12896013
0.05813824 0.034821823 -0.12720287
0.081239946 0.034727871 -0.12545884
0.10436904 0.034632891 -0.1236974
0.12752533 0.034537852 -0.12193394
0.15079975 0.034336776 -0.1182009
-0.080622762 0.057294637 -0.11445856
-0.057422653 0.057375759 -0.11621535
-0.034249388 0.057457611 -0.11798561
-0.011104339 0.057533622 -0.11963081
0.012015381 0.057533622 -0.11963081
0.035147764 0.057457611 -0.11798561
0.058307402 0.057375759 -0.11621535
0.081493989 0.057294637 -0.11445856
-0.49937895 -0.36163285 -0.10333061
0.50017464 -0.36164436 -0.10326862
-0.49991623 -0.33894935 -0.10015821
0.50068748 -0.33896032 -0.10009611
-0.50045723 -0.31622073 -0.096963763
-0.47471905 -0.31366041 -0.11208212
0.47558147 -0.3136709 -0.11202013
0.50120139 -0.31622866 -0.096917033
-0.47523141 -0.29099488 -0.10891283
0.47606948 -0.2910049 -0.10885084
-0.47595054 -0.26847756 -0.10446429
0.47675195 -0.26848474 -0.1044178
-0.47682536 -0.24603257 -0.099052787
-0.45141762 -0.24400958 -0.11288488
0.45228571 -0.24401844 -0.11282325
0.47758755 -0.24604174 -0.098990321
-0.45224851 -0.2215856 -0.10748816
0.45307288 -0.22159207 -0.10744166
-0.45308 -0.19907922 -0.10208738
0.45386505 -0.19908732 -0.10202527
-0.42903078 -0.17515543 -0.10751915
0.42985499 -0.17516112 -0.10747254
-0.43013924 -0.15281758 -0.099940419
-0.40511495 -0.15135676 -0.11259162
0.40597787 -0.15136206 -0.11254525
0.43090516 -0.15282291 -0.099893689
-0.40616155 -0.12899682 -0.10503852
0.40696838 -0.12900355 -0.1049763
-0.3825765 -0.10549495 -0.10773587
0.38340166 -0.10549951 -0.10768938
-0.38384947 -0.083182096 -0.098008633
-0.35914022 -0.082114875 -0.1095624
0.35997912 -0.082119197 -0.10951614
0.3845998 -0.083186507 -0.097961783
-0.36033687 -0.059740305 -0.099847078
-0.33573055 -0.058761835 -0.11140239
0.33658326 -0.058765739 -0.1113559
0.361101 -0.059744269 -0.099800229
-0.33706304 -0.036467105 -0.099862695
-0.31266245 -0.035660833 -0.11033583
0.31350654 -0.035664469 -0.11028934
0.33782694 -0.036470637 -0.099815845
-0.31394395 -0.013293445 -0.098445058
-0.28983989 -0.012724862 -0.10665119
-0.26606724 -0.012310117 -0.11263776
0.26692575 -0.012311161 -0.1126225
0.29065385 -0.012727082 -0.10662031
0.31469655 -0.013296589 -0.098398328
-0.29082185 0.0098904967 -0.096838951
-0.26696864 0.010262534 -0.10288024
-0.24323927 0.010612085 -0.10855675
-0.21961676 0.010946199 -0.11398053
0.2204854 0.010945201 -0.11396492
0.24406627 0.010611191 -0.10854113
0.26775199 0.010261595 -0.1028645
0.29155886 0.009889558 -0.096823335
-0.22054426 0.0334602 -0.10193193
-0.19691087 0.033753604 -0.10737956
-0.17336257 0.034046173 -0.11280775
0.17422192 0.034045294 -0.11279237
0.19772856 0.033752874 -0.10736418
0.22132015 0.033459201 -0.10191643
-0.17410514 0.056661531 -0.10074973
-0.15054628 0.056913227 -0.10620177
-0.1271051 0.05713135 -0.11092317
-0.1038506 0.057212681 -0.11268425
0.10470815 0.057212681 -0.11268425
0.12794973 0.05713062 -0.11090779
0.15135469 0.056912541 -0.10618615
0.17487168 0.056660742 -0.10073423
-0.12770881 0.079814941 -0.097852707
-0.10434949 0.079887047 -0.099722505
-0.081027158 0.079948664 -0.10132539
-0.0577299 0.080009766 -0.10291135
-0.034456845 0.080071285 -0.1045109
-0.011208554 0.080132127 -0.10609317
0.012015381 0.080132127 -0.10609317
0.035251494 0.080071285 -0.1045109
0.058512233 0.080009766 -0.10291135
0.081797279 0.079948664 -0.10132539
0.10510728 0.079887047 -0.099722505
0.12845342 0.079813845 -0.097821474
-0.52588665 -0.34165016 -0.084903955
0.52654105 -0.34166136 -0.084841132
-0.52645522 -0.31880704 -0.081692934
0.52708489 -0.31881765 -0.081629992
-0.50099939 -0.29344407 -0.093762636
0.50171894 -0.29345164 -0.093715549
-0.50154269 -0.27061909 -0.090554357
0.50224012 -0.27062878 -0.090491772
-0.50247031 -0.24807668 -0.085077047
0.50312304 -0.24808365 -0.08502996
-0.5033986 -0.22545043 -0.079595685
0.50401169 -0.22545934 -0.079532623
-0.47770584 -0.22350925 -0.093606114
0.47842613 -0.22351784 -0.09354353
-0.4785895 -0.20090449 -0.088139653
0.47926536 -0.20091057 -0.088092804
-0.47958076 -0.17829755 -0.082008004
-0.45419812 -0.17671901 -0.094825029
0.45492733 -0.17672661 -0.094762683
0.48020947 -0.17830345 -0.081960917
-0.45537716 -0.15429255 -0.087166667
0.45604518 -0.15429801 -0.087119579
-0.45655981 -0.13175073 -0.079485416
-0.43125561 -0.13036883 -0.092307806
0.43196279 -0.1303739 -0.092260957
0.45716876 -0.13175586 -0.079437971
-0.43240058 -0.10782224 -0.08447957
-0.40739286 -0.10665414 -0.096152306
0.40812925 -0.10665873 -0.096105695
0.43304539 -0.10782546 -0.08444798
-0.4087511 -0.084259182 -0.086349964
0.40941209 -0.084263414 -0.086302876
-0.38513067 -0.060725003 -0.088218451
0.3858057 -0.060728967 -0.088171363
-0.36163393 -0.037278995 -0.08931613
0.36231703 -0.037282601 -0.089269042
-0.33844566 -0.014024809 -0.087888718
0.33911744 -0.014027983 -0.08784163
-0.31523558 0.0092513263 -0.086459994
0.31589597 0.0092484206 -0.086412907
-0.29214844 0.032471374 -0.08358252
-0.26806813 0.032869726 -0.090977192
-0.24426319 0.033165485 -0.096464396
0.24499711 0.03316465 -0.096448898
0.26875994 0.032868892 -0.090961456
0.29278636 0.032468826 -0.083535433
-0.24529408 0.055901319 -0.084290743
-0.22147922 0.056155041 -0.08978653
0.22216164 0.05615437 -0.089770675
0.24593548 0.055899754 -0.084259272
-0.19774929 0.056408778 -0.095278144
0.19847384 0.056408003 -0.095262408
-0.19859338 0.07924705 -0.083094835
-0.17488652 0.079438224 -0.088061452
-0.15125957 0.079626843 -0.092965007
0.15196607 0.079626322 -0.09294939
0.17555542 0.079437546 -0.088045716
0.19922416 0.079246424 -0.08307898
-0.12838756 0.10264987 -0.083157659
-0.10487749 0.10273757 -0.086004376
-0.081449114 0.10278735 -0.087622046
-0.058045678 0.10283714 -0.08923769
-0.03466738 0.10288641 -0.090836287
-0.011313586 0.10293604 -0.092448711
0.012015381 0.10293604 -0.092448711
0.03535676 0.10288641 -0.090836287
0.058722749 0.10283714 -0.08923769
0.08211375 0.10278735 -0.087622046
0.10552968 0.10273757 -0.086004376
0.12901905 0.10264888 -0.083126187
-0.55212051 -0.3443785 -0.069495082
0.55265695 -0.34438959 -0.069431663
-0.55271983 -0.32142207 -0.066251397
0.5532313 -0.32143286 -0.066187739
-0.55332041 -0.298417 -0.06300056
-0.52702498 -0.29591545 -0.078474998
0.52762991 -0.29592568 -0.078411698
0.55380684 -0.29842725 -0.062936783
-0.52759868 -0.27297783 -0.075234294
0.52817875 -0.27298763 -0.075170994
-0.52835059 -0.25013742 -0.070987582
0.52889532 -0.25014445 -0.070939898
-0.529333 -0.2274121 -0.065439343
0.52983499 -0.22741878 -0.065391421
-0.5043329 -0.20274454 -0.074078918
0.50490105 -0.20275083 -0.074031234
-0.50526798 -0.17995423 -0.06855762
0.50579619 -0.17996201 -0.068494081
-0.48082677 -0.15577814 -0.074300528
0.48139614 -0.15578374 -0.074252963
-0.48207906 -0.13314438 -0.066553712
0.48259133 -0.13315126 -0.066490054
-0.45774847 -0.10909465 -0.071764827
0.45830032 -0.10910091 -0.071701527
-0.45913219 -0.086436719 -0.062777162
-0.4338454 -0.085344434 -0.074601293
0.43441638 -0.085348815 -0.074553728
0.45961258 -0.086441129 -0.062729359
-0.43529963 -0.062719971 -0.064658642
-0.41011816 -0.061718673 -0.076483965
0.41070324 -0.061722666 -0.076436639
0.43579412 -0.062723964 -0.064610839
-0.41149414 -0.039031237 -0.066553712
-0.38642022 -0.038121954 -0.078364491
0.38701943 -0.038125679 -0.078317046
0.41200283 -0.039034888 -0.066505909
-0.38796586 -0.01550287 -0.066553712
-0.36311904 -0.014761239 -0.077258587
0.36370936 -0.014764562 -0.077211142
0.38847417 -0.015506253 -0.066506028
-0.36461601 0.0079361647 -0.065104723
-0.33983928 0.0085960478 -0.075819731
0.34041816 0.0085930526 -0.075772285
0.36511281 0.0079332441 -0.065057039
-0.34124583 0.031396538 -0.063638449
-0.31657678 0.031955823 -0.074015498
0.31714138 0.031953216 -0.073967934
0.34173101 0.031394094 -0.063590646
-0.29359165 0.05520241 -0.069161534
-0.26919827 0.055645019 -0.078743339
0.26979724 0.055643618 -0.078711987
0.29411858 0.055200219 -0.069113731
-0.27053469 0.078522652 -0.064276099
-0.24633457 0.07882008 -0.072002649
-0.2224205 0.079033874 -0.077558756
0.22300878 0.079033196 -0.077542901
0.2468802 0.078819506 -0.071986914
0.27102229 0.078521453 -0.06424427
-0.22351541 0.10203955 -0.063335657
-0.19961818 0.10219251 -0.068303347
-0.1757974 0.10234547 -0.073270917
-0.152054 0.10249791 -0.078222156
0.15264702 0.10249744 -0.07820642
0.17635244 0.10234489 -0.073254943
0.20013508 0.10219204 -0.068287373
0.22399421 0.10203902 -0.063319445
-0.15285617 0.12559262 -0.063335419
-0.12907365 0.12570737 -0.068303347
-0.10541032 0.12579647 -0.072161317
-0.081874914 0.12583417 -0.073793769
-0.058364682 0.12587181 -0.075424314
-0.034879584 0.12590933 -0.077053189
-0.011419575 0.12594697 -0.078680277
0.012015381 0.12594697 -0.078680277
0.035462864 0.12590933 -0.077053189
0.058935422 0.12587181 -0.075424314
0.082433105 0.12583417 -0.073793769
0.10595594 0.12579647 -0.072161317
0.12959018 0.12570696 -0.068287253
0.1533346 0.12559232 -0.063319564
-0.011542487 0.1491361 -0.062713385
0.012015381 0.1491361 -0.062713385
-0.57925254 -0.32406393 -0.050652027
0.57964456 -0.32407483 -0.050587654
-0.57988459 -0.30094406 -0.04736805
0.58025128 -0.30095449 -0.047303677
-0.55392224 -0.27536282 -0.059743047
0.5543837 -0.27537268 -0.059679031
-0.55452836 -0.25226203 -0.056462169
0.55496454 -0.25227135 -0.056398034
-0.55550683 -0.22938976 -0.051166654
0.55589932 -0.22939646 -0.051118255
-0.55654222 -0.20647645 -0.045562029
0.5568946 -0.20648491 -0.045497298
-0.53031605 -0.20460182 -0.059886694
0.53077811 -0.2046102 -0.059822679
-0.53130561 -0.18171054 -0.054298043
0.53172189 -0.1817165 -0.054249763
-0.53238136 -0.15878958 -0.048221707
-0.50649291 -0.15727651 -0.061324716
0.50696546 -0.15728396 -0.0612607
0.5327509 -0.15879509 -0.048173428
-0.50781882 -0.13455173 -0.053495765
0.5082286 -0.13455695 -0.053447485
-0.50914878 -0.1117087 -0.045642734
-0.48334038 -0.11039692 -0.058751464
0.48379016 -0.11040169 -0.058703542
0.50949806 -0.11171362 -0.045594215
-0.48461854 -0.087538868 -0.050845027
0.48500746 -0.087543368 -0.050796747
-0.46067488 -0.063727796 -0.052757144
0.46107814 -0.063731849 -0.052708983
-0.43676338 -0.039947465 -0.054650903
0.43718088 -0.039951235 -0.054602861
-0.43823674 -0.017025575 -0.04457736
-0.41298792 -0.01624985 -0.055773139
0.41341367 -0.016253129 -0.055725217
0.43857446 -0.017027706 -0.044545174
-0.38956758 0.007271722 -0.054314137
0.38998175 0.007268697 -0.054266095
-0.36612695 0.030814573 -0.052837491
0.36652935 0.03081201 -0.05278933
-0.34284568 0.054307491 -0.049783349
-0.31814077 0.054756358 -0.059503078
0.31859374 0.054754168 -0.059455156
0.34322426 0.054305196 -0.049735069
-0.31972152 0.077774487 -0.044835687
-0.2950502 0.078149743 -0.054586768
0.2954635 0.07814844 -0.054554701
0.32005998 0.077773131 -0.044803619
-0.27190471 0.10161179 -0.049445391
-0.24751629 0.10187668 -0.058047414
0.24795698 0.10187522 -0.057999492
0.27227953 0.10161038 -0.04939723
-0.2246702 0.12524626 -0.048334479
-0.20065409 0.12536204 -0.053351283
-0.17671619 0.12547746 -0.058351517
0.17715639 0.12547715 -0.058335423
0.20105688 0.12536126 -0.053319097
0.22503462 0.12524547 -0.048302412
-0.15366626 0.14891434 -0.048302412
-0.1297954 0.14898169 -0.052676797
-0.10599607 0.14904732 -0.056942821
-0.082349427 0.14906947 -0.058383584
-0.058724985 0.14909159 -0.059822798
-0.03512248 0.149114 -0.061276674
0.035584431 0.14911368 -0.0612607
0.059175625 0.14909159 -0.059822798
0.082788981 0.14906947 -0.058383584
0.10642455 0.14904732 -0.056942821
0.13019228 0.14898111 -0.05264461
0.15402971 0.14891371 -0.048270226
-0.035383061 0.17255259 -0.044351578
-0.011672658 0.17256385 -0.045804024
0.012015381 0.17256385 -0.045804024
0.0357146 0.17255259 -0.044351578
-0.60672152 -0.30349725 -0.031574845
0.60696727 -0.30350778 -0.031509757
-0.58051795 -0.27777475 -0.044077039
0.58085936 -0.27778476 -0.044012308
-0.58115262 -0.25455585 -0.040778875
0.5814687 -0.25456533 -0.040714145
-0.58193231 -0.23139054 -0.036727548
0.58222324 -0.23140398 -0.036630154
-0.58380568 -0.20890662 -0.026992917
0.58401877 -0.20891726 -0.026911378
-0.5575844 -0.18348143 -0.039920807
0.55789053 -0.1834873 -0.039872289
-0.55930692 -0.16082451 -0.030597687
0.55954993 -0.16083595 -0.030499816
-0.53377658 -0.13596931 -0.040341854
0.53408551 -0.13597459 -0.040293097
-0.53587419 -0.11342493 -0.028494596
0.53609747 -0.113433 -0.028413177
-0.51058722 -0.088804007 -0.03714931
0.51087642 -0.088811517 -0.037068129
-0.48625106 -0.064744741 -0.04074645
0.48656225 -0.064748973 -0.040697813
-0.48821846 -0.041954651 -0.028576255
-0.46222773 -0.040869698 -0.042671204
0.46255338 -0.040873408 -0.042622805
0.48844111 -0.041961014 -0.028494716
-0.4637908 -0.017860845 -0.032518864
0.46403834 -0.017864332 -0.032470107
-0.44000286 0.0059283823 -0.032502651
-0.41469592 0.0066024214 -0.043446898
0.41502681 0.0065994412 -0.04339838
0.44024992 0.0059253126 -0.032453656
-0.41641995 0.029638126 -0.031004906
-0.39118436 0.030228436 -0.041959882
0.39150342 0.030225828 -0.041911483
0.41665512 0.029635459 -0.030956149
-0.39281416 0.053370804 -0.02950561
-0.36770788 0.053855643 -0.04000175
0.36801153 0.053853408 -0.039953232
0.39303544 0.053369388 -0.029473186
-0.34455013 0.07739678 -0.035022616
0.34481335 0.077395424 -0.034990072
-0.32131743 0.10101397 -0.03002727
-0.29652274 0.10131703 -0.039872169
0.29682276 0.10131615 -0.039839864
0.32154357 0.10101247 -0.029978514
-0.27350289 0.12487224 -0.032144547
-0.24897309 0.12507322 -0.040843606
0.24928012 0.12507243 -0.0408113
0.27374321 0.12487157 -0.032112002
-0.2259115 0.14866649 -0.032209873
-0.2017013 0.14875923 -0.038235784
-0.177644 0.14883702 -0.043285489
0.17796823 0.14883676 -0.043269277
0.20198677 0.14875907 -0.038219571
0.22615294 0.1486657 -0.032160878
-0.15463696 0.17244431 -0.030287981
-0.13062507 0.17247851 -0.034713864
-0.1066818 0.1725125 -0.039127111
-0.082871079 0.17253028 -0.041442394
-0.059115857 0.17254144 -0.042897463
0.059436206 0.17254144 -0.042897463
0.083180226 0.17253028 -0.041442394
0.10697363 0.17251223 -0.039110899
0.13088305 0.17247824 -0.034697652
0.15486102 0.17244415 -0.030271769
-0.011804148 0.19625179 -0.028723001
0.012015381 0.19625179 -0.028723001
-0.03564629 0.1962519 -0.027254224
0.035846215 0.1962519 -0.027254224
-0.6077497 -0.28049049 -0.026437879
0.60796225 -0.2805056 -0.026339769
-0.60921133 -0.25772145 -0.019135118
0.60936457 -0.25773343 -0.019053102
-0.61067992 -0.23484489 -0.011797786
0.61077672 -0.23485637 -0.011715293
-0.58568776 -0.1862781 -0.017213583
0.58582866 -0.18629029 -0.017114997
-0.56130344 -0.1381841 -0.019791365
0.56146044 -0.13819295 -0.019709349
-0.53801709 -0.090721548 -0.016391635
0.53814733 -0.090729266 -0.0163095
0.51296228 -0.066148847 -0.024165392
-0.512775 -0.066143304 -0.024230838
-0.51521033 -0.043396249 -0.009850502
0.51528698 -0.043401331 -0.0097846985
-0.4905366 -0.019127578 -0.01423645
0.49064645 -0.019132227 -0.014170289
-0.4660182 0.00503847 -0.018051386
0.46615684 0.005034402 -0.017985702
-0.44210213 0.028945476 -0.018149972
0.44224104 0.028941929 -0.018084288
-0.41818753 0.052850917 -0.018248439
0.41832671 0.052847803 -0.018182635
-0.39468533 0.076634012 -0.01520741
-0.36953753 0.07701657 -0.025146723
0.36972502 0.077015266 -0.025114059
0.39479655 0.07663276 -0.015174627
-0.37138495 0.10040172 -0.010147691
-0.34627101 0.10070889 -0.020119548
0.3464213 0.10070733 -0.020070195
0.37145889 0.10040021 -0.010098219
-0.32298023 0.12446706 -0.014598489
-0.29817155 0.12467017 -0.023396373
0.29834479 0.12466949 -0.023363709
0.32308602 0.12446633 -0.014565587
-0.27511916 0.14839607 -0.014647841
-0.25044632 0.14853156 -0.023445487
0.25061944 0.14853105 -0.023412704
0.2752248 0.1483956 -0.01461494
-0.22730269 0.17232013 -0.014137626
-0.20286897 0.17237586 -0.021381855
-0.17871779 0.1724101 -0.025849462
0.1789078 0.17241016 -0.025833249
0.20302472 0.17237571 -0.021365523
0.22740394 0.17231986 -0.014104605
-0.15562002 0.19625185 -0.012045145
-0.059511073 0.19625179 -0.025784016
0.059699681 0.19625179 -0.025784016
0.083576195 0.19625185 -0.024296403
0.1315826 0.19625179 -0.016523242
0.15570439 0.19625179 -0.012012005
-0.13146451 0.1962519 -0.016539454
-0.10737932 0.1962519 -0.021004796
-0.083398536 0.1962519 -0.024312615
0.10753165 0.1962519 -0.020988464
-0.63698602 -0.28448996 -0.00046086311
0.63699639 -0.28450269 -0.00037777424
-0.63852948 -0.26153892 0.0069652796
0.63848275 -0.26155114 0.0070486069
-0.61229801 -0.21195307 -0.0037130117
0.61233592 -0.2119661 -0.0036137104
-0.61428833 -0.18916586 0.0062309504
0.61424655 -0.18917605 0.0063143969
-0.58758497 -0.16350842 -0.0073554516
0.58764702 -0.16351792 -0.0072728395
-0.58949429 -0.1405935 0.0025651455
0.58947998 -0.14060259 0.002648592
-0.56355208 -0.11551392 -0.0076200962
0.56361556 -0.11552224 -0.007537365
-0.56582153 -0.092666686 0.0046637058
0.56579053 -0.092674255 0.0047470331
-0.54017967 -0.067841351 -0.0041770935
0.54021603 -0.067848474 -0.004094243
-0.51766843 -0.020436928 0.0046637058
0.5176335 -0.020441622 0.0047303438
-0.49287632 0.0039121658 0.00023710728
0.49287486 0.003908053 0.00030362606
-0.46858838 0.028040588 -0.0013575554
0.46859863 0.028036997 -0.0012910366
-0.44454363 0.052075282 -0.0014570951
0.44455415 0.052072257 -0.0013906956
-0.42052802 0.076100841 -0.001357317
0.42053509 0.07609912 -0.0013077259
-0.39704385 0.10000253 0.0028150082
0.39701843 0.10000113 0.0028649569
-0.37349477 0.12396877 0.0069819689
-0.34801048 0.12424663 -0.0050550699
0.34804305 0.12424591 -0.0050219297
0.37343886 0.1239672 0.0070486069
-0.32488742 0.14812289 0.0030978918
-0.29993245 0.14825989 -0.005800128
0.2999703 0.14825937 -0.0057669878
0.32485703 0.14812241 0.0031311512
-0.27675229 0.17218786 0.0030314922
-0.25193489 0.17225637 -0.0058665276
0.25197271 0.17225611 -0.0058333874
0.27672189 0.1721877 0.0030647516
0.17989548 0.19625185 -0.0075042248
-0.22888479 0.1962519 0.0064145327
-0.20426205 0.1962519 -0.0012745857
-0.17984654 0.1962519 -0.0075207949
0.20426303 0.1962519 -0.0012578964
0.22882669 0.1962519 0.006431222
-0.15661743 0.22034226 0.0064647198
-0.13232695 0.22030894 0.0021326542
-0.10812279 0.2202795 -0.0016895533
-0.083982341 0.22025134 -0.0053532124
-0.059953853 0.22024165 -0.006611228
-0.03594476 0.22023195 -0.0078681707
-0.011955147 0.22022235 -0.0091073513
0.012015381 0.22022235 -0.0091073513
0.03599545 0.22023195 -0.0078681707
0.059994873 0.22024165 -0.006611228
0.084013671 0.22025134 -0.0053532124
0.10812642 0.22027971 -0.0016729832
0.1323013 0.22030905 0.0021493435
0.15655857 0.22034241 0.0064811707
-0.64008033 -0.23847866 0.014426589
0.6399762 -0.23849025 0.014510393
-0.64163858 -0.21530792 0.021923542
0.64148021 -0.21532127 0.022024632
-0.61629134 -0.16623276 0.016238689
0.61617261 -0.16624245 0.016322613
-0.59160918 -0.1176329 0.013554692
0.59151047 -0.11764127 0.013638616
-0.56810588 -0.06963712 0.017028093
0.56797981 -0.069644123 0.017111897
-0.54252803 -0.044853956 0.0090862513
0.54246241 -0.044860482 0.009169817
-0.5451293 -0.021761224 0.023778081
0.54495066 -0.021767065 0.023862481
-0.52014959 0.002737239 0.019314051
0.52000195 0.0027331114 0.019381404
-0.49536273 0.027125806 0.015617609
0.49524295 0.027122214 0.015684724
-0.47118637 0.051291406 0.015516877
0.47106683 0.051288217 0.015584111
-0.44700909 0.075455949 0.015399456
0.44688997 0.075453341 0.015466809
-0.42318732 0.099540107 0.017834425
0.42304674 0.099538594 0.017884731
-0.39955994 0.12362088 0.022041678
0.3993887 0.12361937 0.022109032
-0.35011485 0.14796785 0.013169408
0.35000899 0.14796712 0.013219595
-0.32689634 0.17204387 0.021738291
-0.3017118 0.17211905 0.011980057
0.30161279 0.17211884 0.012013555
0.32672414 0.1720434 0.021788836
-0.27849594 0.19625179 0.021906734
0.27832028 0.19625185 0.02194047
-0.25362912 0.1962519 0.01414156
0.25351167 0.1962519 0.014158249
-0.20569663 0.22044204 0.019431829
-0.18102893 0.22038241 0.011678696
0.18093097 0.22038266 0.011712313
0.20553924 0.22044235 0.019465446
-0.13334619 0.24470575 0.024199843
-0.10897072 0.24464627 0.020340562
-0.084654428 0.24458668 0.01647377
-0.060439311 0.24455494 0.0144099
-0.036267877 0.24453507 0.013119102
-0.012116578 0.24451584 0.011862993
0.012015381 0.24451584 0.011862993
0.036157139 0.24453543 0.013135791
0.060318511 0.24455494 0.0144099
0.084518127 0.24458694 0.016490698
0.10880477 0.24464653 0.02035749
0.13315067 0.24470592 0.02421689
-0.66834128 -0.26541871 0.033491015
0.66809475 -0.26543358 0.033592939
-0.66998065 -0.24217418 0.041096807
0.66966856 -0.24218366 0.041164994
-0.64332038 -0.19209522 0.030015349
0.64309984 -0.19210777 0.030116916
-0.64543223 -0.16899681 0.040176034
0.64513016 -0.16900674 0.040261149
-0.61830384 -0.14315084 0.026293635
0.61811107 -0.14316171 0.026395082
-0.62033266 -0.11992216 0.036430359
0.62005872 -0.1199306 0.036515355
-0.59400225 -0.094636649 0.025989652
0.59380794 -0.094644427 0.026074052
-0.59641767 -0.071458638 0.038540363
0.59612685 -0.071465909 0.038625598
-0.57040828 -0.046424687 0.029490352
0.57018644 -0.046431214 0.029575109
-0.57293099 -0.023103043 0.043144703
0.57260114 -0.023107678 0.04321301
-0.54775506 0.0015490949 0.038608432
0.54746246 0.0015438348 0.038693786
-0.52265406 0.026129693 0.034102321
0.52239269 0.026126087 0.03417027
-0.49812046 0.050498754 0.032676578
0.49786946 0.050495684 0.032744408
-0.47381258 0.074794948 0.032574773
0.47355941 0.074792862 0.032625794
-0.44958323 0.099073149 0.032999039
0.44932637 0.099071741 0.033049822
-0.42587715 0.12326981 0.037246704
0.42558944 0.12326819 0.037314892
-0.40210721 0.1475316 0.041506171
-0.37587544 0.14776546 0.026310682
0.37566888 0.14776462 0.026361346
0.40178621 0.1475305 0.041574359
-0.35263005 0.1719421 0.034951568
0.35235661 0.17194168 0.035002589
-0.30355057 0.1962519 0.030354023
0.30331171 0.1962519 0.030404925
-0.28047043 0.22062567 0.043281555
-0.25539845 0.22056222 0.035036445
-0.23048663 0.22050211 0.027223349
0.23026837 0.22050215 0.027240157
0.25512147 0.22056253 0.035070419
-0.20717873 0.24496168 0.040823817
-0.18242452 0.24486184 0.034340024
-0.1577816 0.24476534 0.028068781
0.15755643 0.24476561 0.028085589
0.18215121 0.24486211 0.034357071
0.2068567 0.24496216 0.04085803
-0.1098294 0.26935858 0.042649508
-0.085340202 0.26926845 0.038744807
-0.060931362 0.26919866 0.035716295
-0.036595903 0.2691687 0.03442502
-0.012280197 0.26913851 0.03311789
0.012015381 0.26913851 0.03311789
0.036321022 0.2691687 0.03442502
0.060646545 0.26919866 0.035716295
0.085032456 0.26926887 0.038761735
0.10949172 0.26935911 0.042666554
-0.67162788 -0.21881732 0.048739076
0.67125708 -0.21882626 0.048807621
-0.67327935 -0.19534522 0.056401253
0.67285323 -0.1953558 0.056487322
-0.64755774 -0.14574906 0.050402284
0.6471771 -0.14575827 0.050487995
-0.64969707 -0.12235042 0.060694933
-0.62257332 -0.096635282 0.047625542
0.62221336 -0.09664318 0.047711015
-0.62511659 -0.073303938 0.060332417
0.62465894 -0.073311359 0.060418725
-0.59884906 -0.048094004 0.051174521
0.59846115 -0.048100576 0.051260471
-0.57570481 0.00034509599 0.058158636
0.57525951 0.00034083426 0.058227539
-0.55040568 0.025080234 0.05357933
0.54999799 0.025075659 0.05366528
-0.52535063 0.049697474 0.050024986
0.52496684 0.049694285 0.050093651
-0.50090826 0.074127115 0.049921989
0.5005247 0.074124612 0.049990535
