ply
format ascii 1.0
comment PCL generated
element vertex 1320
property float x
property float y
property float z
element camera 0
property float view_px
property float view_py
property float view_pz
property float x_axisx
property float x_axisy
property float x_axisz
property float y_axisx
property float y_axisy
property float y_axisz
property float z_axisx
property float z_axisy
property float z_axisz
property float focal
property float scalex
property float scaley
property float centerx
property float centery
property int viewportx
property int viewporty
property float k1
property float k2
end_header
-0.028083554 -0.032758996 -0.12541014
-0.012019236 -0.032736283 -0.12688673
0.004022351 -0.032713547 -0.12836128
0.020054525 -0.032717429 -0.12810957
0.036129698 -0.032760382 -0.12531662
0.052247826 -0.032803472 -0.12252557
0.068409443 -0.032846671 -0.1197176
-0.12482194 -0.016758697 -0.11857921
-0.10863631 -0.016747195 -0.12006557
-0.092473671 -0.016735757 -0.12154973
-0.07633359 -0.016724318 -0.12304121
-0.060216829 -0.016712898 -0.12452132
-0.044122901 -0.016701501 -0.12599915
-0.028051762 -0.016690144 -0.12747508
-0.01200329 -0.016678745 -0.12895805
0.004022351 -0.016667388 -0.13042957
0.020038454 -0.016669227 -0.13019699
0.036097474 -0.016690701 -0.12740958
0.052199356 -0.016712053 -0.12462425
0.068344645 -0.016733611 -0.12182206
0.084533013 -0.016755229 -0.11902148
-0.076292835 -0.00065310864 -0.12409991
-0.060171895 -0.00065310864 -0.1259805
-0.044079982 -0.00065310864 -0.12785757
-0.028019892 -0.00065308803 -0.12954503
-0.01198745 -0.00065308803 -0.13101584
0.052150995 -0.00065308803 -0.12671858
0.068279698 -0.00065310864 -0.12393135
0.084451601 -0.00065314997 -0.12113661
0.10066688 -0.00065310864 -0.11833441
-0.12483064 -0.0006530261 -0.11843807
-0.10862213 -0.00065306737 -0.12032872
-0.092442892 -0.00065304671 -0.12221599
0.036065314 -0.00065306737 -0.12949836
-0.092544392 0.015441351 -0.1200186
-0.076377273 0.015426813 -0.12190634
-0.060239322 0.015412338 -0.12379074
-0.04413024 0.015397804 -0.12568134
-0.028050328 0.015383266 -0.1275683
-0.011999488 0.015368707 -0.12945187
0.004022351 0.015354294 -0.13133198
0.020028142 0.015352726 -0.13153666
0.036070045 0.015370773 -0.12919098
0.052148186 0.0153888 -0.12684
0.068262398 0.01540699 -0.12449324
0.084413305 0.015425079 -0.12213153
0.10060082 0.015443312 -0.11976475
-0.076460063 0.03153988 -0.11975527
-0.060305148 0.031510703 -0.12165302
-0.044179525 0.031481545 -0.12354738
-0.028083125 0.031452369 -0.12543821
-0.012015786 0.031423215 -0.12733501
0.004022351 0.031394139 -0.129219
0.020044619 0.031391416 -0.12939596
0.036103077 0.031427592 -0.12704551
0.052197628 0.031463768 -0.124699
0.068328761 0.031500068 -0.12233794
0.084496446 0.031536512 -0.11997151
-0.060387626 0.047654409 -0.11897457
-0.044228695 0.047597934 -0.12141824
-0.028115841 0.047554199 -0.12331301
-0.012032187 0.047510508 -0.12520427
0.004022351 0.047466919 -0.12709218
0.020061133 0.047463264 -0.12725091
0.036136035 0.047517467 -0.12490499
0.05224739 0.047571957 -0.12254435
0.068395257 0.047626596 -0.12017822
-0.012080215 0.063757189 -0.11896515
0.004022351 0.063678823 -0.12151229
0.020099964 0.063657396 -0.12220669
0.036206201 0.063714631 -0.12034744
0.052341137 0.063771993 -0.11848503
-0.028397029 -0.097911216 -0.10504937
-0.012179635 -0.097864948 -0.10605013
0.004022351 -0.097825423 -0.10690713
0.020231454 -0.09790767 -0.10512561
-0.12565342 -0.081700407 -0.10507798
-0.10939001 -0.081661873 -0.10607874
-0.09314207 -0.081623428 -0.10707855
-0.07690955 -0.081584983 -0.10807741
-0.060691267 -0.081545152 -0.10911328
-0.044488303 -0.081504136 -0.11017674
-0.028301733 -0.081463315 -0.11123902
-0.012131521 -0.081422433 -0.11230016
0.004022351 -0.081381671 -0.11336035
0.020174911 -0.081415884 -0.11247057
0.036379602 -0.081546225 -0.10908478
0.052636672 -0.08167693 -0.10568798
-0.17431091 -0.065501504 -0.1047346
-0.15776098 -0.065366484 -0.10912275
-0.14150898 -0.065333635 -0.11018622
-0.12527341 -0.065300964 -0.11124843
-0.10905425 -0.065268256 -0.11230969
-0.092851475 -0.06523563 -0.11336988
-0.076664716 -0.06520272 -0.1144383
-0.060494721 -0.065170139 -0.11549634
-0.044341043 -0.065137655 -0.11655331
-0.028203657 -0.065105133 -0.11760914
0.036280453 -0.065169267 -0.11552477
0.05248747 -0.06527321 -0.1121487
0.068746798 -0.065377511 -0.10876179
0.085058689 -0.06548214 -0.10536397
-0.17408502 -0.049227815 -0.10740209
-0.15757765 -0.049133018 -0.11150438
-0.14131463 -0.0490987 -0.11299133
-0.12507463 -0.049064443 -0.11447603
-0.1088571 -0.049030021 -0.11596835
-0.092663072 -0.048995849 -0.11744887
0.068543792 -0.049044188 -0.11535472
0.084802285 -0.049121041 -0.11202562
0.1011121 -0.049197998 -0.10869515
0.11747426 -0.04927535 -0.10534489
-0.17389427 -0.033001535 -0.10965461
-0.15741949 -0.032941509 -0.11355895
-0.14117248 -0.032918591 -0.11504298
-0.12494845 -0.032895774 -0.11652488
-0.10874736 -0.03287302 -0.11800486
0.084614225 -0.032889869 -0.11691159
0.10086299 -0.032933313 -0.11408854
0.11715563 -0.032976922 -0.11125791
0.13349172 -0.033020366 -0.10842913
0.14988115 -0.033066165 -0.10545915
-0.19046926 -0.016860764 -0.10531622
-0.17370315 -0.016809948 -0.11191183
-0.15726236 -0.016781576 -0.11560017
-0.14103059 -0.016770074 -0.1170907
0.10076527 -0.016776931 -0.11620426
0.11704131 -0.016798612 -0.1133793
0.13336073 -0.016820416 -0.11055619
0.14972413 -0.01684216 -0.1077255
0.16613172 -0.016864067 -0.10488713
-0.17379786 -0.0006531293 -0.11079329
0.13322884 -0.00065308803 -0.11269796
0.16596596 -0.0006531293 -0.10704041
-0.19053447 -0.00065304671 -0.10461062
-0.15733579 -0.00065306737 -0.1146462
-0.1410685 -0.00065306737 -0.11654389
0.11692622 -0.0006530261 -0.11551523
0.14957537 -0.0006530261 -0.10987294
-0.17400128 0.015530903 -0.10839111
-0.15750618 0.015499763 -0.1124329
-0.14122158 0.015485104 -0.11433434
-0.12496646 0.015470464 -0.11623251
-0.10874076 0.015455948 -0.11812723
0.11682506 0.015461586 -0.11739248
0.13309662 0.015481222 -0.11484474
0.14942624 0.015502883 -0.11202544
0.16580056 0.015524771 -0.10918933
0.18221839 0.015546514 -0.10635489
-0.17420433 0.031751774 -0.10599291
-0.15767694 0.031686816 -0.11021465
-0.14137498 0.03165739 -0.11212009
-0.125102 0.031628028 -0.11403185
-0.10885862 0.031598605 -0.11593997
-0.092644364 0.031569157 -0.117854
0.10070082 0.031573083 -0.11759979
0.116942 0.031609733 -0.11522257
0.13321951 0.031646218 -0.1128493
0.1495346 0.031682953 -0.11046129
0.16588615 0.031719729 -0.10807741
0.18227565 0.031756647 -0.1056785
-0.14176385 0.047942292 -0.10650724
-0.12541075 0.047884312 -0.10901821
-0.10909712 0.047826659 -0.11151385
-0.092822209 0.047769152 -0.11400342
-0.076585852 0.047711812 -0.11648726
0.084579401 0.047681108 -0.11781645
0.10080058 0.047736052 -0.11543977
0.11705814 0.047790833 -0.11306709
0.13335313 0.047845986 -0.11067951
0.14968462 0.047901016 -0.10829598
0.16605394 0.047956355 -0.10589767
-0.09317901 0.06414786 -0.10627866
-0.076882474 0.064070761 -0.10878074
-0.060624063 0.06399335 -0.11129582
-0.044403207 0.063914262 -0.11386156
-0.028222093 0.063835718 -0.11641175
0.068504848 0.063829437 -0.11661929
0.084697418 0.063887008 -0.11475021
0.10091892 0.063944593 -0.11287767
0.11717504 0.064005651 -0.11089766
0.13348645 0.064078957 -0.10851467
0.1498356 0.064152814 -0.10611677
-0.044569086 0.080332614 -0.10667861
-0.028332269 0.08023344 -0.10925573
-0.012135241 0.080134824 -0.111817
0.004022351 0.080036163 -0.11438155
0.0201554 0.080012105 -0.11500525
0.036317274 0.080084234 -0.11313325
0.052508041 0.080156378 -0.11125791
0.068727493 0.080228403 -0.10938871
0.084976219 0.080300801 -0.10750669
0.10125408 0.080373421 -0.10562134
0.004022351 0.096506059 -0.10719275
0.020211147 0.096479669 -0.10776347
0.036428083 0.096564144 -0.10593575
-0.1591609 -0.11488135 -0.090937376
-0.1427723 -0.11482671 -0.091951609
-0.12643443 -0.11480276 -0.092395723
-0.11010341 -0.11477881 -0.092839599
-0.093779244 -0.11475502 -0.093283236
-0.077461906 -0.11473104 -0.093726695
-0.061151706 -0.11470763 -0.094160378
-0.044847954 -0.11468384 -0.094603419
-0.028551036 -0.11465995 -0.095046401
-0.012260934 -0.1146361 -0.095489144
0.004022351 -0.11461271 -0.095922112
0.02031705 -0.11471602 -0.094006181
-0.17545713 -0.098550975 -0.091198385
-0.15869206 -0.098281763 -0.097027659
-0.14235075 -0.098235175 -0.098036051
-0.12602504 -0.098188639 -0.099043548
-0.10971538 -0.098142549 -0.10004056
-0.093420692 -0.098096088 -0.10104609
-0.077141516 -0.09804973 -0.10205072
-0.060877837 -0.098003335 -0.10305446
-0.044629849 -0.097957492 -0.10404754
0.036507051 -0.098107241 -0.10080677
0.052847549 -0.09830346 -0.096556783
0.069254011 -0.098500639 -0.092289507
-0.19180736 -0.082248792 -0.090831161
-0.17488217 -0.081973299 -0.097988069
-0.15822592 -0.0817772 -0.10308307
-0.14193161 -0.081738628 -0.1040858
0.068946376 -0.081808113 -0.1022802
0.085308976 -0.081939727 -0.098861456
0.10172517 -0.082072124 -0.095421791
0.1181944 -0.082204543 -0.091980636
-0.19117993 -0.065720528 -0.097623229
0.10142341 -0.065587096 -0.10195518
0.1178412 -0.065692447 -0.09853512
0.13431056 -0.06579715 -0.095133126
0.15083104 -0.065901391 -0.091748834
-0.20779717 -0.049534533 -0.094121873
-0.19088762 -0.049380515 -0.10078764
0.13388807 -0.049352739 -0.10199332
0.15035424 -0.049430422 -0.098631144
0.16687369 -0.04950843 -0.09524858
0.18344536 -0.049586669 -0.091864765
-0.20756793 -0.03320542 -0.096412599
-0.19067821 -0.033103127 -0.10305446
0.16634566 -0.033117767 -0.10210806
0.18286265 -0.033169471 -0.0987463
0.19961663 -0.033252168 -0.093379617
-0.2243176 -0.016963078 -0.0920192
-0.20734017 -0.016911766 -0.098688722
0.18258366 -0.016885914 -0.10204118
0.19927697 -0.01692432 -0.097056508
-0.20737186 -0.00065310864 -0.098371983
0.18240084 -0.00065310864 -0.10420024
0.1990571 -0.00065308803 -0.09943676
-0.22431031 -0.00065306737 -0.092086732
0.21603394 -0.00065306737 -0.092202723
-0.20761317 0.015626568 -0.095960617
-0.19075769 0.015578581 -0.10219413
0.19883682 0.015581513 -0.10182118
0.21579078 0.015636832 -0.094632387
-0.20785603 0.031943623 -0.093533874
-0.19098052 0.03184744 -0.099781871
0.19890931 0.031828009 -0.10103649
0.21595572 0.031951986 -0.092984259
-0.19151762 0.048231952 -0.093967676
-0.17475383 0.048104115 -0.099503934
-0.15815534 0.04800019 -0.10399973
0.18245985 0.048011672 -0.10350335
0.19913772 0.048125777 -0.098564029
-0.17545384 0.064611033 -0.091236949
-0.1587557 0.064458147 -0.096201062
-0.14230289 0.064380303 -0.098727047
-0.12588933 0.064302728 -0.10124701
-0.10951438 0.064225003 -0.10377061
0.16622135 0.064226449 -0.10372293
0.18264523 0.064300686 -0.10131407
0.19936578 0.064461306 -0.096095145
-0.12635306 0.08083155 -0.093717158
-0.10991606 0.080731489 -0.096316278
-0.093518935 0.080631323 -0.098918974
-0.077162132 0.080531359 -0.10151505
-0.060845785 0.08043208 -0.10409522
0.11756115 0.080446079 -0.10373253
0.1338969 0.080518514 -0.10184997
0.15025859 0.08058922 -0.10001171
0.16664803 0.080659732 -0.098179996
0.1830668 0.080730788 -0.09633559
-0.061203063 0.097185113 -0.092492223
-0.044811502 0.097014658 -0.09618181
-0.028476803 0.096844345 -0.099868119
-0.01219902 0.096675172 -0.10353202
0.052673236 0.096648656 -0.10410482
0.068946674 0.096733421 -0.10227072
0.08524847 0.096818246 -0.10043323
0.10157826 0.09690284 -0.098602355
0.11793694 0.096987933 -0.096758485
0.13432419 0.097073294 -0.094911635
0.1507401 0.09715876 -0.093061388
0.16718401 0.097243935 -0.091217697
0.004022351 0.1135366 -0.091652334
0.020323582 0.11345556 -0.093157828
0.036638331 0.11350285 -0.092279851
0.052966833 0.11355071 -0.091391563
-0.16001418 -0.13188227 -0.079852879
-0.14353073 -0.13181138 -0.0810045
-0.12711132 -0.1317867 -0.081404448
-0.11069755 -0.13176152 -0.081814051
-0.094290085 -0.13173632 -0.082223296
-0.077888921 -0.1317111 -0.082632363
-0.061494075 -0.13168594 -0.08304137
-0.045104627 -0.13165836 -0.083489239
-0.028722079 -0.13163085 -0.083936691
-0.012346495 -0.13160385 -0.084374487
0.004022351 -0.13157625 -0.084821701
0.020403482 -0.13170211 -0.082778573
0.036854636 -0.1319823 -0.0782305
-0.17605142 -0.11524553 -0.084179878
0.036681037 -0.11495849 -0.08950609
0.053114746 -0.115202 -0.084986806
0.069618627 -0.11544657 -0.080448389
-0.19243973 -0.098884188 -0.083985388
0.085727207 -0.098698929 -0.08799535
0.10226687 -0.098897673 -0.083693564
0.11887371 -0.099097073 -0.079374254
-0.20884857 -0.08252652 -0.08361578
0.13472743 -0.08234378 -0.088363647
0.15136351 -0.082509339 -0.084063172
0.16806714 -0.082675479 -0.079745471
-0.22526312 -0.066163257 -0.083245814
-0.20816326 -0.065941013 -0.090463698
0.1674052 -0.066006266 -0.088344216
0.18403189 -0.066111155 -0.084938288
0.20099707 -0.066311307 -0.078436017
-0.24194452 -0.049846452 -0.08061415
-0.22481601 -0.04968987 -0.087394357
0.20030397 -0.049723487 -0.085938871
0.21735685 -0.049884114 -0.078983426
-0.24166988 -0.033412073 -0.082992673
-0.22456549 -0.03330854 -0.089718997
0.21655685 -0.033350643 -0.086977422
0.23364823 -0.033456799 -0.080087245
-0.25859737 -0.017066818 -0.078543544
-0.2414026 -0.017014679 -0.085307539
0.21627377 -0.016980154 -0.08980608
0.23338757 -0.01703636 -0.082505763
-0.25849143 -0.00065310864 -0.07940352
-0.24134988 -0.00065308803 -0.08576405
0.2503345 -0.00065310864 -0.077624023
0.23312645 -0.00065306737 -0.084928572
-0.25878656 0.015772453 -0.077007294
-0.24162492 0.015723391 -0.083382189
-0.22456862 0.015674887 -0.08969003
0.23286282 0.015692666 -0.087374866
0.25015047 0.015755478 -0.079217911
-0.24190961 0.032137904 -0.080916822
-0.22483274 0.032040566 -0.087239265
0.23313275 0.032077014 -0.084870279
-0.22535862 0.048500035 -0.082359672
-0.20838507 0.048363999 -0.088247359
0.21620409 0.048311967 -0.090502441
0.23340225 0.048499703 -0.082369328
-0.2092056 0.064955518 -0.080048144
-0.1922853 0.064782828 -0.085657239
0.21645011 0.064709343 -0.088043928
0.23366295 0.064958528 -0.079950511
-0.19308977 0.081476904 -0.076948464
-0.17624186 0.081285246 -0.081930876
-0.1595128 0.081114501 -0.086366057
-0.14290151 0.080971278 -0.090086579
0.19991635 0.080969378 -0.090134978
0.21714872 0.081318527 -0.081062973
-0.12734655 0.097873576 -0.077584863
-0.11072381 0.097700767 -0.081326306
-0.094158843 0.097528107 -0.08506465
-0.077652298 0.097356513 -0.088780165
0.18365739 0.097329587 -0.089360893
0.20067061 0.097671054 -0.081969798
-0.045176204 0.11414357 -0.080389857
-0.028718634 0.11394039 -0.084160566
-0.012319218 0.11373787 -0.087917864
0.069308743 0.11359808 -0.090511978
0.085664593 0.11364602 -0.0896222
0.10203373 0.11369351 -0.088741362
0.11841698 0.11374154 -0.087849975
0.13481341 0.11378912 -0.086967707
0.15122482 0.11383774 -0.086065114
0.16772352 0.11393779 -0.084209144
0.1842519 0.11403843 -0.08234024
0.020445045 0.13072847 -0.077379286
-0.16098668 -0.14916116 -0.067219853
-0.14429295 -0.14896837 -0.070002913
-0.12778799 -0.14893973 -0.070416689
-0.1112894 -0.148911 -0.070830405
-0.094797187 -0.14888242 -0.071244121
-0.078311734 -0.14885442 -0.071647584
-0.06183219 -0.14882581 -0.072060823
-0.045359012 -0.1487972 -0.072473824
-0.028903557 -0.14881967 -0.072149277
-0.012459556 -0.14899018 -0.069687486
0.004022351 -0.14889808 -0.071017683
0.020515271 -0.14908938 -0.068256915
-0.19435428 -0.13290417 -0.06325984
-0.17711763 -0.1323913 -0.071588457
0.053376481 -0.13226417 -0.073653281
0.06996911 -0.13254659 -0.069066167
0.086680807 -0.13290657 -0.063220143
-0.21044686 -0.11613644 -0.067644715
-0.19318298 -0.11568958 -0.075939417
0.086193129 -0.11569214 -0.075890481
0.10283916 -0.11593941 -0.071303129
0.11955635 -0.11618713 -0.066705883
-0.2267881 -0.099571913 -0.069095671
-0.20954224 -0.099221379 -0.076683998
0.13554873 -0.099297903 -0.075027466
0.15229124 -0.099498957 -0.070672929
0.16910213 -0.099700987 -0.066300511
-0.24327913 -0.083086945 -0.069056273
-0.22600514 -0.082805753 -0.076360822
0.18486117 -0.082852565 -0.075145185
0.20202038 -0.083152212 -0.067358196
-0.25981206 -0.066611744 -0.068681359
-0.24247865 -0.066386633 -0.075988472
0.21811262 -0.066527084 -0.071430981
0.23534103 -0.066744141 -0.06437999
-0.27652919 -0.050162252 -0.066943109
-0.25918153 -0.050003774 -0.073800504
0.23452173 -0.050045814 -0.071982026
0.2517643 -0.050201423 -0.065241694
-0.27621263 -0.033621904 -0.069362104
-0.2588855 -0.033516534 -0.076204002
0.2509008 -0.033570223 -0.072719634
0.26827312 -0.03368447 -0.065301001
-0.29331601 -0.017171878 -0.064895153
-0.27590063 -0.017119162 -0.071745872
0.25061959 -0.017092876 -0.07515502
0.26797107 -0.017149886 -0.067753255
-0.29308426 -0.00065310864 -0.066567421
-0.27573591 -0.00065308803 -0.073004723
0.26765758 -0.00065314997 -0.070298493
0.28509876 -0.00065308803 -0.062932551
-0.29342031 0.015871421 -0.064142227
-0.2760514 0.015821844 -0.070594013
0.26757026 0.015818622 -0.071007729
-0.27637017 0.032334235 -0.068158209
-0.25908843 0.032235738 -0.07455653
0.25044078 0.032202743 -0.076703727
0.26788351 0.032329548 -0.06846422
-0.27684903 0.048912492 -0.064498842
-0.25958979 0.048774209 -0.070485651
-0.24242662 0.048636708 -0.076439202
0.25072837 0.04868808 -0.074213028
0.26818535 0.048877493 -0.066013634
-0.24331443 0.0653034 -0.068750441
-0.22621547 0.065129131 -0.074409306
0.25110075 0.06523446 -0.07098794
-0.22712775 0.081900515 -0.065944374
-0.21004823 0.081681699 -0.071627855
0.23453021 0.081671104 -0.071903408
-0.17762993 0.098429978 -0.065538645
-0.16078079 0.098228715 -0.069894373
-0.14402847 0.09804748 -0.073820174
0.21797286 0.098093279 -0.072827876
0.23541045 0.098513298 -0.063735843
-0.11159429 0.11496358 -0.065172434
-0.094900966 0.1147574 -0.068997085
-0.07826706 0.11455207 -0.072808146
-0.061692245 0.11434746 -0.076605856
0.20140441 0.11448644 -0.074026525
0.21873797 0.11496295 -0.065182269
-0.045557607 0.1315601 -0.063874602
-0.028969111 0.13131273 -0.067891538
-0.012442574 0.13106625 -0.071893513
0.004022351 0.13082074 -0.075880527
0.036878143 0.13077004 -0.076703548
0.053321421 0.13081107 -0.076037407
0.069775276 0.13085273 -0.075361013
0.086239181 0.13089383 -0.074693859
0.10271384 0.13093556 -0.074016571
0.11919893 0.13097733 -0.073338926
0.13569388 0.13101846 -0.072670519
0.15219983 0.13106023 -0.07199204
0.16871627 0.13110204 -0.071312904
0.18539095 0.13125134 -0.068888605
-0.16237976 -0.16705516 -0.049123168
-0.029246004 -0.16699488 -0.04990679
0.020652046 -0.16694997 -0.050488949
-0.14540817 -0.16668698 -0.053906024
-0.128959 -0.16687979 -0.051401973
-0.012597539 -0.16685197 -0.051762938
0.004022351 -0.16670929 -0.053615868
-0.19556181 -0.15034127 -0.050187826
-0.1781957 -0.14974062 -0.058857083
0.037114009 -0.14956555 -0.061383665
0.05381982 -0.15004553 -0.054456174
-0.21172567 -0.13342112 -0.054866076
0.10352915 -0.13332886 -0.056364417
0.12048541 -0.1337537 -0.049464822
-0.24538021 -0.11704091 -0.050860226
-0.2278454 -0.11658699 -0.059285164
0.13634554 -0.11643589 -0.062088847
0.1532072 -0.11668567 -0.057451963
0.17014179 -0.11693674 -0.052794874
-0.26165161 -0.10028078 -0.053745925
-0.24415821 -0.099925295 -0.061443269
0.18608791 -0.099961594 -0.060658097
0.20336753 -0.10032569 -0.052774847
-0.27825099 -0.083674729 -0.05378592
-0.26069865 -0.083378382 -0.061483085
0.2191947 -0.083411686 -0.060618341
0.23638467 -0.083639584 -0.054696083
-0.29484978 -0.067069158 -0.053825974
-0.27726454 -0.06683816 -0.06132406
0.25268334 -0.066962652 -0.057282448
0.27013952 -0.067182392 -0.050147712
-0.31156212 -0.050482225 -0.053085268
-0.2939899 -0.050321784 -0.060031533
0.26907784 -0.050351001 -0.058767378
0.28649491 -0.050501179 -0.052264094
-0.31120372 -0.033834815 -0.055535495
-0.29365256 -0.033728041 -0.062466145
0.28576639 -0.033799443 -0.057830811
0.30338192 -0.033915222 -0.050308347
-0.32848969 -0.017278714 -0.051020801
-0.31084615 -0.017225152 -0.057980239
0.28543803 -0.017206918 -0.060339987
0.30302349 -0.01726428 -0.052895069
-0.32811326 -0.00065310864 -0.053465784
-0.31053886 -0.00065310864 -0.060081303
0.30266038 -0.0006531293 -0.055515587
-0.32847577 0.015971795 -0.051111102
-0.31089574 0.015921514 -0.057641327
0.285126 0.015882468 -0.062724233
0.30281827 0.015946664 -0.054376185
-0.3112534 0.032533783 -0.055195868
-0.29375714 0.032433491 -0.061711431
0.28545624 0.032456741 -0.060200632
0.30316231 0.032584682 -0.051893234
-0.3116588 0.049191352 -0.052424312
-0.2942051 0.049051438 -0.058478534
0.28577551 0.049068037 -0.057761014
0.30350161 0.049260091 -0.049444735
-0.29528713 0.065860093 -0.050669611
-0.27786523 0.065673389 -0.056733727
-0.2605409 0.06548769 -0.06276381
0.26871035 0.065518938 -0.061751187
0.28647393 0.065806098 -0.052424312
-0.26156044 0.082341552 -0.054486156
-0.24429825 0.082120441 -0.060230434
0.25206071 0.082026303 -0.062674403
0.26974317 0.082384624 -0.053365648
-0.22863019 0.099055178 -0.052003443
-0.21153377 0.098834366 -0.056783617
-0.1945478 0.098631963 -0.061165035
0.25294045 0.098914087 -0.055055976
-0.16215803 0.11567312 -0.052003443
-0.14518322 0.11539571 -0.057152808
-0.12835591 0.11517791 -0.061194897
0.23631358 0.11549249 -0.055355728
-0.095698379 0.13230787 -0.051732779
-0.078921884 0.1320577 -0.055795372
-0.062208414 0.1318084 -0.059842587
0.20278361 0.13185439 -0.059096038
0.22033702 0.13246366 -0.049203455
0.037285607 0.14903152 -0.050237954
0.053796742 0.14867003 -0.055455625
0.070315063 0.14850546 -0.057830751
0.086857557 0.14845027 -0.058628023
0.10338734 0.14839441 -0.059434474
0.11990529 0.14833927 -0.060230553
0.13650165 0.14838611 -0.059553981
0.15310916 0.14843373 -0.058866978
0.16972651 0.14848061 -0.058189631
0.18673846 0.14884196 -0.052975178
-0.17988779 -0.16784415 -0.038874745
-0.11247158 -0.16707294 -0.048892021
-0.095945776 -0.16726664 -0.046376169
-0.079364002 -0.16742584 -0.044308901
-0.062629275 -0.16728222 -0.046174705
-0.045923352 -0.16713883 -0.048037291
0.037389483 -0.16748877 -0.043491066
0.054235715 -0.16803101 -0.036447465
-0.21311198 -0.15097684 -0.041013181
0.070633672 -0.15052854 -0.047483921
0.087556213 -0.15101399 -0.040476501
-0.24694942 -0.13450469 -0.037270725
-0.22923337 -0.1339421 -0.046406388
0.13755062 -0.13418144 -0.042520702
0.15472515 -0.13461114 -0.03554219
-0.26305288 -0.11749851 -0.042369068
0.18741421 -0.11735696 -0.04499501
0.20488895 -0.11782534 -0.03630507
-0.2970185 -0.10100006 -0.03817457
-0.2792708 -0.10063893 -0.045993268
0.22077535 -0.10069293 -0.044823527
0.23831083 -0.10106239 -0.036823571
-0.31373706 -0.084274016 -0.038215041
-0.29592952 -0.08397302 -0.04603374
0.25366843 -0.083868496 -0.048751235
0.2710951 -0.08411333 -0.042389333
-0.33049718 -0.067557044 -0.03798157
-0.31258911 -0.067308143 -0.0460639
0.28769985 -0.067400731 -0.043056488
0.30530253 -0.067604184 -0.036447525
-0.32925284 -0.050644357 -0.0460639
0.30401891 -0.050652597 -0.04571104
0.3216497 -0.050804757 -0.03911823
-0.34742022 -0.034123793 -0.036762655
-0.32886851 -0.033942167 -0.048560321
0.32111654 -0.034031451 -0.042763293
0.3389692 -0.034147743 -0.035206378
-0.34693125 -0.017365171 -0.039787412
0.32072964 -0.017321849 -0.045408666
0.33856067 -0.017379975 -0.037859797
-0.34644526 -0.00065314997 -0.042793691
0.32034516 -0.00065314997 -0.048037231
0.33821553 -0.00065310864 -0.040101588
-0.34687716 0.016056413 -0.040121853
0.32064265 0.016011173 -0.046003342
0.33860287 0.016076008 -0.037585676
-0.34737095 0.032812975 -0.037067592
-0.32885456 0.032634549 -0.048650682
0.32100421 0.032713447 -0.043531418
-0.32923424 0.049335461 -0.046184778
0.32136661 0.049453899 -0.041053653
-0.3304753 0.066246405 -0.038123786
-0.31280738 0.066047892 -0.04457128
0.30439097 0.066095486 -0.043026209
-0.31396437 0.083027661 -0.036660969
-0.29637703 0.082791157 -0.042803764
-0.27891383 0.082563482 -0.048721135
0.28749895 0.082722396 -0.044591486
0.30539837 0.0830625 -0.035755813
-0.28050539 0.099768512 -0.036559284
-0.26313135 0.099529564 -0.041731834
-0.24583983 0.099291831 -0.046879828
0.27061275 0.099318244 -0.046305656
0.28842911 0.099725768 -0.037484109
-0.23042399 0.11656998 -0.035358906
-0.21322958 0.11632872 -0.039838135
-0.19610675 0.11608889 -0.044288754
-0.17914344 0.11590693 -0.047665
0.2540521 0.11602744 -0.045428693
0.27195349 0.11656678 -0.035419941
-0.14640951 0.13306415 -0.03945291
-0.12944183 0.13281104 -0.043561637
-0.11253823 0.13255897 -0.047654927
0.23805152 0.13307787 -0.03922981
-0.029444614 0.14994825 -0.037006617
-0.012695581 0.1498083 -0.039026856
0.004022351 0.1496685 -0.04104352
0.020694416 0.14939547 -0.044984996
0.20423262 0.14950457 -0.043410003
0.12116002 0.16668643 -0.036945522
0.13784392 0.16662382 -0.037758231
0.15451536 0.16656141 -0.038570464
0.17117354 0.16649806 -0.039391935
-0.012792967 -0.18562165 -0.02637583
0.004022351 -0.18503775 -0.033270597
0.020822754 -0.18545751 -0.028313696
-0.19756354 -0.16864136 -0.028518498
0.071191482 -0.16857594 -0.029368222
-0.23081291 -0.15161858 -0.031750143
0.10458922 -0.15150343 -0.033413351
0.12173345 -0.15199594 -0.026304007
-0.26482442 -0.13507654 -0.027985752
0.17206186 -0.13508467 -0.027852535
-0.29895511 -0.11847765 -0.024198174
-0.28090242 -0.11797508 -0.033525467
0.22250344 -0.11829671 -0.027555406
-0.31498012 -0.10139069 -0.029716134
0.25597635 -0.10143469 -0.028764248
-0.33194783 -0.084645674 -0.028559506
0.28873515 -0.084392168 -0.035145342
0.30649346 -0.084672786 -0.027852654
-0.34949127 -0.067988969 -0.023951352
0.32301289 -0.067809038 -0.029797971
0.3408303 -0.068014637 -0.023118079
-0.34796166 -0.050936516 -0.033413351
0.33938816 -0.05095797 -0.032485187
0.35766736 -0.05117381 -0.023138523
-0.36650127 -0.034337051 -0.022912145
0.35707769 -0.034277376 -0.026786327
-0.36598244 -0.017471511 -0.025975525
0.35651475 -0.017438473 -0.030268431
-0.3654668 -0.00065310864 -0.02902025
0.35629672 -0.00065306737 -0.031617284
-0.3659181 0.016162403 -0.026355386
0.35672319 0.016142208 -0.028979301
-0.36644199 0.033025406 -0.023262024
0.33898488 0.03284312 -0.035104454
0.35720211 0.032983035 -0.026016653
-0.34786612 0.049616653 -0.034004569
0.33937246 0.04964938 -0.032587051
0.35771731 0.04987476 -0.02282989
-0.34943804 0.066672683 -0.024280429
0.32239613 0.066373006 -0.034014702
0.34052634 0.066647716 -0.025092483
-0.33200935 0.083354846 -0.028159916
0.3234444 0.083405346 -0.026847899
-0.31550172 0.10024921 -0.026150107
-0.29796106 0.10000803 -0.03137219
0.30639127 0.10013657 -0.028590202
-0.26502651 0.1170558 -0.026345134
-0.24768947 0.11681248 -0.030861378
0.29002115 0.11711114 -0.025318444
-0.19822705 0.13417985 -0.021336019
-0.1808515 0.13380057 -0.027493834
-0.1635734 0.13342352 -0.033617258
0.25584874 0.13365428 -0.029869676
0.27367172 0.13417161 -0.02147007
-0.13059697 0.15079361 -0.024804652
-0.11365944 0.15065205 -0.02684778
-0.096753567 0.15051077 -0.028887153
-0.079879232 0.15036972 -0.030922711
-0.063036352 0.15022902 -0.032954514
-0.046224844 0.15008846 -0.034982324
0.22174697 0.15007937 -0.035114765
0.23939589 0.1506585 -0.026755452
0.071391545 0.16776994 -0.022870958
0.087978251 0.16725868 -0.029511571
0.10452333 0.16684853 -0.034839928
0.18831553 0.16688617 -0.034350872
0.2056035 0.16733122 -0.028569698
-0.046744861 -0.18679957 -0.01246506
-0.029714951 -0.18620831 -0.019447684
0.037820339 -0.18654209 -0.015506029
-0.21543354 -0.16946527 -0.017814875
0.08845593 -0.16952026 -0.01710093
-0.26706293 -0.15313855 -0.0098116994
0.15664507 -0.15327586 -0.007830441
-0.2488025 -0.15234801 -0.021222532
0.13898937 -0.15249097 -0.019158602
-0.30103809 -0.13623548 -0.009165585
-0.28285423 -0.13565388 -0.018610835
0.18986653 -0.13581252 -0.016034484
-0.31717229 -0.11898794 -0.014728427
0.24026029 -0.11877208 -0.018734992
0.25816238 -0.11925179 -0.0098326206
-0.33367532 -0.10196239 -0.017339051
0.27374917 -0.10180069 -0.020841002
0.29140973 -0.10208393 -0.014707685
0.30917096 -0.10236932 -0.0085296035
-0.35103419 -0.085190408 -0.01440686
0.32437122 -0.084955402 -0.020510972
0.34228653 -0.085219108 -0.013659716
-0.36873224 -0.068426602 -0.0097388029
0.36012015 -0.068481237 -0.0079662204
-0.36710894 -0.051261876 -0.019323885
-0.38582695 -0.034553077 -0.0088840723
0.376957 -0.034556195 -0.008675456
-0.38527757 -0.017579215 -0.011986852
0.37633285 -0.017576283 -0.012361169
-0.38472977 -0.00065310864 -0.015080929
0.37571251 -0.00065306737 -0.016024053
-0.38520026 0.016269652 -0.012423575
0.37589857 0.016250325 -0.01492548
-0.38575682 0.033240732 -0.0092802048
0.37640679 0.033200055 -0.011924565
-0.36696556 0.049936108 -0.020170331
0.3769182 0.050196324 -0.0089048147
-0.36864403 0.067104466 -0.010259628
0.3589783 0.066957615 -0.015029192
-0.35106942 0.083892532 -0.014188886
0.34163883 0.083751053 -0.017866611
-0.33398464 0.10074895 -0.015329778
0.32450107 0.1005507 -0.019623399
0.34275872 0.10096782 -0.010592818
-0.31796458 0.11797366 -0.0093114972
-0.30009779 0.1176159 -0.015951633
-0.28251246 0.11733189 -0.021222591
0.30811524 0.11760525 -0.016148388
0.32625338 0.11806364 -0.0076425076
-0.23307402 0.13483056 -0.010769784
-0.21570089 0.13456123 -0.015143275
0.29163387 0.13469352 -0.012995064
-0.16501309 0.1514788 -0.014915168
-0.14768042 0.1510497 -0.021109104
0.25718099 0.15124203 -0.018331826
-0.18244411 0.15191035 -0.0086859465
0.27510378 0.15183021 -0.0098429322
0.054764375 0.16848694 -0.013555825
0.22327037 0.16799921 -0.019891679
0.24107833 0.16867253 -0.0111444
0.15624194 0.1853931 -0.013649285
0.17323199 0.18547747 -0.012652218
0.004022351 -0.20484953 -0.00025874376
0.021088617 -0.20544828 0.0062230825
-0.081131957 -0.18799256 0.0016239285
-0.063883319 -0.18739368 -0.0054482818
0.055018362 -0.18763849 -0.0025578141
-0.25185329 -0.17123695 0.0051982999
-0.23354837 -0.1703465 -0.0063683391
0.10603958 -0.17068177 -0.0020121932
-0.28551468 -0.15393738 0.0017186999
-0.31974271 -0.13697518 0.0028457642
0.20786601 -0.13654892 -0.0040772557
-0.33637297 -0.11979149 0.00018274784
0.27620921 -0.11973485 -0.00086802244
-0.35296327 -0.10264898 -0.002473712
0.32703087 -0.10265578 -0.0023269653
-0.37037688 -0.085743815 -2.7358532e-05
-0.38822496 -0.06887003 0.0046598911
-0.38650566 -0.051591512 -0.0050507784
0.37863177 -0.051736221 0.0012135506
-0.40540406 -0.034771934 0.0053355694
-0.40482143 -0.017688323 0.002182126
0.3965072 -0.017717602 0.0060012341
-0.4042424 -0.0006530261 -0.00095200539
0.39584589 -0.0006530261 0.0022662282
-0.40473196 0.016378347 0.0016977191
0.39532256 0.01635997 -0.00068944693
-0.4053182 0.033458617 0.0048710704
0.3958627 0.033420004 0.0023611188
-0.38630939 0.050259717 -0.0061591864
0.39640242 0.05052691 0.0054094195
-0.38809794 0.067541681 0.0039423704
0.37782446 0.067310914 -0.0035535097
-0.37036803 0.084435597 -7.9989433e-05
0.36024839 0.084162578 -0.0071727037
0.37917075 0.084607907 0.0043960214
-0.35317364 0.10140295 -0.0011725426
0.36152926 0.10149175 0.0007506609
-0.33710453 0.1187413 0.0049343705
0.34459424 0.11854699 0.0013293624
-0.30266741 0.13565348 0.0025929809
-0.2851899 0.13544686 -0.00076305866
-0.26776534 0.13524081 -0.004108727
-0.25039345 0.13503541 -0.0074443221
0.3097342 0.13521881 -0.0044646263
0.32797557 0.13574825 0.0041322112
-0.21760452 0.15278089 0.0038789511
-0.1999743 0.15234447 -0.0024213791
0.29316592 0.15242293 -0.001288116
-0.13230434 0.16975522 0.0029195547
-0.11515512 0.16960049 0.00090837479
-0.098037049 0.16944592 -0.0010991096
-0.080949612 0.16929087 -0.0031133294
-0.063958451 0.16929895 -0.0030085444
0.25903028 0.16935216 -0.0023164153
0.12331217 0.18680227 0.0029933453
0.1398395 0.18609546 -0.005354166
0.19063815 0.18596275 -0.0069220662
0.20813629 0.18645133 -0.0011515021
0.22572523 0.18694173 0.0046386719
-0.030239889 -0.20622653 0.01464802
-0.013048718 -0.20550589 0.006847024
-0.20203336 -0.18953745 0.019868553
-0.18391716 -0.18859263 0.0087100863
-0.16689783 -0.18866538 0.0095685124
-0.150098 -0.18902233 0.013785541
-0.13316515 -0.18928596 0.016897619
-0.11576534 -0.18889092 0.01223284
-0.098438263 -0.18849756 0.0075875521
0.072420798 -0.18874882 0.01055491
-0.27035132 -0.17213663 0.01688689
0.1238662 -0.17185859 0.013274848
-0.30416524 -0.1547469 0.013402641
0.17529748 -0.15480077 0.014179528
-0.33915028 -0.13792209 0.018221676
0.22606167 -0.13729268 0.008000493
0.24445757 -0.13804463 0.020211101
-0.35583621 -0.12060598 0.01529783
0.29440501 -0.12022246 0.0081803799
0.31274897 -0.12071343 0.017292619
-0.37251627 -0.10334542 0.012604773
0.34697303 -0.1035383 0.016780198
-0.38999149 -0.086308241 0.014637351
0.36290336 -0.086100951 0.0092504025
-0.40797442 -0.069319218 0.019248009
0.38128617 -0.069246516 0.01688695
-0.40615672 -0.051925402 0.0094094276
-0.42523566 -0.034993701 0.019740105
0.39755219 -0.034873113 0.011903524
-0.42461878 -0.017798711 0.016534805
-0.4240078 -0.00065310864 0.013360023
-0.42451611 0.016488403 0.016001582
0.41564012 0.016497655 0.017196476
-0.42513269 0.03367931 0.019205213
0.41557106 0.033642638 0.016822934
-0.40590224 0.050587535 0.0080321431
0.41614166 0.050861791 0.019911289
-0.40780455 0.06798476 0.018328667
0.39695865 0.067683704 0.0085511208
-0.38990101 0.08498235 0.014126301
0.39829099 0.085057475 0.016076148
-0.3726117 0.1020653 0.013168573
0.38052496 0.10202944 0.012392342
-0.3564921 0.11951832 0.019355059
0.3632395 0.11908596 0.011329889
-0.32219964 0.13670348 0.019643903
0.34650216 0.13633884 0.013721764
-0.25316846 0.15366144 0.016588151
-0.23533563 0.15321985 0.010215461
0.311369 0.15302022 0.0073335767
0.32972878 0.15362883 0.016118824
-0.16768003 0.17104927 0.019729495
-0.14982565 0.17028916 0.0098547935
-0.047265947 0.17030795 0.010098696
0.038213737 0.17030384 0.010045648
0.2771256 0.17003638 0.0065721273
0.29536715 0.17072617 0.015532434
0.1067319 0.18764777 0.012977123
0.24340777 0.18743545 0.010470212
0.2611824 0.18793093 0.01632154
-0.047631081 -0.2072669 0.025909543
-0.22033262 -0.19049196 0.031139851
0.090402268 -0.19068895 0.03346628
-0.28904557 -0.17304596 0.028699577
0.14190677 -0.17300861 0.028214276
-0.32305628 -0.15558511 0.025500774
-0.3588416 -0.13888697 0.033888757
-0.37556559 -0.12143105 0.030610263
-0.3923381 -0.10405156 0.02789098
-0.40986612 -0.086879842 0.029487133
-0.42606708 -0.052263815 0.024060428
0.4000968 -0.052314959 0.026275337
-0.44467676 -0.017910792 0.031085849
0.41702136 -0.0178614 0.024672866
-0.44403082 -0.0006530261 0.027858615
0.4163177 -0.00065306737 0.020864248
-0.44455782 0.016599948 0.030491471
-0.44520524 0.033902854 0.033726215
0.43570733 0.033881709 0.032351136
-0.42574897 0.050919484 0.022407532
-0.42776054 0.068432175 0.032859862
0.41672772 0.068131156 0.023083448
-0.40968671 0.085536316 0.028516293
0.41761392 0.085511871 0.027880192
-0.39230379 0.1027363 0.027696967
0.39972177 0.10257285 0.024157107
-0.37610984 0.1202981 0.033823848
0.38205227 0.11962914 0.021410525
0.40131438 0.12026184 0.033152282
0.36525932 0.13696095 0.023824215
0.38418943 0.1375895 0.034029603
-0.2888777 0.15441167 0.027416825
-0.27110398 0.15410538 0.022997677
0.34842995 0.15433028 0.02624315
-0.185693 0.17181541 0.029681504
0.31375673 0.17142157 0.024565399
0.27937755 0.18865357 0.024855614
0.29778072 0.18942583 0.033975422
0.19401506 0.20661166 0.032957435
0.21089979 0.20622441 0.028764248
0.22866435 0.2067087 0.034007967
-0.065199189 -0.20831774 0.037285566
-0.23881777 -0.19145605 0.042525649
-0.30797687 -0.17398602 0.040910721
-0.34216064 -0.15643544 0.037774861
0.19456121 -0.15654857 0.039407015
-0.39562067 -0.12228359 0.046430647
0.33380044 -0.12215029 0.043957055
-0.41243237 -0.10476683 0.043377757
-0.43000984 -0.087459512 0.044547558
0.38578552 -0.087417431 0.04345423
0.40352383 -0.070131645 0.045631051
-0.42800444 -0.069777414 0.034127235
-0.446242 -0.052606665 0.038906157
-0.44532454 -0.035218235 0.034322321
0.41921508 -0.035252512 0.036546767
-0.46499628 -0.018024193 0.045817256
-0.4643167 -0.00065310864 0.042547524
0.43713862 -0.00065306737 0.039788187
-0.46485975 0.016712897 0.045160294
0.43641239 0.016642485 0.036014616
-0.4458611 0.051256552 0.037002921
0.43614095 0.051201131 0.034604192
0.43675739 0.068584479 0.037807405
-0.44796085 0.068882816 0.047494054
-0.42973 0.086097337 0.043093622
0.43738189 0.086018831 0.041052461
-0.41225481 0.10341623 0.042416453
0.41912481 0.10312252 0.036058068
0.42078018 0.12090133 0.045018077
-0.34274924 0.13805553 0.041597903
0.40329129 0.13822307 0.044317782
-0.30847174 0.15559392 0.044481993
0.3673037 0.15503892 0.036470711
0.38635084 0.155754 0.046792388
-0.2038684 0.17258921 0.039733827
0.33268166 0.17232551 0.036307812
0.31645277 0.19027653 0.044022679
0.17706698 0.20700046 0.03716594
0.24657683 0.20725077 0.039875269
0.26458323 0.20779559 0.045773447
-0.10087652 -0.2104509 0.060377419
-0.082946487 -0.20937833 0.048766971
-0.25749162 -0.19243006 0.054027677
-0.32712382 -0.17494059 0.053310871
-0.36205798 -0.15754463 0.053784966
-0.37881541 -0.13986687 0.049799681
-0.4328109 -0.10549305 0.059102297
0.37012053 -0.10525259 0.053895354
-0.45042399 -0.088046595 0.059800625
-0.44831014 -0.070242718 0.049239278
-0.46668905 -0.052954391 0.053961515
0.42205581 -0.052907351 0.051922679
-0.46568015 -0.035445906 0.049107373
0.44136161 -0.035640255 0.061731458
0.43873769 -0.018041704 0.048097312
-0.48515922 -0.00065314997 0.058770061
0.45846426 -0.00065306737 0.059778512
0.45754075 0.016789917 0.055164516
-0.46554095 0.034129411 0.048437595
0.45679501 0.034175582 0.051438272
-0.4662447 0.051598825 0.051823556
0.45640764 0.05154518 0.04950285
0.45705068 0.069043539 0.052715778
-0.45003596 0.086665839 0.057861984
0.45771104 0.086594723 0.056014895
-0.43246996 0.10410503 0.057330847
0.43873349 0.10367759 0.048075318
0.45855528 0.10423916 0.060233176
-0.39596048 0.12108081 0.048349798
0.44045508 0.12154809 0.057021081
0.42257112 0.13886318 0.054711759
0.40557179 0.15647493 0.057197988
-0.24071179 0.17415702 0.060099959
-0.22220767 0.17337006 0.049876451
0.35205841 0.17336497 0.049810588
0.37049177 0.17385618 0.056191862
0.33579862 0.19142793 0.057618499
0.28268558 0.20834433 0.051713467
0.30088201 0.20889486 0.057673812
-0.31255612 -0.19411777 0.073958457
-0.29437169 -0.19373155 0.069398582
-0.27625969 -0.19334704 0.064856708
-0.34648284 -0.17590578 0.065848351
-0.38223878 -0.15866901 0.070013762
-0.39908233 -0.14086346 0.065982103
-0.41596493 -0.12314939 0.062498212
-0.45353645 -0.10624361 0.075351357
-0.46889338 -0.07071466 0.064567089
-0.48727188 -0.03574552 0.068571329
-0.4862121 -0.018161507 0.063654602
0.46122149 -0.01823766 0.073554397
-0.48597959 0.016846988 0.062575936
0.4790301 0.016939783 0.074632287
-0.48703599 0.034422498 0.067476928
0.47824228 0.034474283 0.070841849
-0.48817185 0.052081961 0.072746694
0.47745705 0.05195076 0.067063928
-0.46842641 0.069339313 0.062320352
0.47761714 0.069509126 0.067834139
-0.47092003 0.08729922 0.074317753
0.4783121 0.087178342 0.071177781
-0.45291415 0.10479378 0.07224226
0.47900909 0.10489959 0.074531078
-0.41606763 0.12187314 0.063053966
0.46033823 0.12220121 0.069141269
-0.36370924 0.13943517 0.063999414
0.44232127 0.1396026 0.066718161
0.42497283 0.15720333 0.067711413
-0.25938532 0.174952 0.070427716
0.38928005 0.17446408 0.064088583
0.40864465 0.17526962 0.074553668
0.35537913 0.1925931 0.071379364
0.16169257 0.20957388 0.065023839
-0.33137652 -0.19483139 0.082386613
-0.36605749 -0.1768816 0.078525484
-0.40271297 -0.15981041 0.08648783
-0.41963941 -0.1418737 0.082386792
0.26861262 -0.14176786 0.080668867
-0.43660092 -0.12402754 0.078795969
-0.47165173 -0.088740826 0.077838123
0.40991744 -0.088891104 0.081742287
0.42697075 -0.071144529 0.078525484
-0.48893932 -0.053470358 0.076307118
0.44549778 -0.053630054 0.083223879
0.46412835 -0.036045834 0.088077962
-0.50922352 -0.00065310864 0.088305295
0.48128676 -0.00065306737 0.085489631
0.49953583 0.052437615 0.088146269
-0.49157688 0.070146799 0.088544071
0.49864322 0.070007049 0.084004998
-0.43643826 0.1226758 0.077950776
0.48043743 0.12286197 0.081403136
-0.38441661 0.14059742 0.082873166
0.46229991 0.14035532 0.078942657
0.44455236 0.15793766 0.078311384
0.46431726 0.15867966 0.089021802
0.42818826 0.17608269 0.085115552
0.37519684 0.19377163 0.08529681
0.32123521 0.21082208 0.078536808
0.23417093 0.22949548 0.089033186
0.25102437 0.22870594 0.081143379
0.26816612 0.22827151 0.076802373
0.28652623 0.22888127 0.082895815
-0.35100237 -0.19591673 0.0952034
-0.38585132 -0.17786846 0.091344535
-0.42348504 -0.16096838 0.10320187
-0.44049704 -0.14289927 0.099040866
-0.45848921 -0.12517545 0.100097
0.35905764 -0.12491544 0.095272064
-0.47671297 -0.10748317 0.10218912
0.39381886 -0.10696124 0.090888739
-0.49236727 -0.071565926 0.092211068
-0.51146907 -0.036204252 0.098364055
-0.5103426 -0.018389842 0.093318045
0.48416057 -0.018436011 0.099316239
-0.51008272 0.017074661 0.092154086
0.50171351 0.017121576 0.098249435
-0.51120555 0.034879867 0.097183645
0.50062352 0.034818459 0.093192458
-0.51249254 0.052779559 0.10294867
0.50000662 0.08791554 0.090330482
-0.47554168 0.1059167 0.096553683
0.50138009 0.10592351 0.096702576
-0.45791757 0.12371533 0.097240865
-0.40509406 0.14164831 0.099936187
0.48249421 0.14111635 0.091298938
0.44791555 0.17690417 0.09578687
0.39451855 0.19459502 0.095020533
0.41331163 0.1950939 0.10091263
0.34122729 0.21231847 0.09473455
0.35917741 0.21243991 0.096049905
-0.37084883 -0.1970142 0.10816425
-0.40641165 -0.17910272 0.10737824
-0.49584579 -0.089915305 0.10834926
0.45111144 -0.072187364 0.11239314
-0.51334471 -0.05417382 0.10676575
0.46949267 -0.054361183 0.11487973
0.48706684 -0.036434196 0.11329883
0.50413996 -0.00065310864 0.10950661
-0.49502686 0.088462852 0.10455
0.505687 0.12476305 0.11668408
-0.42602971 0.1426976 0.11697543
0.48748243 0.16050032 0.11529857
0.46782476 0.17773248 0.10654634
0.43220103 0.19559546 0.10683501
0.45159894 0.19628049 0.11492628
0.37879449 0.21350241 0.10755152
0.2184248 0.23161615 0.11022466
0.30709499 0.23110835 0.10514981
-0.35616836 -0.2167675 0.12875754
-0.33745953 -0.21632589 0.12397647
-0.39091963 -0.19812407 0.12127155
0.29081708 -0.14405046 0.11773306
0.3095496 -0.14443067 0.1239062
0.3819184 -0.12661849 0.12687576
0.41830423 -0.10872664 0.12911081
0.43459609 -0.090355948 0.11979884
-0.51699066 -0.072517 0.12309766
-0.53630722 -0.036675084 0.12894595
-0.53511083 -0.018624203 0.12376559
0.50700378 -0.018616728 0.12279302
-0.53392249 -0.00065314997 0.11861962
-0.53482407 0.017308405 0.12252373
0.52640933 0.017360233 0.12925202
-0.53601646 0.035349458 0.12768698
0.52524728 0.03529346 0.12404674
0.5241425 0.053152431 0.11909819
-0.51611346 0.071089789 0.1191681
0.52560085 0.07128872 0.12563068
-0.50017869 0.10738999 0.12845159
-0.48231834 0.12543525 0.1291579
-0.44506592 0.1430551 0.12278134
0.3990753 0.21483034 0.12192672
-0.37582344 -0.21770784 0.13893676
-0.42869422 -0.18095164 0.13139737
-0.44789642 -0.16334388 0.13748896
-0.46697697 -0.14557594 0.14250439
0.32999158 -0.14552838 0.14173043
-0.48299474 -0.12691675 0.13241237
-0.50145781 -0.10897029 0.13438606
-0.52069098 -0.091120899 0.13967311
0.45701867 -0.091252349 0.14308816
0.47346073 -0.072874352 0.13470536
-0.53840888 -0.05489615 0.1380465
0.49118435 -0.054782253 0.13310921
0.50990057 -0.036787286 0.13623261
0.52757388 -0.00065310864 0.13446879
-0.53746527 0.053495612 0.13396025
-0.51978016 0.089657672 0.13559312
0.52707261 0.089527957 0.13222349
-0.46577626 0.14390033 0.13650513
0.41938487 0.21605773 0.13521421
-0.41350996 -0.20034251 0.14746928
0.44108924 -0.10991976 0.15494412
0.47793829 -0.091790825 0.15707654
-0.54228348 -0.073493935 0.1548239
0.49537015 -0.073445328 0.15324831
0.51321095 -0.055209018 0.15159088
-0.56054246 -0.018864803 0.15502846
0.53034002 -0.018801989 0.14685953
-0.55928141 -0.00065306737 0.14974397
-0.56022382 0.017548425 0.15369296
0.55055898 0.035782669 0.15582317
-0.54130965 0.07205788 0.15060699
0.53159732 0.1085003 0.15249139
0.51386893 0.14501734 0.15464342
-0.3405636 0.16257183 0.145199
0.35074812 -0.14664286 0.1598289
-0.50836563 -0.12875013 0.16643423
0.40541446 -0.12836871 0.15935767
-0.52690136 -0.11049932 0.16749203
0.46216983 -0.11060847 0.16985422
-0.54621947 -0.092359982 0.17186689
0.51762348 -0.074024647 0.17206234
-0.56415904 -0.055638347 0.17018336
-0.56181216 -0.037158553 0.16034871
0.53337568 -0.037160203 0.16045767
0.55425853 -0.01899427 0.17184252
0.55301505 -0.0006530261 0.16645849
0.55178291 0.017605621 0.1611228
-0.56148916 0.03583144 0.15899533
-0.56311357 0.054231036 0.16580248
0.55199254 0.054143943 0.16203058
0.5535742 0.072620519 0.16887945
-0.54520905 0.090885527 0.16749191
-0.52550381 0.10890403 0.16123176
-0.507213 0.12715574 0.16108662
-0.49087065 0.14598183 0.17030525
-0.28901348 0.18249427 0.16840458
-0.4001033 -0.22108532 0.17549872
-0.47550517 -0.16664344 0.18511379
-0.49298561 -0.14791471 0.18048084
0.3718265 -0.1477748 0.17820811
0.42655858 -0.12925111 0.1757313
0.44685712 -0.12981325 0.18616366
0.48348811 -0.11129896 0.18480515
0.49962851 -0.092432007 0.17373645
0.53647387 -0.055734321 0.17433584
0.55741179 -0.037545756 0.18549657
-0.58532721 -0.00065306737 0.18171132
-0.58631444 0.017794888 0.18571889
-0.56719518 0.073052444 0.18290603
0.39266875 -0.14870891 0.19337642
0.41231361 -0.14912263 0.20009518
0.46743706 -0.13040917 0.19722354
0.50473064 -0.11192165 0.19828415
0.52211308 -0.093169332 0.19289184
-0.56827641 -0.07449808 0.18743694
0.54023105 -0.07461293 0.1911658
0.56064463 -0.056315336 0.19949532
-0.58801097 -0.037655152 0.19260597
-0.58666456 -0.019112051 0.18714011
0.57917488 -0.00065306737 0.1993953
0.57786906 0.017858073 0.19392359
-0.58765316 0.036326639 0.19115341
0.57922554 0.036456808 0.19960773
-0.58947116 0.054986946 0.19853365
-0.57133591 0.09214662 0.20025766
0.55832875 0.09173125 0.18946731
-0.55144238 0.11043984 0.19448328
-0.53279084 0.12892248 0.19387376
0.54116333 0.12900165 0.19534206
-0.36531124 0.16554703 0.18814218
-0.44122466 0.16631453 0.19922042
0.43315291 -0.14991592 0.21297622
-0.53448409 -0.13063738 0.20145845
0.48906583 -0.13124169 0.21267295
-0.55329615 -0.11211682 0.20251012
0.52667922 -0.112651 0.21407592
-0.57245386 -0.093633138 0.20494235
0.54495907 -0.093917966 0.21234465
0.56392425 -0.075306684 0.2136966
-0.59132826 -0.056467187 0.20607245
0.58196986 -0.037940063 0.21110773
0.58048362 -0.019248661 0.20487964
0.58091515 0.055175219 0.20668828
-0.51669836 0.14812414 0.20509303
-0.46107355 0.16678149 0.20595944
-0.38646743 0.16669966 0.20477939
-0.31296614 0.18581082 0.21148634
-0.51984477 -0.15032947 0.2196908
0.45417136 -0.15070274 0.22575307
0.51069748 -0.13201334 0.22699213
0.58538252 -0.056913774 0.22540843
0.58600765 0.074441813 0.2280277
-0.4829042 0.16789837 0.22208142
-0.42577586 0.1675289 0.21674705
-0.40771234 0.1677839 0.22042787
0.47433725 -0.15115392 0.233078
0.49474376 -0.15164429 0.24104166
0.53247482 -0.13276619 0.24096406
0.54976833 -0.11356599 0.23388743
0.56817186 -0.094678007 0.23208928
0.60797441 -0.00065310864 0.24098992
-0.59913462 0.074741468 0.23776221
0.56937778 0.11241806 0.23731101
-0.56144625 0.13128948 0.23780096
-0.50503069 0.16903114 0.23843312
0.38226223 -0.17086104 0.24599028
-0.6021896 -0.076429561 0.25016403
0.58947444 -0.076195322 0.24255526
-0.62055856 -0.00065310864 0.24789989
0.40286857 -0.17158721 0.25647116
0.42287689 -0.1720027 0.26246846
0.44116008 -0.17170702 0.25820029
0.46139249 -0.17216694 0.26483858
0.51680827 -0.15258966 0.2563926
-0.56726146 -0.13395262 0.26298153
0.55468136 -0.13357078 0.25589514
0.57467467 -0.11478352 0.26024723
-0.62407905 -0.019686455 0.26175821
0.61166871 -0.019642061 0.25598681
-0.62307531 0.018349884 0.25780714
0.61477917 0.0184331 0.26861405
-0.5846225 0.11327808 0.25593448
-0.5475437 0.15150312 0.25995839
0.36788934 -0.17301124 0.27702439
0.48225993 -0.17281857 0.27424562
0.50291455 -0.17334661 0.2818656
0.5400151 -0.1537939 0.27594662
-0.59089357 -0.11579815 0.28221297
0.59700215 -0.096295007 0.27409935
-0.62761921 -0.03893438 0.27569401
0.61540514 -0.038864505 0.27115512
-0.6266008 0.03756655 0.271685
-0.61016673 0.095313884 0.28254724
-0.45605204 0.19104457 0.27947605
-0.43756577 0.19134174 0.28333628
-0.41697973 0.19071154 0.27514911
0.61914164 -0.05832053 0.28632307
-0.63207865 0.057174262 0.29324853
0.52644646 -0.1747945 0.3027643
0.56646103 -0.1558086 0.30866146
0.58427715 -0.13604589 0.30182707
0.60469985 -0.11691326 0.30635643
-0.61485922 -0.097353332 0.3015964
-0.63556087 -0.058797061 0.30695617
-0.56013429 -0.15628256 0.3163569
