ply
format ascii 1.0
comment PCL generated
element vertex 1353
property float x
property float y
property float z
element camera 0
property float view_px
property float view_py
property float view_pz
property float x_axisx
property float x_axisy
property float x_axisz
property float y_axisx
property float y_axisy
property float y_axisz
property float z_axisx
property float z_axisy
property float z_axisz
property float focal
property float scalex
property float scaley
property float centerx
property float centery
property int viewportx
property int viewporty
property float k1
property float k2
end_header
0.31401026 0.35958123 -0.25274909
0.33791864 0.36048025 -0.2458787
-0.31199113 0.38334829 -0.24842584
-0.28810352 0.38239789 -0.25528467
-0.26432434 0.3814519 -0.26211202
0.26688388 0.38145584 -0.26208329
0.29061073 0.38240188 -0.25525558
0.31444433 0.38335025 -0.24841142
-0.28853688 0.40617979 -0.25095415
-0.2647239 0.40518034 -0.25778675
0.26725015 0.40518469 -0.25775766
0.29101077 0.40618402 -0.25092483
-0.24138194 0.42792279 -0.26029944
0.24392731 0.42792732 -0.26027024
-0.28897148 0.43003011 -0.24661112
-0.26512325 0.42897528 -0.25346351
0.26761627 0.42897964 -0.25343442
0.29141197 0.43003476 -0.24658179
-0.26571026 0.45316499 -0.24710882
-0.24174741 0.45173031 -0.25598335
-0.2180801 0.45062941 -0.26279318
0.22064446 0.45063418 -0.26276422
0.24425958 0.45173508 -0.25595427
0.2681556 0.45317209 -0.24706495
-0.21869175 0.47506577 -0.25484788
-0.1951572 0.47413027 -0.2603718
-0.17185152 0.47359014 -0.26356089
0.17442055 0.47359252 -0.26354647
0.19770178 0.47413266 -0.26035726
0.22119595 0.47507316 -0.2548039
-0.19604972 0.49952042 -0.24748945
-0.17264228 0.49894834 -0.25072026
-0.14928573 0.49838018 -0.25392997
-0.12597892 0.49781293 -0.25713265
-0.10272224 0.49724984 -0.26031387
-0.079514287 0.49668503 -0.26350284
0.082082093 0.49668503 -0.26350284
0.10526549 0.49724984 -0.26031387
0.12849826 0.49781555 -0.25711799
0.15178052 0.49838257 -0.25391543
0.17511247 0.49895078 -0.25070584
0.19849426 0.49952042 -0.24748945
-0.033442862 0.52095801 -0.25707436
-0.010283575 0.5203675 -0.26027048
0.012826505 0.5203675 -0.26027048
0.035961188 0.52095801 -0.25707436
-0.10321696 0.52273434 -0.24746025
-0.079909235 0.52214003 -0.25067663
-0.056651179 0.52154696 -0.25388634
0.059145186 0.52154958 -0.25387156
0.082378305 0.52214003 -0.25067663
0.10566128 0.52273434 -0.24746025
-0.010382527 0.54595125 -0.24741626
0.012826505 0.54595125 -0.24741626
-0.26743424 0.15256599 -0.22844648
-0.24394748 0.15247029 -0.23000193
-0.22048365 0.15237364 -0.23157048
-0.19704406 0.15227717 -0.23313737
-0.17373966 0.15229174 -0.23290086
-0.1505169 0.15240371 -0.2310822
-0.12725255 0.1524976 -0.22955763
-0.10392998 0.15253593 -0.2289356
-0.08059831 0.15257527 -0.22829831
-0.057256479 0.15261354 -0.22767556
-0.033905305 0.15265287 -0.22703779
0.036192413 0.15265287 -0.22703779
0.059548501 0.15261354 -0.22767556
0.082895115 0.15257527 -0.22829831
0.1062317 0.15253593 -0.2289356
0.12955905 0.1524976 -0.22955763
0.15283513 0.15240371 -0.2310822
0.1760719 0.15229174 -0.23290086
0.19937812 0.15227717 -0.23313737
0.22280562 0.15237364 -0.23157048
0.24625739 0.15247029 -0.23000193
0.26973221 0.15256599 -0.22844648
-0.36072311 0.17584729 -0.22951329
-0.33708405 0.17567189 -0.23204374
-0.31348601 0.17549789 -0.23455524
-0.28997281 0.17535587 -0.23660553
-0.26653764 0.17524864 -0.2381525
-0.24312642 0.17514157 -0.23969793
-0.21973798 0.17503363 -0.24125659
-0.19637369 0.17492577 -0.24281383
-0.17303343 0.17481795 -0.24436891
0.17545472 0.17481899 -0.24435437
0.19878311 0.17492673 -0.24279881
0.22213557 0.17503472 -0.24124193
0.24551098 0.17514157 -0.23969793
0.26891029 0.17524864 -0.2381525
0.29233354 0.17535587 -0.23660553
0.31583247 0.1754989 -0.23454034
0.33941129 0.17567299 -0.23202884
0.36303097 0.17584829 -0.22949839
-0.36017665 0.1988526 -0.2339499
-0.33604571 0.19830701 -0.24103606
-0.31239045 0.19802339 -0.24472082
0.31481367 0.19802339 -0.24472082
0.33844373 0.19830932 -0.24100673
0.3625204 0.19885474 -0.23392022
-0.38391498 0.22244065 -0.23069751
-0.35970071 0.22183801 -0.23781383
-0.3356016 0.22123952 -0.24488223
0.33802921 0.22124206 -0.24485302
0.3620742 0.22184055 -0.2377845
0.3862339 0.22244312 -0.23066783
-0.40770227 0.24607809 -0.22745335
-0.38340822 0.24542074 -0.23456991
-0.35922602 0.24476497 -0.24166811
0.36162913 0.24476765 -0.24163866
0.38575509 0.24542208 -0.23455513
0.40999645 0.24608083 -0.22742355
-0.40716249 0.26905102 -0.23134851
-0.3829008 0.26834053 -0.23844707
0.38527936 0.26834351 -0.23841774
0.40948665 0.269054 -0.23131895
-0.40742913 0.29259109 -0.22942436
-0.38254085 0.29132235 -0.24119794
0.38494235 0.29132694 -0.24115384
0.40974233 0.29259741 -0.22936523
-0.38287193 0.31487119 -0.23866808
0.385254 0.31487638 -0.23862374
-0.38320354 0.33845973 -0.23613381
-0.35901442 0.33756638 -0.24338591
0.36143073 0.33757013 -0.2433567
0.38556612 0.33846527 -0.23608947
-0.383733 0.36228508 -0.23208797
-0.35955203 0.36137778 -0.23902118
0.36193478 0.36138165 -0.23899174
0.38606262 0.36228895 -0.23205853
-0.38430849 0.38622147 -0.22769034
-0.36009303 0.38526016 -0.23462892
-0.33598629 0.38430095 -0.24155045
0.33838829 0.38430512 -0.241521
0.36244023 0.38526219 -0.23461425
0.38660428 0.38622558 -0.22766101
-0.36063373 0.40920955 -0.23023868
-0.33649093 0.4081943 -0.23718023
-0.31245998 0.40718579 -0.24407566
0.31487969 0.40718794 -0.24406111
0.33885929 0.40819871 -0.23715079
0.3629472 0.40921181 -0.23022377
-0.33739677 0.43268996 -0.22933543
-0.31297138 0.43115121 -0.23933017
0.31535608 0.43115562 -0.23930073
0.33970636 0.4326967 -0.22929108
-0.3142834 0.45639032 -0.2271564
-0.28991675 0.45477241 -0.23716569
0.29228589 0.45477957 -0.23712146
0.31657586 0.45639765 -0.22711205
-0.26682904 0.47842735 -0.23499799
-0.24268124 0.47674114 -0.2449553
0.24510963 0.47674853 -0.24491167
0.26918116 0.47843498 -0.23495364
-0.2437095 0.50211895 -0.23281229
-0.21961927 0.50035083 -0.24279892
0.22203076 0.50035864 -0.24275494
0.24604331 0.50212431 -0.23278272
-0.22055538 0.52584219 -0.23063827
-0.1969489 0.52512658 -0.2345109
-0.17344075 0.52452737 -0.23775494
-0.14998211 0.5239265 -0.24100673
-0.12657453 0.52332985 -0.24423695
0.12899405 0.52332985 -0.24423695
0.15237743 0.5239293 -0.24099207
0.17581034 0.52452737 -0.23775494
0.19929443 0.52512944 -0.234496
0.22287226 0.52584761 -0.23060882
-0.1506853 0.54969627 -0.22795713
-0.12717529 0.54906648 -0.23123026
-0.10371652 0.54844064 -0.23448133
-0.080308028 0.54781634 -0.23772562
-0.056949627 0.54719335 -0.24096274
-0.033641186 0.54657167 -0.24419296
0.036060352 0.54657167 -0.24419296
0.05934393 0.54719335 -0.24096274
0.082677402 0.54781634 -0.23772562
0.10606093 0.54844064 -0.23448133
0.12949525 0.54906929 -0.23121548
0.15297948 0.54969627 -0.22795713
-0.05725066 0.57306099 -0.22792768
-0.033841215 0.57240587 -0.2312007
-0.010482329 0.57175529 -0.23445165
0.012826505 0.57175821 -0.23443711
0.036160365 0.57240587 -0.2312007
0.059544615 0.57306099 -0.22792768
-0.36328527 0.13027444 -0.20871091
-0.3394838 0.1301371 -0.21126115
-0.31572205 0.12999986 -0.21380723
-0.29199994 0.12986289 -0.21634901
-0.26833662 0.12973741 -0.21867776
-0.24484196 0.12969641 -0.21943855
-0.22155881 0.12979527 -0.21760345
-0.19824654 0.12989351 -0.21578121
-0.17490727 0.12999263 -0.21394193
-0.15153976 0.13009186 -0.21210051
-0.12814473 0.13019192 -0.21024168
-0.10467955 0.13023396 -0.20946133
-0.081197746 0.13026793 -0.20883107
0.083344683 0.13026793 -0.20883107
0.10683133 0.13023396 -0.20946133
0.13030194 0.13019115 -0.2102567
0.15371187 0.13009186 -0.21210051
0.17709354 0.12999263 -0.21394193
0.20044698 0.12989351 -0.21578121
0.22377224 0.12979455 -0.21761847
0.24706942 0.12969559 -0.21945333
0.27055937 0.12973741 -0.21867776
0.29420477 0.12986289 -0.21634901
0.3179073 0.12999986 -0.21380723
0.34164947 0.1301371 -0.21126115
0.36543304 0.13027516 -0.20869589
-0.40986905 0.15359026 -0.21181583
-0.38575947 0.15329544 -0.21660304
-0.36200073 0.15313923 -0.21914017
-0.33827984 0.15298235 -0.22168803
-0.31460023 0.15282668 -0.2242167
-0.29095998 0.15267113 -0.22674108
-0.010544312 0.15269209 -0.22639978
0.012826505 0.15269209 -0.22639978
0.29324478 0.15267113 -0.22674108
0.31686562 0.15282668 -0.2242167
0.34052575 0.15298235 -0.22168803
0.36422703 0.15313923 -0.21914017
0.38796806 0.15329638 -0.21658802
0.41204286 0.15359204 -0.21178579
-0.43383262 0.17730094 -0.20853078
-0.40932578 0.17680168 -0.21573651
-0.38493237 0.17630382 -0.22292304
0.38719147 0.1763059 -0.22289348
0.41152978 0.17680383 -0.21570659
0.43598136 0.177303 -0.20850074
-0.4332557 0.20050573 -0.21247494
-0.40878391 0.19995357 -0.21964705
-0.38442302 0.19940169 -0.22681522
0.38671204 0.19940402 -0.22678554
0.41101605 0.19995479 -0.21963227
0.43543485 0.200508 -0.21244502
-0.45723927 0.22426181 -0.20919144
-0.43268251 0.22365184 -0.21639395
-0.40824133 0.22304483 -0.22356248
0.41050559 0.2230473 -0.2235328
0.43489182 0.22365443 -0.21636403
0.45939338 0.22426422 -0.20916128
-0.45700136 0.24762233 -0.21073663
-0.43211079 0.24673869 -0.22030294
0.43434811 0.24673997 -0.22028792
0.45916957 0.24762641 -0.21069157
-0.43213913 0.27017581 -0.22010899
0.43437907 0.27018005 -0.2200644
-0.43251431 0.29387134 -0.21754372
0.43473455 0.29387635 -0.21749878
-0.40778446 0.31623477 -0.22685969
0.41007602 0.31623977 -0.22681534
-0.43289235 0.31760895 -0.21495903
0.43509272 0.3176142 -0.2149142
-0.43326887 0.34138477 -0.21238506
-0.40813836 0.33991665 -0.22430563
0.41041026 0.33992201 -0.22426105
0.43544939 0.34139043 -0.21234
-0.43364599 0.36520094 -0.20980656
-0.40849286 0.3636384 -0.22174752
0.41074508 0.36364418 -0.22170269
0.43580669 0.36520684 -0.20976162
-0.40884796 0.38740009 -0.21918499
0.41108239 0.38740826 -0.21912515
-0.4099355 0.41197437 -0.21133602
-0.38512325 0.41049296 -0.22146463
0.38737112 0.41049737 -0.22143483
0.41211152 0.41198534 -0.21126103
-0.38673529 0.43579823 -0.20914614
-0.36198419 0.43423903 -0.21927428
0.36421672 0.43424582 -0.21922958
0.38889021 0.4358052 -0.2091012
-0.33881181 0.45801926 -0.21708095
0.34102708 0.45802647 -0.21703601
-0.31560761 0.48183638 -0.21486938
-0.29113677 0.48012501 -0.22497439
0.29341212 0.48013246 -0.22492981
0.31780401 0.48184133 -0.21483958
-0.29236817 0.50568533 -0.21266961
-0.26795819 0.50389624 -0.22277427
0.270215 0.50390154 -0.22274458
0.29454744 0.50569057 -0.21263957
-0.26909515 0.52956885 -0.21046674
-0.24474478 0.52769923 -0.22058582
0.24698567 0.52770752 -0.22054124
0.27125847 0.52957726 -0.21042156
-0.22151859 0.55158836 -0.21812582
-0.19785589 0.55095428 -0.22141981
-0.17424519 0.55032456 -0.22469211
0.17651504 0.55032766 -0.22467721
0.20010066 0.55095726 -0.22140503
0.22373813 0.55159128 -0.21811092
-0.17509912 0.57648391 -0.21082652
-0.15139377 0.57568651 -0.21480942
-0.12778194 0.57502878 -0.2180959
-0.10422041 0.57436955 -0.22139025
-0.080710262 0.57371461 -0.22466254
0.082979076 0.57371461 -0.22466254
0.10646449 0.57437247 -0.22137523
0.1300002 0.57502878 -0.2180959
0.15358743 0.57568961 -0.21479464
0.17726141 0.57648391 -0.21082652
-0.057659794 0.60010225 -0.21021163
-0.034093112 0.59914047 -0.21483946
-0.010597673 0.59817845 -0.21946812
0.012826505 0.59818143 -0.21945333
0.036286313 0.59914047 -0.21483946
0.059817605 0.6001054 -0.21019661
-0.34191495 0.083972812 -0.190207
-0.31827205 0.083975025 -0.19014621
0.32027367 0.083974414 -0.19016147
0.34392014 0.083973423 -0.19019175
-0.43647933 0.10761161 -0.19043505
-0.41247404 0.1074924 -0.19301581
-0.38850707 0.1073727 -0.19560754
-0.36458051 0.10725322 -0.19819498
-0.34069607 0.10713452 -0.20076263
-0.31685162 0.10701627 -0.20332634
-0.29307115 0.10690925 -0.20564508
-0.26980904 0.1070433 -0.20273852
-0.24646175 0.10715555 -0.20030987
-0.22303312 0.10724132 -0.19845176
-0.19957604 0.10732731 -0.1965915
-0.17609045 0.10741331 -0.19472897
-0.15257633 0.10749947 -0.19286418
-0.1290336 0.10758574 -0.190997
0.13104324 0.10758574 -0.190997
0.15460035 0.10749947 -0.19286418
0.17812803 0.10741253 -0.19474423
0.20162782 0.1073266 -0.19660676
0.2250991 0.10724065 -0.19846702
0.24854192 0.10715482 -0.20032513
0.27190781 0.10704269 -0.20275378
0.29519218 0.10690847 -0.2056601
0.31895617 0.10701627 -0.20332634
0.34278089 0.10713452 -0.20076263
0.3666456 0.10725322 -0.19819498
0.39055219 0.1073727 -0.19560754
0.41449922 0.1074924 -0.19301581
0.43848678 0.10761233 -0.19041979
-0.45967826 0.13110229 -0.19334948
-0.43498862 0.13071015 -0.20062697
-0.41101196 0.13055168 -0.2035675
-0.38712853 0.13041307 -0.20614135
-0.057706591 0.1303028 -0.20818532
-0.034205735 0.13033837 -0.20752442
-0.01069459 0.13037324 -0.20687795
0.012826505 0.13037324 -0.20687795
0.036342625 0.13033837 -0.20752442
0.059848569 0.1303028 -0.20818532
0.38925663 0.13041379 -0.20612609
0.41312036 0.13055246 -0.20355248
0.43707448 0.13071087 -0.20061171
0.46171048 0.1311039 -0.19331908
-0.45906499 0.15448222 -0.19733298
-0.43440875 0.15403526 -0.20459151
0.43652725 0.15403697 -0.20456147
0.46112785 0.15448393 -0.1973027
-0.48319563 0.17830646 -0.1940167
-0.45845562 0.17780259 -0.20129085
0.46054894 0.17780466 -0.20126081
0.48523325 0.17830856 -0.1939863
-0.50737607 0.20218129 -0.1907084
-0.48255196 0.20162009 -0.1979984
-0.45784551 0.20106153 -0.20525372
0.45996931 0.2010639 -0.20522368
0.48462018 0.20162246 -0.19796813
0.50938839 0.2021836 -0.190678
-0.48201483 0.22492819 -0.20132113
0.48411095 0.22493206 -0.20127583
-0.48243713 0.2487333 -0.19870865
0.48451313 0.24873744 -0.19866347
-0.48285773 0.2725777 -0.19610739
-0.45739874 0.2713719 -0.20815527
0.4595471 0.27137643 -0.20811021
0.48491371 0.27258223 -0.19606161
-0.48327899 0.2964626 -0.19350123
-0.45779684 0.29516184 -0.20556974
0.45992529 0.29516691 -0.20552456
0.48531494 0.29646742 -0.1934557
-0.48370096 0.32038814 -0.19089079
-0.4581956 0.31899214 -0.2029798
0.46030632 0.31899917 -0.20291948
0.48571685 0.32039332 -0.19084501
-0.45859733 0.34286457 -0.20037031
0.46068579 0.3428703 -0.20032489
-0.45920938 0.36695623 -0.1963948
0.46126947 0.36696392 -0.19633424
-0.43451226 0.38952023 -0.20388365
0.43663156 0.3895306 -0.20380843
-0.43604416 0.41459632 -0.19341016
0.4380829 0.41460729 -0.19333446
-0.41165167 0.43736792 -0.19895077
0.41372851 0.43737495 -0.19890535
-0.38836244 0.46131194 -0.19671261
-0.36350363 0.45965886 -0.20693827
0.36564121 0.45966607 -0.20689297
0.39041984 0.46131676 -0.19668221
-0.34024006 0.48355651 -0.20471179
0.34235853 0.48356169 -0.20468175
-0.36503729 0.48528826 -0.1944865
0.36707905 0.48529595 -0.19444096
-0.3416782 0.50929946 -0.19225729
-0.31694093 0.50748628 -0.20249736
0.31904367 0.50749445 -0.20245218
0.34370247 0.50930756 -0.19221151
-0.3182852 0.5333457 -0.19002461
-0.29360807 0.53145081 -0.20027971
0.29569337 0.53145939 -0.20023441
0.32029188 0.5333541 -0.18997896
-0.27032655 0.55562782 -0.19713616
-0.24578851 0.55348682 -0.2082603
0.24793452 0.55349553 -0.20821536
0.27238858 0.55563939 -0.19707572
-0.22279598 0.57834405 -0.20153224
-0.19891128 0.57741249 -0.20618653
0.20103878 0.57741565 -0.20617139
0.22488777 0.57834703 -0.20151711
-0.1526483 0.60398543 -0.19152856
-0.12879266 0.60301191 -0.19621325
-0.10500913 0.60203791 -0.20089853
-0.081298627 0.60107023 -0.20555472
0.083420351 0.60107023 -0.20555472
0.10709547 0.60204101 -0.20088351
0.13084248 0.60301191 -0.19621325
0.15466274 0.60398865 -0.1915133
-0.034461826 0.6277622 -0.19089067
-0.010781587 0.62675208 -0.19557738
0.012826505 0.62675208 -0.19557738
0.03647067 0.6277622 -0.19089067
-0.39129078 0.060812041 -0.17433596
-0.36719608 0.06073118 -0.17695928
-0.34373161 0.060807683 -0.17447412
-0.32028073 0.060899086 -0.17150819
0.32213882 0.060898587 -0.17152345
0.34561241 0.060807191 -0.1744895
0.36909944 0.060731672 -0.17694402
0.39317217 0.060812041 -0.17433596
-0.46241891 0.084536888 -0.17554832
-0.43814784 0.084402956 -0.1790272
-0.4139441 0.084273055 -0.18240654
-0.38989311 0.084172495 -0.18501604
-0.36588284 0.084072217 -0.18762124
-0.29491749 0.084088705 -0.18719506
-0.27151662 0.084201895 -0.18425345
-0.24806961 0.084314808 -0.18132162
-0.22452606 0.084401801 -0.17905772
-0.20092133 0.084474444 -0.17717385
-0.17728773 0.084546983 -0.17528772
-0.15362522 0.084619738 -0.17339909
0.1554994 0.084619738 -0.17339909
0.17917645 0.084546983 -0.17528772
0.20282458 0.084474444 -0.17717385
0.22644381 0.084401801 -0.17905772
0.25000364 0.084314145 -0.18133688
0.27347308 0.084201291 -0.18426883
0.29689649 0.084088102 -0.1872102
0.36786824 0.084072821 -0.1876061
0.39185861 0.084173106 -0.18500102
0.41588962 0.084273547 -0.18239117
0.44006747 0.084403671 -0.17901194
0.4643119 0.084537491 -0.17553318
-0.48591596 0.10822345 -0.17718923
-0.46063751 0.1077648 -0.18711877
-0.10543878 0.10764393 -0.18973577
-0.081805855 0.10767417 -0.18908203
-0.058162864 0.10770433 -0.18842804
-0.034509819 0.10773456 -0.18777359
-0.010846813 0.10776539 -0.18710375
0.012826505 0.10776539 -0.18710375
0.036494669 0.10773456 -0.18777359
0.060152754 0.10770433 -0.18842804
0.083800778 0.10767417 -0.18908203
0.10743826 0.10764322 -0.18975091
0.46261954 0.10776539 -0.18710375
0.48782402 0.10822494 -0.17715859
-0.51032829 0.132184 -0.17327619
-0.48489979 0.13163421 -0.18347526
0.48685622 0.13163602 -0.18344474
0.512209 0.13218643 -0.17323005
-0.50926101 0.1555755 -0.17957819
-0.4838877 0.15495004 -0.18973589
0.4858923 0.15495184 -0.18970537
0.51119018 0.15557837 -0.17953229
-0.53368402 0.17957751 -0.17567122
-0.50819808 0.17887208 -0.18585455
0.51017553 0.17887512 -0.1858089
0.5355835 0.17958073 -0.17562521
-0.53349125 0.2032551 -0.17676008
0.5354017 0.20325963 -0.17669868
-0.53344506 0.22698595 -0.17702067
-0.50762832 0.22595297 -0.18921888
0.50963169 0.22595684 -0.18917322
0.53535497 0.22698982 -0.17697477
-0.5339123 0.25098056 -0.17438209
-0.50807166 0.2498519 -0.18660104
0.51005727 0.24985759 -0.18654025
0.53580183 0.25098473 -0.17433584
-0.53438026 0.27501631 -0.17173886
-0.50851834 0.27379292 -0.18396366
0.51048124 0.27379757 -0.18391776
0.53624946 0.27502096 -0.17169261
-0.50896317 0.29777348 -0.18133688
0.51090586 0.29777855 -0.18129098
-0.50940877 0.32179511 -0.17870569
0.5113312 0.32180035 -0.17865968
-0.48412374 0.34435421 -0.18827569
0.48611945 0.34435999 -0.18823016
-0.48573518 0.36932302 -0.17830741
0.48765892 0.36933309 -0.178231
-0.46082985 0.39201623 -0.18586981
0.46280894 0.3920247 -0.1858089
-0.46245906 0.41724688 -0.17528772
0.46435902 0.41725808 -0.17521095
-0.43758658 0.43984455 -0.18286455
0.43954208 0.43985403 -0.18280351
-0.43913963 0.46526718 -0.17224646
-0.41338608 0.46297359 -0.18643367
0.41536462 0.46297854 -0.18640304
0.44101346 0.46527708 -0.17218471
-0.41513261 0.48878664 -0.1738292
-0.39000091 0.48703152 -0.18419242
0.39196381 0.48703939 -0.18414664
0.41701615 0.48879445 -0.17378318
-0.36658159 0.51112479 -0.18194807
0.36852688 0.51113284 -0.18190241
-0.34349775 0.53584427 -0.17649925
0.34540242 0.53585559 -0.17643809
-0.29539827 0.55846548 -0.18239105
0.29734731 0.55847728 -0.18233013
-0.27251506 0.5839656 -0.17344511
-0.24748075 0.58099729 -0.18827581
0.24947414 0.58100945 -0.18821502
0.27439478 0.58397794 -0.17338383
-0.22465459 0.60692453 -0.17738843
-0.20057891 0.60594189 -0.18211627
-0.17657693 0.60496223 -0.18682957
0.17855532 0.60496533 -0.18681443
0.20252115 0.60594499 -0.18210089
0.22656052 0.60692757 -0.17737317
-0.12991172 0.63183725 -0.17198491
-0.1059394 0.63081467 -0.1767292
-0.082040578 0.62979496 -0.18145907
-0.058214914 0.6287787 -0.18617463
0.060187448 0.6287787 -0.18617463
0.083976813 0.62979496 -0.18145907
0.1078397 0.63081789 -0.17671394
0.1317756 0.63184047 -0.17196953
-0.44156551 0.037471667 -0.15566051
-0.41715974 0.037389971 -0.15919971
-0.39281964 0.037310101 -0.16265345
-0.36942744 0.037398085 -0.15884292
-0.34590584 0.037472054 -0.15564489
0.34764168 0.037471667 -0.15566051
0.37118778 0.037397809 -0.15885854
0.39460921 0.037309885 -0.16266882
0.41892666 0.037390359 -0.15918422
0.44330314 0.037471667 -0.15566051
-0.51355648 0.061431549 -0.1542145
-0.48863369 0.06124185 -0.16037762
-0.46421379 0.061133683 -0.1638906
-0.43984911 0.061025679 -0.16739571
-0.4155395 0.060918003 -0.17089283
-0.29678628 0.060991041 -0.16852105
-0.27324352 0.061082222 -0.16555917
-0.24965695 0.061174065 -0.16257608
-0.22602372 0.061265625 -0.15960276
-0.20243658 0.061398126 -0.15530312
0.20417051 0.061397575 -0.15531838
0.2277917 0.061265625 -0.15960276
0.25144666 0.061173677 -0.16259158
0.27505738 0.061082222 -0.16555917
0.29862151 0.060990542 -0.16853666
0.4173964 0.060918503 -0.17087758
0.44167921 0.061026067 -0.16738009
0.46601704 0.06113407 -0.1638751
0.49041 0.061242238 -0.16036212
0.51528805 0.061432488 -0.15418327
-0.51247597 0.085112542 -0.16059434
-0.48693383 0.084716104 -0.17089272
-0.13009948 0.08483056 -0.16792011
-0.10655387 0.085106038 -0.16076493
-0.082759909 0.08520858 -0.15809834
-0.058924984 0.085311398 -0.15542734
0.060660832 0.085311398 -0.15542734
0.084515952 0.085207969 -0.15811384
0.10833033 0.085105427 -0.16078043
0.13193029 0.084829405 -0.16795087
0.48879585 0.08471787 -0.17084646
0.51425666 0.085113756 -0.16056359
-0.5370537 0.10917266 -0.15663922
-0.51139998 0.10869657 -0.16694832
0.51322943 0.10869794 -0.16691744
0.53880674 0.1091747 -0.15659249
-0.53592587 0.13273714 -0.16300929
0.53772789 0.13273974 -0.16296291
-0.56074643 0.1569165 -0.15780365
-0.53480262 0.15620533 -0.16935313
0.53665352 0.15620808 -0.16930687
0.56251431 0.15692131 -0.15772593
-0.56064034 0.18077567 -0.15837765
0.56240994 0.18077993 -0.15831566
-0.56053144 0.20462468 -0.1589669
0.56230825 0.2046307 -0.15888965
-0.56042546 0.22846602 -0.15954065
0.56220394 0.22847132 -0.15947866
-0.56031668 0.25229722 -0.16012967
0.56210244 0.25230432 -0.16005206
-0.56045127 0.27625108 -0.15940106
0.56222588 0.27625561 -0.15935469
-0.56119978 0.30057436 -0.15534961
-0.53484899 0.29909325 -0.16909134
0.53670043 0.29909992 -0.16902971
0.56294602 0.30058104 -0.15528738
-0.53592038 0.32360411 -0.16304016
0.53772533 0.32361114 -0.16297805
-0.51076579 0.34652007 -0.17069268
0.51263165 0.34652942 -0.17061591
-0.51257837 0.37172019 -0.15999019
0.51436186 0.37173039 -0.15991271
-0.4874568 0.39454001 -0.16765785
0.48929864 0.3945505 -0.16758084
-0.48919034 0.41993141 -0.15693426
0.49094969 0.4199425 -0.15685666
-0.46410191 0.44265407 -0.16461682
0.46591982 0.44266605 -0.16453969
-0.46575618 0.46823746 -0.15387225
0.46749145 0.46825004 -0.15379441
-0.44070342 0.49086559 -0.16155457
0.44249502 0.49087596 -0.16149271
-0.41766092 0.51579285 -0.15558267
-0.39178368 0.51313943 -0.17056954
0.39364368 0.51315033 -0.17050803
0.41940609 0.51580387 -0.15552056
-0.36909345 0.53860551 -0.16155457
0.37088358 0.5386169 -0.16149271
-0.32071066 0.5613277 -0.16751909
0.32254577 0.56133938 -0.16745734
-0.29779053 0.5869596 -0.15848625
0.29955563 0.58697206 -0.15842426
-0.24949852 0.60961431 -0.16444695
0.25130737 0.60962379 -0.16440058
-0.20227304 0.63492405 -0.1576637
-0.17807817 0.633892 -0.16245234
-0.15395786 0.63286293 -0.16722596
0.15578525 0.63286644 -0.16721046
0.17986894 0.63389528 -0.16243672
0.20402704 0.63492739 -0.15764832
-0.082793839 0.65897304 -0.15699637
-0.058778476 0.65790701 -0.1617713
-0.034836382 0.65683734 -0.16656244
-0.010968289 0.65577453 -0.17132354
0.012826505 0.65577453 -0.17132354
0.036657948 0.65683734 -0.16656244
0.060563162 0.65790701 -0.1617713
0.084542118 0.6589765 -0.15698075
-0.49245459 0.013847657 -0.136742
-0.46784687 0.013792884 -0.140293
-0.44329271 0.013738107 -0.14385164
-0.41879445 0.013683442 -0.14740205
-0.395147 0.013722442 -0.14486897
-0.37162328 0.013781793 -0.1410147
-0.34804133 0.013841256 -0.13715076
0.3496348 0.013840981 -0.1371665
0.37324637 0.013781518 -0.14103043
0.39679962 0.013722166 -0.14488482
0.42047054 0.01368361 -0.14738643
0.44494161 0.013738383 -0.14383578
0.46946847 0.013793159 -0.14027727
0.49404901 0.013847768 -0.13672602
-0.54046518 0.037894033 -0.13737106
-0.51510745 0.037716635 -0.14505684
-0.49053693 0.037634559 -0.14860463
-0.46602464 0.037553303 -0.1521287
-0.3223139 0.037541389 -0.15264261
-0.29867789 0.037611224 -0.14961886
-0.27499297 0.037680447 -0.14662063
-0.25127435 0.037753098 -0.14347577
0.25291458 0.037751995 -0.14352262
0.2766597 0.037680008 -0.14663637
0.30036759 0.037610836 -0.1496346
0.32402676 0.037541002 -0.1526581
0.46773505 0.037553303 -0.1521287
0.49222258 0.037634946 -0.14858902
0.51676595 0.03771691 -0.14504123
0.54206741 0.037894808 -0.13733971
-0.53932339 0.061751537 -0.14382017
-0.17898291 0.061630353 -0.14776146
-0.15541509 0.061863735 -0.14018309
0.15703213 0.061862685 -0.14021444
0.18065804 0.061629355 -0.14779258
0.54097509 0.061752588 -0.14378893
-0.5640685 0.085912153 -0.13982213
-0.53818619 0.085511021 -0.15024292
-0.035049014 0.085414439 -0.15275168
-0.01113201 0.085518084 -0.15005565
0.012826505 0.085518084 -0.15005565
0.036764264 0.085414439 -0.15275168
0.53989005 0.085512735 -0.15019619
0.56569254 0.085913807 -0.13977492
-0.58887726 0.11013448 -0.13581347
-0.56287891 0.10965189 -0.14626098
0.56455249 0.10965414 -0.14621437
0.59047079 0.11013664 -0.13576627
-0.58822668 0.1340204 -0.13919401
-0.56169415 0.13329411 -0.15267372
0.56341708 0.13329664 -0.15262711
0.58985209 0.13402471 -0.13911545
-0.58811492 0.15802683 -0.13977492
0.58974189 0.1580307 -0.1397121
-0.58800012 0.18202308 -0.14037132
0.58963454 0.18202865 -0.140293
-0.58788842 0.20601159 -0.14095199
0.58952439 0.20601633 -0.14088917
-0.58777368 0.22998978 -0.14154804
0.58941716 0.22999625 -0.1414696
-0.58766204 0.25395995 -0.14212811
0.58930707 0.2539658 -0.14206541
-0.5878672 0.27808636 -0.1410619
0.58951277 0.27809721 -0.14095187
-0.56319684 0.3257401 -0.14454031
0.56485993 0.32574737 -0.14447796
-0.53782469 0.34878731 -0.1522845
0.53954691 0.348795 -0.15222204
-0.53974229 0.37414598 -0.14145398
0.54138386 0.37415636 -0.14137542
-0.51440346 0.3970955 -0.14921319
0.5161041 0.39710641 -0.14913523
-0.51624399 0.42264998 -0.1383456
0.51785851 0.42265922 -0.13828278
-0.49093848 0.4455018 -0.14612043
0.4926123 0.4455114 -0.14605796
-0.44397855 0.51870012 -0.13916254
0.44560438 0.51871949 -0.13905251
-0.39493617 0.54139066 -0.14647996
0.39661083 0.54140198 -0.14641762
-0.37207791 0.56713861 -0.13732386
-0.3462705 0.56422049 -0.15248704
0.34798872 0.56422943 -0.15244007
0.37368163 0.56715083 -0.13726091
-0.32331195 0.58998269 -0.14338171
0.32496133 0.58999527 -0.14331913
-0.2747362 0.61274165 -0.14940071
0.27643093 0.61275464 -0.14933825
-0.2515465 0.63867497 -0.14026153
-0.22654273 0.63595927 -0.15286064
0.22825988 0.63596267 -0.15284514
0.25317046 0.63868856 -0.14019883
-0.17960343 0.66328394 -0.13768542
-0.15528832 0.66220123 -0.14253557
-0.13104859 0.66112179 -0.1473707
-0.10688388 0.6600458 -0.15219116
0.10859529 0.66004914 -0.15217543
0.13272302 0.66112518 -0.14735508
0.15692565 0.6622048 -0.14251995
0.18120353 0.66328746 -0.1376698
-0.035237446 0.68668485 -0.1405127
-0.011157972 0.68525982 -0.14668322
0.012826505 0.68525982 -0.14668322
0.036858603 0.68668842 -0.14049709
-0.47153574 -0.03427444 -0.11633325
-0.44728264 -0.034274548 -0.11657214
0.44871718 -0.03427444 -0.116588
0.4729706 -0.03427444 -0.11633325
-0.54405749 -0.010062141 -0.11708188
-0.51915002 -0.010093583 -0.12118638
-0.49438947 -0.010121219 -0.12477279
-0.46968302 -0.010149017 -0.12836671
-0.44503307 -0.010176599 -0.13195264
-0.42109704 -0.010167552 -0.13078451
-0.39749914 -0.010137601 -0.12689531
-0.37384453 -0.010107484 -0.12298048
-0.3501271 -0.010077421 -0.11908782
0.35158148 -0.010077586 -0.11910367
0.37532878 -0.010107648 -0.12299633
0.3990134 -0.010137767 -0.12691116
0.42264113 -0.010167664 -0.13080037
0.44659039 -0.010176545 -0.13193667
0.47121286 -0.010148853 -0.12835085
0.49589181 -0.010121163 -0.12475693
0.52062488 -0.010093475 -0.1211704
0.54550081 -0.010062031 -0.11706591
-0.56774056 0.014106195 -0.1199466
-0.54184109 0.013957426 -0.12959981
-0.51712102 0.013902597 -0.13316703
-0.32437205 0.013896748 -0.1335454
-0.30059117 0.013943635 -0.13050032
-0.27713573 0.014052689 -0.12342477
0.27862254 0.014052194 -0.12345648
0.30213511 0.013943635 -0.13050032
0.32593787 0.013896529 -0.13356113
0.51868802 0.013902817 -0.13315129
0.54338086 0.013957813 -0.12958395
0.56921172 0.014106967 -0.11989892
-0.59263545 0.038381048 -0.11628532
-0.56646264 0.038136736 -0.12686372
-0.22813642 0.038014449 -0.13215768
-0.20483109 0.038278058 -0.12074137
0.20629698 0.038276903 -0.12078893
0.22968987 0.038013399 -0.13220513
0.56798422 0.038137399 -0.12683189
0.59407884 0.038382091 -0.1162374
-0.59137756 0.06239824 -0.12282181
-0.56526315 0.062073894 -0.13335621
-0.13173231 0.062098108 -0.13256788
-0.10793434 0.062334202 -0.12489939
-0.08393272 0.062484786 -0.12001002
-0.05980612 0.062569126 -0.11727309
0.061248012 0.062568575 -0.11728907
0.085395552 0.062484235 -0.12002587
0.10943419 0.062333204 -0.1249311
0.13329096 0.062097117 -0.13259935
0.56683743 0.062075332 -0.13330901
0.59287119 0.062399678 -0.12277424
-0.61635673 0.086722404 -0.11876953
-0.59012485 0.08631587 -0.12933111
0.59166855 0.086317636 -0.12928367
0.61781961 0.086724117 -0.11872172
-0.61604166 0.11084893 -0.12034392
0.61751962 0.11085196 -0.12028039
-0.61592072 0.1350037 -0.12094796
0.61740339 0.13500722 -0.12088442
-0.61580306 0.15915008 -0.12153578
0.61729026 0.15915395 -0.12147212
-0.6156823 0.18328637 -0.12213922
0.61717719 0.18329182 -0.12205982
-0.61556476 0.20741443 -0.12272656
0.61706412 0.20742066 -0.12264717
-0.61544722 0.23153366 -0.12331367
0.61694807 0.23153903 -0.12325013
-0.6162039 0.25604719 -0.11953306
0.61768794 0.25605911 -0.11940587
-0.58923799 0.30288166 -0.13393939
0.59082878 0.30289352 -0.133829
-0.59080082 0.32790196 -0.12581849
0.59232336 0.32791114 -0.12573922
-0.56520778 0.35108179 -0.13365567
0.56678998 0.35109144 -0.13357687
-0.56723577 0.37660307 -0.12267888
0.56873077 0.37661129 -0.12261534
-0.5416761 0.39968419 -0.13053179
0.54323101 0.39969283 -0.13046861
-0.54364324 0.42541796 -0.1194216
0.54512072 0.42543423 -0.11931038
-0.51860976 0.4488495 -0.1243763
0.5201245 0.44886661 -0.12426531
-0.49365258 0.47220469 -0.12933111
0.49520457 0.47222269 -0.12922049
-0.46877655 0.49548888 -0.13425469
0.47036549 0.49550748 -0.13414407
-0.4473829 0.54704261 -0.11588681
-0.42103142 0.54420274 -0.13125825
0.42258945 0.54421443 -0.13119495
-0.3981382 0.57008529 -0.12201226
0.39962462 0.57009763 -0.1219486
-0.34908485 0.59303838 -0.12811363
0.35061556 0.5930481 -0.12806606
-0.3259542 0.61908823 -0.11886501
-0.30022019 0.61589944 -0.13420749
0.30179849 0.61591256 -0.13414419
0.32741493 0.61910158 -0.11880124
-0.2769922 0.64196903 -0.12497866
0.27849901 0.64198291 -0.12491536
-0.2285976 0.66585553 -0.12616682
-0.20399424 0.6643703 -0.13282001
0.20555703 0.6643737 -0.13280439
0.23010929 0.66585898 -0.12615097
-0.10818191 0.6917761 -0.11846721
-0.083752893 0.69007105 -0.12585008
-0.059438337 0.6883741 -0.1331985
0.061003312 0.68837756 -0.13318276
0.085261412 0.69007468 -0.12583435
0.10963373 0.69177979 -0.11845112
-0.49854887 -0.058625687 -0.09904325
-0.47356841 -0.058594078 -0.10313046
-0.4499054 -0.058628723 -0.098640442
0.45120186 -0.058628663 -0.098656416
0.47489932 -0.058594026 -0.10314655
0.49985316 -0.058625743 -0.099027157
-0.52136827 -0.03427444 -0.10808849
-0.49638581 -0.03427444 -0.11242378
-0.42361242 -0.03427444 -0.11263144
-0.3760896 -0.034274548 -0.10475266
0.37743351 -0.03427444 -0.10476863
0.54776025 -0.03427444 -0.10372484
-0.57154298 -0.034274384 -0.099365354
-0.54641956 -0.034274384 -0.10374093
-0.39988071 -0.034274384 -0.10869694
-0.35223895 -0.034274384 -0.10079861
0.35355255 -0.034274384 -0.1008147
0.40125483 -0.034274384 -0.10871303
0.42501673 -0.034274384 -0.11264765
0.49779305 -0.034274384 -0.11240792
0.52274227 -0.034274384 -0.1080724
0.57285011 -0.034274384 -0.09934938
-0.56956756 -0.010008028 -0.11005771
-0.32635248 -0.010047358 -0.11516941
-0.30322248 -0.0099629629 -0.10420656
0.30455956 -0.0099634044 -0.10425496
0.32777682 -0.010047467 -0.11518526
0.57096547 -0.010007586 -0.10999346
-0.59451526 0.014312882 -0.10651755
-0.25394434 0.014229368 -0.11194456
-0.23058145 0.01440715 -0.10039604
0.23189142 0.014406711 -0.1004281
0.25534177 0.014228649 -0.11199248
0.59588349 0.014313709 -0.10646963
-0.61951584 0.038688071 -0.10298562
-0.18118867 0.038481273 -0.11194444
-0.15735458 0.038660377 -0.10419071
0.15869452 0.038659662 -0.10422277
0.18258891 0.038480885 -0.11196041
0.62085724 0.038689286 -0.10293746
-0.61766839 0.062724844 -0.11221623
-0.035637457 0.062653467 -0.11453128
-0.011426742 0.062738582 -0.1117686
0.012826505 0.062738582 -0.1117686
0.037058488 0.062653467 -0.11453128
0.61908078 0.062726282 -0.11216819
-0.64419097 0.087395474 -0.10128105
0.64552611 0.087398507 -0.1012007
-0.64406723 0.11170204 -0.1018765
0.64540374 0.11170496 -0.10181212
-0.64394361 0.13599929 -0.10247123
0.64528465 0.13600282 -0.1024071
-0.64381665 0.16028644 -0.10308206
0.64516562 0.16029146 -0.10300183
-0.64369309 0.18456537 -0.10367656
0.64504337 0.1845699 -0.1036123
-0.64356959 0.2088352 -0.10427105
0.64492446 0.20884012 -0.10420668
-0.64493757 0.23370357 -0.097689033
0.6462515 0.23371296 -0.09757638
-0.6176492 0.28096336 -0.11231196
0.6190747 0.28097463 -0.11220014
-0.61910439 0.30599612 -0.10504162
0.62047392 0.30600816 -0.10492933
-0.62056303 0.33114254 -0.097753644
0.6218766 0.33115566 -0.097640872
-0.59292388 0.35340583 -0.11478662
0.59435868 0.35341376 -0.11472249
-0.59505892 0.37908763 -0.10369265
0.59641135 0.3790983 -0.10361254
-0.56927508 0.40230185 -0.11164081
0.57068801 0.40231287 -0.11156094
-0.52258646 0.47680157 -0.10089505
0.52392071 0.47681987 -0.10078239
-0.49743652 0.50028688 -0.10592413
0.49880859 0.50030589 -0.10581172
-0.4723689 0.52370018 -0.1109215
0.47377852 0.52372015 -0.11080945
0.44882539 0.54705751 -0.11580718
-0.42445514 0.57306111 -0.10654962
0.42582312 0.57307345 -0.10648549
-0.37510934 0.59612131 -0.11271131
0.37652192 0.59613091 -0.11266351
-0.35204765 0.62249899 -0.10245526
0.3533861 0.6225192 -0.10235882
-0.30318069 0.64635652 -0.10462415
0.30453435 0.64637715 -0.10452795
-0.25438079 0.67018116 -0.10679018
0.25574842 0.67019898 -0.10671008
-0.15738575 0.6952067 -0.10361242
-0.13272621 0.69348913 -0.11104929
0.13412105 0.69349277 -0.11103332
0.1587242 0.69521403 -0.10358012
-0.011492127 0.71960306 -0.10327494
0.012826505 0.71960306 -0.10327494
-0.52593511 -0.083252795 -0.081122279
-0.50073308 -0.083184838 -0.08553195
-0.47618777 -0.083175793 -0.086117029
-0.45240092 -0.083245732 -0.081578493
0.45356598 -0.083245456 -0.081594586
0.4773877 -0.083175674 -0.086133242
0.50193334 -0.083185166 -0.085515857
0.52710158 -0.083252959 -0.081106067
-0.57403564 -0.058727074 -0.085873365
-0.54880464 -0.058693148 -0.090270042
-0.52364057 -0.058659278 -0.094670892
-0.42615485 -0.058662258 -0.094283104
-0.40229005 -0.058693036 -0.090286374
-0.37836292 -0.058723819 -0.086295605
0.37956473 -0.058723651 -0.086311936
0.40352243 -0.058692984 -0.090302348
0.42741787 -0.058662258 -0.094299197
0.52491134 -0.058659501 -0.094654679
0.55004162 -0.05869326 -0.090253949
0.57523894 -0.05872713 -0.085857034
-0.59836638 -0.03427444 -0.086506844
0.3301551 -0.03427444 -0.091419816
-0.32891899 -0.034274329 -0.091355324
0.59958363 -0.034274384 -0.086441755
-0.62353325 -0.009799026 -0.082913637
-0.59643471 -0.0099039413 -0.096543908
-0.28008771 -0.0098649431 -0.091468573
-0.25666887 -0.0097748656 -0.079769254
0.25781852 -0.0097753052 -0.07981801
0.2813271 -0.0098652728 -0.091516972
0.59772623 -0.0099036098 -0.09649539
0.62472028 -0.0097986385 -0.082865
-0.6487537 0.014731549 -0.079328895
-0.62151653 0.014521278 -0.092989683
-0.20704776 0.014586534 -0.088746309
0.2082683 0.014585983 -0.088778853
0.6227842 0.014522217 -0.092925072
0.64991677 0.014732651 -0.079263568
-0.64665812 0.039001659 -0.089411259
-0.13340364 0.038840644 -0.096382499
-0.10933398 0.039021842 -0.088535428
0.11055389 0.039021015 -0.088567853
0.13468371 0.038839929 -0.096414804
0.64789551 0.039002761 -0.089362502
-0.64514881 0.063203417 -0.096673012
0.64645171 0.063206285 -0.096575975
-0.67242432 0.11256498 -0.083190322
0.673621 0.11256884 -0.08310914
-0.67229456 0.13700581 -0.083792448
0.67349589 0.13701028 -0.083711028
-0.67216486 0.16143736 -0.084394217
0.67336744 0.16144139 -0.084329247
-0.67247695 0.18600164 -0.082946301
0.67367852 0.18600947 -0.082832336
-0.64645606 0.25874001 -0.09038353
0.6477139 0.25875044 -0.090270042
-0.64798492 0.283894 -0.08302772
0.64918625 0.28390551 -0.082913876
-0.62202847 0.3564055 -0.090432048
0.62328577 0.3564195 -0.090318799
-0.59851325 0.40589023 -0.085743427
0.59973371 0.40590608 -0.085629702
-0.57312459 0.42960346 -0.090804696
0.57438308 0.42961997 -0.090691209
-0.54781383 0.45323896 -0.095865965
0.54911029 0.45325625 -0.095752954
-0.50127739 0.52879173 -0.082164764
0.50246686 0.52881193 -0.08205092
-0.47601527 0.55233574 -0.087237597
0.47724286 0.55235678 -0.087123752
-0.45103249 0.57606632 -0.090934277
0.45228085 0.57607883 -0.090869427
-0.40139088 0.59923446 -0.097157001
0.40268612 0.59924746 -0.097092271
-0.33012721 0.65163302 -0.080144167
0.33129331 0.65165401 -0.080046535
-0.28092912 0.6756348 -0.082360268
0.28211075 0.6756568 -0.082262635
-0.23207393 0.70042676 -0.081008196
-0.20706011 0.69868094 -0.088567972
-0.18216394 0.69693971 -0.096108079
0.18344401 0.69694352 -0.096091866
0.20828229 0.69868463 -0.088551641
0.23323916 0.70043439 -0.080975533
-0.060475778 0.72318262 -0.088276029
-0.035926074 0.72139055 -0.095785022
0.037202794 0.72139055 -0.095785022
0.061694946 0.72318637 -0.088259816
-0.085142702 0.72498679 -0.080714822
0.086303785 0.72499079 -0.080698609
-0.55363047 -0.10816006 -0.063013673
-0.52824658 -0.10805707 -0.067474008
-0.50293332 -0.10795442 -0.071921706
-0.47883299 -0.10802332 -0.068935871
-0.45492348 -0.10812967 -0.064331532
0.45595348 -0.1081289 -0.064364433
0.47990066 -0.10802293 -0.068952203
0.50402886 -0.1079547 -0.071905255
0.52930796 -0.10805751 -0.067457318
0.5546577 -0.1081605 -0.062997103
-0.60226977 -0.083482042 -0.066224217
-0.57654971 -0.083389208 -0.072265744
-0.55120724 -0.083320811 -0.076700091
-0.42854592 -0.08331579 -0.077026963
-0.40462258 -0.083386116 -0.072462201
-0.38081279 -0.083479285 -0.066405177
0.38185576 -0.083478346 -0.066470861
0.40571773 -0.08338578 -0.072478533
0.42967612 -0.083315626 -0.077043176
0.55233979 -0.083321139 -0.07668376
0.57765114 -0.083389536 -0.072232962
0.60332805 -0.083482817 -0.066174984
-0.62759864 -0.058906071 -0.062601447
-0.60031337 -0.058800105 -0.076389551
-0.35482359 -0.058784384 -0.078414917
-0.3318367 -0.058893271 -0.064282179
0.33286595 -0.058892883 -0.064331412
0.35596129 -0.058784001 -0.078463912
0.60144985 -0.058800325 -0.076340675
0.62863261 -0.05890673 -0.062535524
-0.62555945 -0.034274548 -0.072789907
-0.30590975 -0.03427444 -0.077353597
-0.28269956 -0.034274496 -0.063194871
0.28372118 -0.034274329 -0.063244343
0.3070401 -0.034274384 -0.077402592
0.62666863 -0.034274384 -0.072740793
-0.65086609 -0.0096932277 -0.069165707
-0.23307785 -0.0096839592 -0.067966819
0.23413703 -0.0096843466 -0.068016171
0.65194774 -0.0096928403 -0.069116473
-0.18334004 0.014767129 -0.077010512
0.18447046 0.014766742 -0.077043176
-0.67626214 0.039556406 -0.065385103
-0.08553575 0.039497271 -0.067950368
0.086596295 0.039495341 -0.068032503
0.67732537 0.039558724 -0.065286398
-0.67496634 0.063981734 -0.071396947
0.67607576 0.063984767 -0.071298718
-0.67367184 0.088314563 -0.077402472
0.6748274 0.088318311 -0.077304602
-0.7011959 0.13807586 -0.063936353
0.70224875 0.1380811 -0.063837409
-0.70193946 0.16290237 -0.060605407
0.70297384 0.16291066 -0.060473561
-0.67406994 0.21104582 -0.075555921
0.67521471 0.21105437 -0.07544136
-0.67566669 0.23620518 -0.06814754
0.67675459 0.23621483 -0.068032622
-0.67727458 0.26148313 -0.060688138
0.67830509 0.26149392 -0.060572505
-0.64952427 0.30916685 -0.075621247
0.65066868 0.30917913 -0.075506926
-0.65106744 0.33455557 -0.068196654
0.6521548 0.33456892 -0.068081856
-0.62465912 0.38254309 -0.077288389
0.62582803 0.38256663 -0.077108741
-0.60314149 0.43386137 -0.061694503
0.60417706 0.43387812 -0.061578989
-0.57755345 0.4577089 -0.066832542
0.57862765 0.4577266 -0.066717625
-0.55204749 0.48148 -0.07195437
0.55316019 0.4814986 -0.071839571
-0.52662039 0.50517243 -0.077075839
0.52777153 0.5051918 -0.076961517
-0.42872486 0.603522 -0.075735688
0.42986006 0.60354143 -0.07563746
-0.37939188 0.62759393 -0.077941418
0.38054255 0.62761438 -0.077843428
-0.13483155 0.72862554 -0.065467477
-0.10992805 0.72680372 -0.073101163
0.11103015 0.72680372 -0.073101163
0.13587552 0.72862941 -0.065451026
-0.58164603 -0.13335311 -0.044680953
-0.5560776 -0.13321422 -0.049192429
-0.53057796 -0.13307527 -0.0537076
-0.50547874 -0.13299926 -0.056175947
-0.48150957 -0.13314164 -0.051551223
-0.45747113 -0.13328439 -0.046913266
-0.43336311 -0.13342769 -0.042261958
0.43422562 -0.13342708 -0.042278528
0.45836928 -0.13328394 -0.046929836
0.48244333 -0.13314113 -0.051567793
0.50644803 -0.13299865 -0.056192517
0.53153342 -0.13307577 -0.05369103
0.55699843 -0.13321483 -0.04917562
0.58253235 -0.13335377 -0.044664264
-0.63171971 -0.1086452 -0.042011261
-0.60461473 -0.10836741 -0.054039121
-0.40689042 -0.1083422 -0.055132508
-0.38349882 -0.10858546 -0.044597507
0.38437375 -0.10858391 -0.044664383
0.40785217 -0.10834181 -0.055149317
0.60557318 -0.10836768 -0.05402267
0.63259214 -0.10864624 -0.041961432
-0.57908845 -0.10826387 -0.058524489
-0.4309426 -0.1082359 -0.059730411
0.43193746 -0.10823514 -0.059763551
0.58008128 -0.10826415 -0.058507919
-0.62965423 -0.083695956 -0.052331209
-0.35795045 -0.083711341 -0.051335454
0.35887784 -0.083710298 -0.051401734
0.63060606 -0.083696783 -0.05228138
-0.65512806 -0.059013523 -0.048660398
-0.30864316 -0.059002876 -0.050039887
0.30956313 -0.059002545 -0.050089717
0.65605193 -0.059013851 -0.048610449
-0.68065655 -0.03427444 -0.044997811
-0.65298849 -0.03427444 -0.05895412
-0.25928199 -0.03427444 -0.048909664
0.26019275 -0.03427444 -0.048976183
0.65399158 -0.034274496 -0.058904529
0.68155271 -0.034274384 -0.044947743
-0.67887563 -0.0095708277 -0.053260088
-0.2094799 -0.0095737483 -0.053641438
0.21042506 -0.0095745772 -0.053757548
0.67984569 -0.0095700528 -0.053160548
-0.67756647 0.015039347 -0.059334159
-0.15986614 0.015066318 -0.057582259
0.16084495 0.015065052 -0.057664752
0.67858315 0.015040889 -0.059234977
-0.061146457 0.039698608 -0.059234977
0.062141303 0.039697669 -0.059267879
-0.036617834 0.039892115 -0.050853848
-0.011959492 0.04008352 -0.042562485
0.012826505 0.04008352 -0.042562485
0.037548549 0.039891675 -0.050870419
-0.70526385 0.064772516 -0.045714259
0.70617664 0.064775608 -0.045614243
-0.70390147 0.089299396 -0.051816821
0.70486116 0.089303255 -0.051717162
-0.70254433 0.11373334 -0.057896376
0.70355076 0.11373797 -0.057797074
-0.70361263 0.18806861 -0.053110838
0.70458585 0.18807679 -0.052994728
-0.7052936 0.21335313 -0.045580983
0.706209 0.21336223 -0.045464158
-0.67888993 0.28687966 -0.053193808
0.67986631 0.28689283 -0.053061128
-0.68105555 0.31266659 -0.04314661
0.68196869 0.31268823 -0.042946219
-0.65493453 0.36143577 -0.049591184
0.65589559 0.36146033 -0.049391866
-0.62891787 0.4100101 -0.056010246
0.62992662 0.4100377 -0.055811644
-0.58204979 0.48624218 -0.042495728
0.582937 0.48626131 -0.042378783
-0.5563426 0.51014823 -0.047695518
0.55726892 0.5101679 -0.04757905
-0.53071839 0.53397697 -0.052878618
0.5316835 0.53399765 -0.052762628
-0.5059126 0.55857027 -0.053492308
0.50689441 0.55860698 -0.053293228
-0.48135373 0.58345079 -0.052563548
0.48232684 0.58348912 -0.052364349
-0.45690203 0.60851192 -0.050804257
0.45784628 0.60853201 -0.05070436
-0.40716374 0.63276893 -0.053044438
0.40812367 0.63278955 -0.052945137
-0.35749286 0.6569885 -0.055298328
0.35846862 0.65700978 -0.055198908
-0.30789337 0.68117762 -0.05753243
0.30888477 0.68119979 -0.057433128
-0.25836292 0.70533323 -0.059763432
0.25936872 0.70535219 -0.05968082
-0.21026483 0.7341513 -0.042311907
-0.18499997 0.73230308 -0.050056696
-0.15985544 0.73045993 -0.057780504
0.16084036 0.7304638 -0.057764053
0.18592556 0.73230708 -0.050039887
0.21113199 0.73415929 -0.042278528
-0.03663446 0.75710106 -0.049773932
-0.011844634 0.75520217 -0.057482839
0.012826505 0.75520217 -0.057482839
0.037557118 0.75710505 -0.049757481
-0.53562444 -0.18385197 -0.023909569
0.53635329 -0.18385351 -0.023875833
-0.61033523 -0.1589067 -0.024314761
-0.5844745 -0.15871221 -0.0293715
-0.55869442 -0.15851814 -0.034412503
-0.53299183 -0.15832409 -0.03945446
-0.50830358 -0.15835294 -0.038701773
-0.48421541 -0.15853497 -0.033976197
-0.46004909 -0.15871534 -0.029287338
-0.4358125 -0.15889633 -0.02458477
0.4365389 -0.15889582 -0.024601579
0.46081159 -0.1587148 -0.029304147
0.48501387 -0.1585342 -0.033993125
0.50913829 -0.15835239 -0.038718462
0.53383756 -0.15832475 -0.039437771
0.55950153 -0.15851876 -0.034395695
0.58524299 -0.15871274 -0.029354811
0.61106485 -0.15890747 -0.024297833
-0.6343978 -0.13384736 -0.028630972
-0.60734433 -0.13350177 -0.039855957
-0.40918529 -0.13357127 -0.037596941
0.41001201 -0.13357078 -0.037613869
0.60819358 -0.13350233 -0.039839268
0.63517052 -0.13384944 -0.028563499
-0.6596272 -0.1089915 -0.027013779
-0.36049634 -0.10893898 -0.029287338
0.36125389 -0.10893749 -0.029354811
0.66038799 -0.10899304 -0.026946306
-0.68514377 -0.08412946 -0.024179578
-0.65727788 -0.083911747 -0.038316965
-0.33480465 -0.083936065 -0.036742806
0.33562183 -0.083935291 -0.036793113
0.65812224 -0.083912566 -0.038266659
0.68587977 -0.084130228 -0.024129033
-0.68289471 -0.059121639 -0.034613848
-0.28524524 -0.059113804 -0.035636783
0.28605467 -0.059113309 -0.035687089
0.68371099 -0.059122078 -0.034563541
-0.2363992 -0.03427444 -0.024821162
0.23712029 -0.034274384 -0.024956226
-0.70937836 -0.009370923 -0.027283311
-0.18662372 -0.0093430672 -0.023689985
0.18733908 -0.0093441159 -0.023808122
0.71014959 -0.009370096 -0.027182102
-0.70800042 0.015437771 -0.033455968
-0.1362233 0.015408866 -0.035335064
0.13703145 0.0154076 -0.035418868
0.70881903 0.015439369 -0.033355236
-0.70662761 0.040151924 -0.039605021
0.70749348 0.040154181 -0.039504766
-0.70697874 0.23875524 -0.038032293
0.70783615 0.23876511 -0.037915111
-0.70867556 0.26427811 -0.03043139
0.70947462 0.26428908 -0.030313611
-0.65943462 0.38900107 -0.027940392
0.6602295 0.38902748 -0.027738214
-0.63371778 0.43820029 -0.032028198
0.63452637 0.4382174 -0.031910777
-0.60784024 0.46225905 -0.037278771
0.60868829 0.46227711 -0.037161589
-0.43537089 0.63802171 -0.02777195
0.43613729 0.63804269 -0.027670741
-0.38529128 0.6624316 -0.030044675
0.38607356 0.66245353 -0.029943705
-0.33528015 0.68680364 -0.032330751
0.33607849 0.68682617 -0.03223002
-0.28534129 0.71114498 -0.034597158
0.28615549 0.71116823 -0.034496307
-0.2356531 0.73601234 -0.034513235
0.23646049 0.73602045 -0.034479737
-0.06156813 0.75926822 -0.040975809
0.062423185 0.75927252 -0.04095912
-0.086839363 0.76305234 -0.025614142
0.087576292 0.76305658 -0.025597215
-0.53828549 -0.20962818 -0.0081967115
-0.5135383 -0.2097294 -0.0063199997
0.51412374 -0.20972846 -0.0063369274
0.53889072 -0.20962912 -0.0081796646
-0.6133551 -0.18455808 -0.0086228848
-0.58736455 -0.18432221 -0.013728619
-0.56145537 -0.18408701 -0.018818617
-0.51090789 -0.18391269 -0.022591829
-0.48672387 -0.18413958 -0.017683148
-0.46246645 -0.18436696 -0.012759686
-0.43813765 -0.18459581 -0.0078043938
0.43873489 -0.18459499 -0.0078216791
0.46310169 -0.18436606 -0.012776971
0.48739687 -0.18413875 -0.017700315
0.51161855 -0.18391198 -0.022608757
0.56214249 -0.18408795 -0.01880157
0.58801258 -0.18432304 -0.01371181
0.61396712 -0.18455963 -0.0085887909
-0.63744503 -0.15932663 -0.013405919
-0.4120577 -0.15924037 -0.015647769
0.41270912 -0.15923771 -0.015715718
0.63810074 -0.15932918 -0.01333797
-0.66279483 -0.13436642 -0.011773467
-0.38622171 -0.13403645 -0.022490501
-0.36307546 -0.1345149 -0.0069515705
0.36366099 -0.13451281 -0.0070198774
0.38692835 -0.13403484 -0.022541165
0.66343844 -0.13436863 -0.011705279
-0.68817008 -0.10938115 -0.010139346
-0.33727029 -0.10929521 -0.013864636
0.33790958 -0.10929366 -0.013932705
0.68880165 -0.10938286 -0.010071039
-0.71423739 -0.084416732 -0.005517602
-0.31142554 -0.0841593 -0.022236824
0.31212983 -0.084158309 -0.022304535
