ply
format ascii 1.0
comment PCL generated
element vertex 1374
property float x
property float y
property float z
element camera 0
property float view_px
property float view_py
property float view_pz
property float x_axisx
property float x_axisy
property float x_axisz
property float y_axisx
property float y_axisy
property float y_axisz
property float z_axisx
property float z_axisy
property float z_axisz
property float focal
property float scalex
property float scaley
property float centerx
property float centery
property int viewportx
property int viewporty
property float k1
property float k2
end_header
0.24702935 -0.029499426 -0.26207244
0.26857838 -0.029538393 -0.26038814
-0.18153901 -0.48062697 -0.25197768
-0.15968895 -0.47949013 -0.25813031
0.1616687 -0.47949275 -0.25811672
0.18347235 -0.48063198 -0.25195026
-0.24581617 -0.45889449 -0.25345349
0.24776611 -0.45890886 -0.2533716
-0.28831536 -0.43677408 -0.25735426
0.29029658 -0.43678787 -0.25727248
-0.37424213 -0.39414525 -0.25585532
0.37621078 -0.39415365 -0.25580084
-0.41810098 -0.37363136 -0.24951446
0.42002171 -0.37363932 -0.24945962
-0.44000334 -0.35249454 -0.24696457
0.44191328 -0.35250983 -0.24685478
-0.45969585 -0.30815345 -0.2576946
0.46168473 -0.30816355 -0.25761306
-0.48303014 -0.2879701 -0.24692333
0.4849368 -0.2879796 -0.24684095
-0.48109889 -0.26528448 -0.25783086
0.48309174 -0.26529479 -0.25773561
-0.50451738 -0.2449376 -0.24704683
0.50642568 -0.24494582 -0.24696457
-0.50410956 -0.22322458 -0.24925411
0.50603241 -0.22323093 -0.24918556
-0.50376558 -0.2015748 -0.25111592
0.50570029 -0.20157948 -0.25106132
-0.50341952 -0.17995286 -0.25298905
0.50536865 -0.17995706 -0.25293434
-0.50396782 -0.15869513 -0.25002098
0.50589418 -0.15869889 -0.24996638
-0.50490046 -0.13751975 -0.24497342
-0.48101693 -0.13669941 -0.25829363
0.48300642 -0.13670272 -0.25823939
0.5067879 -0.13752317 -0.24491847
-0.48190534 -0.11554726 -0.25327599
0.48385623 -0.11555023 -0.25322127
-0.48355061 -0.094515271 -0.24398363
-0.46029389 -0.09404511 -0.2541635
0.46224898 -0.094046973 -0.2541225
0.48542771 -0.094517134 -0.2439425
-0.43903601 -0.072637536 -0.25294805
0.44098145 -0.072639152 -0.25290704
-0.4183901 -0.051337346 -0.2476368
-0.39587897 -0.051125549 -0.25451839
0.39783397 -0.051126406 -0.25449109
0.42029235 -0.051338255 -0.24760926
-0.35356972 -0.029778689 -0.24997997
-0.33149561 -0.029668525 -0.25475037
-0.30978286 -0.029615968 -0.25702727
-0.28816867 -0.029577054 -0.25871551
0.29015353 -0.029577307 -0.25870204
0.31175485 -0.029616266 -0.25701368
0.3334502 -0.02966883 -0.2547369
0.35548934 -0.029779352 -0.24995255
-0.031627472 -0.50693017 -0.22686958
-0.0098612877 -0.50438654 -0.24008679
0.011701408 -0.50438654 -0.24008679
0.033365849 -0.50693017 -0.22686958
-0.20397332 -0.48293844 -0.23946607
0.20581153 -0.48294607 -0.23942471
-0.26942876 -0.46270329 -0.2319411
0.27121389 -0.46271804 -0.23185802
-0.31222057 -0.44040468 -0.23591614
0.31403756 -0.44041878 -0.23583317
-0.35489869 -0.41817811 -0.23982465
0.35674697 -0.41819143 -0.23974192
-0.39779425 -0.39636716 -0.24142361
0.3996523 -0.39637566 -0.24136853
-0.46218565 -0.33150446 -0.24299335
0.46406817 -0.3315208 -0.2428695
-0.484979 -0.31083593 -0.23591602
0.48680109 -0.31084606 -0.23583317
-0.50654823 -0.26763138 -0.23605454
0.50837201 -0.26764041 -0.23597145
-0.52887219 -0.22479436 -0.23226011
0.53066486 -0.22480083 -0.23219097
-0.5285095 -0.20301187 -0.23414469
0.53031665 -0.2030178 -0.23407543
-0.5281446 -0.18125752 -0.23604071
0.52996641 -0.18126282 -0.23597157
-0.52803022 -0.15962249 -0.23663521
0.529854 -0.15962625 -0.23658001
-0.52901101 -0.13834709 -0.23153889
0.53079551 -0.13835046 -0.23148346
-0.52999538 -0.11699424 -0.2264241
-0.50583637 -0.11626763 -0.2399075
0.50768244 -0.11626985 -0.23986614
0.53174055 -0.11699725 -0.22636831
-0.5069778 -0.094988875 -0.23372924
0.50877392 -0.094990231 -0.23370159
-0.48558459 -0.073424704 -0.2324959
-0.46222529 -0.073029719 -0.24275935
0.46409261 -0.073031336 -0.2427181
0.48737329 -0.073426425 -0.2324543
-0.46417484 -0.051842049 -0.23124754
-0.44101265 -0.051550403 -0.24072099
0.44286191 -0.051551163 -0.24069333
0.46595368 -0.05184336 -0.23120606
-0.42123196 -0.030259088 -0.22917843
-0.39856744 -0.030098431 -0.23613751
-0.37601292 -0.029938132 -0.24307597
0.37787965 -0.029938839 -0.24304843
0.40038097 -0.03009899 -0.23610973
0.42299214 -0.030259691 -0.22915065
-0.33487821 -0.0086415596 -0.22728705
-0.31289113 -0.0085980967 -0.23010921
-0.29100338 -0.0085626729 -0.2324127
-0.26920965 -0.0085361414 -0.23413098
-0.24744257 -0.0085097626 -0.235847
-0.22598553 -0.0085348263 -0.23421395
-0.20456861 -0.0085731335 -0.23173308
-0.18311282 -0.0086111352 -0.22926188
-0.16161928 -0.0086493418 -0.22678602
0.16335624 -0.0086490363 -0.2268002
0.18486875 -0.0086108819 -0.2292757
0.20634344 -0.0085729808 -0.23174703
0.22778045 -0.0085348263 -0.23421395
0.24925125 -0.0085100122 -0.23583317
0.27100518 -0.0085363947 -0.23411715
0.29278579 -0.0085629262 -0.23239875
0.31465593 -0.0085982494 -0.23009527
0.33661979 -0.0086415596 -0.22728705
-0.053599719 -0.50949526 -0.21354127
0.05523571 -0.50949788 -0.21352708
-0.33649859 -0.44409406 -0.21413124
0.33814865 -0.44410843 -0.21404696
-0.37947163 -0.42168763 -0.21811485
0.38115361 -0.42170122 -0.21803069
-0.42331731 -0.40033785 -0.21563327
0.42499998 -0.40037027 -0.21542287
-0.44426671 -0.37786165 -0.22059166
0.44597614 -0.37788004 -0.22046602
-0.46666482 -0.35670966 -0.21654522
0.46834186 -0.3567251 -0.21643305
-0.48912472 -0.33549494 -0.21250093
0.49077398 -0.33551145 -0.21237445
-0.50859511 -0.29050446 -0.22497535
0.51033378 -0.29051408 -0.22489166
-0.5323962 -0.27001378 -0.21394861
0.5340507 -0.27002281 -0.21386433
-0.53024733 -0.24713251 -0.22511446
0.53198767 -0.24714077 -0.22503114
-0.55413204 -0.226473 -0.21408916
0.55578828 -0.22648081 -0.21400487
-0.55355626 -0.20446661 -0.21696579
0.55523193 -0.20447245 -0.2168957
-0.55317217 -0.18257818 -0.21888494
0.55486256 -0.1825836 -0.21881473
-0.55279136 -0.16072053 -0.22078753
0.55449635 -0.16072527 -0.22071767
-0.55335712 -0.13918331 -0.21796072
0.555035 -0.13918594 -0.21791852
-0.55438799 -0.11772773 -0.2128104
0.55602896 -0.1177308 -0.21275413
-0.53098327 -0.095563434 -0.22129071
0.53268641 -0.095565386 -0.22124863
-0.532821 -0.07422363 -0.21174145
-0.50911587 -0.073822752 -0.22215664
0.5108254 -0.073824324 -0.22211492
0.53445077 -0.074225299 -0.21169913
-0.51127422 -0.052481681 -0.21047461
-0.48763779 -0.052160732 -0.22089922
0.48933733 -0.052161939 -0.22085738
0.5128938 -0.052482948 -0.21043229
-0.46690476 -0.030583575 -0.21512818
-0.44401145 -0.030421004 -0.22217071
0.44571793 -0.030421607 -0.22214282
0.46855727 -0.030584283 -0.21510005
-0.42411375 -0.0089006573 -0.21046042
-0.40129158 -0.0087920539 -0.21751249
-0.37898314 -0.0087284818 -0.22163999
-0.35690767 -0.0086848177 -0.22447348
-0.14008781 -0.0086873956 -0.22430611
-0.11845261 -0.0087037683 -0.22324586
-0.096794128 -0.0087173618 -0.22236621
-0.07512255 -0.0087310597 -0.22147238
-0.053436894 -0.0087445527 -0.22059178
-0.031737909 -0.0087583996 -0.21969664
-0.010064336 -0.0088506266 -0.21370983
0.011701408 -0.0088503733 -0.2137239
0.033421066 -0.0087583996 -0.21969664
0.055126946 -0.0087445527 -0.22059178
0.076819375 -0.0087310597 -0.22147238
0.09849783 -0.0087173618 -0.22236621
0.12016309 -0.0087037683 -0.22324586
0.14180581 -0.0086872429 -0.22431993
0.35862932 -0.0086851195 -0.22445929
0.38068309 -0.0087287314 -0.22162592
0.40295985 -0.0087923072 -0.2174983
0.42572993 -0.0089010596 -0.21043217
-0.075781517 -0.5120874 -0.20007181
0.077313922 -0.51209021 -0.20005751
-0.40442842 -0.42525208 -0.19606566
0.40594149 -0.42526588 -0.19598031
-0.5116595 -0.31422639 -0.20838869
0.51327807 -0.31424198 -0.20826197
-0.53456497 -0.29307899 -0.20267963
0.53613287 -0.29308876 -0.20259464
-0.55638725 -0.24936348 -0.20282125
0.55795687 -0.24937195 -0.20273638
-0.57891154 -0.20593917 -0.19957519
0.58045399 -0.20594519 -0.19950414
-0.57850772 -0.18391505 -0.20151806
0.58006507 -0.18392053 -0.20144701
-0.57810736 -0.16192201 -0.20344412
0.57967961 -0.16192695 -0.20337331
-0.57840168 -0.14016449 -0.20202816
0.57996583 -0.1401698 -0.20194304
-0.58031887 -0.1188058 -0.1928041
0.58181214 -0.11881045 -0.19271851
-0.55576169 -0.096272208 -0.2059468
0.55735803 -0.096276753 -0.20584798
-0.55760556 -0.074801259 -0.19673419
0.55912846 -0.074804589 -0.1966486
-0.53561616 -0.052889913 -0.19721735
0.53713942 -0.052892037 -0.19714642
-0.51367092 -0.030990593 -0.19750166
-0.48991281 -0.030747063 -0.20805025
0.49151102 -0.030747667 -0.20802224
0.51519328 -0.030992009 -0.19744492
-0.4701066 -0.009119831 -0.19622219
-0.44705251 -0.0090099648 -0.20335901
0.44861427 -0.0090104192 -0.20333087
0.47161365 -0.0091202855 -0.19619358
-0.38288003 0.012759726 -0.19351697
-0.36058059 0.012782013 -0.19640696
-0.33832642 0.012804147 -0.19929123
-0.31619093 0.012821481 -0.20153213
-0.294752 0.012791311 -0.19762969
-0.27323273 0.012762859 -0.19393015
0.2747162 0.01276296 -0.19394422
0.29626387 0.012791412 -0.19764376
0.31773272 0.012821531 -0.20154643
0.33985412 0.012804097 -0.19927704
0.36208624 0.01278181 -0.19639266
0.38436162 0.012759726 -0.19351697
-0.22986814 -0.49237987 -0.1883626
0.2313277 -0.49242219 -0.18813384
-0.29602844 -0.47087523 -0.18578577
0.29747352 -0.47091588 -0.18555629
-0.36228776 -0.44930503 -0.18336201
0.36371949 -0.44934401 -0.18313229
-0.49391317 -0.3610175 -0.18545604
0.49535212 -0.36103338 -0.18534148
-0.51666009 -0.33957517 -0.18132246
0.51807076 -0.33959207 -0.18119287
-0.53948134 -0.3180761 -0.17713332
0.54085815 -0.31809023 -0.17701805
-0.55865777 -0.27243558 -0.1914773
0.56014013 -0.27244478 -0.19139183
-0.58294439 -0.25163001 -0.18017197
0.58434057 -0.25163871 -0.18008554
-0.58056498 -0.22854856 -0.19161999
0.58204913 -0.22855648 -0.1915344
-0.58224857 -0.097307973 -0.18351996
0.58367044 -0.097311907 -0.18343377
-0.56076217 -0.053390473 -0.18096292
0.56216103 -0.053392693 -0.18089116
-0.53868902 -0.031365924 -0.18125045
0.54008949 -0.031367697 -0.18117857
-0.51729292 -0.0094019249 -0.17789733
-0.49340105 -0.0092410184 -0.18834841
0.49485016 -0.0092417225 -0.18830538
0.51866192 -0.009402629 -0.17785406
-0.47350061 0.01262621 -0.17618155
-0.45013443 0.012688722 -0.1842947
-0.42761287 0.012715103 -0.18773305
-0.40522268 0.012737541 -0.19063497
-0.25154918 0.012743352 -0.19139171
-0.22982696 0.012723794 -0.18884897
-0.20806593 0.012704136 -0.18630147
-0.18679832 0.012625352 -0.17606604
0.18814205 0.012625756 -0.17612386
0.20949203 0.012704136 -0.18630147
0.23127155 0.012723897 -0.18886316
0.25301325 0.012743555 -0.19140601
0.40668413 0.01273744 -0.19062078
0.42905203 0.012715103 -0.18771887
0.45154944 0.012688521 -0.18426597
0.47485578 0.012625907 -0.17613816
-0.45390052 -0.40874955 -0.16099787
0.45516551 -0.40878317 -0.16077912
-0.47363988 -0.38447753 -0.17535901
0.47501674 -0.38450912 -0.17514253
-0.56237239 -0.29651555 -0.1729176
0.56372046 -0.29653054 -0.17278755
-0.58534002 -0.27489623 -0.1686461
0.58664763 -0.2749055 -0.16855907
-0.60954148 -0.23156604 -0.15895522
0.61079043 -0.23158091 -0.15879476
-0.60703725 -0.208395 -0.17057359
0.60837537 -0.20840847 -0.17041397
-0.60619241 -0.18599546 -0.17449272
0.60755163 -0.18600431 -0.1743772
-0.60643846 -0.16400692 -0.17335141
0.60779184 -0.16401592 -0.17322123
-0.60668778 -0.14200169 -0.1721946
0.60803235 -0.14200971 -0.1720643
-0.60712463 -0.12002564 -0.17016792
0.60844457 -0.12003031 -0.17008102
-0.60915774 -0.098360382 -0.16073537
0.61040527 -0.098364465 -0.16064787
-0.58419383 -0.075670019 -0.1741606
0.58554381 -0.075673409 -0.17407382
-0.58619732 -0.053896688 -0.16452157
0.58747023 -0.053898968 -0.16444886
-0.56399465 -0.031745553 -0.16481245
0.56526929 -0.031747222 -0.16473973
-0.54179657 -0.009598963 -0.1651032
0.54307288 -0.0096001774 -0.16503048
-0.49742407 0.012545049 -0.16562653
-0.16573633 0.012501134 -0.15993309
0.16695629 0.012501689 -0.1599915
0.49869835 0.012544645 -0.16558278
-0.43204573 0.034680825 -0.15894067
-0.40942535 0.034680825 -0.16190135
-0.38685337 0.034680873 -0.16484153
-0.34299448 0.034680873 -0.16139126
0.34422711 0.034680825 -0.16140592
0.38811427 0.034680873 -0.16484153
0.43326333 0.034680873 -0.15892601
-0.36463916 0.034680925 -0.16539407
0.36590248 0.034680925 -0.16540849
0.4106656 0.034680925 -0.16188681
-0.54496765 -0.3438541 -0.14862549
0.54614449 -0.34388289 -0.14840496
-0.5679239 -0.32201153 -0.14518058
0.56905621 -0.3220261 -0.14506269
-0.61206287 -0.25492397 -0.14725745
0.6132251 -0.25494158 -0.14708078
-0.63547575 -0.16616726 -0.14217055
0.63658756 -0.16617534 -0.14205241
-0.61120433 -0.076552227 -0.15124071
0.61238188 -0.076556221 -0.15113783
-0.61326754 -0.054600403 -0.1416682
0.6143685 -0.05460313 -0.14157963
-0.58959287 -0.032129578 -0.1481843
0.59074026 -0.032131344 -0.14811075
-0.5672639 -0.0098549277 -0.14847851
0.5684129 -0.0098559894 -0.14840496
-0.54580086 0.012380857 -0.14429605
-0.52152175 0.012463333 -0.15500796
-0.14443502 0.012375703 -0.14363217
0.1455299 0.012376158 -0.14369094
0.52271473 0.012462879 -0.15496409
0.54691184 0.012380403 -0.14425159
-0.45484284 0.034680825 -0.15516889
-0.29952383 0.034680873 -0.15335262
-0.27790344 0.034680873 -0.14725733
0.27902079 0.034680873 -0.14734566
0.30069479 0.034680873 -0.15336728
0.32249129 0.034680873 -0.15739214
0.45603147 0.034680873 -0.15515435
0.47890204 0.034680825 -0.1511085
-0.50151163 0.034680925 -0.14253974
-0.47774443 0.034680925 -0.15112305
-0.32128945 0.034680977 -0.1573776
0.50260842 0.034680925 -0.14249563
-0.525415 -0.36815649 -0.13393497
0.52647746 -0.36818728 -0.13371205
-0.59111315 -0.30021611 -0.14087021
0.59221315 -0.30022973 -0.14075196
-0.63907993 -0.21216729 -0.1260258
0.64007747 -0.21218109 -0.12586153
-0.63642681 -0.18881163 -0.13791049
0.63751864 -0.18882525 -0.13773274
-0.63573962 -0.14392349 -0.14098847
0.63684237 -0.14393082 -0.14087021
-0.63600045 -0.12166101 -0.13981998
0.63709742 -0.12166818 -0.13968694
-0.63649952 -0.099429615 -0.13758457
0.63756973 -0.099433757 -0.13749552
-0.63865346 -0.07744924 -0.12793624
0.63965273 -0.077453338 -0.12783182
-0.61548883 -0.032518044 -0.13136292
0.61650747 -0.032519765 -0.13128841
-0.59302735 -0.010113824 -0.13166046
0.59404767 -0.010114986 -0.13158596
-0.57057041 0.012285851 -0.13195801
0.57159251 0.012285244 -0.13188362
-0.52582151 0.034680873 -0.13173485
-0.25755709 0.034680873 -0.12635434
0.25851408 0.034680873 -0.12644386
0.52683544 0.034680825 -0.13169014
-0.43679848 0.057105917 -0.12807059
-0.41423175 0.057098441 -0.12903953
0.41521499 0.057098284 -0.12905467
0.43777847 0.057105966 -0.12805557
-0.50565481 -0.39270031 -0.11913943
0.50660199 -0.39273319 -0.11891425
-0.61953688 -0.2809383 -0.11258209
0.62045819 -0.28097078 -0.11228061
-0.64175153 -0.23571339 -0.11405861
0.64266044 -0.23573017 -0.11387789
-0.66542697 -0.14588666 -0.10911107
0.66628915 -0.145895 -0.10897529
-0.66570622 -0.12338085 -0.10790193
0.66655916 -0.12338822 -0.10776579
-0.6408217 -0.055322364 -0.11822355
0.64174634 -0.055325441 -0.11811864
-0.64300781 -0.033047609 -0.1084311
0.64385402 -0.033049732 -0.1083405
-0.61909211 -0.010375801 -0.1146456
0.61998218 -0.010376863 -0.1145705
-0.59650123 0.01215486 -0.1149466
0.5973931 0.012154255 -0.11487138
-0.55031037 0.034680873 -0.12086391
0.55124104 0.034680873 -0.12081897
0.57583261 0.034680825 -0.10985124
-0.57498598 0.034680977 -0.10989654
-0.53018832 0.057259649 -0.10809839
-0.50626928 0.057201281 -0.11566889
-0.48304671 0.057169341 -0.1198144
-0.45988992 0.057137653 -0.12394834
-0.39248031 0.05713553 -0.12423265
-0.37056273 0.057167016 -0.12012935
-0.34858528 0.057198852 -0.11599982
0.34946841 0.057198703 -0.11601484
0.37147757 0.057166863 -0.12014437
0.39342663 0.057135329 -0.12424731
0.46083826 0.057137806 -0.12393343
0.48396337 0.057169594 -0.11979961
0.50715417 0.057201482 -0.11565387
0.53102046 0.057259951 -0.10805297
-0.57870585 -0.35135466 -0.091310978
0.57944483 -0.35138458 -0.091081619
-0.66930115 -0.19231999 -0.092335343
0.67003798 -0.19233179 -0.092182517
-0.66649634 -0.16877842 -0.1044805
0.66732979 -0.16878998 -0.10431373
-0.66598219 -0.10085589 -0.10670686
0.66682601 -0.10086211 -0.10657072
-0.66654885 -0.078360811 -0.10425305
0.66736704 -0.078364857 -0.10414708
-0.66883206 -0.056056954 -0.09436655
0.66957092 -0.056059733 -0.094274759
-0.64546359 -0.010640863 -0.097430706
0.64622194 -0.010641977 -0.09735465
-0.62273705 0.012022356 -0.097735524
0.62349713 0.012021748 -0.09765923
-0.60001522 0.034680873 -0.098039865
0.23771016 0.034680825 -0.10522294
-0.23691465 0.034680977 -0.10514724
0.60077715 0.034680925 -0.09796381
-0.5548963 0.057344802 -0.097034693
-0.32739046 0.057286937 -0.10454106
0.32817897 0.057286434 -0.104617
0.55564368 0.057345204 -0.096989155
-0.46504983 0.080085739 -0.092029691
-0.44253337 0.080104344 -0.090821385
0.44321996 0.080103934 -0.090852022
0.4657549 0.080086149 -0.091999054
-0.6499961 -0.26194218 -0.077127576
0.6506483 -0.26197308 -0.076818705
-0.67212927 -0.21605703 -0.080089211
0.67277557 -0.21607137 -0.079919696
-0.69606918 -0.12513834 -0.075289011
0.6966728 -0.12514576 -0.075149775
-0.6963644 -0.10236409 -0.074051619
0.69695854 -0.10237057 -0.073912382
-0.6711272 -0.033601992 -0.08442831
0.67178965 -0.033604115 -0.084336281
-0.67343783 -0.010995071 -0.074423075
0.67402339 -0.010996487 -0.074330211
-0.64928335 0.011888232 -0.080320239
0.64991015 0.011887778 -0.080243349
-0.62642431 0.034680825 -0.080628395
0.62705296 0.034680873 -0.080551386
-0.60487247 0.057516977 -0.074670553
-0.57978833 0.057430461 -0.085902572
-0.307111 0.0574531 -0.082952738
0.30773225 0.05745244 -0.083045006
0.58045036 0.057430763 -0.085856438
0.60544538 0.057517178 -0.074639559
-0.53550553 0.080281526 -0.079318523
-0.51195288 0.08021608 -0.083567739
-0.48846775 0.080150835 -0.087804794
-0.42057928 0.080184087 -0.085641623
-0.39854574 0.080263883 -0.080458879
0.39915505 0.080263734 -0.080474377
0.42122617 0.080183581 -0.085672379
0.48913813 0.080150992 -0.087789416
0.51259077 0.080216333 -0.083552361
0.53611076 0.080281623 -0.079303026
-0.6082176 -0.33267847 -0.058576345
0.60894221 -0.33285195 -0.057168484
-0.70022911 -0.1720086 -0.057856917
0.70070618 -0.17202047 -0.057684779
-0.69726276 -0.14827767 -0.070286989
0.69783521 -0.14828816 -0.07011652
-0.69665992 -0.079570897 -0.072813392
0.69724095 -0.079575747 -0.072689414
-0.69729978 -0.056803219 -0.070131898
0.69785315 -0.056805946 -0.070038915
-0.65438193 0.034680825 -0.057481408
0.6548366 0.034680873 -0.05738759
-0.63125509 0.057643671 -0.058216572
0.63171792 0.057644378 -0.058107018
-0.58485425 0.080569729 -0.060591459
-0.55955476 0.080381379 -0.07282877
-0.37697175 0.080407202 -0.071155548
0.3775 0.08040569 -0.071248531
0.56011593 0.080382086 -0.072782516
0.58532465 0.080570787 -0.060529232
-0.68120545 -0.24248186 -0.040788293
0.68157846 -0.24250966 -0.040487528
-0.70321661 -0.19593778 -0.045337915
0.7036013 -0.19595233 -0.04514873
-0.70104384 -0.034294434 -0.054443121
0.70149463 -0.034298375 -0.054270625
-0.67772269 0.011700088 -0.055868983
0.67817968 0.011698926 -0.055712461
-0.61100191 0.080807149 -0.045180321
-0.35687324 0.080752715 -0.04870975
0.35723105 0.080751553 -0.048788309
0.61135113 0.080807753 -0.045132756
-0.56572706 0.10397224 -0.040756583
-0.54164362 0.10384908 -0.046095014
-0.51776266 0.10374139 -0.050754189
-0.49401158 0.10364168 -0.055069923
-0.47158515 0.10372173 -0.051602602
-0.44938791 0.10384433 -0.046299815
-0.42711186 0.10396714 -0.040978074
0.42741701 0.10396688 -0.040993929
0.44973397 0.10384393 -0.046315551
0.4719719 0.10372148 -0.051618457
0.49442998 0.10364208 -0.055054307
0.51814795 0.10374179 -0.050738454
0.541996 0.10384974 -0.046063304
0.56603563 0.10397274 -0.040740848
-0.72930217 -0.12741363 -0.033063293
0.72967005 -0.12744105 -0.032554507
-0.72890282 -0.10418243 -0.034684777
0.72922236 -0.10419416 -0.034430385
-0.73151428 -0.08144664 -0.024083138
0.73175269 -0.081456393 -0.023827314
-0.70577407 -0.01160787 -0.034621119
0.70607287 -0.011610597 -0.034446239
-0.68348557 0.034680925 -0.030915022
0.68373686 0.034680977 -0.030819535
-0.66014564 0.057848036 -0.031663179
-0.28896251 0.057808824 -0.03674829
0.28914943 0.057801545 -0.037699819
0.66040534 0.057848997 -0.031551957
-0.63741791 0.081046537 -0.029624462
-0.33647418 0.081104197 -0.025873899
0.33665496 0.081102833 -0.025969863
0.63765121 0.08104755 -0.029560685
-0.59101403 0.10422496 -0.029815555
-0.40600523 0.10429855 -0.026624799
0.40619171 0.10429678 -0.026704788
0.59124774 0.10422643 -0.029751897
-0.73243761 -0.1513539 -0.020334959
0.73270857 -0.15138546 -0.019821763
-0.7341482 -0.05855035 -0.01339066
0.73430091 -0.058557779 -0.013148904
-0.71056753 0.011381913 -0.014534235
0.71071225 0.011380548 -0.01435709
-0.61746526 0.10458837 -0.014083385
0.61757851 0.10458969 -0.014019012
-0.54833251 0.12801978 -0.0098904371
-0.52403307 0.12785201 -0.015339017
-0.5011521 0.12792695 -0.012907386
-0.47880387 0.1281105 -0.0069485903
0.47884676 0.12810999 -0.0069646835
0.50123817 0.12792595 -0.012939453
0.52414578 0.12785256 -0.015323043
0.54840344 0.12802041 -0.0098743439
-0.64257425 -0.31582391 -0.0057020187
0.64290977 -0.31599048 -0.0042603016
-0.71318567 -0.22253704 -0.0035630465
0.71327996 -0.22256461 -0.003238678
-0.73931956 -0.1765438 0.007602334
-0.73679692 -0.035490878 -0.0026384592
0.73686725 -0.035496488 -0.0023950338
-0.73946452 -0.012267061 0.0081906319
0.73945576 -0.012271002 0.008452177
-0.71542549 0.034680873 0.0058227777
0.71541405 0.034680925 0.0060023069
-0.68955517 0.058056146 -0.0046329498
0.6896081 0.058057003 -0.0045194626
-0.66600633 0.081419334 -0.0054106712
0.66606438 0.081421062 -0.0052970648
-0.64419085 0.10495511 0.0017979145
-0.38583431 0.10483423 -0.0034333467
0.38584068 0.10483206 -0.0035306215
0.64418244 0.10495657 0.0018628836
-0.59730554 0.12837419 0.0016188622
-0.57271957 0.12818822 -0.0044221878
-0.45637003 0.12829511 -0.00094997883
0.45636451 0.12829414 -0.00098228455
0.5727486 0.12818868 -0.0044059753
0.59729755 0.12837632 0.0016838312
0.74143088 -0.17717606 0.01672864
-0.74433881 0.011054642 0.027977705
-0.72034925 0.058295485 0.026455522
0.72017574 0.058296748 0.026620984
-0.69573164 0.081843078 0.022112012
0.69557911 0.081844851 0.022227407
-0.67196649 0.10540519 0.02128756
0.67181945 0.10540781 0.021403074
-0.6240676 0.12886885 0.017682076
-0.43548965 0.12882644 0.016301394
0.43534473 0.12882388 0.016219258
0.62393326 0.12887037 0.017731547
-0.55518198 0.15278152 0.027183294
-0.53104085 0.15266836 0.024240971
0.53084064 0.15266705 0.02420795
0.55496758 0.15278223 0.027199984
0.74415487 0.011053428 0.028143406
-0.36746198 0.10577404 0.037260056
0.36713055 0.10576662 0.036943674
-0.65111011 0.12936814 0.033899426
-0.41498438 0.12949999 0.038176179
0.41467151 0.12949747 0.03809309
0.65085489 0.12937036 0.033965826
-0.60466921 0.15321371 0.03840971
-0.57988042 0.15299731 0.032786369
-0.50847751 0.15290341 0.03034699
-0.4858321 0.15314117 0.036527157
0.48553768 0.15313981 0.036494136
0.50823313 0.15290275 0.03033042
0.57962298 0.15299797 0.032802939
0.60436863 0.15321441 0.03842628
-0.77645922 -0.060853727 0.061414957
0.77611178 -0.060870402 0.061956406
-0.7494958 0.034680925 0.048912644
0.74915528 0.034680977 0.0490973
-0.72599685 0.082274362 0.050121427
-0.32192573 0.082341924 0.054511189
0.321466 0.082336977 0.054191113
0.7256301 0.082276121 0.050238967
-0.70201403 0.1060524 0.049315453
0.70164877 0.10605467 0.049416184
-0.67844093 0.12987289 0.050289512
0.67806017 0.12987491 0.050356507
-0.63080651 0.15366387 0.050104499
-0.46381959 0.15356117 0.047436595
0.4634341 0.15355785 0.04735291
0.63042617 0.1536665 0.050171852
-0.77990377 -0.085259326 0.074974298
0.7794531 -0.085280351 0.075520396
-0.77763426 -0.037076898 0.066040397
0.77718467 -0.037083112 0.066311955
-0.78051549 -0.013332259 0.077382445
0.77997494 -0.0133362 0.077638745
-0.7547195 0.058631498 0.070118189
0.75421631 0.058633067 0.070305228
-0.73261255 0.10671124 0.077844143
0.7320289 0.10671376 0.077946663
-0.70856291 0.13071615 0.077673197
-0.39540181 0.13046992 0.069675922
0.39483225 0.13046366 0.069471836
0.70799512 0.13072145 0.077844143
-0.65817696 0.15430194 0.066685438
-0.44330874 0.15442035 0.069760799
0.44275188 0.15441701 0.069675922
0.6576696 0.15430462 0.066753268
-0.61233956 0.1786904 0.076733112
-0.58721882 0.1784218 0.070918083
-0.56220108 0.17815644 0.065175414
-0.53889269 0.17831406 0.068587661
-0.5160296 0.17860749 0.074940205
0.51544189 0.17860681 0.074923158
0.53835082 0.17831251 0.068553686
0.56169426 0.17815721 0.065192103
0.58666795 0.17842248 0.07093513
0.61174411 0.17869106 0.07675004
-0.78337854 -0.10987914 0.088652611
0.78282374 -0.10990456 0.089203596
-0.78341353 0.010586428 0.088790417
0.78278983 0.010584304 0.089066029
-0.76063615 0.082952045 0.094136953
0.75998592 0.082957201 0.094482541
-0.68655199 0.15506949 0.086622477
-0.42248726 0.15528882 0.092323899
0.42175722 0.15528552 0.09223783
0.68589562 0.15507276 0.086708307
-0.63833582 0.17913356 0.086330414
-0.49307573 0.17890295 0.081335783
0.49243623 0.17890134 0.08130157
0.63768041 0.1791375 0.086416125
-0.7863372 0.034680873 0.10029936
0.7856254 0.034680925 0.100577
-0.35196704 0.1074146 0.10829818
0.35105953 0.10740045 0.10768831
-0.66719145 0.18015787 0.10850739
-0.4722175 0.17985657 0.10198271
0.47141171 0.17985243 0.10189605
0.66636622 0.18016192 0.10859454
-0.59526604 0.20463169 0.11273241
-0.56973684 0.20426697 0.10596395
-0.54664361 0.20461199 0.11236525
0.54576463 0.20461008 0.11233032
0.56891924 0.2042689 0.10599864
0.59439337 0.20463261 0.11274981
-0.74330693 0.13210118 0.12265825
-0.3778027 0.13205706 0.12121642
0.37683716 0.13205044 0.12100554
0.74239522 0.13210674 0.12283421
-0.71935421 0.15652362 0.12440097
0.71842784 0.15653017 0.12457705
-0.45138809 0.18091977 0.12499964
0.45040557 0.18091571 0.12491167
-0.6209017 0.20499718 0.11951244
-0.52348006 0.20496595 0.11893308
-0.50055051 0.20543137 0.12757397
0.49954954 0.20542768 0.12750363
0.52255362 0.20496488 0.11891556
0.61998039 0.20499894 0.11954749
-0.40496501 0.1572299 0.14275217
0.40383393 0.15722221 0.14255607
-0.69645917 0.1811969 0.13100135
0.69546175 0.18120092 0.13108969
-0.64755803 0.20559996 0.13070071
0.64656156 0.20560482 0.13078904
-0.80159068 0.059326015 0.16034448
0.80070794 0.059337333 0.16180408
-0.77389109 0.10833026 0.14794528
0.77282518 0.10833804 0.14828491
-0.43093368 0.18222591 0.15328062
0.4297269 0.1822193 0.15313721
-0.67689234 0.20682925 0.15351391
-0.47928289 0.20652539 0.14787352
0.47812343 0.20652062 0.14778435
0.67572111 0.20683426 0.15360343
-0.62970215 0.23203576 0.16348183
-0.60369146 0.23160648 0.15651214
-0.57779366 0.23117921 0.14957273
-0.55428505 0.23154566 0.15552402
-0.53081691 0.2319603 0.16225505
0.52955395 0.23195791 0.16221893
0.55307364 0.23154351 0.15548825
0.57663733 0.23118037 0.14959049
0.60248518 0.23160881 0.15654814
0.62844253 0.23203811 0.16351807
-0.75478441 0.15830767 0.17075396
0.75350374 0.15831465 0.17093551
-0.73048222 0.18311763 0.1725862
0.72918612 0.183126 0.172768
-0.70665157 0.20807648 0.17665756
-0.4577384 0.20763236 0.16841674
0.45642379 0.20762843 0.1683445
0.70530325 0.20808139 0.17674839
-0.65704191 0.23282704 0.17632997
-0.507572 0.2324993 0.17100787
0.50623631 0.23249486 0.17093551
0.65569466 0.23283267 0.17642093
-0.38612971 0.15900315 0.18882298
0.38464054 0.15899386 0.18858469
-0.41129428 0.1839734 0.19111669
0.40979689 0.18396661 0.19096971
-0.48605654 0.23378399 0.19186962
0.48455799 0.23377851 0.19177771
-0.5860734 0.2588464 0.19438839
0.58457547 0.25884902 0.19442523
-0.78760433 0.13459407 0.20361412
-0.36335173 0.13469508 0.20689261
0.36172703 0.13468806 0.20667005
0.78611279 0.13460478 0.20396566
-0.43711975 0.20922253 0.19792473
0.43556875 0.20921454 0.19777727
-0.68687052 0.23427287 0.19980669
-0.46425706 0.23508438 0.21298563
0.46259913 0.23507985 0.21291101
0.6853435 0.23427859 0.19989908
-0.63875455 0.25983873 0.20871079
-0.61235404 0.25934091 0.20152438
-0.56213206 0.25922433 0.19984353
-0.53835142 0.25970244 0.20674419
0.53674883 0.25970122 0.20672584
0.56058246 0.2592231 0.19982517
0.61080152 0.25934348 0.20156133
0.63714343 0.25983983 0.20872915
-0.76661623 0.18532306 0.22033477
0.76495522 0.18533158 0.22052169
-0.7419585 0.21053496 0.22228026
0.74028111 0.21054497 0.22246742
-0.71728808 0.23578146 0.22430313
0.71559376 0.23579311 0.2244904
-0.66709083 0.26094496 0.2246778
-0.51478857 0.26031944 0.21564913
0.51310897 0.26031432 0.21557438
0.66537952 0.26095405 0.22480905
-0.34256062 0.11059422 0.24597895
0.34061527 0.11058407 0.24554241
-0.39194986 0.18605006 0.23607695
0.39009833 0.1860396 0.23585033
-0.41727689 0.21131897 0.23683226
0.41542709 0.21131092 0.23668122
-0.44309524 0.23681271 0.24104905
0.44121417 0.23680457 0.24091637
-0.49253744 0.26158834 0.2339642
0.49072 0.26158443 0.23390782
-0.59508264 0.28750753 0.24315178
-0.56973612 0.28747991 0.24279177
0.56785911 0.28747991 0.24279177
0.59320271 0.28750753 0.24315178
-0.82482362 0.08537934 0.25180018
0.82325292 0.085402839 0.25332558
-0.80180013 0.16179061 0.26124179
-0.36886322 0.16153571 0.25462329
0.36687034 0.16152686 0.25439429
0.79987252 0.16180533 0.26162517
-0.69894522 0.26310301 0.25582647
-0.46997046 0.26284131 0.25204802
0.46801153 0.26283598 0.25197172
0.69699949 0.26311356 0.2559793
-0.64896184 0.28878206 0.25970912
-0.62188298 0.28811464 0.25103807
-0.545582 0.28799164 0.24943888
-0.52133298 0.28850684 0.25613213
0.51935315 0.28850684 0.25613213
0.54365683 0.28799295 0.24945772
0.61994243 0.28811464 0.25103807
0.64697659 0.28879091 0.2598238
-0.39623794 0.21315423 0.27089179
0.39412674 0.213146 0.27073741
-0.42165595 0.23861367 0.27029431
0.41955054 0.23860541 0.27015924
-0.44730517 0.26418406 0.27143168
0.44519246 0.26417607 0.27131605
-0.49809515 0.28957927 0.27006304
0.49599686 0.28957331 0.2699858
-0.34806004 0.13746992 0.29700732
0.34574211 0.13746274 0.29677236
-0.37277609 0.18847191 0.28850985
0.37053028 0.18846473 0.2883538
-0.68097824 0.29122886 0.29149365
-0.47530627 0.29100063 0.28852916
0.4730663 0.29099464 0.28845143
0.67876142 0.29124245 0.29166925
-0.60469621 0.31719643 0.29518712
-0.57757211 0.31650731 0.28704906
-0.55287623 0.31696966 0.29250908
0.55061954 0.31697139 0.29252875
0.57535762 0.31650904 0.28706861
0.60241228 0.3171947 0.29516757
-0.34991002 0.16382787 0.31417286
0.34745967 0.16381869 0.31393552
-0.37566403 0.2154513 0.31352007
0.37322542 0.21544281 0.31336188
-0.76151139 0.2408711 0.30694664
-0.39983118 0.24044725 0.3000654
0.39749736 0.24043873 0.29992807
0.75921518 0.24089152 0.30728149
-0.42570353 0.26624826 0.3012234
0.42336214 0.26623997 0.30110562
-0.45226175 0.29243824 0.30720282
0.44987851 0.29243213 0.3071239
-0.63194573 0.31788573 0.30332565
-0.5283305 0.31755477 0.29941797
-0.50377381 0.31819224 0.30694664
0.50139421 0.31818733 0.30688739
0.52601749 0.31755477 0.29941797
0.62960625 0.31788731 0.3033452
-0.35178989 0.19046283 0.33161592
0.34921101 0.19045454 0.3314358
-0.73946822 0.26780239 0.32365751
-0.4037098 0.26834965 0.33155584
0.40113556 0.26834136 0.3314358
0.7370072 0.26781482 0.32383657
-0.42982742 0.29440379 0.33273578
0.42724562 0.29439595 0.33263576
-0.66262233 0.31997177 0.32796109
-0.48076162 0.3197909 0.32582796
0.47823426 0.31978428 0.32574821
0.66012031 0.3199853 0.32812071
-0.32710752 0.086805314 0.3444196
0.32441464 0.086799704 0.34405684
-0.32750514 0.1129593 0.34839284
0.32478157 0.11295087 0.34802914
-0.37859797 0.24284065 0.33892906
0.37596351 0.24283069 0.33876812
-0.71716487 0.29499015 0.34035516
0.71458268 0.29500723 0.34057629
-0.45710346 0.32117271 0.34214473
0.45445365 0.32116771 0.34208441
-0.61461931 0.34784126 0.34889758
-0.58703506 0.34706518 0.34049582
-0.56036729 0.34671834 0.33674181
-0.53541327 0.3473179 0.34323144
-0.51032275 0.34789538 0.34948337
0.50762141 0.34789357 0.34946322
0.5327599 0.34731609 0.34321129
0.5577637 0.34671658 0.33672166
0.5844093 0.347067 0.34051609
0.61192906 0.34784308 0.34891784
-0.32850021 0.13935825 0.35833609
0.32571116 0.13935082 0.35809255
-0.35452735 0.21779528 0.35701644
0.3517608 0.21778974 0.356915
-0.38059986 0.2700617 0.35626578
0.37783831 0.27005452 0.35616422
-0.40667084 0.29616359 0.35559618
0.403916 0.29615724 0.35551512
-0.69544578 0.32277793 0.36110055
-0.43308729 0.32248533 0.35764551
0.43031856 0.32248023 0.35758471
0.69268239 0.32278818 0.36122274
-0.64386809 0.34935436 0.3652761
-0.48538566 0.34863052 0.35744262
0.48261756 0.34862491 0.35738182
0.64107072 0.34936556 0.36539865
-0.33028191 0.16621298 0.37613988
0.32735556 0.16620338 0.37589347
-0.33106211 0.19287944 0.38393617
0.32808328 0.19287187 0.3837713
-0.35610673 0.24485704 0.37167132
0.35322729 0.24485072 0.37156904
-0.38319829 0.29794747 0.3787688
0.38026559 0.297941 0.37868655
-0.40944394 0.32421824 0.37811124
0.40651569 0.32421139 0.37802899
-0.46139058 0.35007554 0.37308455
0.45850247 0.35006985 0.37302291
-0.33169049 0.21958414 0.3902154
0.32866517 0.21957651 0.39007068
-0.35769981 0.27215305 0.38645327
0.35470444 0.27214456 0.38632941
-0.43717089 0.3515318 0.38885033
0.43416181 0.35152629 0.3887881
-0.5976572 0.37910101 0.40048933
-0.56970388 0.37823856 0.39187181
-0.54222691 0.37758896 0.38537991
-0.51682973 0.37822601 0.39174747
-0.49133795 0.37886575 0.3981384
0.48826212 0.37886369 0.39811778
0.51380295 0.37822405 0.39172661
0.539249 0.37758672 0.38535929
0.56668252 0.37824073 0.39189243
0.59457314 0.37910509 0.40053082
-0.30780762 0.16780961 0.41762352
0.30456686 0.16780147 0.41741347
-0.3329125 0.24675101 0.40242636
0.32979503 0.24674323 0.40230143
-0.33441865 0.27430257 0.41747653
0.33118519 0.27429378 0.41735041
-0.35940331 0.29975575 0.40225971
0.35629031 0.29974928 0.40217626
-0.38583621 0.32620856 0.40161371
0.38272527 0.32619968 0.40150964
-0.67875499 0.35335311 0.40856457
-0.41272905 0.35300377 0.40478313
0.40959775 0.35299805 0.40472043
0.67563397 0.35336858 0.40873182
-0.46575683 0.37951174 0.40459538
0.46263146 0.37950975 0.40457428
-0.30874068 0.11479144 0.42772424
0.30542207 0.11478659 0.42751276
-0.30827442 0.14133941 0.42267704
0.30499294 0.14133248 0.42244518
-0.30834067 0.19470197 0.42339432
0.30505902 0.19469416 0.42322552
-0.30893421 0.22171828 0.42981899
0.30560482 0.22171029 0.42967093
-0.33568773 0.30190337 0.43015802
0.33236048 0.30189687 0.43007314
-0.36183339 0.32817253 0.42480826
0.3585467 0.32816541 0.42472374
-0.38847789 0.35482442 0.42449152
0.38519529 0.35481834 0.42442822
-0.62911242 0.3817884 0.42734361
-0.44132742 0.38111475 0.42061174
0.43807372 0.38110834 0.42054868
0.6258446 0.38180539 0.42751276
-0.30986205 0.088274799 0.43986356
0.30644444 0.0882705 0.43958664
-0.30950242 0.24881679 0.43597054
0.30612925 0.2488102 0.43586433
-0.31015739 0.27607495 0.44306087
0.30672961 0.27606755 0.44295418
-0.33690214 0.32965314 0.44229293
0.3334814 0.32964593 0.44220769
-0.36368331 0.35643914 0.44197321
0.36026651 0.35643324 0.44190907
-0.41651279 0.3826049 0.43550313
-0.39119202 0.38385502 0.44799638
0.38773066 0.38385087 0.44795358
0.41314733 0.38260061 0.43546045
-0.55194497 0.41044524 0.44549465
-0.52374625 0.40949431 0.43667197
-0.49771804 0.41004255 0.44175994
-0.47179443 0.41073313 0.44816768
0.46833354 0.41073096 0.44814622
0.49430344 0.41003796 0.44171739
0.52038294 0.40949884 0.43671441
0.54851407 0.41044968 0.44553757
-0.31213847 0.06166745 0.46450639
0.30853084 0.061665379 0.46422553
-0.28482476 0.19642237 0.46064436
0.28126237 0.19641736 0.4605366
-0.28491059 0.223434 0.46165776
0.28133869 0.22342694 0.4615283
-0.2849946 0.25045979 0.46264982
0.28141674 0.25045308 0.46254194
-0.28521219 0.27761012 0.46521926
0.28161618 0.27760416 0.46513295
-0.31099722 0.30359644 0.45215213
0.30750123 0.30358982 0.45206642
-0.31184343 0.33126357 0.46131241
0.30827686 0.33125636 0.46122634
-0.33863729 0.35807049 0.4596318
0.335085 0.35806444 0.45956719
-0.36568859 0.38511443 0.46057975
0.36213064 0.38511017 0.4605366
-0.58027619 0.41139394 0.45429826
-0.44563749 0.411313 0.45354664
-0.41985378 0.41229156 0.46262825
0.41627687 0.4122847 0.46256351
0.44213539 0.41131055 0.4535253
0.57677788 0.41139841 0.45434129
-0.28603968 0.14295036 0.47499156
0.28236008 0.14294434 0.47479606
-0.28554556 0.1697931 0.4691565
0.2819159 0.16978809 0.46902645
-0.28599185 0.30531108 0.47442675
0.28232494 0.30530441 0.47433984
-0.28677747 0.33315974 0.48370481
0.28303742 0.33315048 0.48359537
-0.31333604 0.35971841 0.47747064
0.30964684 0.35971215 0.47740519
-0.34038982 0.38677222 0.477144
0.33670267 0.38676554 0.47707891
-0.3943468 0.41365907 0.4753176
0.39067504 0.41365463 0.47527421
-0.28718111 0.11619411 0.48847151
0.28339088 0.11618774 0.48818696
-0.26105735 0.17106014 0.50207698
0.25717509 0.17105517 0.50194466
-0.26038298 0.19793159 0.49331713
0.25656977 0.19792649 0.4932071
-0.26003018 0.22489309 0.48873413
0.25625229 0.2248871 0.48862469
-0.26010776 0.25212821 0.4897418
0.25632206 0.25212154 0.48963225
-0.26018539 0.27937892 0.49074984
0.25639194 0.27937135 0.49064028
-0.26063675 0.30701908 0.4966135
0.25680268 0.30701566 0.49656916
-0.2610743 0.33473408 0.50229752
0.25719649 0.33473045 0.50225353
-0.28774768 0.36135265 0.49516213
0.28392446 0.3613486 0.49511826
-0.31497031 0.38857523 0.49516225
0.31114489 0.3885687 0.49509621
-0.6139217 0.41549495 0.49235106
-0.36865443 0.41503674 0.48809922
-0.3427746 0.41642421 0.50097418
0.33890593 0.41641957 0.50092983
0.36488456 0.415032 0.48805535
0.6101532 0.41551378 0.49252677
-0.50549346 0.4429926 0.49492049
-0.47759762 0.44243008 0.49004841
-0.45113817 0.44306886 0.49557996
-0.42459303 0.44370687 0.50110638
0.4207249 0.4437044 0.50108433
0.44731244 0.44306621 0.4955579
0.47381428 0.44242761 0.49002683
0.50167853 0.44299516 0.49494255
-0.28932297 0.089412466 0.51376557
0.28533772 0.089408115 0.51347697
-0.26184943 0.14410114 0.51236677
0.25788641 0.1440964 0.51221156
-0.2348192 0.22641912 0.51705563
0.23082672 0.22641549 0.51698899
-0.23459588 0.25361183 0.51383233
0.23062822 0.25360763 0.51376557
-0.234459 0.28084132 0.51185632
0.2305052 0.28083503 0.51176763
-0.23444979 0.30818227 0.51172328
0.23049834 0.30817696 0.51165688
-0.23484696 0.33601779 0.51745617
0.23085138 0.33601218 0.51738966
-0.26151329 0.36253849 0.50800002
0.25759158 0.36253449 0.50795603
-0.28892291 0.3899641 0.50904083
0.28499281 0.38995966 0.50899661
-0.31653091 0.41761866 0.51205611
0.31257725 0.41761383 0.51201177
-0.53399616 0.44395405 0.50324678
-0.39796478 0.44434696 0.50665009
-0.37166724 0.44543293 0.51605463
0.3676821 0.44542786 0.51601017
0.39405411 0.44434449 0.50662792
0.53012055 0.44395909 0.50329089
-0.26361012 0.11727437 0.53523874
0.25947088 0.11727069 0.53508127
-0.23610544 0.17235139 0.53562081
0.23196585 0.17234617 0.53548598
-0.23548855 0.19947419 0.52671671
0.23141754 0.19946808 0.52658248
-0.20833343 0.25471568 0.53175759
0.20422827 0.25471154 0.53169048
-0.20820917 0.28208026 0.52973962
0.20411953 0.28207552 0.52967227
-0.20808639 0.30941576 0.52774632
0.20401213 0.30941051 0.5276792
-0.20839287 0.33731046 0.53272271
0.20428026 0.3373048 0.53265536
-0.23524545 0.36394328 0.52320778
0.2312056 0.36393717 0.52314067
-0.26255339 0.39121211 0.52151155
-0.235998 0.39246899 0.53407013
0.23187451 0.39246216 0.53400266
0.25852612 0.39120549 0.52144468
-0.2901074 0.4188011 0.52302909
-0.26363954 0.42015815 0.53562081
0.25950515 0.42015341 0.53557575
0.2860696 0.41879636 0.52298439
-0.56502819 0.44663057 0.52642584
-0.34540674 0.44672862 0.52727604
-0.31879291 0.44779882 0.53654277
0.31465262 0.44779605 0.53652048
0.34133554 0.44672346 0.52723157
0.56100553 0.44665882 0.52667212
0.28842178 0.062352918 0.55354023
-0.20937879 0.20049104 0.54873204
0.20514169 0.2004869 0.54864144
-0.20872238 0.22755164 0.53807342
0.20456737 0.2275469 0.5379833
-0.18180479 0.25583082 0.54986513
0.17756075 0.25582668 0.54979718
-0.18169495 0.28333336 0.54782641
0.17746659 0.28332862 0.54775858
-0.18158524 0.31080469 0.54579008
0.17737253 0.31079933 0.54572213
-0.1816535 0.3385244 0.54705691
0.17743209 0.33852059 0.54701161
-0.20875011 0.36535814 0.53852355
-0.18185492 0.36649171 0.55079436
0.17760576 0.36648965 0.55077171
0.20459285 0.36535203 0.53845608
-0.20925474 0.39373466 0.54671752
0.20503558 0.39373001 0.54667222
-0.23698245 0.42152247 0.54827929
0.23275094 0.42151752 0.54823375
-0.2920405 0.44887426 0.54585803
0.28782868 0.44887179 0.54583538
-0.45825416 0.4769921 0.54995561
-0.42990729 0.47628963 0.54425311
-0.40296525 0.4769921 0.54995561
0.39872116 0.47698921 0.54993296
0.42570698 0.47628677 0.54423046
0.45401809 0.47699764 0.55000091
-0.29271024 0.062354635 0.55376744
-0.2657499 0.090171158 0.56303561
0.26139334 0.090167925 0.56282997
-0.23742564 0.14540397 0.55467629
0.23313786 0.14539897 0.55451703
-0.21013179 0.17332667 0.5609591
0.2057993 0.17332232 0.56084514
-0.18289541 0.20147821 0.57010376
0.17849444 0.20147395 0.57001233
-0.18231419 0.22869653 0.55931795
0.17799734 0.22869274 0.55924964
-0.15487491 0.25678265 0.56532001
0.15051323 0.25677979 0.56527412
-0.15465663 0.28421789 0.56059432
0.15033135 0.28421471 0.56054854
-0.15448621 0.31166017 0.55690455
-0.12718613 0.31245601 0.56724119
0.12281003 0.31245238 0.56719553
0.15018934 0.31165671 0.55685902
-0.15444209 0.33927718 0.55594921
0.15015343 0.3392753 0.55592632
-0.12709546 0.34003389 0.56488562
0.1227382 0.34003204 0.56486297
-0.15461662 0.3673169 0.55972803
-0.12724164 0.36814412 0.56868351
0.12285443 0.36813995 0.56863761
0.150298 0.36731282 0.55968261
-0.68040562 0.39457664 0.55513072
-0.18208489 0.39456975 0.55506265
-0.15479048 0.39541337 0.56349194
0.15044288 0.39540872 0.56344652
0.17780289 0.3945674 0.55503976
0.67646027 0.3947587 0.55694997
-0.21004616 0.42273918 0.55956864
-0.18273005 0.42354375 0.5670352
0.17835587 0.42354134 0.56701231
0.20572929 0.42273661 0.55954599
-0.2651484 0.44995555 0.55522168
-0.23811556 0.45104235 0.56463432
0.23375951 0.45103988 0.56461143
0.26086468 0.44995296 0.55519879
-0.48710117 0.47806099 0.55863464
-0.37580261 0.47754267 0.55442643
-0.34854946 0.47806653 0.55868018
-0.32122964 0.47858903 0.56292129
0.31688625 0.47858605 0.56289828
0.34423855 0.47806376 0.55865729
0.37152657 0.47754267 0.55442643
0.48279569 0.47806376 0.55865729
-0.23904675 0.11826351 0.57807446
0.23457873 0.11825982 0.5779134
-0.21150669 0.14628491 0.58328497
0.20700352 0.14628218 0.58319259
-0.18378998 0.17431757 0.58670497
0.17926118 0.17431408 0.58661258
-0.15541512 0.22965023 0.577016
0.1509634 0.22964755 0.57696998
-0.1275721 0.25751853 0.57726908
0.1231188 0.25751558 0.57722306
-0.12732896 0.28493562 0.57095218
-0.099843666 0.28565744 0.58136964
-0.072097719 0.28607833 0.5874455
0.067567483 0.28607833 0.5874455
0.095359147 0.28565404 0.5813235
0.12292429 0.28493243 0.57090628
-0.099728741 0.31325635 0.5776372
-0.0719947 0.31366789 0.58298492
-0.044148289 0.31392944 0.58638132
0.039626077 0.31392762 0.58635807
0.067498453 0.31366608 0.58296168
0.09527348 0.31325462 0.57761443
-0.099614754 0.34080029 0.57393551
-0.071891412 0.34118778 0.57851207
-0.044079296 0.34147468 0.58190024
-0.0162149 0.34176025 0.5852716
0.011701408 0.34176025 0.5852716
0.039591584 0.34147286 0.58187699
0.067429952 0.34118778 0.57851207
0.09518747 0.34079638 0.57388973
-0.099730164 0.36897555 0.57768357
-0.071941957 0.36925441 0.58070087
-0.044106301 0.36952722 0.5836544
-0.016225219 0.36980051 0.58661258
0.011701408 0.36980051 0.58661258
0.039605264 0.36952722 0.5836544
0.067463644 0.36925441 0.58070087
0.095274016 0.36897135 0.57763743
-0.12738724 0.39631134 0.57246614
-0.099820249 0.39712617 0.58060896
-0.072008036 0.39742172 0.58356202
-0.044150427 0.39771774 0.58652008
0.039627325 0.39771774 0.58652008
0.067507699 0.39742172 0.58356202
0.095342644 0.39712617 0.58060896
0.12297162 0.39630902 0.57244313
-0.15530148 0.42435426 0.57455575
0.15086871 0.4243494 0.57450986
-0.12775658 0.42516309 0.58206177
0.12326708 0.42516077 0.58203852
-0.21078531 0.45184347 0.57157147
-0.18337826 0.45270875 0.57906497
-0.15585837 0.45358029 0.58661246
0.15133366 0.45357761 0.58658934
0.17891149 0.45270616 0.57904196
0.20637605 0.45184088 0.57154846
-0.51904327 0.48162371 0.58756113
-0.29415572 0.47956398 0.5708375
-0.26708141 0.48073334 0.58033204
0.26260275 0.48072776 0.58028615
0.2897498 0.47955841 0.5707916
-0.15595885 0.20234114 0.58878803
-0.1284886 0.20290887 0.60108006
0.12385125 0.20290554 0.60101008
0.15141651 0.20233902 0.58874202
-0.12802528 0.23029828 0.58904278
-0.10045274 0.23095047 0.60115004
0.095815942 0.23094815 0.60110354
0.12348133 0.23029581 0.58899653
-0.10008778 0.25825924 0.58929789
-0.072315246 0.25872532 0.59686494
-0.044369921 0.25896618 0.60077703
0.039736893 0.25896475 0.60075355
0.067712508 0.25872532 0.59686494
0.09554223 0.25825635 0.5892514
-0.044217095 0.28631413 0.59085035
-0.016284104 0.28655034 0.59426177
0.011701408 0.28655034 0.59426177
0.039660659 0.28631413 0.59085035
-0.016249459 0.31418949 0.58976078
0.011701408 0.31418949 0.58976078
-0.016247138 0.39801192 0.58945978
0.011701408 0.39801192 0.58945978
-0.100045 0.42579332 0.58790839
-0.072165646 0.42606035 0.59038663
-0.044248521 0.42633027 0.59289181
-0.016292688 0.42659825 0.59537673
0.011701408 0.42659825 0.59537673
0.039676372 0.42633027 0.59289181
0.067612775 0.42606035 0.59038663
0.095511213 0.42579332 0.58790839
-0.12822346 0.45445547 0.59419179
-0.10038458 0.45500332 0.59893608
-0.072421208 0.45529401 0.60145319
-0.044418778 0.45558238 0.60395014
0.039761502 0.45558238 0.60395014
0.067782789 0.45529124 0.60142994
0.095765896 0.45500332 0.59893608
0.12363987 0.4544501 0.5941453
-0.23976651 0.48173496 0.5884639
-0.2121741 0.48243195 0.59412205
-0.18449678 0.48313382 0.59982157
0.1798702 0.48313096 0.59979832
0.20759124 0.48242897 0.59409881
0.23522702 0.48173207 0.58844078
0.51454747 0.48165506 0.58781576
-0.38113233 0.5116933 0.60387993
-0.3527739 0.51130247 0.6008935
0.34813803 0.51129949 0.60087025
0.37648028 0.51169932 0.60392666
-0.26969451 0.062820479 0.61427724
0.26494145 0.062818557 0.61404252
-0.24183509 0.09102229 0.61832118
0.23705848 0.091020271 0.6181798
-0.21312645 0.11899123 0.60958648
0.20841947 0.1189886 0.60946941
-0.18501161 0.14708829 0.6093756
0.18030824 0.14708546 0.60928202
-0.15689352 0.17517665 0.60902429
0.15219538 0.17517483 0.60897779
-0.10088951 0.2035673 0.61533439
0.096143506 0.20356503 0.6152873
-0.072599307 0.23138261 0.60916483
-0.044559345 0.23159346 0.61308014
-0.01645935 0.23180622 0.61702704
0.011701408 0.23180622 0.61702704
0.039831784 0.23159346 0.61308014
0.067901522 0.23138136 0.60914159
-0.016364258 0.25920618 0.60467422
0.011701408 0.25920618 0.60467422
-0.016378112 0.45587382 0.60647368
0.011701408 0.45587382 0.60647368
-0.15673253 0.48383811 0.60553861
-0.12888095 0.48454446 0.61127377
-0.10084611 0.48487112 0.6139251
-0.072753184 0.4851054 0.61582792
-0.044630971 0.48533988 0.61773288
-0.016479462 0.48557472 0.61963952
0.011701408 0.48557472 0.61963952
0.039867599 0.48533988 0.61773288
0.068004467 0.4851054 0.61582792
0.096111506 0.48486802 0.61390162
0.12416656 0.48454162 0.61125028
0.15206212 0.48383528 0.60551524
-0.43904749 0.51360154 0.6184622
-0.41003212 0.5126456 0.61115658
-0.32513839 0.51187068 0.60523498
-0.29743689 0.51244009 0.60958672
-0.26965657 0.51298934 0.61378443
-0.24170631 0.51334 0.61646259
-0.21371655 0.51369399 0.61916852
0.20894083 0.51369089 0.61914492
0.23695272 0.51334 0.61646259
0.26492193 0.51298636 0.61376071
0.29273623 0.51244009 0.60958672
0.32046923 0.51186752 0.6052115
0.4053219 0.51264858 0.61117995
0.43428123 0.51360476 0.61848593
-0.1579273 0.14776662 0.63140666
0.15305594 0.1477645 0.6313355
-0.12934542 0.17572764 0.62334096
-0.10158037 0.17628306 0.63777041
0.096661083 0.17628035 0.63769901
0.12453669 0.17572495 0.62327039
-0.072964855 0.20401329 0.62499392
-0.044813413 0.20422545 0.62958241
0.039958637 0.20422411 0.62955868
0.068145223 0.20401227 0.6249702
-0.016591415 0.20443779 0.6341821
0.011701408 0.20443779 0.6341821
-0.1857527 0.51421237 0.62312865
-0.15781243 0.51497012 0.62891936
-0.12976727 0.51567441 0.63430083
-0.10153279 0.51592624 0.63622499
-0.073268712 0.51617819 0.63815129
0.068348154 0.51617819 0.63815129
0.096627042 0.51592624 0.63622499
0.12487561 0.51567119 0.63427711
