ply
format ascii 1.0
comment PCL generated
element vertex 1343
property float x
property float y
property float z
element camera 0
property float view_px
property float view_py
property float view_pz
property float x_axisx
property float x_axisy
property float x_axisz
property float y_axisx
property float y_axisy
property float y_axisz
property float z_axisx
property float z_axisy
property float z_axisz
property float focal
property float scalex
property float scaley
property float centerx
property float centery
property int viewportx
property int viewporty
property float k1
property float k2
end_header
0.012595258 -0.132919 -0.33024597
-0.28576156 -0.11324593 -0.32710928
-0.26522222 -0.11287509 -0.33313012
-0.24477841 -0.11250602 -0.33912289
-0.1258277 -0.11231989 -0.3421452
-0.1060963 -0.11237761 -0.34120774
-0.086351894 -0.11243758 -0.34023279
-0.066592507 -0.11249775 -0.33925706
-0.046818115 -0.11255795 -0.33828062
-0.027079936 -0.11282296 -0.33397561
-0.22595832 -0.093278483 -0.32853705
-0.20576988 -0.093081877 -0.33218575
-0.18597424 -0.093120858 -0.33146185
-0.16616663 -0.093159318 -0.33074969
-0.14636019 -0.093208253 -0.3298406
-0.12654376 -0.093261227 -0.32885695
-0.10671221 -0.093314305 -0.32787257
-0.10751578 -0.41454792 -0.31047487
-0.087172776 -0.41305524 -0.31890559
0.092217043 -0.41194749 -0.32516176
0.11217427 -0.41218555 -0.32381678
0.13215226 -0.41242409 -0.32247013
0.15215172 -0.41266489 -0.32110989
0.17237997 -0.41350329 -0.31637448
-0.18752359 -0.39438367 -0.31133533
-0.16710149 -0.393381 -0.31725603
-0.14677148 -0.3923806 -0.32316214
0.19186999 -0.39234924 -0.32334745
0.21247348 -0.39385432 -0.31446075
-0.24739589 -0.37410784 -0.31296748
-0.22684918 -0.37315005 -0.31889313
-0.20639704 -0.37219834 -0.32477957
0.21169339 -0.37222838 -0.32459432
0.23231082 -0.37357926 -0.31623793
-0.2666364 -0.3530246 -0.3200081
0.23149773 -0.35212672 -0.32584012
0.25216916 -0.35341209 -0.31749171
-0.28602061 -0.33236897 -0.32486588
0.25137973 -0.33219773 -0.32603735
0.27200952 -0.33326614 -0.31873196
0.29286781 -0.33449215 -0.31034994
-0.32765079 -0.31438279 -0.31099856
-0.30616862 -0.31273156 -0.32291508
0.27178273 -0.31299716 -0.32099837
0.29241407 -0.31388927 -0.31456023
0.29226539 -0.29372168 -0.3159399
-0.32634702 -0.29306459 -0.3209613
0.27164534 -0.29288 -0.3223713
-0.34655592 -0.27336782 -0.3190046
0.2513991 -0.27252734 -0.32582784
0.27178398 -0.27312368 -0.32098615
0.29224396 -0.27372074 -0.31613857
0.31282821 -0.27437067 -0.31086159
-0.36703518 -0.25383043 -0.31540567
-0.3457267 -0.25272387 -0.3249892
0.23155724 -0.25270683 -0.3251372
0.25190923 -0.25326478 -0.32030529
0.27233744 -0.25382471 -0.31545526
0.29284361 -0.25438827 -0.31057453
-0.36662844 -0.23355027 -0.31818646
0.21187119 -0.23310857 -0.32228488
0.23212796 -0.2335275 -0.31839728
0.25244683 -0.23394905 -0.31448561
-0.38764048 -0.21427546 -0.31134784
-0.36622438 -0.21331461 -0.32094902
0.15198722 -0.21299301 -0.32416254
0.17213944 -0.21338154 -0.32028061
0.19235307 -0.21377237 -0.31637454
0.21262679 -0.21416329 -0.31246936
-0.3872129 -0.1940071 -0.314125
-0.36608508 -0.19328879 -0.32190144
0.13230602 -0.19354376 -0.31914103
0.15254286 -0.1940324 -0.31385124
0.17276175 -0.194372 -0.31017548
-0.38768271 -0.17427509 -0.31107348
-0.36653054 -0.17361611 -0.31885588
0.092288129 -0.17327754 -0.32285333
0.1125114 -0.1739378 -0.31505746
-0.36697882 -0.15389809 -0.31579071
-0.34592509 -0.15330018 -0.32355732
0.072458938 -0.15366782 -0.31878155
0.092653923 -0.15426891 -0.31097376
-0.36760679 -0.13421801 -0.31149727
-0.34675351 -0.13379662 -0.31757867
-0.32599598 -0.13337645 -0.3236438
0.032521233 -0.13345605 -0.32249486
0.052567076 -0.1339954 -0.31470948
-0.32712939 -0.11399269 -0.31498295
-0.30639705 -0.11361836 -0.3210603
-0.0073045874 -0.11332108 -0.32588941
0.012595258 -0.11388244 -0.31677192
-0.30754879 -0.094185278 -0.31170923
-0.28705129 -0.09395726 -0.31593978
-0.2666204 -0.093729988 -0.32015681
-0.2462558 -0.093503565 -0.32436001
-0.086912982 -0.093433797 -0.32565516
-0.067092665 -0.093576074 -0.32301378
-0.047200944 -0.093646675 -0.32170361
-0.02733143 -0.093865648 -0.31764072
-0.22734369 -0.074091643 -0.31354004
-0.20699209 -0.073897161 -0.31775242
-0.18703437 -0.073899999 -0.31769019
-0.16725466 -0.074022196 -0.31504518
-0.14743535 -0.074145235 -0.31238198
-0.047697436 -0.43646383 -0.30020487
-0.027557522 -0.43595558 -0.30295563
-0.0074692583 -0.43567061 -0.30449802
0.012595258 -0.43541604 -0.30587596
0.032645892 -0.43533742 -0.30630136
0.052689977 -0.43525881 -0.30672687
0.072727799 -0.43518257 -0.30713958
0.092800878 -0.43535602 -0.30620134
0.11290096 -0.43558967 -0.30493665
0.13302173 -0.43582815 -0.30364555
0.1531665 -0.43608087 -0.3022778
0.17360142 -0.4371407 -0.29654086
-0.12799156 -0.41605031 -0.30198914
0.19310473 -0.41542429 -0.30552518
0.21400352 -0.41736132 -0.29458487
-0.22906086 -0.39715838 -0.29495096
-0.20817599 -0.39566469 -0.3037709
0.23338138 -0.39569443 -0.3035953
-0.26889265 -0.37635416 -0.29907268
0.25306189 -0.37493885 -0.30782723
0.27394795 -0.37630737 -0.29936212
-0.28837827 -0.35542035 -0.30444783
0.27297577 -0.35470766 -0.30907679
0.29391512 -0.3560077 -0.3006323
-0.32986164 -0.33686817 -0.29410481
-0.30778539 -0.33457434 -0.30978841
0.31386286 -0.33572781 -0.30190122
-0.34933174 -0.31604922 -0.29897201
0.31314826 -0.31478584 -0.30808991
0.33398604 -0.31568682 -0.3015871
0.35497779 -0.31664485 -0.29467332
-0.36972988 -0.29620254 -0.29698205
-0.34793848 -0.2946263 -0.30902702
0.31298816 -0.29456747 -0.30947638
0.33381441 -0.29541761 -0.30298066
0.35474494 -0.2962718 -0.29645258
-0.39015716 -0.27632409 -0.29500151
-0.36825517 -0.27483839 -0.30706459
0.33364296 -0.27516991 -0.30437267
0.35458824 -0.275998 -0.29764986
-0.3886044 -0.25502199 -0.30508697
0.3134256 -0.25495249 -0.30568808
0.33408508 -0.25551897 -0.3007831
0.35479939 -0.25606698 -0.2960363
-0.40966916 -0.23563193 -0.29887134
-0.38806894 -0.23458721 -0.3085646
0.27289456 -0.23444451 -0.30988824
0.29344583 -0.23497282 -0.3049866
0.31407326 -0.23550172 -0.30007899
0.33477855 -0.23603268 -0.29515302
-0.40921593 -0.21524344 -0.3016752
0.2329627 -0.21455653 -0.30853969
0.25335902 -0.21494959 -0.30461079
0.27381831 -0.21534537 -0.30065733
0.29433841 -0.21574087 -0.29670453
-0.43055645 -0.19584128 -0.29426908
-0.40876365 -0.19489871 -0.30447298
0.19303709 -0.19471137 -0.30650169
0.21338813 -0.19507369 -0.3025791
0.23380272 -0.19543949 -0.29861963
0.25427821 -0.19580513 -0.29466069
-0.40896431 -0.17493916 -0.30323172
0.13285629 -0.17460088 -0.30722713
0.15313742 -0.17497425 -0.30281752
0.17344317 -0.17528811 -0.29911041
0.19380586 -0.17560185 -0.29540539
-0.40946579 -0.15510367 -0.30012935
-0.38815746 -0.15449861 -0.30798984
0.11297142 -0.15487456 -0.30310613
0.13340233 -0.15546738 -0.29540539
-0.40999705 -0.13523322 -0.29684323
-0.38863334 -0.13467513 -0.30489898
0.072737046 -0.1345477 -0.30673933
0.093068853 -0.13518782 -0.29749864
-0.3899124 -0.11512528 -0.2965911
-0.36888734 -0.11474642 -0.30274236
-0.34795925 -0.11436872 -0.30887687
0.032635879 -0.11444719 -0.30760235
0.052818671 -0.11501585 -0.29836768
-0.37017468 -0.095142812 -0.29394054
-0.3491731 -0.094809934 -0.30011672
-0.32827044 -0.094478682 -0.30626404
-0.0074386252 -0.094359428 -0.3084774
0.012595258 -0.094857335 -0.29923636
-0.3094202 -0.074878059 -0.29651541
-0.28879854 -0.074679747 -0.30080831
-0.26824719 -0.074483357 -0.30506182
-0.2477615 -0.0742869 -0.30931413
-0.12757464 -0.074267812 -0.30972606
-0.10767387 -0.07439138 -0.30705208
-0.087681517 -0.074454375 -0.30568802
-0.067659333 -0.074504137 -0.30461079
-0.047620587 -0.074553944 -0.30353272
-0.027601227 -0.07471174 -0.30011672
-0.20890896 -0.05480592 -0.29511511
-0.18868189 -0.054760829 -0.29628849
-0.088560015 -0.43966752 -0.28286409
0.1944904 -0.43917602 -0.28552473
-0.068058364 -0.43804407 -0.29165184
-0.16939071 -0.41919744 -0.28421426
-0.1486014 -0.4175626 -0.29344773
0.2350775 -0.41931242 -0.28356481
-0.25026697 -0.39896607 -0.28427768
0.25446495 -0.39755011 -0.29263866
0.27572525 -0.39941913 -0.28160226
-0.29101479 -0.37917638 -0.2816149
0.29498392 -0.37770528 -0.29071498
0.31643227 -0.37949407 -0.2796495
0.33620739 -0.35863733 -0.28355229
-0.31038287 -0.35784483 -0.28869963
0.31499231 -0.35731822 -0.2921201
-0.35220569 -0.33918995 -0.27823102
0.33499479 -0.33697164 -0.29339719
0.35626492 -0.33822364 -0.2848376
-0.37167552 -0.31816828 -0.28367949
0.37703517 -0.31856209 -0.28083682
-0.39172393 -0.29779351 -0.28482509
0.37614438 -0.29747415 -0.2872653
-0.41226304 -0.27782387 -0.28282607
0.39763305 -0.2783646 -0.27843547
0.37603182 -0.27717686 -0.28807795
-0.4328334 -0.25782353 -0.28082407
-0.41061744 -0.25641698 -0.29300535
0.37590522 -0.25688058 -0.28899133
0.39751339 -0.25800502 -0.27925336
-0.43143308 -0.23668571 -0.28909278
0.35551235 -0.23652448 -0.29058826
0.37629929 -0.23700307 -0.28614748
0.39724448 -0.23754801 -0.28109205
-0.43095466 -0.21621989 -0.29191768
0.31492221 -0.21613894 -0.29272735
0.3355312 -0.21650763 -0.289042
0.35622996 -0.2169017 -0.28510475
0.37705991 -0.21734671 -0.28065813
0.29541728 -0.19654109 -0.28669381
0.31608164 -0.19691131 -0.28268588
0.33659843 -0.19712459 -0.28037727
0.356989 -0.19722372 -0.27930462
0.27481711 -0.19617313 -0.29067683
-0.45360041 -0.17708538 -0.27788568
-0.4306891 -0.17576444 -0.29348576
0.21422736 -0.17591748 -0.29167724
0.2347061 -0.17623317 -0.28795099
0.25524437 -0.1765506 -0.2842015
0.27584144 -0.17686908 -0.28044116
-0.43157053 -0.15601577 -0.28828108
0.15373705 -0.1557534 -0.29168963
0.17413041 -0.15604119 -0.28795099
0.19458209 -0.15632986 -0.2842015
0.21509132 -0.15661833 -0.28045404
-0.43245557 -0.13618843 -0.28305542
0.1134942 -0.13574024 -0.28952384
0.13393863 -0.13613732 -0.28379405
0.15435833 -0.13638908 -0.28016031
-0.43334621 -0.11628276 -0.27779627
0.093497507 -0.11592682 -0.28357744
-0.41138327 -0.11563787 -0.28826821
0.073120862 -0.11552386 -0.29011941
-0.39129934 -0.09548524 -0.28758287
0.032765973 -0.095317259 -0.29070234
0.053037368 -0.095669627 -0.28416336
-0.37168854 -0.075475045 -0.28359032
-0.35086414 -0.075275436 -0.28791285
-0.33010814 -0.075076304 -0.29222131
-0.0075709736 -0.075119607 -0.2912848
0.012595258 -0.075420953 -0.28476131
-0.31131199 -0.055343248 -0.28115571
-0.29056922 -0.055177122 -0.2854737
-0.26989308 -0.055010945 -0.28978992
-0.2495379 -0.054942675 -0.29156327
-0.22920905 -0.054874048 -0.29334676
-0.16874133 -0.054864757 -0.29358685
-0.14875877 -0.054968461 -0.29089224
-0.12866598 -0.055023156 -0.28947306
-0.10853618 -0.055065133 -0.28838241
-0.088389628 -0.055107094 -0.28729093
-0.068292871 -0.055232398 -0.28403604
-0.048150908 -0.055365808 -0.28056884
-0.027940545 -0.055461712 -0.27807748
-0.0077674901 -0.46319091 -0.26575661
0.012595258 -0.46230316 -0.27036965
0.032910325 -0.46199876 -0.27195072
0.053201273 -0.4616974 -0.27351725
0.073467851 -0.46139383 -0.27509451
0.093740173 -0.46127796 -0.27569664
0.11400964 -0.4611941 -0.27613235
0.13427299 -0.4611128 -0.27655482
0.15452915 -0.46102911 -0.27699006
0.17535667 -0.46275163 -0.26803935
-0.1092293 -0.4414205 -0.27337599
0.2155868 -0.44130194 -0.27401757
-0.21144307 -0.42256606 -0.26518857
-0.19034103 -0.42087561 -0.27473581
0.25633097 -0.42128229 -0.27243888
0.29716688 -0.40130621 -0.27045941
0.33806252 -0.38129807 -0.2684902
-0.33265665 -0.36030096 -0.27274704
0.35756177 -0.35996515 -0.27492809
-0.3748244 -0.34154183 -0.26215041
0.37840536 -0.34025514 -0.27094829
-0.39436379 -0.32038546 -0.26767838
0.39966503 -0.32081997 -0.2645427
-0.41392148 -0.29939765 -0.27256739
0.39820418 -0.29914069 -0.27453053
-0.43457568 -0.27933747 -0.27053678
0.41945711 -0.27961177 -0.26830983
0.41926679 -0.25912595 -0.26954603
-0.4547286 -0.23858021 -0.27151382
0.41907468 -0.23865773 -0.27079403
-0.45408779 -0.21789964 -0.27513301
0.39796051 -0.21779321 -0.27619636
0.41893414 -0.21824248 -0.27170658
0.44069344 -0.21913536 -0.26278436
-0.45384288 -0.19748119 -0.27651656
0.37769589 -0.19752266 -0.27606821
0.39877141 -0.19802299 -0.27065241
0.41978863 -0.19843827 -0.26615667
0.44087967 -0.19885623 -0.26163244
0.29650447 -0.17719376 -0.2766062
0.31723079 -0.17752156 -0.27273417
0.33767271 -0.17761303 -0.2716552
0.35813138 -0.17770447 -0.2705754
0.37860501 -0.17779483 -0.26950753
0.39923277 -0.17796499 -0.26749814
0.42042339 -0.17842776 -0.26203382
-0.45421946 -0.15708515 -0.27438939
0.23566025 -0.15690854 -0.27668297
0.25628707 -0.15719874 -0.27291405
0.27697429 -0.15749075 -0.26912117
0.29772106 -0.15778357 -0.26531768
0.31827664 -0.15790981 -0.26367688
0.33869201 -0.15793265 -0.26337945
0.35928133 -0.15805523 -0.26178801
-0.45515451 -0.13715479 -0.26910841
0.17483459 -0.1366415 -0.27651644
0.19536678 -0.13689373 -0.27287543
0.21596372 -0.13715391 -0.26912117
0.23662156 -0.13741648 -0.26533055
-0.45609325 -0.11714427 -0.2638061
0.11397564 -0.1163308 -0.27701569
0.13448863 -0.11664666 -0.27188647
0.15500176 -0.11687255 -0.26821971
0.1755712 -0.11709815 -0.26455569
-0.43525624 -0.096620426 -0.26651788
-0.41318989 -0.096050575 -0.27709258
0.073409885 -0.096023038 -0.27760434
0.093884811 -0.096378937 -0.27099955
0.11446219 -0.096735954 -0.26437473
-0.415012 -0.076295815 -0.2658211
-0.39302084 -0.075807132 -0.27640128
0.032866705 -0.075750925 -0.27761698
0.053283826 -0.076187871 -0.26815534
-0.37409693 -0.0558834 -0.26712406
-0.35300651 -0.055678301 -0.27245164
-0.33212483 -0.055510558 -0.27681088
-0.0077455537 -0.055826277 -0.26860607
-0.31371346 -0.035699464 -0.26165843
-0.29310849 -0.035643227 -0.26348293
-0.2725333 -0.035587594 -0.26529181
-0.25198618 -0.035531938 -0.26709831
-0.23146594 -0.035475925 -0.2689153
-0.21097387 -0.035420142 -0.27072954
-0.1905109 -0.035364732 -0.27252865
-0.17042923 -0.035466485 -0.26922417
-0.15038547 -0.035612538 -0.26447821
-0.028286841 -0.46514845 -0.25558484
0.19675052 -0.46566463 -0.25290287
-0.13039473 -0.44437361 -0.25739169
0.23716187 -0.44408578 -0.25894964
-0.23272619 -0.42432159 -0.25527275
0.27776518 -0.42326891 -0.26121831
0.29939231 -0.4252888 -0.24981022
-0.27309662 -0.40306652 -0.26006496
0.31879103 -0.40320933 -0.25922203
0.3405984 -0.40512663 -0.24790156
-0.31424376 -0.38309848 -0.25735283
0.35987538 -0.38311529 -0.25724876
-0.35547525 -0.36308944 -0.2546351
0.3803468 -0.36273503 -0.25693703
-0.39771906 -0.34392077 -0.24588537
0.40113318 -0.34266007 -0.25450492
-0.41733015 -0.32262975 -0.25148129
0.42257705 -0.32310581 -0.24804544
-0.43685904 -0.30142778 -0.25705409
0.42102811 -0.30129021 -0.25810599
-0.4584164 -0.28178251 -0.25068521
0.44247851 -0.28165233 -0.25174212
0.46402094 -0.26191252 -0.24541342
-0.45656523 -0.26009649 -0.26114058
0.44118339 -0.26025665 -0.2597537
-0.47941425 -0.24112783 -0.24787533
0.44104716 -0.23975678 -0.26059628
0.46311933 -0.24081944 -0.25073731
-0.47770652 -0.21970235 -0.25711906
0.46284533 -0.22017907 -0.25235522
-0.47744742 -0.19914359 -0.2585212
0.462446 -0.19949535 -0.25471318
-0.47719097 -0.17860755 -0.25990939
0.44170383 -0.17889337 -0.25653434
0.46299332 -0.17932123 -0.25148129
0.48432922 -0.17973408 -0.24660563
-0.47711194 -0.15816696 -0.26033711
0.3798236 -0.15813799 -0.26071286
0.40038443 -0.1582218 -0.259624
0.42096215 -0.15830562 -0.25853443
0.44221506 -0.15870309 -0.25337195
0.46360844 -0.15912823 -0.24784923
-0.47809568 -0.13813138 -0.25501251
0.25733995 -0.13768083 -0.26151597
0.27811819 -0.13794583 -0.25769043
0.29892984 -0.13819452 -0.25410128
0.3193703 -0.13818717 -0.25420547
0.33980912 -0.13817996 -0.25430977
0.36024639 -0.13817284 -0.25441372
0.38092929 -0.13828924 -0.25273335
0.40164796 -0.13841033 -0.2509855
0.42232546 -0.13850076 -0.24967968
0.44298941 -0.13857697 -0.24858153
-0.47908336 -0.11801505 -0.24966657
0.19619864 -0.11732531 -0.26086843
0.21688364 -0.11755297 -0.25717103
0.23762646 -0.11778122 -0.25346315
0.25842613 -0.11800951 -0.24975812
0.27928516 -0.11823909 -0.2460295
-0.45749822 -0.097194135 -0.25587094
0.13504361 -0.09697862 -0.25987041
0.15565036 -0.097177356 -0.25618327
0.17631532 -0.097377285 -0.25247252
0.19703722 -0.097577095 -0.24876475
-0.43718049 -0.076788366 -0.25515568
0.073848195 -0.076628163 -0.25862515
0.094450071 -0.076904498 -0.25264204
0.11509473 -0.077121682 -0.24794066
-0.41711301 -0.056433782 -0.25282454
-0.39554799 -0.056158021 -0.25998712
0.012595258 -0.056192905 -0.25907934
0.03307895 -0.056540713 -0.25004542
-0.37670192 -0.036079548 -0.24931371
-0.3552157 -0.035857983 -0.25650811
-0.33434513 -0.035755239 -0.25984442
-0.13026956 -0.03575924 -0.25971496
-0.11008108 -0.035906419 -0.25493455
-0.089696676 -0.035955817 -0.25333273
-0.069266379 -0.035983838 -0.25242043
-0.048822057 -0.036012053 -0.25150752
-0.028373536 -0.036059767 -0.24995399
0.095065609 -0.49017948 -0.23265195
0.11546566 -0.48904824 -0.23830366
0.13580406 -0.48802698 -0.24340653
0.15628722 -0.48783523 -0.24436462
0.17765829 -0.4905771 -0.23066545
-0.049039166 -0.46774232 -0.24210644
0.21839085 -0.46861118 -0.23759186
-0.15189928 -0.44760573 -0.23989725
0.25898615 -0.44690406 -0.24369526
0.32165143 -0.42800832 -0.23445034
-0.29634497 -0.40723455 -0.23545444
0.36269644 -0.40719432 -0.23569191
-0.33790028 -0.38708723 -0.23267841
0.38365504 -0.38702524 -0.23306215
-0.3795419 -0.36689824 -0.22989655
0.40465295 -0.36681449 -0.23044026
-0.44059983 -0.32491827 -0.23496568
0.44412971 -0.30345958 -0.24152815
0.46578813 -0.2837171 -0.2349788
-0.48136532 -0.2628476 -0.23731494
0.48566854 -0.24207984 -0.23904133
-0.50249326 -0.22196825 -0.2344768
0.48517472 -0.22123237 -0.24183047
0.50759834 -0.22224887 -0.23167229
-0.50137919 -0.20083004 -0.24026549
0.48475161 -0.20046468 -0.24422026
0.5072341 -0.20144171 -0.23364389
0.50678986 -0.18062809 -0.23604846
-0.5011059 -0.18015082 -0.24168587
-0.50083536 -0.15949446 -0.24309158
0.4850933 -0.15955614 -0.24229026
0.50666553 -0.1599848 -0.2367214
-0.50128555 -0.13911928 -0.24075234
0.46414751 -0.13884813 -0.24466622
0.48565683 -0.13923331 -0.23910713
0.50725847 -0.13962094 -0.23351181
-0.50232291 -0.11889607 -0.23536181
0.29995799 -0.11832951 -0.2445612
0.32047182 -0.1183231 -0.24466622
0.34098399 -0.11831658 -0.244771
0.36149454 -0.11831015 -0.24487591
0.3820053 -0.11830446 -0.2449677
0.4027046 -0.11837876 -0.24376106
0.42350554 -0.11848634 -0.24201429
0.44433591 -0.11859491 -0.24025238
0.46518487 -0.11870033 -0.23854077
0.48622414 -0.11886263 -0.23590326
-0.50336963 -0.098592341 -0.22992313
-0.48007748 -0.097818464 -0.24428582
0.21781802 -0.097778171 -0.24503326
0.23865715 -0.097979739 -0.24129152
0.25955364 -0.098181218 -0.23755229
0.28047302 -0.098364055 -0.23415959
0.3010605 -0.098354831 -0.23433137
0.32164225 -0.098344132 -0.23452973
0.34219494 -0.098322049 -0.2349391
0.36275345 -0.098304957 -0.2352562
0.38333637 -0.098299354 -0.23536193
0.40391761 -0.098293617 -0.23546755
0.42462739 -0.098333538 -0.23472774
0.44551328 -0.098428264 -0.23296952
0.46642888 -0.098523885 -0.23119557
0.48737219 -0.098619491 -0.22941923
-0.48205578 -0.077784985 -0.23357797
-0.45952621 -0.077284344 -0.24441695
0.13572951 -0.077256493 -0.24502027
0.15640819 -0.077390432 -0.24211955
0.17713273 -0.077525318 -0.23919928
0.19790177 -0.077659979 -0.23628604
0.21876095 -0.077821702 -0.23278427
-0.46157178 -0.057201996 -0.23286355
-0.4391214 -0.056785055 -0.24369538
0.053635169 -0.056721978 -0.24533486
0.074264288 -0.056903921 -0.24060762
0.094966717 -0.057086542 -0.2358638
0.11572447 -0.057251438 -0.23157978
-0.42002141 -0.036525428 -0.23483348
-0.39830288 -0.036301844 -0.24209321
-0.0079447972 -0.036282435 -0.24272382
0.012595258 -0.036428273 -0.2379874
0.033237118 -0.036689654 -0.22949886
-0.35865155 -0.015996698 -0.23171198
-0.33764935 -0.015930161 -0.23459554
-0.31679627 -0.01588317 -0.23662913
-0.29599616 -0.015840463 -0.23847485
-0.27522334 -0.015797615 -0.24033141
-0.25471491 -0.015809216 -0.23983121
-0.23439357 -0.015869495 -0.23722267
-0.21403362 -0.015930161 -0.23459554
-0.19363567 -0.015991449 -0.23193717
-0.17319714 -0.016053077 -0.2292732
0.054049384 -0.49302584 -0.21843076
0.074579097 -0.49131554 -0.22697628
-0.070167467 -0.47138917 -0.22315693
0.24028306 -0.47159451 -0.22209013
0.28106162 -0.44975251 -0.22827792
0.34416735 -0.43075716 -0.21892548
-0.4212701 -0.34666711 -0.22710896
0.42569408 -0.34656608 -0.22779977
0.44674653 -0.32625192 -0.2253406
-0.46254125 -0.30531007 -0.22738814
0.46783313 -0.30589706 -0.22290349
-0.48460728 -0.28559059 -0.21976745
0.48937216 -0.28579307 -0.2181232
0.48752484 -0.26385891 -0.22855663
-0.50454617 -0.24372135 -0.22380972
0.50936371 -0.24390386 -0.22211695
0.53131026 -0.22385414 -0.21563268
-0.52580565 -0.20261501 -0.22094262
0.5298956 -0.20242646 -0.2229836
-0.5253545 -0.18171637 -0.22319663
0.52975202 -0.18167116 -0.22372985
-0.52506655 -0.16091524 -0.22463536
0.52985203 -0.16102494 -0.22320998
-0.52478164 -0.14013728 -0.22605908
0.53042197 -0.14053991 -0.22024834
-0.52581632 -0.11978738 -0.22088921
0.50838739 -0.11938636 -0.22740138
-0.526914 -0.099374741 -0.21540487
0.50976568 -0.099130258 -0.21994126
-0.5047667 -0.078289077 -0.22266364
0.23969616 -0.077995509 -0.22902119
0.26069152 -0.078170396 -0.22523415
0.28150079 -0.078232408 -0.22388971
0.30216718 -0.07822451 -0.22406268
0.32282934 -0.078215919 -0.22424912
0.3434903 -0.078207828 -0.22442234
0.36412421 -0.078191243 -0.22478175
0.38474521 -0.078172199 -0.22519422
0.40535989 -0.078153163 -0.2256068
0.42598873 -0.078140281 -0.22588611
0.44669709 -0.078151286 -0.22564662
0.46767068 -0.078233659 -0.22386301
0.48944798 -0.078518614 -0.217695
-0.48420772 -0.057622813 -0.22193027
0.13648564 -0.057364248 -0.22864962
0.15729299 -0.057477772 -0.2256999
0.17814532 -0.057591088 -0.22275686
0.19904344 -0.057704568 -0.21980762
0.21998847 -0.057818815 -0.21683836
0.24097978 -0.057933405 -0.21386254
0.30328238 -0.057939082 -0.21371496
0.32402405 -0.057931818 -0.21390283
0.3447645 -0.057925075 -0.21407723
0.36550048 -0.057917953 -0.21426499
0.38622057 -0.057907067 -0.2145468
0.40691674 -0.057891034 -0.21496248
0.42760652 -0.057875097 -0.21537805
0.4482899 -0.057859063 -0.21579361
0.46937111 -0.057934947 -0.21382225
-0.4638148 -0.036976174 -0.22019494
-0.44185841 -0.036750175 -0.22753417
0.054041561 -0.037014835 -0.21893895
-0.42297158 -0.016346093 -0.21658397
-0.4010953 -0.016175848 -0.22395611
-0.37969711 -0.01606309 -0.22883546
-0.15272692 -0.016118024 -0.22645772
-0.1325396 -0.016322933 -0.21758795
0.033415183 -0.4954403 -0.20636737
0.20011681 -0.49585116 -0.20431471
0.26248676 -0.47472954 -0.20580041
-0.17434667 -0.45263404 -0.21268117
0.30339524 -0.45263642 -0.21266758
-0.25840452 -0.43358344 -0.2029624
-0.36199334 -0.39114231 -0.20759463
-0.40405065 -0.37076813 -0.20476055
0.42944932 -0.37097627 -0.20340884
0.45072749 -0.35052752 -0.20071495
0.47204807 -0.33003819 -0.19801569
-0.50679386 -0.26575571 -0.21213043
0.51132798 -0.2658301 -0.21148527
-0.53013092 -0.24635939 -0.19933224
0.53336364 -0.24575259 -0.20496309
-0.52796233 -0.22440098 -0.21016717
-0.54993856 -0.18330267 -0.20446324
0.55501753 -0.18360862 -0.20085049
-0.54963821 -0.16235682 -0.20590842
0.55512601 -0.16278785 -0.20030844
-0.5493353 -0.14143248 -0.20736539
0.55519927 -0.14194673 -0.19994235
-0.54956526 -0.12068835 -0.20625925
0.53192228 -0.12030688 -0.21245277
0.55572355 -0.12123856 -0.1973232
-0.55071759 -0.10016631 -0.20071518
0.53343385 -0.099957034 -0.20459843
-0.52801889 -0.078879394 -0.20988464
0.51177293 -0.078916684 -0.20907676
0.53468764 -0.079424351 -0.19808364
-0.53003597 -0.058474422 -0.19980669
-0.50702667 -0.05804655 -0.21092057
0.26194796 -0.058019251 -0.21163309
0.28261575 -0.057976298 -0.21274829
0.49165437 -0.058265559 -0.2052331
-0.50930911 -0.037627012 -0.1990608
-0.48637846 -0.037284449 -0.21018064
0.074932188 -0.037238039 -0.21168685
0.095774122 -0.037301108 -0.20964229
0.11658801 -0.037316419 -0.209144
0.13736293 -0.037300721 -0.20965576
0.15818873 -0.037318587 -0.20907676
0.17917211 -0.037410595 -0.20608377
0.20020109 -0.037502646 -0.2030977
0.22127764 -0.037595183 -0.2000916
0.24240099 -0.037687965 -0.19707859
0.26326609 -0.037679195 -0.19736373
0.28405342 -0.037647858 -0.19838226
0.30482513 -0.037616462 -0.19939995
0.32554057 -0.037574291 -0.20076931
0.34622514 -0.037529752 -0.20221829
0.36688933 -0.037485555 -0.20365226
0.38767961 -0.03747429 -0.20401728
0.40848595 -0.037467644 -0.20423341
0.42925784 -0.037454695 -0.20465243
0.45039696 -0.037512995 -0.20275962
0.47219524 -0.037685893 -0.19714653
-0.46708155 -0.016688794 -0.20174444
-0.44496602 -0.016516961 -0.20918453
-0.11228629 -0.016563039 -0.20719004
-0.091809101 -0.016764864 -0.19845021
-0.40492821 0.0041255392 -0.1990608
-0.38361987 0.0041708462 -0.20201504
-0.36235985 0.0042160526 -0.20494962
-0.34114406 0.004261408 -0.20789123
-0.32051027 0.004239548 -0.20647526
-0.30006868 0.004189238 -0.20320594
-0.27951333 0.0041480251 -0.20052528
-0.25891721 0.00410657 -0.19783914
0.32598871 -0.45555162 -0.19688845
0.36899322 -0.43630773 -0.18757546
0.38938046 -0.41463757 -0.19174206
0.40968952 -0.39301586 -0.19600487
-0.44891781 -0.35270178 -0.18585038
-0.46826637 -0.33044875 -0.19505274
-0.48960617 -0.30984831 -0.19271016
0.493375 -0.3094812 -0.19551516
-0.5120334 -0.28988457 -0.18490481
0.51473618 -0.28888291 -0.19303727
0.53613913 -0.26824856 -0.19054115
-0.55389255 -0.22687568 -0.18543935
0.55833799 -0.22699358 -0.18426037
-0.5516175 -0.20488341 -0.1963855
0.55617249 -0.20500402 -0.1950798
-0.57551527 -0.18516566 -0.18246257
-0.57455182 -0.1638176 -0.18693233
-0.57423335 -0.1427457 -0.18840981
-0.57391816 -0.12169756 -0.18987203
-0.57480866 -0.10097325 -0.18574083
0.55731052 -0.10077633 -0.18939412
-0.5518747 -0.079560056 -0.19514787
0.55879134 -0.080167517 -0.18199539
-0.55327517 -0.05891303 -0.18840981
0.51409006 -0.058600269 -0.19653499
0.53679681 -0.058962621 -0.18712378
-0.53242654 -0.037971683 -0.18786275
0.49389336 -0.037826329 -0.19258738
0.51642621 -0.038094021 -0.1838901
-0.51168007 -0.017035253 -0.18674052
-0.48931924 -0.016861491 -0.1942631
-0.071078964 -0.016877912 -0.19355512
-0.050273865 -0.01699134 -0.18864226
0.26459825 -0.017122924 -0.18294299
0.28549549 -0.017099239 -0.18397236
0.30637696 -0.01707536 -0.18500078
0.32724267 -0.017051719 -0.18602848
0.34807417 -0.017024517 -0.18720591
0.36885005 -0.016990811 -0.18866956
0.38960364 -0.016957015 -0.19013155
0.41033494 -0.016923316 -0.1915921
0.43133375 -0.016933084 -0.19116902
0.45308393 -0.017049216 -0.18613815
-0.47039342 0.0038787425 -0.18303919
-0.44811416 0.0039951615 -0.19059587
-0.4262808 0.0040800907 -0.19611371
-0.23828404 0.004064586 -0.1951071
0.13872305 -0.52169728 -0.18020821
0.15997672 -0.52259368 -0.17589569
0.22302131 -0.50122994 -0.17744052
0.28599611 -0.47989303 -0.17896974
0.34890217 -0.45858258 -0.18048346
-0.32487091 -0.41813833 -0.17107117
0.51944011 -0.31313729 -0.16757703
-0.53458977 -0.26980591 -0.17705441
-0.55727643 -0.24961121 -0.16915882
0.56146884 -0.2496696 -0.16861784
-0.57789898 -0.20719115 -0.17140365
0.58203202 -0.18611503 -0.17125106
-0.60018343 -0.16542524 -0.16604888
0.58083153 -0.16458009 -0.17702699
0.58094621 -0.14357254 -0.17647517
0.58089465 -0.12250723 -0.1767236
0.58145702 -0.10160495 -0.17401767
-0.57699907 -0.080463856 -0.17557836
0.58313638 -0.080909148 -0.16593766
-0.57920593 -0.059801079 -0.16533971
0.5600149 -0.059395306 -0.17588186
-0.55670917 -0.038463593 -0.17188811
0.53913569 -0.038368694 -0.17497087
0.56223905 -0.038682796 -0.16476965
-0.53550756 -0.01736486 -0.17246914
0.11793258 -0.017324708 -0.17421114
0.13897578 -0.017312571 -0.17473614
0.16001169 -0.017300732 -0.17524707
0.18103889 -0.017288595 -0.17577159
0.202058 -0.017276511 -0.17629588
0.22307013 -0.017264761 -0.17680621
0.24381673 -0.017182581 -0.1803596
0.47502193 -0.017180361 -0.1804558
0.49696603 -0.017301068 -0.17523324
0.51880217 -0.017398082 -0.17102957
-0.51573181 0.0036116317 -0.16568744
-0.49279425 0.003761895 -0.17545402
-0.21861227 0.0038400367 -0.18052459
0.30839548 0.0036206357 -0.16627121
0.3291266 0.0036735944 -0.16971338
0.34988245 0.003716927 -0.17252457
0.3708272 0.0037328638 -0.17356157
0.39170244 0.0037547201 -0.17498457
0.41299435 0.0037305504 -0.1734097
0.43464983 0.0036722459 -0.16963017
0.45596561 0.0036520734 -0.16831255
-0.45234665 0.024744114 -0.16560411
-0.43072346 0.024767367 -0.16863179
-0.40915006 0.024790574 -0.17163885
-0.38762191 0.024813732 -0.17465317
-0.36670527 0.024805499 -0.17358935
-0.34615293 0.024774974 -0.16961634
-0.32553574 0.024744546 -0.16567349
0.24638522 -0.50671661 -0.15002728
0.30997649 -0.48516005 -0.15160131
0.45913759 -0.37940073 -0.14869082
0.47931227 -0.35719603 -0.15512228
0.49901578 -0.33479917 -0.16365612
0.54228771 -0.29312545 -0.15859246
-0.58030206 -0.22939591 -0.1602546
0.58432919 -0.20822622 -0.16019869
-0.60261643 -0.18747836 -0.15515041
-0.60066164 -0.14444341 -0.16390669
0.60710347 -0.1452142 -0.15278065
-0.60113752 -0.12342784 -0.16177511
0.60716397 -0.12399909 -0.15250003
-0.60161412 -0.10237966 -0.15964019
0.60703087 -0.10273123 -0.15311754
-0.60351533 -0.081593305 -0.15112376
0.60763937 -0.08163172 -0.15029442
0.5844714 -0.060025245 -0.15951467
-0.581523 -0.038996324 -0.15458989
0.58576316 -0.039035946 -0.15329993
-0.56018507 -0.017764516 -0.15516436
0.54159468 -0.017602168 -0.1621933
0.56471443 -0.017828308 -0.15240169
-0.53905237 0.0034433603 -0.1547581
-0.19884156 0.0035903975 -0.16431022
0.24629593 0.0033866949 -0.15108156
0.26697809 0.003480576 -0.15718031
0.28761083 0.0035676733 -0.16283429
0.47788358 0.0035788901 -0.1635586
0.50005579 0.0034898706 -0.15778184
0.52206224 0.0034221783 -0.15338397
0.54411197 0.0033564083 -0.14911294
-0.49679914 0.02465307 -0.15377688
-0.47401515 0.024720859 -0.16258359
-0.30485913 0.024714069 -0.16171932
0.37369183 0.024636747 -0.15167165
0.39492503 0.024637181 -0.1517278
0.41616353 0.024637278 -0.15174174
-0.39293188 -0.40233648 -0.13834882
-0.52105314 -0.31700319 -0.13803685
-0.54048938 -0.29448193 -0.14757848
-0.56312066 -0.27396446 -0.14104056
0.56840271 -0.27478039 -0.13397419
-0.58618748 -0.25351363 -0.13294959
0.58762944 -0.2309906 -0.14432049
-0.60514444 -0.20973866 -0.14382625
0.61078632 -0.18912593 -0.13569438
0.6083402 -0.16688827 -0.14704299
-0.60584211 -0.060749412 -0.14070094
0.60921931 -0.060662262 -0.14296412
0.61057812 -0.039548315 -0.13666034
-0.58517349 -0.018168896 -0.13765383
0.097938836 -0.0181299 -0.13934135
0.58810532 -0.01806774 -0.14203119
-0.5637008 0.0031891987 -0.13824964
0.22552198 0.0032924227 -0.14495587
0.56720942 0.0032151975 -0.13993633
-0.52014291 0.024568236 -0.14276648
-0.2857686 0.024566069 -0.14248359
0.3112489 0.024545319 -0.13979459
0.33199188 0.024584653 -0.14489925
0.35285616 0.024611423 -0.14838099
0.43799505 0.024607813 -0.14790237
0.45971406 0.024586435 -0.14512515
0.48101735 0.024585858 -0.14505458
0.50310016 0.024551481 -0.14058781
0.52536196 0.024512434 -0.13552392
-0.47928715 0.045877751 -0.13280714
-0.45720997 0.045877751 -0.13688743
-0.41403538 0.045877703 -0.13990784
-0.43525702 0.045877799 -0.14058769
-0.3933014 0.045877799 -0.1358223
0.33444381 -0.49053657 -0.12366486
-0.50148225 -0.33968031 -0.12842929
0.61425471 -0.21197622 -0.11960304
-0.63029861 -0.14699039 -0.12714314
0.63512069 -0.14731981 -0.12238872
-0.63023919 -0.12554473 -0.12740052
0.63384551 -0.12550163 -0.12810063
-0.63074797 -0.10423565 -0.12519765
0.63376582 -0.1040599 -0.12845778
-0.63125414 -0.082892179 -0.12300551
0.63362557 -0.082611248 -0.12908602
0.63426995 -0.061307564 -0.12619925
-0.6081866 -0.039747261 -0.13019907
0.63569123 -0.040066414 -0.11983299
-0.61054885 -0.018585406 -0.11961746
0.61194009 -0.018337794 -0.13034177
-0.58886909 0.0029160194 -0.12050831
0.59071577 0.0030540526 -0.12947142
0.61441892 0.0028903559 -0.11884093
-0.56739718 0.024396596 -0.12046516
-0.54367387 0.024482826 -0.13166761
-0.26646212 0.024411762 -0.12244606
0.2706686 0.024371704 -0.11722934
0.29076546 0.024480082 -0.13131142
0.5475626 0.024479071 -0.13118291
0.56983 0.024445608 -0.12684274
0.59336501 0.024367709 -0.11672533
-0.5246284 0.045877751 -0.11945927
-0.50143206 0.045877751 -0.12870049
-0.35164204 0.045877751 -0.12767208
0.37778696 0.045877654 -0.12037897
0.39926088 0.045877751 -0.12043643
0.42023447 0.045877703 -0.1239084
0.44139594 0.045877703 -0.12581289
0.46346843 0.045877751 -0.12190104
0.48501149 0.045877751 -0.12147033
0.50649506 0.045877703 -0.12141287
0.52870733 0.045877751 -0.11741662
-0.3725062 0.045877799 -0.13172472
0.59498608 -0.25610268 -0.10892582
-0.61255109 -0.23436026 -0.11064839
-0.63565838 -0.19181526 -0.10393465
-0.63296735 -0.16930975 -0.11558712
0.63770932 -0.16967881 -0.11079299
0.66098315 -0.10541281 -0.10335302
0.66083544 -0.083770275 -0.1039927
-0.6329574 -0.061714351 -0.11563039
0.66134268 -0.062246792 -0.10179627
-0.63542688 -0.040525198 -0.1049372
0.6373446 -0.018751457 -0.11242676
-0.61435837 0.0026395656 -0.10255313
0.20635797 0.0028193891 -0.11423147
0.63916904 0.0026658066 -0.10425425
-0.59260762 0.024263376 -0.10316408
0.61740017 0.024277627 -0.10500991
-0.33261624 0.045877751 -0.10818708
0.35687935 0.045877751 -0.1157167
-0.54837632 0.045877799 -0.10817254
0.33710858 0.045877799 -0.10058737
0.55105555 0.045877848 -0.11303329
0.57357842 0.045877848 -0.1081146
0.5962441 0.045877799 -0.10287321
-0.48470566 0.067499638 -0.10220385
-0.46237504 0.067467332 -0.10638905
-0.44125277 0.067489527 -0.10349846
0.64136326 -0.19262047 -0.094425321
0.66510624 -0.14987551 -0.085499763
-0.66136402 -0.1280472 -0.086765528
0.6623798 -0.12739806 -0.097305417
-0.66061693 -0.10613789 -0.089896202
-0.66115344 -0.084525198 -0.087648273
-0.66169423 -0.062878564 -0.085381866
0.66187096 -0.040692411 -0.099508762
-0.63791525 -0.019173361 -0.094161868
0.66355228 -0.019217901 -0.092228651
0.6654669 0.002352953 -0.083937764
-0.61828047 0.024123417 -0.084984183
0.64115429 0.024203338 -0.09536171
-0.59645629 0.045877751 -0.085308194
-0.57232016 0.045877703 -0.096779466
0.31709564 0.045877703 -0.085543871
0.62040794 0.045877751 -0.091055512
-0.31340873 0.045877799 -0.087677598
-0.55315906 0.067637525 -0.084276795
-0.5295645 0.067564152 -0.093810678
-0.50710022 0.067531794 -0.098020792
-0.42041692 0.067528382 -0.098458767
-0.39950395 0.067567229 -0.09341526
0.40369618 0.067605607 -0.088427305
0.42525643 0.067596793 -0.089573264
0.44603696 0.067549802 -0.095668674
0.46710715 0.067521207 -0.099392295
0.48907182 0.067535743 -0.097495198
0.51074278 0.067536324 -0.097422123
0.53243375 0.067537673 -0.097246885
0.55485922 0.067568295 -0.093268871
0.57773364 0.067613937 -0.087354064
0.59965622 0.067620724 -0.086456537
-0.57610685 -0.30298269 -0.078561068
0.62205654 -0.2370864 -0.083406925
0.66896528 -0.17291225 -0.068789482
-0.66420251 -0.15061191 -0.074871302
-0.66316658 -0.041317344 -0.07921195
-0.66578543 -0.019772008 -0.068237901
-0.64042294 0.0023431778 -0.08330369
0.66739291 0.024051197 -0.075598121
0.64417225 0.045877703 -0.081842661
-0.57732743 0.067726746 -0.072688222
-0.38029361 0.067704976 -0.075523853
0.38349402 0.067695349 -0.076769114
0.62344897 0.067694001 -0.076946974
-0.49024215 0.089602783 -0.0709337
0.4933989 0.089587189 -0.071945071
0.5156725 0.089623585 -0.069578886
0.55889714 0.089581937 -0.072286963
-0.64550698 -0.21736319 -0.061288834
0.64962471 -0.21772064 -0.057418942
-0.66787654 -0.17362927 -0.059475064
0.69338578 -0.085888162 -0.058139563
0.69165963 -0.063648805 -0.065372825
0.69221979 -0.041815653 -0.063025713
0.69277722 -0.019946247 -0.060689688
-0.66842467 0.0019409694 -0.057178497
0.69333917 0.0019587353 -0.058334708
-0.64429146 0.023981482 -0.066552401
0.69416767 0.023891594 -0.054862976
-0.62225199 0.045877751 -0.067194104
0.66943365 0.045877703 -0.066761136
-0.6016916 0.067816533 -0.061019301
-0.36118209 0.067864731 -0.054772615
0.36390445 0.067834586 -0.058680177
0.64744908 0.067769207 -0.067164063
0.67162591 0.067845471 -0.05726862
-0.55841142 0.089801297 -0.058034539
-0.53561866 0.089734852 -0.06235218
-0.51289755 0.08966884 -0.066642046
-0.46893719 0.089653432 -0.067641497
-0.44788507 0.089732975 -0.062471867
-0.42675388 0.089812703 -0.057298779
0.43020341 0.089836441 -0.05575037
0.45143157 0.089761376 -0.060629606
0.4723677 0.089665622 -0.066850901
0.53798604 0.089660324 -0.067194104
0.58195078 0.089674428 -0.066283703
0.60404772 0.089689061 -0.065327883
0.62651736 0.089729317 -0.062711477
0.65076351 0.089889303 -0.0523175
-0.69334388 -0.10854639 -0.045199633
0.69629663 -0.10850643 -0.04594171
-0.69182074 -0.086200237 -0.051382661
-0.69239348 -0.064276718 -0.049057484
-0.69296342 -0.042317092 -0.046743989
-0.69436044 -0.020399347 -0.041072845
-0.67219192 0.023787791 -0.04139173
-0.64897084 0.045877751 -0.046289921
0.69619548 0.045877799 -0.046365619
-0.62670916 0.067922696 -0.047228217
0.69829345 0.067997083 -0.037574053
-0.60675496 0.090117082 -0.037528276
-0.58241802 0.089952812 -0.048196077
-0.40764022 0.090113088 -0.037787318
0.41086087 0.090129457 -0.036720753
0.67416483 0.089982376 -0.046274781
0.52110189 0.11220469 -0.038913727
0.54365826 0.11226063 -0.036492229
0.56392366 0.11203723 -0.046168804
0.58623141 0.11206651 -0.044896483
0.60850853 0.11209029 -0.0438658
0.62965912 0.11199179 -0.048135757
0.6541127 0.11224171 -0.03731513
-0.6963647 -0.13136229 -0.032936454
0.72455269 0.0013804063 -0.020767927
-0.65517461 0.068136707 -0.019426823
-0.63124657 0.090280637 -0.02690351
0.70060563 0.090265565 -0.027885199
-0.58668745 0.11246477 -0.027655005
-0.5636397 0.11236645 -0.031912327
-0.54154158 0.11237425 -0.031575799
-0.51882285 0.11230502 -0.034570217
-0.49733791 0.11239076 -0.030856729
-0.4760626 0.11251292 -0.025567889
-0.45470902 0.11263559 -0.0202595
0.45750937 0.11261488 -0.021153212
0.47885281 0.11248595 -0.026734591
0.4997156 0.11230333 -0.034646749
0.67764068 0.11238229 -0.031223893
0.59057689 0.13479801 -0.023185253
0.61303401 0.13483171 -0.022092581
0.63433808 0.13469811 -0.026427627
0.65749723 0.13482979 -0.022154331
-0.67964917 -0.19975732 -0.010142803
-0.70245028 -0.15522879 -0.0082322359
0.7284649 -0.043606006 -0.004886508
0.72534311 -0.020942338 -0.017559528
-0.69981802 0.0013519526 -0.018917799
0.72514534 0.023610614 -0.018362164
-0.67759931 0.045877751 -0.018732548
0.72574276 0.045877703 -0.015936852
0.3467654 0.068155766 -0.016956806
0.72633743 0.068182155 -0.013522863
-0.38847741 0.090441346 -0.016462326
0.39150551 0.090455458 -0.015550256
0.72775561 0.090575293 -0.0077658892
-0.63641566 0.11301686 -0.0037487745
-0.61170894 0.11276746 -0.014544606
0.43785492 0.11302398 -0.003436923
0.70293707 0.11268499 -0.018115163
-0.5897857 0.13511933 -0.012748361
-0.56754047 0.13512945 -0.012422919
-0.54529321 0.13513985 -0.012081861
-0.52434444 0.13536772 -0.0046839714
0.52685636 0.13531452 -0.0064126253
0.54940826 0.13534659 -0.0053693056
0.56970602 0.13501553 -0.01612246
0.68115681 0.13501933 -0.01599884
0.70528072 0.1352565 -0.0082943439
0.63909203 0.15775225 -0.0043723583
0.66091418 0.15765691 -0.0068482161
-0.70535672 0.023441767 0.0035663843
-0.68413061 0.068352781 0.008636713
-0.34556803 0.068262942 -0.0030312538
-0.66086853 0.090775385 0.005228281
-0.43572456 0.11312571 0.00096750259
-0.61613327 0.13569602 0.0059815645
-0.5032413 0.13558847 0.0024855137
-0.48210311 0.13582289 0.010099888
0.50650853 0.13568014 0.0054637194
-0.59388757 0.15818936 0.0069863796
-0.57149434 0.15820265 0.0073319674
0.59595627 0.15806264 0.0036916733
0.61763197 0.15792157 2.9206276e-05
-0.73134851 -0.066840969 0.017563939
-0.73169434 -0.04433912 0.018925309
-0.71098608 0.045877751 0.026418924
0.75822276 0.045877799 0.024192095
-0.6646539 0.11360265 0.021619797
-0.41651726 0.11363235 0.02290535
0.41834772 0.11350313 0.017310858
0.73569065 0.11366788 0.024446368
-0.64166838 0.136121 0.019780755
0.46507877 0.13637444 0.028011203
0.48554388 0.13596319 0.014655828
-0.61928183 0.15871294 0.020588994
-0.55048448 0.15849373 0.014892817
-0.52961475 0.15883817 0.023842454
0.55512249 0.15890422 0.025559545
0.57561415 0.1584816 0.014576912
-0.59804893 0.18157646 0.027007699
-0.73466289 -0.089987352 0.0306108
0.74063838 -0.067878999 0.044531703
-0.73548698 -0.022129714 0.033854723
0.76153183 0.023182694 0.037217975
-0.69078678 0.091257274 0.036528707
-0.37369534 0.091323718 0.040846229
0.37537274 0.091224968 0.034430742
-0.66847843 0.13668764 0.03818059
-0.46320888 0.13650714 0.032319784
-0.64627421 0.15947595 0.040412426
-0.50842458 0.15914293 0.031760812
0.53409916 0.15924826 0.034494877
0.69191712 0.15909806 0.030594826
-0.62246543 0.1819623 0.035359263
-0.57666516 0.181861 0.033167005
-0.55634356 0.18242306 0.045337677
0.60370487 0.18228762 0.042406082
-0.73931843 0.00030723214 0.048937201
0.76487446 0.00028513372 0.050376296
-0.71670437 0.06866838 0.049632311
-0.69630647 0.11448126 0.059658766
0.40116471 0.1144489 0.058259487
-0.44367802 0.13713241 0.05262661
0.44556254 0.13702869 0.049260497
-0.67235017 0.16003527 0.05494535
-0.49043837 0.16020368 0.059316993
0.49289799 0.16023549 0.060147166
0.51349354 0.15971819 0.046708465
-0.64961284 0.18288632 0.055367351
-0.53513932 0.18281145 0.053745151
0.58330816 0.18284886 0.054556131
0.62775701 0.18258035 0.048743486
0.65056515 0.18258564 0.048856497
-0.62567788 0.20544612 0.050263286
-0.60317844 0.20552273 0.051687241
-0.74319762 0.022974944 0.064207673
-0.72253007 0.091823086 0.073281527
-0.40046474 0.11472107 0.070048451
-0.70036197 0.13787228 0.076653242
-0.67713529 0.18382381 0.075665593
0.54131001 0.18380335 0.075221419
0.56274283 0.18341471 0.066806316
-0.65406346 0.20679536 0.075303555
-0.58283871 0.20618686 0.064011812
-0.56225938 0.20683712 0.076077104
-0.74711293 0.045877703 0.079620004
-0.42559808 0.13812903 0.084991574
0.42737508 0.13805109 0.082460523
-0.47091672 0.16099969 0.079999685
0.47307527 0.16099775 0.079949975
-0.51750952 0.18416594 0.083072186
0.52042609 0.18437696 0.087643266
-0.63258576 0.23021516 0.08231163
-0.75243074 0.069060385 0.10055363
-0.72844541 0.11535044 0.097294807
-0.70796299 0.16209677 0.10850489
-0.4511084 0.16180362 0.10088849
0.45288134 0.16174261 0.099299431
-0.49866328 0.1853119 0.10788274
0.49975204 0.18506534 0.10254586
0.68468916 0.1849318 0.099650502
-0.54444647 0.20834827 0.10412145
0.59227633 0.20818846 0.101156
-0.61265773 0.23113798 0.097294688
0.47957847 0.18597285 0.12218976
0.54934663 0.20923685 0.12061226
0.57142419 0.2088697 0.11379516
0.61794597 0.20885679 0.11355889
0.6427511 0.20925148 0.12088346
-0.59325576 0.23229349 0.11605859
-0.57090199 0.2325968 0.12098515
-0.76183563 0.092813015 0.13757598
-0.38638091 0.11628534 0.13778162
0.38795236 0.11625727 0.13656473
-0.40871033 0.13950124 0.12955642
0.41005808 0.13939855 0.12621737
0.43454227 0.16308525 0.13418496
-0.47861663 0.18622403 0.12763035
0.45916283 0.18689904 0.14224637
-0.52567327 0.20969866 0.12918127
0.52750123 0.20971148 0.12941992
-0.7424444 0.14025766 0.15412378
-0.43438515 0.16350418 0.14506912
-0.45857987 0.18723023 0.14941692
-0.69437498 0.21083756 0.15031564
-0.50467819 0.21046472 0.14339876
0.50668752 0.21057524 0.14544821
-0.67080539 0.23440203 0.15029824
-0.5525341 0.23425412 0.14789712
-0.36668739 0.093288019 0.16843605
0.36706322 0.09314011 0.15882742
0.4160552 0.16454244 0.17204404
-0.72337282 0.18832324 0.17307878
-0.48397204 0.21140018 0.16075838
0.48626804 0.21166322 0.16563976
-0.53172064 0.23520501 0.16333652
0.55791008 0.23555258 0.16897845
0.58035809 0.23513196 0.16215134
0.60609418 0.23579754 0.17295599
-0.62723339 0.25915396 0.16742182
-0.60441202 0.2594572 0.17179847
-0.57942182 0.25900391 0.16525578
0.39419305 0.14127713 0.18723285
-0.41598696 0.16492829 0.18207085
-0.43969905 0.18870744 0.18140042
0.44093066 0.18865617 0.18028951
-0.46402878 0.21269624 0.18480861
0.46594214 0.21290037 0.18859673
0.67790455 0.21220499 0.17569542
-0.51035029 0.23603976 0.17689097
0.51341087 0.23666455 0.18703794
0.53529656 0.23595093 0.17544925
0.63276607 0.23669955 0.18760478
-0.65446889 0.26029122 0.18383682
-0.56011242 0.26064318 0.18891585
-0.39439461 0.14164013 0.19901741
-0.48988882 0.23730028 0.19735897
0.49225721 0.23774259 0.20454037
-0.53790545 0.26129115 0.19826829
0.37446725 0.1182521 0.22294807
-0.42104942 0.19042601 0.21860588
0.42195004 0.19035587 0.21708894
-0.44518572 0.21453387 0.21891308
0.44618741 0.21449703 0.21822655
-0.46960521 0.23875794 0.22102904
0.47086045 0.23883151 0.22222364
-0.51622123 0.26221174 0.21155727
0.51921606 0.26300097 0.22294831
0.54222935 0.26254618 0.21638525
0.56599075 0.26242387 0.21461785
-0.58967167 0.28678447 0.21851552
-0.37499246 0.1185504 0.23586488
-0.75974661 0.16655609 0.22436202
-0.39926687 0.16701372 0.23624849
0.3999334 0.16692095 0.23383844
-0.71281785 0.23932125 0.23017573
-0.69039309 0.26404655 0.23804033
-0.49552068 0.2636418 0.23219752
0.59210634 0.26319438 0.22574079
-0.64106441 0.28797394 0.23396623
-0.61530662 0.28737843 0.22623098
-0.56660086 0.28720939 0.22403538
-0.54407412 0.28790796 0.233109
-0.52081472 0.28833675 0.2386806
-0.73945612 0.21569586 0.24047506
-0.42599201 0.21643947 0.25427604
0.42592844 0.21607375 0.24748945
-0.44987464 0.24060193 0.25097132
0.45048708 0.24049637 0.24925697
-0.47390586 0.26480317 0.24896228
0.49777839 0.26421005 0.24040174
-0.49920943 0.28959426 0.25501561
0.37891462 0.14356291 0.26146328
-0.40373129 0.19281645 0.27036273
0.40314618 0.19233422 0.25992322
0.47611961 0.26544192 0.2581805
-0.67254406 0.29057026 0.26769519
0.52599216 0.29035252 0.26486468
0.55149412 0.29083186 0.2710911
-0.57288182 0.31422144 0.25803244
-0.55012518 0.315005 0.26728511
-0.52622777 0.31528932 0.27064288
-0.37940711 0.14387828 0.27170753
0.38117084 0.16873628 0.28100288
0.4064104 0.21817189 0.28642511
-0.42907384 0.24217504 0.27651715
0.43006596 0.24233459 0.27910566
-0.45303878 0.26644129 0.27260482
0.45487294 0.26701653 0.28090894
0.62749612 0.26724195 0.28416371
-0.47755736 0.29095405 0.27267957
0.50352639 0.29134339 0.27773595
0.57763135 0.29154563 0.28036416
-0.62748271 0.31667995 0.28706646
-0.60132504 0.31600261 0.27906811
-0.50295526 0.31592792 0.27818608
0.35836026 0.070575245 0.29734433
-0.38209987 0.16921991 0.29357004
-0.40636212 0.21838963 0.29046619
-0.43219668 0.26827362 0.29905403
-0.45624655 0.29263669 0.29453635
0.4815425 0.29269207 0.29525673
-0.65433592 0.31759048 0.2978189
-0.48126411 0.31750041 0.29675579
-0.55630922 0.34269756 0.3022126
-0.50679308 0.34267116 0.30192685
-0.35943717 0.070679963 0.31094015
0.35915199 0.095385879 0.30469036
0.35994735 0.12031028 0.31207037
-0.38378701 0.19452116 0.30726767
0.38381574 0.19436593 0.30390847
-0.40877101 0.2441678 0.30887341
0.40942279 0.24429153 0.31088293
0.43383896 0.26888919 0.30793655
-0.70766062 0.2942417 0.31538916
0.4588936 0.29382128 0.30992556
-0.4597604 0.31934667 0.3185606
0.50931162 0.31907189 0.31531227
-0.58369505 0.34402293 0.31656098
-0.53193897 0.3428964 0.30436635
-0.36142233 0.095746733 0.32813203
-0.36152288 0.12070133 0.32900321
-0.36181381 0.14572018 0.3315227
0.36137405 0.14552891 0.3253088
-0.38632584 0.22040573 0.3278805
0.38639173 0.22031613 0.32621694
-0.41144335 0.2703687 0.32929373
0.41189569 0.2704843 0.33096027
-0.43536392 0.29474404 0.32191181
0.4367809 0.29539859 0.33041763
0.48601708 0.31996393 0.32584989
0.53544503 0.31975162 0.32333922
0.56238627 0.3207733 0.3354063
-0.48502734 0.34445137 0.32119858
-0.36332938 0.17118609 0.34464777
0.36328977 0.17112577 0.34308445
0.36408734 0.19651733 0.35048485
-0.38866332 0.24650708 0.34685862
0.3881658 0.24618208 0.34158087
-0.74032122 0.27175272 0.34926867
-0.41417548 0.29691947 0.35017085
-0.6875791 0.32094622 0.33744884
-0.43826792 0.32140529 0.34286964
0.46316904 0.32122844 0.34078109
-0.64014041 0.34714037 0.35030818
-0.61343449 0.34637213 0.34199071
-0.46343017 0.34652531 0.34365118
-0.56463724 0.37213963 0.34924924
-0.53790796 0.37117523 0.33961117
-0.51267719 0.37104636 0.33832526
-0.48891166 0.37185717 0.34642804
-0.36482766 0.19684684 0.35762346
-0.36593008 0.2225229 0.36717069
0.36488855 0.2220244 0.3579191
-0.39022723 0.27246553 0.35955608
0.38995677 0.27229464 0.35709143
0.41470453 0.29719609 0.35376525
0.61764669 0.29798245 0.36398184
0.44010928 0.32250446 0.35585058
-0.66886574 0.34874922 0.36772561
-0.44151431 0.34861749 0.36629844
0.4914121 0.34828842 0.36273587
-0.36696756 0.24831128 0.37615538
0.36649552 0.24810657 0.37283003
-0.39211962 0.29882449 0.37492001
0.39230776 0.29901952 0.37745154
