ply
format ascii 1.0
comment PCL generated
element vertex 1321
property float x
property float y
property float z
element camera 0
property float view_px
property float view_py
property float view_pz
property float x_axisx
property float x_axisy
property float x_axisz
property float y_axisx
property float y_axisy
property float y_axisz
property float z_axisx
property float z_axisy
property float z_axisz
property float focal
property float scalex
property float scaley
property float centerx
property float centery
property int viewportx
property int viewporty
property float k1
property float k2
end_header
-0.052055076 0.061417691 -0.12287629
-0.036458328 0.06133569 -0.12553984
-0.020902691 0.061253846 -0.12819624
-0.0054083401 0.061253607 -0.12820524
0.010085875 0.061281681 -0.12729347
0.025594065 0.061309472 -0.1263898
0.04111632 0.061337642 -0.12547636
0.056652449 0.061365496 -0.1245712
0.072202817 0.061393686 -0.12365615
0.087766953 0.061421599 -0.12274927
0.10337992 0.061472718 -0.12108755
-0.036562406 0.077023894 -0.12103307
-0.020963386 0.076899968 -0.12425417
-0.0054285806 0.076848984 -0.12557584
0.010085875 0.07686051 -0.12527746
0.025609668 0.076895721 -0.12436295
0.041147415 0.076930568 -0.1234566
0.056699336 0.076965876 -0.12254053
0.072265394 0.077001147 -0.12162369
0.087845251 0.077036075 -0.12071484
0.041184306 0.092572019 -0.12106031
-0.052520834 -0.06333001 -0.10775024
-0.036823481 -0.063269064 -0.10972804
-0.021156639 -0.063208319 -0.11170202
-0.0055525564 -0.063276939 -0.10947078
-0.099437177 -0.047661729 -0.10846829
-0.08369974 -0.047616076 -0.11044466
-0.067992881 -0.047570478 -0.11241728
-0.052316509 -0.0475251 -0.11438584
-0.036670536 -0.047479626 -0.11635095
-0.021054871 -0.047434427 -0.11831206
-0.0055021951 -0.04748746 -0.11601305
0.010085875 -0.04757899 -0.11205047
0.025735002 -0.047670644 -0.10808176
-0.14643656 -0.032027777 -0.10767663
-0.13062118 -0.031991471 -0.11003125
-0.11484239 -0.031955324 -0.11238068
-0.099100061 -0.031919237 -0.1147244
-0.083394065 -0.031883273 -0.11706287
-0.067738637 -0.031853106 -0.11902249
0.010085875 -0.031860143 -0.11856705
0.02568464 -0.031920794 -0.11462373
0.041344494 -0.031981863 -0.11065596
-0.16211611 -0.016377993 -0.10735428
-0.14628005 -0.016359909 -0.10970962
-0.13048065 -0.016341807 -0.11205965
-0.11471777 -0.016323704 -0.1144042
-0.098991267 -0.01630572 -0.11674339
-0.083301023 -0.016287718 -0.11907715
0.041243888 -0.016302291 -0.11719054
0.056914292 -0.016332736 -0.11323267
0.072645836 -0.016363239 -0.10926849
-0.14612386 -0.00072328525 -0.11173874
-0.1145917 -0.00072326534 -0.11645132
0.056763768 -0.00072326534 -0.1197508
0.07244435 -0.00072326534 -0.115812
-0.16194388 -0.00072324538 -0.10938799
-0.13033913 -0.00072322541 -0.11410236
-0.098880716 -0.00072322541 -0.11879492
0.08818651 -0.00072324538 -0.11184883
0.10398999 -0.00072322541 -0.10787922
-0.1777402 0.01492893 -0.10768586
-0.16185986 0.014908115 -0.11038035
-0.14602084 0.014887441 -0.11307704
-0.13022448 0.014866786 -0.11575729
-0.11446982 0.014846191 -0.11843044
0.072327547 0.014837179 -0.11960506
0.087978445 0.014855242 -0.11725432
0.10368734 0.014877033 -0.1144318
0.11950143 0.014907538 -0.11046302
-0.16204049 0.030572472 -0.10824746
-0.14618531 0.030530965 -0.11094046
-0.13037211 0.030489614 -0.11362648
-0.1146007 0.030448345 -0.11630523
-0.098870903 0.030407235 -0.11897707
0.087899528 0.030402191 -0.11930478
0.10357086 0.030438397 -0.11695325
0.1192792 0.030474842 -0.11458713
0.13502431 0.030511366 -0.11221558
0.15085918 0.030559653 -0.10907531
-0.14635013 0.046207562 -0.10879946
-0.13051942 0.046145219 -0.11150032
-0.11473072 0.046082895 -0.11419374
-0.098983392 0.046020731 -0.11688948
-0.083278321 0.045958865 -0.11956882
0.10347529 0.045971446 -0.11902261
0.11916744 0.046025936 -0.11666125
0.13489628 0.046080641 -0.11429453
0.1506613 0.04613521 -0.11193132
0.16661045 0.046234138 -0.10764903
-0.13068104 0.061839838 -0.10916734
-0.11485764 0.061748527 -0.11213303
-0.099094637 0.061665609 -0.11482501
-0.083372995 0.06158267 -0.11751896
-0.06769345 0.061500229 -0.12019652
0.11905541 0.061545089 -0.11874026
0.13476795 0.061617739 -0.11637819
0.15051724 0.061690651 -0.11401081
0.16644049 0.061818648 -0.10985678
-0.099445611 0.077513508 -0.10831171
-0.083652265 0.077391796 -0.11147267
-0.067907602 0.07727018 -0.1146329
-0.052211337 0.077148221 -0.11780149
0.10343955 0.077071503 -0.11979634
0.11904755 0.077106535 -0.11888593
0.13467018 0.077141926 -0.11796576
0.1503728 0.077213898 -0.11609519
0.16627163 0.077369623 -0.11205059
-0.036712952 0.092874408 -0.11451399
-0.021063291 0.092724256 -0.11776507
-0.0054781875 0.092661135 -0.11913174
0.010085875 0.092631653 -0.11976886
0.025640061 0.092601843 -0.12041491
0.056745909 0.092596784 -0.12052393
0.072327547 0.092639305 -0.11960524
0.087923005 0.092681296 -0.1186946
0.10353295 0.092723779 -0.11777413
0.11915661 0.09276595 -0.11686194
0.13479495 0.09280853 -0.11593997
0.15044752 0.092851162 -0.115017
-0.06816294 0.093175277 -0.10799879
-0.052412711 0.093024589 -0.11126161
0.16641009 0.093071267 -0.11025178
-0.036864266 0.10882705 -0.10796201
-0.021163983 0.10865131 -0.11122495
-0.0055281827 0.10857515 -0.11263722
0.010085875 0.10854008 -0.11328763
0.025689922 0.10850505 -0.11393762
0.041283969 0.10847004 -0.11458713
0.056868233 0.10843557 -0.11522722
0.072442375 0.10840062 -0.11587596
0.088006541 0.10836568 -0.1165244
0.10362653 0.10840756 -0.11574811
0.1192659 0.10845672 -0.11483407
0.13491994 0.10850655 -0.11391026
0.15058827 0.10855645 -0.11298531
0.16658635 0.10882705 -0.10796201
0.025740104 0.12451059 -0.10741872
0.041384406 0.12447087 -0.10806328
0.057018586 0.12443069 -0.10871667
0.072642721 0.12439045 -0.1093697
0.088256814 0.12435023 -0.11002207
0.10386131 0.12431066 -0.11066508
0.11945543 0.12427051 -0.11131674
0.1350452 0.12423611 -0.11187631
0.15072931 0.12429313 -0.11094964
-0.1159742 -0.079510838 -0.094002366
-0.10011418 -0.079437673 -0.09590441
-0.084304243 -0.079381704 -0.097356796
-0.068523534 -0.079332665 -0.098630309
-0.052762769 -0.079284117 -0.099893153
-0.037021264 -0.079235151 -0.10116357
-0.021299353 -0.079186343 -0.10243255
-0.0056338608 -0.079321913 -0.09890902
-0.1632072 -0.063738942 -0.094468832
-0.14730693 -0.063680366 -0.09637028
-0.13143617 -0.063621894 -0.098268032
-0.11559486 -0.063563593 -0.10016227
-0.099782869 -0.063505419 -0.10205287
-0.084000163 -0.063447341 -0.10394013
-0.068246663 -0.063389264 -0.10582387
0.010085875 -0.063416258 -0.10494715
0.025802467 -0.063589633 -0.099317729
-0.19464132 -0.047968045 -0.095205545
-0.17856726 -0.04788658 -0.098732591
-0.16268584 -0.047842879 -0.10062593
-0.14683314 -0.047798917 -0.10252512
-0.13100414 -0.047753263 -0.10450387
-0.11520528 -0.047707427 -0.10648805
0.041445613 -0.04776283 -0.10408807
0.057238437 -0.047875855 -0.099196911
-0.19425955 -0.032161016 -0.099020481
-0.17817761 -0.032100528 -0.10295081
-0.16228867 -0.032064043 -0.10531646
0.057065591 -0.032043088 -0.10668164
0.07284835 -0.032104496 -0.10269171
0.0886935 -0.032166261 -0.09867692
-0.21046193 -0.016476741 -0.094534218
-0.19403303 -0.016424725 -0.10128415
-0.17798892 -0.016396135 -0.1049934
0.08843936 -0.016393982 -0.10527945
0.1042946 -0.016424725 -0.10128415
0.12021269 -0.016455647 -0.097263694
-0.17780061 -0.00072328525 -0.10703176
0.13578375 -0.00072326534 -0.099883914
0.1517749 -0.00072332512 -0.095857859
-0.21021691 -0.00072324538 -0.096807778
-0.19380699 -0.00072322541 -0.10354269
0.11985591 -0.00072324538 -0.1038847
-0.21034537 0.015021858 -0.095615685
-0.19379498 0.014959852 -0.10366285
0.13537703 0.014938162 -0.10648805
0.15131555 0.014968884 -0.10248798
0.16726609 0.014994702 -0.099131942
0.18325979 0.015019805 -0.095876634
-0.19403765 0.030680375 -0.10123777
-0.17793776 0.030613942 -0.10554707
0.16678007 0.030615518 -0.10544562
0.1828898 0.030695627 -0.10024565
0.19908206 0.030776093 -0.095019042
-0.19428092 0.046438314 -0.098806918
-0.1781366 0.046332307 -0.10339469
-0.16222225 0.046269864 -0.10610068
0.1827015 0.04635378 -0.10246968
0.19887558 0.046474162 -0.097254336
-0.17848492 0.062133674 -0.099624097
-0.16250072 0.062035542 -0.10281205
-0.14656569 0.06193741 -0.10599923
0.18251437 0.061977942 -0.10467923
0.19867212 0.062138874 -0.099456906
-0.16311564 0.078004666 -0.095550537
-0.14712366 0.077881493 -0.098751128
-0.131181 0.077758357 -0.10195112
-0.1152888 0.077635929 -0.1051318
0.1824612 0.077629186 -0.10530722
0.19880427 0.077909343 -0.098026216
-0.13167417 0.093783438 -0.094832599
-0.11571952 0.093630783 -0.098137856
-0.099815816 0.093478225 -0.10144162
-0.083963901 0.093326539 -0.10472554
0.18265605 0.09340585 -0.10300618
0.19901919 0.093743466 -0.095699549
-0.084278479 0.10936847 -0.097914755
-0.068417117 0.10918093 -0.10139531
-0.052615114 0.1090035 -0.10468858
0.1828521 0.10921892 -0.10069084
-0.037126377 0.12517603 -0.096612275
-0.021320598 0.12490268 -0.10105246
-0.0055916477 0.12469693 -0.10439306
0.010085875 0.12455088 -0.1067645
0.16676372 0.12461896 -0.10565788
0.18322112 0.12519324 -0.096332908
0.010085875 0.14106908 -0.094366252
0.025818566 0.14087096 -0.097226501
0.041507341 0.14067335 -0.10007882
0.057169698 0.14052828 -0.10217339
0.072844356 0.14048332 -0.10282117
0.088508703 0.14043786 -0.10347801
0.10416295 0.14039232 -0.10413426
0.11980762 0.14034757 -0.10478085
0.13544179 0.14030208 -0.10543633
0.1510659 0.14025675 -0.10609138
0.16732402 0.14079106 -0.098379433
0.088806659 0.15671833 -0.095736802
0.10446697 0.15657857 -0.097552121
0.12016159 0.15652776 -0.098212183
0.13584663 0.15647773 -0.098862648
0.15152104 0.15642697 -0.099521995
-0.1326205 -0.095860876 -0.081173539
-0.11668805 -0.095803738 -0.082410812
-0.10077218 -0.095744424 -0.083693743
-0.084875695 -0.095684834 -0.084984362
-0.068999514 -0.095625758 -0.086264133
-0.053142793 -0.095566303 -0.087551653
-0.037306145 -0.095507331 -0.088828087
-0.02148903 -0.095448039 -0.090112448
-0.0057273656 -0.095602714 -0.086762547
0.010085875 -0.095871784 -0.080937207
-0.19599073 -0.079983428 -0.081721544
-0.17971036 -0.079804994 -0.08635819
-0.16373172 -0.079731323 -0.088274479
-0.14778288 -0.079657681 -0.09018743
-0.13186371 -0.079584129 -0.092096686
0.010085875 -0.079543136 -0.09316206
0.025894415 -0.079765953 -0.087373257
0.041792437 -0.079989694 -0.081561029
-0.21171559 -0.064095058 -0.082901537
-0.19531332 -0.063923083 -0.088490367
-0.17913708 -0.063797601 -0.092564106
0.041606069 -0.063763686 -0.093666196
0.057497621 -0.063938908 -0.08797425
0.073479809 -0.064117149 -0.082184315
-0.2275237 -0.048245192 -0.083203435
-0.21098694 -0.048096001 -0.089662671
0.073129997 -0.048006345 -0.09354502
0.089110143 -0.048137851 -0.08785212
0.1051794 -0.048270073 -0.082127571
-0.22726588 -0.032370117 -0.085436344
-0.2107075 -0.032265209 -0.092255533
0.10465809 -0.032247346 -0.093414187
0.12072642 -0.03233489 -0.08773005
0.13688479 -0.032423072 -0.082004845
-0.24364927 -0.01658177 -0.08089
-0.22700101 -0.016529055 -0.08773005
0.1361931 -0.016486671 -0.093236744
0.15230875 -0.016525846 -0.088152528
0.16827621 -0.016542254 -0.086010218
0.18437766 -0.016567973 -0.082675099
-0.2435236 -0.00072326534 -0.081910491
-0.22673565 -0.00072330522 -0.090028107
0.16777097 -0.00072326534 -0.092573404
0.19991514 -0.00072326534 -0.0860008
0.1838177 -0.00072324538 -0.089287639
0.21606518 -0.00072322541 -0.082693994
-0.22702596 0.015084221 -0.087513983
0.1993054 0.015045044 -0.092601478
0.21558186 0.015084141 -0.08752352
0.23195957 0.015124832 -0.082231402
-0.22730936 0.030929407 -0.085059762
-0.2106078 0.030804424 -0.093180776
0.21535653 0.030856797 -0.089775026
0.23171668 0.030938299 -0.084485412
-0.22766319 0.046826549 -0.081995487
-0.21087183 0.046624765 -0.090730488
0.21513356 0.046595439 -0.092003047
0.23147735 0.046717715 -0.086705983
0.24799863 0.046859246 -0.080578029
-0.21170442 0.062645443 -0.083005428
-0.19483274 0.062328618 -0.093292832
0.21503162 0.062336992 -0.093021929
0.23159187 0.062564157 -0.085643291
-0.19568397 0.078419 -0.084786713
-0.17915867 0.078128651 -0.092330456
0.2152656 0.078192033 -0.090683758
0.23184569 0.078476615 -0.083288193
-0.17983639 0.094237909 -0.084993899
-0.1637357 0.09408848 -0.08822763
-0.14768055 0.0939366 -0.091516674
0.21550199 0.094084129 -0.088321447
0.23210619 0.094428286 -0.080871046
-0.14851606 0.11029816 -0.080663145
-0.13235518 0.11006417 -0.085003257
-0.11626223 0.10983133 -0.089325249
-0.10023681 0.10959942 -0.093628943
0.19923721 0.10961499 -0.093339384
0.2159123 0.11010638 -0.084221601
-0.084959701 0.12600419 -0.083165705
-0.068945624 0.1257271 -0.087664366
-0.053001113 0.1254507 -0.092152655
0.19990385 0.12582202 -0.086123109
-0.037427552 0.14181697 -0.083571136
-0.021520505 0.14150551 -0.088068128
-0.0056908391 0.14126718 -0.091507316
0.18390746 0.14149436 -0.08822751
0.010085875 0.1578256 -0.081353188
0.02591846 0.15760265 -0.084249794
0.041706569 0.15738018 -0.087138295
0.057450615 0.15715921 -0.090009332
0.073150411 0.15693811 -0.092881858
0.16794384 0.15713471 -0.090327919
0.12068899 0.17308168 -0.088424802
0.13630709 0.17283089 -0.091385722
0.15201283 0.17274302 -0.092423797
0.089323573 0.17359968 -0.082306981
0.10502962 0.17334028 -0.085370302
-0.16545251 -0.11242948 -0.067953289
-0.14940906 -0.11236965 -0.069063067
-0.13338275 -0.11230994 -0.070171535
-0.11737359 -0.11225027 -0.071279049
-0.10138207 -0.11219119 -0.072375715
-0.085407034 -0.1121317 -0.073480666
-0.069449067 -0.11207215 -0.074584603
-0.053508125 -0.11201277 -0.07568711
-0.037584186 -0.1119534 -0.076788783
-0.021685401 -0.1119227 -0.077357948
-0.0058348887 -0.11216866 -0.072794914
-0.21313696 -0.096390128 -0.069713116
-0.19674112 -0.096181862 -0.074223042
-0.18049271 -0.096012577 -0.077889085
-0.16451809 -0.09596172 -0.078988254
-0.14856048 -0.095911078 -0.080086291
0.025989056 -0.096142367 -0.075078964
0.041998997 -0.0964626 -0.068144739
-0.2289954 -0.080417007 -0.070458114
-0.21244805 -0.080199689 -0.076105177
0.057780936 -0.080215022 -0.075706303
0.07386265 -0.080444261 -0.069751203
-0.24478725 -0.064441569 -0.071650982
-0.22820635 -0.064267792 -0.077291608
0.089553505 -0.0642974 -0.076333046
0.10571839 -0.064478271 -0.070458114
-0.26100793 -0.048563387 -0.069426239
-0.24421054 -0.048403852 -0.076333046
0.12133852 -0.048402894 -0.076371074
0.13758767 -0.048536431 -0.070591748
-0.26071304 -0.032581951 -0.071679711
-0.24393368 -0.032475684 -0.078580976
0.15303756 -0.032490321 -0.077633023
0.16904819 -0.032515779 -0.075981617
0.18507159 -0.032538787 -0.074479997
0.20112889 -0.032563746 -0.072861731
0.21738812 -0.032615922 -0.069474101
-0.26040885 -0.016634723 -0.074004114
0.20052969 -0.016593633 -0.079347968
0.21673214 -0.016619133 -0.076029241
0.23298787 -0.016644791 -0.072690189
0.24929623 -0.016670609 -0.069340348
0.23226726 -0.00072328525 -0.0793764
0.26525065 -0.00072328525 -0.069282949
-0.26044744 -0.00072322541 -0.07370913
0.24868411 -0.00072322541 -0.074641645
-0.26078671 0.015210425 -0.071116805
-0.2438392 0.015147063 -0.079347968
0.24842083 0.015165783 -0.076921642
0.26497191 0.015207092 -0.071546197
-0.2611143 0.031182671 -0.068613589
-0.2441451 0.031055631 -0.076864719
0.24816361 0.031020423 -0.079149187
0.26469612 0.031103021 -0.073785305
0.2813687 0.031192379 -0.067981899
-0.24480718 0.047069184 -0.071488917
0.26477939 0.047031805 -0.073109329
-0.22874758 0.062965713 -0.072604477
0.24827191 0.062793002 -0.078211248
0.26507652 0.063024372 -0.070696712
-0.2126314 0.078818619 -0.074403882
0.24855128 0.078765228 -0.075791657
0.26537791 0.079055451 -0.06825
-0.19659461 0.094667755 -0.07568723
0.24899198 0.094839148 -0.071975231
-0.18111476 0.11081044 -0.071154952
-0.16474533 0.11053295 -0.076304555
0.23286061 0.11066408 -0.073870838
-0.1334132 0.12683143 -0.06973213
-0.11719873 0.12656133 -0.074118376
-0.10104411 0.12628238 -0.078647137
0.2167502 0.12645473 -0.075848699
-0.085569575 0.1427599 -0.069961429
-0.069451623 0.14244419 -0.074517965
-0.053404436 0.14212994 -0.079054534
0.20065659 0.14220476 -0.077974379
0.21757291 0.14292161 -0.067627847
-0.021775613 0.15858421 -0.071498394
-0.0057945065 0.15808052 -0.078040779
0.18459606 0.15792231 -0.080095649
0.041934296 0.17444305 -0.072347105
0.057770625 0.17412081 -0.076152623
0.073570646 0.17385983 -0.079234421
0.16888167 0.17395212 -0.078145087
0.10569722 0.19049947 -0.070916355
0.12146554 0.19021329 -0.07401371
0.13718675 0.18992805 -0.077101886
0.15328173 0.19020459 -0.074108899
-0.18266189 -0.12922178 -0.054407001
-0.16639616 -0.12907387 -0.056809127
-0.15027194 -0.12900947 -0.057853699
-0.13424352 -0.12901603 -0.057747304
-0.11821348 -0.12902263 -0.05764091
-0.10218178 -0.12902918 -0.057534516
-0.086148016 -0.12903515 -0.057437956
-0.07011313 -0.12904172 -0.057331562
-0.054076605 -0.12904826 -0.057225108
-0.03803844 -0.12905481 -0.057118714
-0.021998638 -0.12906133 -0.05701232
-0.23082532 -0.11314852 -0.05461055
-0.21434218 -0.11293728 -0.058530033
-0.1979218 -0.1127274 -0.062425017
-0.18156274 -0.11251822 -0.066305578
0.010085875 -0.11256219 -0.065490305
0.026119424 -0.11295816 -0.058143556
-0.24641997 -0.09691298 -0.058394849
-0.22973311 -0.096650884 -0.06406939
0.058116779 -0.096785024 -0.061163723
0.074343197 -0.097109221 -0.054145098
-0.26236439 -0.080855682 -0.05906105
-0.2456347 -0.080635972 -0.06477046
0.090075128 -0.08071249 -0.062781096
0.10639664 -0.08098226 -0.055773497
-0.27823046 -0.064793557 -0.06021893
-0.26145899 -0.064616174 -0.0659796
0.12198381 -0.064664945 -0.064395905
0.13840011 -0.064880386 -0.057399213
0.15462118 -0.064961188 -0.054775357
0.17069633 -0.064967431 -0.054571867
-0.29494497 -0.048886012 -0.055453777
-0.27791944 -0.048724141 -0.062463641
0.15377454 -0.048619471 -0.06699568
0.16986766 -0.048657849 -0.065336704
0.18598732 -0.04869635 -0.063665748
0.20212764 -0.04873373 -0.062049747
0.21826127 -0.048763756 -0.060749173
0.23441508 -0.048793782 -0.059447229
0.25082478 -0.048871037 -0.056102693
-0.29461235 -0.032796733 -0.057727993
-0.27760643 -0.032689072 -0.064722478
0.23369971 -0.032668117 -0.066084981
0.25006476 -0.032720473 -0.062684834
0.26648468 -0.032773126 -0.059263766
0.28295752 -0.032825742 -0.055841327
-0.29431573 -0.016744457 -0.059755981
-0.27728215 -0.016688114 -0.067062736
0.26565754 -0.016696548 -0.065979421
0.28220427 -0.016730262 -0.061597049
0.2989645 -0.01677203 -0.056160748
-0.29470572 -0.00072326534 -0.057089746
0.28190589 -0.00072328525 -0.063877106
0.29864964 -0.00072328525 -0.058433473
-0.27750799 -0.00072324538 -0.065432727
-0.2950924 0.015338759 -0.054445803
-0.27787143 0.015274341 -0.062809885
0.28160942 0.015248681 -0.066142559
0.29833406 0.015290529 -0.060710728
0.31514791 0.015332618 -0.055240631
-0.27821973 0.031310644 -0.060296118
0.29837415 0.03130877 -0.060421586
-0.26212707 0.047314271 -0.060874581
0.28168476 0.047206014 -0.065567136
0.29871655 0.047381841 -0.057950199
-0.2459639 0.063289195 -0.062097788
0.28200653 0.063258052 -0.063107967
0.29905981 0.063493133 -0.055473208
-0.22975089 0.079222322 -0.063915551
0.28246918 0.079389475 -0.059572637
-0.21419133 0.09539558 -0.059929669
0.26621035 0.095323406 -0.061491191
-0.19856614 0.11162779 -0.055986464
0.24998146 0.11122806 -0.063406169
-0.16604947 0.12737513 -0.06090349
-0.14969663 0.12710273 -0.065327168
0.23376484 0.12709329 -0.065480769
0.2509523 0.12773885 -0.054998338
-0.1181611 0.1435546 -0.058491349
-0.10177791 0.1431016 -0.065029621
-0.05403851 0.15958771 -0.058462322
-0.037856415 0.15908435 -0.065000832
0.2017726 0.15901572 -0.065893233
0.010085875 0.17578092 -0.056548059
0.026090542 0.17532806 -0.061895669
0.18614537 0.17533624 -0.061799288
0.07432916 0.19200657 -0.054600894
0.089927293 0.19089615 -0.0666219
0.1704556 0.19172041 -0.057699025
0.13818669 0.2074405 -0.060864925
-0.23221369 -0.12994976 -0.042586923
-0.21563417 -0.12970616 -0.04654187
-0.19911702 -0.12946348 -0.050481796
-0.0059896633 -0.12932763 -0.052689135
0.010085875 -0.12978567 -0.04525131
-0.28092253 -0.11389321 -0.040790617
-0.26400018 -0.11358227 -0.046561301
-0.24736941 -0.11336001 -0.050686181
0.042267039 -0.11335732 -0.050734818
0.058529712 -0.11375889 -0.043283105
-0.29703218 -0.09770789 -0.041183531
-0.28006876 -0.097441472 -0.046952128
-0.26319829 -0.097176492 -0.052689135
0.090679869 -0.09743607 -0.047069252
-0.31311163 -0.081522599 -0.041733325
-0.29610133 -0.081298865 -0.047547758
-0.27918634 -0.081076726 -0.053320289
0.12282913 -0.081254162 -0.048708737
0.13936186 -0.081520781 -0.041782439
0.15561254 -0.081571385 -0.040466309
-0.31243452 -0.065227352 -0.046131253
-0.29527408 -0.065009594 -0.053203881
0.18690035 -0.065019444 -0.052883267
0.20312972 -0.065071203 -0.05120194
0.21938623 -0.065123416 -0.049507856
0.23563232 -0.06516511 -0.048152745
0.25189495 -0.065205656 -0.046834886
0.26817808 -0.065246269 -0.045515478
0.28469461 -0.065337062 -0.042567372
-0.32934132 -0.049212839 -0.04130137
-0.31208426 -0.049048796 -0.048406363
0.26729688 -0.048950367 -0.052669704
0.28382334 -0.049029876 -0.04922533
0.30040437 -0.049109645 -0.045769691
0.31716946 -0.04921015 -0.041419148
-0.32897186 -0.033014506 -0.04358691
-0.31173325 -0.03290521 -0.050686181
0.29948461 -0.032878716 -0.052407324
0.31615037 -0.032940578 -0.048386931
-0.32908121 -0.016874028 -0.042910635
-0.3116284 -0.016808935 -0.051367342
0.31581548 -0.016814277 -0.050676465
0.33313537 -0.00072332512 -0.042694807
-0.31204221 -0.00072324538 -0.048679411
0.31548133 -0.00072324538 -0.052960992
-0.31245258 0.015403653 -0.046014071
0.33319578 0.015432223 -0.042302489
-0.29576191 0.031471238 -0.049868464
0.31551117 0.031426799 -0.052757084
-0.27962416 0.047561713 -0.050160468
0.31587529 0.047559239 -0.050267577
-0.28092524 0.063945867 -0.040770888
-0.26335472 0.063615724 -0.051493704
0.31634879 0.063753113 -0.04703021
-0.2471981 0.079677925 -0.052076995
0.29996064 0.079797529 -0.048971891
-0.23198289 0.096104227 -0.044585824
0.28360286 0.095812127 -0.050909996
-0.21627621 0.1124578 -0.040584266
0.26727536 0.11179711 -0.052844524
0.28474084 0.1123699 -0.042214155
-0.18288252 0.12792234 -0.052018642
0.26874307 0.12860538 -0.040928125
-0.15130912 0.14453222 -0.044380248
-0.1346478 0.14401044 -0.051911712
0.23505761 0.14390136 -0.053485394
-0.086720392 0.16062053 -0.045045912
-0.070322864 0.16009416 -0.051882565
0.21940282 0.16028973 -0.049342334
-0.022180168 0.17673992 -0.045221925
-0.0060013365 0.17623612 -0.051172674
0.20363425 0.17669608 -0.045740187
0.042418323 0.19327141 -0.040908515
0.058458969 0.1927691 -0.046346366
0.12282546 0.2086502 -0.048776925
-0.25017953 -0.14712255 -0.027870893
-0.23344643 -0.14684263 -0.031911194
-0.21677823 -0.14656451 -0.035925984
-0.20038025 -0.1464306 -0.037858844
-0.18413413 -0.14638826 -0.038469493
-0.16793996 -0.14638078 -0.038577735
-0.15177171 -0.14639512 -0.038370907
-0.1356003 -0.14640942 -0.038164139
-0.11942568 -0.1464237 -0.03795737
-0.10324842 -0.14643879 -0.037740588
-0.087067358 -0.1464531 -0.037533581
-0.070883118 -0.14646746 -0.037326634
-0.054695696 -0.14648177 -0.037119687
-0.038509414 -0.14650911 -0.036725163
-0.022354165 -0.14670342 -0.033920467
-0.0061781108 -0.14709906 -0.028209031
-0.2823301 -0.13068596 -0.030632198
-0.26556131 -0.13043958 -0.034632325
-0.24885595 -0.1301942 -0.038617134
0.026276411 -0.13024756 -0.037750483
0.042585246 -0.13072076 -0.030066609
-0.31504697 -0.11451981 -0.029163003
-0.29793835 -0.11420584 -0.034987926
0.074909061 -0.1141639 -0.035768092
0.091407716 -0.11457378 -0.02815938
-0.33124098 -0.098245196 -0.029550433
-0.31408933 -0.097975805 -0.035382986
0.10712771 -0.097765096 -0.039945304
0.12368786 -0.098096445 -0.03277272
0.14025412 -0.098349392 -0.027293921
-0.34756193 -0.082006812 -0.029153168
-0.3302151 -0.081747368 -0.03589642
0.17188287 -0.081621706 -0.039158523
0.18804589 -0.081614166 -0.039355218
0.20413779 -0.081578203 -0.040289342
0.22048005 -0.081644095 -0.038577735
0.23684794 -0.081709787 -0.036873102
0.25321499 -0.081766292 -0.035402775
0.26958793 -0.081817687 -0.034068823
0.2859816 -0.081869066 -0.032733083
0.30239606 -0.081920564 -0.031395793
-0.34710491 -0.065667026 -0.031851709
-0.32971162 -0.065446556 -0.039010823
0.30132997 -0.065444209 -0.039089501
0.31834292 -0.065619536 -0.033396244
-0.34671438 -0.04937784 -0.034157813
0.33468279 -0.049412768 -0.032644093
-0.34632632 -0.033124458 -0.036449015
0.33399826 -0.033114452 -0.037090123
-0.34667584 -0.01693972 -0.034385264
0.33356625 -0.016897274 -0.039896309
0.35163599 -0.016987611 -0.028169155
-0.3471368 -0.00072328525 -0.031663418
-0.32951921 -0.00072324538 -0.040201008
0.35128757 -0.00072324538 -0.030324638
-0.34786162 0.015547062 -0.027383566
-0.32995361 0.015469148 -0.037513971
0.35179362 0.015548498 -0.02719444
-0.33147714 0.031806521 -0.028089643
-0.31352624 0.031637974 -0.039040327
0.33367226 0.03163534 -0.039207757
-0.31516781 0.048064746 -0.028378069
-0.29730389 0.047811903 -0.039325714
0.33415166 0.047886588 -0.036093891
-0.29897058 0.064341255 -0.027930677
0.33551723 0.064362973 -0.027224183
-0.26545531 0.080318227 -0.035442233
0.3179628 0.080296993 -0.035995245
-0.25003874 0.096823476 -0.029014111
0.30117324 0.096305907 -0.040220618
0.30278391 0.11310371 -0.02859664
-0.20142159 0.12943518 -0.027453065
-0.1681035 0.14506806 -0.036646366
0.25300652 0.14502916 -0.037208378
-0.11994462 0.16181481 -0.029530466
-0.10327125 0.16121544 -0.03731674
0.237196 0.16149831 -0.033643603
-0.038480051 0.1773518 -0.037996769
0.18822768 0.19361326 -0.037208378
0.09131559 0.210474 -0.030552864
0.10728465 0.20987412 -0.03654772
0.15579934 0.20975173 -0.037770092
-0.25167525 -0.16432397 -0.01572746
-0.23513989 -0.16420715 -0.017245352
-0.21864544 -0.16410279 -0.018600702
-0.20229042 -0.16408964 -0.018771291
-0.18593894 -0.16407727 -0.018931746
-0.1695891 -0.16406409 -0.019102335
-0.15326196 -0.16407117 -0.019011974
-0.13711224 -0.16427679 -0.016340852
-0.30076429 -0.14796804 -0.015667081
-0.28383744 -0.14768496 -0.019753933
-0.26697558 -0.14740285 -0.023825169
0.010085875 -0.1476808 -0.019814014
-0.33327079 -0.1315258 -0.016994238
-0.31606102 -0.131182 -0.022576511
-0.29916418 -0.13093375 -0.026607037
0.059014603 -0.13119987 -0.022286594
0.075565517 -0.13168256 -0.014448941
-0.33225209 -0.11483592 -0.023295999
0.10803209 -0.11499384 -0.020365059
-0.34893155 -0.098637082 -0.02106595
0.1566169 -0.098410599 -0.025969565
0.17300022 -0.098471887 -0.0246436
0.18940407 -0.098533213 -0.023315907
0.20577493 -0.098567761 -0.022566438
0.22195141 -0.09850733 -0.023875177
0.2381079 -0.09844698 -0.025182128
0.25452191 -0.098497607 -0.024084747
0.27101326 -0.09857107 -0.022496521
0.28749794 -0.098633379 -0.021146178
0.30408561 -0.09872321 -0.01920259
-0.3665559 -0.082601957 -0.013693213
0.31952536 -0.082154743 -0.025311768
0.33718354 -0.082497723 -0.016401052
-0.36602128 -0.066133171 -0.016712844
0.33592835 -0.065891735 -0.024553776
0.35366198 -0.066166312 -0.015636861
-0.36548635 -0.049710952 -0.019733906
0.35255143 -0.049646933 -0.022506535
-0.36495474 -0.033335514 -0.022736311
0.35209635 -0.033295721 -0.025321782
-0.36545265 -0.01705105 -0.019924283
0.3699103 -0.017078923 -0.016300678
-0.36605328 -0.00072328525 -0.016531765
0.37012333 -0.00072328525 -0.01504302
-0.34993282 0.032005735 -0.015153706
0.35230279 0.031868804 -0.024044871
-0.3332172 0.048320021 -0.017325759
0.35321689 0.048295461 -0.01839
-0.28400558 0.080968782 -0.018540561
0.33725786 0.0810697 -0.015918434
0.31960416 0.097019315 -0.02477318
-0.23479931 0.1135565 -0.020194888
0.28699195 0.12958544 -0.025012672
0.27114752 0.14612392 -0.021406353
-0.13674189 0.16241871 -0.021686494
0.25561127 0.16296038 -0.014650345
-0.055078939 0.17847997 -0.024673462
0.22173981 0.17836854 -0.025989592
0.026447263 0.1956134 -0.015556276
-0.3193754 -0.16545387 -0.0010491014
-0.3022978 -0.1651358 -0.0051822066
-0.28528464 -0.16481799 -0.0093095303
-0.26833713 -0.16450146 -0.013420939
-0.12093238 -0.16449609 -0.013491631
-0.10470959 -0.16471674 -0.010624588
-0.088443018 -0.16493806 -0.0077497363
-0.072132096 -0.1651592 -0.0048773289
-0.055777498 -0.16538166 -0.0019870996
-0.33499479 -0.14861494 -0.0063297749
-0.31775492 -0.14825164 -0.011574447
0.026479548 -0.1482663 -0.011362255
0.043004543 -0.14885724 -0.0028326511
-0.35186261 -0.13234095 -0.0037587881
0.092239343 -0.13216886 -0.0065529943
-0.35039026 -0.11542018 -0.012452662
0.12477957 -0.11541694 -0.01251328
0.14144026 -0.11565831 -0.0080336332
0.15803176 -0.11579226 -0.0055480003
0.17416348 -0.1155776 -0.0095322728
0.19065182 -0.11562891 -0.0085805058
0.20719141 -0.1157015 -0.0072327256
0.22375195 -0.11577424 -0.0058832169
0.24008498 -0.11572288 -0.00683707
0.25636011 -0.11565129 -0.0081651807
0.27261379 -0.11557927 -0.0095018148
0.28903106 -0.11558306 -0.0094310641
0.30600014 -0.11580105 -0.0053853989
-0.3680484 -0.099367045 -0.0052634478
0.32126895 -0.098991588 -0.01339072
0.33854672 -0.099261455 -0.0075470805
0.35498944 -0.082843095 -0.0074253678
-0.38526574 -0.066615254 -0.0010591745
0.37154397 -0.066442959 -0.0066544414
-0.38469934 -0.050071493 -0.004124999
0.37088019 -0.049922485 -0.010573983
-0.38413644 -0.03357514 -0.0071718693
0.37039632 -0.033478744 -0.013431072
0.38890317 -0.03366388 -0.001406014
-0.38464111 -0.017170234 -0.0044403076
0.38866499 -0.017183233 -0.0027510524
-0.38527706 -0.00072324538 -0.00099813938
-0.36685953 0.015665609 -0.011978149
0.37066287 0.015666606 -0.011857033
0.37120917 0.032106098 -0.0086311698
-0.35202637 0.048655644 -0.002791822
-0.31785914 0.064865664 -0.010897398
0.35506156 0.064986326 -0.0069791079
-0.30285609 0.081629857 -0.0013651848
-0.26836485 0.097553454 -0.013209164
0.32311586 0.1146036 -0.00076341629
-0.22052822 0.13105622 -0.0011305809
0.30617341 0.13087122 -0.004135251
-0.18659808 0.14678964 -0.011796474
0.28984794 0.14738609 -0.0031889081
-0.1540221 0.16338474 -0.0091375113
-0.071934626 0.17972182 -0.010007739
0.010085875 0.19652572 -0.0056800842
-0.32101196 -0.18282701 0.009580791
-0.3040598 -0.18259707 0.0068645477
-0.28731239 -0.18246667 0.0053244233
-0.27058899 -0.18233642 0.0037863851
-0.25388953 -0.18220639 0.0022504926
-0.23730014 -0.18213968 0.001462996
-0.2207901 -0.18212581 0.0012994409
-0.20430614 -0.18213189 0.001371026
-0.18860805 -0.18285935 0.0099619627
-0.3375302 -0.16625473 0.0093540549
-0.039380237 -0.16561031 0.00098258257
-0.022937855 -0.16584194 0.0039913654
-0.35421771 -0.14975655 0.010147572
0.059662446 -0.14945292 0.0057656169
-0.37116057 -0.13333067 0.012314081
0.10903745 -0.13265875 0.0014016628
0.12596124 -0.13315219 0.0094159245
0.14267808 -0.13331541 0.012066245
0.22525103 -0.13313262 0.0090966821
0.24194987 -0.13321695 0.010466933
0.25851277 -0.1332176 0.010477364
0.27490833 -0.13313451 0.0091276169
0.29146782 -0.13313828 0.0091893673
0.30848703 -0.13334601 0.012562037
-0.36959809 -0.11627929 0.0034892559
0.32330102 -0.11611833 0.00050252676
0.34069753 -0.11643739 0.0064228773
0.35819051 -0.1167582 0.01237613
-0.38745433 -0.1001083 0.010786653
0.35630736 -0.09964373 0.00072717667
0.3743476 -0.10006735 0.0099001527
-0.38583001 -0.08320573 0.0019947886
0.37294814 -0.083192013 0.0016368628
0.39106008 -0.083543703 0.010776281
0.38992411 -0.066782087 0.0043602586
-0.40419719 -0.050437279 0.011715353
0.38941655 -0.050201204 0.0014936924
-0.40360209 -0.033818353 0.0086231232
0.40762034 -0.033851169 0.010755777
-0.40411377 -0.017291212 0.011281788
0.40802473 -0.017304054 0.012944341
0.38923562 -0.00072328525 0.00047188997
-0.38613641 0.015785988 0.0036532283
0.38981158 0.015786547 0.0037248135
-0.36905661 0.032245658 0.00043088198
0.39111853 0.032409981 0.011106551
-0.37127948 0.049020015 0.012985587
0.37301397 0.048766933 0.0020255446
-0.33695841 0.065380402 0.0058170557
0.3571617 0.081913836 0.0060120225
0.34011188 0.098284528 0.0026189685
-0.25480002 0.11516432 0.0096424818
-0.088910103 0.18076934 0.0023631454
0.24104343 0.1807434 0.0020561814
-0.0064282771 0.19744651 0.0042885542
0.20845382 0.1976447 0.0064330697
-0.30674574 -0.20082746 0.025228381
-0.28985327 -0.2006827 0.023661733
-0.27298528 -0.20053825 0.022097409
-0.25631222 -0.20052184 0.021920204
-0.34010488 -0.18415648 0.025280654
-0.17263763 -0.18344681 0.016899049
-0.15656306 -0.18403712 0.023870528
-0.35691521 -0.16754195 0.026075304
-0.0065268707 -0.16685072 0.017096043
0.076456778 -0.15005782 0.014495492
0.093405128 -0.15069792 0.023734808
0.15942758 -0.13347144 0.014598966
0.17621572 -0.13362707 0.017127156
0.1929993 -0.1337512 0.019141674
0.20914698 -0.13343063 0.013936818
0.3253749 -0.13347647 0.014681637
0.34288308 -0.13384214 0.020618439
-0.38909397 -0.11715076 0.019661486
0.37577897 -0.11708016 0.018352091
0.39254117 -0.10049423 0.019141674
-0.40543249 -0.083826914 0.018133998
0.40932721 -0.083898529 0.019994259
-0.40479597 -0.067104369 0.014826715
0.40869978 -0.067158923 0.016598225
0.40816411 -0.050483055 0.013698816
0.42712653 -0.050768156 0.026043892
-0.42335814 -0.034065094 0.024653673
0.42703396 -0.034079172 0.025562942
-0.40478602 -0.00072332512 0.014774859
0.40863276 -0.00072320551 0.016235411
-0.40569642 0.015908005 0.019505501
0.40937719 0.015913786 0.020264685
-0.3884629 0.032489091 0.016245842
0.39324173 0.04925352 0.023098409
-0.35621858 0.065877512 0.021961808
0.37503824 0.06563165 0.013978183
-0.32240555 0.082399584 0.018632531
-0.28874817 0.098888084 0.015686154
-0.17337303 0.16605753 0.025583744
0.27547139 0.16514264 0.013698995
-0.10601471 0.18172045 0.013595581
-0.32531938 -0.20196638 0.037558258
-0.22470465 -0.20197223 0.037621737
-0.24040693 -0.20111749 0.028368592
0.010085875 -0.16791233 0.030887187
-0.37373784 -0.15091515 0.026870608
0.1104994 -0.15134352 0.033053637
0.17779991 -0.15166588 0.037706256
0.24490945 -0.15168124 0.037928283
0.26107109 -0.15131436 0.032632589
0.27730662 -0.15103488 0.028599143
0.29445729 -0.15127285 0.032032967
0.31166381 -0.15151222 0.035488248
0.32892355 -0.15175162 0.038944066
0.34566376 -0.15173337 0.038679421
0.37820286 -0.13458396 0.03266418
0.39601541 -0.13495968 0.03876406
-0.390751 -0.13433555 0.028630614
0.36049137 -0.13421103 0.026608944
-0.40889013 -0.11803652 0.036100388
0.39400604 -0.11756858 0.027415097
0.41243356 -0.11807472 0.036808074
-0.40715212 -0.10086045 0.027069569
0.4108918 -0.10092475 0.028462827
0.4293994 -0.10135859 0.037854373
-0.42533454 -0.084457986 0.034528553
0.4282589 -0.084357902 0.031927943
-0.42461625 -0.067600451 0.030939698
0.42769092 -0.067540117 0.028976738
-0.42398629 -0.050808549 0.027792156
0.44630536 -0.051056329 0.038520753
-0.42387307 -0.017413948 0.027226567
0.42767477 -0.017426826 0.028892756
-0.4245826 -0.00072332512 0.030771673
0.4283196 -0.00072328525 0.032243431
-0.42554986 0.016031973 0.035604417
-0.40815797 0.032736272 0.032296062
0.41159996 0.032736272 0.032296062
-0.3908169 0.04938953 0.028987288
-0.37577248 0.066382483 0.038362026
-0.34174648 0.083046347 0.035435498
0.37888494 0.083094679 0.036691844
0.36152127 0.099686846 0.032979965
0.34421837 0.11622312 0.029291451
0.32765144 0.1329885 0.030246496
-0.24099168 0.13318476 0.033432841
-0.20692714 0.14951654 0.027561665
-0.12408339 0.18375951 0.037674546
-0.31055155 -0.22010677 0.051249027
-0.29301286 -0.21962795 0.046463847
-0.20864503 -0.20262879 0.044727981
-0.35966912 -0.18560071 0.042336285
-0.37660402 -0.16884932 0.043058693
0.026912315 -0.16898768 0.044855654
-0.39356586 -0.1520927 0.043866336
0.12763745 -0.15186101 0.040522277
0.1447636 -0.15223569 0.04593116
0.16197492 -0.15261234 0.051366806
0.19479091 -0.15184556 0.040299714
0.21182144 -0.15202494 0.042888641
0.22866888 -0.15204993 0.043249905
0.36286739 -0.15191536 0.041306913
0.38069877 -0.15233769 0.047402203
-0.41064268 -0.13535641 0.045207024
0.41398728 -0.13535708 0.045217633
-0.42898771 -0.11893539 0.052780807
0.43102145 -0.11858521 0.046282649
-0.42715245 -0.10162443 0.043611228
0.44809574 -0.10180251 0.047466159
-0.44554344 -0.085099064 0.051184714
0.44749874 -0.084841155 0.044483304
-0.44473508 -0.06810414 0.047295451
0.44690123 -0.067925647 0.041497827
-0.44407317 -0.051185403 0.044110954
-0.44341099 -0.034315623 0.040925145
0.44693944 -0.034327388 0.041688859
-0.44392952 -0.017538633 0.043420017
0.44762012 -0.017551472 0.045089781
-0.44467521 -0.00072328525 0.047007561
0.44879076 -0.00072332512 0.050938606
-0.44569924 0.016157577 0.051934361
0.43011492 0.01607791 0.041572213
-0.42814827 0.03298704 0.048586845
-0.41064677 0.049764667 0.045228243
0.4139086 0.049754541 0.044791877
0.39627415 0.066439942 0.040225446
-0.36139074 0.083703198 0.052502096
-0.30940336 0.10016809 0.043398738
-0.27542144 0.11683857 0.040713131
0.31262004 0.15054379 0.042389393
-0.14190485 0.1850432 0.052834332
-0.27742922 -0.22058767 0.056055129
-0.26170829 -0.22155604 0.06573087
-0.34507632 -0.20367314 0.056033611
-0.3797636 -0.18717305 0.060904026
-0.39660588 -0.1701782 0.060321033
0.31570262 -0.17051034 0.064635992
0.33235991 -0.17034124 0.062438607
0.34986702 -0.17061384 0.065980315
0.36690342 -0.17063636 0.066273332
0.38372943 -0.17056124 0.065297186
-0.41370726 -0.15328877 0.061130822
0.39862815 -0.15276153 0.053520679
0.41666004 -0.15318859 0.059684515
0.43479142 -0.15361731 0.065871894
-0.4308385 -0.1363923 0.062027752
0.43265402 -0.1359451 0.054765701
0.44977179 -0.1191003 0.055840135
-0.44746032 -0.10240018 0.060407341
0.46833089 -0.085583419 0.06376946
-0.46515918 -0.068615451 0.063899457
0.46734059 -0.068464726 0.059004962
-0.46446231 -0.051567756 0.060666442
0.46711889 -0.051504754 0.057938218
-0.4637652 -0.034569785 0.057432175
0.46810144 -0.03465033 0.062665761
-0.46428782 -0.017665155 0.059857011
-0.46507049 -0.00072332512 0.063488007
0.4514347 0.01625172 0.064148486
-0.44844058 0.033241678 0.065123737
0.43254039 0.033073127 0.054175317
-0.43077573 0.050145309 0.061714232
-0.39562517 0.066895224 0.055012763
-0.32886547 0.10096215 0.060590863
0.3838782 0.10122009 0.066175818
0.29758689 0.16839497 0.055947721
0.26423711 0.18565424 0.060051262
-0.36517125 -0.20540895 0.074824989
-0.4002049 -0.18877323 0.079801083
-0.41692647 -0.17152824 0.077858567
0.26577517 -0.17118283 0.073371589
0.28294766 -0.17126185 0.074398577
0.30013603 -0.17134099 0.075426638
0.4012996 -0.17081617 0.06860894
0.41946134 -0.17129634 0.074846923
-0.43417165 -0.15450466 0.078681171
-0.45142961 -0.13746859 0.07950449
0.45214471 -0.1367414 0.067695975
-0.44939566 -0.11984809 0.069718719
-0.46808288 -0.10318802 0.077463746
0.46932545 -0.10277644 0.06855464
-0.4660618 -0.085749693 0.06808722
-0.48533902 -0.051974077 0.078264236
-0.48443213 -0.034827929 0.074201763
-0.48497933 -0.017794507 0.076652825
0.46908602 -0.017723251 0.067402482
0.47118628 -0.00072324538 0.077507615
-0.46615553 0.016285336 0.068521917
0.45441148 0.033455644 0.079021454
-0.45121059 0.050531927 0.078450799
0.43655446 0.050452936 0.07503283
-0.41578358 0.067415863 0.071919918
0.41878763 0.067393653 0.071200252
-0.38134551 0.084370457 0.069838464
0.40108213 0.084275872 0.067380786
-0.34863818 0.10176925 0.078066885
-0.29673675 0.11859664 0.073338628
0.36726692 0.11833701 0.068522096
-0.26333851 0.13598897 0.078966498
0.35141575 0.13580865 0.076039553
-0.22878367 0.15283573 0.075470388
-0.33266744 -0.2235129 0.085285246
0.4391275 -0.17233983 0.088402689
0.45591721 -0.15504946 0.086544454
-0.4701212 -0.12077501 0.086920321
0.47208577 -0.12050108 0.08183533
0.49155685 -0.086700194 0.092784166
-0.48656166 -0.069226362 0.083740711
0.49050274 -0.069354236 0.087893665
0.49016428 -0.052160248 0.08632338
0.49120736 -0.035089068 0.091162682
-0.48617554 -0.00072328525 0.082011282
-0.48738497 0.016430916 0.087429047
0.47431529 0.016470432 0.092561901
-0.46903938 0.033499982 0.081901252
-0.4362548 0.067944482 0.089089334
-0.40161824 0.085048437 0.0874511
-0.31640565 0.11956307 0.091273725
0.33630165 0.15380001 0.08938843
-0.19558956 0.17067286 0.085539222
-0.38561291 -0.20717484 0.093940675
-0.42100006 -0.19040103 0.099025369
0.37133828 -0.18995072 0.093707025
0.38868967 -0.19002518 0.094586074
0.40571967 -0.18993945 0.09357357
0.42418042 -0.19051661 0.10038984
-0.4375734 -0.17289993 0.095677495
-0.45496485 -0.15574022 0.096513689
0.47540098 -0.13859446 0.097785592
0.49261564 -0.10412255 0.097696245
-0.48881629 -0.086740829 0.09384048
0.49225497 -0.017943557 0.096023083
0.49446094 -0.00072328525 0.10625744
-0.49092621 0.033829346 0.10329169
-0.47219136 0.050949294 0.096524835
0.45940167 0.051120833 0.10395384
-0.45697835 0.068471454 0.10620111
0.44158736 0.068316944 0.10118455
-0.42221659 0.085737266 0.10534656
0.42452598 0.085618362 0.10225993
-0.36872542 0.10258898 0.095811307
-0.28405786 0.13769734 0.10670739
-0.40641448 -0.20897347 0.11341155
0.35624304 -0.19110972 0.1073941
0.25297612 -0.17421632 0.11277783
0.47989205 -0.15732533 0.11939323
-0.4751271 -0.1393555 0.11014467
0.49576885 -0.12214406 0.11232537
-0.49301106 -0.10481229 0.11263078
0.51428127 -0.070267484 0.11755109
-0.51116776 -0.052848678 0.11613184
0.51381248 -0.052832928 0.1154511
-0.509866 -0.035386689 0.11049473
-0.50919926 -0.018032715 0.10760796
-0.51044548 -0.000723365 0.11300415
-0.51172394 0.016670441 0.11853993
0.47748467 0.033898845 0.1078108
-0.49459952 0.051485524 0.11974609
-0.38913849 0.10342219 0.11385328
0.40819854 0.10313219 0.10757422
-0.33639577 0.12054529 0.10950166
0.39142597 0.1206122 0.11074322
-0.35588646 -0.22727753 0.12290376
0.34167352 -0.19269513 0.12611622
0.4628748 -0.17487286 0.12130672
0.49929968 -0.14049871 0.1287064
0.51653093 -0.10550499 0.12762839
0.51540232 -0.087846741 0.12257278
-0.51263678 -0.070419602 0.12249291
0.51492131 -0.035539486 0.12041789
0.5160324 -0.018169764 0.12539518
0.49779072 0.016694805 0.12170571
-0.51389694 0.034208868 0.12794936
-0.47737578 0.068914101 0.12057739
0.46477422 0.069228753 0.13079673
-0.46235821 0.086766422 0.13208497
-0.44275552 0.086361617 0.12156892
0.44758284 0.086776152 0.13233811
-0.40988994 0.10427068 0.13222295
-0.35671508 0.12154371 0.1280297
-0.30394515 0.138846 0.12536091
0.37621328 0.1387538 0.12386322
-0.25151947 0.15624 0.12460601
0.32428342 0.17383094 0.12656271
-0.46294737 -0.1759208 0.13491958
-0.49816209 -0.1234038 0.13570434
0.5201081 -0.12383205 0.14365202
-0.51709139 -0.088586211 0.14178175
0.53808463 -0.05352319 0.14533901
-0.53511304 -0.0183104 0.14366364
-0.53545171 -0.00072328525 0.14508289
0.51834929 -0.00072328525 0.13577366
0.50116163 0.034353573 0.1373449
-0.51747501 0.052032877 0.14344275
0.4828507 0.051806074 0.13362813
-0.49870127 0.06945432 0.13811988
-0.48302686 0.087332554 0.14679521
-0.42979661 0.10484853 0.14473367
0.43109131 0.10452811 0.13779593
-0.37736973 0.12255806 0.14685369
0.4147757 0.12244323 0.1447221
-0.32416525 0.14001404 0.14432657
-0.27164689 0.1577514 0.14642233
0.36078134 0.15708965 0.13687098
0.45043692 -0.19447774 0.1471684
0.48733607 -0.17748258 0.15520823
0.50458705 -0.1596701 0.15323687
0.54119235 -0.10694449 0.15879565
0.53989506 -0.089024745 0.15317833
0.53870112 -0.071205325 0.14800835
-0.53797734 -0.053761639 0.15566629
-0.53650099 -0.035987034 0.14947987
0.53926229 -0.036001749 0.15043837
0.54044527 -0.018401911 0.15556055
-0.53676045 0.016916944 0.15056711
0.52188694 0.016925039 0.15162021
-0.53812599 0.034645211 0.15628916
-0.44911259 0.10524561 0.15333068
0.399546 0.1408986 0.15868974
-0.37989962 -0.23116931 0.16179198
-0.48685831 -0.16045529 0.16457087
0.52386779 -0.14245619 0.16049331
-0.52238709 -0.10721787 0.16471297
-0.54179996 -0.071934342 0.17168474
0.54287082 -0.00072324538 0.16606361
0.52547151 0.034820538 0.16767716
-0.5413909 0.052645426 0.16997063
0.50693053 0.052510053 0.16410911
-0.52141267 0.070143186 0.16049343
0.48858172 0.070165038 0.16120142
-0.50411516 0.08793211 0.1623708
0.47126877 0.087965719 0.16324562
-0.46864319 0.10566089 0.16232353
0.45460787 0.10596202 0.16884118
-0.41717839 0.12389545 0.17167288
-0.39798415 0.12347198 0.16381335
-0.34472668 0.14120176 0.16361231
-0.29207093 0.15924206 0.16793829
0.38420999 0.15961568 0.17333013
0.54513365 -0.12556775 0.17586184
0.56505924 -0.090235092 0.18462288
0.56379151 -0.072169162 0.17931032
0.56301135 -0.054232195 0.17604119
0.5642612 -0.036476493 0.18127859
-0.56261778 -0.018620264 0.18392432
0.56551385 -0.01864028 0.18652773
-0.56121546 -0.00072328525 0.1782316
-0.56259704 0.017173097 0.18383998
0.54662603 0.017161453 0.18232417
-0.54516071 0.070921376 0.18576789
-0.52640986 0.088692628 0.18213189
-0.48896495 0.10621618 0.17434436
-0.45564827 0.12466678 0.18598491
-0.43643013 0.12430125 0.1792025
0.43827435 0.12416504 0.1766752
-0.36563808 0.14240958 0.18322629
0.34927505 0.17779724 0.17808789
0.47782496 -0.19861293 0.19600213
0.51254421 -0.18017271 0.19015342
0.53003019 -0.16208532 0.18809754
-0.51140052 -0.14458153 0.195005
0.54913384 -0.14446932 0.1931833
-0.54763496 -0.090678297 0.196136
-0.564188 -0.036615413 0.19029856
0.56874901 -0.00072332512 0.20008457
-0.56398231 0.035155963 0.18946368
0.55051345 0.035305213 0.199157
-0.56593484 0.05327867 0.19738984
0.53166455 0.053233132 0.19541842
0.5130378 0.071127042 0.19244325
0.49560517 0.089187667 0.1949929
-0.51003653 0.10688826 0.18889523
-0.4754132 0.12514682 0.19489574
-0.38555744 0.14314699 0.19519961
0.42297387 0.14288986 0.19102526
-0.31288281 0.1607611 0.18986285
-0.56724286 -0.054847814 0.20269978
-0.56992251 0.071777791 0.21357763
-0.54921013 0.089485772 0.20273662
-0.53222996 0.1077399 0.2073338
0.47877398 0.1074355 0.20074391
-0.49583209 0.12575619 0.20620406
0.46244165 0.12593645 0.2095468
-0.4238553 0.14392374 0.20781279
-0.40462017 0.14352238 0.20129371
-0.33409372 0.16230907 0.21220791
0.40807766 0.16209163 0.20906687
-0.53659928 -0.12828319 0.22625351
-0.59073877 -0.00072324538 0.2241708
-0.58988219 0.01745756 0.22079909
0.57404828 0.017469004 0.22229087
0.53816676 0.072115369 0.22454476
0.52045453 0.090413965 0.22685277
-0.51669049 0.12642962 0.21870124
-0.46297708 0.1448345 0.22260189
-0.44350719 0.14442645 0.21597588
0.44707227 0.14493892 0.22429538
-0.35450932 0.16334456 0.22715259
0.37265009 0.18055877 0.21396065
-0.57463896 -0.073813863 0.23272431
-0.5947119 0.035931159 0.23981106
0.55708253 0.053976431 0.22760224
-0.55521262 0.10868939 0.22788978
0.50351787 0.1089282 0.23306322
-0.53817773 0.12720482 0.23308825
-0.50289088 0.14584146 0.23895288
-0.4825204 0.14523414 0.22909021
-0.39292029 0.16414292 0.23867536
-0.37284616 0.16339041 0.22781467
0.59950399 -0.037561949 0.25177658
-0.59566915 -0.019079497 0.24357927
0.57944906 0.03600987 0.24492252
-0.57684845 0.090985201 0.24169374
0.48729929 0.12775731 0.24333882
-0.52407998 0.14663289 0.25180209
-0.45073101 0.16517089 0.25351214
-0.43160808 0.1649119 0.24977601
-0.41284159 0.16477002 0.24772811
0.43269631 0.16464598 0.24593735
0.39676166 0.18340811 0.25097334
0.58357263 -0.11172067 0.26220226
-0.60084802 -0.037749559 0.26396585
0.60026836 -0.019166501 0.25487936
0.60287821 -0.00072324538 0.26547408
-0.59959716 0.054702461 0.25904202
0.56399679 0.073131524 0.25754166
0.54487592 0.091481872 0.25459814
0.52834302 0.11033189 0.26345062
0.47186577 0.14704631 0.25851595
-0.47065601 0.16568735 0.26096797
0.60407531 -0.056409772 0.27033377
0.60551125 0.017883737 0.27616286
0.58491421 0.054905262 0.26782405
0.5111649 0.12918612 0.26985478
-0.49053884 0.16615163 0.26766884
-0.56831127 -0.11267108 0.28277886
0.60954237 0.036742721 0.29252708
0.59055758 0.074176311 0.29147243
0.57110924 0.09278062 0.28833973
0.55263752 0.11152875 0.28936541
0.49737403 0.1492115 0.29367518
0.45812881 0.16729288 0.28414047
0.42212954 0.18656935 0.29203916
0.53647631 0.13087434 0.30118454
-0.44114029 0.1872876 0.30137038
-0.42124337 0.18681118 0.29518127
-0.40332669 0.18719155 0.30012214
-0.36643773 0.18753861 0.30462992
0.61543214 0.056028001 0.31643677
-0.61311656 0.074816376 0.31226051
0.57847846 0.11295522 0.3202492
-0.57503337 0.13140044 0.31094766
0.5202269 0.15042961 0.31345427
-0.51868904 0.1692401 0.31224728
0.48167807 0.1690499 0.30950212
-0.38613373 0.18795271 0.31001055
0.59809542 0.094116926 0.32305908
-0.59740847 0.11318199 0.32515681
0.56112707 0.13228668 0.32739401
-0.55923367 0.1510953 0.3242631
-0.61932456 -0.057942379 0.33669829
0.62139487 0.075690299 0.34064257
0.54487193 0.15207265 0.34013522
0.50736266 0.17141093 0.34358144
0.45013556 0.1906027 0.34443426
0.58604699 0.13366768 0.35302222
-0.47122931 0.19180277 0.36002433
-0.64497352 0.018543176 0.36182296
