ply
format ascii 1.0
comment PCL generated
element vertex 1341
property float x
property float y
property float z
element camera 0
property float view_px
property float view_py
property float view_pz
property float x_axisx
property float x_axisy
property float x_axisz
property float y_axisx
property float y_axisy
property float y_axisz
property float z_axisx
property float z_axisy
property float z_axisz
property float focal
property float scalex
property float scaley
property float centerx
property float centery
property int viewportx
property int viewporty
property float k1
property float k2
end_header
0.010807824 0.37241483 -0.22586644
0.03093946 0.37207222 -0.2275784
0.051133242 0.37288004 -0.22354221
-0.27335554 -0.029566027 -0.20604753
-0.2522766 -0.029926829 -0.21385729
-0.23198847 -0.029952183 -0.21440804
-0.21175544 -0.029952183 -0.21440804
-0.19152242 -0.029952183 -0.21440804
-0.1712894 -0.029952183 -0.21440804
-0.15105636 -0.029952183 -0.21440804
-0.13082334 -0.029952183 -0.21440804
-0.11059032 -0.029952183 -0.21440804
-0.090357296 -0.029952183 -0.21440804
-0.070124269 -0.029952183 -0.21440804
-0.049891252 -0.029952183 -0.21440804
-0.029658224 -0.029952183 -0.21440804
-0.0094251996 -0.029952183 -0.21440804
0.010807824 -0.029952183 -0.21440804
0.031040948 -0.029951662 -0.21439517
0.051274069 -0.029951662 -0.21439517
0.071507193 -0.029951662 -0.21439517
0.091740318 -0.029951662 -0.21439517
0.11197344 -0.029951662 -0.21439517
0.13220656 -0.029951662 -0.21439517
0.15243968 -0.029951662 -0.21439517
0.1726736 -0.029951081 -0.21438241
0.19290683 -0.029951081 -0.21438241
0.21314004 -0.029951081 -0.21438241
0.23337325 -0.029951081 -0.21438241
0.25360647 -0.029951081 -0.21438241
0.27440718 -0.029689103 -0.20871162
-0.27312663 -0.0093831569 -0.20817161
-0.2520653 -0.0098033547 -0.21596885
0.2530472 -0.010044038 -0.22043657
0.27419248 -0.0095278621 -0.21085715
-0.27289808 0.010767311 -0.2102921
-0.25185433 0.010287941 -0.21807694
0.27397811 0.010600567 -0.21299899
-0.27266991 0.030885279 -0.21240938
-0.25164372 0.03034693 -0.2201817
0.2737641 0.030696392 -0.21513748
0.29502812 0.031362683 -0.2055192
-0.29357409 0.051570967 -0.20673025
-0.27244213 0.050971016 -0.21452332
0.27355048 0.050759375 -0.21727252
0.29479632 0.051498592 -0.20766985
-0.29332897 0.071683332 -0.20885313
-0.27221328 0.0710233 -0.21664631
0.27333844 0.070790991 -0.21939135
0.2945663 0.071602643 -0.20980418
-0.29308423 0.091763273 -0.21097279
-0.27198622 0.091044471 -0.21875334
0.29433531 0.091673166 -0.21194768
-0.31404397 0.11259173 -0.2052871
-0.29283988 0.11181097 -0.21308863
-0.27175951 0.11103354 -0.2208569
0.29410464 0.11171101 -0.21408784
-0.31392336 0.13278945 -0.20626652
-0.29269347 0.13191755 -0.21435678
0.29396394 0.13180588 -0.2153933
0.31534147 0.13288109 -0.20541608
-0.29309756 0.152555 -0.21085715
-0.27196696 0.15162258 -0.21893203
0.29434359 0.152438 -0.21187067
-0.29350126 0.17324607 -0.20736098
-0.2723428 0.17225035 -0.21544445
0.27344823 0.17189939 -0.21829391
0.29472423 0.17312561 -0.20833874
-0.27271828 0.19293143 -0.21196067
-0.25166029 0.19187711 -0.22001588
0.27379999 0.19256248 -0.21477902
-0.27309611 0.21366902 -0.20845449
-0.252009 0.21254979 -0.21653152
0.25297895 0.21190639 -0.22117543
0.27415267 0.2132809 -0.21125507
-0.25235736 0.23327567 -0.21305037
-0.23137039 0.23209842 -0.22109902
0.25330293 0.23260017 -0.21766829
0.27450758 0.23405699 -0.20770836
-0.25270793 0.25405854 -0.20954716
-0.231692 0.2528159 -0.21761715
0.25362778 0.25334954 -0.21415186
-0.25305814 0.2748946 -0.20604753
-0.2320133 0.27358651 -0.2141391
0.23293509 0.2727108 -0.21955693
0.25395346 0.2741546 -0.21062613
-0.23233664 0.29441458 -0.21063888
-0.21139181 0.2930488 -0.21870232
0.2127309 0.2928803 -0.21969724
0.23322484 0.29348356 -0.21613503
0.25428125 0.2950176 -0.20707786
-0.21168609 0.31386405 -0.21522701
0.19252977 0.31305009 -0.21982479
0.21299429 0.31367856 -0.21627569
0.23351428 0.31430858 -0.21271718
-0.23265964 0.3152957 -0.20714211
-0.21214855 0.3351 -0.20976555
-0.19116729 0.33338988 -0.21902132
0.17237614 0.33335453 -0.21921265
0.19285451 0.33410746 -0.21513748
0.2133956 0.33486032 -0.21106243
0.23400052 0.33561546 -0.20697486
-0.19195697 0.35556167 -0.208763
-0.17124683 0.35435712 -0.21502233
-0.15087524 0.35390931 -0.21734917
-0.13054039 0.35346472 -0.21965897
0.1320719 0.35391665 -0.21731079
0.15250179 0.35469955 -0.21324253
0.17299511 0.35548496 -0.20916152
-0.15149352 0.37612903 -0.2073096
-0.13108042 0.3756631 -0.20963705
-0.11070276 0.37519562 -0.21197343
-0.090361238 0.3747288 -0.21430552
-0.070056133 0.37426537 -0.2166208
-0.049786478 0.37380016 -0.21894479
-0.029552858 0.37333846 -0.22125173
0.071389757 0.37369317 -0.2194804
0.091708794 0.37450594 -0.21541893
0.11209135 0.37532389 -0.21133196
0.1325368 0.37614197 -0.20724523
-0.0094316071 0.39511442 -0.2135756
0.010807824 0.39463282 -0.21589208
0.031016439 0.39428228 -0.21757889
0.051287673 0.39512765 -0.21351147
-0.070365444 0.39656919 -0.20657563
-0.050018046 0.39608252 -0.20891738
-0.029706966 0.39559931 -0.21124208
0.071621828 0.39597571 -0.20943153
0.09201958 0.39682901 -0.20532584
0.010807824 0.41702086 -0.20584154
0.031093907 0.41665989 -0.20751548
-0.31588978 -0.028838761 -0.19030094
-0.29455858 -0.029203877 -0.19820416
0.2957257 -0.029242799 -0.19904625
0.31720129 -0.02879294 -0.18930984
-0.31562504 -0.0085360259 -0.1924504
-0.29431188 -0.0089610964 -0.20034099
0.2954928 -0.0090078712 -0.20120752
0.31694987 -0.0084840655 -0.19148684
-0.31536072 0.011733934 -0.19459629
-0.29406556 0.011248752 -0.202474
0.29526025 0.011193871 -0.20336509
0.31669888 0.011791527 -0.19366038
-0.31509525 0.031970099 -0.19675171
-0.29381964 0.031426057 -0.20460379
0.31644833 0.03203395 -0.19583046
-0.336218 0.052782357 -0.19099164
-0.31483179 0.052174389 -0.19889092
0.31619817 0.052243173 -0.19799674
-0.33593684 0.073013827 -0.19314003
-0.31456876 0.072345987 -0.20102644
0.31594843 0.072419465 -0.20015967
0.33748934 0.073243171 -0.19043136
-0.33565614 0.093212441 -0.19528496
-0.31430614 0.092485026 -0.2031585
0.31570056 0.092563823 -0.20230615
0.33722144 0.093459874 -0.19260669
-0.35683361 0.11416845 -0.18953156
-0.33537591 0.11337836 -0.19742632
0.31545165 0.11267428 -0.20446205
0.33695555 0.1136447 -0.19476533
-0.35677758 0.13454936 -0.18993592
-0.33528429 0.13366668 -0.19812632
0.33688197 0.13396455 -0.19536293
-0.31435704 0.15349175 -0.20274532
0.31575128 0.15359314 -0.20186675
-0.33574796 0.15443416 -0.1945833
0.33732247 0.15475719 -0.19178641
-0.33621117 0.17525579 -0.19104397
-0.31479031 0.17424764 -0.19922769
0.31616226 0.17436098 -0.19830787
-0.31522632 0.19506095 -0.19568753
-0.29390603 0.19399203 -0.20385563
0.2951059 0.19386877 -0.20479727
0.31657434 0.19518508 -0.19473934
-0.31566194 0.21592803 -0.19215095
-0.29431337 0.21479516 -0.20032787
0.2954886 0.21466793 -0.20124626
0.31698748 0.21606518 -0.19116116
-0.27347362 0.23446001 -0.204952
-0.29472181 0.23565371 -0.1967907
0.29587373 0.23552479 -0.19767272
-0.29512984 0.25656641 -0.19325733
-0.27385348 0.25530881 -0.20142722
0.27486217 0.2548871 -0.2041651
0.29625851 0.25643635 -0.19410241
-0.29554045 0.27753723 -0.18970108
-0.27423298 0.27621078 -0.19790602
0.27521768 0.27577335 -0.20061255
0.29664433 0.27740443 -0.19052255
-0.27461487 0.29717106 -0.1943624
-0.25341058 0.29578841 -0.20252585
0.27557549 0.296718 -0.19703722
-0.2749978 0.31818742 -0.19080925
-0.25376269 0.31673592 -0.19900739
0.25460869 0.31593472 -0.20353293
0.27593297 0.31771713 -0.19346523
-0.25455964 0.33855879 -0.19104397
-0.23327957 0.33682448 -0.20043147
0.25528786 0.33760971 -0.19618082
-0.23424065 0.3591674 -0.190027
-0.21302335 0.35735691 -0.19943476
0.19355302 0.35627526 -0.20505524
0.21417415 0.3570655 -0.20094895
0.23486069 0.35786068 -0.19681668
-0.19275282 0.37790734 -0.19842446
-0.17194362 0.37659836 -0.204965
0.15304588 0.37696236 -0.20314574
0.17361964 0.37778807 -0.1990205
0.19425692 0.37861359 -0.19489515
0.21495973 0.3794446 -0.19074404
-0.17264487 0.39900774 -0.19484341
-0.15211652 0.3985194 -0.19719291
-0.13162391 0.39802921 -0.19955122
-0.11116838 0.39754254 -0.20189261
-0.090748563 0.39705402 -0.20424259
0.11248054 0.39768225 -0.20122039
0.13300529 0.39853829 -0.19710207
0.15359485 0.39939958 -0.19295788
-0.13217227 0.42056996 -0.18937492
-0.11163757 0.42006153 -0.19173443
-0.091138855 0.41955107 -0.19410241
-0.070677131 0.41904444 -0.19645345
-0.050251398 0.41853571 -0.19881308
-0.029862255 0.41803068 -0.20115578
-0.0095091136 0.41752404 -0.20350695
0.051443093 0.41754347 -0.20341682
0.071855977 0.41843235 -0.1992923
0.092332356 0.41932142 -0.19516802
0.11287273 0.42021304 -0.19103086
-0.030018743 0.44063491 -0.19099164
-0.0095872181 0.44010586 -0.19336128
0.010807824 0.43958068 -0.19571364
0.031172074 0.43921292 -0.19736135
0.051599909 0.44013488 -0.19323123
-0.33763057 -0.048868544 -0.1801976
-0.31674147 -0.048991241 -0.18338597
-0.29626966 -0.048991241 -0.18338597
-0.27579781 -0.048991241 -0.18338597
-0.25532597 -0.048991241 -0.18338597
-0.23485415 -0.048991241 -0.18338597
-0.21438232 -0.048991241 -0.18338597
-0.19391048 -0.048991241 -0.18338597
-0.17343864 -0.048991241 -0.18338597
-0.15296681 -0.048991241 -0.18338597
-0.13249499 -0.048991241 -0.18338597
-0.11202316 -0.048991241 -0.18338597
-0.091551326 -0.048991241 -0.18338597
-0.071079493 -0.048991241 -0.18338597
-0.05060767 -0.048991241 -0.18338597
-0.030135836 -0.048991241 -0.18338597
-0.0096640037 -0.048991241 -0.18338597
0.010807824 -0.048991241 -0.18338597
0.031279653 -0.048991241 -0.18338597
0.051751483 -0.048991241 -0.18338597
0.072223321 -0.048991241 -0.18338597
0.092695147 -0.048991241 -0.18338597
0.11316698 -0.048991241 -0.18338597
0.13363881 -0.048991241 -0.18338597
0.15411064 -0.048991241 -0.18338597
0.17458247 -0.048991241 -0.18338597
0.19505429 -0.048991241 -0.18338597
0.21552613 -0.048991241 -0.18338597
0.23599797 -0.048991241 -0.18338597
0.25646979 -0.048991241 -0.18338597
0.2769416 -0.048991241 -0.18338597
0.29741344 -0.048991241 -0.18338597
0.31788677 -0.048990756 -0.18337297
0.3391062 -0.048757106 -0.17730439
-0.35893512 -0.028102763 -0.17436504
-0.33734715 -0.0284722 -0.18236339
0.33883563 -0.028339967 -0.17950118
-0.35863185 -0.0076793879 -0.17655373
-0.33706418 -0.0081090182 -0.18452585
0.33856547 -0.007956475 -0.18169427
-0.35833094 0.012711346 -0.17872548
-0.33678165 0.012221128 -0.18668449
0.33829576 0.012393624 -0.18388402
0.36005265 0.013000116 -0.17403519
-0.3580305 0.033068717 -0.18089366
-0.3364996 0.032518208 -0.18884003
0.33802652 0.032710165 -0.18607008
0.35976446 0.033391327 -0.17623758
-0.37950537 0.054077625 -0.17416716
-0.35773054 0.053393111 -0.18305838
0.33775774 0.052993298 -0.18825245
0.35947672 0.05374898 -0.17843604
-0.35743108 0.073684543 -0.18521965
-0.37916979 0.074426234 -0.17646146
0.35918948 0.074073106 -0.18063104
-0.37883481 0.094739616 -0.17875171
-0.35713211 0.09394294 -0.18737745
0.35890269 0.09436366 -0.18282247
-0.3785004 0.11501847 -0.18103814
0.35861638 0.11462085 -0.18501019
0.38043925 0.11560567 -0.17516983
-0.37848696 0.13549842 -0.18113005
0.35858727 0.13505612 -0.18523264
0.38045937 0.13615645 -0.17502475
-0.37903881 0.15642326 -0.17735696
-0.35727155 0.15538238 -0.18637085
0.35905892 0.15593006 -0.1816287
-0.37959415 0.17740916 -0.17356002
-0.35776505 0.17626984 -0.18280935
0.33776414 0.175606 -0.18820035
0.35953182 0.17686047 -0.17801487
-0.3582617 0.1972153 -0.17922521
-0.33667731 0.19613476 -0.18748176
0.33820707 0.19651122 -0.18460429
0.36000603 0.1978478 -0.17439139
-0.35875785 0.21821524 -0.1756444
-0.337143 0.21706818 -0.18392336
0.33865115 0.21747328 -0.18099868
-0.33761165 0.23805968 -0.18034208
-0.31610027 0.2368529 -0.18859196
0.31740177 0.237002 -0.18757331
0.33909646 0.23849244 -0.17738318
-0.33807987 0.2591058 -0.17676437
-0.31653821 0.25783217 -0.18503642
0.3178187 0.25799745 -0.18396258
0.33954296 0.25956869 -0.17375791
-0.33855107 0.28021055 -0.17316377
-0.31697893 0.27886987 -0.18145812
0.31823525 0.27904803 -0.18035519
-0.29595068 0.29856211 -0.18614852
0.29703119 0.29842919 -0.18693292
-0.31741923 0.29996175 -0.17788363
0.31865293 0.3001557 -0.17673802
-0.2963635 0.31964558 -0.18257332
0.2974205 0.31951332 -0.18332064
-0.27599287 0.34030801 -0.18157637
0.27682757 0.33976299 -0.18452597
-0.25560826 0.36098832 -0.18056536
0.25626415 0.36001712 -0.1856122
0.27789325 0.36227542 -0.17387676
-0.23520936 0.38168699 -0.17954051
-0.21390612 0.3797918 -0.18900955
0.2357264 0.38027549 -0.18659306
0.25724706 0.38260126 -0.17497182
-0.21479478 0.40240139 -0.17851496
-0.19355598 0.40043181 -0.18799126
0.17424822 0.40026093 -0.18881381
0.19496717 0.40112776 -0.18464363
0.21575035 0.40199441 -0.18047345
0.2366178 0.40291059 -0.17606616
-0.19436446 0.42313206 -0.17748857
-0.17335244 0.42159265 -0.18463063
-0.15274437 0.42108226 -0.18699825
0.133478 0.42111051 -0.18686771
0.15414737 0.4220078 -0.18270445
0.17488244 0.42291087 -0.17851496
0.19568205 0.42381388 -0.17432559
-0.13272488 0.44328517 -0.17911983
-0.11211039 0.44275439 -0.18149745
-0.091532156 0.44222158 -0.18388391
-0.070991218 0.44169265 -0.18625307
-0.050486542 0.44116181 -0.18863094
0.072091639 0.44105983 -0.18908799
0.092647962 0.44199061 -0.18491852
0.11326847 0.44292134 -0.18074918
-0.17406547 0.44435251 -0.17433882
-0.15337704 0.4438197 -0.17672479
0.13395377 0.44385505 -0.17656684
-0.091928512 0.46506763 -0.17358649
-0.071307734 0.46451646 -0.17597389
-0.050723508 0.46396297 -0.17837024
-0.030176435 0.46341348 -0.1807493
-0.0096659223 0.46286207 -0.18313718
0.010807824 0.46231461 -0.18550754
0.031250741 0.46193725 -0.18714201
0.051757742 0.46289837 -0.1829797
0.072329432 0.4638657 -0.17879117
0.09296561 0.46483296 -0.17460275
0.010807824 0.48522455 -0.1752224
0.031330124 0.48484093 -0.17683029
-0.38119185 -0.048192553 -0.16263652
-0.35923705 -0.04856012 -0.17218637
0.3609201 -0.048376121 -0.16740656
0.38289663 -0.047992356 -0.15743518
-0.38085338 -0.027667865 -0.16495061
0.36063045 -0.027883545 -0.1696198
0.38258767 -0.027423717 -0.15966475
-0.38051549 -0.0071786344 -0.16726077
0.36034131 -0.0074248016 -0.17182922
0.38227922 -0.0068892837 -0.16189086
-0.38017821 0.01327531 -0.16956675
0.3819713 0.013611153 -0.16411316
-0.37984148 0.033694088 -0.17186904
0.38166386 0.034077659 -0.16633189
-0.40254194 0.05532445 -0.15796947
0.38135695 0.054510236 -0.1685468
0.40340021 0.055277139 -0.15858388
-0.4021844 0.075795367 -0.16029167
0.38105056 0.074909016 -0.17075813
0.40307438 0.075751364 -0.16081178
-0.40182751 0.096230865 -0.16260993
0.38074467 0.09527421 -0.17296576
0.40274906 0.096191511 -0.16303575
-0.40147123 0.11663099 -0.16492391
0.40242431 0.11659782 -0.16525614
-0.40155515 0.13730372 -0.16437912
0.40250009 0.13726504 -0.16473806
-0.40214542 0.15836452 -0.16054511
0.38096258 0.15711187 -0.17139304
0.4030354 0.15830301 -0.16107833
0.38146716 0.17812453 -0.16775131
0.40357214 0.17939852 -0.15740836
-0.38014916 0.1984532 -0.16976547
0.38197312 0.19919465 -0.16409993
-0.38070768 0.21955906 -0.16594672
0.3604815 0.21889235 -0.17075801
0.3824805 0.2203223 -0.16043842
-0.38126585 0.24072324 -0.16213059
-0.35925719 0.23927377 -0.17204082
0.36095831 0.23999439 -0.16711485
-0.38182756 0.26195008 -0.15829003
-0.35975602 0.26038718 -0.16844082
0.3614364 0.26115382 -0.16346157
-0.36025804 0.28155982 -0.16481769
0.33999234 0.28070432 -0.17010975
0.36191753 0.28237331 -0.15978491
-0.36076146 0.30278993 -0.16118479
-0.3390218 0.30137026 -0.16956687
0.34044129 0.30189574 -0.16646457
-0.33981729 0.32302469 -0.16348815
-0.3180103 0.32132566 -0.17308462
0.319235 0.32157129 -0.17169702
0.34125906 0.32367343 -0.15982485
-0.31932011 0.34384161 -0.16245019
-0.29757816 0.34206718 -0.17205393
0.29855639 0.34193289 -0.17278099
0.32047808 0.34412199 -0.16093171
-0.27713025 0.36282474 -0.17102277
-0.29880708 0.36467445 -0.16141129
0.29971567 0.36455661 -0.16202402
-0.27827668 0.38552088 -0.16038489
-0.25666654 0.38359833 -0.1699903
0.27896881 0.3849718 -0.16312885
-0.25773191 0.40638608 -0.15934467
-0.23618698 0.40438795 -0.16895759
0.25823909 0.40537 -0.16423285
-0.23717117 0.42726731 -0.1583035
-0.21569163 0.42519373 -0.16792381
0.21654713 0.42471969 -0.17012286
0.23752642 0.42575163 -0.16533589
-0.2165945 0.44816494 -0.15726137
-0.1951804 0.44601554 -0.16688919
0.15470418 0.44479179 -0.17237103
0.17552082 0.4457342 -0.16814911
0.19640248 0.44667679 -0.16392696
0.21735117 0.4476254 -0.15967822
-0.17478405 0.46728933 -0.16396689
-0.15401465 0.46673393 -0.1663717
-0.13328177 0.46617645 -0.16878521
-0.11258687 0.46562308 -0.17118132
0.11366678 0.46580333 -0.17040086
0.13443387 0.46677983 -0.1661725
0.15526606 0.46775633 -0.16194427
0.17616418 0.46873599 -0.15770245
-0.13384299 0.48924619 -0.15837014
-0.11306705 0.48866999 -0.16078496
-0.092327952 0.48809159 -0.16320872
-0.071626708 0.48751718 -0.16561472
-0.050962303 0.48694104 -0.1680299
-0.030335352 0.48636883 -0.17042732
-0.0097452393 0.4857946 -0.17283368
0.051917002 0.48584199 -0.17263544
0.072568767 0.48684621 -0.16842747
0.093286142 0.48785669 -0.16419291
0.11406871 0.48886716 -0.15995836
0.03141002 0.50791985 -0.16645133
-0.051202971 0.51009804 -0.15760887
-0.030495506 0.50950295 -0.16002488
-0.0098251728 0.50890553 -0.16245008
0.010807824 0.50831234 -0.16485763
0.052077301 0.50896132 -0.1622237
0.072810285 0.51000917 -0.15796947
-0.38280857 -0.06848374 -0.15158296
-0.36209193 -0.06848374 -0.15158296
-0.34137526 -0.06848374 -0.15158296
-0.32065859 -0.06848374 -0.15158296
-0.29994196 -0.06848374 -0.15158296
-0.27922532 -0.06848374 -0.15158296
-0.25850865 -0.06848374 -0.15158296
-0.237792 -0.06848374 -0.15158296
-0.21707535 -0.06848374 -0.15158296
-0.1963587 -0.06848374 -0.15158296
-0.17564203 -0.06848374 -0.15158296
-0.15492538 -0.06848374 -0.15158296
-0.13420874 -0.06848374 -0.15158296
-0.11349209 -0.06848374 -0.15158296
-0.092775434 -0.06848374 -0.15158296
-0.072058775 -0.06848374 -0.15158296
-0.051342133 -0.06848374 -0.15158296
-0.030625276 -0.068484172 -0.15159631
-0.0099087255 -0.068484172 -0.15159631
0.010807824 -0.068484172 -0.15159631
0.031524375 -0.068484172 -0.15159631
0.052240923 -0.068484172 -0.15159631
0.072957471 -0.068484172 -0.15159631
0.093674026 -0.068484172 -0.15159631
0.11439057 -0.068484172 -0.15159631
0.13510649 -0.068484604 -0.15160978
0.15582293 -0.068484604 -0.15160978
0.17653939 -0.068484604 -0.15160978
0.19725583 -0.068484604 -0.15160978
0.21797226 -0.068484604 -0.15160978
0.23868872 -0.068484604 -0.15160978
0.25940517 -0.068484604 -0.15160978
0.28012159 -0.068484604 -0.15160978
0.30083659 -0.06848494 -0.15162325
0.32155293 -0.06848494 -0.15162325
0.3422693 -0.06848494 -0.15162325
0.36298564 -0.06848494 -0.15162325
0.38377821 -0.068468019 -0.15107274
-0.40433887 -0.047563687 -0.14629817
0.40503761 -0.047605671 -0.14738905
-0.40397823 -0.026914567 -0.14864051
0.40470904 -0.026960529 -0.14963543
-0.40361822 -0.0063012093 -0.1509788
0.40438101 -0.0063497573 -0.15187812
0.4266485 -0.0058060586 -0.14179039
-0.40325886 0.014276266 -0.15331316
0.40405354 0.014226839 -0.15411711
0.42630121 0.014846995 -0.14404619
-0.40290007 0.034818202 -0.15564334
0.40372661 0.034769088 -0.15635228
0.42595449 0.035465673 -0.14629805
-0.4258599 0.056586638 -0.14157403
0.42560837 0.056049898 -0.14854634
-0.42547989 0.077181369 -0.14392459
0.42526281 0.076599896 -0.15079069
-0.42510056 0.097740084 -0.14627111
0.42491782 0.097115576 -0.15303147
-0.42472404 0.11826463 -0.14860022
0.42457339 0.11759724 -0.15526855
-0.4249177 0.13913326 -0.14740252
0.42471153 0.13838218 -0.15437162
-0.42554319 0.16032888 -0.14353323
0.42527932 0.1595033 -0.15068352
-0.40273532 0.17948414 -0.15671337
0.42584872 0.18068238 -0.14698517
-0.40332901 0.20066597 -0.15285718
0.40411037 0.20055179 -0.1537286
0.42641971 0.2019196 -0.14327669
-0.40392232 0.22190668 -0.14900362
0.40465006 0.22176333 -0.1500386
-0.40451944 0.24321054 -0.14512539
0.38298923 0.24150778 -0.15676677
0.40519124 0.2430331 -0.14633858
-0.40511614 0.26457351 -0.14124954
0.38349938 0.26275134 -0.15308523
0.40573391 0.26436126 -0.14262831
-0.38238892 0.28323549 -0.15445185
0.38401091 0.28405327 -0.14939356
-0.38295388 0.30458426 -0.15058947
0.36239824 0.30364895 -0.15611148
0.38452575 0.30541593 -0.14567804
-0.38435161 0.32700056 -0.14103305
-0.36177978 0.32473379 -0.15383565
0.36347806 0.3257919 -0.14786017
-0.34121725 0.34562624 -0.15279019
0.34259692 0.34633332 -0.14896309
-0.36327282 0.34742385 -0.14306045
-0.34262848 0.36840886 -0.14200664
-0.32063878 0.36653495 -0.15174389
0.32173124 0.3668555 -0.15007889
-0.32196802 0.38941032 -0.14095199
-0.30004427 0.38745993 -0.15069675
0.30088291 0.38736045 -0.15119362
-0.27943376 0.40840125 -0.1496489
0.28005177 0.40784872 -0.15230739
-0.25880715 0.42935878 -0.14860022
0.25923792 0.42831981 -0.15342033
0.28114486 0.43091398 -0.14138484
-0.23816447 0.45033264 -0.14755058
0.23844124 0.4487741 -0.15453219
0.26024607 0.45145881 -0.14250672
-0.21750575 0.47132301 -0.14650011
-0.19600184 0.46907866 -0.15621853
0.19712946 0.46972185 -0.15343368
0.21816048 0.4707076 -0.1491648
0.23936464 0.47198641 -0.14362776
-0.17550823 0.49040508 -0.15351427
-0.15465721 0.48982662 -0.15593767
0.1349171 0.48988104 -0.15571022
0.15583235 0.49090105 -0.15143526
0.17681341 0.49192113 -0.14716017
-0.19683087 0.49232972 -0.14544904
0.19786125 0.49294472 -0.14287162
-0.1762381 0.51370192 -0.1429795
-0.15530479 0.51310015 -0.14542198
-0.13440862 0.51249629 -0.14787364
-0.113551 0.51189685 -0.1503073
-0.092730507 0.51129496 -0.15275002
-0.071948178 0.51069766 -0.15517485
0.093608782 0.51105732 -0.1537149
0.11447329 0.51210868 -0.14944744
0.13540475 0.51316649 -0.14515245
-0.40547669 -0.068093456 -0.13890767
0.40606222 -0.068138942 -0.1403836
0.42863524 -0.067784898 -0.12888598
-0.42776981 -0.046927191 -0.12975931
0.42736992 -0.047209874 -0.13710475
-0.42738652 -0.026151925 -0.13213062
0.4269985 -0.026493087 -0.13951731
-0.42700386 -0.0054130852 -0.13449764
-0.42662188 0.015289426 -0.13686049
-0.42624056 0.035956129 -0.13921928
0.44980922 0.036793053 -0.12713802
0.44941631 0.057510898 -0.12956846
-0.44946441 0.057864279 -0.12497711
-0.44906372 0.078585386 -0.12734294
0.44902417 0.078191549 -0.13199437
-0.44866142 0.099269345 -0.12971842
0.44863269 0.098835215 -0.13441598
-0.4482598 0.11991687 -0.13208973
0.44824186 0.11944215 -0.13683331
-0.44857594 0.14098479 -0.13022304
0.44851843 0.14045681 -0.13512266
-0.44924197 0.16231997 -0.12629044
0.44916728 0.1617635 -0.131109
-0.4261727 0.18158711 -0.13963914
0.44981363 0.18313016 -0.12711072
-0.4268018 0.20290501 -0.13574743
-0.42743495 0.22428633 -0.13183081
0.42699221 0.22321551 -0.13955796
-0.42806768 0.24572758 -0.12791669
0.42760608 0.24460788 -0.13557088
0.4282217 0.26606351 -0.13157213
-0.40571463 0.28599823 -0.13736248
0.4062781 0.28574842 -0.13890779
0.42883918 0.28758276 -0.12756169
-0.40643629 0.3076182 -0.13267493
0.40689927 0.30728179 -0.1346606
0.38589612 0.3279292 -0.1357882
-0.38604245 0.34993416 -0.12947297
0.36491224 0.3485617 -0.13690126
-0.36477789 0.37029636 -0.13219869
0.34394392 0.36917484 -0.13802683
0.3663581 0.37151778 -0.12585282
-0.34404925 0.39137226 -0.13115001
0.32299459 0.38977331 -0.13913798
0.34530357 0.39220518 -0.1269877
-0.30129141 0.41042823 -0.13989639
0.30206102 0.41035235 -0.14026189
-0.32330626 0.41246718 -0.13008654
0.32426667 0.41287553 -0.12812161
-0.30254701 0.43357873 -0.12902248
-0.28059864 0.43146253 -0.13884008
0.3032473 0.43352866 -0.12925446
-0.28177145 0.45470685 -0.1279577
-0.25988969 0.45251334 -0.13778293
0.28224549 0.45416445 -0.13038659
-0.26097956 0.4758513 -0.12689197
-0.23916453 0.47358054 -0.13672483
0.26126117 0.47478306 -0.13151765
-0.24017136 0.4970125 -0.12582541
-0.218422 0.49466085 -0.1356796
0.21897615 0.49397141 -0.138569
0.24029438 0.49538457 -0.13264775
0.15640236 0.51422465 -0.14085722
0.17746693 0.51528615 -0.13654852
-0.43059033 -0.08829353 -0.11231208
-0.40852112 -0.088451028 -0.11913359
-0.3875567 -0.088450737 -0.11911988
-0.36659014 -0.088450737 -0.11911988
-0.34562358 -0.088450737 -0.11911988
-0.32465702 -0.088450737 -0.11911988
-0.30369046 -0.088450737 -0.11911988
-0.28272393 -0.088450737 -0.11911988
-0.26175737 -0.088450737 -0.11911988
-0.2407908 -0.088450737 -0.11911988
-0.21982424 -0.088450737 -0.11911988
-0.19885769 -0.088450737 -0.11911988
-0.17789117 -0.088450737 -0.11911988
-0.15692459 -0.088450737 -0.11911988
-0.13595805 -0.088450737 -0.11911988
-0.11499149 -0.088450737 -0.11911988
-0.094024934 -0.088450737 -0.11911988
-0.073058382 -0.088450737 -0.11911988
-0.052091833 -0.088450737 -0.11911988
-0.031125281 -0.088450737 -0.11911988
-0.010158728 -0.088450737 -0.11911988
0.010807824 -0.088450737 -0.11911988
0.031774376 -0.088450737 -0.11911988
0.052740928 -0.088450737 -0.11911988
0.073707484 -0.088450737 -0.11911988
0.094674461 -0.088450305 -0.11910605
0.11564112 -0.088450305 -0.11910605
0.13660777 -0.088450305 -0.11910605
0.15757445 -0.088450305 -0.11910605
0.17854109 -0.088450305 -0.11910605
0.19950774 -0.088450305 -0.11910605
0.22047441 -0.088450305 -0.11910605
0.24144107 -0.088450305 -0.11910605
0.26240769 -0.088450305 -0.11910605
0.28337437 -0.088450305 -0.11910605
0.30434105 -0.088450305 -0.11910605
0.32530767 -0.088450305 -0.11910605
0.34627435 -0.088450305 -0.11910605
0.36724102 -0.088450305 -0.11910605
0.38820764 -0.088450305 -0.11910605
0.40917635 -0.088450067 -0.11909235
0.43014309 -0.088450067 -0.11909235
-0.4291456 -0.067549661 -0.12124896
-0.45160225 -0.046257198 -0.11235332
0.45145237 -0.046434969 -0.11697364
-0.45108348 -0.025379986 -0.115417
0.45099211 -0.025583446 -0.11982059
-0.4506776 -0.0045140982 -0.11781335
0.45059714 -0.0047539324 -0.12226427
-0.45027247 0.016315192 -0.1202054
0.45020282 0.016038209 -0.12470329
-0.44986811 0.037107944 -0.1225934
0.47366285 0.059038192 -0.10972595
-0.47293666 0.080005646 -0.11057019
0.47324598 0.079868674 -0.1121875
-0.47251084 0.10081585 -0.11297488
0.47282985 0.10066177 -0.11464489
-0.47208828 0.12159084 -0.11536169
0.47241446 0.12141715 -0.11709774
-0.47253776 0.14286004 -0.11282301
0.47284618 0.14267407 -0.11454821
-0.47324303 0.16433506 -0.10883987
0.47353396 0.16414471 -0.11048722
-0.44990754 0.18371539 -0.12236011
-0.45057508 0.20517279 -0.11841857
0.45046413 0.20456178 -0.12308681
-0.45124692 0.22669442 -0.11445177
0.45111653 0.22605719 -0.1190511
-0.45191833 0.24827684 -0.11048698
0.4517709 0.24761631 -0.11500347
-0.42870232 0.26723075 -0.12399113
0.45242718 0.26923954 -0.11094368
-0.42933872 0.28879607 -0.12005436
-0.43055016 0.31102455 -0.11256075
0.42983642 0.30958116 -0.12108421
-0.40822715 0.33053982 -0.12104285
0.40851793 0.3300882 -0.12359381
0.43169597 0.33267117 -0.10900605
-0.41003346 0.35365921 -0.10931087
0.38742828 0.35081029 -0.12473071
0.41014782 0.35307908 -0.11245012
-0.38774979 0.37306756 -0.11779952
0.38897306 0.37387919 -0.11358249
-0.36629322 0.39335114 -0.12126267
0.367814 0.3946591 -0.1147275
-0.36782274 0.41659552 -0.11022425
-0.3454833 0.4145239 -0.12019157
0.34667441 0.41542447 -0.11585784
-0.34692901 0.43786329 -0.10914445
-0.32465702 0.43571311 -0.11911988
0.32555073 0.43616992 -0.1170013
-0.30381435 0.45691913 -0.11804712
0.30444479 0.45689762 -0.11814344
-0.28295523 0.47814178 -0.11697364
0.28335649 0.47760803 -0.11928475
-0.26207969 0.49938136 -0.11589921
0.26228461 0.49829793 -0.12043893
-0.45465922 -0.087877564 -0.094302893
0.45443717 -0.087974764 -0.098509908
-0.45312572 -0.066998817 -0.10335779
0.45294198 -0.06713441 -0.10775912
-0.4758094 -0.045564055 -0.094344854
0.47604266 -0.045615152 -0.095674038
-0.47507441 -0.02459842 -0.098496079
0.47533795 -0.024660245 -0.099835038
-0.47464487 -0.0036039352 -0.10092211
0.47491804 -0.0036789328 -0.10231447
-0.47421607 0.01735355 -0.10334396
0.47449893 0.01726456 -0.1047895
-0.47378805 0.038274094 -0.10576165
0.4740805 0.038170323 -0.10725999
-0.47336322 0.059158877 -0.10816109
-0.49710894 0.081444949 -0.093574762
-0.4966591 0.10238297 -0.096009493
0.49738288 0.10251494 -0.094582796
-0.49621004 0.12328444 -0.09844017
0.49694222 0.12342127 -0.097071648
-0.49681157 0.14476089 -0.095184326
0.49754402 0.14492385 -0.093672872
-0.47394785 0.1858709 -0.10485888
0.47422379 0.18567933 -0.10641384
-0.47465721 0.20747165 -0.10085237
0.47491571 0.20727842 -0.10232842
-0.4753662 0.22913359 -0.096848249
0.47560966 0.22894202 -0.098230839
0.47630566 0.25067043 -0.094120979
-0.47607473 0.250857 -0.092846274
-0.45259175 0.26992178 -0.106511
-0.45326471 0.29162794 -0.10253716
0.45308542 0.29092717 -0.10687172
0.4546968 0.3136763 -0.096904159
-0.43245861 0.33413202 -0.10075486
0.43356997 0.3559643 -0.096834302
-0.41185752 0.37698126 -0.097462893
0.4117932 0.37626195 -0.10120082
-0.38946989 0.39639801 -0.10603929
0.39053053 0.397138 -0.10234237
-0.39120489 0.41993088 -0.094176888
0.36928371 0.41799372 -0.10349703
-0.36936277 0.4400261 -0.099109888
0.3480548 0.43883181 -0.10465062
-0.32601705 0.45914465 -0.10807776
0.32684377 0.45965248 -0.10580313
-0.34838465 0.46138978 -0.098021507
0.34944832 0.46243554 -0.093336582
-0.32738987 0.48277014 -0.096932054
-0.30509037 0.48044598 -0.10699654
0.30565059 0.4804557 -0.10695493
0.32814911 0.48333216 -0.094498873
-0.45620292 -0.10889491 -0.085187793
-0.4348636 -0.10890551 -0.085878015
-0.41364115 -0.10890551 -0.085878015
-0.39242077 -0.10890532 -0.085863948
-0.37119818 -0.10890532 -0.085863948
-0.34997565 -0.10890532 -0.085863948
-0.32875308 -0.10890532 -0.085863948
-0.30753052 -0.10890532 -0.085863948
-0.28630799 -0.10890532 -0.085863948
-0.26508543 -0.10890532 -0.085863948
-0.24386285 -0.10890532 -0.085863948
-0.22264029 -0.10890532 -0.085863948
-0.2014188 -0.10890512 -0.085849762
-0.18019614 -0.10890512 -0.085849762
-0.15897349 -0.10890512 -0.085849762
-0.13775082 -0.10890512 -0.085849762
-0.11652815 -0.10890512 -0.085849762
-0.095305488 -0.10890512 -0.085849762
-0.074082829 -0.10890512 -0.085849762
-0.052860495 -0.10890479 -0.085836053
-0.031637721 -0.10890479 -0.085836053
-0.010414948 -0.10890479 -0.085836053
0.010807824 -0.10890479 -0.085836053
0.032030597 -0.10890479 -0.085836053
0.053253368 -0.10890479 -0.085836053
0.074476473 -0.10890455 -0.085821867
0.095699355 -0.10890455 -0.085821867
0.11692224 -0.10890455 -0.085821867
0.13814512 -0.10890455 -0.085821867
0.15936875 -0.10890435 -0.085807681
0.18059175 -0.10890435 -0.085807681
0.20181473 -0.10890435 -0.085807681
0.22303772 -0.10890435 -0.085807681
0.24426071 -0.10890435 -0.085807681
0.26548368 -0.10890435 -0.085807681
0.28670669 -0.10890435 -0.085807681
0.30792966 -0.10890435 -0.085807681
0.32915264 -0.10890435 -0.085807681
0.35037565 -0.10890435 -0.085807681
0.37159863 -0.10890435 -0.085807681
0.39282161 -0.10890435 -0.085807681
0.41404465 -0.10890435 -0.085807681
0.4352676 -0.10890435 -0.085807681
0.45649061 -0.10890435 -0.085807681
0.47922122 -0.087475732 -0.076905608
-0.47742319 -0.066440545 -0.085230112
0.47762775 -0.06647405 -0.086314678
-0.49936759 -0.023806453 -0.081349611
0.50004387 -0.023723632 -0.079553843
-0.49891376 -0.0026815981 -0.083806276
0.49959835 -0.0025880784 -0.082070112
-0.49846071 0.018405765 -0.086258292
0.49915361 0.018509075 -0.084581614
-0.49800843 0.039455742 -0.088706136
0.49870974 0.039567739 -0.087088823
-0.49755698 0.060468331 -0.091149569
0.49826664 0.060588256 -0.089591503
0.49782437 0.08157061 -0.092089534
-0.52110666 0.10396855 -0.078846216
-0.52063572 0.12500022 -0.081293106
0.52185404 0.12546639 -0.076636076
-0.52139837 0.14668499 -0.077330589
-0.49755442 0.16637607 -0.091163635
0.49827662 0.16656409 -0.089535117
-0.49830204 0.18805628 -0.087116838
0.49900892 0.18826772 -0.085399151
-0.49904668 0.20979653 -0.08308661
0.49974343 0.21003683 -0.081250787
-0.49979609 0.23160253 -0.079030156
0.50048018 0.23187141 -0.077089787
-0.47678787 0.27264589 -0.08881855
0.47700381 0.27246422 -0.089998484
-0.47773278 0.29470837 -0.083481789
0.47790214 0.29451245 -0.084694505
-0.45502463 0.31448209 -0.092145443
-0.45705408 0.33777797 -0.080162168
0.45668194 0.33698791 -0.084624052
-0.43438599 0.3574425 -0.088832736
-0.43632784 0.38095397 -0.076820374
0.43546286 0.37946832 -0.084539294
-0.41369537 0.4005037 -0.08552599
0.41345218 0.39963681 -0.089858174
0.39210087 0.42058921 -0.091009378
0.41512495 0.42320549 -0.078421474
-0.39295503 0.4436686 -0.082211256
0.37076557 0.44152129 -0.092173457
0.3936823 0.44423211 -0.079596281
-0.37091738 0.46365142 -0.087890744
0.37225789 0.46524096 -0.080770016
-0.34985402 0.48511171 -0.086793184
-0.48068315 -0.10861209 -0.06681776
0.48082569 -0.10862148 -0.067431688
-0.47904778 -0.087456122 -0.076054573
-0.50204444 -0.065874986 -0.066860795
0.50270367 -0.065803237 -0.064531207
-0.50033802 -0.044861712 -0.076097131
0.50102031 -0.044782393 -0.074038863
-0.52396345 -0.023005277 -0.064001918
-0.52348471 -0.0017484725 -0.066489458
0.5246433 -0.001481697 -0.061538696
-0.52300686 0.019470379 -0.068972468
0.52417237 0.019771129 -0.064087749
-0.52252984 0.040651128 -0.071451068
0.52370489 0.040986091 -0.066617966
-0.52205646 0.061795384 -0.073910952
0.52323568 0.062161267 -0.069157839
-0.52158111 0.082900673 -0.07638073
0.52276731 0.083297774 -0.071693063
-0.54586452 0.10557531 -0.061452627
0.52229977 0.10439558 -0.074223638
-0.54548323 0.12679516 -0.063357949
0.52262533 0.14720981 -0.072461247
-0.52218229 0.16844366 -0.073257208
0.523399 0.16901909 -0.068273544
-0.52296847 0.19026639 -0.069172025
0.52417767 0.19089614 -0.064059138
-0.52375698 0.21215381 -0.065074682
-0.52454787 0.23410575 -0.060965061
-0.50054771 0.25347281 -0.07496202
0.50121903 0.25377202 -0.07291615
-0.50130153 0.27540743 -0.070881724
0.50196022 0.27573866 -0.068730116
-0.50282651 0.29807955 -0.062627554
-0.47986791 0.31799161 -0.071422577
0.48000279 0.31784469 -0.072290421
-0.4591037 0.36128032 -0.068059683
0.45868728 0.36051184 -0.072219253
-0.43828675 0.40467137 -0.064702749
0.4373728 0.403184 -0.072134018
-0.41554922 0.42423165 -0.073484659
-0.41742155 0.44817078 -0.061323762
0.41681165 0.44697106 -0.066889167
-0.39472249 0.46761698 -0.070126772
0.3952789 0.46807528 -0.068073988
-0.48334971 -0.1298652 -0.051757216
-0.46186462 -0.1298652 -0.051757216
-0.4403795 -0.1298652 -0.051757216
-0.41889441 -0.1298652 -0.051757216
-0.39741138 -0.12986515 -0.051742673
-0.37592617 -0.12986515 -0.051742673
-0.35444096 -0.12986515 -0.051742673
-0.33295575 -0.12986515 -0.051742673
-0.31147051 -0.12986515 -0.051742673
-0.2899853 -0.12986515 -0.051742673
-0.26850149 -0.12986511 -0.051728368
-0.24701618 -0.12986511 -0.051728368
-0.22553083 -0.12986511 -0.051728368
-0.2040455 -0.12986511 -0.051728368
-0.18256018 -0.12986511 -0.051728368
-0.16107483 -0.12986511 -0.051728368
-0.13959028 -0.12986492 -0.051713943
-0.11810485 -0.12986492 -0.051713943
-0.096620508 -0.12986468 -0.051684976
-0.075134836 -0.12986468 -0.051684976
-0.053649176 -0.12986468 -0.051684976
-0.032163508 -0.12986468 -0.051684976
-0.010677841 -0.12986468 -0.051684976
0.010807824 -0.12986468 -0.051684976
0.032293491 -0.12986468 -0.051684976
0.053779155 -0.12986468 -0.051684976
0.075264826 -0.12986468 -0.051684976
0.09675049 -0.12986468 -0.051684976
0.11823616 -0.12986468 -0.051684976
0.13972183 -0.12986468 -0.051684976
0.1612075 -0.12986468 -0.051684976
0.18269317 -0.12986468 -0.051684976
0.20417883 -0.12986468 -0.051684976
0.2256645 -0.12986468 -0.051684976
0.24715015 -0.12986468 -0.051684976
0.26863581 -0.12986468 -0.051684976
0.29012147 -0.12986468 -0.051684976
0.31160715 -0.12986468 -0.051684976
0.33309281 -0.12986468 -0.051684976
0.35457847 -0.12986468 -0.051684976
0.37606415 -0.12986468 -0.051684976
0.39754981 -0.12986468 -0.051684976
0.41903549 -0.12986468 -0.051684976
0.44052115 -0.12986468 -0.051684976
0.46200681 -0.12986468 -0.051684976
0.48349246 -0.12986468 -0.051684976
-0.50549442 -0.10832514 -0.048187137
0.50610018 -0.10828152 -0.04534781
-0.5037623 -0.087029129 -0.057562351
0.50439608 -0.086969316 -0.05497241
-0.5269959 -0.065301858 -0.048245072
-0.52519166 -0.044150449 -0.057619929
0.52639449 -0.043936498 -0.052060246
0.52511513 -0.022773489 -0.058984756
-0.5489167 -0.02218321 -0.046202898
-0.54836613 -0.00080356002 -0.048953891
-0.54786575 0.020549297 -0.051453948
-0.54736334 0.041862696 -0.053964138
0.54907417 0.042425618 -0.04584074
-0.54686189 0.063137859 -0.05646944
0.54857808 0.063757762 -0.04841876
-0.54636133 0.08437492 -0.058970451
0.54808283 0.085050657 -0.050991893
0.54759133 0.10630573 -0.053545952
0.54727799 0.12761407 -0.055174112
-0.54630673 0.14863445 -0.059243321
0.54809397 0.14952983 -0.050934076
-0.54713267 0.17053826 -0.055116534
0.54891521 0.17151411 -0.046666741
-0.54796112 0.19250743 -0.050977468
-0.54882681 0.21456455 -0.046652198
0.52495599 0.21283801 -0.059846163
0.52573669 0.23484643 -0.055620551
-0.52534109 0.25612283 -0.0568434
0.52651983 0.25692165 -0.051381826
-0.52613389 0.27820295 -0.052723885
0.52730531 0.27906412 -0.047130227
0.50353068 0.29852694 -0.059860468
-0.50508833 0.3215543 -0.050385237
0.50576663 0.32208848 -0.047231674
-0.48202428 0.34148169 -0.059243321
0.48212004 0.34138513 -0.059788704
-0.48419714 0.36517662 -0.046970963
0.48425895 0.36514175 -0.047159195
-0.46116889 0.38498676 -0.055865169
0.46071067 0.38424832 -0.059702516
0.46275249 0.40820026 -0.047072291
0.43929997 0.42711413 -0.059616566
-0.44026753 0.42860365 -0.052449822
0.44124469 0.45126116 -0.046985388
-0.50723821 -0.12976512 -0.038748503
0.50781608 -0.12974125 -0.035656214
-0.53064096 -0.1080345 -0.029304624
-0.52881229 -0.086595953 -0.038806796
0.52997339 -0.08645466 -0.032688975
0.52817637 -0.065122269 -0.04241538
-0.55064213 -0.043379188 -0.037582517
0.55217475 -0.043076947 -0.029729962
0.5505653 -0.02180855 -0.038092852
0.55006641 -0.00035792589 -0.040684938
0.54956841 0.021053031 -0.043272495
0.57377952 0.086830005 -0.029979229
-0.57397515 0.10855325 -0.029216647
0.57326061 0.10824309 -0.032571793
-0.5738166 0.13013555 -0.029979229
0.57310247 0.12979706 -0.033361912
0.57396442 0.15188782 -0.029055357
0.5497362 0.19356389 -0.042400837
0.5505597 0.215681 -0.038121939
-0.54977083 0.23674239 -0.041935682
0.5513885 0.23786782 -0.033815145
-0.55071801 0.25899541 -0.037203074
0.55221707 0.26012069 -0.029509902
-0.5521639 0.28170478 -0.029979229
-0.52830243 0.30150229 -0.041455865
0.52962488 0.30261463 -0.034575224
-0.53070021 0.32517672 -0.028996587
-0.50737554 0.34524196 -0.038005233
0.5080204 0.34586215 -0.034502149
-0.48639444 0.38908684 -0.03456068
0.48641732 0.38911492 -0.034414649
-0.46325728 0.40890855 -0.043533921
-0.46536422 0.43304259 -0.031093001
0.46481287 0.43237054 -0.034326911
-0.44226351 0.45274466 -0.040102959
-0.51129675 -0.15135042 -0.016780972
-0.35902208 -0.15135038 -0.016736627
-0.48954499 -0.15135033 -0.01676631
-0.46779057 -0.15135033 -0.01676631
-0.44603607 -0.15135033 -0.01676631
-0.42428163 -0.15135033 -0.01676631
-0.40252712 -0.15135033 -0.01676631
-0.38077265 -0.15135033 -0.01676631
-0.337271 -0.15135033 -0.016707063
-0.31551608 -0.15135033 -0.016707063
-0.29376116 -0.15135033 -0.016707063
-0.27200624 -0.15135033 -0.016707063
-0.25025132 -0.15135033 -0.016707063
-0.22849637 -0.15135033 -0.016707063
-0.20674144 -0.15135033 -0.016707063
-0.1849865 -0.15135033 -0.016707063
-0.1632316 -0.15135033 -0.016707063
-0.14147666 -0.15135033 -0.016707063
-0.11972174 -0.15135033 -0.016707063
-0.097966805 -0.15135033 -0.016707063
-0.076211877 -0.15135033 -0.016707063
-0.05445696 -0.15135033 -0.016707063
-0.032702029 -0.15135033 -0.016707063
-0.0109471 -0.15135033 -0.016707063
0.010807824 -0.15135033 -0.016707063
0.032562748 -0.15135033 -0.016707063
0.054317676 -0.15135033 -0.016707063
0.076072611 -0.15135033 -0.016707063
0.097827531 -0.15135033 -0.016707063
0.11958246 -0.15135033 -0.016707063
0.14133739 -0.15135033 -0.016707063
0.16309232 -0.15135033 -0.016707063
0.18484725 -0.15135033 -0.016707063
0.20660216 -0.15135033 -0.016707063
0.22835709 -0.15135033 -0.016707063
0.25011203 -0.15135033 -0.016707063
0.27186695 -0.15135033 -0.016707063
0.29362187 -0.15135033 -0.016707063
0.31537679 -0.15135033 -0.016707063
0.33713171 -0.15135033 -0.016707063
0.35888663 -0.15135033 -0.016707063
0.38064155 -0.15135033 -0.016707063
0.40239647 -0.15135033 -0.016707063
0.42415142 -0.15135033 -0.016707063
0.44590634 -0.15135033 -0.016707063
0.46766129 -0.15135033 -0.016707063
0.48941621 -0.15135033 -0.016707063
0.5111711 -0.15135033 -0.016707063
-0.53247923 -0.1296189 -0.019752622
0.5336023 -0.12956724 -0.013046741
0.53178287 -0.10793577 -0.022894621
-0.55498028 -0.086067058 -0.015907645
-0.55280137 -0.06464126 -0.026794195
0.55406076 -0.064429991 -0.019929767
0.57640034 -0.020829037 -0.016884565
-0.57697535 0.0010378063 -0.014781833
0.57587367 0.0007827878 -0.01951623
-0.57637227 0.022628978 -0.017683625
0.57535082 0.022355154 -0.022128224
-0.57577348 0.044176772 -0.020564556
0.57482612 0.043886721 -0.024750113
-0.57517278 0.065679461 -0.023454428
0.57430232 0.065378234 -0.027367115
-0.5745734 0.08713834 -0.026338458
-0.57480562 0.15230118 -0.02522099
-0.57580107 0.17454343 -0.020431757
0.57482904 0.17404644 -0.024735332
-0.57679987 0.19686155 -0.015626192
0.57569629 0.19627334 -0.020402074
0.57656926 0.21857052 -0.016040921
0.55370295 0.2829656 -0.021789074
-0.55507517 0.30570894 -0.015433669
0.53200072 0.3264097 -0.021715283
-0.53311944 0.34906274 -0.016425848
-0.50968313 0.36914062 -0.025515079
0.51029748 0.36985624 -0.021641731
-0.51200861 0.39325011 -0.012928009
-0.48861131 0.41321033 -0.022039771
0.48859549 0.41330785 -0.021553159
-0.53433293 -0.15135038 -0.010120511
0.53543168 -0.15135038 -0.0031447411
-0.55717611 -0.10765936 -0.0049365759
0.55787539 -0.10758493 -0.00010812283
0.55596286 -0.085931808 -0.010046124
0.58036417 -0.063726351 0.0029197931
-0.57992256 -0.041955851 -0.00060212612
0.57837087 -0.042203546 -0.0070393085
-0.57763529 -0.020585224 -0.011606693
0.60242617 0.067767471 0.0036703348
0.60178089 0.089416474 0.00056576729
0.601134 0.11101674 -0.0025469065
0.60123652 0.13293006 -0.0020534992
0.60231388 0.15535645 0.0031299591
-0.57779896 0.21925397 -0.010819197
-0.57880461 0.24172448 -0.0059808493
0.57744187 0.24093471 -0.011680961
-0.57981986 0.26427662 -0.0010961294
0.57831722 0.26336801 -0.0073075294
0.55619764 0.306777 -0.0088264942
-0.55801666 0.32996273 -0.00073695183
0.53439575 0.35042149 -0.0087518692
-0.53556043 0.37316316 -0.0037424564
0.51259542 0.39407092 -0.0086625814
-0.51435775 0.41757905 -0.00021290779
-0.49084806 0.43755001 -0.009406805
0.49079368 0.43772322 -0.0085732937
-0.53996772 -0.17338142 0.019158721
-0.51793671 -0.17338142 0.019158721
-0.49590564 -0.17338142 0.019158721
-0.47387466 -0.17338142 0.019158721
-0.45184362 -0.17338142 0.019158721
-0.42981264 -0.17338142 0.019158721
-0.4077816 -0.17338142 0.019158721
-0.38575056 -0.17338142 0.019158721
-0.36371955 -0.17338142 0.019158721
-0.34168854 -0.17338142 0.019158721
-0.3196575 -0.17338142 0.019158721
-0.29762647 -0.17338142 0.019158721
-0.27559546 -0.17338142 0.019158721
-0.25356445 -0.17338142 0.019158721
-0.23153341 -0.17338142 0.019158721
-0.2095024 -0.17338142 0.019158721
-0.18747136 -0.17338142 0.019158721
-0.16544035 -0.17338142 0.019158721
-0.14340931 -0.17338142 0.019158721
-0.1213783 -0.17338142 0.019158721
-0.099347286 -0.17338142 0.019158721
-0.077316262 -0.17338142 0.019158721
-0.055285241 -0.17338142 0.019158721
-0.033254221 -0.17338142 0.019158721
-0.011223198 -0.17338142 0.019158721
0.010807824 -0.17338142 0.019158721
0.032838847 -0.17338142 0.019158721
0.054869868 -0.17338142 0.019158721
0.076900892 -0.17338142 0.019158721
0.098931916 -0.17338142 0.019158721
0.12096294 -0.17338142 0.019158721
0.14299396 -0.17338142 0.019158721
0.16502497 -0.17338142 0.019158721
0.18705601 -0.17338142 0.019158721
0.20908701 -0.17338142 0.019158721
0.23111805 -0.17338142 0.019158721
0.25314906 -0.17338142 0.019158721
0.27518007 -0.17338142 0.019158721
0.29721108 -0.17338142 0.019158721
0.31924209 -0.17338142 0.019158721
0.34127313 -0.17338142 0.019158721
0.36330417 -0.17338142 0.019158721
0.38533518 -0.17338142 0.019158721
0.40736619 -0.17338142 0.019158721
0.42939723 -0.17338142 0.019158721
0.45142826 -0.17338142 0.019158721
0.47345924 -0.17338142 0.019158721
0.49549028 -0.17338142 0.019158721
0.51752126 -0.17338142 0.019158721
0.53955233 -0.17338142 0.019158721
-0.56161928 -0.15135033 0.017262578
-0.559389 -0.12941974 0.0061197281
0.55980438 -0.12939052 0.009914875
0.58237457 -0.085400373 0.012964368
-0.58222759 -0.063493326 0.010488153
0.60552555 -0.019190878 0.018581986
0.60437363 0.0025371164 0.013040066
-0.6056717 0.024786606 0.017353654
0.60372406 0.024328455 0.009914875
-0.60503197 0.046598047 0.0143857
0.60307288 0.046071351 0.0067816973
-0.60439682 0.068365619 0.011438727
-0.60375649 0.0900857 0.0084679127
-0.60311741 0.11176048 0.0055034161
-0.60328275 0.133763 0.0062702894
-0.60433829 0.15622254 0.011167169
-0.6053974 0.1787595 0.016080856
0.60339522 0.17786483 0.0083323717
0.60447729 0.2004538 0.013538718
0.60556656 0.22312732 0.018779278
-0.58276117 0.28833026 0.013054967
0.58061957 0.28696644 0.0041960478
0.58326221 0.31101662 0.017399311
0.5587182 0.33081067 0.0042710304
-0.5609889 0.35446984 0.014113307
0.56125933 0.35506505 0.017475009
0.5368129 0.37465471 0.0043312311
-0.53802049 0.39747804 0.0090404749
0.53925526 0.39911586 0.017550707
0.51491463 0.41850942 0.0044362545
-0.5649116 -0.17349343 0.033712149
0.56463802 -0.17350355 0.035031319
0.56174409 -0.15135033 0.019993782
0.58643514 -0.12921083 0.033252358
-0.58688897 -0.10707656 0.032915235
0.58439618 -0.10722815 0.023064852
-0.58455074 -0.085199453 0.021665335
0.60801768 -0.040755913 0.030572295
-0.60754961 -0.01884526 0.026066065
-0.60631275 0.0029297918 0.020327926
-0.60645688 0.2013724 0.020996571
-0.6075266 0.22406693 0.025959253
-0.6086067 0.2468446 0.030970097
0.60665977 0.24588419 0.024039149
0.60886157 0.2695024 0.034632444
-0.58587778 0.31273842 0.028050303
0.58593249 0.33529347 0.030740619
-0.56399244 0.37923443 0.029119611
0.56382406 0.37954515 0.030801773
0.58852577 -0.15135038 0.043697596
-0.58924884 -0.12912609 0.044269204
-0.61244011 -0.06231495 0.04875505
0.61053079 -0.062502541 0.042663574
-0.60998523 -0.040494457 0.037366033
-0.63502777 0.04908137 0.050227761
0.63445008 0.049105987 0.050584674
-0.63434637 0.071116626 0.047175765
0.63375866 0.071132064 0.047376871
-0.633663 0.093104005 0.044114709
0.63306886 0.093109369 0.04417634
-0.63298452 0.11504643 0.041075468
0.63237721 0.11503656 0.040967464
-0.63352168 0.13748707 0.043481588
0.6329357 0.1374947 0.043558598
-0.63464367 0.16024689 0.048507333
0.63408583 0.16028862 0.048894525
-0.61101407 0.27060032 0.042139173
0.61225778 0.29416811 0.050972462
-0.5890274 0.33740425 0.043203831
0.58869272 0.35985559 0.044531584
-0.56702453 0.40425766 0.044269085
0.56641579 0.40425766 0.044269085
-0.56950825 -0.19599006 0.056678414
-0.54705358 -0.19597931 0.055977702
-0.52473909 -0.19597931 0.055977702
-0.5024246 -0.19597931 0.055977702
-0.48010755 -0.19597903 0.055961967
-0.45779318 -0.19597903 0.055961967
-0.4354789 -0.19597903 0.055961967
-0.41316456 -0.19597903 0.055961967
-0.39085019 -0.19597903 0.055961967
-0.36853588 -0.19597903 0.055961967
-0.34622154 -0.19597903 0.055961967
-0.3239072 -0.19597903 0.055961967
-0.30159286 -0.19597903 0.055961967
-0.27927855 -0.19597903 0.055961967
-0.25696418 -0.19597903 0.055961967
-0.23464985 -0.19597903 0.055961967
-0.21233553 -0.19597903 0.055961967
-0.19002117 -0.19597903 0.055961967
-0.16770685 -0.19597903 0.055961967
-0.14539251 -0.19597903 0.055961967
-0.12307817 -0.19597903 0.055961967
-0.10076385 -0.19597903 0.055961967
-0.07844951 -0.19597903 0.055961967
-0.056135174 -0.19597903 0.055961967
-0.033820845 -0.19597903 0.055961967
-0.01150651 -0.19597903 0.055961967
0.010807824 -0.19597903 0.055961967
0.03312216 -0.19597903 0.055961967
0.055436492 -0.19597903 0.055961967
0.077750824 -0.19597903 0.055961967
0.10006516 -0.19597903 0.055961967
0.1223795 -0.19597903 0.055961967
0.14469382 -0.19597903 0.055961967
0.16700816 -0.19597903 0.055961967
0.1893225 -0.19597903 0.055961967
0.21163683 -0.19597903 0.055961967
0.23395118 -0.19597903 0.055961967
0.25626549 -0.19597903 0.055961967
0.2785798 -0.19597903 0.055961967
0.30089417 -0.19597903 0.055961967
0.32320848 -0.19597903 0.055961967
0.34552282 -0.19597903 0.055961967
