ply
format ascii 1.0
comment PCL generated
element vertex 1376
property float x
property float y
property float z
element camera 0
property float view_px
property float view_py
property float view_pz
property float x_axisx
property float x_axisy
property float x_axisz
property float y_axisx
property float y_axisy
property float y_axisz
property float z_axisx
property float z_axisy
property float z_axisz
property float focal
property float scalex
property float scaley
property float centerx
property float centery
property int viewportx
property int viewporty
property float k1
property float k2
end_header
-0.08045166 0.55570269 -0.6650852
0.085573077 0.5557068 -0.66505539
0.10947957 0.55655515 -0.65893245
0.13348186 0.55740911 -0.6527698
-0.67723119 0.2003337 -0.64789975
0.68227446 0.20033957 -0.64764535
-0.65570474 0.24844861 -0.63711953
0.66063529 0.24845321 -0.63699901
-0.63089609 0.27218711 -0.64133251
0.63585806 0.27219266 -0.64121234
-0.6061576 0.29586196 -0.64551902
0.61115086 0.29586852 -0.64539897
-0.48786464 0.41580296 -0.63903177
0.49281496 0.41582108 -0.63883626
-0.41614315 0.46366554 -0.63879108
0.42107329 0.46367508 -0.63870072
-0.36877805 0.48803103 -0.63493359
0.3736771 0.48804146 -0.63484287
-0.32129517 0.51245719 -0.63106632
0.32616308 0.51246834 -0.63097548
-0.24788913 0.53416932 -0.64839339
0.25288829 0.53418112 -0.64830351
-0.20118044 0.55998307 -0.6341939
-0.1768418 0.55912083 -0.64041579
-0.15259942 0.55826008 -0.64662755
0.15757945 0.55826432 -0.6465975
0.18177342 0.55912316 -0.64040065
0.20606525 0.55998725 -0.63416386
-0.05754333 0.58454651 -0.63003719
-0.033459529 0.58363193 -0.63629079
-0.0094723217 0.58272302 -0.64250422
0.01441923 0.58272302 -0.64250422
0.038358726 0.58363408 -0.63627553
0.062394269 0.58454651 -0.63003719
-0.75715756 0.056448258 -0.61389589
-0.73305309 0.056447521 -0.61386514
-0.70893753 0.056447916 -0.61388052
-0.68482226 0.056448258 -0.61389589
0.68954897 0.056448258 -0.61389589
0.71366417 0.056447916 -0.61388052
0.73777962 0.056447521 -0.61386514
0.76188427 0.056448258 -0.61389589
-0.75372607 0.080774598 -0.62782621
0.75862151 0.080770612 -0.62756848
-0.73122925 0.12878363 -0.62150812
0.73606372 0.12878363 -0.62129521
-0.70863748 0.17698748 -0.61517978
0.71341503 0.17699027 -0.61499643
-0.63665271 0.29758009 -0.61363578
0.64140499 0.29758751 -0.61349821
-0.61168605 0.3214314 -0.61789727
0.61646706 0.32143891 -0.61777532
-0.58678716 0.345218 -0.62214744
0.59159988 0.34522638 -0.62202561
-0.56405717 0.36981553 -0.61501169
0.56882769 0.36983085 -0.61481309
-0.4659214 0.44100499 -0.62620342
0.47077167 0.4410249 -0.62600636
-0.44379845 0.46641785 -0.61325347
0.44854566 0.46643752 -0.61306989
-0.395531 0.49050432 -0.61351347
0.40026417 0.49051327 -0.61343694
-0.27369547 0.53694606 -0.62717426
0.27853209 0.5369581 -0.6270833
-0.2259779 0.56149846 -0.62325716
0.23078188 0.56150889 -0.62318134
-0.13037798 0.58730823 -0.61115611
-0.10600149 0.58638239 -0.61748552
-0.081723705 0.58546257 -0.62377393
0.086526781 0.58546478 -0.62375891
0.11075627 0.58638465 -0.61747026
0.13508415 0.58731031 -0.61114085
-0.7861315 0.05600632 -0.59475613
0.79077959 0.055999883 -0.59447742
-0.68593699 0.22538443 -0.60890269
0.69067484 0.22539161 -0.6086725
-0.66314852 0.27397671 -0.60258472
0.66784257 0.2739889 -0.60232306
-0.54225791 0.39502054 -0.6019994
0.54692441 0.39503628 -0.60181451
-0.42265278 0.49301028 -0.59181201
0.4272216 0.49302113 -0.59171903
-0.34775427 0.51510215 -0.6095928
0.35245609 0.51511157 -0.60951626
-0.29985934 0.53976327 -0.60564697
0.30452964 0.53977334 -0.60557008
-0.25184378 0.5644868 -0.60169125
0.25648245 0.56449753 -0.601614
-0.20410064 0.59010327 -0.59204471
-0.1794261 0.58916628 -0.59845138
-0.15485245 0.58823532 -0.60481668
0.15950994 0.58823758 -0.60480118
0.18403557 0.58917075 -0.5984205
0.20866007 0.59010577 -0.59202921
-0.0098197646 0.61356348 -0.59736979
0.01441923 0.61356348 -0.59736979
-0.79177469 0.031063162 -0.57254183
-0.76734072 0.031063676 -0.57255757
-0.74290699 0.03106425 -0.5725733
-0.71847343 0.031064644 -0.57258892
0.72288221 0.031064644 -0.57258892
0.74731559 0.03106425 -0.5725733
0.77174926 0.031063676 -0.57255757
0.79618311 0.031063162 -0.57254183
-0.76346582 0.10447467 -0.58828759
0.76804733 0.10447307 -0.58806992
-0.74070305 0.15314245 -0.58180845
0.74522251 0.1531437 -0.58163667
-0.71783596 0.20200914 -0.57534945
0.7223044 0.20201313 -0.57517707
-0.6425162 0.32343113 -0.58542514
0.64704871 0.32343885 -0.58530056
-0.61979133 0.3483181 -0.57740092
0.62427324 0.34833103 -0.57721317
-0.5202741 0.42043453 -0.58889389
0.52484101 0.42045319 -0.58869183
-0.49811128 0.44606447 -0.57564712
0.50257492 0.4460848 -0.57544327
-0.37457883 0.51778173 -0.58783674
0.37911567 0.5177933 -0.58774352
-0.32638523 0.54261768 -0.58383608
0.33088833 0.54262781 -0.583758
-0.27806941 0.56751668 -0.57982516
0.28254044 0.56752753 -0.57974684
-0.22963086 0.59247881 -0.57580364
0.23406975 0.5924902 -0.57572544
-0.058849387 0.61724114 -0.57348359
-0.034241937 0.61539519 -0.58547187
0.038749695 0.61539304 -0.58548737
0.063264728 0.61723876 -0.5734992
-0.81923169 0.030707099 -0.56097686
0.82362336 0.030698262 -0.56069207
-0.79639119 0.079643652 -0.55436909
0.80071831 0.079639897 -0.55413079
-0.69486469 0.25107396 -0.56891119
0.6992926 0.25108251 -0.56869102
-0.67180341 0.30033931 -0.5624311
0.67618978 0.30035377 -0.56216252
-0.59796041 0.37373549 -0.56408906
0.60234165 0.37375134 -0.56388402
-0.47576168 0.47191048 -0.562289
0.48012114 0.47193247 -0.56208348
-0.4017781 0.52049875 -0.56577718
0.40614599 0.52051038 -0.56568229
-0.35328218 0.54551184 -0.56172001
0.35761571 0.54552221 -0.5616411
-0.30466235 0.57058889 -0.55765259
0.30896336 0.57059991 -0.55757332
-0.083644211 0.61910087 -0.56140375
0.087966077 0.61909592 -0.56143546
0.77771878 0.12878363 -0.54754233
-0.77345175 0.12878369 -0.54774976
-0.75042087 0.17812817 -0.54108679
0.75462776 0.17813089 -0.5409106
-0.72727144 0.22767574 -0.53449249
0.73143715 0.22768268 -0.53426743
-0.57594836 0.39936888 -0.55064917
0.58022487 0.39938641 -0.5504421
-0.5537495 0.4252196 -0.53709495
0.5579204 0.42523867 -0.53688622
-0.45322531 0.49797672 -0.54880166
0.4574796 0.49800056 -0.54859447
-0.43049496 0.52426279 -0.53521585
0.4346433 0.52428859 -0.53500688
-0.38055792 0.54844701 -0.53929245
0.38471958 0.54845744 -0.53921223
-0.13380465 0.62286311 -0.53696656
-0.10862856 0.6209749 -0.54923189
0.11285648 0.62097001 -0.54926383
0.13793728 0.62285572 -0.53701484
-0.8273055 0.0050005764 -0.53012955
-0.80254477 0.0050010905 -0.53014565
-0.77778429 0.0050018877 -0.53016174
-0.75302023 0.0050030276 -0.53019404
0.75710267 0.0050030276 -0.53019404
0.78186643 0.0050018877 -0.53016174
0.8066268 0.0050010905 -0.53014565
0.83138734 0.0050005764 -0.53012955
-0.70402658 0.27742761 -0.52787113
0.70815027 0.27744019 -0.52759647
-0.53136158 0.45129043 -0.52342522
0.53542584 0.45131147 -0.52321494
-0.40822065 0.55142349 -0.51654685
0.41220996 0.55143642 -0.51644921
-0.33225149 0.57450312 -0.52940392
0.33634713 0.57453007 -0.52921045
-0.25780523 0.59898943 -0.53128994
0.26190963 0.59901547 -0.53111255
-0.15917377 0.62476355 -0.5246228
0.16321099 0.6247561 -0.52467132
-0.80691308 0.10389478 -0.51294971
0.81093496 0.10389251 -0.51265657
-0.78370148 0.15372497 -0.50614107
0.78765732 0.15372679 -0.50589561
-0.76038802 0.203765 -0.49931979
0.76428205 0.20376995 -0.49910629
-0.61076069 0.40386277 -0.49757719
0.61463153 0.40388089 -0.49736333
-0.50878465 0.47758639 -0.50962257
0.51274139 0.47760922 -0.50941014
-0.1847358 0.62667114 -0.51223266
0.18868075 0.6266737 -0.51221657
-0.83870244 -0.021767259 -0.48658478
-0.8136065 -0.021766469 -0.48660159
-0.78851068 -0.021765724 -0.48661828
0.79225767 -0.021765724 -0.48661828
0.81735331 -0.021766469 -0.48660159
0.84244913 -0.021767259 -0.48658478
-0.73695332 0.25401241 -0.49256885
0.74080867 0.25402316 -0.49228835
-0.63650948 0.37914103 -0.49387181
0.64046144 0.37920058 -0.49309695
-0.58834171 0.43016416 -0.48356819
0.59210038 0.43018252 -0.48336899
-0.48601618 0.50411016 -0.4956845
0.48986414 0.50413501 -0.49547029
-0.46304819 0.5308615 -0.48164225
0.46678668 0.53088808 -0.48142636
-0.36275902 0.58139765 -0.47964787
0.36647379 0.58142507 -0.4794482
-0.28714222 0.60625589 -0.48160923
0.29086742 0.6062851 -0.48140979
-0.21160692 0.63106412 -0.48370075
0.21534364 0.63109463 -0.48350179
-0.010663921 0.65552986 -0.4877106
0.01441923 0.65552717 -0.48772705
-0.7942214 0.17932373 -0.46343553
0.79785806 0.17932811 -0.46314979
-0.66824853 0.3563396 -0.46162021
0.67195123 0.35639077 -0.46088016
-0.56572556 0.45669162 -0.46945453
0.56937718 0.45671332 -0.46923697
-0.061421104 0.659666 -0.46212471
-0.035943262 0.65758973 -0.47496784
0.039599959 0.65757895 -0.47503448
0.064977638 0.65964705 -0.46224248
-0.87585318 -0.049270764 -0.44182789
-0.85041237 -0.049269915 -0.44184494
-0.82497615 -0.049269915 -0.44184494
-0.79954416 -0.049270764 -0.44182789
0.80294627 -0.049270764 -0.44182789
0.8283785 -0.049269915 -0.44184494
0.85381466 -0.049269915 -0.44184494
0.87925535 -0.049270764 -0.44182789
-0.77061433 0.23007837 -0.45646691
0.77419543 0.23008719 -0.4561801
-0.54291862 0.48345321 -0.45518434
0.54645902 0.48347688 -0.45496476
-0.51991481 0.51045078 -0.44077229
0.52334034 0.5104745 -0.44056797
-0.087099269 0.66175568 -0.44919741
0.09055458 0.66173118 -0.44934976
-0.70061231 0.33307847 -0.42877436
0.70407093 0.33312488 -0.42801917
-0.31740186 0.61375302 -0.43035173
0.32073304 0.61378056 -0.43016315
-0.24066299 0.63894814 -0.43249238
0.24400744 0.63897967 -0.4322871
-0.11297776 0.66385108 -0.43623638
0.11633315 0.66383171 -0.43635583
-0.13906133 0.66596562 -0.42315555
0.14231771 0.66595727 -0.42320728
-0.16535096 0.66809422 -0.40998852
0.16850875 0.66809696 -0.40997112
-0.8882432 -0.077539071 -0.39584208
-0.86245739 -0.077540278 -0.39582467
-0.83667576 -0.077542379 -0.3957895
0.83972359 -0.077542379 -0.3957895
0.8655054 -0.077540278 -0.39582467
0.89129132 -0.077539071 -0.39584208
-0.89173543 -0.026557088 -0.38288045
-0.73362994 0.30934721 -0.39526451
0.73684347 0.30938959 -0.39447689
-0.60712647 0.46545422 -0.38189268
-0.39970353 0.59467185 -0.38384986
0.40278143 0.59481829 -0.38279223
-0.19275616 0.67261893 -0.38199854
0.19570908 0.67265314 -0.38178694
0.89568639 -0.026734009 -0.37905002
-0.86904562 0.050830908 -0.37065291
0.87296593 0.050733924 -0.36645627
0.61021721 0.46553892 -0.38104558
-0.34862503 0.62148654 -0.37747645
0.35155299 0.62151778 -0.37726426
-0.27064571 0.64708352 -0.37965083
0.27358553 0.64711624 -0.37943888
-0.011568725 0.70051861 -0.37017322
0.01441923 0.70051861 -0.37017322
-0.9009974 -0.1066092 -0.34850419
-0.87485206 -0.1066117 -0.3484683
-0.8487016 -0.10661295 -0.3484503
0.85138494 -0.10661295 -0.3484503
0.87753558 -0.1066117 -0.3484683
0.90368116 -0.1066092 -0.34850419
-0.84634936 0.12878363 -0.35770988
0.8500573 0.12878369 -0.35383999
-0.76732141 0.28513187 -0.36107111
0.77029335 0.28517127 -0.3602134
-0.63966799 0.44274551 -0.34737003
0.64250273 0.44282532 -0.34650564
-0.30160025 0.65548289 -0.32509649
0.30412227 0.65551639 -0.32487738
-0.67288435 0.41956598 -0.312132
0.6754545 0.41963917 -0.31126797
-0.46096617 0.57775891 -0.31530881
0.46353602 0.57790041 -0.31422591
-0.91411227 -0.13651113 -0.29982793
-0.88759243 -0.13651381 -0.29979098
-0.86106741 -0.13651545 -0.29977238
0.86338061 -0.13651676 -0.29975402
0.88990122 -0.13651381 -0.29979098
0.91642129 -0.13651113 -0.29982793
-0.83765 -0.084233731 -0.28713715
0.839719 -0.08419694 -0.28773391
-0.70679289 0.39589912 -0.27617407
0.70910019 0.39596874 -0.27527297
-0.92760837 -0.16728212 -0.24973679
-0.90070325 -0.16728549 -0.24969864
-0.87378788 -0.16728549 -0.24969864
0.8757298 -0.16729186 -0.24962246
0.9026264 -0.16728549 -0.24969864
0.92953181 -0.16728212 -0.24973679
-0.84401399 -0.11265077 -0.26130271
0.84590453 -0.11261532 -0.26181376
-0.8504737 -0.1414953 -0.23507953
0.85215592 -0.14145394 -0.23561752
-0.94150782 -0.19896279 -0.19814825
-0.9141956 -0.19896279 -0.19814825
-0.88688338 -0.19896279 -0.19814825
0.88842905 -0.19896998 -0.19806993
0.91573691 -0.19896822 -0.19808936
0.94303411 -0.19896279 -0.19814825
-0.8570314 -0.17077751 -0.20845878
0.85850674 -0.17073129 -0.20900488
-0.83316833 -0.035265505 -0.19433784
0.8344928 -0.035231099 -0.19508469
-0.86368924 -0.20050703 -0.18143106
0.86494982 -0.20045398 -0.18200552
-0.83964616 -0.064069882 -0.16719282
0.8408466 -0.064049423 -0.16757214
-0.92809713 -0.23159026 -0.14503491
-0.90037602 -0.23159026 -0.14503491
-0.87265497 -0.23159026 -0.14503491
0.87377238 -0.23159026 -0.14503491
0.90149349 -0.23159026 -0.14503491
0.92921454 -0.23159026 -0.14503491
-0.84622377 -0.093317896 -0.13962996
0.84723872 -0.093301609 -0.13989341
-0.85690171 -0.15228768 -0.094884515
0.85756594 -0.15226524 -0.095175505
-0.8529771 -0.12304114 -0.11133015
0.85372573 -0.12300839 -0.11180377
-0.94242656 -0.26521182 -0.090286136
-0.91428405 -0.26521182 -0.090286136
-0.88614154 -0.26521182 -0.090286136
-0.85968256 -0.26597202 -0.08323133
0.8602615 -0.26594275 -0.083503008
0.88683754 -0.26521182 -0.090286136
0.91498005 -0.26521182 -0.090286136
0.94312257 -0.26521182 -0.090286136
-0.85898447 -0.23748244 -0.086156845
0.85957628 -0.23745103 -0.086470008
-0.85828745 -0.2090383 -0.089077592
0.85889709 -0.20900746 -0.089411259
-0.85759157 -0.18063955 -0.091993809
0.85822856 -0.18061312 -0.092305899
-0.83483624 -0.012758836 -0.068723202
0.83529097 -0.012745962 -0.069060445
-0.84189457 -0.042479113 -0.038159847
0.84204578 -0.042449534 -0.038802624
-0.92862695 -0.29987371 -0.033825636
-0.90004981 -0.29987371 -0.033825636
-0.8714624 -0.29986888 -0.03386879
0.87172407 -0.29986888 -0.03386879
0.90031117 -0.29987371 -0.033825636
0.92888832 -0.29987371 -0.033825636
-0.84623212 -0.21547695 -0.019377708
0.84629536 -0.21544094 -0.019767165
-0.84553283 -0.18653218 -0.022405863
0.84561461 -0.18649743 -0.02281642
-0.84483951 -0.15763591 -0.025407672
0.8449446 -0.15760444 -0.025817633
-0.84414244 -0.12878494 -0.02842617
0.84427565 -0.12875809 -0.028813958
-0.84344649 -0.099980563 -0.0314399
0.84361261 -0.099959359 -0.031783938
-0.84275168 -0.071222961 -0.034448504
0.8429507 -0.071206734 -0.034749389
-0.84833211 -0.30259204 -0.010284781
0.84834909 -0.30255938 -0.010567546
-0.84762931 -0.27350569 -0.013327837
0.84766012 -0.27347052 -0.013653636
-0.84693265 -0.24446891 -0.01634419
0.84697717 -0.24443199 -0.016712785
-0.81831771 0.013923414 -0.015910625
0.81836176 0.013934754 -0.01627934
-0.82638913 -0.04517673 0.020244598
0.82618654 -0.045166418 0.020023465
-0.82298708 -0.015596792 0.0050055981
0.82290226 -0.015588373 0.0047863722
-0.91438895 -0.3356204 0.024383903
-0.88535845 -0.33561778 0.02436173
-0.85632819 -0.33561498 0.024339557
0.85614181 -0.33561498 0.024339557
0.88517183 -0.33561778 0.02436173
0.91420221 -0.3356204 0.024383903
-0.8298189 -0.074997991 0.035607934
0.82950246 -0.074987262 0.035407305
-0.79916769 0.041613594 0.028465867
0.798908 0.041618325 0.028265953
-0.83465874 -0.33967322 0.057288051
0.83418465 -0.33965373 0.057130098
-0.834387 -0.25171578 0.056070566
0.83388829 -0.25168413 0.055755258
-0.83368331 -0.22215535 0.052918553
0.83319932 -0.22212212 0.052558661
-0.83297575 -0.19264214 0.049749136
0.83251631 -0.19261165 0.049389958
-0.83227444 -0.16317971 0.046607614
0.83183932 -0.16315205 0.046248794
-0.8315742 -0.13376604 0.043470979
0.83116335 -0.1337413 0.043112993
-0.83087516 -0.10440104 0.040339708
0.83049339 -0.10438041 0.040004611
-0.80249858 0.012081012 0.043918967
0.80211484 0.012088023 0.043694973
-0.8356263 -0.31089503 0.061622143
0.83511394 -0.31087422 0.061441302
-0.8350969 -0.28132755 0.059250593
0.83457363 -0.28129351 0.058934569
-0.80923772 -0.047714233 0.075184941
0.80861264 -0.047703758 0.074957252
-0.80585188 -0.017693341 0.059476376
0.8053481 -0.017684668 0.059250832
-0.77830106 0.070063606 0.067869782
0.77773875 0.070066623 0.067665935
-0.8996973 -0.37250608 0.084448099
-0.87020439 -0.3725031 0.08442533
-0.84071189 -0.37250018 0.084402442
0.8400631 -0.37250018 0.084402442
0.86955547 -0.3725031 0.08442533
0.89904821 -0.37250608 0.084448099
-0.81265169 -0.077984214 0.091023564
0.81190908 -0.077972934 0.090816855
-0.78158045 0.040339284 0.083648086
0.78089631 0.040344015 0.083442211
-0.81412351 -0.37426025 0.097852111
0.81333292 -0.37423599 0.097667575
-0.81507778 -0.34521466 0.10227931
0.8142578 -0.34519482 0.10211766
-0.81603426 -0.31610215 0.10671651
0.81518483 -0.31608611 0.10657763
-0.81698787 -0.28691983 0.11114085
0.81610441 -0.28690505 0.11100185
-0.81794876 -0.25767291 0.1155988
0.81703085 -0.25765896 0.11545932
-0.8160941 -0.10850585 0.10699427
0.81522334 -0.10849176 0.10676301
-0.78822619 -0.019854426 0.11562204
0.78729516 -0.019846335 0.11541307
-0.7848919 0.010367155 0.09958005
0.78408015 0.010374166 0.099349618
-0.81891185 -0.22835816 0.12006724
0.81795466 -0.22834317 0.11990404
-0.81987715 -0.19897573 0.12454557
0.81888056 -0.1989599 0.12435889
-0.81921828 -0.16894417 0.12148893
0.8182162 -0.16891898 0.12116253
-0.81851536 -0.13894533 0.11822736
0.81753844 -0.13892277 0.11790144
-0.79159325 -0.050330326 0.13182199
0.79053253 -0.050319433 0.13158774
-0.76023316 0.069195047 0.1242888
0.7592324 0.069198526 0.12405539
-0.85455978 -0.41058266 0.14643359
-0.82459497 -0.41058266 0.14643359
-0.79462528 -0.41057938 0.14640987
0.79349923 -0.41057938 0.14640987
0.82346869 -0.41058266 0.14643359
0.85343349 -0.41058266 0.14643359
-0.79408568 -0.38027501 0.14381385
0.79294652 -0.38025355 0.14364886
-0.79502308 -0.35088587 0.14832377
0.79385388 -0.35086834 0.14818203
-0.79596758 -0.32143134 0.15286827
0.7947681 -0.32141769 0.15274978
-0.79497886 -0.081060275 0.1481111
0.79379237 -0.081047639 0.14787495
-0.76348543 0.039025433 0.14053822
0.76236379 0.039030217 0.14032626
-0.79691434 -0.29190785 0.15742302
0.79567969 -0.29189491 0.15730405
-0.79786325 -0.26231539 0.1619885
0.79659343 -0.26230347 0.16186953
-0.79881442 -0.23265357 0.16656494
0.79750931 -0.23264264 0.16644549
-0.79976785 -0.20292224 0.17115188
0.79842252 -0.20291005 0.17100859
-0.80008113 -0.14271639 0.1726594
0.79871941 -0.14270483 0.17249179
-0.79839307 -0.11204956 0.16453767
0.79708445 -0.11203641 0.16432309
0.76869684 -0.022071987 0.17323399
-0.76676989 0.0086007118 0.15694833
0.76551694 0.0086078867 0.15671074
-0.73764378 0.098701134 0.16172671
0.73636901 0.098702386 0.16156006
-0.77263558 -0.41610038 0.18625474
0.77116561 -0.41607362 0.18606186
-0.77355808 -0.38643223 0.19086361
0.77206182 -0.38641328 0.19071889
-0.80072343 -0.17312099 0.17574954
0.79933786 -0.17310806 0.17558169
-0.77340817 -0.053022698 0.19011497
0.77190375 -0.053012669 0.18989778
-0.77007735 -0.022081167 0.17347336
-0.7416181 0.068300515 0.18237805
0.74017513 0.068303876 0.18216109
-0.83839506 -0.44991171 0.2104578
-0.80793738 -0.44991171 0.2104578
-0.77748466 -0.44991547 0.2104826
0.77586532 -0.44991547 0.2104826
0.80631822 -0.44991171 0.2104578
0.8367759 -0.44991171 0.2104578
-0.77448756 -0.35669744 0.19550776
0.77296019 -0.3566826 0.19538689
-0.77542412 -0.32689518 0.20018721
0.77385604 -0.32687849 0.20004153
-0.77635807 -0.2970196 0.20485377
0.77475864 -0.29700637 0.2047317
-0.77729911 -0.26707542 0.20955515
0.77565873 -0.267061 0.20940924
-0.77648962 -0.11457294 0.20551062
0.77488041 -0.11456388 0.2053647
-0.77522498 -0.083812937 0.19919229
0.77366459 -0.083805144 0.19904685
-0.74484468 0.037672035 0.19914389
0.74326783 0.037677556 0.19890118
-0.71561897 0.098365352 0.20534015
0.7140134 0.098366484 0.20519447
-0.75013882 -0.45228058 0.2266531
0.74837232 -0.45226234 0.22652984
-0.77823746 -0.23705803 0.21424389
0.77656096 -0.23704432 0.21409678
-0.77918297 -0.20697127 0.21896768
0.77746534 -0.20695667 0.21879625
-0.77903098 -0.17638956 0.21820831
0.77731919 -0.17637636 0.21803665
-0.77775818 -0.14543168 0.21184921
0.77609545 -0.14541988 0.2116785
-0.75003469 -0.024107277 0.22611165
0.74826324 -0.024100497 0.22593975
-0.74809426 0.0067813843 0.21602917
0.74638706 0.0067890733 0.21578431
-0.68846494 0.12878375 0.22377658
0.68671829 0.12878369 0.22362924
-0.75162357 -0.4227674 0.23436809
0.74978846 -0.42274332 0.23419499
-0.75254202 -0.39275008 0.23914051
0.75066549 -0.3927241 0.23894215
-0.75345784 -0.36265767 0.24389911
0.75154918 -0.36263627 0.2437253
-0.7543807 -0.33249652 0.24869418
0.75243503 -0.33247638 0.24852014
-0.75373971 -0.11702725 0.24536371
0.75182432 -0.11701819 0.2452147
-0.75249916 -0.085953474 0.23891759
0.75063354 -0.085945562 0.23876905
-0.75126731 -0.054981112 0.23251653
0.74944645 -0.054973081 0.23234391
-0.72040749 0.067548148 0.23125863
0.71859759 0.067550823 0.23108602
0.69114441 0.098023355 0.24976397
-0.72544384 -0.45694125 0.25851893
0.72343254 -0.45692307 0.258394
-0.72701275 -0.4272905 0.2670114
0.72493607 -0.42727298 0.26688552
-0.75530094 -0.30225956 0.25347567
0.75331837 -0.30224085 0.25330138
-0.75622815 -0.27195293 0.25829411
0.75420845 -0.27193558 0.25811911
-0.75715286 -0.24157082 0.26309872
0.75509602 -0.24155481 0.26292348
-0.75748086 -0.21085243 0.26480317
0.75541091 -0.21083744 0.26462746
-0.75622815 -0.17947523 0.25829411
0.75421309 -0.17946373 0.25814414
-0.75497955 -0.14820008 0.25180626
0.7530145 -0.14818965 0.25165677
-0.72689217 -0.025656283 0.26635861
0.72481608 -0.025650531 0.26620793
-0.7256887 0.0054322556 0.25984406
0.72366279 0.0054368749 0.2596941
-0.72443843 0.03642644 0.25307679
0.72246915 0.036429234 0.25295234
-0.69309694 0.098022044 0.24993825
0.66343212 0.12878357 0.26861835
-0.66552877 0.12878375 0.2687943
-0.79072773 -0.49056035 0.27664876
-0.75976056 -0.49056035 0.27664876
-0.72879797 -0.49056399 0.27667403
-0.69882798 -0.49143136 0.28230691
0.69663429 -0.49141192 0.28218055
0.72666919 -0.49056399 0.27667403
0.7576319 -0.49056035 0.27664876
0.78859425 -0.49055624 0.27662349
-0.72858834 -0.39751351 0.27553916
0.72644144 -0.39749372 0.27538824
-0.73017067 -0.36760974 0.28410411
0.72795773 -0.3675909 0.28395152
-0.73051697 -0.11952841 0.28597808
0.72828954 -0.11951911 0.28582621
-0.72930634 -0.088136286 0.27942538
0.72712946 -0.08812812 0.27927399
-0.728095 -0.056844935 0.27286863
0.72596866 -0.056837872 0.27271748
-0.69941515 0.035674758 0.28562331
0.69719595 0.035677664 0.28549671
-0.69662237 0.066953957 0.26984978
0.69452047 0.066956237 0.2696991
-0.66856772 0.097738683 0.2867384
0.66634089 0.097739764 0.2866118
-0.63769919 0.1598369 0.28782892
0.63545704 0.15983543 0.28765154
-0.70034945 -0.46167761 0.29090047
0.6980896 -0.4616589 0.29077339
-0.70187747 -0.43179637 0.29953051
0.69954675 -0.43177527 0.29937744
-0.73175502 -0.33757526 0.29267931
0.72948045 -0.33756059 0.29255223
-0.73335087 -0.30741572 0.30131721
0.73100972 -0.30740201 0.30118942
-0.73418677 -0.2143275 0.30584192
0.73180175 -0.21431221 0.30566239
-0.73295957 -0.18262418 0.2991991
0.73063016 -0.18261249 0.29904604
-0.73173624 -0.1510248 0.29257774
0.72945797 -0.1510141 0.29242516
-0.70209891 0.0041719079 0.30078101
0.69975847 0.0041764677 0.30062795
-0.67127025 0.066448256 0.30269647
0.66891634 0.066450536 0.3025434
0.63791901 0.12878357 0.30364227
-0.64028025 0.12878369 0.30379558
-0.67336679 -0.49647653 0.31507587
0.67092156 -0.49645662 0.31494737
-0.67484599 -0.46649081 0.32380962
0.67232919 -0.46646821 0.32365489
-0.703412 -0.40178734 0.30819774
0.70101446 -0.40176725 0.30804396
-0.7049486 -0.37164634 0.31687617
0.70248848 -0.37163025 0.31674743
-0.70649636 -0.34137887 0.32561803
0.70396882 -0.34136379 0.32548857
-0.73462683 -0.27694958 0.30822325
0.73221874 -0.27692914 0.30801821
-0.73541814 -0.24613525 0.31250668
0.73298162 -0.24611844 0.31232691
-0.70563263 -0.090362668 0.32073951
0.70313835 -0.090354234 0.32058501
-0.70445234 -0.058748201 0.31407356
0.7020095 -0.058740959 0.31391907
-0.70327145 -0.027236059 0.30740356
0.70087999 -0.027230188 0.30725002
-0.6739856 0.034910195 0.31872964
0.67150801 0.034913786 0.31857514
-0.64287776 0.097483747 0.31986308
0.6403926 0.097484887 0.31970859
-0.61175245 0.16009218 0.32099748
0.60925984 0.16009109 0.32084274
-0.74144328 -0.53259605 0.34511852
-0.70994896 -0.53259605 0.34511852
-0.67845911 -0.53260022 0.34514451
-0.64696884 -0.53260458 0.3451705
0.64431274 -0.53260458 0.3451705
0.67580312 -0.53260022 0.34514451
0.70729321 -0.53259605 0.34511852
0.73878747 -0.53259605 0.34511852
-0.67633146 -0.43637609 0.33258104
0.67374706 -0.43635446 0.33242559
-0.67782342 -0.40613097 0.34139061
0.6751669 -0.40610737 0.34120846
-0.70805079 -0.31098062 0.33439732
0.70545113 -0.31096393 0.33424139
-0.7096073 -0.28044885 0.34318852
0.70694435 -0.28043562 0.34305811
-0.70991194 -0.21763565 0.34490967
0.70723581 -0.21762477 0.34477901
-0.70921057 -0.18583818 0.3409481
0.70656049 -0.18582596 0.3407917
-0.70801401 -0.15390761 0.33418965
0.70541602 -0.15389685 0.33403397
-0.70682138 -0.12208267 0.32745337
0.70427525 -0.12207316 0.3272984
-0.67672694 0.0031206161 0.33491635
0.67412454 0.0031254143 0.33476067
-0.64549589 0.065934576 0.33605909
0.64288586 0.065936916 0.33590317
-0.61424738 0.12878346 0.33720231
0.61162972 0.12878357 0.33704615
-0.64748806 -0.50160426 0.34838223
0.64478707 -0.50158417 0.34825134
-0.64892322 -0.47138345 0.35725999
0.64614975 -0.47136033 0.35710239
-0.67931741 -0.37575203 0.35021186
0.67659706 -0.3757326 0.35005522
-0.68082225 -0.34524471 0.35909796
0.67803341 -0.34522665 0.3589406
-0.71009684 -0.24922471 0.34595323
0.70741695 -0.24921508 0.3458488
-0.68147236 -0.092636406 0.36293697
0.6786539 -0.092628032 0.36277914
-0.68031543 -0.060689405 0.35610533
0.67754972 -0.060682222 0.35594821
-0.67916679 -0.028849527 0.34932303
0.67645335 -0.028843537 0.34916615
-0.64813501 0.034133099 0.35238409
0.64539915 0.034136683 0.35222697
-0.61676627 0.097224206 0.35356259
0.61401868 0.097225741 0.35337949
-0.58537179 0.1603516 0.3546896
0.58262056 0.16035023 0.35453224
-0.61979777 -0.53714442 0.37325335
0.61690605 -0.53712285 0.37312078
-0.62118131 -0.50681704 0.38223934
0.61822033 -0.50679642 0.3821063
-0.65036464 -0.44103116 0.36617661
0.64752239 -0.44100934 0.36601853
-0.65180808 -0.4105432 0.37510538
0.64889699 -0.41052258 0.37494683
-0.68232918 -0.3146019 0.36799622
0.67947596 -0.31458765 0.36786437
-0.68368566 -0.28373301 0.37600565
0.68077075 -0.2837196 0.37587309
-0.68350178 -0.25190055 0.37492013
0.68059951 -0.25189078 0.37481403
-0.68332255 -0.22008736 0.37386155
0.68042415 -0.22007607 0.37372923
-0.68313885 -0.18828838 0.37277722
0.68025309 -0.18828018 0.37267137
-0.68295974 -0.15650763 0.37171936
0.68008214 -0.15650056 0.37161374
-0.68263316 -0.12468986 0.36979079
0.67976183 -0.1246803 0.36963248
-0.65079105 0.0020770878 0.36881399
0.64793259 0.0020809621 0.36868215
-0.61929727 0.065412067 0.37000227
0.61642683 0.065414406 0.36984348
-0.58778143 0.12878357 0.37116432
0.58490324 0.12878357 0.37100601
-0.55526769 0.19208226 0.36525416
0.55244315 0.19208044 0.36514854
-0.59155768 -0.5409804 0.39698267
0.5884878 -0.54096311 0.39687562
-0.62256676 -0.47635305 0.39123821
0.61953646 -0.47633368 0.3911047
-0.6239624 -0.44576007 0.40030313
0.62085831 -0.44573766 0.40014219
-0.65325779 -0.37992251 0.38407302
0.65027761 -0.3799029 0.38391352
-0.6547181 -0.34917152 0.39310646
0.65166825 -0.3491531 0.39294648
-0.6561805 -0.31828284 0.40215278
0.65306509 -0.31826842 0.40201879
-0.65617621 -0.1905476 0.40212607
0.65306509 -0.19053917 0.40201879
-0.65600282 -0.15854035 0.40105343
0.65289992 -0.15853266 0.40094614
-0.65582514 -0.12654741 0.39995456
0.65273076 -0.12654109 0.39984751
-0.65565199 -0.094573632 0.39888334
0.65256578 -0.094567522 0.39877582
-0.65547878 -0.062615916 0.39781213
0.6523968 -0.062609628 0.39767814
-0.65347272 -0.030238181 0.38540292
0.65048641 -0.030233055 0.38526964
-0.62185276 0.033342838 0.38660049
0.61885434 0.033346541 0.38644075
-0.59021056 0.096960954 0.38777232
0.58720434 0.096962206 0.38761234
-0.55855036 0.16061531 0.38894486
0.55553979 0.16061428 0.38881135
-0.52699786 0.19247964 0.39107776
0.52397853 0.19247851 0.39099789
-0.65841669 -0.5760923 0.41598582
-0.62637275 -0.57608759 0.41595888
-0.59432918 -0.57608294 0.4159317
-0.56228608 -0.57607859 0.415905
0.55908543 -0.57607859 0.415905
0.59112835 -0.57608294 0.4159317
0.62317169 -0.57608759 0.41595888
0.65521544 -0.5760923 0.41598582
-0.56273538 -0.54456353 0.41914725
0.55949914 -0.54455024 0.41906619
-0.59318209 -0.5107969 0.4080894
0.59002674 -0.51078027 0.40798187
-0.59481531 -0.48045111 0.4192555
0.59157389 -0.48043519 0.41914749
-0.62536001 -0.41502875 0.40938091
0.62218988 -0.41501105 0.40924621
-0.62676793 -0.38416606 0.41852522
0.62352335 -0.38414627 0.41836357
-0.65670556 -0.28667462 0.40540099
0.65356922 -0.28666383 0.40529346
-0.65652758 -0.25461465 0.40429974
0.65339971 -0.25460476 0.40419245
-0.65635401 -0.2225738 0.40322614
0.65323442 -0.22256462 0.40311861
-0.62623972 -0.03138116 0.41509509
0.62302953 -0.031376943 0.41498661
-0.62442482 0.0010147989 0.40330648
0.62130153 0.0010188967 0.40317249
-0.59484303 0.032584198 0.41944504
0.59160012 0.03258682 0.4193368
-0.59265929 0.064880557 0.40451479
0.58952397 0.064883173 0.40435338
-0.56087154 0.12878369 0.40569663
0.55773193 0.12878369 0.40556216
-0.53032815 0.16082762 0.41652608
0.52710938 0.16082682 0.4164176
-0.49837407 0.19288284 0.41725516
0.49515361 0.19288146 0.4171741
-0.53212613 -0.57851034 0.43026447
0.52880484 -0.57849658 0.4301827
-0.56429088 -0.51422775 0.43037367
0.56096816 -0.51421511 0.43029141
-0.59645736 -0.44994181 0.43048239
0.5931294 -0.4499265 0.43037319
-0.62817788 -0.35316426 0.42768335
0.62486666 -0.3531484 0.42754745
-0.62950581 -0.32196385 0.43630886
0.62613213 -0.3219521 0.43619967
-0.62933797 -0.28965849 0.43521857
0.62597275 -0.28964764 0.43510938
-0.62917024 -0.25737017 0.43412876
0.62581331 -0.2573601 0.4340198
-0.62900251 -0.22509848 0.43303967
0.62565005 -0.22508676 0.43290329
-0.62883073 -0.1928414 0.43192363
0.62549078 -0.19283308 0.43181467
-0.62866324 -0.16060351 0.43083549
0.62532771 -0.16059403 0.43069959
-0.62849158 -0.12838082 0.42972112
0.62516862 -0.12837406 0.42961216
-0.62832421 -0.096176654 0.42863417
0.62500966 -0.096170738 0.42852521
-0.62781852 -0.063887596 0.42534924
0.6245333 -0.063883945 0.42526817
-0.59786046 -0.032342643 0.44007492
0.59445858 -0.032338604 0.43996596
-0.59635001 0.00020065904 0.42974782
0.59302771 0.00020396709 0.42963934
-0.56481123 0.064424485 0.43412876
0.56145602 0.064426422 0.43401957
-0.56321162 0.096693143 0.42258453
0.55994183 0.096694171 0.42244887
-0.53320628 0.12878357 0.43851852
0.52982146 0.12878357 0.43843699
-0.50124866 0.1610128 0.44059396
0.49785155 0.16101247 0.44053936
-0.46906045 0.19324762 0.44094944
0.46565807 0.19324636 0.44086742
-0.50275052 -0.58232492 0.45278811
0.49925634 -0.58231097 0.45270562
-0.53360307 -0.54818535 0.44155073
0.53019482 -0.54817182 0.44146848
-0.53509158 -0.5176999 0.45292544
0.53159237 -0.51768279 0.45281529
-0.56585479 -0.48372781 0.44165969
0.56244159 -0.48371196 0.44155073
-0.56742722 -0.45306295 0.45300794
0.56392652 -0.45304775 0.45289779
-0.59810823 -0.41926736 0.44176936
0.5946933 -0.41925305 0.44165969
-0.59976411 -0.38842344 0.45309019
0.59626573 -0.38841313 0.4530077
-0.60076267 -0.13024043 0.45991778
0.5972079 -0.13023354 0.4598074
-0.60060143 -0.097802818 0.45881486
0.59705132 -0.097795606 0.45867729
-0.5993824 -0.065048397 0.45048046
0.59590036 -0.06504339 0.45037103
-0.56769013 -0.00057387352 0.45490479
0.56417477 -0.00057056546 0.45479488
-0.5662452 0.03200613 0.44447732
0.56281388 0.032008015 0.44439554
-0.53593093 0.064036563 0.45933867
0.53238565 0.064037815 0.45925593
-0.534567 0.096490413 0.44891644
0.53109872 0.096490979 0.448807
-0.50364906 0.12878357 0.46008325
0.50010192 0.12878346 0.46002793
-0.47305962 -0.58618534 0.47558308
0.4693875 -0.58616644 0.47547197
-0.50415909 -0.55185038 0.46422386
0.50057364 -0.55183268 0.46411347
-0.50557184 -0.52120537 0.47569442
0.50189811 -0.5211882 0.47558331
-0.53658468 -0.48704451 0.46433425
0.53299761 -0.48702824 0.46422386
-0.53808588 -0.45622182 0.47580528
0.53441036 -0.4562065 0.47569442
-0.56900811 -0.42223114 0.46441698
0.56541955 -0.42221659 0.46430659
-0.57059771 -0.39123148 0.47588873
0.56692076 -0.39121789 0.47577786
-0.60119045 -0.35722405 0.46284246
0.59760934 -0.35720813 0.46270442
-0.60173619 -0.32522553 0.46657348
0.59813011 -0.32521367 0.46646285
-0.60157442 -0.29268557 0.46546745
0.59797686 -0.29267472 0.46535683
-0.60141271 -0.26016289 0.46436191
0.59782368 -0.2601527 0.46425128
-0.60125107 -0.22765703 0.4632566
0.59767056 -0.22764768 0.46314621
-0.60108948 -0.19516848 0.46215272
0.59751755 -0.19515987 0.46204209
-0.60092807 -0.16269673 0.4610486
0.59736079 -0.16268711 0.46091056
-0.57059771 -0.066221863 0.47588873
0.56692076 -0.066217065 0.47577786
-0.56913835 -0.033315524 0.46535683
0.56554615 -0.033312619 0.4652741
-0.53730524 0.03142032 0.46984053
0.53367573 0.031422824 0.46972966
-0.50540084 0.096294969 0.47430539
0.50173777 0.096295767 0.47419453
-0.47131124 0.16116562 0.46044159
0.4677617 0.16116506 0.46038651
-0.43896785 0.19355339 0.46080017
0.43541598 0.19355246 0.4607451
-0.40661618 0.22594568 0.46113133
0.40306219 0.22594455 0.46107626
-0.57244766 -0.62110204 0.48923993
-0.53984028 -0.62109703 0.48921204
-0.50722992 -0.62108701 0.48915577
-0.47462362 -0.62108207 0.48912787
-0.44201475 -0.62107235 0.48907232
0.43825078 -0.62107235 0.48907232
0.47085923 -0.62108207 0.48912787
0.50346535 -0.62108701 0.48915577
0.53607535 -0.62109703 0.48921204
0.56868243 -0.62110204 0.48923993
-0.47439131 -0.55555135 0.4871161
0.47063032 -0.55553299 0.48700404
-0.50699234 -0.49039274 0.48722768
0.5032298 -0.49037629 0.48711586
-0.53959519 -0.42523092 0.48733926
0.53583086 -0.42521644 0.48722792
-0.57219595 -0.36006254 0.48742318
0.5684337 -0.36005282 0.48733926
-0.57267249 -0.32784325 0.49086213
0.56888378 -0.32783425 0.49077821
-0.57298666 -0.29545403 0.49312997
0.56918055 -0.29544574 0.49304605
-0.57325464 -0.26299912 0.49506378
0.5694263 -0.262986 0.49492335
-0.57309926 -0.23025568 0.4939425
0.56927955 -0.23024352 0.49380207
-0.57294399 -0.19752945 0.49282169
0.56913286 -0.19751839 0.49268174
-0.5727849 -0.16481857 0.49167395
0.56898636 -0.16481076 0.49156213
-0.57262981 -0.13212706 0.49055433
0.56883985 -0.13212006 0.49044228
-0.57206047 -0.099291787 0.48644543
0.56830579 -0.09928745 0.48636174
-0.54007089 -0.034301803 0.49097419
0.53627855 -0.034297466 0.49086213
-0.53868282 -0.0013580322 0.48036671
0.53497559 -0.0013554096 0.48028326
-0.50800937 0.030828178 0.49548435
0.50418311 0.030830912 0.49537206
-0.5067001 0.063643627 0.48485446
0.50295901 0.06364499 0.48477077
0.469879 0.12878357 0.48003268
-0.47358304 0.12878369 0.48011637
-0.4410916 0.16132015 0.4805057
0.4373824 0.16131914 0.48039484
-0.40858853 0.19386187 0.48084021
0.4048802 0.1938605 0.48075676
-0.37608036 0.22640848 0.48117423
0.37237009 0.22640654 0.48109102
-0.41065544 -0.6232717 0.50149417
-0.37916651 -0.62558901 0.51458335
0.37520134 -0.62557906 0.51452661
0.40679324 -0.62326676 0.50146604
-0.4430415 -0.59008318 0.49859929
-0.411937 -0.5927425 0.51430058
0.40797621 -0.5927375 0.51427197
0.43919578 -0.59006906 0.49851537
-0.444298 -0.55929214 0.5102582
0.44036248 -0.55927879 0.5101738
-0.4757303 -0.5247491 0.49871182
0.47187996 -0.52473176 0.49859929
-0.47707656 -0.49377769 0.51037097
0.47313952 -0.49376547 0.51028681
-0.50842071 -0.45941144 0.49882436
0.50456876 -0.45939583 0.49871182
-0.50985688 -0.42825979 0.51048422
0.50591832 -0.42824876 0.51039934
-0.5411129 -0.39407015 0.49893641
0.53725922 -0.3940565 0.49882436
-0.54242462 -0.36254925 0.50895977
0.53849715 -0.36253953 0.50887513
-0.54272395 -0.33004028 0.51124692
0.5387789 -0.33003116 0.51116204
-0.54302353 -0.29749626 0.51353645
0.53906089 -0.29748774 0.51345158
-0.54331982 -0.26491463 0.51580048
0.53933966 -0.26490682 0.51571536
-0.54286444 -0.10068621 0.51232076
0.53890765 -0.10068005 0.51220775
-0.54146236 -0.067409948 0.50160623
0.53759152 -0.067406014 0.50152206
-0.5106442 -0.035298735 0.51687646
0.50665313 -0.035294518 0.51676321
-0.50932175 -0.0021514297 0.50613928
0.50541663 -0.0021492094 0.50605488
-0.47711572 0.063245676 0.51071
0.47317299 0.063247494 0.51059699
-0.47587621 0.096097127 0.49997592
0.47201926 0.0960977 0.49989176
-0.44322926 0.12878346 0.50034142
0.4393701 0.12878369 0.50025678
-0.41057664 0.1614756 0.50070691
0.4067153 0.16147503 0.50062227
-0.37791842 0.19417322 0.50107217
0.37405255 0.1941714 0.50095963
-0.34525219 0.22687596 0.50140953
0.34138459 0.22687322 0.501297
-0.34748292 -0.62792081 0.52775311
0.34341681 -0.62791091 0.52769637
-0.38035682 -0.59497243 0.52746844
0.37629244 -0.59496284 0.5274117
-0.41322634 -0.56202841 0.52718401
0.40916637 -0.56202394 0.5271554
-0.44556144 -0.5283317 0.52198148
0.44153562 -0.52831852 0.52189589
-0.44683185 -0.49720001 0.53376889
0.44271523 -0.49718755 0.53368354
-0.4784303 -0.46263593 0.5220952
0.47440296 -0.46262413 0.52200985
-0.47979155 -0.43132192 0.53388333
0.47567338 -0.43131071 0.53379774
-0.51130092 -0.39693642 0.52220869
0.50727206 -0.39692605 0.52212334
-0.51220137 -0.36492312 0.52951908
0.50811619 -0.36491358 0.5294342
-0.51248229 -0.33225524 0.53180003
0.50838286 -0.33224928 0.53174329
-0.51276702 -0.29955536 0.53411198
0.50864649 -0.29954678 0.53402638
-0.51305211 -0.26681983 0.53642607
0.50891376 -0.26681203 0.53634048
-0.54362011 -0.23230059 0.51809454
0.53962231 -0.23229335 0.5180099
-0.5439207 -0.19965167 0.5203917
0.53990519 -0.1996453 0.52030683
-0.54421794 -0.16696547 0.52266312
0.54018492 -0.1669596 0.52257776
-0.54408413 -0.13404135 0.52164054
0.54005551 -0.13403447 0.52152705
-0.5119698 -0.068612352 0.52763963
0.50789917 -0.068608314 0.52755404
-0.47960371 -0.0029557049 0.53225636
0.47549498 -0.0029522926 0.5321424
-0.47835493 0.030228741 0.52144217
0.4743326 0.030230567 0.52135682
-0.44539016 0.095940098 0.5203917
0.44137657 0.095940664 0.52030683
-0.41258353 0.12878357 0.52076077
0.40856513 0.12878357 0.52064729
-0.37976864 0.16163264 0.52110124
-0.34822702 0.16175151 0.53654051
0.3440932 0.16175093 0.53648329
0.37575087 0.16163196 0.52101636
-0.34687638 0.19447383 0.52059007
-0.31512716 0.19469276 0.53482604
0.31100702 0.19469196 0.53476858
0.34286544 0.1944727 0.5205338
-0.31390029 0.2272796 0.51888847
-0.28205183 0.22760734 0.53308392
0.27794558 0.22760598 0.53302693
0.30990288 0.22727811 0.51883197
-0.21608177 0.26049834 0.5314579
0.21199018 0.26049757 0.53142905
-0.31560063 -0.63026208 0.54097629
-0.28352246 -0.63262302 0.55431032
0.27925274 -0.63261288 0.5542531
0.31143314 -0.63025212 0.54091907
-0.31660491 -0.59946954 0.55402231
0.31233895 -0.5994646 0.55399346
-0.34857836 -0.59721172 0.54068995
0.34441483 -0.59720683 0.54066133
-0.38155434 -0.56417024 0.54043221
-0.34968293 -0.56632042 0.55373383
0.34541896 -0.56631577 0.55370498
0.37739015 -0.56416094 0.54037476
-0.41452634 -0.5311327 0.54017425
-0.38275912 -0.53318024 0.55347466
0.37849694 -0.533176 0.55344605
0.41036367 -0.53112388 0.54011703
-0.41583139 -0.50004429 0.55321527
0.41156834 -0.50003588 0.55315781
-0.4481093 -0.46589589 0.54562235
0.44390139 -0.46588409 0.54553628
-0.48116028 -0.39983475 0.54573727
0.47695085 -0.39982408 0.5456512
-0.48168138 -0.3673169 0.55024958
0.47743714 -0.36730701 0.55016351
-0.4819473 -0.33449173 0.5525527
0.47768533 -0.33448249 0.55246639
-0.48221353 -0.30163145 0.55485821
0.47793689 -0.30162567 0.55480051
-0.51333392 -0.23404692 0.53871465
0.50917798 -0.23403962 0.53862858
-0.5136196 -0.20124076 0.54103374
0.50944573 -0.20123427 0.54094791
-0.51390201 -0.1683972 0.54332685
0.50971049 -0.16839112 0.54324055
-0.51391262 -0.13538228 0.54341292
0.50972378 -0.13537879 0.5433557
-0.51308733 -0.10200056 0.53671217
-0.48217019 -0.10295802 0.55448318
0.47789338 -0.10295373 0.55439711
0.50895005 -0.10199732 0.53665471
-0.48139247 -0.069541082 0.54774809
0.47717065 -0.069538578 0.54769063
-0.4806172 -0.036228359 0.54103351
0.47644702 -0.036226317 0.54097629
-0.44880652 -0.0035667568 0.55209208
0.44455168 -0.0035648197 0.55203414
-0.44808146 0.029676266 0.54536414
0.44387838 0.029677741 0.54530644
-0.44716442 0.062842824 0.53685498
0.44302118 0.062844872 0.5367403
-0.41450629 0.095789433 0.53997374
-0.38283634 0.095679015 0.55431032
0.37856531 0.095679462 0.55425286
0.41034517 0.095789894 0.53991675
-0.38135338 0.12878357 0.53825665
-0.34958532 0.12878357 0.55258155
0.37720594 0.12878357 0.53819942
0.3453258 0.12878369 0.55249476
-0.31636104 0.16186181 0.55085373
0.31211746 0.16186124 0.55079651
-0.28316343 0.19491294 0.54912806
0.27893358 0.19491225 0.54907036
-0.24999067 0.22793727 0.54737425
0.24577479 0.22793612 0.54731679
-0.18356094 0.2607705 0.54028916
-0.15079606 0.2609559 0.54631186
-0.11793898 0.26114178 0.55235124
0.11368721 0.26114097 0.55232215
0.14659058 0.2609551 0.54628277
0.17940161 0.26076958 0.54026008
-0.41702551 -0.66772968 0.56514764
-0.38383478 -0.66772443 0.56511879
-0.35064694 -0.66772443 0.56511879
-0.31745911 -0.66772443 0.56511879
-0.2842713 -0.66772443 0.56511879
-0.25108343 -0.66772443 0.56511879
-0.21790653 -0.66776192 0.56532121
-0.18491806 -0.66856551 0.56967187
-0.15186298 -0.66937107 0.57403111
0.14744499 -0.66937107 0.57403111
0.18053254 -0.66856027 0.56964326
0.21355426 -0.66775668 0.5652926
0.24673405 -0.66772443 0.56511879
0.27992189 -0.66772443 0.56511879
0.31310976 -0.66772443 0.56511879
0.34629756 -0.66772443 0.56511879
0.3794854 -0.66772443 0.56511879
0.41267592 -0.66772968 0.56514764
-0.25124234 -0.63499349 0.56769896
0.24687153 -0.63498843 0.56766987
-0.28443193 -0.60174137 0.56743765
0.28006113 -0.60173166 0.56737971
-0.3176153 -0.56848902 0.56714797
0.31324828 -0.56848431 0.56711864
-0.3507942 -0.53524083 0.56685781
0.3464292 -0.53523648 0.56682873
-0.3839713 -0.5020014 0.56659651
0.37960809 -0.50199705 0.56656766
-0.41714442 -0.46876615 0.56633592
0.41278031 -0.46875793 0.56627798
-0.44939381 -0.43441796 0.55754137
0.44509414 -0.43440676 0.55745506
-0.45061043 -0.40267897 0.56883025
0.4462238 -0.40266818 0.56874299
-0.45086077 -0.36973077 0.57115316
0.44645914 -0.36972409 0.57109499
-0.45111454 -0.33675021 0.57350779
0.44669184 -0.33674067 0.57342029
-0.48248333 -0.26873851 0.55719495
0.47818562 -0.26873058 0.5571084
-0.48275346 -0.23580976 0.55953431
0.47843772 -0.23580237 0.55944777
-0.48302051 -0.20284306 0.56184721
0.47868699 -0.2028365 0.56176066
-0.48329124 -0.16984265 0.56419182
0.47893962 -0.1698366 0.5641048
-0.48295039 -0.13648017 0.56123996
0.47862154 -0.13647471 0.56115317
-0.45099548 -0.10392366 0.57240272
0.44658127 -0.10391892 0.57231545
-0.45026353 -0.070366189 0.56561089
0.44590166 -0.070362046 0.5655241
-0.44953388 -0.036913842 0.55884099
0.44522417 -0.036910757 0.55875444
-0.41751024 -0.0041178763 0.56999135
0.41311532 -0.0041150302 0.56990433
-0.41683134 0.029264182 0.56320739
0.41249132 0.029265665 0.56314945
-0.41611704 0.062547319 0.55606961
-0.38433319 0.062324643 0.5705142
0.37993735 0.062325783 0.57045603
0.41183197 0.062548123 0.55601168
-0.35095632 0.095567442 0.56877232
0.3465721 0.095568463 0.56868505
0.31323624 0.12878357 0.5669446
-0.31760415 0.12878369 0.56700277
-0.28428131 0.16197246 0.56526351
0.27992725 0.16197202 0.56520557
-0.25098535 0.1951347 0.56352568
0.24664511 0.19513378 0.56346774
-0.21752308 0.22818729 0.5582056
-0.18469171 0.22833899 0.56477118
-0.15174103 0.22847971 0.57086253
0.14734654 0.22847927 0.57083344
0.18034391 0.22833841 0.56474185
0.21322426 0.22818628 0.55814767
-0.084959954 0.26128924 0.55713701
-0.051865123 0.26135224 0.55918765
-0.018738521 0.26141447 0.56121087
0.01441923 0.26141447 0.56121087
0.047561407 0.26135224 0.55918765
0.080672011 0.26128924 0.55713701
-0.11874104 -0.670178 0.57839942
-0.085552059 -0.67098677 0.58277655
-0.052295826 -0.67179698 0.58716226
-0.018972127 -0.67260897 0.59155679
0.01441923 -0.67260897 0.59155679
0.047776759 -0.67179698 0.58716226
0.081066757 -0.67098677 0.58277655
0.11428943 -0.670178 0.57839942
-0.21864583 -0.63700151 0.57904077
-0.18555304 -0.63777685 0.58341908
-0.15239319 -0.6385535 0.58780622
-0.11916608 -0.639332 0.59220266
0.1146082 -0.639332 0.59220266
0.14786826 -0.63854831 0.58777738
0.18106166 -0.63777155 0.58339
0.21418792 -0.63699651 0.57901168
-0.25205582 -0.60402274 0.58090782
-0.21938981 -0.60604495 0.59284782
0.21482563 -0.60603988 0.5928185
0.24758174 -0.60401285 0.58084941
-0.28534496 -0.57066619 0.580616
0.28087449 -0.57066143 0.58058691
-0.31863186 -0.53731865 0.5803535
-0.28626564 -0.53940505 0.59390473
0.28169286 -0.53940046 0.59387541
0.31416321 -0.53731412 0.58032417
-0.35191229 -0.50397098 0.58006167
-0.3196547 -0.50595701 0.59364057
0.31508169 -0.50594836 0.59358144
0.34744564 -0.50396645 0.58003235
-0.38519087 -0.4706316 0.57979918
-0.35303724 -0.47250903 0.59334707
0.3484683 -0.47250473 0.59331727
0.38072604 -0.47062767 0.57976985
-0.4184655 -0.43729633 0.57953644
-0.38641798 -0.43906909 0.5930829
0.38185084 -0.43906534 0.59305334
0.41400242 -0.43729252 0.57950735
-0.41947478 -0.40523994 0.58962226
0.41493136 -0.40523261 0.58956361
-0.41974178 -0.3721714 0.59229016
0.41517511 -0.37216121 0.59220243
-0.45136547 -0.30373091 0.57583594
0.44692481 -0.30372196 0.57574821
-0.45161659 -0.27067578 0.57816648
0.44716096 -0.27067041 0.57810807
-0.45187119 -0.23758756 0.58052874
0.44739443 -0.23758017 0.58044124
-0.45212606 -0.20446323 0.58289361
0.44763106 -0.20445631 0.58280563
-0.45237803 -0.17130055 0.58523154
0.44786504 -0.17129423 0.58514357
-0.45172656 -0.13758542 0.57918644
0.44726309 -0.13758178 0.57912803
-0.41955692 -0.10489573 0.5904429
0.41500446 -0.10489112 0.59035516
-0.41887447 -0.071198121 0.58362389
0.41437456 -0.071194023 0.58353591
-0.41819128 -0.037605122 0.57679701
0.41374391 -0.037601814 0.57670975
-0.3859522 -0.0046735555 0.58804059
0.38141894 -0.0046708137 0.58795261
-0.38532028 0.028848678 0.58119965
0.38084215 0.028850161 0.58114123
-0.35233518 0.062101282 0.58505583
0.34782785 0.06210196 0.58499742
-0.31885889 0.095455989 0.58330226
0.31436548 0.095456101 0.58324385
-0.28540966 0.12878346 0.58154988
0.28093019 0.12878357 0.58149147
-0.25198573 0.16208415 0.57976985
-0.21921444 0.16215993 0.5895927
0.21467528 0.16215959 0.58956337
0.24752042 0.1620837 0.57971191
-0.21847469 0.19532467 0.57586503
-0.18560028 0.19545674 0.5844419
-0.15259402 0.19558895 0.59302402
0.14802891 0.1955885 0.59299445
0.18110102 0.19545642 0.58441257
0.21404123 0.19532421 0.5758357
-0.11869618 0.22862023 0.57694221
-0.085503511 0.22870639 0.58067417
-0.052227393 0.22875357 0.5827179
-0.018919831 0.22880086 0.58476353
0.01441923 0.22880086 0.58476353
0.047742538 0.22875357 0.5827179
0.081034392 0.22870639 0.58067417
0.11425511 0.22861955 0.57691336
-0.085871473 -0.64011174 0.59660721
-0.052509196 -0.64089328 0.60102105
-0.019079031 -0.64167631 0.60544419
0.01441923 -0.64167631 0.60544419
0.047883444 -0.64089328 0.60102105
0.081279695 -0.64011174 0.59660721
-0.18619204 -0.60679108 0.59725404
-0.15292679 -0.60753894 0.60166931
-0.11959381 -0.60828811 0.60609341
-0.086192936 -0.60903895 0.61052728
0.081493549 -0.609034 0.61049747
0.11492832 -0.60828316 0.60606408
0.14829513 -0.60753387 0.60164022
0.18159415 -0.60678607 0.59722447
-0.25287428 -0.57286173 0.59419799
-0.22013859 -0.57488996 0.60674357
-0.18683515 -0.57560694 0.61117792
0.18213008 -0.57560194 0.61114836
0.21546742 -0.57488507 0.60671401
0.24829945 -0.57285708 0.5941689
-0.2536996 -0.54151356 0.60759997
0.24902003 -0.5415045 0.60754085
-0.28719196 -0.50795114 0.60727477
0.28251621 -0.50794691 0.60724545
-0.32068384 -0.47440189 0.60700893
0.31600788 -0.47439367 0.60694981
-0.35416913 -0.44085288 0.60671377
0.34949729 -0.44084913 0.60668421
-0.38721663 -0.40673095 0.60172868
0.38258043 -0.40672362 0.60166931
-0.38761714 -0.37376195 0.60606432
0.38294759 -0.37375504 0.60600519
-0.4199768 -0.33902752 0.59463859
-0.38801849 -0.34072697 0.61040831
0.38331544 -0.34072077 0.61034942
0.41539472 -0.33902121 0.5945797
-0.42021501 -0.30585057 0.59701872
0.41561192 -0.30584198 0.59693074
-0.42045051 -0.27263486 0.59937239
0.4158293 -0.27262646 0.59928393
-0.4206863 -0.23938267 0.6017282
0.41604963 -0.23937754 0.60166931
-0.42092526 -0.20609684 0.6041162
0.41626751 -0.2060899 0.60402775
-0.42093116 -0.1726128 0.60417557
0.41627568 -0.17260881 0.60411644
-0.42024443 -0.13870184 0.59731293
0.41563907 -0.13869633 0.59722495
