ply
format ascii 1.0
comment PCL generated
element vertex 1326
property float x
property float y
property float z
element camera 0
property float view_px
property float view_py
property float view_pz
property float x_axisx
property float x_axisy
property float x_axisz
property float y_axisx
property float y_axisy
property float y_axisz
property float z_axisx
property float z_axisy
property float z_axisz
property float focal
property float scalex
property float scaley
property float centerx
property float centery
property int viewportx
property int viewporty
property float k1
property float k2
end_header
-0.21382327 0.15093414 -0.16886163
-0.19029219 0.15084793 -0.17046237
-0.16678597 0.15076175 -0.17206168
-0.14330457 0.15067559 -0.17365897
-0.11984794 0.15058953 -0.17525482
-0.0036575347 0.15072292 -0.17278063
0.019365892 0.15095739 -0.16842914
0.042456493 0.15119177 -0.1640811
0.065612718 0.15142761 -0.15970445
-0.26184899 0.1748088 -0.15988159
-0.23822276 0.1747096 -0.16149187
-0.21462153 0.17461036 -0.1631006
-0.1910453 0.17451148 -0.16470742
-0.16749404 0.17441268 -0.16631258
-0.14396767 0.17431395 -0.16791618
-0.12046619 0.17421521 -0.16951799
-0.096989527 0.17411675 -0.17111838
-0.073537663 0.17401835 -0.17271674
-0.050110534 0.17391993 -0.17431355
-0.02688624 0.1739642 -0.17359531
-0.0039013177 0.17423114 -0.16926205
0.019148558 0.17449972 -0.1649003
0.042265788 0.17476805 -0.16054201
-0.19180129 0.19826531 -0.15893054
-0.1682048 0.19815361 -0.16054201
-0.14463334 0.19804209 -0.16215169
-0.12108679 0.19793068 -0.16375959
-0.097565189 0.19781937 -0.16536582
-0.074068502 0.19770834 -0.16697037
-0.05059661 0.19759732 -0.16857326
-0.027156979 0.19749288 -0.1700784
-0.004145667 0.19779387 -0.16573513
0.018930733 0.19809675 -0.16136301
-0.098143056 0.22161235 -0.15959144
-0.074601337 0.22148848 -0.16120219
-0.051084563 0.22136454 -0.16281104
-0.027592659 0.22124097 -0.16441846
-0.0044519007 0.22147992 -0.16131485
-0.17034943 -0.27103317 -0.14312983
-0.14664178 -0.27089533 -0.14475787
-0.12302594 -0.27080998 -0.1457665
-0.099534735 -0.27081671 -0.14568532
-0.07604073 -0.27082223 -0.14562023
-0.052547142 -0.27082923 -0.14553881
-0.029051036 -0.27083471 -0.14547384
-0.0055550337 -0.27084151 -0.14539254
0.017864019 -0.27095598 -0.14404178
-0.24076785 -0.24743962 -0.14409065
-0.21703015 -0.24731442 -0.14571774
-0.19331773 -0.24718916 -0.14734316
-0.16963051 -0.24706426 -0.14896679
-0.14596851 -0.24693932 -0.15058887
-0.12233163 -0.24681462 -0.15220892
-0.098718271 -0.24668871 -0.15384376
-0.07513921 -0.24657054 -0.15537965
-0.051720694 -0.2465768 -0.15529871
-0.028299674 -0.24658178 -0.15523422
-0.0048787892 -0.24658799 -0.15515339
0.018226266 -0.24699047 -0.14992404
0.041389823 -0.24742456 -0.14428592
-0.26380438 -0.22371326 -0.14718056
-0.2399147 -0.22352311 -0.14992404
-0.21622275 -0.22341087 -0.15154493
-0.19255595 -0.22329873 -0.15316403
-0.1689143 -0.22318664 -0.1547817
-0.14529778 -0.22307463 -0.15639722
-0.12170629 -0.2229628 -0.15801144
0.018586129 -0.22311835 -0.15576744
0.041706726 -0.22350632 -0.15016735
0.064911857 -0.22389691 -0.14453018
-0.28730601 -0.20022982 -0.14709938
0.088430755 -0.20037192 -0.14479053
-0.26273626 -0.19979747 -0.15411866
-0.23906477 -0.19969788 -0.15573525
-0.21541835 -0.19959842 -0.15735006
0.042022437 -0.19967997 -0.15602601
0.065183461 -0.20002578 -0.15041053
-0.31080884 -0.17674501 -0.14701831
-0.28592306 -0.17627963 -0.15565431
0.065449536 -0.1762518 -0.15617132
0.088656425 -0.17654912 -0.15065372
0.11194515 -0.17685194 -0.14503467
-0.33509672 -0.15346353 -0.14251065
-0.30994898 -0.15302074 -0.15209568
0.088836469 -0.15287137 -0.15533113
0.11212566 -0.15307617 -0.15089679
0.13545579 -0.15333559 -0.14527857
-0.33459508 -0.12983 -0.14534366
-0.3094722 -0.12946178 -0.15491104
0.11223682 -0.12947729 -0.15450668
0.13556719 -0.12964678 -0.1501025
0.15896267 -0.12982313 -0.14552271
-0.33409441 -0.1062403 -0.14817142
-0.30899626 -0.10594623 -0.15772092
0.11234622 -0.1059358 -0.15805995
0.13564947 -0.10607108 -0.1536659
0.15902019 -0.10620686 -0.14925885
0.18245539 -0.10635594 -0.14441621
-0.33359468 -0.082694314 -0.15099394
0.13573158 -0.082550384 -0.15722072
0.15907532 -0.082651712 -0.15284038
0.1824654 -0.082816109 -0.14571786
-0.35830212 -0.059339184 -0.14423728
-0.33309585 -0.059191741 -0.15381145
0.15912686 -0.0591552 -0.15618753
0.18247542 -0.059296381 -0.14701831
-0.35777932 -0.035806328 -0.14706707
-0.33259797 -0.035732683 -0.15662348
0.15914525 -0.03572683 -0.15738225
0.18248017 -0.035802003 -0.14763546
-0.35725749 -0.012316938 -0.1498915
0.15916362 -0.012316888 -0.15857601
0.18248355 -0.012316888 -0.14807415
-0.35726047 0.011150771 -0.14987528
0.15916339 0.011084047 -0.15855992
0.18248355 0.011164767 -0.14807415
-0.3577823 0.034662046 -0.14705074
-0.33260083 0.034514908 -0.15660739
0.15914525 0.034502998 -0.15738225
0.18248017 0.034653086 -0.14763558
-0.35830212 0.058216482 -0.14423704
-0.33309871 0.057995699 -0.15379512
0.15912686 0.057940528 -0.1561873
0.18247542 0.058152199 -0.14701819
-0.33359468 0.081519544 -0.15099382
0.13573158 0.081327774 -0.1572206
0.15907508 0.081463203 -0.15282416
0.1824654 0.081681952 -0.14571774
-0.33409441 0.10508741 -0.14817142
-0.30899906 0.10472036 -0.15770483
0.11234573 0.10470738 -0.15804362
0.13564947 0.1048758 -0.15366578
0.15902019 0.10504538 -0.14925885
0.18245539 0.1052319 -0.14441633
-0.33459508 0.1286988 -0.14534366
-0.30947489 0.12825769 -0.15489471
0.11223632 0.12827642 -0.15449059
0.1355668 0.1284799 -0.15008616
0.15896241 0.12869132 -0.14550626
-0.33509672 0.15235406 -0.14251065
-0.30994898 0.15183753 -0.15209568
0.088836469 0.15166315 -0.15533113
0.11212516 0.15190312 -0.15088046
0.13545541 0.15220569 -0.14526236
-0.28592825 0.17507112 -0.15562201
0.065448791 0.17503829 -0.15615523
0.088655181 0.17537898 -0.15062106
-0.31081438 0.17560297 -0.14698577
0.11194415 0.17572516 -0.14500213
-0.28731132 0.19908717 -0.14706707
-0.26274127 0.19860087 -0.15408635
-0.23906945 0.19848889 -0.15570271
-0.21542285 0.19837703 -0.15731764
0.042019829 0.19846986 -0.15597749
0.065181956 0.19885778 -0.15037811
0.088429511 0.19924729 -0.14475799
-0.26380944 0.22257034 -0.14714825
-0.23991944 0.22235924 -0.14989173
-0.21622722 0.22223455 -0.15151262
-0.19256018 0.22210975 -0.15313184
-0.1689183 0.22198531 -0.15474927
-0.14530151 0.22186077 -0.15636516
-0.12170978 0.22173668 -0.15797925
0.018584132 0.22190937 -0.15573502
0.041704983 0.22234055 -0.1501348
0.064911112 0.22277306 -0.14451385
-0.24077265 0.24632074 -0.14405811
-0.21703465 0.2461829 -0.14568532
-0.19332196 0.24604534 -0.1473105
-0.16963451 0.24590783 -0.14893448
-0.14597224 0.24577062 -0.15055633
-0.12233512 0.24563335 -0.15217662
-0.098723128 0.24549635 -0.15379524
-0.07514517 0.24536757 -0.15531504
-0.051726148 0.2453744 -0.15523422
-0.028304666 0.24537982 -0.15516949
-0.0048832595 0.24538665 -0.1550889
0.018224254 0.24582686 -0.1498915
0.041388065 0.24630423 -0.14425337
-0.17035343 0.26992217 -0.14309716
-0.14664553 0.26977161 -0.14472556
-0.12303118 0.26967993 -0.14571774
-0.099539623 0.26968741 -0.14563644
-0.07604523 0.26969349 -0.14557147
-0.052551255 0.269701 -0.14548993
-0.029054776 0.26970708 -0.14542496
-0.0055584311 0.26971456 -0.14534378
0.017862022 0.26983777 -0.14400923
-0.2197106 -0.31974944 -0.12637341
-0.19607271 -0.31975764 -0.12629116
-0.17243154 -0.31976411 -0.12622535
-0.14879127 -0.31977248 -0.12614286
-0.12514795 -0.31977907 -0.12607718
-0.10150523 -0.31978732 -0.12599456
-0.077859774 -0.31979388 -0.12592888
-0.054214671 -0.31980205 -0.12584651
-0.03056702 -0.31980875 -0.12578046
-0.0069195032 -0.31981686 -0.12569821
0.01672928 -0.31982523 -0.12561572
-0.24282993 -0.29576641 -0.1299926
-0.21865432 -0.29539654 -0.13399649
-0.19485001 -0.29524526 -0.13563418
-0.1712162 -0.29520294 -0.13609266
-0.14764993 -0.29520899 -0.1360271
-0.12408443 -0.2952165 -0.1359452
-0.10051598 -0.29522255 -0.13587987
-0.076948091 -0.29523015 -0.13579786
-0.053377524 -0.2952362 -0.13573253
-0.02980721 -0.29524365 -0.13565063
-0.0062345117 -0.29524985 -0.13558507
0.017338187 -0.2952573 -0.13550341
0.040753186 -0.2955375 -0.13247144
0.064076275 -0.29609463 -0.12643933
-0.26646078 -0.27215117 -0.1299268
-0.24162437 -0.27144766 -0.13823497
-0.21784069 -0.27130935 -0.13986838
-0.19408239 -0.27117121 -0.14149988
0.041071668 -0.27143526 -0.13838184
0.064366251 -0.2719149 -0.13271761
0.087745339 -0.27240053 -0.12698269
-0.29009539 -0.2485362 -0.12984478
-0.26512891 -0.24786387 -0.13857806
0.064639971 -0.24785894 -0.1386435
0.087975539 -0.24829613 -0.13296366
0.11139842 -0.24873377 -0.12727904
-0.31373125 -0.22491993 -0.12976265
-0.28869677 -0.22431484 -0.13849652
0.088203587 -0.22428772 -0.13888848
0.11158154 -0.22468005 -0.13322592
0.1350458 -0.2250749 -0.12752593
-0.33736831 -0.20130248 -0.1296804
-0.31226593 -0.20076458 -0.13841462
0.11176345 -0.20072034 -0.13913357
0.13518313 -0.20106892 -0.13347185
0.15868938 -0.20141995 -0.12777269
-0.3610037 -0.17768291 -0.12961447
-0.33583343 -0.17721213 -0.13834929
0.13531953 -0.1771567 -0.13937843
0.15878092 -0.17746177 -0.13371778
0.1823293 -0.17776784 -0.12803602
-0.36040008 -0.15390825 -0.13288164
0.15887184 -0.15359688 -0.13962328
0.18237492 -0.15385821 -0.13396358
0.20596515 -0.15412064 -0.12828267
-0.38531452 -0.13057281 -0.12604415
-0.35987639 -0.13020056 -0.13571608
0.18242051 -0.13004014 -0.13988447
0.20596515 -0.13037279 -0.13124073
-0.38476658 -0.10683404 -0.12889123
-0.35935068 -0.1065362 -0.13856161
0.20596515 -0.10669642 -0.13335717
-0.38421655 -0.083138727 -0.13174951
-0.35882592 -0.082915761 -0.14140224
0.20596515 -0.083066814 -0.13486469
-0.40919334 -0.059636869 -0.12490714
-0.38366747 -0.059487492 -0.13460267
0.20596515 -0.059463367 -0.13617432
0.22962254 -0.059631679 -0.12523675
-0.4086197 -0.035954788 -0.12777281
-0.3831194 -0.035880279 -0.13745022
0.20596515 -0.035883386 -0.13704157
0.22961368 -0.035965476 -0.12638998
-0.4080472 -0.012316888 -0.13063323
0.20596515 -0.012316938 -0.13748312
-0.38257235 -0.012316837 -0.14029264
0.22961025 -0.012316837 -0.12683463
-0.40805054 0.011299078 -0.13061678
-0.38257551 0.011224722 -0.14027631
0.20596515 0.01124625 -0.13748312
0.22961025 0.011328242 -0.12683475
-0.40862304 0.034959018 -0.12775624
-0.38312256 0.0348101 -0.13743401
0.20596515 0.034816153 -0.13704157
0.22961368 0.034980088 -0.12638998
-0.40919334 0.058662929 -0.1249069
-0.38366747 0.058438942 -0.13460255
0.20596515 0.05840265 -0.13617432
0.22962254 0.058655292 -0.12523675
-0.38421655 0.082112111 -0.13174963
-0.35882592 0.081814989 -0.14140224
0.20596515 0.08201623 -0.13486469
-0.38476658 0.10582931 -0.12889135
-0.35935068 0.10545727 -0.13856173
0.20596515 0.10565764 -0.13335705
-0.38531768 0.12959084 -0.1260277
-0.35987639 0.12914357 -0.1357162
0.18242037 0.12895174 -0.13986826
0.20596515 0.12935016 -0.13124061
-0.36040312 0.15287369 -0.13286519
0.15887159 0.15251055 -0.13960719
0.18237479 0.15281563 -0.13394725
0.20596515 0.15312161 -0.12826645
-0.36100978 0.17667477 -0.12958181
-0.33584213 0.17613772 -0.1383003
0.13531914 0.17607242 -0.1393621
0.15878041 0.17642201 -0.13368487
0.18232904 0.17677197 -0.12800324
-0.33737421 0.20029414 -0.12964749
-0.31227148 0.19968896 -0.13838196
0.11176295 0.19963805 -0.139117
0.13518235 0.20003152 -0.13343918
0.15868914 0.20042509 -0.12775624
-0.3137368 0.22391123 -0.12972975
-0.28870207 0.223239 -0.13846374
0.088202327 0.22320873 -0.13885581
0.11158053 0.22364475 -0.13319314
0.13504544 0.22408219 -0.12750936
-0.29010069 0.2475272 -0.12981176
-0.26513392 0.24678759 -0.13854539
0.064638451 0.24678208 -0.13861084
0.087974906 0.24726169 -0.13294709
0.11139792 0.24774294 -0.12726259
-0.26646841 0.27114317 -0.12987757
-0.24162675 0.27037257 -0.13821864
-0.21784295 0.27022189 -0.13985193
-0.19408666 0.27007264 -0.14146733
0.041070804 0.27035919 -0.13836575
0.064365506 0.27088228 -0.13270116
0.087744705 0.2714121 -0.12696624
-0.2428347 0.29475671 -0.12995982
-0.21865661 0.29435438 -0.13397992
-0.19485216 0.29419044 -0.13561785
-0.17122023 0.29414615 -0.13605976
-0.14765559 0.2941545 -0.13597798
-0.12408791 0.29416093 -0.13591254
-0.10052089 0.29416916 -0.13583064
-0.076951101 0.29417574 -0.13576531
-0.053381696 0.29418397 -0.13568342
-0.029809728 0.29419044 -0.13561785
-0.0062367916 0.29419699 -0.13555229
0.017336175 0.2942051 -0.13547051
0.040752292 0.29450697 -0.13245523
0.064075515 0.29511061 -0.126423
-0.21971743 0.3187696 -0.12632406
-0.196077 0.31877658 -0.12625825
-0.17243762 0.31878546 -0.12617588
-0.14879505 0.31879264 -0.12610996
-0.12515147 0.31879973 -0.12604403
-0.10150854 0.31880867 -0.12596166
-0.077862784 0.31881565 -0.12589598
-0.054217443 0.31882462 -0.12581348
-0.030569568 0.31883168 -0.12574768
-0.006921798 0.31884053 -0.12566507
0.016728252 0.31884766 -0.12559927
-0.22161777 -0.34488136 -0.11260974
-0.1973723 -0.34447709 -0.11636055
-0.17365678 -0.34448612 -0.11627758
-0.14993806 -0.34449318 -0.11621141
-0.12622012 -0.34450218 -0.11612844
-0.10249923 -0.34450927 -0.11606228
-0.078778848 -0.34451818 -0.11597919
-0.055055812 -0.34452537 -0.11591303
-0.031333014 -0.34453434 -0.11583006
-0.0076078027 -0.34454149 -0.11576355
0.015967175 -0.34481341 -0.11324096
0.039562836 -0.34512159 -0.11038125
0.063202262 -0.34543034 -0.10751641
-0.26915002 -0.32114178 -0.11246014
-0.24416526 -0.32030085 -0.12086284
0.040318027 -0.3199473 -0.12439597
0.063700274 -0.32055739 -0.11829889
0.087117232 -0.32132152 -0.11066413
-0.29291648 -0.29739207 -0.11239362
-0.26780033 -0.29657611 -0.12122655
0.087432124 -0.29679617 -0.11884511
0.11090372 -0.29750112 -0.11121321
-0.31668681 -0.27364296 -0.11231041
-0.291502 -0.27289489 -0.12114394
0.11115554 -0.27304333 -0.1193912
0.13468176 -0.27368927 -0.11176193
-0.34045845 -0.2498924 -0.11222732
-0.31520486 -0.24921238 -0.12106109
0.13487054 -0.24929896 -0.11993694
0.15845159 -0.24988467 -0.1123271
-0.36422831 -0.22613943 -0.11216092
-0.33890903 -0.22552848 -0.12097859
0.15857714 -0.22556295 -0.1204828
0.18221259 -0.22609 -0.11287534
-0.38800234 -0.20238645 -0.11207783
-0.36261141 -0.20184243 -0.12091231
0.18227547 -0.20183423 -0.12104475
0.20596515 -0.20230372 -0.11342359
-0.41207397 -0.17871206 -0.11051452
-0.38641983 -0.17818467 -0.12030077
0.20596515 -0.1781152 -0.1215899
0.22970927 -0.17852578 -0.11397159
-0.41149497 -0.15480772 -0.11340702
-0.38586664 -0.15435658 -0.12317514
0.22968297 -0.15462378 -0.11738789
-0.4109171 -0.13094811 -0.11629426
0.22966462 -0.13081425 -0.1197716
0.25354663 -0.13127053 -0.10791636
-0.43607992 -0.10743476 -0.10938251
-0.41034365 -0.10713361 -0.11915958
0.2296482 -0.10704912 -0.12190378
0.25350916 -0.10740503 -0.11034799
-0.43548173 -0.083588742 -0.1122607
-0.40976793 -0.083363026 -0.12203598
0.22963271 -0.08331956 -0.1239177
0.25347614 -0.0835834 -0.11249328
-0.43488121 -0.059787113 -0.11514997
0.25344929 -0.059801109 -0.11423719
-0.46010715 -0.036105234 -0.10823309
-0.43428177 -0.036029808 -0.11803377
0.25342888 -0.036048744 -0.11556482
-0.45948279 -0.012316938 -0.11112988
-0.43368351 -0.012316938 -0.12091243
0.25342068 -0.012316888 -0.11609542
-0.45948631 0.011449219 -0.11111319
-0.43368691 0.011373946 -0.12089586
0.25342068 0.011410845 -0.1160953
-0.46011078 0.035259906 -0.1082164
-0.43428522 0.035108954 -0.11801732
0.25342888 0.035146818 -0.11556458
-0.43488121 0.058888242 -0.11514986
0.25344929 0.058909312 -0.11423719
-0.43548173 0.082712263 -0.11226058
-0.40976793 0.082411274 -0.12203598
0.22963271 0.082353354 -0.1239177
0.25347614 0.08270514 -0.11249328
-0.43608338 0.10658102 -0.10936582
-0.41034365 0.10620394 -0.11915958
0.2296482 0.10609839 -0.12190378
0.25350916 0.10654321 -0.11034799
-0.4109171 0.13004065 -0.11629426
0.22966474 0.12988064 -0.11975515
0.25354686 0.13042825 -0.10789967
-0.41149497 0.15392238 -0.11340714
-0.38586986 0.15339699 -0.12315857
0.22968297 0.15370782 -0.11738789
-0.41207397 0.17784901 -0.1105144
-0.38641983 0.17724642 -0.12030077
0.20596515 0.17716891 -0.121557
0.22970952 0.1776381 -0.11393845
-0.38800877 0.20151359 -0.11204457
-0.36262059 0.20090289 -0.12086296
0.18227522 0.20089231 -0.12101161
0.20596515 0.2014204 -0.11339045
-0.36423749 0.22526757 -0.11211109
-0.33891487 0.22458741 -0.12094545
0.15857689 0.22462432 -0.12046611
0.18221232 0.22521134 -0.11284232
-0.34046727 0.24902035 -0.11217725
-0.31521046 0.24827088 -0.12102818
0.13487017 0.24836458 -0.11992049
0.15845108 0.24901043 -0.11229372
-0.31669527 0.27277064 -0.11226058
-0.29150999 0.27195466 -0.12109423
0.11115503 0.27211344 -0.11937463
0.13468137 0.27281833 -0.11174524
-0.29292458 0.29651946 -0.11234367
-0.26780796 0.2956357 -0.12117696
0.087431483 0.29587057 -0.11882842
0.11090321 0.29663438 -0.11119652
-0.26915514 0.32026738 -0.11242688
-0.24417491 0.31936532 -0.1207968
0.040315345 0.31898263 -0.12434649
0.063699514 0.31963634 -0.11828232
0.087116599 0.32045904 -0.11064744
-0.22162469 0.344008 -0.1125598
-0.1973788 0.34357476 -0.11631083
-0.17366086 0.34358239 -0.11624467
-0.14994381 0.34359214 -0.11616158
-0.12622367 0.34359983 -0.1160953
-0.10250421 0.34360933 -0.11601233
-0.078781918 0.34361696 -0.11594617
-0.055058613 0.34362444 -0.11587977
-0.031335562 0.34363416 -0.1157968
-0.0076100826 0.34364191 -0.1157304
0.015964106 0.34393516 -0.11319113
0.039560139 0.34426531 -0.1103313
0.063199937 0.34459612 -0.10746622
-0.17615809 -0.3944402 -0.095969558
-0.152256 -0.39441937 -0.096137524
-0.12838365 -0.39442977 -0.0960536
-0.1045083 -0.39443803 -0.095986366
-0.080633506 -0.39444846 -0.095902324
-0.05694671 -0.39473414 -0.093582511
-0.033268571 -0.39509082 -0.090686202
-0.24859618 -0.37118116 -0.090568185
0.086338557 -0.37119669 -0.090433598
-0.22371642 -0.3703849 -0.097463846
-0.19894905 -0.36959413 -0.10431206
-0.17488791 -0.36936656 -0.106282
-0.15109424 -0.3693763 -0.10619855
-0.12729748 -0.36938399 -0.10613179
-0.10350133 -0.36939359 -0.10604858
-0.079702392 -0.36940134 -0.10598183
-0.055903807 -0.36941096 -0.10589814
-0.032175958 -0.36952862 -0.10487974
-0.00856103 -0.36986059 -0.10200465
0.015097797 -0.37019321 -0.099124193
0.038800716 -0.37052634 -0.096238256
0.062547803 -0.37086016 -0.093347073
-0.29620504 -0.34709707 -0.09205091
-0.27123159 -0.3463546 -0.098939776
-0.24637111 -0.34561726 -0.10578144
0.086801313 -0.34597564 -0.10245633
0.11039657 -0.346807 -0.094742894
-0.31967908 -0.32292479 -0.094642043
-0.2943418 -0.32203066 -0.10357666
0.11065108 -0.32208762 -0.10300827
0.13430151 -0.32285932 -0.095297456
-0.34358394 -0.29903805 -0.094574809
-0.31817728 -0.29821274 -0.1035099
0.13449234 -0.29820818 -0.10355985
0.15819794 -0.29892018 -0.095851898
-0.36749291 -0.27515191 -0.094490767
-0.3420167 -0.27439526 -0.10342622
0.15832511 -0.27433723 -0.10411143
0.18208581 -0.27498963 -0.096406221
-0.39139992 -0.25126293 -0.094423532
-0.36585438 -0.2505751 -0.10335922
0.18214937 -0.25047469 -0.10466278
0.20596515 -0.25106767 -0.096960306
-0.41531134 -0.22737429 -0.094339371
-0.3896963 -0.22675505 -0.10327578
0.20596515 -0.22662079 -0.10521388
0.22983596 -0.22715427 -0.097514153
-0.43922406 -0.2034841 -0.094255328
-0.41353947 -0.20293371 -0.10319209
0.22977245 -0.20277528 -0.10576475
0.25370187 -0.20326383 -0.097832918
-0.46387106 -0.17977606 -0.090770483
-0.43788826 -0.17924182 -0.10068238
0.25363427 -0.17915896 -0.10222208
-0.46323961 -0.15571803 -0.093700171
-0.43728667 -0.15526175 -0.10357666
0.25359052 -0.15519309 -0.10506368
0.27769014 -0.15576698 -0.092640162
-0.46261293 -0.13170584 -0.096607685
-0.43668276 -0.13132575 -0.10648239
0.27762371 -0.13174787 -0.095515847
-0.46198386 -0.10773824 -0.099526405
0.27755743 -0.1077733 -0.098386407
-0.48739898 -0.084044255 -0.092539072
-0.46135592 -0.083815582 -0.10243964
0.27749979 -0.083851613 -0.10088313
-0.48674572 -0.060090087 -0.095465422
-0.46073276 -0.059938166 -0.10533071
0.27744994 -0.059973437 -0.10304165
0.30163789 -0.060153302 -0.091360211
-0.4860974 -0.036181118 -0.098369598
0.27741635 -0.03613399 -0.10449564
0.3015767 -0.036219798 -0.093346953
-0.51157641 -0.012316888 -0.091377139
-0.48544657 -0.012316888 -0.1012851
0.27739784 -0.012316938 -0.10529733
0.30154407 -0.012316938 -0.094406486
-0.51158035 0.011601293 -0.09136045
-0.48545027 0.011525053 -0.10126829
0.27739784 0.011494006 -0.10529733
0.30154407 0.011577881 -0.094406605
-0.48610115 0.035411831 -0.09835279
0.27741635 0.035317115 -0.10449564
0.30157721 0.035489086 -0.093330145
-0.48674947 0.059343137 -0.095448613
-0.46073276 0.05911503 -0.10533071
0.27744994 0.05916781 -0.10304165
0.30163839 0.05943796 -0.091343403
-0.48740274 0.083319999 -0.092522264
-0.4613595 0.083015241 -0.10242283
0.27749979 0.083062574 -0.10088325
-0.46198744 0.10696035 -0.099509716
0.27755782 0.10700417 -0.098369718
-0.46261293 0.13094974 -0.096607685
-0.43668276 0.13049366 -0.10648227
0.27762413 0.13100098 -0.095499039
-0.46324325 0.15498517 -0.093683362
-0.43728667 0.15445215 -0.10357666
0.25359052 0.15437193 -0.10506368
0.27769014 0.15504141 -0.092640162
-0.46387476 0.17906581 -0.090753675
-0.43789178 0.17845547 -0.10066545
0.25363454 0.17836072 -0.10220551
-0.43923104 0.20274849 -0.09422183
-0.41354614 0.20212941 -0.10315871
0.2297727 0.20195103 -0.10573137
0.25370237 0.20250075 -0.097799301
-0.41531813 0.22663802 -0.094305634
-0.38970596 0.22595151 -0.10322571
0.20596515 0.22580101 -0.1051805
0.22983623 0.22639388 -0.097480536
-0.39140964 0.25052786 -0.094372988
-0.36586368 0.24977119 -0.10330915
0.18214911 0.24965943 -0.10462928
0.20596515 0.25031173 -0.096926689
-0.36750221 0.27441674 -0.094440222
-0.34202564 0.27359137 -0.10337615
0.15832458 0.27352643 -0.10407794
0.18208554 0.27423826 -0.096372604
-0.34359282 0.29830286 -0.094524264
-0.31818581 0.29740873 -0.1034596
0.13449156 0.29740196 -0.10352659
0.15819742 0.29817337 -0.0958184
-0.3196848 0.32218769 -0.094608426
-0.29434723 0.3212246 -0.10354316
0.11065005 0.3212859 -0.10297477
0.13430074 0.322117 -0.095263958
-0.2712419 0.34558839 -0.098872542
-0.24637844 0.34479639 -0.10573137
0.086800031 0.34517857 -0.10242283
0.11039553 0.34606907 -0.094709396
-0.29621321 0.34638199 -0.092000365
-0.2486036 0.37047774 -0.090517879
-0.22372575 0.36963063 -0.097396612
-0.19895779 0.36878705 -0.10424519
-0.17489408 0.36854231 -0.10623193
-0.15109809 0.36855066 -0.10616517
-0.12730287 0.36856082 -0.10608184
-0.10350467 0.36856908 -0.10601497
-0.079707012 0.3685793 -0.10593164
-0.055906639 0.36858761 -0.10586488
-0.032179803 0.36871508 -0.10482979
-0.0085645169 0.36906922 -0.10195446
0.015093669 0.36942598 -0.099057198
0.038797095 0.36978143 -0.096171141
0.062544703 0.37013754 -0.093279839
0.086336605 0.37049448 -0.090382934
-0.17616634 0.39369783 -0.095902324
-0.15226181 0.39367378 -0.096087217
-0.12838726 0.39368248 -0.096019983
-0.10451336 0.39369342 -0.095935941
-0.080636606 0.39370227 -0.095868707
-0.056952402 0.39401025 -0.093515158
-0.033273757 0.39438924 -0.090618968
-0.13079573 -0.44529527 -0.073671937
-0.20295657 -0.4212386 -0.073688984
-0.1780438 -0.42032644 -0.080659389
-0.15342729 -0.41962832 -0.085993767
-0.12947507 -0.4196372 -0.085926175
-0.10559629 -0.41974336 -0.085114479
-0.081899032 -0.42012444 -0.082202435
-0.058157399 -0.42050627 -0.079284787
-0.034372583 -0.42089096 -0.076344848
-0.010541692 -0.42127436 -0.073416352
-0.25084579 -0.39699978 -0.075187683
-0.2258382 -0.39614207 -0.082151532
-0.20094185 -0.39528808 -0.089084387
-0.0095462352 -0.39544827 -0.087784767
0.014220446 -0.39580628 -0.08487761
0.038030684 -0.39616704 -0.081948161
0.061886534 -0.39652655 -0.079030275
0.085787117 -0.39688668 -0.076106668
-0.29868633 -0.37278223 -0.076701999
-0.27358681 -0.37198091 -0.083642006
0.1101407 -0.37165859 -0.086433172
0.13389602 -0.37266257 -0.077739
-0.34674835 -0.34875128 -0.07670188
-0.32128984 -0.34784278 -0.085131288
0.13410968 -0.34764239 -0.086990833
0.1579175 -0.3486504 -0.077637196
-0.37079513 -0.32472867 -0.076617002
-0.34516311 -0.32382417 -0.08565557
0.15807009 -0.32363477 -0.087548137
0.18194054 -0.32463685 -0.077535033
-0.39483988 -0.30070332 -0.076548934
-0.3691377 -0.29986826 -0.085587978
0.18202008 -0.29965764 -0.087869048
0.20596515 -0.30062157 -0.077433109
-0.41888911 -0.27667835 -0.076464057
-0.39311659 -0.27591288 -0.085503459
0.20596515 -0.2757211 -0.08776772
0.2299912 -0.27660343 -0.077348113
-0.44293612 -0.25265074 -0.076395869
-0.4170934 -0.25195479 -0.085435629
0.22991176 -0.25178319 -0.087666392
0.25401881 -0.25258529 -0.077246189
-0.46698785 -0.22862324 -0.076310873
-0.44107479 -0.22799689 -0.085351348
0.25385994 -0.22784358 -0.087565184
0.27804801 -0.22856548 -0.077144027
-0.49103701 -0.20459341 -0.076242685
-0.4650538 -0.20403655 -0.085283637
0.27784714 -0.20400226 -0.085841537
-0.49002075 -0.18031356 -0.08079505
0.2777676 -0.17985591 -0.089286804
0.30211911 -0.18058631 -0.075732231
-0.48936254 -0.1561778 -0.083743691
0.30201232 -0.1563877 -0.07919991
-0.48870552 -0.13208775 -0.08668673
0.30190632 -0.13224344 -0.082642913
-0.5153113 -0.10848711 -0.07520473
-0.4880535 -0.10804356 -0.089607358
0.30180573 -0.10815756 -0.085909128
-0.51431417 -0.084344886 -0.079522371
0.30171731 -0.084131077 -0.088780522
0.32614842 -0.08442688 -0.07597065
-0.51331586 -0.060269035 -0.083845377
0.32602739 -0.060341865 -0.079115152
-0.51232034 -0.0362597 -0.088155985
0.32592553 -0.036309071 -0.081761718
0.32586032 -0.012316938 -0.08345592
0.32586032 0.011662061 -0.083455801
-0.51232815 0.035569299 -0.088122487
0.32592553 0.03566727 -0.081761718
-0.51331979 0.059611611 -0.08382833
0.32602805 0.059720829 -0.079097986
-0.51431811 0.0837209 -0.079505563
0.30171785 0.083435737 -0.088763714
0.32614908 0.083830327 -0.075953603
-0.51531917 0.10789712 -0.075170755
-0.48805726 0.10734206 -0.089590311
0.30180627 0.10748451 -0.08589232
-0.48870927 0.13140875 -0.086669683
0.30190682 0.13159564 -0.082625866
-0.48936629 0.15552166 -0.083726764
0.30201286 0.15576646 -0.079182982
-0.49002075 0.17967924 -0.080795288
0.27776796 0.17915727 -0.089269757
0.30211911 0.17999093 -0.07573235
-0.49104464 0.20399645 -0.076208711
-0.4650647 0.2033713 -0.085232735
0.27784714 0.20332906 -0.085841656
-0.46699518 0.22802603 -0.076276779
-0.44108182 0.22733009 -0.085317373
0.25386047 0.22715975 -0.087531328
0.27804878 0.22796196 -0.077110052
-0.44294667 0.25205472 -0.076344848
-0.41710359 0.25128901 -0.085385084
0.22991203 0.25109881 -0.087632656
0.25401935 0.25198114 -0.077212095
-0.4188959 0.27608055 -0.076429725
-0.39312309 0.27524552 -0.085469604
0.20596515 0.27503619 -0.087733865
0.22999147 0.27599886 -0.077314019
-0.39484972 0.30010688 -0.076497912
-0.36914706 0.29920226 -0.085537076
0.18201983 0.29897228 -0.087835312
0.20596515 0.30001673 -0.077399135
-0.37080139 0.32413015 -0.076582909
-0.34516913 0.32315618 -0.085621715
0.15806957 0.32295218 -0.0875144
0.18194027 0.32403135 -0.077501178
-0.34675437 0.34815237 -0.076668024
-0.32129842 0.34718087 -0.085080624
0.1341089 0.34696421 -0.086956978
0.15791698 0.34804431 -0.077602983
-0.29869735 0.37218791 -0.07663393
-0.27359462 0.37133095 -0.083591342
0.11013966 0.37098506 -0.086399436
0.13389525 0.37205589 -0.077705145
-0.25085324 0.39641532 -0.075136542
-0.2258452 0.395504 -0.08210063
-0.20095067 0.39459899 -0.089016676
-0.0095509142 0.39476907 -0.087717056
0.014216274 0.39514941 -0.084809899
0.038027942 0.39553046 -0.081897259
0.06188418 0.39591259 -0.078979135
0.085785151 0.39629507 -0.076055765
-0.20296322 0.4206661 -0.073638082
-0.17805217 0.41970256 -0.080591559
-0.15343313 0.41896108 -0.085942984
-0.12948056 0.41897058 -0.085875392
-0.10560305 0.4190852 -0.085046887
-0.08190532 0.41948876 -0.082134485
-0.058163151 0.41989312 -0.079216957
-0.034376502 0.42029813 -0.076293707
-0.010545254 0.42070383 -0.073365211
-0.13080491 0.44472817 -0.073586702
-0.10849039 -0.4719058 -0.056194663
-0.20498909 -0.44744489 -0.058157802
-0.1799482 -0.44646943 -0.065197706
-0.15502132 -0.44550067 -0.072188854
-0.10703667 -0.44570407 -0.070721388
-0.083231106 -0.44611123 -0.067782283
-0.059380755 -0.44651929 -0.064837694
-0.035486832 -0.44693044 -0.061870456
-0.011546403 -0.44734004 -0.058914781
-0.25311524 -0.42307299 -0.059671283
0.061219156 -0.42243049 -0.064580798
0.085192882 -0.42294264 -0.060668111
-0.22797857 -0.42215273 -0.066704273
0.013333932 -0.42165831 -0.070482373
0.037254423 -0.42204294 -0.067542911
-0.30119503 -0.39872462 -0.061183691
-0.27596277 -0.39785922 -0.068209887
0.10970313 -0.39736494 -0.072222948
0.13360322 -0.39824706 -0.065060616
0.15759692 -0.3992627 -0.05681479
-0.3492285 -0.37439972 -0.062694311
-0.32390082 -0.37358925 -0.069713831
0.15775788 -0.37387145 -0.067269087
0.18178023 -0.3750906 -0.056711435
-0.39831966 -0.35071635 -0.058467507
-0.37245893 -0.34973097 -0.067611217
0.18186072 -0.34977898 -0.067166328
0.20596515 -0.35091686 -0.056608081
-0.42250484 -0.32655197 -0.058398604
-0.39657313 -0.32563686 -0.067542791
0.20596515 -0.3256864 -0.067046762
0.23015165 -0.32674137 -0.056504846
-0.44669467 -0.30238792 -0.058312654
-0.42069173 -0.30154327 -0.067457318
0.23007129 -0.30159059 -0.066944003
0.25433975 -0.30256447 -0.056401491
-0.44481176 -0.27744827 -0.067371726
0.254179 -0.27749318 -0.066841364
-0.46892935 -0.25335065 -0.067303419
0.2782883 -0.25339416 -0.066738605
-0.49402714 -0.2295559 -0.062848687
0.3024171 -0.22933385 -0.066053867
-0.51970148 -0.20582801 -0.056194663
0.3022261 -0.20483887 -0.072257042
0.3268539 -0.2057389 -0.057641387
-0.51833129 -0.1813195 -0.062127829
0.32670632 -0.18135452 -0.061475515
-0.51732183 -0.15697432 -0.066498876
0.32655913 -0.15702964 -0.065300465
-0.51631516 -0.13269697 -0.070858002
0.32641554 -0.13276725 -0.069030404
0.32628149 -0.10857002 -0.072512865
0.3510102 -0.10901367 -0.058106065
-0.54331517 -0.084827982 -0.058605075
0.35083318 -0.084750876 -0.061939001
-0.54226977 -0.060590081 -0.062985897
0.35065654 -0.06054743 -0.065762758
-0.54122722 -0.036419917 -0.06735456
0.35049379 -0.036405057 -0.069286704
-0.54019159 -0.012316938 -0.071694136
0.3503629 -0.01231699 -0.072120547
0.37520105 -0.012316888 -0.057796121
-0.54019976 0.011752908 -0.071660042
0.35036367 0.01174955 -0.07210362
0.37520292 0.011859992 -0.057761908
-0.54123539 0.035889629 -0.067320585
0.35049534 0.035859808 -0.069252491
-0.54227793 0.060093738 -0.062951684
0.35065734 0.060029201 -0.065745592
-0.5433234 0.084365435 -0.058570743
0.35083395 0.084262326 -0.061922073
0.32628214 0.10800013 -0.072495818
0.35101098 0.10855463 -0.058088899
-0.51632303 0.13214083 -0.070823789
0.32641554 0.13222353 -0.069030404
-0.51732969 0.15645197 -0.066464782
0.32655978 0.15651554 -0.065283179
-0.51833522 0.18082982 -0.062110782
0.32670698 0.1808701 -0.061458468
0.3022261 0.20427026 -0.072257042
0.32685459 0.20528409 -0.057623982
-0.49403864 0.22906367 -0.062797189
0.30241817 0.22881567 -0.066019535
-0.46893668 0.25282308 -0.067269206
0.27828872 0.25286946 -0.066721559
-0.44481879 0.27692032 -0.067337513
0.25417927 0.27696785 -0.066824198
-0.44670177 0.30193019 -0.058278084
-0.42069858 0.30101493 -0.067422986
0.23007143 0.30106473 -0.066926837
0.25434026 0.30212146 -0.05636692
-0.42251515 0.32609561 -0.058346987
-0.39658296 0.32510993 -0.067491412
0.20596515 0.32516164 -0.067012548
0.23015192 0.32629782 -0.056470394
-0.39832628 0.35025793 -0.058432817
-0.37246525 0.34920207 -0.067577124
0.18186033 0.34925541 -0.067115068
0.20596515 0.35047272 -0.056573749
-0.34923762 0.37391096 -0.062642813
-0.32390952 0.37304661 -0.069662571
0.15775707 0.37334764 -0.067217827
0.18177997 0.37464583 -0.056676984
-0.2759707 0.39732853 -0.068158627
0.10970103 0.39680552 -0.07215476
-0.30120337 0.39824805 -0.061131954
0.13360165 0.39774281 -0.064991951
0.15759638 0.39881757 -0.056780457
-0.25312275 0.42260861 -0.059619784
-0.22798805 0.42163625 -0.066635966
0.013329715 0.42111275 -0.070414186
0.037250757 0.42152011 -0.067474246
0.061216772 0.42192829 -0.0645293
0.085190237 0.42247272 -0.060599566
-0.20499809 0.44699502 -0.058088779
-0.17995878 0.4459677 -0.065111876
-0.15502922 0.44494259 -0.072120547
-0.10704349 0.44515735 -0.0706532
-0.083237424 0.44558701 -0.067713857
-0.059386566 0.44601789 -0.06476903
-0.035490796 0.44644949 -0.061818838
-0.011549965 0.44688168 -0.058863163
-0.2070419 -0.47391298 -0.04247117
-0.012560487 -0.47364885 -0.044277787
0.011536077 -0.47408605 -0.041288853
-0.18222569 -0.47329348 -0.046706557
-0.1575679 -0.47279209 -0.050135016
-0.13296364 -0.47229168 -0.053556085
-0.084575549 -0.47233963 -0.05322814
-0.060615495 -0.47277436 -0.050256133
-0.036611453 -0.47321242 -0.047261238
-0.25540733 -0.44940665 -0.04400003
-0.23014273 -0.44842482 -0.051086187
0.012439176 -0.44775033 -0.055953383
0.036470041 -0.44816136 -0.052986503
0.060500786 -0.44871008 -0.049027681
0.084465049 -0.44971722 -0.041758418
-0.30372596 -0.42492399 -0.045527339
-0.27836502 -0.42399752 -0.052606583
0.10912515 -0.42388687 -0.05345273
0.13316774 -0.4248355 -0.046203852
-0.37757283 -0.40134227 -0.039931536
-0.35199785 -0.40046507 -0.047053218
-0.32654077 -0.39959398 -0.054125667
0.18169922 -0.40057182 -0.046186566
-0.42616618 -0.37700805 -0.040105581
-0.40022296 -0.37602982 -0.048577547
-0.37467003 -0.37521386 -0.055643201
0.20596515 -0.37631792 -0.046082377
-0.4243319 -0.35170758 -0.049270034
0.23023269 -0.35206234 -0.045978427
-0.44863886 -0.32749671 -0.048958421
0.2545042 -0.32782084 -0.045718312
-0.47432667 -0.30387053 -0.042262673
0.27881783 -0.30372772 -0.043808937
-0.47138315 -0.27841797 -0.055918932
0.27853817 -0.27841797 -0.055918932
0.30316147 -0.27960679 -0.041880131
-0.49706626 -0.25474152 -0.049235463
0.3027876 -0.25437307 -0.054021955
0.32753423 -0.25545502 -0.039966345
-0.52285475 -0.23096284 -0.042540669
0.32706699 -0.23030023 -0.052105665
0.35172272 -0.20666035 -0.042679906
-0.54752636 -0.18246022 -0.040958285
0.3515439 -0.18215881 -0.046550512
-0.54646915 -0.15794936 -0.04538846
0.35136557 -0.15771738 -0.05041182
-0.54541487 -0.13350727 -0.049806356
0.35118768 -0.13333565 -0.054263711
-0.54436356 -0.10913347 -0.054211974
0.3760325 -0.10949824 -0.042366982
0.37581825 -0.085111164 -0.046342492
-0.57161832 -0.060915861 -0.041827917
0.37560552 -0.060785618 -0.050290823
-0.57052761 -0.036582377 -0.046255708
0.37539792 -0.036521606 -0.054142833
-0.56943989 -0.012316888 -0.05067122
-0.56944841 0.011914807 -0.05063653
-0.57053614 0.036214441 -0.046221137
0.3753998 0.036092956 -0.054108381
-0.57162684 0.060582384 -0.041793227
0.37560737 0.060386792 -0.050256133
0.37582013 0.084743023 -0.046307802
-0.54437178 0.10870503 -0.054177284
0.37603438 0.10916109 -0.042332172
-0.54542315 0.13311307 -0.049771905
0.35118848 0.13290644 -0.054246426
-0.54647326 0.1575885 -0.045371175
0.35136637 0.15731794 -0.050394535
-0.54753053 0.1821336 -0.040940881
0.35154474 0.1817892 -0.046533227
-0.51971346 0.20538674 -0.056142807
0.35172349 0.20632072 -0.042662382
-0.52286679 0.23062702 -0.042488456
0.3270683 0.22988935 -0.052071214
-0.49707776 0.25435463 -0.049183369
0.30278867 0.25394776 -0.053987741
0.32753623 0.25513956 -0.039914131
-0.4713943 0.27797994 -0.055867195
0.27853897 0.27797842 -0.05588448
0.30316254 0.27927527 -0.041845322
-0.47433794 0.30353802 -0.04221046
0.27881905 0.30338329 -0.043756843
-0.44864964 0.32711294 -0.048906565
0.25450504 0.32746235 -0.045666099
-0.42433882 0.35131997 -0.049235344
0.23023295 0.3517001 -0.045943618
-0.42617315 0.37669131 -0.040070772
-0.40023631 0.37565207 -0.048508406
-0.37467963 0.37477964 -0.055591464
0.20596515 0.3759551 -0.046047688
-0.37758249 0.40102932 -0.039879203
-0.35200703 0.40009737 -0.047001243
-0.32654953 0.3991718 -0.054073811
0.18169895 0.40020841 -0.046151757
-0.30373436 0.42456838 -0.045475364
-0.27837038 0.42358503 -0.052572131
0.10912303 0.42347261 -0.05338347
0.13316613 0.42447701 -0.046134353
-0.23014991 0.44802666 -0.051034212
0.012436002 0.44731486 -0.055901647
0.036467254 0.44774872 -0.052934527
0.060497582 0.44833052 -0.048958421
-0.25541753 0.44906589 -0.043930531
0.084462374 0.44939372 -0.0416888
-0.20705099 0.47358444 -0.042401552
-0.18223853 0.47293755 -0.046602488
-0.15757988 0.47240981 -0.050031304
-0.13297482 0.471883 -0.053452492
-0.10849558 0.47146878 -0.056142926
-0.084580347 0.47192556 -0.053176284
-0.060621336 0.47238591 -0.050186992
-0.036615446 0.47284421 -0.047209263
-0.012564078 0.47330353 -0.044225693
0.011532843 0.47376379 -0.041236639
-0.18508844 -0.50113386 -0.023463964
-0.16024585 -0.50059831 -0.026943088
-0.13545765 -0.50006366 -0.030414939
-0.11072539 -0.49953315 -0.033861399
-0.086046889 -0.49900359 -0.037300587
-0.061861768 -0.49927485 -0.035538316
-0.037746593 -0.49974033 -0.032515168
-0.013584033 -0.50020397 -0.029503822
0.010562852 -0.50082266 -0.025485635
-0.2577225 -0.47600448 -0.028171539
-0.23232614 -0.4749577 -0.035328746
0.035624802 -0.47466919 -0.037300587
0.059620872 -0.47574052 -0.029976845
0.083728381 -0.47681653 -0.022619367
-0.33189446 -0.45238388 -0.022513747
-0.30628234 -0.45138618 -0.029714108
-0.28078872 -0.45039546 -0.0368644
0.1085402 -0.45072907 -0.034455657
0.132727 -0.45174581 -0.027118802
-0.38050473 -0.42773315 -0.024062037
-0.35479796 -0.42679408 -0.031237602
-0.3292042 -0.42585695 -0.038398743
0.15732142 -0.42578852 -0.038921356
0.1815871 -0.4267436 -0.031622887
0.20596515 -0.42770556 -0.024273038
-0.40326369 -0.40222338 -0.032777429
0.20596515 -0.40188983 -0.035485864
0.2304083 -0.40340731 -0.023164988
0.23031425 -0.37755361 -0.035381079
-0.45148987 -0.35321954 -0.035241604
0.25469214 -0.35340592 -0.033511877
-0.47729594 -0.32954526 -0.028487086
0.27910009 -0.32923493 -0.031587958
0.30353773 -0.30503455 -0.029661655
-0.50012785 -0.28014532 -0.035520792
0.32800576 -0.28080621 -0.027715445
-0.52603549 -0.25631717 -0.028767586
0.35255259 -0.25662935 -0.024712443
0.35193974 -0.23127885 -0.037980437
-0.54875731 -0.20708404 -0.035800099
0.37689295 -0.20766298 -0.026399016
0.37667656 -0.1830284 -0.03041482
-0.57601207 -0.15893763 -0.023991585
0.37646163 -0.15845668 -0.034403086
-0.57490897 -0.1343285 -0.028469443
0.37624633 -0.13394628 -0.038398743
-0.57380897 -0.10978864 -0.032934904
0.40138799 -0.11002836 -0.025151968
-0.57271212 -0.085317895 -0.037387729
0.40115237 -0.085512064 -0.02897799
0.40094101 -0.061060861 -0.032410264
-0.60022557 -0.036746971 -0.024870753
0.40074837 -0.036664773 -0.035538197
-0.59908861 -0.012316938 -0.029345989
0.40061727 -0.012316888 -0.037666678
-0.59909749 0.012078992 -0.02931118
0.40061837 0.01201471 -0.037649274
-0.60023445 0.036543734 -0.024835467
0.40074944 0.036379188 -0.035520911
0.40094209 0.06079945 -0.03239274
-0.57272071 0.085018776 -0.0373528
0.40115452 0.085277833 -0.028943062
-0.57381761 0.10952408 -0.032899857
0.40139019 0.10982364 -0.025116801
-0.57491332 0.13409774 -0.028452039
0.37624818 0.13364004 -0.038363934
0.37646258 0.15818046 -0.034385562
-0.57601643 0.15874152 -0.023973942
0.37667841 0.1827841 -0.030379772
-0.54876977 0.20679964 -0.035747647
0.37689388 0.2074485 -0.026381373
0.35194218 0.23097809 -0.037928104
-0.52604765 0.25608784 -0.028715134
0.35255504 0.25643122 -0.024659634
-0.50013959 0.27986434 -0.035468459
0.3280071 0.28058377 -0.027680159
0.30353934 0.30479914 -0.029608965
0.27910131 0.32898518 -0.031535268
-0.47730732 0.32931936 -0.028434515
-0.45150077 0.35294199 -0.035189152
0.25469267 0.3531397 -0.03347683
0.23031452 0.37727317 -0.03534627
-0.40327376 0.40196568 -0.032724977
0.20596515 0.40160894 -0.035450816
0.2304087 0.4032236 -0.023111939
-0.38051772 0.42754522 -0.023991585
-0.35480726 0.42654854 -0.031185389
-0.32921308 0.42555618 -0.03834641
0.15732035 0.42548633 -0.038851857
0.18158643 0.42649993 -0.031535268
0.20596515 0.42751604 -0.024202585
-0.3319034 0.45220596 -0.022460818
-0.30629081 0.4511528 -0.029661536
-0.28079677 0.45010701 -0.036812186
0.10853805 0.45046183 -0.034385562
0.13272537 0.45153502 -0.027048349
-0.25773275 0.47578621 -0.028101087
-0.23233579 0.47468406 -0.03525877
0.035621032 0.47438046 -0.037230849
0.059617624 0.47550809 -0.029906869
0.083725668 0.47664097 -0.022549033
-0.13546897 0.4998343 -0.030309796
-0.11073415 0.49927413 -0.033774018
-0.086054936 0.49871832 -0.037213087
-0.061866209 0.49899739 -0.035485744
-0.03774929 0.49948347 -0.032480121
-0.013587698 0.49997306 -0.029451251
-0.18509929 0.50095505 -0.023375988
-0.16025598 0.50039268 -0.02685535
0.010558531 0.50062543 -0.025415301
-0.13798861 -0.52824759 -0.0069304705
-0.11307044 -0.52768207 -0.01042819
-0.088206843 -0.52711785 -0.013918519
-0.063397601 -0.52655482 -0.01740098
-0.038892418 -0.52651781 -0.017630577
-0.014687136 -0.52717233 -0.01358223
0.0093719661 -0.52837396 -0.0061482191
-0.26006359 -0.50287348 -0.012165546
-0.23493753 -0.50220889 -0.016482472
-0.2099856 -0.50167072 -0.019977093
0.034590542 -0.50195861 -0.018107176
0.05873023 -0.50309998 -0.010694265
-0.33461189 -0.47917888 -0.0064681768
-0.30886728 -0.47811767 -0.01372385
-0.28323674 -0.47705871 -0.020964146
0.10794812 -0.47789776 -0.015227437
0.1322813 -0.47898132 -0.0078188181
-0.383591 -0.45448399 -0.0073570013
-0.35762328 -0.45338616 -0.015280604
0.1570265 -0.45276472 -0.019765496
0.18143882 -0.45379075 -0.012360215
-0.40697145 -0.42911389 -0.0135113
0.23050362 -0.42947087 -0.010782957
0.25507212 -0.40517277 -0.0088312626
-0.43026191 -0.40384126 -0.019642115
-0.45436585 -0.3791675 -0.021404386
0.25488126 -0.37918785 -0.021228313
0.27967116 -0.38084701 -0.0068594217
-0.48029119 -0.35544518 -0.01459074
0.27938449 -0.35494062 -0.019271612
-0.50633198 -0.33162239 -0.0077301264
0.30391741 -0.3306618 -0.017330408
-0.50321633 -0.3057712 -0.021686316
0.32848096 -0.30635488 -0.015368938
-0.52924418 -0.28189361 -0.014873862
0.35316974 -0.28219205 -0.011350274
-0.55538809 -0.25791469 -0.0080144405
0.37798035 -0.25805289 -0.0062192678
-0.55205816 -0.2323882 -0.021968007
0.37725705 -0.23254938 -0.019642115
-0.57822758 -0.20836517 -0.014997482
0.40233517 -0.20868689 -0.0097720623
-0.57711828 -0.18361649 -0.019500852
0.40209833 -0.18393342 -0.013617516
0.40186098 -0.15923889 -0.017471552
-0.604801 -0.13516022 -0.0068594217
0.4016242 -0.1346038 -0.021316409
-0.60365117 -0.11045221 -0.011385798
0.42710045 -0.11059925 -0.0066105127
-0.60250455 -0.085814126 -0.015899301
0.42686421 -0.085949913 -0.010020375
-0.60136569 -0.061246116 -0.020382524
0.42666525 -0.061361395 -0.01289165
0.42650098 -0.036820918 -0.015262723
-0.62913716 -0.012316888 -0.0077477694
0.42640913 -0.012316938 -0.016588449
-0.62914646 0.012245215 -0.0077123642
0.42641038 0.012176913 -0.016570807
0.42650098 0.036691073 -0.015262842
-0.60137469 0.06107749 -0.020347118
0.42666525 0.061249718 -0.01289165
-0.60251355 0.085680462 -0.015864134
0.42686546 0.085860983 -0.010002613
-0.60366023 0.11035357 -0.011350393
0.42710167 0.11053673 -0.0065927505
-0.60481006 0.13509676 -0.0068238974
0.40162641 0.13442907 -0.021281123
0.40186206 0.15909286 -0.017454028
-0.57712263 0.18345505 -0.019483328
0.40209943 0.18381742 -0.013599753
-0.57823199 0.20823863 -0.014979959
0.40233734 0.20860188 -0.0097364187
-0.5520708 0.23221077 -0.021915078
0.37726086 0.23239113 -0.019571543
-0.55540073 0.25784519 -0.0079610348
0.37798321 0.25799721 -0.0061659813
-0.5292564 0.28177163 -0.014820814
0.35317218 0.28209719 -0.011296988
-0.50322813 0.30559728 -0.021633387
0.32848233 0.3062278 -0.015333652
-0.50634384 0.33155644 -0.0076767206
0.30391905 0.33052185 -0.01727736
-0.48030263 0.35532668 -0.014537692
0.27938533 0.35478401 -0.019236445
-0.45437682 0.37899688 -0.021351576
0.25488207 0.37901846 -0.021175385
0.279672 0.38078621 -0.0068237782
-0.43027955 0.40368938 -0.019553781
0.25507295 0.40509948 -0.008777976
-0.4069885 0.42900968 -0.013422847
0.23050389 0.42938048 -0.010747552
-0.38360745 0.45442808 -0.0072680712
-0.3576327 0.45326391 -0.015227556
0.15702543 0.45261046 -0.019694924
0.18143827 0.45369366 -0.012289524
-0.33462393 0.47912776 -0.0063971281
-0.30887586 0.47800785 -0.013670683
-0.28324491 0.47689307 -0.020911098
0.1079465 0.47777635 -0.015174627
0.13227965 0.47891983 -0.0077477694
-0.26007128 0.50277591 -0.012112379
-0.23494975 0.50208396 -0.016394138
-0.20999716 0.50151885 -0.019888759
0.034586713 0.50181836 -0.018036485
0.058727786 0.50301385 -0.01064086
-0.13800012 0.52819985 -0.0068237782
-0.11307929 0.52760446 -0.010339618
-0.088215008 0.52701336 -0.013829827
-0.063405082 0.52642345 -0.017312646
-0.03889513 0.52637577 -0.017595053
-0.014692038 0.5270673 -0.0135113
0.0093675703 0.52832633 -0.0060770512
-0.090398952 -0.55565107 0.0098121166
-0.065402642 -0.55505258 0.0062775612
-0.040669411 -0.55491292 0.005453229
-0.016189784 -0.55536228 0.0081067085
-0.2634173 -0.53110802 0.01076436
-0.23822041 -0.53053337 0.0072096586
-0.21307929 -0.52995992 0.0036628246
-0.18799372 -0.52938795 0.00012409687
-0.16296358 -0.52881712 -0.0034071207
0.033544615 -0.52957851 0.0013025999
0.057830364 -0.5307886 0.0087884665
-0.33735687 -0.50624603 0.0097402334
-0.31147557 -0.50511771 0.0024108887
-0.2857095 -0.5039916 -0.0049028397
0.082983419 -0.50424373 -0.0032646656
0.10734992 -0.50539303 0.0041998625
0.13183054 -0.50654763 0.011699319
-0.36047721 -0.48024762 0.00083839893
0.15672798 -0.48006997 -0.00037574768
0.18127352 -0.48145765 0.009111762
-0.4118129 -0.45711705 0.011645198
0.20596515 -0.45535251 -0.0010895729
-0.43527746 -0.43159094 0.005417347
0.25526449 -0.43136132 0.0036629438
-0.45865124 -0.40616372 -0.00078618526
0.27996007 -0.40695646 0.0056502819
-0.48331666 -0.38157496 -0.0005543232
0.30468574 -0.38251925 0.007622242
-0.50947505 -0.35770178 0.0063490868
0.30430007 -0.35648921 -0.0049028397
0.32947856 -0.35815442 0.010548711
0.32895991 -0.33210328 -0.0029258728
-0.53248513 -0.30769703 -0.00083971024
0.35379297 -0.30797252 0.0021425486
-0.55874729 -0.28366646 0.0060623884
0.37870884 -0.28377128 0.0072994232
-0.58164042 -0.23383097 -0.0011432171
0.40287754 -0.23384334 -0.00096487999
-0.60827029 -0.20970733 0.0067971945
0.42817104 -0.20983334 0.0088424683
-0.60711056 -0.18478748 0.0022320747
0.42786181 -0.18490317 0.0043786764
-0.60595411 -0.15993859 -0.0023200512
0.42759299 -0.16006882 0.0004991293
0.42733598 -0.1353007 -0.0032110214
-0.63390714 -0.1111255 0.010476828
-0.6327095 -0.086317629 0.0059012175
0.45295459 -0.086413771 0.010063529
-0.63151538 -0.061580446 0.0013386011
0.45275283 -0.06167445 0.007442832
-0.63032454 -0.036913652 -0.0032112598
0.45262313 -0.036982715 0.0057579279
0.45255142 -0.012316938 0.0048264265
0.45255142 0.012341713 0.0048265457
-0.6303339 0.036877096 -0.0031756163
0.45262313 0.037014764 0.0057576895
-0.63152468 0.061579257 0.0013743639
0.45275426 0.061719783 0.0074608326
-0.63271892 0.086351864 0.0059369802
0.45295599 0.086479358 0.01008153
-0.63391656 0.11119501 0.01051271
0.42733717 0.1352644 -0.0031933784
-0.60596317 0.15991022 -0.0022842884
0.42759424 0.16006123 0.00051689148
-0.60711962 0.18479459 0.0022678375
0.42786425 0.18492667 0.0044145584
-0.60827482 0.20974864 0.0068153143
0.42817605 0.209894 0.0089142323
-0.58165365 0.23381406 -0.0010895729
0.40288192 0.23382913 -0.00089323521
-0.55876011 0.28370574 0.006116271
0.37871265 0.2838217 0.007371068
-0.53249341 0.30768189 -0.00080406666
0.35379547 0.30798212 0.002196312
0.32896128 0.33207226 -0.0028903484
-0.50948703 0.35774454 0.0064029694
0.30430174 0.35644522 -0.0048491955
0.32948062 0.35822946 0.010602713
-0.48332822 0.38156509 -0.00050079823
0.30468684 0.38256988 0.0076580048
-0.45866984 0.40615687 -0.00069701672
0.2799609 0.40699232 0.0056861639
-0.43529904 0.4316352 0.0055248737
0.25526533 0.43138462 0.003716588
-0.41183364 0.45721015 0.011753082
0.20596515 0.45534751 -0.00098240376
-0.36048669 0.48024982 0.0008918047
0.15672688 0.4800657 -0.00030457973
0.18127283 0.48152924 0.0092016459
-0.33736902 0.50632024 0.0098121166
-0.31148422 0.5051325 0.0024645329
-0.28572047 0.50395292 -0.0048316717
0.082980685 0.50421786 -0.0031932592
0.10734772 0.50542462 0.0042713881
0.13182846 0.5066399 0.011789083
-0.26343048 0.53119385 0.010854244
-0.23823284 0.53059179 0.0072994232
-0.213091 0.52999103 0.00375247
-0.18800472 0.52939177 0.00021314621
-0.16297384 0.52879369 -0.0033180714
0.03354077 0.52958834 0.0013743639
0.057827055 0.53085619 0.0088604689
-0.090407267 0.55573028 0.0099020004
-0.065408722 0.55510122 0.0063493252
-0.040679052 0.55496466 0.0055787563
-0.016197234 0.55543143 0.0082142353
0.056918576 -0.55882102 0.028529286
-0.21621932 -0.55867332 0.027657151
