ply
format ascii 1.0
comment PCL generated
element vertex 688
property float x
property float y
property float z
element camera 1
property float view_px
property float view_py
property float view_pz
property float x_axisx
property float x_axisy
property float x_axisz
property float y_axisx
property float y_axisy
property float y_axisz
property float z_axisx
property float z_axisy
property float z_axisz
property float focal
property float scalex
property float scaley
property float centerx
property float centery
property int viewportx
property int viewporty
property float k1
property float k2
end_header
-0.12479675 -0.12293197 -0.25587249
-0.10186739 -0.12284559 -0.25747442
-0.078963146 -0.12276006 -0.25906134
-0.056083076 -0.12267396 -0.26065987
-0.033227846 -0.12258863 -0.26224327
-0.010397006 -0.12250331 -0.26382512
0.012409478 -0.12254198 -0.26310772
0.035231315 -0.12261084 -0.2618311
0.058072619 -0.122679 -0.26056671
0.08093372 -0.12274794 -0.25928783
0.10381413 -0.12281619 -0.25802135
0.12674081 -0.12292187 -0.25605941
-0.2409741 -0.124102 -0.2341572
-0.21758506 -0.12385419 -0.23875785
-0.19426878 -0.1236078 -0.24333107
-0.17102289 -0.12336129 -0.24790406
-0.14784892 -0.12311648 -0.25244915
0.14980166 -0.12314887 -0.25184679
0.17292729 -0.12337579 -0.24763536
0.19611849 -0.12360337 -0.24341202
0.21937647 -0.1238323 -0.23916316
0.24269979 -0.12406121 -0.23491573
-0.12564968 -0.10091712 -0.23740613
-0.10257739 -0.10084224 -0.2390281
-0.079530537 -0.10076801 -0.2406348
-0.056508474 -0.10069387 -0.24223983
0.058356021 -0.10069771 -0.24215889
0.08135888 -0.10075685 -0.24087751
0.10438192 -0.10081668 -0.23958182
0.12746605 -0.10092588 -0.23721683
-0.033511136 -0.10061984 -0.24384296
-0.010538502 -0.10054582 -0.24544454
0.012409478 -0.1005788 -0.24473143
0.035372794 -0.10063788 -0.24345243
-0.2883721 -0.12481736 -0.22088444
-0.26450688 -0.12439254 -0.22876692
0.26631284 -0.1244328 -0.22801864
0.29008937 -0.12483789 -0.22050166
-0.24259564 -0.10195161 -0.21500719
-0.21905467 -0.10173644 -0.21966696
-0.19558829 -0.10152327 -0.22428524
-0.17219305 -0.10130997 -0.22890294
-0.14886968 -0.10109735 -0.23350644
0.15067381 -0.1011223 -0.23296392
0.17394768 -0.10131927 -0.22869897
0.19728883 -0.10151751 -0.22440815
0.22069593 -0.10171564 -0.22011864
0.24419114 -0.10192701 -0.21554244
-0.1265873 -0.078688696 -0.21710587
-0.10335895 -0.078626528 -0.21872246
-0.080155119 -0.078563765 -0.22035122
-0.056976713 -0.078501567 -0.22196436
-0.033822965 -0.078439102 -0.2235893
-0.010694349 -0.078377172 -0.2251991
0.012409478 -0.078403905 -0.22450352
0.035528641 -0.078453779 -0.22320712
0.058667779 -0.078503773 -0.22190976
0.081826918 -0.078553736 -0.22061086
0.10500609 -0.078603759 -0.21931136
0.12826335 -0.078711823 -0.21650267
-0.36072665 -0.12610503 -0.19698668
-0.33648095 -0.12567356 -0.20499468
-0.31236312 -0.12524433 -0.21296048
0.31398404 -0.12524433 -0.21296048
0.33800036 -0.1256534 -0.20536768
0.36213642 -0.1260639 -0.19775033
-0.29039708 -0.10261486 -0.2006495
-0.2663663 -0.1022459 -0.20863831
0.26801115 -0.10227711 -0.20796251
0.29195139 -0.10262898 -0.20034456
-0.2206713 -0.079398304 -0.19866645
-0.19703877 -0.079218164 -0.20334935
-0.17348011 -0.079039037 -0.208004
-0.14999236 -0.078859314 -0.21267176
0.15163329 -0.078877792 -0.21219051
0.17506956 -0.079043731 -0.20787978
0.19857293 -0.079210117 -0.20355678
0.22214277 -0.079376534 -0.19923532
-0.1275917 -0.056192238 -0.1953603
-0.10418434 -0.056133118 -0.19727814
-0.080815136 -0.056082565 -0.1989162
-0.057471521 -0.056032691 -0.20053852
-0.03415269 -0.055982288 -0.20217311
-0.010859143 -0.055932406 -0.20379198
0.012409478 -0.055952888 -0.2031281
0.035693333 -0.055993494 -0.20181298
0.058997449 -0.05603392 -0.20049703
0.082321532 -0.056074087 -0.1991936
0.10566615 -0.056114633 -0.19787538
0.12910709 -0.056216087 -0.19458151
-0.41023111 -0.12721823 -0.17632866
-0.38519448 -0.12657724 -0.18822336
0.38672823 -0.12662241 -0.18738484
0.41162351 -0.12724029 -0.17592013
-0.36326239 -0.10373504 -0.17639899
-0.33884561 -0.10336006 -0.18451631
-0.31455693 -0.10298645 -0.1926043
0.31601417 -0.10298328 -0.19267392
0.34019774 -0.10333864 -0.18497849
0.3645547 -0.10371612 -0.1768074
-0.29261407 -0.080174744 -0.17849565
-0.26840451 -0.079863802 -0.18657374
-0.24437597 -0.079578653 -0.19398296
0.24587545 -0.079590976 -0.19366264
0.26986969 -0.079885393 -0.18601429
0.29398528 -0.080181345 -0.17832696
-0.22238001 -0.056773748 -0.17646956
-0.19857283 -0.056627955 -0.1812073
-0.17483862 -0.056482021 -0.18594444
-0.1511789 -0.056337085 -0.19065261
0.15264742 -0.056350056 -0.19023407
0.17625533 -0.056484196 -0.18587422
0.19993116 -0.056618746 -0.18150198
0.22367516 -0.056753825 -0.17711723
-0.081550129 -0.033327658 -0.1750468
-0.058022164 -0.03328957 -0.17669487
-0.034519605 -0.033251692 -0.17834103
-0.011042297 -0.033213351 -0.17999971
0.012409478 -0.033228632 -0.17933917
0.035876617 -0.03325947 -0.17800343
0.059364345 -0.033290338 -0.17666662
0.082872353 -0.033320878 -0.17534256
-0.43546456 -0.1278642 -0.16434062
0.43670729 -0.12786275 -0.16436887
-0.38810644 -0.10421658 -0.16597176
0.38945299 -0.10424931 -0.16526282
-0.34141964 -0.080801114 -0.16222429
-0.31695116 -0.080486715 -0.17038882
0.31822452 -0.080479234 -0.17058671
0.34258568 -0.080778047 -0.16282129
-0.29496667 -0.057435233 -0.15498745
-0.27056852 -0.057184 -0.16314781
-0.24629968 -0.056934055 -0.17126489
0.24765836 -0.056957562 -0.17050195
0.27183846 -0.057195824 -0.16276431
0.2961413 -0.057435233 -0.15498745
-0.20028359 -0.033755746 -0.15651453
-0.17635542 -0.033644814 -0.16131437
-0.15250197 -0.033534322 -0.16609931
-0.12872222 -0.03342386 -0.17088342
-0.10510353 -0.033365857 -0.17339694
0.10640121 -0.033351686 -0.17400348
0.13004698 -0.033440497 -0.17016256
0.15377852 -0.033542562 -0.1657449
0.177578 -0.033644494 -0.16132879
0.20144714 -0.033747088 -0.1568855
-0.48652896 -0.12917084 -0.14009356
-0.46089715 -0.12851533 -0.15225768
0.46198383 -0.12849066 -0.15271533
0.48751345 -0.12914434 -0.14058387
-0.43877491 -0.10533731 -0.14170754
-0.41334066 -0.10477473 -0.15388763
0.41453862 -0.10478599 -0.15364468
0.4398154 -0.10532661 -0.14193797
-0.39127052 -0.081587389 -0.14179397
-0.36603156 -0.081120789 -0.15391624
0.36730525 -0.081156641 -0.15298688
0.39240035 -0.081605107 -0.1413331
-0.34415331 -0.057941426 -0.13855004
-0.31949511 -0.057687934 -0.14678347
0.32056785 -0.057675961 -0.14717126
0.345119 -0.057917897 -0.13931465
-0.27298617 -0.034206841 -0.13697612
-0.24850407 -0.034016255 -0.14523232
-0.22428679 -0.033866916 -0.15169966
0.22538556 -0.03385013 -0.15242934
0.2496523 -0.034030806 -0.14459991
0.27404296 -0.034212563 -0.13673043
-0.15395074 -0.010389574 -0.1392138
-0.12996145 -0.010314964 -0.14405346
-0.10611131 -0.010266259 -0.14721417
-0.082355037 -0.010240268 -0.14890659
-0.058624864 -0.010214273 -0.15059733
-0.034920964 -0.010188393 -0.15227211
-0.011242976 -0.010162987 -0.15393031
0.012409478 -0.010172579 -0.15330172
0.036077123 -0.010193352 -0.15195715
0.059765704 -0.010214273 -0.15059733
0.083474919 -0.010234926 -0.14925075
0.1072049 -0.010255728 -0.14790297
0.13107517 -0.010324266 -0.14344931
0.15501526 -0.010393213 -0.13896847
-0.51286197 -0.12998988 -0.12489438
0.51393449 -0.13003297 -0.12409329
-0.49035022 -0.10650361 -0.11645544
-0.46440938 -0.10590369 -0.12944508
0.46528763 -0.10587223 -0.13012719
-0.44234848 -0.082531229 -0.117275
-0.41670737 -0.082057133 -0.12959039
0.41768652 -0.082057133 -0.12959039
0.4431659 -0.082512632 -0.11775768
-0.39463055 -0.05863208 -0.11611879
-0.36917621 -0.058254424 -0.12838507
0.37022489 -0.058275398 -0.127702
0.39553124 -0.058638331 -0.11591363
-0.32234293 -0.034590658 -0.1203593
-0.29759836 -0.034398254 -0.12869
0.29855847 -0.034395348 -0.12882066
0.32319987 -0.034578834 -0.12087035
-0.25091603 -0.01073543 -0.11674809
-0.22637379 -0.010614637 -0.12458861
-0.20215701 -0.010539558 -0.12947416
-0.17801546 -0.010464244 -0.13435888
0.17902505 -0.010462485 -0.13447452
0.20310484 -0.010531813 -0.12996769
0.22733867 -0.010620035 -0.12423897
0.25183123 -0.010742411 -0.11629438
-0.10721187 0.013217708 -0.11862063
-0.083234519 0.01323097 -0.12034464
-0.059283741 0.01324432 -0.12206697
-0.035359517 0.013257435 -0.12378728
-0.011461791 0.013270756 -0.12550581
0.012409478 0.013265856 -0.12487984
0.036296107 0.01325538 -0.12351048
0.060203835 0.013244759 -0.12213981
0.084132694 0.013234286 -0.12076819
0.10810071 0.013219206 -0.11881065
-0.5397917 -0.13091926 -0.10764647
0.5406369 -0.13093035 -0.10744023
-0.51722062 -0.10730247 -0.099157929
0.49138606 -0.10655102 -0.11543024
0.51804209 -0.10732433 -0.098684072
-0.46819204 -0.083008319 -0.10487628
0.46893561 -0.082996383 -0.10518599
-0.42028725 -0.059012879 -0.10375476
0.42103079 -0.059004281 -0.10403526
-0.37271771 -0.035069305 -0.099631548
-0.34722263 -0.034784358 -0.11196923
0.34816107 -0.03480472 -0.11108816
0.37351918 -0.035079923 -0.099172711
-0.30047232 -0.010993645 -0.099971771
-0.27562886 -0.010864377 -0.1083678
0.27644962 -0.010865316 -0.10830891
0.30119473 -0.010988805 -0.10028255
-0.20420612 0.013073564 -0.099897742
-0.17983203 0.013111765 -0.10486138
-0.15553601 0.013149789 -0.10979462
-0.13131599 0.01318787 -0.11472702
0.13219818 0.013184233 -0.11427248
0.15636614 0.013149142 -0.10972118
0.18060569 0.013113877 -0.10514164
0.20491658 0.013078669 -0.10054874
-0.56702268 -0.13185909 -0.090205908
0.56762755 -0.13183738 -0.090607762
-0.54439425 -0.10811125 -0.081651688
0.54498661 -0.10810634 -0.081756473
-0.49477425 -0.083616003 -0.089088917
0.49554712 -0.083642438 -0.088403344
-0.4724254 -0.059824992 -0.077379584
-0.44615093 -0.059397046 -0.09127748
0.44672796 -0.059373256 -0.09205091
0.4731212 -0.059849907 -0.076568961
-0.39842144 -0.035357568 -0.087150812
0.39907202 -0.0353573 -0.087165713
-0.35080811 -0.011287011 -0.080917954
-0.32545149 -0.011123735 -0.091515541
0.32606757 -0.011113115 -0.092214465
0.35148519 -0.011297397 -0.080243945
-0.27851918 0.012897996 -0.077079296
-0.25355497 0.012963424 -0.085583687
-0.22872642 0.013028439 -0.0940274
0.22947501 0.013023628 -0.093403459
0.25421605 0.012961252 -0.08531487
0.27908394 0.012898935 -0.077199578
-0.15729325 0.037141915 -0.077184319
-0.13281809 0.037141915 -0.082205534
-0.10843233 0.037141975 -0.086912155
-0.060014389 0.037141975 -0.090429187
-0.035846069 0.037141975 -0.092184782
-0.011704681 0.037141975 -0.093953133
0.060690679 0.037141975 -0.090518594
0.084863953 0.037141975 -0.089103818
0.15786895 0.037141915 -0.077184319
-0.084209792 0.037142035 -0.088671684
0.012409478 0.037142035 -0.093359113
0.036539085 0.037142094 -0.09194684
0.10909718 0.037142035 -0.086449623
0.13344744 0.037142035 -0.081816316
-0.57187653 -0.10892951 -0.063933372
0.57222164 -0.10889605 -0.064659953
-0.52189195 -0.084290072 -0.071575165
0.52244151 -0.084294215 -0.071469545
-0.49951962 -0.060368303 -0.059734464
0.50000072 -0.060376193 -0.059476495
-0.45044944 -0.035940949 -0.061888337
-0.42433119 -0.035648171 -0.074570298
0.42482182 -0.035636615 -0.075066447
0.45099142 -0.035954978 -0.061282039
-0.37657273 -0.011480827 -0.068332553
0.37710294 -0.011483822 -0.068136334
-0.32890603 0.012762273 -0.059461236
-0.30361891 0.012832159 -0.068528891
0.30408198 0.012835972 -0.069026947
0.32942891 0.012755876 -0.058626056
-0.2313803 0.037141915 -0.059552312
-0.20647776 0.037141975 -0.067109346
0.18236333 0.037141975 -0.072523952
-0.18184575 0.037142035 -0.072162628
0.20696196 0.037142035 -0.067336082
0.23185185 0.037142035 -0.059096932
-0.011983648 0.061535235 -0.057714462
0.012409478 0.0615394 -0.057167172
-0.59997106 -0.1098294 -0.044451833
0.6004988 -0.10988027 -0.043348193
-0.5493114 -0.084971309 -0.053879738
0.54962516 -0.084952533 -0.054367304
-0.52691662 -0.060917247 -0.041905761
0.52717614 -0.060908798 -0.042181849
-0.47746664 -0.036339384 -0.044635892
0.47787026 -0.036351819 -0.044099331
-0.42872548 -0.011872981 -0.042857289
-0.40254435 -0.011676054 -0.055646181
0.40291864 -0.011671711 -0.055935025
0.42893657 -0.011861186 -0.043623924
-0.35475534 0.012664337 -0.046733737
0.35513461 0.012661578 -0.046381712
-0.2564953 0.037141975 -0.050860286
0.28202054 0.037141975 -0.042519689
-0.28174713 0.037142035 -0.042136073
0.25687072 0.037142035 -0.050830007
-0.15930851 0.061673071 -0.039785981
-0.13453992 0.061633639 -0.044926882
-0.10985111 0.061594091 -0.050051212
-0.085327096 0.061576135 -0.052386165
-0.060852125 0.061562579 -0.054154038
-0.036404166 0.061548792 -0.055935144
0.036817823 0.061550371 -0.055737376
0.061247967 0.061561231 -0.054321647
0.085700288 0.061572321 -0.052889347
0.1102377 0.061599076 -0.049409628
0.13487732 0.061635636 -0.044666409
0.15959135 0.061672248 -0.039893508
-0.62942159 -0.11097281 -0.019693613
0.62960565 -0.11098513 -0.019428968
-0.5770402 -0.085660055 -0.035984993
0.57741332 -0.085685 -0.035337687
-0.55462658 -0.061473053 -0.02385962
0.55464458 -0.061446179 -0.024728894
-0.50486016 -0.036753688 -0.026698112
0.50504011 -0.03675263 -0.026744604
-0.45554882 -0.01211673 -0.027023554
0.45583501 -0.012127586 -0.02632606
-0.40708235 0.01246606 -0.02096951
-0.38081327 0.012565522 -0.033903599
0.38104156 0.012566578 -0.0340271
0.40714869 0.012470813 -0.021591544
-0.33299905 0.037141915 -0.021482587
-0.30713961 0.037141975 -0.033348083
0.33318955 0.037141915 -0.021047115
0.3073636 0.037142035 -0.03350246
-0.23442708 0.061825696 -0.019973755
-0.20913269 0.061757863 -0.028789043
-0.1841563 0.061712682 -0.034644008
0.18437877 0.061708983 -0.035121918
0.20937683 0.061762966 -0.028123379
0.23457962 0.061827514 -0.019724846
-0.60620403 -0.086580694 -0.012064338
0.60638547 -0.08660306 -0.011485457
-0.58335519 -0.062152084 -0.0018036366
0.58349288 -0.062176879 -0.0010005236
-0.53256965 -0.037173238 -0.0085259676
0.53250802 -0.037157807 -0.0091996193
-0.48296338 -0.012395281 -0.0089334249
0.48302746 -0.01239669 -0.0088393688
-0.43379772 0.012352752 -0.0062515736
0.43392599 0.012347059 -0.0054980516
0.35921776 0.037141915 -0.0084944963
-0.35917628 0.037142035 -0.0084475279
-0.28543505 0.061962418 -0.0022126436
-0.25985998 0.061893761 -0.011125565
0.25991392 0.061892413 -0.011297703
0.28538302 0.061957724 -0.002810359
-0.13652588 0.08678709 -0.0019292831
-0.11150132 0.0867064 -0.0071773529
-0.086614937 0.086654171 -0.010562181
-0.061816201 0.086625718 -0.012408257
-0.037045918 0.086597316 -0.014252067
-0.012304163 0.086569265 -0.016078591
0.012409478 0.086577073 -0.015579224
0.037138019 0.086599082 -0.01414299
0.061888933 0.086621374 -0.01268959
0.08666189 0.086643673 -0.011250734
0.1115502 0.08671245 -0.0067851543
0.13652471 0.086788028 -0.0018663406
-0.65932739 -0.11213292 0.0054211617
0.65915334 -0.11210655 0.0048522949
-0.63597071 -0.087546587 0.013027906
0.63579702 -0.087535545 0.012742043
-0.5609833 -0.037648361 0.012043357
0.56103885 -0.03767119 0.013027906
-0.51068974 -0.012676939 0.0093626976
0.51051873 -0.01266896 0.0088397264
-0.46126285 0.012211805 0.012043357
0.46116927 0.012210924 0.012170315
-0.41226858 0.037141975 0.018660665
-0.38556534 0.037141975 0.0046784878
0.38544884 0.037141975 0.0041412115
0.41220859 0.037141975 0.019489765
-0.3376762 0.062148135 0.021915555
-0.31134093 0.062045801 0.008633852
0.31131452 0.06205073 0.0092675686
0.3375034 0.062149134 0.022059441
-0.21228212 0.087073438 0.016669512
-0.18681958 0.086949214 0.0086021423
-0.16163217 0.086868182 0.0033357143
0.16157635 0.086864308 0.0030831099
0.18673064 0.086948097 0.0085228682
0.21216182 0.087080069 0.01709938
-0.68969846 -0.1133097 0.030900478
0.6897527 -0.11337864 0.032394767
-0.66620576 -0.088527486 0.038514733
0.66570032 -0.088490933 0.037563086
-0.61303258 -0.062928736 0.023417711
0.6128279 -0.062927738 0.023385763
-0.59058654 -0.038232509 0.037337422
0.59030354 -0.038235504 0.037466288
-0.53889883 -0.012976848 0.028846025
0.53883469 -0.01299369 0.029937148
-0.48903933 0.012069508 0.030531168
0.48871544 0.012073264 0.030049562
0.43953377 0.037141915 0.037353516
-0.43981299 0.037142035 0.037159801
-0.36423045 0.062251292 0.035323024
0.36390018 0.062248476 0.034952641
-0.26376179 0.08735498 0.034952641
-0.23794961 0.087213799 0.025785208
0.23772822 0.087212861 0.025721192
0.26343089 0.087346241 0.034389377
-0.088145502 0.11255819 0.039144278
-0.062962793 0.11251435 0.037240505
-0.037809677 0.11247075 0.03535521
-0.012685478 0.11242692 0.033455968
0.012409478 0.11243801 0.033938885
0.037519924 0.11247334 0.035467982
0.062653929 0.11250871 0.036998749
0.087825708 0.11255819 0.039144278
-0.64318109 -0.063718081 0.049052477
0.64260995 -0.063690156 0.048143625
-0.56845462 -0.013368003 0.054241419
0.56806827 -0.013372522 0.054534674
-0.51716113 0.011924336 0.049393654
0.51693499 0.011915592 0.050514936
0.46716139 0.037141975 0.055414677
-0.46767083 0.037142035 0.055854797
-0.39103484 0.06235721 0.04908514
0.39074919 0.062364545 0.050043583
-0.31636378 0.087722488 0.058825493
-0.28981864 0.087513417 0.045240879
0.28949723 0.087521568 0.045775652
0.31589702 0.087723248 0.058874607
-0.16440335 0.11291888 0.054762602
-0.13889189 0.11279261 0.04929626
-0.11346467 0.11266644 0.043831825
0.11312027 0.11267501 0.044204354
0.13849333 0.11279231 0.049280047
0.16394527 0.11290991 0.054371715
-0.72273326 -0.11495644 0.066554427
0.72227669 -0.1149724 0.06689918
-0.69840741 -0.089789554 0.071304917
0.69797349 -0.08981438 0.071947217
-0.67480826 -0.06466797 0.079903483
0.67436028 -0.06469661 0.080830336
-0.62065899 -0.038826283 0.063045979
0.62001908 -0.038809147 0.062308908
-0.59848738 -0.01376608 0.080102086
0.59774685 -0.013756927 0.079506278
-0.54672313 0.011726823 0.075045824
0.54617763 0.011724476 0.075359106
0.4954077 0.037141975 0.075805068
-0.4958522 0.037142035 0.074782014
-0.41872537 0.062502794 0.067999601
0.41821584 0.062504843 0.068262458
-0.34313208 0.087933674 0.072540045
0.3425107 0.087926805 0.072095156
-0.24218059 0.11351894 0.080747604
-0.21606167 0.11329912 0.071222663
-0.19009279 0.11308037 0.061752319
0.1896316 0.11309433 0.062358022
0.21550106 0.11330135 0.071321368
0.24151188 0.11350949 0.08033371
-0.65188241 -0.03950702 0.092527151
0.65135384 -0.039531369 0.093577981
0.5758642 0.011530306 0.10056674
-0.52546883 0.037141975 0.10078454
-0.44673985 0.062650368 0.087150335
0.44599178 0.062646851 0.086701751
-0.37017274 0.08815296 0.08678472
0.36956862 0.088164747 0.08754921
-0.26851994 0.11375912 0.091143847
0.26784217 0.11377184 0.091693759
-0.06442447 0.13958718 0.10053313
-0.038781703 0.1395244 0.098490357
-0.013170406 0.13946155 0.09645021
0.012409478 0.13947387 0.09685123
0.038004555 0.13952234 0.098423362
0.063624114 0.13957128 0.10001373
-0.75654185 -0.11664827 0.10318232
0.75550437 -0.11660174 0.10217583
-0.73191929 -0.091190577 0.10770237
0.73093021 -0.091165334 0.10704637
-0.70814359 -0.06579414 0.11647534
0.70714414 -0.065781698 0.11606944
-0.62948966 -0.014209986 0.10893142
0.62884736 -0.014227882 0.11009359
-0.57675171 0.011526316 0.10110283
0.52472353 0.037141975 0.10110295
-0.47516558 0.062803872 0.10709691
0.47444156 0.062810384 0.10795498
-0.39805785 0.088450283 0.10610485
0.39723423 0.088451982 0.1062057
-0.32243121 0.1144129 0.11945498
-0.2953603 0.11408442 0.10523093
0.29453602 0.1140856 0.10528135
0.32144782 0.1144017 0.1189636
-0.14191432 0.14002457 0.11473393
-0.11597294 0.13984795 0.10899866
-0.090120465 0.13967198 0.10328305
0.089315079 0.13968289 0.10363543
0.11511645 0.13984901 0.10903227
0.14099964 0.14001408 0.11439598
-0.68504226 -0.040352698 0.12914181
0.6839751 -0.040346306 0.12886894
-0.60772085 0.01130322 0.13007939
0.60691249 0.011294007 0.13127351
0.55449474 0.037141975 0.1268084
-0.55556142 0.037142035 0.12723398
-0.50490987 0.063007899 0.13361299
0.50387281 0.063008428 0.13368142
-0.42626783 0.08875107 0.12563431
0.42521518 0.088742673 0.12509024
-0.34990382 0.11478059 0.13537407
0.34890491 0.11479479 0.13599002
-0.1943626 0.14052798 0.13108587
-0.16798164 0.14022262 0.12116718
0.16705707 0.1402404 0.12174416
0.19333966 0.14053063 0.13117111
-0.79280579 -0.1187062 0.14773631
0.79192078 -0.11876024 0.1489085
-0.76691473 -0.092745394 0.14809835
0.76613736 -0.092811167 0.14980567
-0.74240232 -0.066970006 0.15466094
0.74161494 -0.067030221 0.15661728
-0.66253257 -0.014776591 0.14573836
0.66135573 -0.014773775 0.14554918
0.58573532 0.037141975 0.15885353
-0.58676183 0.037142035 0.15763974
0.53376448 0.063209638 0.15982533
-0.45511818 0.089089468 0.14761567
0.45405358 0.089100152 0.14830518
-0.37810835 0.11524551 0.15550911
0.3768872 0.11524439 0.15545702
-0.24770537 0.14118795 0.15251648
-0.22089681 0.14083371 0.14101171
0.21977381 0.14082414 0.14070284
0.24655718 0.14120761 0.15315604
-0.71893442 -0.041216221 0.16653812
0.71795285 -0.041251842 0.16807234
-0.64071703 0.011016924 0.16727018
0.6393851 0.011018038 0.16713071
-0.5351311 0.063215271 0.16055441
-0.48510134 0.089511603 0.1750282
0.48370883 0.089508556 0.17483556
-0.40665272 0.11571623 0.17588639
0.40520343 0.11570074 0.17522073
-0.27496618 0.14164212 0.1672703
0.27366677 0.14164494 0.16735733
-0.69630909 -0.015355695 0.18334949
0.69515407 -0.015376817 0.1847229
-0.61978137 0.037141975 0.19535863
0.61823392 0.037142035 0.19521677
-0.56686473 0.063472643 0.19397688
0.56545329 0.06347739 0.19459677
-0.30247417 0.14210317 0.18224096
0.30101711 0.14209026 0.18181908
-0.092963301 0.16885802 0.19560695
-0.066499129 0.16865623 0.19036829
-0.040161185 0.16856867 0.18809009
-0.013858475 0.16848177 0.18583262
0.012409478 0.16849321 0.18613243
0.038692906 0.1685591 0.18784308
0.065005153 0.16863117 0.18971443
0.091441922 0.16886266 0.19573092
-0.83250272 -0.12127903 0.2034415
0.83065057 -0.12122728 0.20232022
-0.80612898 -0.094880372 0.20356607
0.80440772 -0.094857723 0.20297861
-0.78122425 -0.06867592 0.2100606
0.77952099 -0.068666473 0.20975661
-0.67460954 0.010718131 0.20607901
0.67335153 0.010704342 0.20788109
-0.51557291 0.089940257 0.2028718
0.5141542 0.089957274 0.2039758
-0.43628243 0.1163229 0.20215988
0.43473405 0.11632778 0.2023735
-0.33067048 0.1427051 0.20178628
0.32913151 0.14271601 0.20214212
-0.14627767 0.16938126 0.20920289
-0.1195464 0.16909778 0.20183992
0.11797089 0.16909373 0.20173299
0.14467834 0.16941096 0.20997119
-0.75730419 -0.042483624 0.22141314
0.75551152 -0.042476002 0.22108924
-0.73440647 -0.016201962 0.23831952
0.73246276 -0.016195331 0.23788369
-0.65435195 0.037141915 0.23811984
-0.60001552 0.063769206 0.23249662
0.59807849 0.063763276 0.2317363
-0.46661881 0.11698006 0.23061419
0.46474221 0.11696544 0.22998142
-0.35934716 0.14335825 0.22299719
0.35758144 0.14334874 0.22269118
-0.2005399 0.17023534 0.2313925
-0.17332049 0.16980615 0.22024381
0.1716124 0.16981103 0.22036982
0.19874895 0.17024161 0.23155534
0.65276921 0.037142035 0.23957372
-0.54824638 0.090537846 0.24168432
0.54636192 0.090537198 0.24164808
-0.38885736 0.14414649 0.24859822
0.38697445 0.14416051 0.24905527
-0.22825567 0.17084484 0.24722791
0.22632843 0.17084131 0.24713671
-0.85006833 -0.097620144 0.27474916
0.84823608 -0.097668737 0.27601123
-0.82365203 -0.07073684 0.27699554
-0.71268547 0.010286609 0.26214051
0.71050906 0.010291947 0.26144052
-0.49849543 0.11781113 0.26660407
0.49648863 0.11782192 0.26706564
0.41703904 0.14504321 0.27772033
-0.25627333 0.17148349 0.26381743
0.25417805 0.17145786 0.26315367
-0.87869728 -0.12487741 0.28134847
0.87660015 -0.12489378 0.28170228
0.82195199 -0.070797056 0.27894759
-0.79894972 -0.043993969 0.28681397
0.79715323 -0.044038389 0.2887392
-0.69244015 0.037141915 0.29516625
0.68991482 0.037141975 0.29394639
-0.63584709 0.064152725 0.28231704
0.63370478 0.064154781 0.28259683
-0.58211303 0.091189474 0.28401375
0.58013141 0.091210775 0.28539455
-0.4192847 0.1450654 0.27844536
-0.28501773 0.17233616 0.28597343
0.28279784 0.17233616 0.28597343
-0.77612698 -0.017239876 0.30572867
0.77402782 -0.017259415 0.30699444
-0.53172004 0.11876138 0.30775034
0.52949572 0.11878724 0.30886626
-0.45122415 0.14623223 0.3163358
0.44880563 0.14624096 0.31662083
-0.31422901 0.17324139 0.3094908
0.31190982 0.1732786 0.31045616
-0.75531459 0.0097233467 0.33532107
0.75276268 0.0097214691 0.33555138
-0.67507839 0.064641461 0.34581709
0.67268693 0.064653613 0.34738243
-0.6195873 0.092098296 0.34303784
0.61670601 0.092077993 0.3417269
-0.34473851 0.17450652 0.34236288
0.34208813 0.17450799 0.3424015
-0.56857991 0.12014051 0.36746502
0.56560934 0.12012202 0.36666358
-0.48494831 0.14766599 0.3628962
0.48231497 0.14770806 0.36426175
-0.87889075 -0.074270502 0.39175308
0.87657118 -0.0743628 0.39474785
-0.73713338 0.037141915 0.37976527
0.733904 0.037141915 0.3783288
-0.37660545 0.17607595 0.38313425
0.37366724 0.17608733 0.38343012
-0.90954101 -0.10254742 0.40276432
0.90654981 -0.10256743 0.40328288
-0.85277653 -0.046585638 0.3990401
0.85048187 -0.046665151 0.40248525
-0.83123767 -0.019101053 0.42662454
0.82815146 -0.019116018 0.42759418
-0.66376817 0.093490161 0.4334445
0.66002917 0.093456656 0.43127632
-0.52281475 0.14982069 0.43287683
0.51968598 0.14987008 0.43447876
-0.72698534 0.065580212 0.46776402
0.72344553 0.065583378 0.46817732
-0.61178374 0.12225917 0.45921135
0.60849965 0.12229778 0.46087766
-0.81491387 0.008613551 0.47947216
0.81034958 0.0086441841 0.47550583
0 0 0 1 0 0 0 1 0 0 0 1 0 0 0 0 0 688 1 0 0
