ply
format ascii 1.0
comment PCL generated
element vertex 1328
property float x
property float y
property float z
element camera 0
property float view_px
property float view_py
property float view_pz
property float x_axisx
property float x_axisy
property float x_axisz
property float y_axisx
property float y_axisy
property float y_axisz
property float z_axisx
property float z_axisy
property float z_axisz
property float focal
property float scalex
property float scaley
property float centerx
property float centery
property int viewportx
property int viewporty
property float k1
property float k2
end_header
-0.11250067 0.37785459 -0.13869309
-0.091690429 0.37699196 -0.14402902
-0.071099006 0.37684712 -0.14492637
-0.050555844 0.37694305 -0.14433229
-0.030003536 0.37703899 -0.14373779
-0.0094419867 0.37713322 -0.14315528
0.01112853 0.37722945 -0.14256048
0.031708207 0.37732568 -0.14196515
0.052297056 0.37742203 -0.14136982
0.072894797 0.37751642 -0.14078623
0.093501896 0.37761259 -0.14019006
0.1141182 0.377709 -0.13959402
0.13476899 0.37789398 -0.13844961
-0.092052616 0.3991496 -0.134619
-0.071377657 0.39893648 -0.13587672
-0.050764926 0.39903781 -0.13527858
-0.030142799 0.39913711 -0.13469237
-0.0095117427 0.39923838 -0.1340937
0.01112853 0.39933988 -0.13349462
-0.11356506 -0.15875891 -0.11564851
-0.092586212 -0.15856224 -0.12075579
-0.071790844 -0.15849677 -0.12245804
-0.051074103 -0.1585187 -0.12189072
-0.030348629 -0.15854046 -0.12132341
-0.0096144192 -0.15856224 -0.12075579
0.01112853 -0.15858421 -0.12018788
0.031880222 -0.15860608 -0.11961985
0.052640669 -0.15862793 -0.1190514
0.07340987 -0.1586498 -0.11848295
0.094187833 -0.15867174 -0.11791396
0.11497456 -0.15869357 -0.11734486
-0.13413 -0.13785249 -0.1196816
-0.11314359 -0.13769576 -0.12477344
-0.092236318 -0.13753945 -0.12984627
-0.071521096 -0.13749725 -0.13121873
-0.0508717 -0.13751459 -0.13065517
-0.030213825 -0.13753229 -0.13007933
-0.0095468927 -0.13754922 -0.12952757
0.01112853 -0.1375666 -0.12896341
0.031812645 -0.137584 -0.12839901
0.052505448 -0.13760142 -0.12783414
0.073206954 -0.13761884 -0.12726933
0.093917161 -0.13763618 -0.1267041
0.11463608 -0.13765362 -0.12613881
0.13542396 -0.1377112 -0.12426883
0.15648231 -0.13790688 -0.11791396
-0.17570606 -0.11712575 -0.11861879
-0.15463284 -0.11700808 -0.1237148
-0.1336391 -0.11689079 -0.12879151
0.1559815 -0.11692746 -0.12720799
0.17706528 -0.11707383 -0.12086701
-0.21731491 -0.096382745 -0.11755514
-0.19615568 -0.096304424 -0.12264299
-0.17507525 -0.096226156 -0.12772375
-0.15407422 -0.096148312 -0.13278532
0.17649417 -0.096188955 -0.13014066
0.19760324 -0.096286446 -0.12381333
0.21881202 -0.096384257 -0.11745638
-0.23794658 -0.075603902 -0.1190266
-0.21676101 -0.075564817 -0.12409645
-0.19565497 -0.075525947 -0.12914723
0.19714448 -0.075515993 -0.13043469
0.21829802 -0.075564586 -0.12413341
0.23955102 -0.075613201 -0.1178028
-0.23767629 -0.054847628 -0.12195247
0.2180689 -0.054847602 -0.12710965
-0.25891823 -0.05484755 -0.11687464
-0.2165142 -0.05484755 -0.1270113
-0.19543144 -0.054847576 -0.13205135
0.23929784 -0.05484755 -0.12079281
-0.25862497 -0.034097336 -0.11980498
-0.23740663 -0.034136318 -0.12487209
-0.21626793 -0.034175135 -0.12992007
0.21784124 -0.034176335 -0.13006687
0.23904623 -0.03412772 -0.12376416
0.26034987 -0.034079131 -0.1174438
-0.27960706 -0.013313871 -0.11765426
-0.25833231 -0.013391983 -0.12272918
-0.23713638 -0.013470195 -0.12779737
-0.21602114 -0.013547629 -0.13283432
0.21761315 -0.013550684 -0.13303006
0.23879413 -0.013453763 -0.12674111
0.26007473 -0.013356559 -0.12042248
-0.27929139 0.0073852427 -0.12058306
-0.25803912 0.007268101 -0.12565929
-0.23686787 0.0071515106 -0.13070422
0.23854262 0.0071744993 -0.12971151
0.25979903 0.0073200352 -0.12340689
0.28115547 0.0074664094 -0.11707264
-0.30028248 0.028195381 -0.11844575
-0.27897507 0.028039083 -0.12351763
-0.25774771 0.027883619 -0.12857074
0.23829165 0.027757235 -0.13267541
0.25952393 0.027950943 -0.12638479
0.28085607 0.028145507 -0.1200645
-0.29994446 0.048843399 -0.12137276
-0.27866083 0.048648641 -0.12643379
-0.25745702 0.048454568 -0.13147599
0.25925061 0.048536569 -0.12934369
0.28055853 0.048779316 -0.12303728
0.30196548 0.049022838 -0.1167137
-0.32135874 0.069835044 -0.11588395
-0.29960722 0.069446765 -0.12429363
-0.27834725 0.069213428 -0.12934369
0.25897676 0.06907659 -0.1323083
0.28026044 0.069367193 -0.1260159
0.30164427 0.069659151 -0.11969382
-0.32094425 0.090434231 -0.11924911
-0.29927069 0.090005405 -0.12720799
-0.27803433 0.089733906 -0.13224715
0.27996308 0.089909516 -0.12898797
0.30132246 0.090249307 -0.12267977
0.3227824 0.090590872 -0.11634213
-0.32053077 0.11098208 -0.12260598
-0.29893488 0.11051957 -0.13011587
0.2796663 0.11040642 -0.13195336
0.30100137 0.11079403 -0.12565935
0.32243675 0.11118346 -0.11933559
-0.32011837 0.13147879 -0.12595445
-0.29859841 0.13098863 -0.13303006
0.30068231 0.13129416 -0.12861973
0.32209188 0.13173041 -0.1223225
0.34360355 0.13216969 -0.11598307
-0.32040328 0.15235987 -0.12364095
-0.29881465 0.1517812 -0.13115752
0.27955854 0.15163705 -0.13302994
0.3008967 0.15212959 -0.12663043
0.32233834 0.15262562 -0.12018788
-0.29914308 0.17268491 -0.128313
0.27984768 0.17253017 -0.13014054
-0.32080883 0.17335927 -0.12034839
0.30121094 0.17307422 -0.12371469
0.32267523 0.17362007 -0.11727071
-0.32121384 0.19440916 -0.11706024
-0.29947221 0.19363305 -0.12546247
-0.27821118 0.19315788 -0.13060617
0.28013748 0.19346842 -0.12724477
0.30152446 0.19406331 -0.12080526
-0.29980063 0.21462438 -0.12261814
-0.27851784 0.21410972 -0.12776047
-0.25731492 0.2135959 -0.13289547
0.25911927 0.2138091 -0.13076556
0.28042787 0.21445179 -0.12434274
0.30183876 0.21509767 -0.11788911
-0.3001312 0.23566154 -0.11975557
-0.27882385 0.23510477 -0.1249212
-0.25759798 0.23455024 -0.13006711
0.25938776 0.23478815 -0.12785876
0.28071892 0.23548052 -0.12143439
-0.30046242 0.25674349 -0.11688697
-0.27913183 0.25614569 -0.12206346
-0.25788289 0.25555027 -0.12722009
-0.23671518 0.25495705 -0.13235724
0.2384015 0.25507018 -0.131378
0.25965571 0.25581145 -0.1249581
0.28101188 0.25655624 -0.1185075
-0.27944046 0.27723137 -0.11919969
-0.2581684 0.27659482 -0.12436736
-0.2369777 0.27596068 -0.12951535
0.23864649 0.27608764 -0.12848485
0.25992426 0.27688017 -0.12205112
0.28130418 0.27767628 -0.11558664
-0.27974975 0.29836178 -0.11632979
-0.2584545 0.29768413 -0.1215086
-0.23724076 0.2970089 -0.12666732
-0.21610814 0.29633641 -0.13180643
0.21769319 0.29631236 -0.13199013
0.238892 0.29715046 -0.1255855
0.26019338 0.29799429 -0.11913782
-0.25873995 0.31881648 -0.11865598
-0.23750328 0.31810012 -0.12382567
-0.21634786 0.31738657 -0.12897563
0.21791582 0.31736949 -0.12909818
0.23913804 0.31825891 -0.12267989
0.26046306 0.31915423 -0.11621833
-0.2590273 0.33999538 -0.11578488
-0.23776747 0.33923772 -0.12096566
-0.21658912 0.33848298 -0.12612659
-0.19549178 0.33773097 -0.13126761
0.19699351 0.33753401 -0.13261414
0.2181389 0.33847216 -0.12620032
0.23938566 0.33941478 -0.1197558
-0.23823804 0.36076331 -0.11587161
-0.21699898 0.3599298 -0.12128645
-0.19584401 0.35909745 -0.12669188
-0.17477374 0.35826862 -0.13207579
0.19731276 0.35889524 -0.1280061
0.21851812 0.35993162 -0.12127423
-0.19657782 0.38133574 -0.11715931
-0.17543153 0.38045925 -0.12258136
-0.15437083 0.37958831 -0.12796932
0.15573633 0.37897587 -0.1317575
0.17680801 0.38006112 -0.12504411
0.19798626 0.38115385 -0.11828494
-0.11293704 0.40005949 -0.12924552
0.031778026 0.39944142 -0.13289565
0.052436754 0.39954299 -0.13229609
0.073104434 0.39964247 -0.1317085
0.093781546 0.39974409 -0.1311084
0.1144679 0.39984581 -0.13050818
0.13521507 0.40013641 -0.12879163
-0.15495732 0.40188858 -0.11844563
-0.1339047 0.40097111 -0.12386245
0.1562587 0.40127581 -0.12206346
-0.1133765 0.42242169 -0.11973095
-0.092417359 0.42146373 -0.12514275
-0.071658209 0.4211762 -0.12676579
-0.050975151 0.42128053 -0.12617576
-0.030283198 0.42138723 -0.12557316
-0.0095819756 0.42149404 -0.12497032
0.01112853 0.42160088 -0.1243673
0.031848319 0.42170763 -0.12376404
0.052577212 0.42181242 -0.12317282
0.073315501 0.42191926 -0.12256879
0.094063096 0.42202622 -0.12196469
0.11482 0.42213327 -0.12136054
0.13566381 0.42253762 -0.11907613
-0.09278518 0.44393823 -0.1155864
-0.071940295 0.44356534 -0.11760485
-0.051187094 0.44367743 -0.11699814
-0.030424558 0.44378948 -0.11639166
-0.0096526854 0.44390163 -0.11578476
-0.093293644 -0.20103863 -0.10237634
-0.07233569 -0.20090991 -0.10476393
-0.051482908 -0.20094094 -0.10418934
-0.030621279 -0.20097193 -0.10361439
-0.0097508021 -0.20100287 -0.10303921
0.01112853 -0.20103392 -0.1024639
0.032016721 -0.20106497 -0.10188824
0.052913778 -0.20109597 -0.10131234
0.073819712 -0.20112699 -0.10073626
0.094734512 -0.20115805 -0.10015988
0.1156582 -0.20118913 -0.099583387
-0.13512051 -0.18020383 -0.10129988
-0.1139894 -0.17996541 -0.10646158
-0.092938967 -0.1797286 -0.11159104
-0.072062381 -0.17963393 -0.11364001
-0.051277835 -0.17966026 -0.113069
-0.030484505 -0.1796867 -0.11249793
-0.0096823871 -0.17971307 -0.11192656
0.01112853 -0.17973951 -0.11135501
0.031948246 -0.17976588 -0.1107831
0.052776776 -0.17979234 -0.11021107
0.07361412 -0.17981869 -0.10963863
0.094460279 -0.17984517 -0.10906613
0.11531526 -0.17987168 -0.10849315
0.13628738 -0.18000638 -0.10557568
0.1574944 -0.18030411 -0.099131823
-0.17698145 -0.15935311 -0.10020989
-0.15576223 -0.15915424 -0.10537589
-0.13462357 -0.15895626 -0.11052197
0.13585418 -0.15878561 -0.11495453
0.15698661 -0.15903184 -0.10855556
0.17821942 -0.15927939 -0.10212618
-0.21887498 -0.13848513 -0.099131942
-0.19756758 -0.13832602 -0.10430175
-0.17634116 -0.13816735 -0.10945201
-0.15519522 -0.13800946 -0.11458254
0.17764035 -0.13810351 -0.11152887
0.19889879 -0.13830101 -0.10511357
0.22025836 -0.13849947 -0.0986678
-0.26080304 -0.11760107 -0.098040283
-0.23940726 -0.11748147 -0.10321438
-0.21809283 -0.11736237 -0.10836869
-0.19685926 -0.11724393 -0.11350352
0.19824877 -0.11722097 -0.11449593
0.21953265 -0.11736882 -0.10809463
0.24091773 -0.11751737 -0.10166305
-0.28127915 -0.096620105 -0.10213846
-0.25987667 -0.096540719 -0.107297
-0.23855542 -0.096461557 -0.11243588
0.24012123 -0.09648259 -0.11106908
0.26153159 -0.096581362 -0.10465151
0.28304374 -0.096680716 -0.098203599
-0.30198634 -0.075721949 -0.10368943
-0.28055942 -0.07568235 -0.1088171
-0.25921214 -0.075643003 -0.11393768
0.26090431 -0.075662158 -0.11144203
0.28235853 -0.07571137 -0.10505116
0.30391437 -0.075760826 -0.09863013
0.28205639 -0.054847602 -0.10806966
-0.30164468 -0.054847524 -0.1066485
-0.28024036 -0.054847524 -0.11177748
0.26062676 -0.054847497 -0.11444628
0.3035875 -0.054847576 -0.10166293
-0.3234483 -0.033936571 -0.098918676
-0.30130225 -0.034018811 -0.10961366
-0.27992332 -0.034058228 -0.11471903
0.28175503 -0.034030147 -0.1110816
0.30326134 -0.03398101 -0.104689
0.32486963 -0.033931531 -0.098266184
-0.32302856 -0.013077922 -0.10232615
-0.30096209 -0.013235472 -0.11256003
0.28145552 -0.013258778 -0.11407429
0.30293596 -0.013160892 -0.10770828
0.32451934 -0.013062194 -0.10129982
-0.3226099 0.0077284276 -0.10572529
-0.30062258 0.0075026415 -0.11549979
0.30261266 0.0076132491 -0.11070836
0.32417125 0.0077609792 -0.10431427
-0.32219231 0.028482586 -0.10911584
0.30228871 0.028341025 -0.11371428
0.32382256 0.028537497 -0.10733432
0.34545833 0.028734811 -0.10092413
-0.34415758 0.0496483 -0.10046071
-0.32177573 0.04918512 -0.11249793
0.32347459 0.049267754 -0.11034775
0.34508544 0.049513966 -0.10395181
-0.34371215 0.070390306 -0.10386431
0.32312882 0.069952525 -0.11334217
0.34471488 0.07024736 -0.1069603
-0.3432678 0.091080301 -0.10725969
0.3443436 0.090933986 -0.1099745
0.36643922 0.091456778 -0.10027272
-0.36531562 0.11246101 -0.09859252
-0.34282458 0.11171854 -0.11064619
0.34397316 0.11157473 -0.11298221
0.36597407 0.11213862 -0.10382694
-0.36484331 0.13313833 -0.10200089
-0.34238249 0.13230526 -0.11402452
0.36551183 0.13276717 -0.10735941
-0.3652426 0.15424755 -0.099119306
-0.34272212 0.15329984 -0.11142951
0.34388298 0.15312403 -0.11371452
0.3658874 0.15383419 -0.10448909
-0.34315526 0.17439488 -0.10811937
0.344244 0.17416933 -0.11078298
0.36634409 0.17499778 -0.10099936
-0.34358948 0.19554171 -0.10480142
0.3230142 0.19466099 -0.11433458
0.34460586 0.19526041 -0.10784543
-0.34402645 0.21674153 -0.1014626
-0.32162136 0.21551171 -0.11375171
0.32335252 0.21574661 -0.11140472
0.3449685 0.2163974 -0.10490143
-0.34446281 0.23799244 -0.09812814
-0.32202834 0.23666471 -0.11044735
0.30215371 0.23617756 -0.11496699
0.32369161 0.23687798 -0.10846841
0.3453334 0.23758173 -0.10193825
-0.32243782 0.25787094 -0.10712248
0.30246931 0.25730324 -0.11203837
0.32403141 0.25805533 -0.10552561
0.34569764 0.25881094 -0.09898138
-0.30079442 0.27787015 -0.11401212
-0.32284683 0.27912775 -0.10380185
0.30278563 0.27847481 -0.10910332
0.32437193 0.27927876 -0.10257643
-0.32325834 0.30043849 -0.10046059
-0.30112565 0.29904047 -0.11114371
0.28159714 0.29884207 -0.11265928
0.30310398 0.29969403 -0.10614967
0.32471323 0.30054846 -0.099620998
-0.30145901 0.32025748 -0.1082567
-0.28005838 0.31953555 -0.11346608
0.28189069 0.32005382 -0.10972571
0.30342168 0.32095784 -0.10320181
-0.30179304 0.3415198 -0.10536319
-0.28036898 0.34075609 -0.11058402
0.26073337 0.34036011 -0.11329252
0.2821849 0.34131187 -0.10678583
0.30374002 0.34226799 -0.10024762
-0.30248803 0.36330768 -0.099345028
-0.28097469 0.36244273 -0.10496384
-0.25956392 0.36160237 -0.11042237
0.23983105 0.36097515 -0.11449581
0.26125032 0.36202207 -0.10769576
0.28277904 0.3630763 -0.10084879
-0.23912574 0.3830975 -0.10626185
-0.2178084 0.38221377 -0.11172783
0.21927115 0.38225207 -0.11149168
0.24066254 0.38335371 -0.10467649
-0.26052946 0.38398454 -0.10077387
-0.21862461 0.40465876 -0.10208851
-0.19731687 0.4037323 -0.10755867
-0.17609401 0.40280747 -0.11301941
0.17740878 0.40242317 -0.11528921
0.1986655 0.40357614 -0.10848075
0.22002876 0.404733 -0.10165048
-0.17676121 0.42531502 -0.10338932
-0.15554801 0.42434737 -0.10885429
-0.13441946 0.42338154 -0.11430991
0.15678553 0.42373979 -0.11228687
0.17801313 0.42494571 -0.10547566
0.19934885 0.42615992 -0.098617613
-0.15614289 0.4469668 -0.099194646
-0.13493788 0.44595155 -0.104689
-0.11381908 0.44494286 -0.11014867
0.01112853 0.4440138 -0.11517763
0.031919096 0.44412607 -0.1145702
0.052718826 0.44423595 -0.11397487
0.073528022 0.44434834 -0.11336684
0.094346575 0.44446066 -0.11275858
0.1151745 0.44457299 -0.11215019
0.13611639 0.44510362 -0.10927761
0.15731554 0.44636497 -0.10245132
-0.11426482 0.46762469 -0.10049832
-0.093155131 0.46657071 -0.10597491
-0.072224692 0.4661099 -0.10836869
-0.051400483 0.4662275 -0.10775822
-0.030566886 0.46634498 -0.1071474
-0.0097238813 0.4664627 -0.10653627
0.01112853 0.46658042 -0.10592496
0.031990357 0.46669808 -0.10531324
0.052861407 0.46681342 -0.10471398
0.073741987 0.46693119 -0.10410196
0.094631992 0.46704915 -0.10348928
0.11553144 0.46716699 -0.10287666
0.13657166 0.46783218 -0.099420369
-0.072511047 0.48880973 -0.099069118
-0.051615342 0.4889327 -0.098454416
-0.094010785 -0.24409834 -0.083744347
-0.072887346 -0.24388331 -0.086848378
-0.051896818 -0.24392357 -0.08626616
-0.030897535 -0.24396485 -0.085671067
-0.009888988 -0.24400523 -0.085088193
0.01112853 -0.2440457 -0.084505081
0.032155026 -0.24408597 -0.083922029
0.053190507 -0.24412638 -0.08333838
0.074234977 -0.24416691 -0.082754672
0.095288441 -0.24420741 -0.082170665
0.11635091 -0.24424788 -0.081586301
-0.13612531 -0.22313768 -0.082652986
-0.11484736 -0.22281545 -0.087885737
-0.093650743 -0.22249445 -0.093098462
-0.072610416 -0.22232541 -0.095842004
-0.051689327 -0.2223618 -0.095250964
-0.030758951 -0.22239745 -0.094672382
-0.0098196678 -0.22243306 -0.094093382
0.01112853 -0.22246885 -0.093514144
0.032085646 -0.2225045 -0.092934728
0.053051684 -0.22254017 -0.092355013
0.074026659 -0.22257581 -0.091775119
0.095010564 -0.22261167 -0.091194868
0.11600342 -0.22264737 -0.090614498
0.13716286 -0.22289339 -0.086620688
-0.17827439 -0.20216089 -0.081548274
-0.15690711 -0.20187879 -0.086785197
-0.13562153 -0.20159769 -0.092002213
-0.1144172 -0.20131767 -0.097199082
0.13672359 -0.2013751 -0.096131265
0.15800574 -0.20172486 -0.089642406
0.17938973 -0.20207614 -0.083122611
-0.2204565 -0.18116668 -0.080455124
-0.19899984 -0.18092459 -0.08569634
-0.17762528 -0.1806834 -0.090917468
-0.15633233 -0.18044323 -0.09611851
0.17880252 -0.18060306 -0.092657626
0.20021248 -0.18090349 -0.086152375
-0.24112733 -0.15995419 -0.084593773
-0.21966356 -0.15975302 -0.089819312
-0.19828175 -0.15955268 -0.095024645
0.19955337 -0.15952796 -0.095666051
0.22098911 -0.15977786 -0.089174986
0.24252743 -0.16002886 -0.082653224
-0.28328753 -0.13896655 -0.083503306
-0.26173449 -0.13880539 -0.088732779
-0.2402638 -0.13864511 -0.093942165
0.24171978 -0.13869902 -0.09219116
0.26328373 -0.13889933 -0.085683703
-0.30405527 -0.11788438 -0.085772216
-0.28228062 -0.11772095 -0.092846453
0.26240462 -0.11766664 -0.095200598
0.28399408 -0.11781659 -0.088707566
0.30568683 -0.1179672 -0.082183421
-0.32525796 -0.096895896 -0.084226191
-0.30281997 -0.096707389 -0.096470535
0.30465859 -0.096780375 -0.091724753
0.32637668 -0.096880615 -0.085214913
-0.32429087 -0.075811297 -0.092077792
0.32557112 -0.075810358 -0.09219116
0.34734327 -0.075861007 -0.085620284
-0.32386905 -0.054847602 -0.095502496
0.3252207 -0.054847602 -0.095225811
-0.34640157 -0.05484755 -0.083312988
0.34695524 -0.05484755 -0.088770688
-0.34595215 -0.033842839 -0.086747348
0.34658056 -0.033881761 -0.091812968
-0.34550059 -0.012891162 -0.09019798
0.34620512 -0.012962949 -0.09486109
0.3687799 -0.012770914 -0.082386434
-0.3676967 0.0082900673 -0.081408441
-0.34505177 0.0080077499 -0.093627453
0.34583056 0.0079090744 -0.097902358
0.36831027 0.0081845522 -0.085974932
-0.36721838 0.029229626 -0.084860146
-0.34460407 0.028854251 -0.097048283
0.36784029 0.029084638 -0.089566648
-0.3667413 0.050116226 -0.08830297
0.36737144 0.049929753 -0.093148828
-0.36626548 0.070950426 -0.091737211
0.36690557 0.070720829 -0.096709192
0.38976896 0.0713659 -0.082741916
-0.3885141 0.092389084 -0.082970381
-0.36578906 0.091731496 -0.095175505
0.38927186 0.092208125 -0.086329341
-0.38800979 0.11321061 -0.086418092
0.38877434 0.1129951 -0.089920223
-0.38750678 0.13397965 -0.089857161
0.38827807 0.13372722 -0.093501627
-0.38796908 0.15520385 -0.086696684
0.38872534 0.15492842 -0.090273738
-0.38846397 0.17649543 -0.083312988
-0.36570543 0.17543983 -0.095779121
0.38921225 0.17620352 -0.086759686
-0.36616939 0.19668436 -0.092430651
0.36680037 0.19621491 -0.09751308
0.38970041 0.19753361 -0.083236814
-0.36663628 0.21798256 -0.08906132
0.36725777 0.21748659 -0.094017923
-0.36710256 0.23933214 -0.08569634
0.36771637 0.23881286 -0.090513587
-0.34490186 0.25929686 -0.094772995
0.36817777 0.26019585 -0.086987674
-0.36757171 0.26073608 -0.082310259
-0.34534037 0.28065258 -0.091421843
0.3460626 0.28008646 -0.096017957
0.36863875 0.28163266 -0.083465338
-0.34578168 0.30206263 -0.088050187
0.34642845 0.30140853 -0.093048096
-0.34622234 0.32352388 -0.084682643
-0.32366937 0.32180008 -0.097123623
0.32505524 0.32186452 -0.096658945
0.34679502 0.32277715 -0.090071738
-0.3466658 0.34504032 -0.081294119
-0.32408291 0.34321606 -0.093765974
0.32539946 0.343229 -0.093677878
0.34716243 0.34419274 -0.087088823
-0.32500827 0.36532342 -0.086253583
0.30441684 0.3641358 -0.093967438
0.32616323 0.36519876 -0.087063551
-0.30378789 0.38603526 -0.088088155
-0.28201878 0.38487339 -0.095276058
0.26216316 0.38446292 -0.097814381
0.28377295 0.38557795 -0.090917528
0.30549127 0.38669667 -0.083998084
-0.28307033 0.40746489 -0.085519135
-0.26150197 0.40652713 -0.091056347
-0.24001978 0.40559119 -0.096583486
0.24150114 0.40589756 -0.094772935
0.26308149 0.40706614 -0.087873161
0.28477287 0.40824285 -0.080925465
-0.2624802 0.42922947 -0.081281424
-0.24092026 0.4282459 -0.08683598
-0.2194467 0.42726427 -0.092380285
-0.19806118 0.42628881 -0.097889721
0.22079283 0.42738035 -0.091724694
0.24234484 0.42860463 -0.084809363
-0.22027467 0.45003214 -0.082602322
-0.19881085 0.44900694 -0.088151336
-0.17743315 0.44798365 -0.093690336
0.17862268 0.44763485 -0.095578074
0.20003806 0.44891128 -0.088669658
0.22156155 0.45019171 -0.081738651
-0.17810993 0.47081485 -0.08392179
-0.15674204 0.46974805 -0.089465559
-0.13546002 0.46868297 -0.094999433
0.15785006 0.46915808 -0.092531562
0.17923591 0.47048798 -0.085620284
-0.13598658 0.49157998 -0.085227549
-0.11471376 0.49046895 -0.090778589
-0.093527734 0.48936495 -0.096294343
-0.030710187 0.48905578 -0.097839415
-0.0097955652 0.48917887 -0.097224057
0.01112853 0.48930225 -0.096608579
0.032062102 0.48942527 -0.095992804
0.053004969 0.48954609 -0.095389307
0.073957428 0.48966953 -0.094772816
0.094919384 0.48979309 -0.094156265
0.11589084 0.48991641 -0.093539357
0.13703087 0.4907293 -0.089478135
0.15838785 0.49211559 -0.08255142
-0.094738841 -0.28775579 -0.064828992
-0.073446728 -0.2874296 -0.068681777
-0.052316546 -0.28747949 -0.06809175
-0.031177275 -0.28752956 -0.067501366
-0.010028917 -0.28757951 -0.066910863
0.01112853 -0.28762963 -0.066319942
0.032295175 -0.2876806 -0.065716147
0.053471319 -0.28773287 -0.06509912
0.074656971 -0.28778523 -0.064481676
0.095852129 -0.28783751 -0.063864112
0.11705682 -0.28788978 -0.06324631
-0.13714401 -0.26666552 -0.06374824
-0.11571719 -0.26625705 -0.06905365
-0.094372816 -0.26585022 -0.074338496
-0.07316611 -0.2655842 -0.077795208
-0.052105986 -0.26562932 -0.077209115
-0.031036843 -0.26567438 -0.076622784
-0.0099586714 -0.26571956 -0.076035917
0.01112853 -0.26576582 -0.075436354
0.032224867 -0.26581091 -0.074849308
0.05333025 -0.26585621 -0.074261785
0.074444681 -0.26590151 -0.073674142
0.095568165 -0.26594663 -0.073086321
0.11670072 -0.26599196 -0.072498262
0.13805069 -0.26638448 -0.067398667
-0.15806781 -0.24519336 -0.067937732
-0.13663326 -0.244827 -0.073226869
-0.11528108 -0.24446201 -0.078495741
0.13760522 -0.24456269 -0.077043355
0.15903924 -0.24501848 -0.070463061
0.18057653 -0.24547669 -0.063851118
-0.20045188 -0.22411197 -0.066833675
-0.17892711 -0.22378597 -0.072127163
-0.15748508 -0.22346121 -0.077400208
0.15852068 -0.22329569 -0.080086589
0.17998104 -0.22370008 -0.073520958
0.20154467 -0.2241064 -0.066923618
-0.24287121 -0.20301411 -0.065716088
-0.22125596 -0.20272863 -0.071013689
-0.19972385 -0.20244426 -0.076291144
0.20087625 -0.20242915 -0.076571703
0.22246602 -0.20278388 -0.069989204
0.24415988 -0.2031402 -0.063374937
-0.28532368 -0.18189856 -0.064610302
-0.26361793 -0.18165365 -0.069912374
-0.24199571 -0.18140966 -0.075193942
0.22172499 -0.18120542 -0.079615712
0.24334079 -0.18150875 -0.073047876
0.2650606 -0.18181372 -0.06644839
-0.30655676 -0.1607427 -0.06410861
-0.28430277 -0.16035882 -0.074082911
-0.26267362 -0.16015616 -0.079348445
0.26416904 -0.16028109 -0.076099873
0.28591472 -0.16053456 -0.06951499
-0.30530179 -0.139229 -0.074976861
0.28495103 -0.13910064 -0.079144895
0.3067224 -0.13930291 -0.072574854
0.32859999 -0.13950664 -0.065960169
-0.3265875 -0.11816939 -0.073431253
0.32748371 -0.11811861 -0.075627804
0.34975845 -0.11834063 -0.066011667
-0.3478989 -0.097086102 -0.0718714
0.34836203 -0.097001776 -0.077349365
0.37130326 -0.097221084 -0.06310451
-0.36962014 -0.076000303 -0.067526996
-0.34685379 -0.07590545 -0.079857469
0.3701995 -0.07596948 -0.071538568
-0.36913699 -0.05484768 -0.071013689
0.36972618 -0.054847524 -0.075155675
-0.36865687 -0.033748373 -0.074478924
0.36925244 -0.033781528 -0.078775823
0.39228135 -0.033672512 -0.064610302
-0.39105463 -0.012512524 -0.065600276
-0.36817616 -0.012702547 -0.077948213
0.39177585 -0.012553483 -0.068258345
-0.39054394 0.0085744262 -0.069091976
0.39127171 0.0085096136 -0.071896851
-0.39003456 0.029607847 -0.072574854
0.39077067 0.02951733 -0.075512946
-0.41251922 0.05106429 -0.063670993
-0.38952643 0.050587997 -0.076048911
0.39026916 0.050469346 -0.079132318
0.41340387 0.051014341 -0.064970315
-0.41198087 0.072085254 -0.06716764
-0.38901961 0.071514986 -0.079513848
0.41287041 0.072018273 -0.068617582
-0.41144192 0.093052112 -0.070667982
0.41233838 0.092966609 -0.072255075
-0.41090637 0.11396635 -0.074146867
0.41180962 0.11386032 -0.075870216
-0.43349987 0.13570738 -0.064918995
-0.41038191 0.13483208 -0.077553213
0.41128409 0.13469979 -0.079463065
0.43457228 0.13570204 -0.064996183
-0.41090637 0.15616989 -0.074146867
0.41180217 0.15603337 -0.075921297
-0.41143012 0.17755979 -0.070744932
0.41232157 0.17742208 -0.072370231
-0.41195518 0.19900274 -0.067334592
-0.38895822 0.19783875 -0.079933703
0.41284227 0.19886637 -0.068809867
-0.41248155 0.22049907 -0.063915491
-0.38945371 0.21923509 -0.076546311
0.39018977 0.21891895 -0.079704762
0.41336626 0.22036773 -0.065227568
-0.3899523 0.24068561 -0.073137343
0.39068228 0.24036089 -0.076150775
-0.39045024 0.26218835 -0.069732964
0.3911742 0.26185712 -0.072600305
-0.39094943 0.28374436 -0.066319942
-0.36804032 0.2821914 -0.07892859
0.39166749 0.28340918 -0.069040716
-0.3685118 0.30370167 -0.075525761
0.36910087 0.30312479 -0.079933822
0.39216197 0.30501729 -0.065471768
-0.36898273 0.32526368 -0.072126985
0.36956424 0.32467252 -0.076393127
-0.36945659 0.34688121 -0.068707228
0.37002879 0.34627622 -0.072843373
-0.34774661 0.36735839 -0.073035061
0.34816593 0.36644927 -0.078941345
0.37123251 0.36880413 -0.063645303
-0.32640976 0.38817146 -0.074874759
0.32732171 0.38782287 -0.077030599
0.34964138 0.38945055 -0.066962183
-0.32782137 0.4112086 -0.063413501
-0.30509996 0.40895426 -0.076724648
0.30657363 0.40942335 -0.073955357
0.32848728 0.41061187 -0.066936493
-0.30642164 0.43206269 -0.065279067
-0.28412944 0.43021908 -0.075691521
0.26400775 0.42983758 -0.07784611
0.28578013 0.43107447 -0.070860267
0.30766529 0.43232006 -0.063825428
-0.28519619 0.45313767 -0.065793097
-0.26346672 0.45209751 -0.071423292
-0.2418272 0.45106378 -0.077017903
0.24319473 0.45147875 -0.074772596
0.26493961 0.45277461 -0.067758203
-0.24273948 0.47404417 -0.067141891
-0.22110863 0.47296414 -0.072753847
-0.1995659 0.47188845 -0.078342855
0.20073147 0.4718273 -0.078661263
0.22233592 0.47317103 -0.071679294
0.24405089 0.47452149 -0.064661801
-0.20032641 0.4949353 -0.068463683
-0.1787916 0.49381062 -0.074083149
-0.1573455 0.49269292 -0.079666615
0.17985365 0.49350908 -0.075589538
0.20142998 0.49491206 -0.068579137
-0.095444433 -0.31062266 -0.046497107
-0.073985212 -0.31018871 -0.051194072
-0.05272118 -0.31024635 -0.050570488
-0.031447548 -0.31030405 -0.049946427
-0.010164313 -0.31036171 -0.049322367
0.01112853 -0.31041947 -0.048697948
0.032430887 -0.31047589 -0.048086166
0.053742871 -0.31053367 -0.047461271
0.07506448 -0.31059137 -0.046836019
0.096395724 -0.31064919 -0.046210408
0.11773761 -0.31070936 -0.045558691
-0.15928152 -0.28916144 -0.048229456
-0.13768068 -0.28869066 -0.053789139
-0.11616705 -0.28822279 -0.059313655
0.13851364 -0.28838697 -0.057375431
0.16011679 -0.28897193 -0.050466418
-0.20192413 -0.26790017 -0.04770875
-0.18024701 -0.26748708 -0.05307591
-0.15865381 -0.26707551 -0.058422446
0.15956147 -0.26689464 -0.060771942
0.18117625 -0.26740721 -0.05411315
0.20289667 -0.26792336 -0.047409058
-0.24463935 -0.24667352 -0.046575427
-0.2228705 -0.24630135 -0.051946998
-0.20118596 -0.24593067 -0.057297826
-0.17958522 -0.24556133 -0.06262815
0.20221782 -0.2459369 -0.057207465
0.22396491 -0.24640036 -0.050518394
-0.26552755 -0.22509751 -0.050830126
-0.2437516 -0.22476768 -0.056185484
-0.22205991 -0.2244392 -0.061519861
0.22321233 -0.22451466 -0.060294628
0.24498583 -0.2249257 -0.053620577
0.26686394 -0.22533789 -0.046927214
-0.28638935 -0.20360649 -0.054722309
-0.26457006 -0.20330065 -0.060397863
0.26595968 -0.20349908 -0.056715965
0.28786391 -0.20385888 -0.050037622
-0.30782175 -0.18242761 -0.053153872
0.28688651 -0.18212044 -0.059804201
0.30881685 -0.18242836 -0.053140759
0.33090609 -0.18275857 -0.045988798
-0.32928008 -0.1612252 -0.051570654
0.30776662 -0.16078974 -0.062885702
0.32972276 -0.16104566 -0.056237221
-0.35076135 -0.13999818 -0.049998522
-0.32792765 -0.13961168 -0.062550783
0.3511681 -0.13985747 -0.054566741
-0.37226886 -0.11874709 -0.048411727
-0.34932446 -0.11845686 -0.060978293
0.37280416 -0.11867272 -0.051635504
-0.39379919 -0.097471505 -0.046836138
-0.37074572 -0.097278006 -0.059404135
0.39448625 -0.097442925 -0.048697829
-0.39259267 -0.076095998 -0.055085063
0.39329457 -0.076079018 -0.057297945
-0.39207804 -0.054847628 -0.058603287
-0.41522753 -0.054847524 -0.046080232
0.39278638 -0.054847524 -0.060965419
0.41608864 -0.054847576 -0.046614647
-0.4146843 -0.033556938 -0.049608469
-0.39156663 -0.033653025 -0.062100053
0.41554803 -0.033562321 -0.050310493
-0.41414046 -0.012320641 -0.053140879
0.41501081 -0.01233365 -0.053983688
-0.413598 0.0088614747 -0.056664109
0.41447312 0.0088383257 -0.057659984
-0.43629044 0.030375078 -0.047656655
-0.41305894 0.029989906 -0.060165644
0.41393679 0.029954121 -0.061326504
0.43734616 0.030395977 -0.046979427
-0.43571866 0.051544607 -0.051193953
0.43677723 0.051564589 -0.050674319
-0.43514824 0.072660126 -0.054722309
0.43621188 0.072677471 -0.054346442
-0.45792717 0.094397433 -0.045702219
-0.43457931 0.09372168 -0.058241487
0.435646 0.093733601 -0.058021903
-0.45732504 0.11549925 -0.049257278
-0.43401188 0.1147297 -0.061751842
0.43508166 0.1147337 -0.061687469
0.45859808 0.11561706 -0.047344089
-0.45682997 0.13659 -0.052180648
0.45811009 0.13671592 -0.050362468
-0.45741534 0.15812698 -0.048723936
-0.43405354 0.15714392 -0.061494112
0.43512338 0.15714976 -0.061416745
0.45869493 0.15827921 -0.046744704
-0.43460858 0.17863381 -0.058060646
0.43567789 0.17865458 -0.057815075
-0.43516505 0.20017728 -0.054618597
0.43623185 0.20021445 -0.054216981
-0.43572491 0.22177592 -0.051154971
0.43678725 0.22183058 -0.05060935
-0.41301125 0.24205032 -0.060475349
0.41388965 0.24192378 -0.061648846
-0.43628418 0.24342752 -0.047695756
0.43734413 0.24350339 -0.046992421
-0.41354024 0.26365402 -0.057039261
0.41441447 0.2635361 -0.058060646
-0.41407061 0.28531173 -0.053594708
0.41494066 0.2852048 -0.054463029
-0.41460425 0.30702537 -0.05012846
-0.39145172 0.30535579 -0.062885582
0.41546822 0.30692998 -0.050856352
-0.41513723 0.32879162 -0.046666622
-0.39195341 0.32701942 -0.059455752
0.39265782 0.32668158 -0.061893702
0.41599715 0.32871217 -0.04723978
-0.3924582 0.34873921 -0.056004167
0.39315486 0.3484025 -0.058305979
-0.39389259 0.37149039 -0.046197414
-0.37070638 0.36941355 -0.059688091
0.39455837 0.3711856 -0.048177361
-0.37231392 0.39250207 -0.048086286
-0.3492502 0.39032626 -0.06154561
0.37281775 0.391945 -0.051531553
-0.35076642 0.41348717 -0.04995954
0.35113138 0.41265643 -0.054864764
-0.32924646 0.43444148 -0.051843405
0.32966149 0.43356964 -0.056767583
-0.30775583 0.45536736 -0.053724527
0.28679484 0.45407477 -0.060720444
0.30876374 0.45538422 -0.05363369
0.33090156 0.45678934 -0.046027899
-0.2862944 0.4762648 -0.055602908
-0.26446038 0.47513118 -0.061494112
0.26587844 0.47588137 -0.057595253
0.28781712 0.47724584 -0.050505519
-0.24366079 0.49719593 -0.057168484
-0.22194861 0.49606195 -0.062834203
0.22311603 0.49631986 -0.06154573
0.24491452 0.49773756 -0.054463148
-0.096158981 -0.33379516 -0.027932644
-0.074533843 -0.33325028 -0.033376813
-0.05313284 -0.33331352 -0.032745123
-0.03172211 -0.33337671 -0.032113314
-0.010301657 -0.33343995 -0.031481028
0.01112853 -0.33350325 -0.030848503
0.032568358 -0.33356532 -0.030228853
0.054017927 -0.33362868 -0.029595971
0.075477257 -0.33369207 -0.028962374
0.096946336 -0.33375543 -0.028328896
-0.16042337 -0.31217539 -0.029688239
-0.13867648 -0.31165618 -0.035309434
-0.11701657 -0.31113788 -0.040921092
0.1393813 -0.31135312 -0.038589954
0.16113487 -0.3120012 -0.031573296
-0.22460687 -0.29058298 -0.031441689
-0.2027442 -0.29010752 -0.037055731
-0.18096863 -0.28963301 -0.042660356
0.18182926 -0.28956106 -0.043509603
0.20365126 -0.29015315 -0.03651762
0.22558364 -0.29074821 -0.029490352
-0.26746392 -0.26914948 -0.031481028
-0.24553208 -0.26873145 -0.036911249
-0.22368567 -0.26831499 -0.042320609
0.22472182 -0.26844081 -0.040685654
0.24665327 -0.26896095 -0.033929229
0.289841 -0.24780232 -0.030281544
-0.28877628 -0.2476435 -0.032574177
-0.26649296 -0.24704707 -0.041182876
0.2458166 -0.24686506 -0.04381001
0.26777458 -0.24733213 -0.037068844
-0.31038362 -0.22632071 -0.030967116
-0.28757805 -0.225537 -0.04369247
0.28884828 -0.22575203 -0.040201306
0.31094116 -0.22616896 -0.033429503
-0.33201426 -0.20497254 -0.0293715
-0.3090983 -0.20428675 -0.042098284
0.30987453 -0.20422056 -0.043326616
0.33224547 -0.20470214 -0.034389496
-0.33064169 -0.18301141 -0.040515423
0.35401964 -0.18343171 -0.031415224
-0.35221142 -0.16171229 -0.038917661
0.35258794 -0.16155368 -0.043039322
0.37584209 -0.16211623 -0.028421164
-0.37380421 -0.14038816 -0.037331223
0.37431592 -0.14030346 -0.040083408
-0.39542359 -0.11904007 -0.035729766
0.39609033 -0.11900784 -0.037121296
-0.41706586 -0.097667068 -0.034139633
0.41791129 -0.097666785 -0.034152746
-0.4391675 -0.07629025 -0.029859662
-0.41577417 -0.076192655 -0.042529702
0.41662872 -0.076189674 -0.042921662
0.44020945 -0.076301537 -0.028381705
-0.43858832 -0.054847576 -0.033442497
0.43963289 -0.054847576 -0.032126427
-0.43801266 -0.033459865 -0.03700316
0.43905991 -0.033450983 -0.035848022
-0.46094549 -0.01193171 -0.027879834
-0.43743646 -0.012127116 -0.040567756
0.43848646 -0.012111757 -0.039572835
-0.46033782 0.0094433576 -0.031467915
-0.43686169 0.0091510564 -0.044123292
0.43791658 0.0091705993 -0.043274522
0.46160376 0.0095060021 -0.028751254
-0.45973396 0.030763775 -0.035033464
0.46100062 0.030842379 -0.032481909
-0.45912939 0.0520292 -0.038603187
0.46039706 0.052121185 -0.036215782
-0.48212057 0.073826067 -0.029477
-0.45852858 0.073240735 -0.042150617
0.45979506 0.073342882 -0.039939404
-0.48148602 0.09507864 -0.033061028
0.45919687 0.094508566 -0.043640137
0.48299235 0.095290922 -0.029120803
-0.48085308 0.11627648 -0.036635876
0.48236072 0.11650958 -0.032850504
-0.48037946 0.13748166 -0.039310813
0.48189753 0.13773981 -0.035585284
-0.4809972 0.15912014 -0.035821676
0.48251677 0.15941992 -0.031929016
-0.4816165 0.18081319 -0.032323956
-0.45800447 0.17971897 -0.045245528
0.45928127 0.17989907 -0.043117642
0.48313767 0.18115699 -0.028262854
-0.4822374 0.20256072 -0.028817177
-0.45859283 0.20136404 -0.041771412
0.45986915 0.20157573 -0.039481044
-0.45918268 0.22306368 -0.038288593
0.46045864 0.22330916 -0.035834908
-0.45977402 0.24481773 -0.034797072
0.46105176 0.24510124 -0.032165885
-0.46036905 0.26662809 -0.031283379
-0.43684477 0.26513332 -0.044227719
0.43790245 0.26523289 -0.043365717
0.46164429 0.26694942 -0.028500438
-0.43740892 0.28689525 -0.040737867
0.43846226 0.28701937 -0.039729834
-0.43797243 0.3087104 -0.037252426
0.43902349 0.30886319 -0.036084414
-0.43853724 0.33058023 -0.033758283
0.43958628 0.33076435 -0.032429099
-0.43910563 0.3525072 -0.030242324
-0.41567355 0.35061434 -0.043182969
0.41652751 0.35055128 -0.04361403
0.4401505 0.35272336 -0.028764486
-0.41730487 0.37358591 -0.03258729
0.41814798 0.3735939 -0.032534719
-0.39560425 0.39469919 -0.034494519
0.39625585 0.39446774 -0.0359267
-0.37393516 0.41578576 -0.036386371
0.37441874 0.41529286 -0.039297581
-0.35229379 0.43684134 -0.038288474
0.352633 0.43606508 -0.042673349
-0.33068204 0.45786831 -0.040188193
0.35414952 0.45968381 -0.030360818
-0.33213133 0.48149601 -0.028421164
-0.30909979 0.47886637 -0.042085052
0.3098703 0.4786199 -0.043365836
0.33231837 0.48046884 -0.033758283
-0.075105183 -0.35666555 -0.014821887
-0.053549834 -0.35667992 -0.014688492
-0.032000236 -0.35674891 -0.014048338
-0.010440782 -0.3568179 -0.013408184
0.01112853 -0.35688704 -0.012767434
0.03270771 -0.35695612 -0.012126327
0.054296557 -0.35702369 -0.011498332
0.075895391 -0.35709292 -0.010856628
-0.16158062 -0.33549988 -0.010896802
-0.13968498 -0.33492979 -0.016594172
-0.1178775 -0.33436066 -0.022281528
0.11846741 -0.33392864 -0.026597977
0.14026149 -0.33463562 -0.019533634
0.16216624 -0.33534616 -0.012433648
-0.22619721 -0.31374845 -0.012660503
-0.20418309 -0.31322157 -0.018363833
-0.18225931 -0.31269807 -0.024030805
0.18299866 -0.31265268 -0.024520874
0.20497259 -0.3133063 -0.017446041
0.22705925 -0.31396434 -0.010321856
-0.26859969 -0.29154074 -0.02013135
-0.24655931 -0.29106149 -0.025791287
0.24762721 -0.29134634 -0.022427201
0.26978165 -0.29194629 -0.015341878
-0.2899856 -0.26992911 -0.021352887
0.26869303 -0.26948458 -0.027126789
0.29083949 -0.27000976 -0.020304203
0.31309462 -0.27053761 -0.013448119
-0.3116793 -0.2485323 -0.019746184
0.31201404 -0.24827397 -0.023474455
0.33495975 -0.24914628 -0.010883331
-0.33339953 -0.22711164 -0.018124461
0.33359766 -0.22683108 -0.02267921
-0.35514331 -0.20566541 -0.016514182
0.35546505 -0.20549482 -0.019679785
-0.37691391 -0.18419504 -0.014888644
-0.35367149 -0.1836006 -0.027760863
0.37737948 -0.18411261 -0.016673923
-0.39870793 -0.16269931 -0.01327455
-0.37535191 -0.16220325 -0.026161671
0.39934105 -0.16268441 -0.013661504
-0.42052913 -0.14117911 -0.011645198
-0.39705914 -0.14078176 -0.024547338
0.39770979 -0.14075449 -0.025434136
0.42134994 -0.1412099 -0.010642648
-0.41878951 -0.11933535 -0.022944331
0.41962433 -0.1193469 -0.022440791
-0.44054699 -0.097864307 -0.021326303
0.44158596 -0.097893275 -0.019440532
-0.46277559 -0.076388583 -0.017073274
0.46403664 -0.076414548 -0.013701677
-0.46216327 -0.054847628 -0.02068913
0.46342701 -0.054847628 -0.017472625
-0.48531324 -0.033263203 -0.011444807
-0.46155471 -0.033362001 -0.024282575
0.46281695 -0.033338651 -0.021246672
-0.48467046 -0.011734579 -0.015075326
0.4622106 -0.011887405 -0.024997354
-0.48402935 0.0097382441 -0.018696308
0.48554271 0.0098451972 -0.014061809
-0.48339224 0.031156048 -0.022294879
0.48490196 0.03129299 -0.017845154
-0.50659657 0.053011902 -0.013074398
-0.48275441 0.052518368 -0.025897264
0.48426521 0.052683525 -0.021605134
-0.50592911 0.074416779 -0.016687274
0.48362792 0.074015878 -0.025367856
0.50770998 0.074695386 -0.010655999
-0.50526088 0.095765986 -0.020304084
0.5070408 0.096082292 -0.014435291
-0.50459439 0.11706004 -0.023911476
0.50637114 0.1174107 -0.018217564
-0.50414693 0.13838077 -0.02633357
0.50594056 0.13877454 -0.020649433
-0.50479758 0.16012162 -0.02281177
0.50659502 0.16057262 -0.016953588
-0.50544989 0.18191746 -0.019281149
0.50725347 0.18242958 -0.013234615
-0.50610632 0.2037698 -0.015728235
0.48376018 0.20295152 -0.024586916
-0.48285985 0.22436321 -0.025301695
0.48438656 0.22480491 -0.020888329
-0.50676191 0.22567642 -0.012179732
-0.48348618 0.24622232 -0.021764159
0.48501241 0.24671498 -0.017193079
-0.48411173 0.26813522 -0.018230915
0.48563981 0.26868287 -0.013487935
-0.48473895 0.29010376 -0.014688492
-0.46096337 0.28849208 -0.027774215
0.46223837 0.28885517 -0.024825454
-0.48536766 0.3121278 -0.011137366
-0.46155918 0.31041116 -0.024255872
0.46283191 0.31081703 -0.021153808
-0.46215874 0.33238739 -0.020715833
0.46342915 0.33283868 -0.017459154
-0.46280265 0.35445672 -0.016913652
0.46410352 0.35498697 -0.013287902
-0.44094849 0.37570199 -0.018842459
0.44200581 0.37602976 -0.016713738
-0.41912651 0.39692014 -0.020755649
0.41996014 0.397019 -0.020144701
-0.39733237 0.41810718 -0.022679329
0.39797032 0.41795909 -0.023553967
-0.39907527 0.44171494 -0.010763049
-0.37556827 0.43926504 -0.024600267
0.37603229 0.43884581 -0.026968002
0.3996982 0.44165814 -0.011083841
-0.37721711 0.46294662 -0.012700558
-0.35383576 0.4603962 -0.02650547
0.37766194 0.46261129 -0.0145154
-0.35538918 0.48414907 -0.014635205
0.3556779 0.48351082 -0.017951488
-0.075690024 -0.38041711 0.004171133
-0.053972274 -0.38035163 0.003603816
-0.032281995 -0.38042653 0.0042524338
-0.010581726 -0.38050145 0.0049011707
0.01112853 -0.38057637 0.0055502653
0.032848783 -0.38065135 0.0061997175
0.05457883 -0.38072476 0.0068359375
-0.14070714 -0.3585189 0.0023750067
-0.11875008 -0.35789767 -0.0033895969
-0.096883178 -0.35728031 -0.0091174841
0.097504109 -0.35716218 -0.010214806
0.11920726 -0.35746804 -0.0073763132
0.14115381 -0.35823986 -0.00021398067
0.16321261 -0.35901576 0.0069849491
-0.22780801 -0.33722705 0.0063621998
-0.20564148 -0.33664861 0.00058114529
-0.18356651 -0.33607373 -0.0051628351
0.18418336 -0.33606169 -0.0052835941
0.2063131 -0.33678082 0.0019026995
-0.27067655 -0.31497538 0.00062167645
-0.24830006 -0.31427616 -0.0069471598
0.24925865 -0.31462589 -0.0031611919
0.2715717 -0.31529075 0.0040360689
-0.31463462 -0.2937406 0.0058479309
-0.29145151 -0.29258895 -0.0077513456
0.29205006 -0.29255041 -0.0082068443
0.31462544 -0.29330933 0.00075626373
-0.33620393 -0.27193034 0.0046443939
-0.31298697 -0.27092463 -0.0084210634
0.33633333 -0.27165073 0.0010125637
-0.3581264 -0.25033548 0.0062810183
-0.33479607 -0.24943012 -0.0067863464
0.35838944 -0.25018176 0.0040631294
-0.35662884 -0.2279098 -0.0051629543
0.35692108 -0.2277438 -0.007858634
0.38049507 -0.22866705 0.0071338415
-0.37848681 -0.20636457 -0.0035376549
0.37892979 -0.20629513 -0.0048271418
-0.40037209 -0.18479517 -0.0018968582
0.40098614 -0.18480006 -0.0017893314
-0.42228079 -0.1631999 -0.00026786327
0.42309016 -0.16325855 0.001255393
-0.44421709 -0.14158003 0.0013766289
0.44524211 -0.14167023 0.0043064356
-0.46617675 -0.11993463 0.0030095577
-0.44237357 -0.11963356 -0.010027528
0.44340634 -0.11968926 -0.0076174736
-0.48816431 -0.098264396 0.0046578646
-0.46424544 -0.098063394 -0.0083944798
0.46551037 -0.098122075 -0.0045855045
-0.48660147 -0.076488011 -0.0041691065
0.48811847 -0.076528974 0.0011475086
-0.48595536 -0.054847524 -0.0078184605
0.48747075 -0.054847576 -0.0026769638
-0.50990009 -0.033138018 0.0048063993
0.48682708 -0.033224955 -0.0064777136
-0.5090099 -0.011502706 -1.1920929e-05
0.48618287 -0.011660859 -0.010281682
0.5104118 -0.011431646 0.0046037436
-0.5081203 0.010058522 -0.0048271418
0.50973296 0.010187782 0.00076985359
-0.50726831 0.031551987 -0.0094386339
0.50905842 0.031748854 -0.0030400753
0.50838327 0.053251304 -0.0068533421
-0.5317294 0.075438358 0.0054286718
0.53204983 0.075382702 0.0042252541
-0.53080165 0.096892856 0.00060808659
0.53134173 0.096881337 0.00039243698
-0.52987456 0.11827341 -0.0042093992
0.53063798 0.11832225 -0.0034166574
-0.52935541 0.1397267 -0.0069069862
0.53024346 0.13982046 -0.0055520535
-0.5302704 0.16171208 -0.0021525621
0.53093618 0.1617389 -0.0018025637
-0.53118587 0.18377078 0.0026043653
0.53162825 0.18371481 0.0019433498
0.50791126 0.20434347 -0.009518981
0.53232217 0.20574927 0.0056991577
0.50857091 0.22631556 -0.0057936907
-0.50743401 0.24764729 -0.0085418224
0.50923222 0.248346 -0.0020583868
-0.50830889 0.26980096 -0.0038062334
0.50989532 0.27043518 0.0016869307
-0.50918674 0.2920292 0.00094521046
0.486269 0.29070914 -0.009773016
0.51056021 0.29258323 0.0054421425
0.48689979 0.31279373 -0.0060485601
-0.51006758 0.31433296 0.0057126284
-0.48600042 0.33420983 -0.007563591
0.48753226 0.33493727 -0.0023139715
-0.48680609 0.35648969 -0.0030132532
0.48839039 0.357333 0.0027530193
-0.46482682 0.377839 -0.0049613714
0.46613652 0.37849331 -0.00071227551
-0.44288015 0.39916116 -0.0068933964
0.44393516 0.39959931 -0.0041823387
-0.46687067 0.40142432 0.0071066618
-0.44482839 0.42282164 0.0051580667
-0.42096162 0.42045152 -0.0088363886
0.42179048 0.42065567 -0.0076307058
-0.42281449 0.44418678 0.0031986237
0.4236353 0.44450277 0.0049823523
-0.4008311 0.46552256 0.0012419224
0.40144348 0.46557233 0.0015114546
-0.3788783 0.48682866 -0.00071227551
0.37930447 0.48658767 -0.0019640923
-0.076282844 -0.40449306 0.023423791
-0.05439996 -0.40433288 0.022123098
-0.032567248 -0.40441379 0.02278018
-0.01072442 -0.40449476 0.0234375
0.01112853 -0.40457743 0.024109006
-0.14174327 -0.38243002 0.021603107
-0.11963516 -0.38175681 0.015773058
-0.097617216 -0.38108483 0.0099534988
0.076318994 -0.38079989 0.0074859858
0.098069176 -0.38087499 0.0081363916
0.11995739 -0.38133413 0.012112617
0.14205858 -0.38217267 0.019374847
-0.20711976 -0.36039513 0.01978457
-0.18489154 -0.35976776 0.013962269
-0.1627536 -0.35914132 0.0081499815
0.18538451 -0.35979557 0.014220595
0.20767134 -0.3605808 0.021507263
-0.2728954 -0.33887151 0.02279377
-0.25006449 -0.33780667 0.012153268
0.22855528 -0.33750233 0.0091123581
0.25091273 -0.33822891 0.016372681
0.27338547 -0.33895916 0.023670435
-0.29382676 -0.31623784 0.014288783
0.29399925 -0.31595895 0.011270285
0.31712592 -0.31713101 0.023958325
-0.33804351 -0.29490334 0.019579649
0.33811802 -0.29463983 0.016468048
-0.35963625 -0.2729446 0.017818332
0.35987198 -0.27281237 0.016100168
-0.38167673 -0.25125021 0.019484043
0.38207197 -0.25122941 0.019183636
-0.40374118 -0.22952956 0.021137953
-0.38007623 -0.22871634 0.0079330206
0.40432036 -0.22959951 0.02227366
-0.42583138 -0.20778349 0.02279377
-0.40204972 -0.20707116 0.0095734596
0.40264708 -0.20710468 0.010197639
-0.44794959 -0.18601272 0.024465322
-0.42404884 -0.18540078 0.011215925
0.42484719 -0.18549562 0.013268232
-0.44607574 -0.16370577 0.012873888
0.44709563 -0.1638394 0.016345382
-0.46812612 -0.14198482 0.014520168
0.46939254 -0.14213589 0.019429326
-0.49026018 -0.12024616 0.016495466
0.46744424 -0.12003552 0.0073775053
0.49173802 -0.12038514 0.022519946
0.48969257 -0.098353371 0.010442019
-0.51169473 -0.076631844 0.014520049
0.51245451 -0.076644391 0.016140938
-0.51079589 -0.054847576 0.0096549988
0.51177257 -0.054847524 0.012289286
0.51109004 -0.033110067 0.0084345341
0.53561455 -0.032994024 0.023519754
0.53489673 -0.01120019 0.019634247
-0.5345369 0.010632254 0.020016789
0.53418332 0.01053419 0.015773177
-0.53359956 0.032309003 0.015146375
0.53346938 0.032209262 0.01190877
-0.53266287 0.053910717 0.010279059
0.5327599 0.053825609 0.0080686808
0.55748129 0.076277025 0.0235883
0.5564602 0.097845308 0.018282294
-0.55649209 0.1198049 0.020659328
0.55544287 0.11933305 0.012996197
-0.55608463 0.14149544 0.01862359
0.55496961 0.14093521 0.010537028
-0.55705094 0.16368291 0.023451209
0.55597466 0.16309088 0.015759468
0.55698079 0.1853275 0.020987511
-0.53210443 0.20590433 0.0073776245
-0.53302354 0.22811145 0.012153387
0.53301787 0.22784251 0.0094649792
-0.53394836 0.25039551 0.016958952
0.53371555 0.24999484 0.013241172
-0.53487641 0.27275538 0.021780968
0.53441507 0.27220649 0.01702714
0.53511637 0.29447767 0.020823598
0.51122689 0.31479034 0.0092073679
0.53581959 0.31680855 0.024629831
-0.51095134 0.33671233 0.010496378
0.5118953 0.33705685 0.012982726
-0.51234698 0.35957053 0.018050432
0.51295698 0.35970631 0.018978715
-0.4889434 0.37999746 0.0090582371
0.49054462 0.38098529 0.015473247
-0.49147958 0.40405551 0.023382664
0.46818554 0.4022094 0.011963129
-0.46893209 0.42521301 0.019279122
0.44588393 0.42338341 0.0084753036
-0.44679123 0.44668362 0.017299771
0.4478482 0.44738004 0.021233678
-0.42468333 0.46812657 0.015337229
0.42549872 0.46856758 0.017722845
-0.40260404 0.48953745 0.013363481
0.40320259 0.48969987 0.014207006
-0.054833628 -0.42863312 0.040900946
-0.03285649 -0.42872027 0.041566849
-0.010869108 -0.42880738 0.04223299
-0.14279363 -0.40666962 0.041095257
-0.12053177 -0.40594172 0.035185099
0.12071799 -0.40553379 0.031873703
0.14297602 -0.40644088 0.039237976
-0.098361306 -0.40521511 0.029285431
0.032991715 -0.40465847 0.024766922
0.054864824 -0.40473792 0.025411606
0.076748177 -0.40481907 0.026070237
0.098641686 -0.40490016 0.026729226
-0.20861833 -0.38446781 0.039251566
-0.18623471 -0.38378626 0.033348918
-0.16394345 -0.38310757 0.027470946
0.16427359 -0.38301554 0.026674151
0.18660331 -0.38386282 0.034011483
0.20904863 -0.38471439 0.041386604
-0.25185311 -0.36165947 0.031515598
-0.22944082 -0.36102679 0.025644779
0.23007326 -0.36137015 0.028831363
0.25259113 -0.3621636 0.036193609
-0.29623967 -0.34026086 0.036677599
0.29602116 -0.33974019 0.031474113
-0.34081143 -0.31880257 0.042052627
0.34082723 -0.31860656 0.039930582
-0.31720442 -0.31751394 0.028102756
-0.36168134 -0.29607752 0.033445716
0.36187422 -0.29598516 0.032356143
-0.38329041 -0.27396926 0.031129837
0.3836624 -0.27398509 0.031336546
-0.40544647 -0.25217268 0.032797575
0.40600801 -0.2522873 0.034453034
-0.42762858 -0.23035046 0.034466982
0.4284026 -0.23054197 0.037576675
-0.44983888 -0.20850345 0.036152244
0.42661726 -0.20792234 0.025370479
0.45084637 -0.20874876 0.040706992
-0.47207308 -0.18662989 0.037825704
