ply
format ascii 1.0
comment PCL generated
element vertex 1330
property float x
property float y
property float z
element camera 0
property float view_px
property float view_py
property float view_pz
property float x_axisx
property float x_axisy
property float x_axisz
property float y_axisx
property float y_axisy
property float y_axisz
property float z_axisx
property float z_axisy
property float z_axisz
property float focal
property float scalex
property float scaley
property float centerx
property float centery
property int viewportx
property int viewporty
property float k1
property float k2
end_header
0.073134735 -0.076912932 -0.18528324
0.094223171 -0.077046804 -0.18335164
0.11534144 -0.077180736 -0.18141705
0.13648963 -0.07731498 -0.17947984
0.1576678 -0.077449404 -0.17753971
0.17901407 -0.07773935 -0.17335486
-0.2014133 -0.056821339 -0.17006242
-0.18003909 -0.056618609 -0.17335474
-0.15871602 -0.056416251 -0.17663956
-0.13744466 -0.056215279 -0.17990339
-0.11623808 -0.056033783 -0.18285215
-0.095086031 -0.055866666 -0.18556464
0.094157778 -0.05587218 -0.18547517
0.11524728 -0.055971391 -0.18386364
0.13636167 -0.056070797 -0.18225002
0.15750656 -0.056176536 -0.18053216
0.17885855 -0.05646304 -0.17588031
-0.201479 -0.03572125 -0.169209
-0.18013652 -0.035573609 -0.17194843
-0.15883574 -0.035425566 -0.17469537
-0.13757826 -0.035278536 -0.17742407
-0.11636243 -0.03513106 -0.18016011
-0.095189437 -0.034984685 -0.18287778
-0.074058063 -0.03483776 -0.1856029
0.073152751 -0.034897067 -0.18450338
0.09423776 -0.034984685 -0.18287778
0.11534736 -0.035071738 -0.18126315
0.13648193 -0.035158731 -0.17964679
0.15764147 -0.035246007 -0.17802829
0.17900455 -0.035489462 -0.1735096
-0.18032452 -0.014567383 -0.16923475
-0.15900254 -0.014440157 -0.1719873
-0.13772391 -0.014314003 -0.17472112
-0.11648703 -0.014187314 -0.1774627
-0.09529306 -0.014061488 -0.18018574
-0.074140787 -0.013935454 -0.18291616
-0.05303099 -0.01381018 -0.18562841
0.031078018 -0.013833128 -0.18513
0.052132968 -0.013907589 -0.18351805
0.073212773 -0.013982169 -0.18190414
0.094317488 -0.014056854 -0.18028837
0.11544716 -0.014131449 -0.17867076
0.13660181 -0.014206298 -0.17705119
0.1577815 -0.014281265 -0.17542946
0.17920808 -0.014522485 -0.17020464
-0.15916964 0.0065865889 -0.1692735
-0.13786985 0.006692037 -0.17201293
-0.11661186 0.0067978501 -0.17475986
-0.095396884 0.0069027841 -0.17748833
-0.074223682 0.0070081577 -0.18022418
-0.053093031 0.0071127564 -0.18294185
-0.032004103 0.0072176829 -0.18566686
-0.010977319 0.0072215721 -0.18576902
0.010047889 0.0071595684 -0.18415791
0.031097919 0.0070974603 -0.18254471
0.052172814 0.0070352703 -0.18092978
0.073272616 0.0069730878 -0.17931288
0.094397381 0.006910719 -0.17769402
0.11554713 0.0068483725 -0.17607331
0.13672251 0.0067853332 -0.17443776
0.15792249 0.00672286 -0.17281306
-0.13801606 0.027739681 -0.16929948
-0.11673694 0.027824342 -0.17205179
-0.095500909 0.027908541 -0.17478561
-0.074306741 0.027993016 -0.17752689
-0.053155199 0.028076828 -0.18024993
-0.032045465 0.028160937 -0.18298024
-0.010997211 0.028167188 -0.18318498
0.010047889 0.028117523 -0.18157089
0.031117857 0.028067723 -0.17995471
0.052212738 0.028017826 -0.17833656
0.073332869 0.027967587 -0.17670381
0.09447781 0.027917609 -0.17508185
0.11564779 0.027867712 -0.17345822
0.13684285 0.027817659 -0.17183232
0.15808535 0.027754746 -0.16979098
-0.11686227 0.048892543 -0.16933823
-0.095605142 0.048955821 -0.17207754
-0.074389957 0.049019299 -0.17482436
-0.053217486 0.049082212 -0.17755258
-0.032086909 0.049145386 -0.18028826
-0.011017137 0.049152434 -0.18059623
0.010047889 0.049114875 -0.17896605
0.031137932 0.049077444 -0.17734683
0.052252937 0.049040042 -0.17572558
0.073392943 0.049002558 -0.17410254
0.094557993 0.04896497 -0.1724776
0.11574814 0.048927382 -0.17085063
0.13696343 0.048889846 -0.16922188
-0.095709078 0.070044786 -0.16937709
-0.074473344 0.070087031 -0.17211628
-0.053279601 0.07012926 -0.17486298
-0.032128435 0.070171252 -0.17759109
-0.011037205 0.070177399 -0.17798972
0.010047889 0.070152514 -0.17636931
0.031157948 0.070127472 -0.17474675
0.05229301 0.070102453 -0.17312264
0.073453128 0.070077546 -0.17149663
0.09463834 0.07005243 -0.16986847
-0.074556895 0.091196448 -0.16940296
-0.053342141 0.091217525 -0.17215502
-0.032170042 0.091238543 -0.17488861
-0.011057212 0.09124241 -0.17539096
0.010047889 0.091229968 -0.17376745
0.031178001 0.091217443 -0.17214203
0.052333362 0.091204852 -0.17050183
0.073513731 0.091192305 -0.16887259
-0.032211736 0.11234757 -0.17218077
0.010047889 0.11234757 -0.17114782
0.031198189 0.11234752 -0.16951942
-0.053404801 0.11234768 -0.1694417
-0.011077254 0.11234763 -0.17278731
-0.032253504 0.13349828 -0.16946745
-0.011097434 0.13349295 -0.1701659
0.010047889 0.13350549 -0.16853607
-0.032490376 -0.31303501 -0.15408242
-0.011230308 -0.31321633 -0.15290487
-0.096395016 -0.29213545 -0.15155613
-0.074981555 -0.29154226 -0.15561163
-0.053631105 -0.29095268 -0.15964258
-0.032342698 -0.29036295 -0.16367447
-0.011156307 -0.29053202 -0.16251814
0.010047889 -0.29088032 -0.1601373
0.031288769 -0.29122916 -0.15775251
0.052566431 -0.2915785 -0.15536356
0.073881276 -0.2919305 -0.15295732
-0.11758322 -0.27054569 -0.15372932
0.11638449 -0.27046412 -0.15431786
0.13774307 -0.27073795 -0.15234196
-0.096183129 -0.27008411 -0.15706098
-0.074834585 -0.26962355 -0.16038465
-0.053537689 -0.2691659 -0.16368735
-0.032291573 -0.26870751 -0.16699529
-0.011128624 -0.26882964 -0.16611385
0.010047889 -0.26910111 -0.16415489
0.031254586 -0.26937291 -0.1621933
0.052491531 -0.26964509 -0.16022861
0.073758788 -0.26991779 -0.15826094
0.095056422 -0.27019081 -0.15629089
-0.13887411 -0.24932021 -0.15337598
-0.11744561 -0.24888405 -0.15670848
-0.096069232 -0.24845061 -0.16002023
-0.074743681 -0.2480166 -0.16333687
-0.053469382 -0.2475836 -0.16664529
0.010047889 -0.24751583 -0.16716361
0.031231392 -0.24777195 -0.16520607
0.052444879 -0.24802682 -0.16325879
0.073688708 -0.24828371 -0.16129565
0.094962843 -0.24854097 -0.15932977
0.11626736 -0.24879867 -0.15736115
0.13760231 -0.24905661 -0.15538955
0.15896776 -0.24931499 -0.1534152
0.1803638 -0.24957371 -0.151438
-0.16017126 -0.22809064 -0.15300977
-0.13871422 -0.22768009 -0.1563431
-0.11730889 -0.22727048 -0.15966868
-0.095955081 -0.2268618 -0.16298604
-0.074652582 -0.22645429 -0.16629529
0.03120815 -0.22621655 -0.16822553
0.052398525 -0.22645745 -0.16626954
0.073619075 -0.22669882 -0.16431069
0.094869874 -0.22694039 -0.1623491
0.11615098 -0.22718233 -0.16038477
0.13746245 -0.22742459 -0.15841734
0.15880437 -0.22766724 -0.15644753
0.18017678 -0.22791019 -0.15447474
-0.18147312 -0.20685408 -0.15265608
-0.15998767 -0.20646906 -0.1559906
-0.13855399 -0.20608497 -0.1593169
-0.11717188 -0.20570174 -0.16263509
-0.095841669 -0.20532101 -0.16593254
0.0735493 -0.20515952 -0.16733205
0.094776712 -0.20538542 -0.16537476
0.11603435 -0.20561182 -0.16341484
0.13732231 -0.20583841 -0.16145194
0.15864064 -0.20606545 -0.15948617
0.1799894 -0.20629272 -0.15751767
-0.20278044 -0.18561211 -0.15230274
-0.18126656 -0.18525264 -0.15563774
-0.1598053 -0.18489549 -0.15895188
-0.13839479 -0.18453771 -0.16227102
-0.11703575 -0.18418095 -0.1655823
0.094684146 -0.18387935 -0.16838086
0.11591849 -0.18409011 -0.16642499
0.13718306 -0.18430123 -0.16446638
0.15847795 -0.18451253 -0.16250503
0.1798024 -0.18472284 -0.16055381
0.20153989 -0.18552878 -0.1530751
-0.22409324 -0.16436458 -0.15194917
-0.20255189 -0.16403216 -0.15527201
-0.18106133 -0.16369903 -0.15859997
-0.15962252 -0.16336682 -0.16192007
-0.13823524 -0.16303536 -0.16523206
0.13704354 -0.16280964 -0.16748738
0.15831493 -0.16300547 -0.16553044
0.17964064 -0.16324061 -0.16318083
0.20136233 -0.16399544 -0.15563786
-0.22384173 -0.14280465 -0.15491915
-0.20232278 -0.14249712 -0.15824819
-0.18085565 -0.14219043 -0.16156888
-0.15944012 -0.14188448 -0.16488171
-0.13807674 -0.14158025 -0.16817379
0.17948316 -0.14180532 -0.16573787
0.20118509 -0.14250204 -0.15819573
-0.22358966 -0.12128995 -0.15789592
-0.20209518 -0.12100974 -0.1612047
-0.18065128 -0.12072914 -0.16451836
-0.1592589 -0.12044919 -0.16782415
0.17932677 -0.12041088 -0.16827726
0.20100728 -0.12104727 -0.16076231
0.22280769 -0.12168825 -0.15319276
-0.24540782 -0.10053217 -0.15163469
-0.22334695 -0.099829592 -0.16076219
-0.20186707 -0.099567331 -0.16416788
-0.18044649 -0.099312864 -0.16747451
0.20083074 -0.099633344 -0.16331077
0.2226094 -0.10021389 -0.15576851
-0.2451914 -0.079081781 -0.15397787
-0.22314984 -0.078450568 -0.16308999
-0.20164046 -0.078171916 -0.16711175
0.20065449 -0.078259028 -0.16585457
0.22241251 -0.078780599 -0.15832627
-0.2449753 -0.057667904 -0.156317
-0.22295307 -0.05710762 -0.16541374
0.20047767 -0.056923293 -0.16840684
0.222216 -0.057386853 -0.16087925
0.24407259 -0.057852231 -0.15332365
-0.24490052 -0.036372311 -0.15712631
-0.22302119 -0.035969071 -0.16460931
0.20055301 -0.035823084 -0.16731918
0.22219796 -0.036157437 -0.1611135
0.24394192 -0.036494069 -0.15486693
-0.24523851 -0.015295587 -0.15346766
-0.22332932 -0.014949061 -0.16097045
-0.20168833 -0.014694117 -0.16648984
0.20078214 -0.014808588 -0.16401207
0.22245468 -0.015096523 -0.1577785
0.24422449 -0.015385173 -0.15152979
-0.22363827 0.0061265305 -0.15732193
-0.20189807 0.0063746497 -0.16376531
-0.18051292 0.0064804628 -0.16651571
0.17941131 0.0064953938 -0.16690457
0.2010127 0.0062560886 -0.16068411
0.22271104 0.0060159713 -0.15444851
-0.22394803 0.027258188 -0.15366387
-0.2021082 0.027485207 -0.16103554
-0.18070076 0.027570494 -0.16380429
-0.15933709 0.027655125 -0.16655469
0.17961504 0.027564012 -0.16359651
0.20124294 0.027372062 -0.15736115
0.22296797 0.027179539 -0.15111065
-0.20238 0.0486193 -0.15750456
-0.18088989 0.048701607 -0.16107452
-0.15950486 0.048765346 -0.1638304
-0.13816187 0.048829086 -0.16659343
0.15826324 0.048826754 -0.16648984
0.17982005 0.048683017 -0.16026759
0.20147371 0.048538968 -0.15403008
-0.20266156 0.069805622 -0.15384686
-0.18107939 0.069874838 -0.15833926
-0.15967299 0.069917381 -0.16110051
-0.13830867 0.069960043 -0.16386938
-0.11698785 0.070002295 -0.1666193
0.11584919 0.070027076 -0.16822553
0.13708481 0.07000193 -0.16659355
0.15844224 0.06994921 -0.16316783
0.18002476 0.069853351 -0.15694356
-0.18126926 0.091090068 -0.15559864
-0.15984142 0.091111429 -0.15836525
-0.13845578 0.09113279 -0.16113949
-0.11711367 0.091154091 -0.16389525
-0.095813729 0.091175295 -0.1666584
0.094719231 0.091179758 -0.16724133
0.11594993 0.091167212 -0.16560829
0.13720584 0.091154665 -0.16397309
0.15862098 0.091122933 -0.15985084
0.18023075 0.091074668 -0.15359843
-0.1600102 0.11234757 -0.15562487
-0.13860315 0.11234757 -0.15840447
-0.11723975 0.11234757 -0.1611656
-0.074640609 0.11234752 -0.16668415
0.052373592 0.11234757 -0.16788888
0.094799876 0.11234757 -0.16462219
0.11605086 0.11234757 -0.16298592
0.1373271 0.11234752 -0.16134763
0.15880086 0.11234757 -0.15651274
-0.1814595 0.11234763 -0.15285254
-0.095918581 0.11234763 -0.16393423
0.073574141 0.11234763 -0.16625643
-0.16017932 0.13362597 -0.15287876
-0.13875084 0.13360445 -0.15566397
-0.11736608 0.13358325 -0.15843058
-0.096023642 0.13356185 -0.16120458
-0.074724488 0.13354063 -0.1639601
-0.053467579 0.13351938 -0.16672301
0.03121832 0.13351804 -0.16690445
0.052413899 0.13353063 -0.16527104
0.073634677 0.13354322 -0.16363549
0.094881088 0.13355583 -0.16198504
0.11615248 0.13356848 -0.16034567
0.1374492 0.13358124 -0.1587044
0.15898046 0.13362369 -0.15317976
-0.13889879 0.15490386 -0.1529181
-0.11749204 0.15486088 -0.15570319
-0.096128911 0.15481831 -0.15846968
-0.074808136 0.15477549 -0.16124356
-0.053530492 0.15473318 -0.1639992
-0.03229516 0.15469067 -0.16676188
-0.011117552 0.15467849 -0.16755223
0.010047889 0.15470363 -0.16591942
0.031238485 0.15472877 -0.16428471
0.052454479 0.15475424 -0.16263509
0.073695615 0.15477943 -0.16099644
0.094962038 0.15480468 -0.15935576
0.1162538 0.15482998 -0.15771341
0.13757093 0.15485522 -0.15606868
-0.096340574 0.17618075 -0.15297031
-0.074993216 0.17612839 -0.15523279
-0.053680778 0.17607623 -0.15749156
-0.032403171 0.17602429 -0.15974677
-0.011171826 0.1760067 -0.16050184
0.010047889 0.17603771 -0.15916038
0.03128827 0.17606877 -0.15781772
0.05254934 0.17609972 -0.15647364
0.073830836 0.17613056 -0.15514123
0.095133282 0.17616168 -0.15379465
0.11645652 0.17619282 -0.15244687
-0.011238775 0.1974943 -0.15180492
-0.032789048 -0.35885864 -0.13468325
-0.075578228 -0.33718956 -0.13623393
-0.054077305 -0.33652881 -0.14032149
-0.032639291 -0.3358677 -0.14441025
-0.011304828 -0.33605951 -0.14322436
0.010047889 -0.33644974 -0.14081013
0.031437811 -0.33684072 -0.13839161
0.052865233 -0.3372345 -0.13595581
-0.11832035 -0.31554657 -0.13776982
-0.096767984 -0.31491596 -0.14186597
-0.07527905 -0.31428716 -0.1459502
-0.053853273 -0.31366014 -0.15002215
0.010047889 -0.31358549 -0.15050757
0.031363029 -0.31395513 -0.14810598
0.052715208 -0.31432557 -0.1457001
0.074104823 -0.3146987 -0.14327705
0.095531471 -0.31507036 -0.14086294
0.11699545 -0.31544262 -0.13844466
0.13849686 -0.31581563 -0.13602209
-0.18268159 -0.29452574 -0.13521361
-0.16101448 -0.29392555 -0.13931727
-0.1394112 -0.29332712 -0.14340889
-0.11787147 -0.29273045 -0.14748836
0.095232889 -0.29228124 -0.1505599
0.11662157 -0.29263243 -0.14815855
0.13804741 -0.29298428 -0.14575291
0.15951124 -0.2933386 -0.14332986
0.18101181 -0.29369175 -0.14091575
0.20284902 -0.29467699 -0.13417912
-0.22537909 -0.27289659 -0.13676381
-0.20370175 -0.27240172 -0.14033461
-0.18209371 -0.27193555 -0.14369893
-0.16053879 -0.27147239 -0.14704168
-0.13903505 -0.27100852 -0.15038955
0.15913223 -0.27101216 -0.15036333
0.18055202 -0.27128664 -0.14838171
0.20225523 -0.27206713 -0.14274979
0.22425096 -0.27321792 -0.13444448
-0.24693576 -0.25171253 -0.1350944
-0.22510803 -0.25107524 -0.13996482
-0.20347118 -0.25063482 -0.14332986
-0.18188672 -0.25019553 -0.14668655
-0.16035442 -0.24975726 -0.1500355
0.20207635 -0.25037286 -0.14533162
0.22400106 -0.25137281 -0.13769066
-0.24671674 -0.23000523 -0.13746548
-0.22485322 -0.22932667 -0.14297402
-0.2032401 -0.22891322 -0.14633155
-0.18167923 -0.22850066 -0.14968121
0.20189688 -0.22871727 -0.14792216
0.22380055 -0.22965673 -0.14029515
-0.24649683 -0.20833322 -0.13984597
-0.22459897 -0.20762539 -0.14597666
-0.20301054 -0.2072401 -0.14931381
0.20171867 -0.20710367 -0.15049446
0.22360145 -0.20798275 -0.14288163
0.24560499 -0.20886672 -0.13522696
-0.24627852 -0.18669984 -0.14220917
-0.2243464 -0.18597233 -0.14895952
0.22340269 -0.18634912 -0.14546335
0.24538517 -0.18717262 -0.13782287
-0.26832718 -0.16602749 -0.13533294
-0.24606058 -0.16510317 -0.1445682
0.22320333 -0.16475448 -0.14805341
0.24516577 -0.16551903 -0.14041388
-0.26808861 -0.14439374 -0.13771701
-0.24584305 -0.14354321 -0.14692342
0.22300532 -0.14320129 -0.15062559
0.24494565 -0.14390442 -0.14301348
0.26700702 -0.1446116 -0.13535941
-0.26785174 -0.12279823 -0.14008379
-0.24562463 -0.1220189 -0.14928758
0.24472705 -0.12233157 -0.14559495
0.26676726 -0.12297844 -0.13795519
-0.26761529 -0.10123942 -0.14244652
0.24450886 -0.1007987 -0.14817166
0.26652792 -0.10138576 -0.1405462
-0.28971496 -0.080357127 -0.13557148
-0.26737925 -0.079717375 -0.14480531
0.24428998 -0.079305001 -0.15075672
0.2662878 -0.079832353 -0.14314532
0.28840837 -0.080363415 -0.13547873
-0.28945804 -0.058798663 -0.13795519
-0.2671423 -0.058231004 -0.14717293
0.26604936 -0.058319993 -0.14572656
0.2881473 -0.058790438 -0.13808751
-0.28920302 -0.03727787 -0.14032149
-0.26690707 -0.036781974 -0.14952385
0.26581135 -0.036847763 -0.14830291
0.28788802 -0.037258707 -0.14067805
-0.28941527 -0.015993781 -0.13835204
-0.26726732 -0.015644126 -0.14592385
0.26609313 -0.015675001 -0.14525282
0.28806257 -0.015966915 -0.1389339
-0.28981495 0.0052537099 -0.13464332
-0.26763642 0.0055459589 -0.14223552
-0.24557739 0.0058370084 -0.14979923
0.24450774 0.0057749525 -0.14818478
0.26640478 0.0055322722 -0.14187932
0.28840041 0.0052888915 -0.13555825
-0.2680065 0.026792444 -0.13853729
-0.24591714 0.027025871 -0.14612114
0.2447928 0.026985742 -0.14481831
0.26671594 0.026791513 -0.13851082
-0.2683776 0.048095524 -0.13482904
-0.24625781 0.048271194 -0.14243329
-0.2242586 0.048445836 -0.14999604
0.22322658 0.048393965 -0.14775109
0.24507746 0.048248619 -0.14145708
0.26702908 0.048102289 -0.13512087
-0.24659941 0.069573082 -0.13873565
-0.22457002 0.069689833 -0.14631855
0.20170595 0.069756843 -0.15067792
0.2234848 0.069660261 -0.14439702
0.24536389 0.069562837 -0.13807428
-0.24694189 0.090931736 -0.135028
-0.22488225 0.090990216 -0.14263105
-0.20294388 0.091048434 -0.15017974
0.20193785 0.091026455 -0.14733076
0.22374466 0.09097793 -0.14102137
0.24564992 0.090929247 -0.1346966
0.20217122 0.11234752 -0.14396226
-0.22519533 0.11234763 -0.1389339
-0.20322695 0.11234763 -0.14650261
0.18043645 0.11234768 -0.15025842
0.22400413 0.11234763 -0.13765097
-0.22550923 0.13376191 -0.13522696
-0.20351076 0.13370353 -0.14281583
-0.18165018 0.13364744 -0.15010095
0.18064345 0.13367206 -0.1468972
0.20240425 0.13372059 -0.14059901
0.22426525 0.13376932 -0.13425863
-0.20379534 0.1551162 -0.13911903
-0.18188579 0.15499951 -0.14669979
-0.16034876 0.15494683 -0.15012717
0.15916049 0.15495114 -0.14983857
0.18085015 0.15504809 -0.14354074
0.20263784 0.15514535 -0.1372273
-0.20407964 0.17658585 -0.13542569
-0.18217134 0.17642069 -0.14257848
-0.16059305 0.17633784 -0.1461606
-0.13914041 0.17628542 -0.1484344
-0.11772295 0.17623301 -0.15070426
0.13782962 0.17623857 -0.15046823
0.15939981 0.17635557 -0.14539766
0.18105735 0.17647615 -0.1401763
0.20287293 0.17662261 -0.13383412
-0.16114156 0.19794229 -0.13725376
-0.13961957 0.19787188 -0.1395421
-0.11813299 0.19780147 -0.14182639
-0.096681722 0.19773129 -0.14410734
-0.075265683 0.19766113 -0.14638412
-0.053884797 0.1975912 -0.14865744
-0.032538958 0.19752127 -0.15092695
0.010047889 0.19753578 -0.150455
0.031355247 0.19757709 -0.14911699
0.052683428 0.19761857 -0.14776444
0.074032463 0.19766036 -0.14641047
0.095402382 0.19770209 -0.14505529
0.11679272 0.19774346 -0.14371204
0.13827203 0.19783041 -0.14088953
0.15991788 0.19798754 -0.13578355
-0.097024545 0.21942008 -0.13520038
-0.0755395 0.21933174 -0.13749194
-0.054089814 0.21924379 -0.13977981
-0.032675412 0.2191558 -0.14206386
-0.011306047 0.21911728 -0.14306617
0.010047889 0.21916959 -0.14170766
0.031422753 0.21922192 -0.14034796
0.05281857 0.21927424 -0.13898683
0.074235372 0.21932665 -0.13762438
0.095672786 0.21937871 -0.13627374
0.11713156 0.21943122 -0.1349088
-0.011373845 0.24087796 -0.13425875
-0.076183341 -0.38348192 -0.11658263
-0.054529794 -0.38274807 -0.12072802
-0.032940064 -0.38201392 -0.12487447
-0.011455447 -0.38222921 -0.12365842
0.010047889 -0.38266262 -0.12120998
0.031589057 -0.38309926 -0.11874402
0.053168058 -0.38353434 -0.11628687
-0.11922701 -0.3616603 -0.11814022
-0.097521298 -0.36095679 -0.12229443
-0.075879924 -0.36025533 -0.12643623
-0.054302603 -0.35955605 -0.13056576
-0.011379874 -0.35906318 -0.1334759
0.010047889 -0.35947499 -0.13104463
0.031513117 -0.35988745 -0.12860918
0.053016111 -0.36030287 -0.12615597
0.074556664 -0.36071685 -0.12371194
0.096134983 -0.36113134 -0.12126362
0.11775167 -0.36154905 -0.11879766
0.13940591 -0.36196518 -0.11634052
-0.162222 -0.33986092 -0.11970937
-0.14046466 -0.33919016 -0.12385905
-0.11877178 -0.33852121 -0.12799621
-0.097143061 -0.33785442 -0.13212121
0.07432995 -0.33762687 -0.13352895
0.095832169 -0.33801985 -0.13109779
0.11737198 -0.3384136 -0.12866235
0.13895008 -0.33881009 -0.12620938
0.16056548 -0.33920521 -0.12376535
0.18221958 -0.33960316 -0.1213038
-0.22704364 -0.31872788 -0.11710632
-0.20516984 -0.31808782 -0.12126362
-0.1833609 -0.31744972 -0.12540853
-0.16161653 -0.31681347 -0.12954116
-0.13993645 -0.3161791 -0.13366151
0.1600365 -0.31619123 -0.13358212
0.18161316 -0.31656557 -0.13115108
0.2035242 -0.31759983 -0.12443352
-0.24817008 -0.29649752 -0.12173223
-0.22620845 -0.2957316 -0.1269697
-0.2044128 -0.29512772 -0.13109779
0.22500101 -0.29606333 -0.1247009
-0.26987058 -0.27523178 -0.1199106
-0.24727055 -0.27363011 -0.13146985
0.24647483 -0.27453288 -0.12495458
-0.29177734 -0.25415447 -0.11643481
0.26821518 -0.25338942 -0.12228084
-0.2692816 -0.25292948 -0.12579572
0.24604701 -0.25237828 -0.13000703
-0.29151836 -0.23229957 -0.11883783
-0.26904273 -0.23114854 -0.12818277
0.24582636 -0.23060289 -0.13261282
0.26797312 -0.23155275 -0.12490118
0.29024294 -0.23250785 -0.11714673
-0.29125836 -0.21048054 -0.12125039
-0.26880291 -0.20940331 -0.13057923
0.2677303 -0.20975545 -0.12752962
0.28997976 -0.21065074 -0.11977649
-0.29100028 -0.18870056 -0.12364507
-0.26856485 -0.18769696 -0.13295805
0.26748919 -0.18800059 -0.13014007
0.28971574 -0.18883318 -0.12241471
-0.31330839 -0.1678946 -0.11667657
-0.29074261 -0.16695789 -0.12603605
0.26724851 -0.16628641 -0.1327455
0.28945354 -0.16705799 -0.12503469
0.31178191 -0.16783401 -0.11728096
-0.31302938 -0.14611417 -0.1190927
-0.29048395 -0.1452511 -0.12843585
0.28919184 -0.14532366 -0.12764978
0.31149852 -0.14603865 -0.11991048
-0.31275243 -0.12437267 -0.12149107
-0.29022717 -0.12358286 -0.13081849
0.28892931 -0.12362903 -0.1302731
0.31121567 -0.1242842 -0.12253523
-0.31247592 -0.10266826 -0.12388575
-0.28997084 -0.10195147 -0.13319707
0.2886686 -0.10197604 -0.1328783
0.31093189 -0.10256956 -0.12516832
0.33331883 -0.10316641 -0.11741531
-0.33483404 -0.081648387 -0.11693192
-0.31219837 -0.081000216 -0.12628949
0.31065008 -0.080896713 -0.12778294
0.33301523 -0.081432842 -0.12004459
-0.33453813 -0.059945367 -0.1193341
-0.31192285 -0.059370108 -0.12867558
0.31036881 -0.059264459 -0.13039291
0.3327122 -0.059740044 -0.12266898
-0.33424276 -0.038279615 -0.12173223
-0.31164774 -0.037777074 -0.13105786
0.31008664 -0.037671827 -0.1330111
0.33240819 -0.038087256 -0.12530172
0.35490495 -0.038527437 -0.11713326
-0.33407795 -0.01669962 -0.12307024
-0.31168613 -0.016345941 -0.13072538
0.31013101 -0.016259514 -0.13259935
0.33230186 -0.016554005 -0.12622273
0.35474128 -0.016912512 -0.11846232
-0.3345398 0.0046639368 -0.11932063
-0.31211674 0.0049593449 -0.1269964
0.31049791 0.0050440282 -0.12919521
0.33269522 0.0047985762 -0.12281609
-0.31254849 0.026321888 -0.1232574
-0.2902157 0.026558034 -0.13092494
0.28874037 0.026596032 -0.13216102
0.31086427 0.026399985 -0.1257956
0.33309108 0.026202746 -0.11938775
-0.31298137 0.047741771 -0.11950839
-0.29061753 0.047919229 -0.12719643
0.28907984 0.047955647 -0.12876904
0.31123298 0.047807969 -0.12237465
-0.29102042 0.069337867 -0.12345791
-0.26874968 0.069455653 -0.13111091
0.26734176 0.069465354 -0.13173592
0.28942147 0.069367006 -0.12535512
0.3116011 0.069268599 -0.11895859
-0.29142442 0.09081389 -0.11970949
-0.26912275 0.090872996 -0.12738311
0.26765645 0.0908802 -0.1283294
0.28976259 0.090831056 -0.12194645
0.24593775 0.11234752 -0.13129711
0.26797065 0.11234757 -0.12492788
0.29010591 0.11234757 -0.11851585
-0.26949683 0.11234768 -0.12364519
-0.24728531 0.11234763 -0.13131058
-0.26987189 0.13387986 -0.11989713
-0.24762961 0.1338207 -0.12758303
0.24622518 0.13381827 -0.12790298
0.26828566 0.13386746 -0.12151814
-0.24797487 0.15535143 -0.1238457
-0.22582397 0.15523343 -0.1315099
0.22452597 0.15524328 -0.13087177
0.24651329 0.15534127 -0.12450027
0.26860264 0.15544008 -0.11808658
-0.24832103 0.17693985 -0.12009811
-0.22613956 0.17676228 -0.12778294
0.22478734 0.1767695 -0.12747645
0.24680325 0.1769173 -0.12107623
-0.22677667 0.19846565 -0.12025893
-0.20477268 0.19827574 -0.12642276
-0.18286453 0.19808652 -0.13257289
0.18164346 0.19814536 -0.13065898
0.20344926 0.19830379 -0.12551546
0.22533572 0.19846274 -0.12035286
-0.20555192 0.22014749 -0.11630034
-0.18356276 0.21990907 -0.12249494
-0.1616928 0.21968557 -0.12830281
-0.14010112 0.21959692 -0.13060582
-0.11854506 0.21950841 -0.13290489
0.13871755 0.21957234 -0.13124406
0.16043954 0.21977028 -0.12610257
0.18224186 0.2199688 -0.12094223
-0.16229385 0.24160388 -0.11854279
-0.14058577 0.24146214 -0.12161183
-0.11895978 0.24135524 -0.12392581
-0.097369581 0.24124852 -0.12623596
-0.075815067 0.24114203 -0.12854242
-0.054296151 0.24103567 -0.13084519
-0.032812748 0.24092942 -0.13314378
0.010047889 0.24094114 -0.13289165
0.031490684 0.24100435 -0.13152313
0.052954365 0.24106708 -0.13016677
0.074439265 0.24113041 -0.12879562
0.095945314 0.24119371 -0.12742293
0.11747205 0.24125654 -0.12606263
0.13916615 0.24146587 -0.12153149
0.16096485 0.24170506 -0.11635411
-0.097717367 0.26321897 -0.11720037
-0.076092832 0.26309386 -0.11952174
-0.054504134 0.26296902 -0.1218394
-0.032951169 0.26284435 -0.12415302
-0.011442079 0.2627773 -0.12539518
0.010047889 0.26285157 -0.12401938
0.031558946 0.26292509 -0.12265563
0.053091228 0.26299933 -0.12127697
0.074644767 0.26307356 -0.11989713
0.096219175 0.26314729 -0.11852932
0.11782297 0.26323265 -0.11694527
-0.011510641 0.28481585 -0.11648834
-0.054988727 -0.42962417 -0.10085595
-0.033245105 -0.4288148 -0.10506141
-0.011608205 -0.42905477 -0.1038146
0.010047889 -0.42953524 -0.10131776
-0.098285317 -0.40765187 -0.10244453
-0.076489322 -0.40687558 -0.10664546
-0.054758295 -0.40610191 -0.11083376
-0.03309194 -0.40533027 -0.11500967
-0.011531557 -0.40555915 -0.11377168
0.010047889 -0.40601465 -0.11130595
0.031665437 -0.40647343 -0.10882223
0.053321082 -0.40693071 -0.10634768
0.075014926 -0.40738866 -0.10386884
0.09674748 -0.40785 -0.10137188
-0.16344671 -0.38644931 -0.099822879
-0.14153309 -0.38570425 -0.10403156
-0.11968484 -0.38496122 -0.10822773
-0.097901694 -0.38422057 -0.11241126
0.074784987 -0.38397014 -0.11382544
0.096439935 -0.38440672 -0.11135995
0.11813354 -0.38484639 -0.10887635
0.13986495 -0.38528451 -0.10640192
0.16163543 -0.38572577 -0.10390949
0.18344373 -0.38616541 -0.10142636
-0.20669901 -0.36449558 -0.1013993
-0.18473305 -0.3637836 -0.10560322
-0.1628326 -0.36307377 -0.10979462
-0.14099735 -0.3623659 -0.11397362
0.1610982 -0.36238185 -0.11387956
0.18282948 -0.36280185 -0.11140037
0.20488982 -0.36393267 -0.10472274
-0.24998817 -0.34271553 -0.1020509
-0.22788362 -0.3418853 -0.10718644
-0.2059312 -0.34120855 -0.11137342
-0.18404409 -0.34053364 -0.11554766
0.20420508 -0.34068584 -0.11460614
0.22651806 -0.34223983 -0.10499358
-0.27184275 -0.32133034 -0.10020351
-0.24907595 -0.31952545 -0.1119262
0.22575739 -0.31907144 -0.11487532
0.24814329 -0.32055321 -0.10525107
-0.27085319 -0.29820013 -0.11009169
0.24730557 -0.29746115 -0.11514413
0.26976332 -0.29886845 -0.10552192
-0.29265893 -0.27684689 -0.10825467
0.26885083 -0.27585676 -0.11539972
0.29138052 -0.27718991 -0.10577917
-0.31449321 -0.25546569 -0.10641539
0.2905066 -0.25440615 -0.11451185
0.3129923 -0.25551355 -0.1060499
-0.33692455 -0.23462477 -0.099958897
-0.31414512 -0.23345825 -0.10943007
0.31263676 -0.2334682 -0.10934901
0.33515567 -0.23443407 -0.10150766
-0.33662507 -0.21265832 -0.10239017
-0.31386626 -0.2115666 -0.11184525
0.31235176 -0.21154943 -0.11199355
0.33484858 -0.21245316 -0.10416722
-0.33632442 -0.19072819 -0.1048311
-0.31358629 -0.18971094 -0.11426973
0.3120673 -0.18967178 -0.11463308
0.33454213 -0.19051367 -0.10682142
0.3571426 -0.19136029 -0.098966002
-0.33602598 -0.16883749 -0.10725403
0.33423465 -0.16861424 -0.10948396
0.35681447 -0.1694003 -0.10163009
-0.35857829 -0.14785919 -0.10020339
-0.33572638 -0.14698306 -0.10968685
0.33392933 -0.14675754 -0.11212826
0.35648528 -0.14748037 -0.10430276
-0.35825837 -0.12596816 -0.10264802
-0.33542898 -0.12516773 -0.11210132
0.33362457 -0.12494207 -0.11476743
0.35615841 -0.12560341 -0.1069566
-0.35794079 -0.10411637 -0.10507488
-0.33513209 -0.1033899 -0.11451185
0.35583213 -0.10376752 -0.10960555
-0.357622 -0.082301088 -0.10751116
0.35550481 -0.081971906 -0.1122632
0.37878084 -0.082863979 -0.099387646
-0.38022643 -0.061107658 -0.10046172
-0.3573055 -0.06052465 -0.10992968
0.35517979 -0.060218297 -0.11490202
0.37859759 -0.061087571 -0.10078788
-0.37988961 -0.039294697 -0.1028924
-0.35698953 -0.03878551 -0.11234391
0.37841275 -0.03933204 -0.10220015
-0.37955153 -0.017518871 -0.10533237
-0.35667238 -0.017083056 -0.11476743
0.3782281 -0.017598413 -0.10361135
-0.37976182 0.0040670857 -0.10381472
-0.3570883 0.0043663308 -0.11158907
0.35538036 0.0044312403 -0.1132735
0.37853894 0.0039678589 -0.1012361
-0.38028857 0.025606155 -0.10001314
-0.35758305 0.025846243 -0.10780871
-0.33500451 0.026084468 -0.11554766
0.35602182 0.025854051 -0.10806549
-0.35807914 0.047383942 -0.10401797
-0.33546883 0.047563218 -0.11177802
0.33361369 0.047634348 -0.11486161
0.35666567 0.047356695 -0.10283804
-0.35857651 0.068979993 -0.10021722
-0.3359344 0.069099799 -0.10799778
-0.31341544 0.069219142 -0.11574936
0.33421439 0.06912531 -0.10965955
-0.33640122 0.090694502 -0.10420775
-0.31385067 0.090754375 -0.11198008
0.3119716 0.090781644 -0.11552072
0.33481732 0.090696312 -0.10443819
-0.3142871 0.11234757 -0.10820055
-0.2918295 0.11234757 -0.11595094
-0.3368693 0.11234763 -0.10040748
0.31243169 0.11234763 -0.11125195
0.33542249 0.11234763 -0.099197388
-0.31472468 0.13399914 -0.10441113
-0.29223564 0.13393927 -0.11218214
0.2904487 0.13391697 -0.11509037
0.31299376 0.13398655 -0.10603642
-0.31516343 0.15570909 -0.10061109
-0.29264292 0.15558922 -0.10840344
-0.270248 0.15546998 -0.11613894
0.29079235 0.15553904 -0.11165655
0.31355792 0.15570614 -0.10080135
-0.29305124 0.17729741 -0.10461426
-0.27062508 0.17711824 -0.11237085
0.26891917 0.17706546 -0.11465991
0.29119501 0.17722763 -0.10763276
-0.29346073 0.19906434 -0.10081494
-0.27107894 0.19884816 -0.10783577
-0.24887934 0.19865659 -0.11405432
0.24730329 0.19862226 -0.11517119
0.26935363 0.19878283 -0.10995662
0.2917183 0.1990155 -0.10240388
-0.24982274 0.22062699 -0.10384166
-0.22763878 0.22038691 -0.1100781
0.20412494 0.22016817 -0.11576271
0.22608927 0.2203683 -0.11056376
0.24813525 0.22056913 -0.10534585
0.27026466 0.22077122 -0.10009468
-0.22850603 0.24246797 -0.099836469
-0.20633683 0.2421785 -0.10610414
-0.18426697 0.24189079 -0.11233056
0.18284443 0.241945 -0.11115766
0.20480537 0.24218592 -0.10594165
0.2268481 0.24242774 -0.10070634
-0.1849754 0.26403236 -0.10210538
-0.16292077 0.26369512 -0.10836279
-0.14107355 0.26346901 -0.11255956
-0.11937781 0.26334417 -0.11487508
0.13961789 0.26351261 -0.11175084
0.16149384 0.26379359 -0.10653722
0.18345125 0.26407558 -0.10130405
-0.14156525 0.28561977 -0.10343492
-0.11979794 0.28547534 -0.10577917
-0.098066881 0.28533122 -0.10811961
-0.076371983 0.2851873 -0.11045611
-0.054713152 0.28504372 -0.11278856
-0.033090282 0.28490031 -0.11511731
0.010047889 0.28490117 -0.11510384
0.031627748 0.2849865 -0.11371791
0.053228971 0.28507185 -0.11233044
0.074851274 0.28515664 -0.11095536
0.096494779 0.28524137 -0.10957861
0.11820066 0.28539205 -0.10713255
0.14007281 0.28571412 -0.10190153
-0.098418683 0.30758741 -0.098979592
-0.076652959 0.30742446 -0.10133123
-0.054923832 0.30726275 -0.10366547
-0.03323051 0.30710042 -0.10600936
-0.011579749 0.30699635 -0.10751116
0.010047889 0.30709288 -0.10611761
0.03169689 0.30718863 -0.10473633
0.053367388 0.30728528 -0.10334003
0.075059101 0.30738124 -0.10195601
0.096772581 0.30747822 -0.10055685
-0.033554506 -0.47628477 -0.084965229
-0.011763255 -0.47655335 -0.08367312
-0.099060267 -0.4550148 -0.082310796
-0.07710743 -0.45416197 -0.086572051
-0.055220485 -0.45331171 -0.090820312
-0.03339915 -0.45246395 -0.095055938
-0.0116854 -0.45271799 -0.093786597
0.010047889 -0.45322117 -0.091271877
0.031819824 -0.45372286 -0.088766217
0.05363062 -0.45422778 -0.086242676
0.075480051 -0.4547312 -0.083727956
-0.14261754 -0.43288592 -0.083906889
-0.12061096 -0.43206421 -0.088176966
-0.098671153 -0.4312475 -0.092420459
-0.076797068 -0.43043336 -0.096651316
0.031742357 -0.4300141 -0.098829985
0.053475194 -0.43049374 -0.096337795
0.075246818 -0.43097672 -0.093827724
0.097056799 -0.43145809 -0.091326475
0.118906 -0.43194291 -0.088807464
0.14079353 -0.43242595 -0.086297512
0.16271998 -0.43290976 -0.08378315
-0.18612482 -0.41077963 -0.085514784
-0.16406605 -0.4099941 -0.089766383
0.18406317 -0.40969834 -0.091367483
0.20627484 -0.41092435 -0.084731698
-0.14207338 -0.40921089 -0.094005108
-0.12014657 -0.40843031 -0.098231077
0.11851813 -0.40830961 -0.098884463
0.1403279 -0.4087725 -0.096378684
0.16217577 -0.40923378 -0.093882203
-0.25183332 -0.38959137 -0.082076788
-0.22958392 -0.38870069 -0.087107182
-0.20747231 -0.38794878 -0.091353893
-0.185426 -0.38719684 -0.095601559
0.20557941 -0.387344 -0.094769597
0.22805667 -0.38907263 -0.085006595
-0.25090811 -0.36607179 -0.092092395
-0.22873075 -0.36520967 -0.097182751
0.22728518 -0.36557439 -0.095028639
0.24983548 -0.36722749 -0.085267663
-0.27284062 -0.34462619 -0.090231776
0.2489858 -0.34380654 -0.095301509
0.27160895 -0.3453843 -0.085542202
-0.29480207 -0.32315239 -0.088368773
0.2933782 -0.32354528 -0.085816741
0.2706835 -0.32204506 -0.095560551
-0.31679246 -0.30165017 -0.086503386
-0.29372597 -0.29991689 -0.098353744
0.29237583 -0.30028549 -0.095833421
0.31514475 -0.30171245 -0.086077809
-0.3388119 -0.28011963 -0.084635496
-0.31563801 -0.27847549 -0.09650135
0.314064 -0.2785303 -0.096106052
0.33690569 -0.27988175 -0.086352348
-0.36086041 -0.25856081 -0.082764983
-0.33757883 -0.25700584 -0.094646573
0.33574951 -0.25678098 -0.096364975
0.35866407 -0.25805706 -0.086613178
-0.35985997 -0.23580086 -0.090409875
0.38057476 -0.23638356 -0.08567965
0.35780239 -0.23540694 -0.093608975
-0.38260609 -0.21486399 -0.083288074
-0.35953781 -0.21375746 -0.092871308
0.35747135 -0.21336192 -0.096296787
0.38022104 -0.21427572 -0.088382483
-0.38226518 -0.19278473 -0.085748315
-0.35921803 -0.19175375 -0.095315218
0.37986979 -0.19221157 -0.091066718
-0.38192296 -0.17074245 -0.088218093
-0.35889697 -0.16978675 -0.097768068
0.37952098 -0.1701906 -0.093731999
-0.38158321 -0.14873981 -0.09066987
0.37933519 -0.14832583 -0.095151305
-0.40438399 -0.12758663 -0.083535433
-0.38124219 -0.12677413 -0.093130946
0.37914962 -0.12648287 -0.096569538
-0.40402219 -0.10558399 -0.086009026
-0.38090363 -0.10484772 -0.095574141
0.37896603 -0.10466301 -0.097972631
0.4027648 -0.10582844 -0.082833886
-0.40366304 -0.083620764 -0.088464737
-0.3805657 -0.082959227 -0.098013282
0.40256655 -0.083911784 -0.084264398
-0.40330249 -0.061694629 -0.090929866
0.40237045 -0.062018029 -0.08567965
-0.40301248 -0.039832465 -0.092912436
0.40217265 -0.0401453 -0.087107182
-0.40287867 -0.018050276 -0.093827486
0.40197504 -0.018294878 -0.088533282
-0.4030205 0.0036453381 -0.092857718
0.40189716 0.0035005137 -0.089095116
-0.40389371 0.025202006 -0.086887717
0.40263134 0.025106847 -0.083796859
0.37922636 0.025482066 -0.095983267
-0.38101706 0.04717014 -0.094755769
0.37991634 0.047076769 -0.090710878
-0.38184509 0.068803929 -0.088779807
0.35731193 0.068939604 -0.097591281
0.38060889 0.068752244 -0.085418582
-0.38267472 0.090529792 -0.08279264
-0.35907528 0.090634465 -0.096405864
0.35796058 0.090602942 -0.092324734
-0.35982415 0.11234757 -0.09068346
0.35861167 0.11234763 -0.087038636
-0.36060664 0.13415083 -0.084704161
-0.33733866 0.13405928 -0.096596599
0.33602992 0.13407971 -0.093936801
0.35926521 0.13417365 -0.081732392
-0.33783284 0.15583263 -0.092584491
0.33663958 0.15589315 -0.088656425
-0.33857 0.17771351 -0.08659935
-0.31560338 0.17747793 -0.096801162
0.31412423 0.1775068 -0.09554708
0.33725157 0.17778832 -0.083356619
-0.31604454 0.19930562 -0.092980742
0.31469265 0.19938889 -0.090272784
-0.31708592 0.22139232 -0.083961964
-0.29448923 0.22111081 -0.091271877
-0.27210689 0.22086865 -0.097563982
0.29286519 0.22112352 -0.090943456
-0.273141 0.24305016 -0.087230682
-0.25077429 0.24275863 -0.093540788
0.2489731 0.24267042 -0.095451474
0.27133137 0.24298936 -0.088546991
-0.2517316 0.26505226 -0.083177805
-0.22937962 0.26471061 -0.089519858
-0.20712851 0.26437101 -0.095819592
0.20549057 0.26435852 -0.096051455
0.22761229 0.26464269 -0.090779305
0.24981685 0.26492783 -0.085487247
-0.16355312 0.28594854 -0.09809494
0.16202655 0.28603753 -0.096651196
-0.20792495 0.28672588 -0.085473657
-0.18568902 0.28633589 -0.0918051
0.18406233 0.28636211 -0.091381431
0.20618063 0.28668776 -0.086091518
-0.16418923 0.30836436 -0.087765694
-0.1420697 0.3079274 -0.094073296
-0.1202208 0.30775064 -0.096624017
0.11858101 0.30770728 -0.0972507
0.14053094 0.30807224 -0.091982961
0.16256303 0.30843848 -0.086695552
-0.14262789 0.33045587 -0.083714247
-0.12064642 0.33017135 -0.0874089
-0.098772787 0.32998893 -0.089779973
-0.076936178 0.32980776 -0.092133284
-0.055135585 0.32962576 -0.094496489
-0.033371441 0.32944429 -0.09685564
-0.011649302 0.32931951 -0.098476052
0.010047889 0.32942644 -0.097087145
0.031766582 0.3295345 -0.095683336
0.053506695 0.32964158 -0.094291687
0.075268582 0.32974991 -0.092885137
0.097051747 0.32985723 -0.091490626
0.11896405 0.3301799 -0.087299347
0.1409923 0.33058831 -0.081994176
-0.077220835 0.35233665 -0.082888961
-0.055348724 0.35213515 -0.085267544
-0.033513293 0.35193413 -0.087642074
-0.011719196 0.35178551 -0.089396596
0.010047889 0.35190511 -0.087985039
0.03183661 0.35202351 -0.086585641
0.053647112 0.35214332 -0.085171342
0.075479098 0.35226202 -0.083769321
0.097332723 0.35238093 -0.08236599
-0.055748038 -0.50174773 -0.067976952
-0.033730585 -0.5005511 -0.073528409
-0.01185426 -0.50091255 -0.071851254
0.010047889 -0.50161582 -0.068588614
0.032000437 -0.50232381 -0.065304399
-0.12155103 -0.47984746 -0.067823887
0.097682543 -0.47918633 -0.071005106
0.11968903 -0.47971454 -0.068463564
0.14173551 -0.48024669 -0.065903306
-0.099452183 -0.47895274 -0.072128654
-0.077420011 -0.47806075 -0.076420426
-0.055453897 -0.47716853 -0.080713034
0.010047889 -0.47707698 -0.081154108
0.031897854 -0.47760138 -0.078630447
0.053786948 -0.47812971 -0.076088548
0.075714961 -0.47865608 -0.073556066
-0.18753663 -0.45845202 -0.065137267
-0.16531716 -0.45758888 -0.069450021
-0.14316484 -0.45672831 -0.0737499
-0.1210793 -0.4558703 -0.078036785
0.097368337 -0.45523539 -0.081209064
0.1192961 -0.45574322 -0.078671813
0.1412625 -0.45624909 -0.076143861
0.16326882 -0.45675871 -0.07359755
0.18531376 -0.45726654 -0.071060538
0.20767969 -0.45858875 -0.064454317
-0.23130751 -0.43618736 -0.066752672
-0.20903446 -0.43535832 -0.071060538
-0.18682867 -0.43453166 -0.075355768
-0.16468979 -0.43370762 -0.079637766
0.18468624 -0.43339726 -0.081250429
0.20697428 -0.43467024 -0.074635983
0.22961733 -0.43657604 -0.064733028
-0.25276509 -0.41327831 -0.071990013
-0.23044203 -0.41235772 -0.076973319
-0.20825006 -0.41156748 -0.08125031
0.22883475 -0.41274092 -0.074898958
0.25155067 -0.41456762 -0.065011859
0.27348104 -0.39256588 -0.065276623
-0.27485502 -0.39171138 -0.070103049
0.25069001 -0.39081308 -0.075175881
-0.29697427 -0.37011582 -0.068213344
-0.27384424 -0.36808529 -0.080203176
0.27254099 -0.36888981 -0.075452447
0.29540589 -0.37056601 -0.065555215
-0.31912291 -0.34849161 -0.066320896
-0.29588431 -0.34655073 -0.078326821
0.29438913 -0.34697285 -0.075715184
0.31732798 -0.34857255 -0.06581986
-0.34130099 -0.32683849 -0.064426422
-0.31795356 -0.32498762 -0.076448202
0.31623173 -0.32505792 -0.075991869
0.3392444 -0.32658118 -0.066098332
-0.34005204 -0.30339608 -0.074566841
0.33807167 -0.30314919 -0.076254606
0.36115655 -0.30459389 -0.066376686
-0.36217979 -0.28177583 -0.072683096
0.35990587 -0.28124264 -0.076531053
0.38306621 -0.28261301 -0.066641212
-0.38433689 -0.26012683 -0.070796967
0.38173583 -0.25934035 -0.076807499
-0.40652341 -0.23844925 -0.068908334
-0.38294953 -0.23698345 -0.080809593
0.40419051 -0.23800144 -0.072544456
-0.40583348 -0.21597984 -0.073625326
0.40375501 -0.21574172 -0.075687528
-0.42883366 -0.19486949 -0.066404581
-0.40546915 -0.19382277 -0.076116323
0.40355578 -0.19371414 -0.077125311
-0.4284482 -0.17267483 -0.068908215
-0.40510747 -0.17170599 -0.078589082
0.40335867 -0.17171025 -0.078547597
-0.42815527 -0.15057427 -0.070810795
-0.40474442 -0.14962646 -0.081071377
0.40315989 -0.14972705 -0.079982519
0.42724207 -0.15114346 -0.064649343
-0.42801219 -0.12858537 -0.071740508
0.40296319 -0.12776738 -0.081401944
0.42703217 -0.12906435 -0.066084504
-0.42786914 -0.10661095 -0.072669268
0.42682049 -0.10700645 -0.067531705
-0.42772621 -0.084650747 -0.07359767
0.42660901 -0.084970765 -0.068977833
-0.4275834 -0.062704854 -0.074525356
0.42639977 -0.062958501 -0.070408225
-0.42744067 -0.040773354 -0.075452447
0.42618871 -0.040967412 -0.071851254
-0.42729804 -0.018856235 -0.076378942
0.42597786 -0.01899863 -0.073292851
-0.42715335 0.0030472651 -0.077318668
0.42576927 0.0029472113 -0.074719071
-0.42782649 0.024772741 -0.072946429
0.4262394 0.024728365 -0.071504593
-0.42875868 0.046526603 -0.06689167
-0.40477058 0.046849951 -0.080892205
0.40336823 0.046794221 -0.078478575
0.42702404 0.046509288 -0.066140056
-0.40565124 0.068589814 -0.074871182
0.40410793 0.068563163 -0.073140502
-0.40653762 0.090422004 -0.068810821
0.38130409 0.090508953 -0.080106616
0.40485039 0.090414129 -0.067782044
-0.38350788 0.11234752 -0.076779723
0.38200188 0.11234752 -0.074774384
-0.38434458 0.13425826 -0.070741296
0.38270226 0.13426842 -0.069422364
-0.38518485 0.15626231 -0.064677238
-0.36139247 0.15604644 -0.078699589
0.35992119 0.1560818 -0.076406598
-0.36218342 0.17803547 -0.072655439
0.36057964 0.17807238 -0.071060658
-0.36297593 0.20011786 -0.066599369
-0.33930859 0.19968677 -0.080602884
0.33786589 0.19976574 -0.078037024
0.3612406 0.20014581 -0.065694451
-0.34023798 0.22181189 -0.073057294
0.31565759 0.22149393 -0.081319332
0.33860734 0.22186741 -0.071615577
-0.31857404 0.24379629 -0.071074486
-0.29560933 0.24334359 -0.080878496
0.29407114 0.24343529 -0.078892708
0.31696519 0.24388355 -0.069186091
-0.29687843 0.26581067 -0.069102645
-0.27418268 0.26539484 -0.076821208
0.27244648 0.2654134 -0.076475739
0.29528746 0.26593816 -0.066738725
-0.27523348 0.28790531 -0.066320896
-0.25269595 0.28751013 -0.072738528
-0.2302608 0.28711748 -0.079113364
0.22838189 0.28701478 -0.080781937
0.25078613 0.2874299 -0.074040651
0.27357113 0.28802973 -0.064300895
-0.23114732 0.30968913 -0.068644166
-0.20872726 0.30924523 -0.075051308
-0.18640882 0.30880424 -0.081415772
0.18467775 0.30880621 -0.081388116
0.20687556 0.30917519 -0.076060891
0.22915696 0.30954573 -0.070713639
-0.2095366 0.33193204 -0.064537883
-0.18713297 0.3314375 -0.070963383
-0.16483089 0.33094609 -0.077346206
0.16310331 0.33099815 -0.076669216
0.18529753 0.33140963 -0.07132411
0.20757546 0.33182263 -0.065959096
-0.16547644 0.35369354 -0.066863775
-0.14319022 0.35315028 -0.073279023
-0.12107483 0.3527393 -0.078133583
-0.099129729 0.35253844 -0.080506325
0.11934979 0.35281181 -0.077277184
0.14145693 0.35326418 -0.071934342
0.16364741 0.35371831 -0.066571474
-0.12150671 0.3754569 -0.068783164
-0.099488489 0.3752349 -0.07118535
-0.077507354 0.37501332 -0.073583722
-0.055571876 0.3748267 -0.075604677
-0.033671804 0.37466574 -0.077346206
-0.011801223 0.37453693 -0.078740835
0.010047889 0.37463257 -0.077705383
0.031912949 0.37472829 -0.076669097
0.053793762 0.3748228 -0.075646043
0.075690985 0.37492001 -0.074594617
0.097635135 0.3751094 -0.072544575
0.11973828 0.37560451 -0.067183852
-0.056231342 -0.52835172 -0.047048807
-0.034051534 -0.52709413 -0.052682161
-0.01201384 -0.52744263 -0.051121116
0.010047889 -0.52818477 -0.047796488
-0.12231793 -0.50535965 -0.051219583
-0.10004131 -0.504152 -0.056822538
-0.077851184 -0.50294602 -0.062417626
0.054003447 -0.50303024 -0.062026739
0.076057427 -0.50374138 -0.058727264
0.098162428 -0.50445426 -0.055420399
0.1203181 -0.50516558 -0.052119851
0.14252558 -0.50588173 -0.048797369
-0.21067454 -0.48360285 -0.049755573
-0.18825065 -0.48254803 -0.054830909
-0.16594996 -0.48164514 -0.059175134
-0.14371686 -0.48074493 -0.063506007
0.16382089 -0.48077682 -0.063352704
0.18594582 -0.48130795 -0.060797334
0.20838921 -0.48267648 -0.054213285
-0.25465 -0.46116439 -0.051585317
-0.23217921 -0.46018919 -0.056457996
-0.20982453 -0.45932075 -0.060797334
0.2304066 -0.46058503 -0.054480076
-0.27689973 -0.43947473 -0.049671173
-0.25370353 -0.43713441 -0.061831236
0.25241873 -0.43849519 -0.054760933
-0.2991792 -0.41775605 -0.047754169
-0.27587444 -0.41550896 -0.059916496
0.27442649 -0.41640964 -0.055041552
-0.29807353 -0.39385185 -0.05801332
0.29643136 -0.39433077 -0.055308104
-0.32030228 -0.37216604 -0.05610764
0.31843063 -0.37225384 -0.055588722
-0.34256065 -0.35045114 -0.054199338
0.34042719 -0.35018343 -0.055855155
-0.36484876 -0.32870719 -0.052288532
0.36241794 -0.32811493 -0.056135654
-0.38716465 -0.3069323 -0.050389171
-0.36350858 -0.30515665 -0.062529325
0.38440436 -0.30605078 -0.056416035
-0.40951225 -0.28513041 -0.04847312
-0.38574573 -0.28344607 -0.060629487
0.40697387 -0.28457832 -0.052457213
-0.40801248 -0.26170635 -0.058727264
0.40557826 -0.26120886 -0.062529325
-0.43030891 -0.23993784 -0.056822658
0.42896777 -0.24042711 -0.052850723
-0.45341682 -0.21869859 -0.050079465
-0.42921767 -0.21710163 -0.063910484
0.42787707 -0.2175175 -0.06030798
-0.45323709 -0.19650909 -0.05119133
0.42766449 -0.19536984 -0.061761379
-0.45308474 -0.17435354 -0.052133918
0.4274542 -0.17324618 -0.063199162
0.45180956 -0.17479748 -0.047697902
-0.45293245 -0.15221259 -0.053075552
0.45158601 -0.15257525 -0.049149871
-0.45278034 -0.13008621 -0.054016829
0.45136046 -0.1303744 -0.050614476
-0.45262828 -0.10797443 -0.054957271
0.45113739 -0.10819717 -0.052063465
-0.45247632 -0.085877098 -0.055897236
0.45091233 -0.086041398 -0.053525329
-0.45232448 -0.063794263 -0.056836605
0.45068967 -0.063909061 -0.054971337
-0.45217052 -0.041725136 -0.057789326
0.45046514 -0.041798405 -0.056430221
-0.45201883 -0.019671462 -0.058727264
0.45024076 -0.019710265 -0.057887197
-0.45186728 0.0023677498 -0.059664845
0.45001882 0.0023548156 -0.059328914
-0.45199621 0.024339169 -0.058867216
0.45005324 0.02434653 -0.059105039
-0.45298472 0.046200037 -0.052752376
0.45088637 0.04622186 -0.053693891
-0.42969483 0.068373263 -0.060811162
0.42781162 0.068372533 -0.060755372
0.45172271 0.068180144 -0.048261881
-0.43063498 0.09031345 -0.054704666
0.42860219 0.090318531 -0.055350304
-0.43158132 0.11234757 -0.048557758
0.40559566 0.11234752 -0.06240356
-0.40742576 0.11234768 -0.062738776
0.42939574 0.11234763 -0.049924731
-0.40831771 0.13436687 -0.056640267
0.40634376 0.13436407 -0.057004809
-0.40921351 0.15648027 -0.050515771
0.38340533 0.15627207 -0.064050078
0.40709469 0.15646383 -0.051585317
-0.38602871 0.17836042 -0.058587432
0.38411105 0.1783587 -0.058657527
-0.3868781 0.20055334 -0.052457213
0.38481945 0.20052913 -0.053244233
-0.36377183 0.22229455 -0.060517788
0.36190403 0.22230269 -0.060308099
0.3855305 0.22278365 -0.047810674
-0.36528161 0.24481684 -0.048980713
-0.34183753 0.24430469 -0.060070395
0.340018 0.24433556 -0.05939889
0.36322805 0.2447902 -0.049558401
-0.34345004 0.26700282 -0.046978235
-0.32007414 0.26640454 -0.058083415
0.31828403 0.26646578 -0.056948662
0.3414408 0.26699764 -0.04707706
-0.29828045 0.28853515 -0.056093574
0.29651421 0.2886346 -0.054480195
-0.27645639 0.31069672 -0.05410111
-0.25366738 0.31013411 -0.062222004
0.25181884 0.31016022 -0.061845183
0.27470547 0.31084076 -0.052021265
-0.25464609 0.33292598 -0.051627636
-0.23204041 0.33242786 -0.058097363
0.23002796 0.33232763 -0.05939889
0.25286043 0.33308628 -0.049544334
-0.23294012 0.35533559 -0.047472119
-0.21035083 0.35478622 -0.053960562
-0.18786249 0.35423806 -0.060433984
0.18592173 0.35417402 -0.061188459
0.20828031 0.35463163 -0.05578506
0.23097649 0.35536915 -0.047077179
-0.18859741 0.37720802 -0.049826026
-0.1661268 0.37660953 -0.056303859
-0.1437567 0.37601256 -0.062766433
0.14192487 0.37610152 -0.061803102
0.16419542 0.3766005 -0.056402087
0.18655038 0.37710136 -0.05098033
-0.14461811 0.39958447 -0.046780586
-0.12230559 0.39911348 -0.05148685
-0.10014661 0.3988533 -0.054086924
-0.078052826 0.39867496 -0.055869222
-0.055986546 0.39849678 -0.057649136
-0.033947907 0.39832023 -0.059413075
-0.011938171 0.39816648 -0.060950994
0.010047889 0.39826992 -0.059916496
0.032049991 0.39837497 -0.058867216
0.054068256 0.39848 -0.057817101
0.076102704 0.3985852 -0.05676651
0.09819527 0.3988266 -0.054353833
0.12038362 0.39922044 -0.050417304
-0.034377445 -0.55403244 -0.031513691
-0.012175874 -0.55436534 -0.030072331
-0.12329601 -0.532148 -0.030043602
0.12112769 -0.53191537 -0.031085849
-0.10085317 -0.5308786 -0.035729647
-0.078498133 -0.52961105 -0.041407704
