ply
format ascii 1.0
comment PCL generated
element vertex 1355
property float x
property float y
property float z
element camera 0
property float view_px
property float view_py
property float view_pz
property float x_axisx
property float x_axisy
property float x_axisz
property float y_axisx
property float y_axisy
property float y_axisz
property float z_axisx
property float z_axisy
property float z_axisz
property float focal
property float scalex
property float scaley
property float centerx
property float centery
property int viewportx
property int viewporty
property float k1
property float k2
end_header
0.62655544 0.01232128 -0.36112881
0.62641877 0.039724961 -0.36193609
0.62627554 0.067115337 -0.36278141
0.60150492 0.20513578 -0.34649539
0.60055691 0.23225826 -0.35235941
0.59962457 0.25929773 -0.358127
0.57375228 0.34263414 -0.34794867
0.57226533 0.36911109 -0.35760689
0.54644442 0.4253636 -0.3465147
0.54472905 0.45135763 -0.35824251
0.51801759 0.50700152 -0.35299671
0.49095625 0.56247473 -0.34980702
0.46291974 0.61671501 -0.35413587
0.43466008 0.67033869 -0.36097503
0.40827328 0.6996702 -0.3514123
0.35230857 0.77976805 -0.36205149
0.32513073 0.80780762 -0.35932052
0.29766807 0.83513665 -0.35974395
0.2702066 0.86244029 -0.36024404
0.24350505 0.89283931 -0.34852958
0.21687654 -0.89956009 -0.33211243
0.24446675 -0.87172937 -0.33291352
0.27225989 -0.84462863 -0.33060718
0.29997125 -0.81715208 -0.32982481
0.32746777 -0.7890861 -0.33172154
0.35463437 -0.7603727 -0.33687401
0.3816278 -0.73155099 -0.34296393
0.41070321 -0.67904359 -0.32886565
0.43697321 -0.64924079 -0.34094274
0.46545431 -0.59529138 -0.33355784
0.49296522 -0.53990334 -0.33445585
0.52018142 -0.48427764 -0.33738077
0.52191526 -0.45821989 -0.32486773
0.54829097 -0.4018569 -0.33388972
0.57504064 -0.31849739 -0.33958101
0.57638609 -0.29158813 -0.3308419
0.60240561 -0.18052526 -0.34092331
0.60297835 -0.15308982 -0.33738065
0.60355532 -0.12560071 -0.33381164
0.60401964 -0.09804064 -0.33093965
0.60425675 -0.070414715 -0.32947266
0.60450041 -0.042766515 -0.3279649
0.60471898 -0.015094999 -0.32661295
0.6046018 0.012581263 -0.32733798
0.60448778 0.0402468 -0.32804334
0.60438019 0.067902207 -0.32870913
0.60397536 0.095490865 -0.33121336
0.60351115 0.12302674 -0.33408523
0.60304767 0.15051885 -0.33695209
0.60244334 0.1779196 -0.3406899
0.57624161 0.28896818 -0.33178031
0.5749957 0.31586257 -0.33987296
0.5481711 0.3991982 -0.33470953
0.52009505 0.48160022 -0.33800423
0.49302396 0.537404 -0.33400691
0.46527642 0.59248549 -0.33500206
0.4370473 0.64674127 -0.34030092
0.41069266 0.67649943 -0.32896364
0.3815695 0.72879606 -0.34354639
0.35474059 0.75803363 -0.33572376
0.32741812 0.78640807 -0.33230793
0.29988244 0.81435299 -0.33097875
0.27230597 0.84224844 -0.32994211
0.24457024 0.86958688 -0.33123279
0.21687654 0.89700955 -0.33211243
0.19020201 -0.90470666 -0.31121957
0.32960108 -0.76668 -0.30652821
0.35686365 -0.73759991 -0.31274116
0.38399133 -0.7085402 -0.31934607
0.41292268 -0.65502542 -0.30827153
0.43928978 -0.62506682 -0.32088065
0.46749341 -0.57021195 -0.31700253
0.49496832 -0.51440281 -0.31914937
0.52355993 -0.43189511 -0.31299794
0.54973972 -0.3752223 -0.3239845
0.55104065 -0.34834182 -0.31509018
0.55226392 -0.32127953 -0.30672634
0.57738441 -0.26438808 -0.32435751
0.57825297 -0.23703615 -0.31871629
0.57912427 -0.20959847 -0.3130573
0.57987928 -0.18203875 -0.30815279
0.57983053 0.17965592 -0.30846953
0.57906646 0.20717175 -0.31343234
0.57829839 0.23460954 -0.31842101
0.57744181 0.2619262 -0.32398462
0.55230165 0.31894839 -0.30646884
0.55117625 0.34601533 -0.31416261
0.54969376 0.37270075 -0.3242985
0.52365029 0.42957217 -0.31234598
0.52199411 0.45579967 -0.32429874
0.4967601 0.48611003 -0.30545759
0.49494773 0.51192921 -0.31930673
0.46742547 0.56768882 -0.31755412
0.43930796 0.62263095 -0.32072318
0.41297603 0.65275007 -0.30777645
0.3839224 0.70595026 -0.32003498
0.35695857 0.73541236 -0.31171358
0.32956585 0.76423705 -0.30694449
0.21824875 0.87564331 -0.30664718
0.19016001 0.9020862 -0.3121289
0.16287884 -0.93565661 -0.29882169
0.16328685 -0.91037202 -0.28822124
0.21835028 -0.87844706 -0.30476344
0.24629447 -0.85094982 -0.30323505
0.27418381 -0.82317674 -0.30283797
0.30204257 -0.79529476 -0.30291736
0.3589254 -0.71410662 -0.2904222
0.38614693 -0.68478197 -0.29780614
0.4148851 -0.63028622 -0.29006219
0.44137084 -0.6002543 -0.30285788
0.44331771 -0.57498544 -0.28599739
0.46936771 -0.54468191 -0.30178499
0.4711543 -0.51881874 -0.28727996
0.49684316 -0.48853827 -0.30482304
0.49852109 -0.46226788 -0.29200149
0.52505863 -0.40527409 -0.30218232
0.52650255 -0.37844709 -0.29176152
0.55337065 -0.29402697 -0.29915988
0.55438554 -0.2666145 -0.29222095
0.55514926 -0.23898938 -0.28699934
0.58041948 -0.15434989 -0.30464423
0.58088106 -0.12659125 -0.30164587
0.58132207 -0.09878327 -0.29878175
0.58151215 -0.0709062 -0.29754734
0.58170235 -0.043009974 -0.29631186
0.58188039 -0.015094882 -0.29515553
0.58179438 0.012824781 -0.29571378
0.58170539 0.040735714 -0.29629195
0.58161336 0.068637095 -0.29688978
0.58124548 0.0964742 -0.29927933
0.58087194 0.12427304 -0.30170548
0.58049887 0.15203492 -0.30412841
0.55523717 0.23682809 -0.28639817
0.55433291 0.26434359 -0.29258049
0.55331242 0.29169652 -0.29955781
0.52644444 0.37616211 -0.29218125
0.52507514 0.40296799 -0.30206311
0.49840346 0.4599086 -0.29290009
0.47125795 0.51673669 -0.28643847
0.46941179 0.54242009 -0.30142725
0.44323674 0.57267678 -0.2866987
0.44133875 0.59788221 -0.30313587
0.41500157 0.62825102 -0.2889818
0.3860513 0.68231177 -0.29876184
0.35899192 0.71202141 -0.28970206
0.30196312 0.79273862 -0.30394983
0.27422786 0.82099861 -0.30220222
0.24636419 0.84889197 -0.3021028
0.16332309 0.90839869 -0.28727996
0.16287731 0.93335217 -0.29886127
0.13550211 -0.93993902 -0.28196359
0.19158578 -0.88405579 -0.28126025
0.21989115 -0.8572008 -0.27616835
0.24800728 -0.82929707 -0.27542245
0.27599245 -0.80093873 -0.27673256
0.30394822 -0.77257562 -0.27816248
0.33159953 -0.74356705 -0.28292775
0.3608726 -0.69004047 -0.2693435
0.3881349 -0.6603955 -0.27794111
0.4167608 -0.60513639 -0.27265811
0.4451637 -0.54932916 -0.27001071
0.47272903 -0.49250716 -0.27449477
0.49995562 -0.43558544 -0.28103912
0.50123221 -0.40860397 -0.27128446
0.52768773 -0.35128686 -0.28320897
0.52874982 -0.32392001 -0.27554345
0.52967906 -0.29636118 -0.26883745
0.55584466 -0.21125892 -0.2822448
0.55653894 -0.18345463 -0.27749813
0.55700481 -0.15551727 -0.27431321
0.55744481 -0.12752542 -0.27130473
0.55780864 -0.099475272 -0.26881731
0.5579803 -0.071366519 -0.26764333
0.55812252 -0.04323826 -0.26667082
0.5581966 0.013052303 -0.26616454
0.55813146 0.041192695 -0.26661015
0.55803365 0.069320954 -0.26727867
0.55774647 0.097399168 -0.26924217
0.55745369 0.12544547 -0.27124405
0.55706674 0.1534314 -0.27388954
0.55645353 0.18129335 -0.27808201
0.55584466 0.2090923 -0.2822448
0.52969021 0.29430479 -0.26875639
0.52885318 0.32187417 -0.2747972
0.52764875 0.34908479 -0.28348982
0.50131947 0.40659887 -0.27061737
0.49998194 0.43345305 -0.28083825
0.47276628 0.49044234 -0.27419221
0.44503063 0.5470795 -0.27116323
0.41685006 0.60318404 -0.27182996
0.38803014 0.65806866 -0.27898788
0.36090997 0.68805122 -0.26893854
0.33158934 0.74137032 -0.28304827
0.30386764 0.77021515 -0.27920914
0.27603152 0.7989406 -0.27616835
0.2480495 0.82734144 -0.27473688
0.21979345 0.85464847 -0.27798152
0.19156441 0.88178313 -0.28172243
0.1355015 0.93776941 -0.28198373
0.079977989 -0.94863516 -0.2477318
0.10786996 -0.94426674 -0.26492786
0.13602668 -0.91610998 -0.26492786
0.16444772 -0.88959199 -0.25806081
0.19287477 -0.86246979 -0.25335264
0.22132866 -0.83508593 -0.24949157
0.24956265 -0.80666488 -0.2501663
0.27769285 -0.77797413 -0.25218892
0.30570579 -0.74909055 -0.25533104
0.33345553 -0.71976691 -0.26100993
0.36266485 -0.665353 -0.24994123
0.39000836 -0.63550943 -0.25922048
0.41849861 -0.57952183 -0.2565335
0.44667995 -0.52303106 -0.25687969
0.47427732 -0.46597248 -0.26192415
0.47560972 -0.43904164 -0.25110626
0.50245982 -0.38143486 -0.26190388
0.50357884 -0.35404488 -0.25335264
0.50451809 -0.32640672 -0.24617565
0.53056383 -0.26867709 -0.26245213
0.5313049 -0.24083056 -0.25710368
0.53187841 -0.21283664 -0.25296485
0.53242207 -0.18476908 -0.24904144
0.55827373 -0.015094999 -0.2656374
0.53239083 0.18284602 -0.24926662
0.53191519 0.21091184 -0.25269938
0.53131336 0.23886192 -0.25704265
0.53050196 0.26662859 -0.2628988
0.50449127 0.32449916 -0.24638045
0.5035255 0.35206005 -0.25376058
0.50246513 0.37942949 -0.26186311
0.47553423 0.43703961 -0.25171924
0.4742673 0.46395168 -0.26200533
0.44662115 0.5209856 -0.25738883
0.41853374 0.57760584 -0.25620735
0.3899025 0.63333291 -0.26027799
0.36267996 0.6634655 -0.24977767
0.33346757 0.71779245 -0.26086748
0.30563363 0.74693638 -0.2562685
0.27772686 0.7761448 -0.25169885
0.24958782 0.80483675 -0.24975729
0.22124937 0.83283168 -0.25096309
0.1928663 0.86048186 -0.25353611
0.16449554 0.88791776 -0.25681853
0.13604292 0.91421074 -0.26440048
0.079978302 0.94673967 -0.2477113
0.10786996 0.94223356 -0.26492786
0.051822517 -0.95304483 -0.23037338
0.10839064 -0.92166406 -0.24238145
0.13694833 -0.895096 -0.23499632
0.16551898 -0.86781001 -0.2302289
0.19409281 -0.84011114 -0.2269814
0.25102744 -0.78333825 -0.22638106
0.27926016 -0.75424707 -0.22956729
0.30736002 -0.72499555 -0.23384178
0.33513206 -0.69523799 -0.24121094
0.36429504 -0.64006948 -0.2322942
0.39163598 -0.60993803 -0.24295604
0.39313731 -0.58392179 -0.22795415
0.42005917 -0.55341834 -0.24205291
0.42154965 -0.52700186 -0.2282232
0.44811717 -0.49644125 -0.24443328
0.4493711 -0.4694643 -0.23357368
0.47683614 -0.41185173 -0.24114907
0.47780475 -0.38429907 -0.23328483
0.50536412 -0.29860342 -0.23971069
0.50605392 -0.27061766 -0.23443973
0.50674027 -0.24254917 -0.22919524
0.53287023 -0.15661451 -0.24580681
0.53321689 -0.12838763 -0.24330509
0.53356403 -0.10012227 -0.24080002
0.53374064 -0.071799472 -0.23952556
0.5338546 -0.043453537 -0.23870277
0.53396583 -0.015094823 -0.2379005
0.53391737 0.013267171 -0.23825026
0.53386033 0.041622832 -0.23866177
0.53375489 0.069964319 -0.23942256
0.53352416 0.098266073 -0.24108744
0.53325391 0.12653121 -0.24303806
0.53287023 0.15472844 -0.24580669
0.50667799 0.24075821 -0.22967076
0.50604582 0.26881438 -0.2345016
0.50541526 0.29679751 -0.2393198
0.47787085 0.38256723 -0.23274839
0.47680575 0.40997326 -0.24139571
0.44943544 0.4677456 -0.23301649
0.44816214 0.49461979 -0.24404359
0.421514 0.52520287 -0.22855401
0.42004815 0.5515455 -0.24215543
0.39313936 0.58217663 -0.22793341
0.39158052 0.60798007 -0.24351013
0.36428359 0.63826561 -0.23241794
0.33516687 0.69346642 -0.24079978
0.30729336 0.72302836 -0.23470759
0.27929452 0.75258934 -0.22907114
0.19409376 0.83837479 -0.22696066
0.16557547 0.8663944 -0.22876084
0.13693945 0.89322227 -0.23528492
0.10835084 0.91936654 -0.2441051
0.051822517 0.95127761 -0.2303735
0.023399794 -0.95750171 -0.21282935
0.080350101 -0.92629981 -0.22356248
0.10904952 -0.90014219 -0.21385121
0.13781619 -0.87321794 -0.20681179
0.22268005 -0.81221598 -0.22441268
0.28069758 -0.72981095 -0.20881963
0.30891493 -0.70033127 -0.21364284
0.3367143 -0.67020708 -0.22252524
0.3658351 -0.61435658 -0.21562266
0.39455697 -0.55755538 -0.21376789
0.42284927 -0.50014067 -0.21616411
0.45059416 -0.44228935 -0.22298157
0.45165569 -0.41480044 -0.21378875
0.47878522 -0.35663393 -0.22532463
0.47962898 -0.32875255 -0.21847403
0.48034993 -0.30068874 -0.21262074
0.48098549 -0.27248695 -0.2074604
0.50725764 -0.21433043 -0.22524178
0.50769192 -0.18602148 -0.22192335
0.5080834 -0.15764894 -0.21893156
0.50834477 -0.12919958 -0.21693444
0.50860643 -0.1007197 -0.21493518
0.50880283 -0.0722012 -0.2134341
0.50890386 -0.043654047 -0.21266246
0.50900483 -0.015094941 -0.21189046
0.50896937 0.013468029 -0.2121619
0.50892293 0.042025499 -0.21251631
0.50880283 0.070564382 -0.21343434
0.50859278 0.099068061 -0.21503937
0.5083856 0.12754807 -0.21662223
0.50804806 0.15595728 -0.21920192
0.50768918 0.18431845 -0.22194397
0.50731188 0.21262842 -0.22482717
0.48101127 0.27091226 -0.20725119
0.48033965 0.29905111 -0.21270394
0.47958541 0.32704443 -0.21882761
0.47879288 0.35491201 -0.2252624
0.45160753 0.41311276 -0.21420574
0.45059416 0.44057894 -0.22298157
0.42277971 0.4983936 -0.21680963
0.39462167 0.55601561 -0.21312141
0.36579853 0.61263615 -0.21601844
0.33677056 0.66862309 -0.22186089
0.30883953 0.69850445 -0.21462238
0.28072366 0.72828513 -0.20844352
0.25104401 0.7816599 -0.22611177
0.22260861 0.81019866 -0.22573888
0.13778463 0.8713876 -0.20783687
0.10902257 0.89821464 -0.21501851
0.08034914 0.92456919 -0.22362459
0.023399794 0.95586401 -0.21285033
-0.0052941628 -0.9619956 -0.19513893
0.052021302 -0.9309833 -0.20455003
0.08079128 -0.90466285 -0.19490719
0.16652188 -0.84520298 -0.20417285
0.19524412 -0.81703514 -0.20205498
0.22391762 -0.78852081 -0.20144629
0.25240672 -0.75936759 -0.20398414
0.28205314 -0.70483726 -0.18925381
0.31030858 -0.67498511 -0.19553912
0.33819383 -0.64468294 -0.20505297
0.33949947 -0.61855793 -0.18963408
0.36723387 -0.58815169 -0.20048046
0.39578795 -0.53070927 -0.20146728
0.3969658 -0.50360429 -0.18969738
0.4240084 -0.47293329 -0.20540893
0.42501536 -0.44539729 -0.19606531
0.42594537 -0.41764048 -0.1874361
0.45263055 -0.38709497 -0.20534611
0.45338887 -0.35908619 -0.19877875
0.4541499 -0.3309783 -0.19218802
0.48150146 -0.24414575 -0.20327163
0.48196682 -0.21571809 -0.19949329
0.48235533 -0.18720326 -0.19633889
0.4826718 -0.15861744 -0.19376934
0.48288995 -0.12996757 -0.19199824
0.48307711 -0.10128443 -0.19047868
0.48323581 -0.072574444 -0.18919027
0.48330864 -0.043839201 -0.18859875
0.48338675 -0.015094999 -0.18796444
0.48336071 0.013652544 -0.18817616
0.4833217 0.042395286 -0.18849301
0.48322278 0.071121909 -0.18929601
0.48307452 0.099823691 -0.19049978
0.48290813 0.1285014 -0.19185066
0.48265362 0.15712519 -0.19391692
0.48237345 0.18570597 -0.19619167
0.48195386 0.21418211 -0.19959831
0.48148337 0.24257711 -0.20341814
0.45473036 0.30121419 -0.18716109
0.45415232 0.3295072 -0.19216692
0.45343015 0.3575981 -0.19842124
0.45259666 0.38548887 -0.20563936
0.42596132 0.41622093 -0.18728781
0.42505619 0.44394097 -0.19568634
0.42398581 0.47133094 -0.2056185
0.39697215 0.50215912 -0.18963397
0.39582786 0.52922308 -0.20106828
0.36842322 0.55994409 -0.18760514
0.36717567 0.58651274 -0.20111036
0.33954957 0.61720467 -0.18904233
0.33827189 0.64327389 -0.20413089
0.31022918 0.6732955 -0.1965704
0.28206778 0.70342726 -0.18904257
0.25242093 0.75785154 -0.20375359
0.2238577 0.78673661 -0.2025584
0.19525187 0.81552339 -0.20188677
0.16657433 0.84395224 -0.20280993
0.10966102 0.87627125 -0.18737257
0.080797113 0.90326226 -0.19452786
0.05203373 0.92982495 -0.20293581
-0.0052940007 0.9604941 -0.19515991
-0.034262769 -0.96652734 -0.17729998
-0.0054967776 -0.93978536 -0.16881847
0.023399794 -0.93570983 -0.18536234
0.052242864 -0.90923005 -0.17576885
0.081211686 -0.8822732 -0.16760087
0.10967764 -0.8778733 -0.18665338
0.1386085 -0.85035807 -0.18108106
0.1674695 -0.82188529 -0.17955267
0.19631092 -0.79319501 -0.17895782
0.22508594 -0.76421499 -0.17976475
0.25367224 -0.73469633 -0.18343484
0.2833181 -0.67933059 -0.17099595
0.31160787 -0.6491527 -0.17866039
0.34073666 -0.592071 -0.17502356
0.36849943 -0.56150258 -0.18678045
0.36963266 -0.53444433 -0.17451274
0.39800441 -0.47614673 -0.17931902
0.39896119 -0.44843507 -0.16975796
0.4267675 -0.38965067 -0.17980742
0.42752412 -0.36148715 -0.17278707
0.42808995 -0.33306575 -0.16753662
0.45476702 -0.30267298 -0.18684375
0.45529038 -0.27422926 -0.1823113
0.45575613 -0.24568491 -0.17827785
0.45612204 -0.21703194 -0.17510879
0.45641476 -0.18830091 -0.1725738
0.45669061 -0.15952525 -0.17018485
0.45680892 -0.13067065 -0.16916037
0.45680892 -0.10177674 -0.16916013
0.45680892 -0.072882883 -0.16916013
0.4568114 -0.043989088 -0.16913879
0.4568114 -0.015094941 -0.16913879
0.4568114 0.013799032 -0.16913879
0.45680892 0.042692825 -0.16916025
0.45680892 0.071586855 -0.16916013
0.45680892 0.10048088 -0.16916013
0.45680892 0.1293747 -0.16916037
0.45668811 0.15822038 -0.17020643
0.4564369 0.18698902 -0.172382
0.45609745 0.21567719 -0.17532158
0.45576102 0.24432179 -0.17823529
0.45529526 0.27283555 -0.18226886
0.42811069 0.33180007 -0.16734409
0.42748737 0.36012927 -0.17312789
0.42675149 0.3882567 -0.17995596
0.39890781 0.44706863 -0.17029166
0.39797467 0.47473377 -0.17961621
0.36961105 0.53307271 -0.17474675
0.34076008 0.5907746 -0.17474699
0.31153756 0.64762199 -0.17957366
0.28332105 0.67802846 -0.17095315
0.25368789 0.7333414 -0.18318033
0.22503787 0.76265192 -0.18065643
0.19632368 0.79188311 -0.17868173
0.16750303 0.82070374 -0.17868161
0.13856605 0.84865212 -0.18245959
0.052250892 0.90814024 -0.17472541
-0.0054885596 0.93822056 -0.16988611
0.023399794 0.9340741 -0.18620896
-0.034262769 0.96516865 -0.1773001
-0.063510478 -0.97110772 -0.1592685
-0.034623794 -0.94347233 -0.15385067
0.023399794 -0.91384447 -0.15643251
0.052453913 -0.88671851 -0.14835274
0.11025754 -0.85471988 -0.16154242
0.13934828 -0.82673436 -0.15705585
0.16836685 -0.79791701 -0.15623891
0.19729871 -0.76865697 -0.15757155
0.22618812 -0.73933899 -0.15931129
0.25483045 -0.709387 -0.16462743
0.28443885 -0.65319043 -0.15481925
0.31279197 -0.62281847 -0.16327858
0.31382966 -0.5959546 -0.14979875
0.34186187 -0.56516576 -0.16173542
0.34285986 -0.53784788 -0.14994979
0.37059328 -0.50695235 -0.16411376
0.37151149 -0.47924381 -0.15417349
0.39973617 -0.42038023 -0.16201401
0.40043038 -0.39212549 -0.15507758
0.40104717 -0.36369252 -0.14891386
0.42865741 -0.30456454 -0.16227138
0.4290852 -0.27589273 -0.15830195
0.42944199 -0.24711901 -0.15499139
0.42971581 -0.21825291 -0.1524508
0.42971581 -0.18923046 -0.1524508
0.42971581 -0.16020775 -0.1524508
0.42971581 -0.13118517 -0.1524508
0.42971581 -0.10216264 -0.15245068
0.42971581 -0.073139995 -0.1524508
0.42971814 -0.044117764 -0.1524291
0.42971814 -0.015094999 -0.15242922
0.42971814 0.013927706 -0.15242934
0.42971581 0.042950235 -0.1524508
0.42971581 0.071972817 -0.15245068
0.42971346 0.10099453 -0.15247214
0.42971346 0.130017 -0.15247214
0.42971581 0.15904041 -0.15245068
0.42971814 0.18806417 -0.15242934
0.42971814 0.21708687 -0.15242934
0.42946056 0.24594417 -0.15481913
0.42905742 0.27466071 -0.15855968
0.42865512 0.30332002 -0.1622926
0.40104285 0.36254796 -0.14895725
0.40045622 0.39096588 -0.15481937
0.3997426 0.41914681 -0.16194975
0.37153736 0.47809988 -0.15389371
0.37062097 0.50573671 -0.16381395
0.3428416 0.536668 -0.15016544
0.34186009 0.56392378 -0.16175687
0.31382301 0.59479386 -0.14988506
0.3127557 0.62148809 -0.16374969
0.28443736 0.65200108 -0.15484071
0.25484893 0.70818353 -0.16432786
0.22614765 0.73796833 -0.16006231
0.19731261 0.76751274 -0.15727079
0.16838506 0.79682255 -0.15576565
0.13930726 0.82523429 -0.15838778
0.11024962 0.85340327 -0.1618855
0.05245541 0.88562912 -0.14815819
0.081222877 0.8811627 -0.16687381
0.023399794 0.91221768 -0.1581732
-0.034630753 0.94240916 -0.15339839
-0.063510969 0.96989357 -0.1592468
-0.093041845 -0.97573835 -0.14104033
-0.063983023 -0.94717818 -0.13880658
-0.0057104472 -0.91751254 -0.1410619
0.023399794 -0.89092249 -0.13014925
0.081602596 -0.85903555 -0.14221048
0.11080517 -0.83087826 -0.13782966
0.14004068 -0.80242097 -0.13456988
0.16917913 -0.7731474 -0.13513529
0.1982276 -0.7435441 -0.13746047
0.22719136 -0.71380883 -0.14069343
0.25591922 -0.68358827 -0.14694858
0.2569162 -0.65726501 -0.1307596
0.28549263 -0.62664479 -0.13960922
0.31480455 -0.56876397 -0.13713467
0.34379613 -0.51025295 -0.13889313
0.34457162 -0.48225388 -0.12973511
0.37231073 -0.4512336 -0.145522
0.37302732 -0.42299372 -0.13776445
0.37364823 -0.39453071 -0.13104308
0.40159667 -0.33510774 -0.1434232
0.40200004 -0.30632588 -0.13939226
0.40238035 -0.27746612 -0.13559163
0.40238035 -0.24831374 -0.13559186
0.40238035 -0.2191615 -0.13559186
0.4023782 -0.19000806 -0.13561368
0.40238035 -0.16085668 -0.13559175
0.40238035 -0.13170426 -0.13559186
0.40238035 -0.102552 -0.13559175
0.40238035 -0.073399626 -0.13559186
0.40238035 -0.044247195 -0.13559186
0.40238255 -0.015094882 -0.13557017
0.40238035 0.014057491 -0.13559186
0.40238035 0.043209687 -0.13559186
0.4023782 0.072361588 -0.13561368
0.4023782 0.10151385 -0.13561368
0.4023782 0.13066599 -0.13561368
0.40238035 0.15981925 -0.13559163
0.40238035 0.18897144 -0.13559163
0.40238255 0.21812512 -0.13557005
0.40238255 0.24727765 -0.13557017
0.40238035 0.27642861 -0.13559186
0.40201306 0.30527022 -0.13926196
0.40156847 0.33398372 -0.14370453
0.37362811 0.39350483 -0.13126075
0.37300929 0.4219169 -0.13795972
0.37231272 0.45012224 -0.14550042
0.34454575 0.48122153 -0.13004029
0.34376854 0.50914478 -0.13921845
0.31482297 0.56775135 -0.13689566
0.28548211 0.62555075 -0.13976097
0.25695109 0.6563651 -0.13019288
0.25594184 0.6825313 -0.14658105
0.22714931 0.71258181 -0.14147365
0.19824165 0.74255311 -0.13715625
0.1691875 0.77215862 -0.13491762
0.14001054 0.80118042 -0.13554823
0.11080416 0.82981396 -0.13787293
0.081619948 0.85820729 -0.1410836
0.023399794 0.88965631 -0.13128257
-0.0057072788 0.91633141 -0.14147365
-0.064010598 0.94641942 -0.13761234
-0.093041174 0.97465318 -0.1410619
-0.12285983 -0.98040837 -0.12265682
-0.12327548 -0.95381689 -0.11185753
-0.093577586 -0.95091403 -0.12364137
-0.064645559 -0.9248969 -0.11011779
-0.035057925 -0.92118961 -0.12565315
-0.0059156194 -0.89455736 -0.11440933
0.052651551 -0.86339575 -0.12267888
0.08196909 -0.83506495 -0.11840582
0.11132573 -0.80642843 -0.11528838
0.14068583 -0.77745408 -0.11361754
0.1699405 -0.74779838 -0.1153543
0.19909756 -0.71788603 -0.11862528
0.22811611 -0.68773425 -0.12353206
0.25780538 -0.63040966 -0.11632085
0.28646559 -0.59968561 -0.12556565
0.28731319 -0.57224536 -0.11333191
0.31568336 -0.54120535 -0.12571871
0.31644738 -0.5132758 -0.1157937
0.34525627 -0.45399019 -0.12164962
0.34584701 -0.4254823 -0.11467314
0.34636712 -0.39678356 -0.108531
0.37414008 -0.36583525 -0.12571859
0.37457258 -0.33700329 -0.12103653
0.37479937 -0.30792785 -0.11858141
0.37479937 -0.27864468 -0.11858141
0.37479937 -0.24936125 -0.11858141
0.37479734 -0.2200768 -0.11860335
0.37479734 -0.19079363 -0.11860347
0.37479734 -0.1615106 -0.11860347
0.37479937 -0.13222821 -0.1185813
0.37479937 -0.10294488 -0.1185813
0.37479937 -0.073661432 -0.11858141
0.37479937 -0.044378273 -0.11858141
0.37479937 -0.015094941 -0.11858141
0.37479937 0.014188392 -0.11858141
0.37479937 0.043471724 -0.1185813
0.37479734 0.072754405 -0.11860347
0.37479734 0.10203768 -0.11860335
0.37479734 0.13132067 -0.11860323
0.37479937 0.16060482 -0.11858141
0.37479937 0.18988815 -0.11858141
0.3748014 0.21917289 -0.11855936
0.37479937 0.24845463 -0.11858141
0.37479937 0.27773809 -0.11858141
0.37479734 0.30701938 -0.11860335
0.37457055 0.33607566 -0.12105834
0.37416026 0.36489555 -0.12549984
0.3463634 0.3959496 -0.10857499
0.34586564 0.42463112 -0.11445332
0.34526923 0.45307878 -0.12149656
0.31646597 0.51242417 -0.11555219
0.31572035 0.54031414 -0.1252377
0.28728271 0.57131159 -0.11377168
0.28644288 0.59867233 -0.12589324
0.25784731 0.62963575 -0.11563993
0.22808075 0.68666834 -0.1241883
0.19911174 0.71703821 -0.11831808
0.16994219 0.74692559 -0.11531043
0.14065874 0.77640283 -0.11449718
0.11132979 0.80558503 -0.11511266
0.08198835 0.83443904 -0.11715496
0.052647337 0.86233139 -0.12322569
-0.0059169736 0.8937248 -0.11423349
-0.064644538 0.92404455 -0.11016202
-0.035073742 0.92048168 -0.12462556
-0.12324669 0.95277178 -0.11260593
-0.093531132 0.94958514 -0.1251502
-0.12285814 0.97945899 -0.12270057
-0.15313058 -0.95659024 -0.10059869
-0.094435267 -0.92831683 -0.095787287
-0.035475388 -0.89822263 -0.09853828
-0.0061077513 -0.87081373 -0.089450717
0.023399794 -0.86724877 -0.1054194
0.052835509 -0.83929503 -0.098781705
0.082317322 -0.81048155 -0.095787525
0.11181404 -0.7813518 -0.094143987
0.1412793 -0.7518419 -0.094344139
0.17065689 -0.72192895 -0.096741796
0.19987395 -0.69157916 -0.10181606
0.22898152 -0.66120881 -0.10747242
0.22976437 -0.63418859 -0.092944145
0.25863871 -0.60319227 -0.10278928
0.25938752 -0.5755657 -0.090630651
0.2881003 -0.544496 -0.10197067
0.28876421 -0.51633877 -0.092388272
0.31716952 -0.48512653 -0.10641301
0.31775522 -0.45662817 -0.098804116
0.31827995 -0.4279272 -0.091987848
0.34681773 -0.3679145 -0.1032095
0.34696949 -0.33866468 -0.10141742
0.34696761 -0.30924746 -0.1014396
0.34696949 -0.27983379 -0.10141742
0.34696949 -0.25041828 -0.10141742
0.34696761 -0.22100171 -0.10143948
0.34696761 -0.19158642 -0.10143971
0.34696761 -0.16217114 -0.10143971
0.34696761 -0.13275596 -0.1014396
0.34696761 -0.10334069 -0.1014396
0.34696949 -0.073925808 -0.10141742
0.34696949 -0.044510283 -0.10141754
0.34696949 -0.015094999 -0.10141742
0.34696949 0.01432058 -0.10141742
0.34696761 0.043735571 -0.1014396
0.34696761 0.073150858 -0.1014396
0.34696761 0.10256615 -0.1014396
0.34696761 0.13198127 -0.1014396
0.34696761 0.16139655 -0.10143948
0.34696949 0.19081306 -0.10141742
0.34696949 0.22022852 -0.10141766
0.34696949 0.24964392 -0.10141742
0.34696761 0.27905759 -0.10143971
0.34696761 0.30847287 -0.10143948
0.34696761 0.33788815 -0.10143948
0.34679714 0.367102 -0.10345268
0.31826797 0.42720747 -0.092143536
0.31774157 0.455852 -0.09898138
0.31716952 0.48431361 -0.10641277
0.28875187 0.51560932 -0.092566133
0.28806657 0.54364604 -0.10245764
0.25940394 0.57491535 -0.090363503
0.25866461 0.60247517 -0.10236907
0.22972964 0.63337022 -0.09358871
0.22895181 0.6602903 -0.10802388
0.19988622 0.69085073 -0.10155034
0.17065348 0.72117347 -0.096830606
0.14126015 0.75099748 -0.094965935
0.11182071 0.78069317 -0.093855262
0.082326554 0.80987972 -0.095188022
0.052826982 0.83829355 -0.099889755
0.023399794 0.86628532 -0.10610378
-0.0061125532 0.87027538 -0.088826895
-0.035495192 0.89777714 -0.097251892
-0.094396316 0.92727393 -0.097052455
-0.15315923 0.95597959 -0.099978328
-0.18337528 -0.9603526 -0.085325837
-0.15442348 -0.93384844 -0.072606683
-0.12434653 -0.9311223 -0.084030867
-0.095230751 -0.90482396 -0.06995368
-0.065278962 -0.90188259 -0.082690477
-0.035862871 -0.87440366 -0.073370457
0.023399794 -0.84286445 -0.082221031
0.053006254 -0.81446928 -0.076601744
0.082645521 -0.78528947 -0.074470282
0.11225905 -0.75558877 -0.07487452
0.14183943 -0.72573292 -0.07615304
0.17130621 -0.69546443 -0.07987237
0.20059848 -0.66482341 -0.086129427
0.20127498 -0.63765794 -0.071482778
0.23046394 -0.60670668 -0.079961896
0.26003763 -0.54753 -0.080073833
0.26063454 -0.51921892 -0.070380926
0.28933546 -0.48786944 -0.084142804
0.28986412 -0.45920217 -0.076511979
0.29027021 -0.4302268 -0.070650697
0.31869662 -0.3989808 -0.086575508
0.31888729 -0.36967981 -0.084097981
0.31888729 -0.34013128 -0.084097981
0.31888559 -0.3105807 -0.084120393
0.31888729 -0.28103375 -0.084097981
0.31888559 -0.25148368 -0.084120393
0.31888559 -0.221935 -0.084120274
0.31888559 -0.19238636 -0.084120393
0.31888559 -0.16283788 -0.084120393
0.31888559 -0.13328923 -0.084120274
0.31888559 -0.10374071 -0.084120393
0.31888559 -0.074192062 -0.084120512
0.31888729 -0.044643763 -0.084097862
0.31888729 -0.015095058 -0.084098101
0.31888559 0.014453648 -0.084120274
0.31888559 0.044002235 -0.084120274
0.31888559 0.073550768 -0.084120512
0.31888387 0.10309859 -0.084142685
0.31888387 0.13264701 -0.084142804
0.31888559 0.16219649 -0.084120393
0.31888729 0.19174629 -0.084097981
0.31888729 0.22129524 -0.084097981
0.31888729 0.25084376 -0.084097862
0.31888559 0.28039083 -0.084120274
0.31888559 0.3099393 -0.084120393
0.31888559 0.33948803 -0.084120512
0.31888559 0.36903673 -0.084120393
0.3187052 0.3983326 -0.086463928
0.29027644 0.42969954 -0.070560694
0.28987968 0.45864695 -0.076287746
0.28934476 0.48724556 -0.084008574
0.26063317 0.5186801 -0.070403457
0.26004177 0.54692972 -0.080006599
0.23043138 0.60599989 -0.080566049
0.20128225 0.63714069 -0.071325302
0.20060982 0.66421014 -0.085883856
0.17130189 0.69483513 -0.079984069
0.14182495 0.72506207 -0.076624036
0.11226942 0.75510859 -0.074425578
0.082647249 0.78474575 -0.074358106
0.05299814 0.81365883 -0.077655077
0.023399794 0.84218287 -0.082466841
-0.035867713 0.87391758 -0.073055744
-0.095211349 0.90414149 -0.070583463
-0.065251619 0.90096962 -0.083874464
-0.1544899 0.93365026 -0.071168184
-0.12434826 0.93049258 -0.083986282
-0.18337528 0.9597019 -0.085325956
-0.21408041 -0.96501577 -0.066395521
-0.21501969 -0.93897045 -0.051143408
-0.18467999 -0.93659115 -0.061113954
-0.12535313 -0.90761244 -0.05787921
-0.06584882 -0.87783152 -0.058014989
-0.0062893964 -0.84639215 -0.06585443
0.023399794 -0.81791401 -0.060028434
0.053166073 -0.78901815 -0.055840373
0.082942471 -0.75937855 -0.055182815
0.11267927 -0.7293306 -0.056678891
0.14236033 -0.69911802 -0.059236884
0.17189524 -0.66847479 -0.064568877
0.17244434 -0.64108205 -0.050302505
0.20185836 -0.60995686 -0.058852196
0.23110151 -0.57885671 -0.068130136
0.23165022 -0.55059612 -0.05794692
0.26113984 -0.49057508 -0.06217587
0.26157051 -0.46166506 -0.055182934
0.29054785 -0.40097541 -0.066643238
0.29054943 -0.37129438 -0.066621065
0.29054785 -0.34160921 -0.066643238
0.29054785 -0.3119261 -0.066643238
0.29054785 -0.28224298 -0.066643238
0.29054785 -0.25255984 -0.066643238
0.29054785 -0.22287668 -0.066643357
0.2905463 -0.19319262 -0.066665769
0.29054785 -0.16351061 -0.066643357
0.29054785 -0.13382743 -0.066643357
0.29054785 -0.1041443 -0.066643357
0.29054785 -0.074461184 -0.066643357
0.29054943 -0.044778179 -0.066620827
0.29054943 -0.015094999 -0.066620827
0.29054785 0.014588241 -0.066643238
0.29054785 0.044271365 -0.066643238
0.2905463 0.073953897 -0.066666007
0.2905463 0.1036369 -0.066665769
0.2905463 0.13331985 -0.066665769
0.29054785 0.16300374 -0.066643357
0.29054943 0.19268803 -0.066620946
0.29054943 0.22237132 -0.066620827
0.29054943 0.25205463 -0.066621065
0.29054785 0.28173617 -0.066643476
0.2905463 0.31141746 -0.066665769
0.29054785 0.34110254 -0.066643357
0.29054785 0.37078559 -0.066643357
0.29054943 0.400471 -0.066620827
0.26155654 0.4612186 -0.055409551
0.26113012 0.49008197 -0.062333822
0.23164412 0.55013973 -0.058060169
0.23108327 0.57828647 -0.068467975
0.20186044 0.60951734 -0.058806896
0.17244172 0.64068949 -0.050370455
0.17189176 0.66796798 -0.064658999
0.14234848 0.69859713 -0.059621572
0.11269078 0.72899669 -0.056180239
0.082939334 0.75891906 -0.05538702
0.053159967 0.78842962 -0.056633353
0.023399794 0.8174727 -0.059960723
-0.036224321 0.84945476 -0.049893379
-0.0062966868 0.84610307 -0.064907193
-0.065820605 0.87710905 -0.059237003
-0.12538014 0.90734059 -0.057176948
-0.21494137 0.93826991 -0.052415133
-0.18465927 0.93603218 -0.061498046
-0.21407904 0.9645052 -0.066417813
-0.24537101 -0.94086099 -0.043220997
-0.18616173 -0.91321588 -0.033615947
-0.15566596 -0.91042376 -0.045705914
-0.12633026 -0.88352925 -0.032492518
-0.095990017 -0.88067096 -0.045295835
-0.066383712 -0.85307419 -0.034853935
-0.036232375 -0.84994537 -0.049370289
-0.006463103 -0.82139301 -0.043289423
0.023399794 -0.79237127 -0.039087534
0.053311057 -0.76287639 -0.037006259
0.083222322 -0.73296535 -0.037005901
0.11307391 -0.70259655 -0.039590359
0.14282399 -0.67192799 -0.044178724
0.14325593 -0.64433962 -0.030151367
0.17293499 -0.61323571 -0.037555337
0.20239404 -0.58190995 -0.047254443
0.20288324 -0.55354536 -0.036662698
0.232132 -0.52201599 -0.049006343
0.23257044 -0.49319929 -0.040869951
0.23291191 -0.46404949 -0.034532785
0.23308988 -0.43447506 -0.031230569
0.26193967 -0.43253982 -0.049188256
0.23309113 -0.40452164 -0.031207561
0.26195088 -0.40274045 -0.049006581
0.23309113 -0.37456572 -0.031207561
0.26195228 -0.37292367 -0.048983693
0.23309113 -0.34460989 -0.031207442
0.26195088 -0.3431026 -0.049006581
0.23309113 -0.31465396 -0.031207442
0.26195088 -0.31328383 -0.049006343
0.23309113 -0.28469807 -0.031207442
0.26195088 -0.28346485 -0.049006462
0.23309113 -0.25474215 -0.031207442
0.26195088 -0.25364602 -0.049006343
0.23308988 -0.22478503 -0.03123045
0.26195088 -0.22382712 -0.049006462
0.23308988 -0.19482933 -0.03123045
0.26194948 -0.19400725 -0.049029112
0.23308988 -0.16487357 -0.03123045
0.26195088 -0.16418941 -0.049006581
0.23309113 -0.13491845 -0.031207561
0.26195088 -0.13437048 -0.049006343
0.23309113 -0.1049627 -0.031207442
0.26195088 -0.1045516 -0.049006462
0.23309113 -0.075006761 -0.031207323
0.26195088 -0.074732594 -0.049006581
0.23309113 -0.045050822 -0.031207442
0.26195088 -0.04491394 -0.049006462
0.26195228 -0.015094999 -0.048983693
0.23309113 -0.015094882 -0.031207442
0.23309113 0.014861057 -0.031207442
0.26195088 0.014724003 -0.049006343
0.23308988 0.044816464 -0.03123045
0.26195088 0.044542775 -0.049006581
0.23308988 0.074772224 -0.03123045
0.26194948 0.074361183 -0.04902935
0.23308988 0.10472799 -0.03123045
0.26194948 0.1041799 -0.04902935
0.23308988 0.13468376 -0.03123045
0.26194948 0.13399856 -0.049029231
0.23308988 0.1646394 -0.03123045
0.26195088 0.16381831 -0.049006581
0.23309113 0.19459645 -0.031207442
0.26195088 0.19363727 -0.049006343
0.23309234 0.22455367 -0.031184554
0.26195228 0.22345774 -0.048983693
0.23309113 0.25450832 -0.031207442
0.26195228 0.25327656 -0.048983574
0.23308988 0.28446239 -0.03123033
0.26195088 0.28309387 -0.049006462
0.23308988 0.31441811 -0.03123045
0.26194948 0.31291097 -0.049029231
0.23308988 0.34437367 -0.03123045
0.26194948 0.34272969 -0.049029231
0.23309113 0.37433171 -0.031207442
0.26195088 0.37255064 -0.049006581
0.23309234 0.40429023 -0.031184673
0.26195228 0.40237197 -0.048983574
0.23309113 0.43424341 -0.031207442
0.26193827 0.43216473 -0.049211264
0.23291685 0.46380115 -0.034441233
0.23258153 0.49291772 -0.040664196
0.23213689 0.52165753 -0.048915386
0.20288007 0.55325919 -0.036731362
0.202393 0.58154905 -0.047277093
0.17293236 0.61294162 -0.037623763
0.14325027 0.64408255 -0.030335069
0.14281558 0.67154586 -0.04445231
0.11308552 0.70239085 -0.039087534
0.083215632 0.73260283 -0.037440777
0.053307537 0.76250631 -0.037463665
0.023399794 0.79214782 -0.038744569
-0.0064692497 0.8212384 -0.042490721
-0.066368893 0.85266912 -0.035494924
-0.12637529 0.88355553 -0.031322241
-0.095989309 0.88032323 -0.045318484
-0.18607774 0.91259128 -0.03517437
-0.15569332 0.91021949 -0.045113087
-0.24536628 0.94051784 -0.043289185
-0.27640858 -0.94450086 -0.027968645
-0.24720734 -0.91711879 -0.016715884
-0.21664387 -0.91525865 -0.024769902
-0.15687047 -0.88640118 -0.019627571
-0.096724242 -0.85596335 -0.021450639
-0.066897735 -0.82777268 -0.012595654
-0.036584899 -0.82488823 -0.026473403
-0.0066255331 -0.79575348 -0.02218914
0.023399794 -0.76616776 -0.019904494
0.053448752 -0.73627001 -0.019119382
0.083485261 -0.70607775 -0.01992774
0.11342043 -0.67524612 -0.024585724
0.11374284 -0.6474961 -0.010624886
0.14365397 -0.61636585 -0.017224669
0.17336419 -0.58495957 -0.026404381
0.17375489 -0.5563733 -0.016253471
0.20328058 -0.52475709 -0.028060317
0.20363595 -0.49572465 -0.02036643
0.20394243 -0.46645147 -0.013730764
0.20396383 -0.43641108 -0.013267517
0.20396383 -0.40631694 -0.013267517
0.2039649 -0.37622511 -0.013244033
0.2039649 -0.34613088 -0.01324439
0.20396383 -0.31603497 -0.013267517
0.2039649 -0.28594249 -0.013244271
0.2039649 -0.25584841 -0.013244271
0.20396383 -0.22575295 -0.013267517
0.20396383 -0.19565897 -0.013267279
0.20396383 -0.16556498 -0.013267517
0.20396383 -0.13547088 -0.013267398
0.20396383 -0.10537708 -0.013267398
0.2039649 -0.075283378 -0.013244271
0.2039649 -0.045189161 -0.013244271
0.2039649 -0.015094941 -0.013244271
0.20396383 0.014999045 -0.013267517
0.20396383 0.045093209 -0.013267517
0.20396383 0.075187132 -0.013267279
0.20396276 0.10528024 -0.013290524
0.20396383 0.13537499 -0.013267398
0.20396383 0.16546904 -0.013267398
0.2039649 0.19556437 -0.013244271
0.2039649 0.2256586 -0.013244271
0.2039649 0.2557528 -0.013244271
0.20396383 0.28584516 -0.013267517
0.20396383 0.31593904 -0.013267279
0.20396383 0.34603325 -0.013267279
0.2039649 0.37612939 -0.013244271
0.2039649 0.40622362 -0.013244271
0.2039649 0.43631783 -0.013244152
0.20393068 0.46632078 -0.013985395
0.20362848 0.49555296 -0.02052784
0.20327634 0.5245347 -0.028152347
0.17375846 0.5562678 -0.016160846
0.17336419 0.58476257 -0.026404381
0.14364755 0.61620575 -0.01743269
0.11375463 0.64750707 -0.010114431
0.11343319 0.67516106 -0.024032712
0.083475672 0.70581532 -0.020550966
0.053447329 0.7360934 -0.019304395
0.023399794 0.7661317 -0.01935041
-0.0066267755 0.79562259 -0.022027373
-0.066894531 0.8276521 -0.012734532
-0.036567546 0.82444775 -0.027600408
-0.09673845 0.85590732 -0.020989418
-0.15684062 0.88610709 -0.020274043
-0.2472634 0.91718942 -0.015906334
-0.21661836 0.91497535 -0.025184393
-0.27640679 0.94428611 -0.027991414
-0.30871472 -0.92086166 -0.00050806999
-0.27789733 -0.91898626 -0.0086288452
-0.2489861 -0.89278287 0.0089582205
-0.21816817 -0.89077902 -1.8239021e-05
-0.18749069 -0.88878405 -0.0089538097
-0.15798326 -0.86154926 0.0044649839
-0.12727201 -0.85885704 -0.0080250502
-0.097413644 -0.83058566 0.00093817711
-0.067370616 -0.80177176 0.0078805685
-0.036896482 -0.79894656 -0.0062355995
-0.0067757498 -0.76948369 -0.0026751757
0.023399794 -0.73948443 -0.0017199516
0.053578924 -0.70921499 -0.002209425
0.083716117 -0.67857444 -0.0049333572
0.083927102 -0.65063173 0.0087708235
0.11404167 -0.61937428 0.0023155212
0.1439909 -0.58790272 -0.0062822104
0.14429736 -0.55913395 0.0036700964
0.1740886 -0.52743679 -0.0075836182
0.17436633 -0.49818772 -0.00036799908
0.17456764 -0.46859848 0.0048621893
0.17456764 -0.43836492 0.0048624277
0.17456764 -0.40813142 0.0048623085
0.17456855 -0.37789991 0.0048856735
0.17456855 -0.34766611 0.0048857927
0.17456764 -0.31743059 0.0048624277
0.17456855 -0.28719872 0.0048857927
0.17456764 -0.2569634 0.0048621893
0.17456764 -0.22672997 0.0048623085
0.17456764 -0.1964964 0.0048623085
0.17456764 -0.16626273 0.0048621893
0.17456764 -0.13602917 0.0048620701
0.17456764 -0.10579573 0.0048623085
0.17456764 -0.075562112 0.0048623085
0.17456855 -0.045328677 0.0048857927
0.17456855 -0.015094999 0.0048857927
0.17456764 0.015138559 0.0048623085
0.17456764 0.045372233 0.0048623085
0.17456764 0.075605735 0.0048623085
0.17456675 0.10583864 0.0048390627
0.17456675 0.13607204 0.0048388243
0.17456764 0.16630653 0.0048623085
0.17456855 0.19654132 0.0048857927
0.17456855 0.22677486 0.0048857927
0.17456855 0.25700879 0.0048857927
0.17456764 0.28724065 0.0048623085
0.17456764 0.31747431 0.0048623085
0.17456675 0.34770566 0.0048388243
0.17456764 0.37794143 0.0048621893
0.17456855 0.4081777 0.0048857927
0.17456855 0.43841124 0.0048857927
0.17456675 0.46863928 0.0048388243
0.17437349 0.49821579 -0.00018155575
0.17409754 0.527417 -0.0073513985
0.14429304 0.55914795 0.0035301447
0.14398518 0.58783197 -0.0064680576
0.11404923 0.61945105 0.0026423931
0.083919533 0.65062231 0.0082788467
0.083705731 0.67842329 -0.005607605
0.053578924 0.70920426 -0.002209425
0.023399794 0.73961657 -0.00099742413
-0.0067727007 0.76938993 -0.0030713081
-0.067377105 0.80189729 0.0081617832
-0.036884665 0.79874527 -0.0070025921
-0.097444549 0.83081561 0.0019416809
-0.15792497 0.86130792 0.0032029152
-0.12728542 0.85887933 -0.0076764822
-0.1874444 0.88852298 -0.0098127127
-0.21818827 0.8908605 0.00030839443
-0.30859628 0.9205305 -0.0019065142
-0.27795812 0.91911459 -0.0078390837
-0.33999145 -0.92357302 0.011232257
-0.3108409 -0.89627492 0.024600863
-0.27994719 -0.8948012 0.017999411
-0.21965961 -0.86580282 0.024199367
-0.18874413 -0.86367053 0.014307261
-0.15898968 -0.83584756 0.026254654
-0.12814243 -0.83342296 0.014589429
-0.098065242 -0.80461752 0.022099137
-0.06782607 -0.77531046 0.027602553
-0.03719034 -0.77247161 0.012851357
-0.0069182422 -0.74272794 0.015835166
0.023399794 -0.71233493 0.015412092
0.053693958 -0.68156654 0.012734175
0.053800955 -0.65351933 0.026632905
0.084123231 -0.62232929 0.021509647
0.11429422 -0.59075969 0.01325047
0.1145209 -0.56182164 0.02306664
0.14457066 -0.53007108 0.012546182
0.14478499 -0.50063568 0.019506216
0.14489752 -0.47071135 0.023160934
0.14489679 -0.44033447 0.023137212
0.14489752 -0.40996251 0.023160934
0.14489824 -0.37959018 0.023184299
0.14489752 -0.3492136 0.023160934
0.14489752 -0.31883919 0.023160934
0.14489824 -0.28846639 0.023184538
0.14489752 -0.25809035 0.023160934
0.14489752 -0.22771581 0.023160934
0.14489679 -0.19734046 0.02313745
0.14489752 -0.16696709 0.023160934
0.14489752 -0.13659267 0.023160934
0.14489752 -0.10621832 0.023160934
0.14489752 -0.075843833 0.023160934
0.14489824 -0.045469593 0.023184299
0.14489824 -0.015094882 0.023184299
0.14489752 0.015279479 0.023160934
0.14489752 0.045653895 0.023160934
0.14489679 0.076027788 0.023137212
0.14489679 0.10640215 0.02313745
0.14489679 0.13677634 0.02313745
0.14489752 0.16715153 0.023160934
0.14489824 0.19752736 0.023184538
0.14489824 0.22790182 0.023184538
0.14489752 0.25827488 0.023160934
0.14489752 0.28864938 0.023160934
0.14489679 0.31902179 0.023137212
0.14489679 0.34939605 0.02313745
0.14489752 0.37977269 0.023160934
0.14489824 0.41014957 0.023184299
0.14489752 0.44052148 0.023160934
0.14489679 0.47089291 0.023137212
0.14477991 0.50077069 0.019341469
0.14456706 0.53015774 0.012428761
0.11452581 0.56203651 0.023278832
0.11430072 0.59091133 0.013532162
0.08411742 0.62244028 0.021132588
0.053802591 0.65376651 0.026845813
0.053694863 0.68169171 0.012851596
0.023399794 0.71253788 0.015835166
-0.0069120899 0.74270213 0.015035748
-0.06783919 0.77564287 0.028170228
-0.037184924 0.77250642 0.012499332
-0.098079041 0.80488724 0.022547483
-0.15896131 0.83592355 0.025640368
-0.12811893 0.83340997 0.01397872
-0.21971925 0.86621165 0.025167823
-0.18873526 0.8637504 0.01414299
-0.3107529 0.8962307 0.023562193
-0.27989283 0.8947829 0.017293215
-0.24908027 0.89317197 0.010317445
-0.33998927 0.92366022 0.011208773
-0.37260231 -0.89848411 0.034497261
-0.34168512 -0.89738345 0.029566646
-0.31285477 -0.87101561 0.048383594
-0.28182134 -0.86971408 0.042345405
-0.25073081 -0.86794579 0.034141541
-0.22109596 -0.84026808 0.047523379
-0.18996647 -0.83807921 0.036991477
-0.15996982 -0.80969661 0.047475457
-0.12896444 -0.80738908 0.035945773
-0.098692328 -0.7781707 0.042464495
-0.068257444 -0.74835289 0.046281219
-0.037471026 -0.74554491 0.031082869
-0.037728198 -0.71806699 0.047786355
-0.0070463829 -0.71535689 0.032480955
-0.0071612597 -0.68743807 0.047403693
0.023399794 -0.68458581 0.03056109
0.023399794 -0.65644091 0.044705987
0.053900644 -0.62511194 0.039583445
0.084291413 -0.59356529 0.032433391
0.084440723 -0.56446332 0.042131186
0.11472354 -0.53259611 0.031840801
0.11488476 -0.50301474 0.038822055
0.11494962 -0.47284406 0.041630745
0.11494908 -0.44232503 0.041606903
0.11494962 -0.4118109 0.041630745
0.11494962 -0.38129434 0.041630745
0.11494962 -0.35077778 0.041630745
0.11494962 -0.32026097 0.041630745
0.11495018 -0.28974617 0.041654706
0.11494962 -0.25922778 0.041630745
0.11494908 -0.22870988 0.041606903
0.11494908 -0.19819348 0.041607141
0.11494908 -0.16767713 0.041606903
0.11494962 -0.13716139 0.041630745
0.11494962 -0.1066447 0.041630745
0.11494962 -0.076128192 0.041630983
0.11494962 -0.045611568 0.041630745
0.11494962 -0.015094882 0.041630745
0.11494962 0.015421629 0.041630745
0.11494908 0.045937784 0.041607141
0.11494908 0.076454528 0.041606903
0.11494908 0.10697081 0.041606903
0.11494908 0.13748708 0.041606903
0.11494962 0.16800477 0.041630745
0.11494962 0.19852141 0.041630745
0.11495018 0.22903942 0.041654706
0.11494962 0.25955459 0.041630745
0.11494908 0.2900694 0.041606903
0.11494908 0.3205857 0.041606903
0.11494908 0.3511022 0.041607141
0.11494962 0.38162094 0.041630745
0.11494962 0.41213763 0.041630745
0.11494962 0.44265425 0.041630745
0.11494908 0.4731679 0.041606903
0.11488751 0.50333548 0.038940787
0.11472791 0.53287393 0.032030702
0.084438153 0.56476939 0.041964293
0.08428704 0.5937776 0.032149315
0.053902477 0.62546158 0.039821148
0.023399794 0.65675098 0.044467807
-0.0071590506 0.68775851 0.047117114
0.023399794 0.68483573 0.030608654
-0.037732609 0.71849394 0.048072934
-0.0070418194 0.71550369 0.031888366
-0.068273433 0.74884856 0.046973825
-0.037471026 0.74579042 0.03108263
-0.098679125 0.77841794 0.042035818
-0.15996982 0.81006849 0.047475696
-0.12892698 0.80746943 0.034972072
-0.22112836 0.84075361 0.048049092
-0.18998826 0.83845717 0.03739512
-0.25072426 0.86819369 0.034046292
-0.31284058 0.87135696 0.048216224
-0.28172779 0.86977512 0.041130662
-0.37271395 0.8990137 0.035613418
-0.34168729 0.89762282 0.029590368
-0.40486473 -0.90221423 0.051205993
-0.4063012 -0.87449694 0.064535022
-0.37510732 -0.87341785 0.059528947
-0.34398058 -0.87231582 0.054415822
-0.28354248 -0.84383917 0.064703822
-0.25235328 -0.84235412 0.057559133
-0.19112657 -0.81190723 0.058519959
-0.16088139 -0.78293329 0.067211747
-0.12971967 -0.78069216 0.055567145
-0.099266656 -0.75109363 0.061116338
-0.068648957 -0.72080207 0.06323421
-0.037966773 -0.69012725 0.063282371
-0.0072697792 -0.65915602 0.061501145
0.023399794 -0.62792021 0.057823539
0.053986244 -0.59623766 0.050703645
0.054062147 -0.56701726 0.060563207
0.084574908 -0.53508347 0.050846934
0.084682688 -0.5053581 0.057847381
0.084720053 -0.47499686 0.06027472
0.084719688 -0.44433424 0.060250401
0.084720053 -0.41367674 0.06027472
0.084720053 -0.3830165 0.060274482
0.084720053 -0.35235643 0.06027472
0.084719688 -0.32169443 0.060250401
0.084720425 -0.29103783 0.060298562
0.084720053 -0.26037607 0.06027472
0.084719688 -0.22971453 0.060250401
0.084719688 -0.19905457 0.060250163
0.084719688 -0.16839463 0.060250401
0.084719688 -0.13773462 0.060250401
0.084719688 -0.10707473 0.060250401
0.084720053 -0.076415189 0.06027472
0.084720053 -0.045755126 0.060274482
0.084720053 -0.015095058 0.06027472
0.084719688 0.015565127 0.060250163
0.084719688 0.046224959 0.060250401
0.084719688 0.07688491 0.060250163
0.084719315 0.10754415 0.060226321
0.084719688 0.13820487 0.060250401
0.084719688 0.16886476 0.060250401
0.084720053 0.19952606 0.06027472
0.084720053 0.23018609 0.06027472
0.084720053 0.26084638 0.06027472
0.084719688 0.29150456 0.060250163
0.084719688 0.32216445 0.060250401
0.084719688 0.35282439 0.060250401
0.084719688 0.3834843 0.060250163
0.084720053 0.41414687 0.06027472
0.084719688 0.44480425 0.060250401
0.084719688 0.47546414 0.060250401
0.084681578 0.50580031 0.05777514
0.084573805 0.53547132 0.05077517
0.054063998 0.56752491 0.060803533
0.023399794 0.59936506 0.068442702
0.053988088 0.59667099 0.05094254
0.023399794 0.62830549 0.057415128
-0.0072690379 0.65961939 0.061405063
-0.037974194 0.69070596 0.063763976
-0.068650059 0.72130382 0.063282609
-0.099238515 0.75139451 0.060202479
-0.16090146 0.78354383 0.067645907
-0.12969844 0.78101593 0.055015445
-0.19118224 0.81257868 0.059553266
-0.28351095 0.84425521 0.064294219
-0.25225511 0.84249806 0.056142926
-0.40615582 0.87469894 0.063186288
-0.37516263 0.87400579 0.060082078
-0.34406474 0.87294441 0.055327058
-0.40486473 0.90261471 0.051205754
-0.43779686 -0.8759954 0.071487069
-0.40880358 -0.84863013 0.08775413
-0.37756145 -0.84786046 0.084051967
-0.34615043 -0.84658301 0.077905297
-0.31483364 -0.84530425 0.071752906
-0.28521937 -0.8175047 0.086486697
-0.25380826 -0.81591833 0.078560472
-0.22244523 -0.81409132 0.069432616
-0.19222741 -0.78519201 0.078948379
-0.16175368 -0.75570875 0.086097121
-0.1304125 -0.75339413 0.073567748
-0.099776894 -0.7233609 0.077686667
-0.069019713 -0.69283801 0.079288602
-0.03819266 -0.66181576 0.077953935
-0.0073690061 -0.63047081 0.074390769
-0.0074563082 -0.60136092 0.085732102
0.023399794 -0.59889215 0.068853021
0.023399794 -0.5695346 0.078730226
0.023399794 -0.53990054 0.087656617
0.054130241 -0.53751254 0.069408536
0.054184262 -0.50764638 0.076426148
0.054204803 -0.47717002 0.079094529
0.054204613 -0.44636235 0.079069734
0.054204613 -0.41555756 0.079069734
0.054204803 -0.38475493 0.079094291
0.054204803 -0.35395002 0.079094529
0.054204613 -0.32314312 0.079069972
0.054204803 -0.29234001 0.079094291
0.054204803 -0.2615349 0.079094291
0.054204613 -0.23072863 0.079069972
0.054204613 -0.19992383 0.079069972
0.054204613 -0.16911915 0.079069972
0.054204613 -0.13831429 0.079069972
0.054204613 -0.10750956 0.079069972
0.054204803 -0.076704822 0.079094291
0.054204803 -0.045900028 0.079094291
0.054204803 -0.015094999 0.079094529
0.054204613 0.015709972 0.079069972
