ply
format ascii 1.0
comment PCL generated
element vertex 1333
property float x
property float y
property float z
element camera 0
property float view_px
property float view_py
property float view_pz
property float x_axisx
property float x_axisy
property float x_axisz
property float y_axisx
property float y_axisy
property float y_axisz
property float z_axisx
property float z_axisy
property float z_axisz
property float focal
property float scalex
property float scaley
property float centerx
property float centery
property int viewportx
property int viewporty
property float k1
property float k2
end_header
-0.19169474 0.23016509 -0.1859737
0.17159115 0.23036274 -0.18426216
0.19200709 0.2307395 -0.18099946
0.21247387 0.23111716 -0.17772853
0.23299272 0.23149729 -0.1744374
-0.23313484 0.25179082 -0.17420983
-0.21220686 0.25082973 -0.18201244
0.17142726 0.25022486 -0.18692362
0.19182223 0.25062591 -0.18366748
0.21226889 0.25102943 -0.18039125
0.23276566 0.25143251 -0.17711878
0.25354522 0.25214547 -0.17133033
-0.23286943 0.27168193 -0.17708284
-0.21196501 0.27066314 -0.18486863
0.19163857 0.27047339 -0.18631804
0.2120634 0.27089977 -0.18306041
0.23254007 0.27132875 -0.17978269
0.25327042 0.27204549 -0.17430568
-0.25360855 0.29261112 -0.1721468
-0.23260459 0.29152995 -0.17994976
0.21185929 0.29073137 -0.18571234
0.23231395 0.29118299 -0.18245322
0.25299507 0.291899 -0.17728603
-0.25332057 0.31247339 -0.17502445
-0.23233925 0.31133285 -0.18282235
0.23208828 0.31099698 -0.18511808
0.25272146 0.31170928 -0.18024802
0.27387673 0.31307521 -0.17090982
-0.03077149 0.029624015 -0.15412736
-0.010333919 0.029545367 -0.15617001
0.010072204 0.029466823 -0.15820938
0.030460201 0.029454671 -0.15852499
0.050898489 0.029580422 -0.15525854
-0.11245158 0.050038494 -0.15428537
-0.091952339 0.049944103 -0.15632784
-0.071484633 0.049849994 -0.15836734
-0.051048681 0.049756549 -0.16039127
-0.03064375 0.04966262 -0.16242427
-0.010270148 0.049568824 -0.16445428
0.010072204 0.049475275 -0.16648108
0.030395892 0.04945676 -0.16687876
0.050769739 0.049607247 -0.16362089
0.07119365 0.049757555 -0.16036701
0.091667898 0.049908273 -0.15710515
0.11219315 0.050059892 -0.15382308
-0.19425499 0.070543699 -0.15271503
-0.17356102 0.070340611 -0.15648586
-0.15303177 0.070230655 -0.15852493
-0.13253406 0.070121028 -0.16056091
-0.11206841 0.070012026 -0.16258138
-0.091633514 0.069902755 -0.16461122
-0.071229972 0.06979344 -0.16663772
-0.050857972 0.069685124 -0.16864914
0.071000993 0.069681861 -0.16870934
0.091410391 0.069856517 -0.16546792
0.11187047 0.070032291 -0.16220659
0.13238057 0.070207737 -0.15894926
0.15294191 0.07038445 -0.15567172
-0.21458358 0.090900771 -0.15394491
-0.19356251 0.090422474 -0.16171074
-0.17298721 0.090234153 -0.1647681
-0.15252249 0.090109445 -0.16679448
-0.13208978 0.089985572 -0.1688056
0.13199541 0.090078957 -0.16728848
0.15249078 0.090278797 -0.16404355
0.17303737 0.090479799 -0.1607787
0.19363393 0.090680681 -0.15751797
0.21428224 0.090882771 -0.15423691
-0.23501134 0.11132737 -0.15389609
-0.21391678 0.11077838 -0.16181946
-0.19294782 0.11023273 -0.16969585
0.17257936 0.11033528 -0.16821581
0.19312243 0.11056485 -0.16490084
0.21371622 0.11079433 -0.16158974
0.23436172 0.11102434 -0.15827024
-0.2347407 0.13152546 -0.1568259
-0.21367015 0.13091692 -0.16473192
0.1929353 0.13069603 -0.16760164
0.2135078 0.13095033 -0.16429722
0.2341329 0.13120624 -0.16097248
0.25521085 0.13179702 -0.15329969
-0.21342511 0.151012 -0.16762584
0.21330072 0.15106609 -0.16698724
0.23390353 0.15134603 -0.16368133
-0.23447175 0.15167999 -0.15973711
0.25493112 0.15196872 -0.15632796
-0.25535095 0.17252067 -0.15473557
-0.23420343 0.17179027 -0.162642
0.21309315 0.1711399 -0.16968375
0.23367563 0.17144567 -0.16637248
0.25465313 0.17209563 -0.15933716
-0.25505915 0.19264609 -0.15765142
-0.23393568 0.19185656 -0.1655404
0.23344718 0.19150335 -0.16907036
0.25437465 0.19217566 -0.16235173
0.2756817 0.19312418 -0.15287346
-0.27599508 0.21358192 -0.15262973
-0.25476801 0.21272719 -0.16056067
-0.23366742 0.21187755 -0.16844451
0.25409794 0.21221143 -0.16534734
0.27537858 0.21322924 -0.15590268
-0.27568033 0.23367816 -0.1555503
-0.2544775 0.23276436 -0.16346389
0.25382185 0.23220164 -0.16833621
0.27507731 0.23328984 -0.15891284
-0.27536497 0.25372866 -0.15847629
-0.25418761 0.25275755 -0.16636032
0.27477553 0.25330347 -0.16192836
-0.29633284 0.27477378 -0.15345794
-0.27505159 0.27373651 -0.16138405
-0.25389716 0.27270544 -0.16926283
0.27447566 0.27327299 -0.16492498
0.29583257 0.27450946 -0.15547734
-0.2959958 0.29479635 -0.15637666
-0.27473894 0.29370043 -0.16428512
0.27417648 0.29319757 -0.16791475
0.29550806 0.29450366 -0.15848845
-0.29565814 0.31477317 -0.15930092
-0.27442694 0.31362069 -0.16718006
0.29518428 0.31445253 -0.16149282
-0.051627748 -0.010785341 -0.13531685
-0.031029392 -0.010832857 -0.13737625
-0.010462671 -0.010880683 -0.13944471
0.010072204 -0.010928381 -0.14151007
0.030590046 -0.010931771 -0.14165759
0.051158819 -0.010855358 -0.13834935
-0.13388571 0.0097764209 -0.1354773
-0.11322462 0.0097125396 -0.13754874
-0.092596017 0.009649381 -0.13960475
-0.071998782 0.009585686 -0.14166981
-0.051433414 0.0095222443 -0.14373177
-0.030900035 0.0094591305 -0.14577818
-0.010398091 0.0093958974 -0.14783365
0.010072204 0.0093327165 -0.14988607
0.030524917 0.0093256235 -0.15011805
0.05102824 0.0094268247 -0.14683074
0.071582638 0.0095286146 -0.14352322
0.092187837 0.0096303225 -0.14021963
0.11284422 0.0097323433 -0.13690805
-0.17471866 0.030176289 -0.13977683
-0.15405993 0.030097254 -0.14182937
-0.13343233 0.030017912 -0.14389104
-0.11283717 0.02993919 -0.14593738
-0.092273168 0.029860079 -0.14799261
-0.071740903 0.029781051 -0.15004474
-0.051240586 0.029702708 -0.15208161
0.071387522 0.029706895 -0.1519717
0.091927044 0.029833242 -0.14868915
0.11251741 0.029959865 -0.14539844
0.1331594 0.030087419 -0.14208746
0.15385213 0.030214638 -0.13878018
0.17459705 0.030342728 -0.13545263
-0.21612231 0.050893545 -0.13577342
-0.1949522 0.050529331 -0.14365804
-0.17413846 0.050321899 -0.14815164
-0.15354423 0.050227046 -0.15020353
-0.13298179 0.050132424 -0.15225214
0.13276875 0.050211273 -0.15054518
0.15339591 0.050363638 -0.14724672
0.17407359 0.050515741 -0.14395237
0.19480343 0.050668828 -0.14063758
0.21558398 0.050821804 -0.13732702
-0.23657039 0.071389548 -0.1370188
-0.21534979 0.070965059 -0.14489621
0.17355347 0.070560835 -0.15239847
0.19421683 0.070738278 -0.14910465
0.21493058 0.070915617 -0.14581496
0.23571646 0.071106531 -0.14227146
-0.2569994 0.091866441 -0.13826317
-0.23572958 0.091382511 -0.14612097
0.23498075 0.091084607 -0.15095991
0.25622845 0.091618843 -0.1422838
-0.27758056 0.11243442 -0.13791841
-0.25623143 0.11187878 -0.14593738
0.25549009 0.11157814 -0.15027672
0.27689758 0.11223993 -0.14072359
-0.27726233 0.1327537 -0.14087135
-0.2559377 0.13213778 -0.14887244
0.27659288 0.13253063 -0.14376849
-0.298372 0.15370712 -0.13579798
-0.27694479 0.15302798 -0.14381748
-0.25564462 0.15235198 -0.15180123
0.27628765 0.15277395 -0.14681852
0.29779932 0.15358606 -0.13722837
-0.2980305 0.17399684 -0.13875574
-0.27662662 0.17325658 -0.1467697
0.27598432 0.17297211 -0.14984953
0.29746899 0.17385483 -0.14029354
-0.29768974 0.19424179 -0.14170671
-0.2763105 0.19344151 -0.14970303
0.29714075 0.1940783 -0.14333922
-0.31883165 0.2153056 -0.13663673
-0.29734975 0.21444181 -0.14465117
0.29681191 0.21425438 -0.14639026
0.31839964 0.21528697 -0.13680923
-0.31846759 0.23552072 -0.13959229
-0.29700908 0.23459595 -0.14760137
0.29648516 0.23438573 -0.14942223
0.31804705 0.23548952 -0.13986313
-0.29667059 0.25470692 -0.15053284
0.29615787 0.25446966 -0.1524592
-0.31810436 0.25569126 -0.14254153
0.31769523 0.25564593 -0.14290965
-0.33927849 0.27686542 -0.13747483
-0.31774193 0.27581728 -0.14548433
0.31734422 0.2757563 -0.14594954
0.33900946 0.27701062 -0.13636547
-0.33889189 0.29700613 -0.14042872
-0.31737876 0.29589704 -0.14843255
0.31699258 0.29581922 -0.14899468
0.33863321 0.29714575 -0.13942021
-0.36012411 0.31827751 -0.13534147
-0.33850622 0.31710231 -0.14337611
-0.31701791 0.31593418 -0.15136224
0.31664321 0.31583792 -0.15202057
0.33825782 0.31723499 -0.14246792
-0.052020121 -0.051787835 -0.11832649
-0.031290568 -0.051803887 -0.12041235
-0.010593056 -0.051819991 -0.12250715
0.010072204 -0.051836122 -0.12459886
0.030721553 -0.051835939 -0.12457389
0.051422492 -0.051810101 -0.12122327
-0.13480115 -0.031092949 -0.11848903
-0.11400805 -0.031125236 -0.12058711
-0.093247384 -0.031157445 -0.12268162
-0.072519451 -0.031189471 -0.12476045
-0.051823311 -0.03122168 -0.12684864
-0.031159565 -0.031253479 -0.12892121
-0.010527656 -0.031285562 -0.13100272
0.010072204 -0.031317562 -0.1330812
0.030655589 -0.031318538 -0.13314295
0.051290236 -0.031267323 -0.12981361
0.071976326 -0.031215876 -0.12647587
0.092714444 -0.031164225 -0.12311757
0.11350412 -0.03111247 -0.1197632
-0.17589183 -0.010497235 -0.12284362
-0.15510038 -0.010545574 -0.12493473
-0.13434197 -0.0105935 -0.12701005
-0.11361509 -0.010641661 -0.12909472
-0.092920914 -0.010689434 -0.13116372
-0.072258294 -0.010737438 -0.13324201
0.071778998 -0.010778509 -0.13502061
0.092450306 -0.010701686 -0.13169599
0.11317311 -0.010624785 -0.12836301
0.13394763 -0.010547601 -0.12502176
0.1547747 -0.010469984 -0.12165958
0.17565328 -0.010392439 -0.11830163
-0.19636098 0.010088027 -0.12535757
-0.17530338 0.0099038184 -0.13133711
-0.15457889 0.0098401904 -0.13340259
0.13355196 0.0098345205 -0.1335879
0.15431194 0.0099374652 -0.13024735
0.17512308 0.010040201 -0.12691081
0.19598706 0.010143556 -0.1235534
0.21690241 0.010246761 -0.12020004
-0.21689907 0.030683406 -0.12660021
-0.19565418 0.030377865 -0.13453907
0.19539292 0.030470662 -0.13212901
0.21624155 0.030599445 -0.12878478
0.23731941 0.030808933 -0.12334174
-0.23826939 0.030990422 -0.11862659
-0.2588383 0.051627204 -0.11988807
-0.23741698 0.051259369 -0.12785435
0.23651457 0.051028773 -0.13284636
0.25797707 0.051467165 -0.12335426
-0.27938923 0.072245397 -0.12113589
-0.25791568 0.071815915 -0.12910718
0.25709909 0.071613677 -0.13285869
0.27863458 0.072125189 -0.12336659
-0.29991966 0.092843749 -0.1223951
-0.27839527 0.092353277 -0.13035893
0.27768466 0.092199348 -0.13285869
0.29929188 0.092782982 -0.12337905
-0.32066715 0.11355557 -0.1217345
-0.29905874 0.11299329 -0.12985086
0.29845959 0.11290664 -0.13110185
0.32017919 0.11357894 -0.12139791
-0.320299 0.13399675 -0.12472314
-0.29871571 0.13337335 -0.13282162
0.29812905 0.13326961 -0.13416862
0.31982109 0.13401395 -0.12449938
-0.34161919 0.15507972 -0.11958843
-0.3199302 0.15439138 -0.12771779
0.31946519 0.15440288 -0.12758118
-0.34122744 0.17549098 -0.1225819
-0.31956369 0.17474157 -0.13069314
0.31910872 0.17474401 -0.13066846
0.34090525 0.17563945 -0.12097359
-0.34083492 0.19585547 -0.12558126
-0.31919801 0.19504681 -0.1336621
0.31875449 0.19503933 -0.13373625
0.34052464 0.19600722 -0.12406379
-0.36218929 0.21705145 -0.12043726
-0.34044492 0.21617591 -0.1285615
0.34014493 0.21632838 -0.12714666
-0.36177477 0.23738715 -0.12342888
-0.34005576 0.23645124 -0.13153517
0.33976457 0.23660126 -0.13023484
0.36164108 0.23772255 -0.12052464
-0.3831847 0.25867841 -0.11828899
-0.36135942 0.25767621 -0.1264264
-0.3396675 0.25668144 -0.13450211
0.33938658 0.25682917 -0.13330376
0.36123657 0.25802234 -0.12361574
-0.38274643 0.27898395 -0.1212855
-0.36094674 0.2779215 -0.12940478
0.36083135 0.27827382 -0.12671196
-0.38230911 0.29924428 -0.12427545
-0.36053497 0.2981219 -0.13237631
0.36042869 0.29848042 -0.12978894
0.38238385 0.29982647 -0.12007535
-0.40375158 0.32064733 -0.11913866
-0.38187099 0.31945792 -0.12727088
0.36002696 0.31864059 -0.13285857
0.38195542 0.32005814 -0.12316751
-0.052417517 -0.093315221 -0.1011188
-0.031554893 -0.093298785 -0.10324407
-0.010725108 -0.093282521 -0.10535312
0.010072204 -0.093266241 -0.10747159
0.030854762 -0.093267858 -0.10727
0.051689573 -0.09329398 -0.10387582
-0.073046386 -0.072485365 -0.1076479
-0.052218184 -0.072485313 -0.10975015
-0.031422213 -0.072485313 -0.11186177
-0.010658872 -0.072485313 -0.11395752
0.010072204 -0.072485365 -0.11606246
0.07237538 -0.072485313 -0.10919666
0.093247853 -0.072485365 -0.10579467
-0.1357276 -0.072485261 -0.10129613
-0.1148015 -0.072485261 -0.10340834
-0.093907565 -0.072485209 -0.1055299
0.030787945 -0.072485209 -0.11594987
0.051555604 -0.072485261 -0.11257756
0.11417255 -0.072485209 -0.10239691
-0.17709139 -0.051689435 -0.10552973
-0.15615489 -0.051706925 -0.10781163
-0.13526256 -0.051723108 -0.10992634
-0.11440351 -0.051739343 -0.11202508
-0.093576424 -0.051755574 -0.114133
-0.072782278 -0.051771652 -0.11622518
0.072175212 -0.05178424 -0.11786407
0.092980288 -0.051758271 -0.11448395
0.11383726 -0.05173225 -0.11110806
0.1347466 -0.05170621 -0.10772353
0.15570849 -0.051680189 -0.10433054
0.17672393 -0.051653836 -0.10091621
-0.19779024 -0.030912798 -0.10679102
-0.17648403 -0.031028353 -0.11429608
-0.15562595 -0.03106074 -0.11640048
0.13434583 -0.03106074 -0.11640048
0.15523976 -0.03100891 -0.11302918
0.17618687 -0.030956589 -0.10963702
0.19718598 -0.030904397 -0.10624892
0.21823883 -0.030851949 -0.10283947
-0.21846873 -0.010155987 -0.10806358
-0.19707362 -0.010341559 -0.11610007
0.19658501 -0.010314409 -0.11492264
0.21756846 -0.010236457 -0.11154777
0.23894528 -0.010065343 -0.104141
-0.26070392 0.010830447 -0.1012454
-0.2391277 0.010581307 -0.10933495
-0.21768117 0.01033406 -0.11736393
0.23812892 0.010444351 -0.11378181
0.25975075 0.010740884 -0.10415375
-0.28139514 0.031610221 -0.10252333
-0.25976726 0.031299174 -0.11060536
0.25886133 0.031176865 -0.11378193
0.28055602 0.03154701 -0.10416645
-0.3020668 0.05237034 -0.1038
-0.28038871 0.051998019 -0.11186177
0.27959251 0.051908784 -0.11379445
0.30136111 0.052352771 -0.10417902
-0.32271901 0.073110737 -0.10507542
-0.30098954 0.072676875 -0.11312968
0.30032349 0.072640352 -0.11380714
0.322166 0.073158465 -0.10419154
-0.34335336 0.093832515 -0.10633701
-0.32157096 0.093336262 -0.11439621
0.32105425 0.093371831 -0.11381966
0.34297225 0.093964688 -0.10419154
-0.36427942 0.11469052 -0.10535312
-0.34240696 0.11412136 -0.11356866
0.34205538 0.1142552 -0.11163563
0.36409119 0.11493649 -0.10180235
-0.36385846 0.13525406 -0.10839099
-0.34201184 0.13462296 -0.11658806
0.3416706 0.13476375 -0.11475968
0.36367938 0.13551888 -0.10494924
-0.38539445 0.15646905 -0.10318071
-0.36344022 0.15577236 -0.1114096
0.34128824 0.15522572 -0.11786407
0.36327016 0.1560545 -0.10807621
-0.38494942 0.17700201 -0.10622364
-0.36302289 0.17624471 -0.11442131
0.36286023 0.1765416 -0.1112085
0.38497719 0.17745134 -0.10135943
-0.38450721 0.19749013 -0.10924703
-0.36260477 0.19667035 -0.11743903
0.36245292 0.19698223 -0.11432099
0.38454103 0.19796443 -0.10450733
-0.40632528 0.21899304 -0.10242218
-0.38406599 0.21793237 -0.11226368
0.36204654 0.21737581 -0.11742634
0.38410759 0.21843112 -0.10763538
-0.40575749 0.23938698 -0.10610998
-0.38362575 0.23832887 -0.11527342
0.38367516 0.2388505 -0.11075616
0.40587193 0.23998815 -0.10090369
-0.40519124 0.25972548 -0.10978794
0.38324374 0.25922275 -0.11386961
0.40541133 0.26043186 -0.10405272
-0.4046787 0.28005296 -0.1131171
0.3828133 0.27954805 -0.1169762
0.40495369 0.2808297 -0.10718179
-0.40421367 0.30037203 -0.11613744
0.40449709 0.30118033 -0.11030352
-0.42683256 0.32280946 -0.10435569
0.4040415 0.32148403 -0.11341816
0.42628869 0.32292035 -0.10359788
-0.073733203 -0.11438806 -0.085342646
-0.052731905 -0.11435474 -0.087505341
-0.031764153 -0.11432166 -0.089651883
-0.010829478 -0.11428869 -0.091795087
0.010072204 -0.1142555 -0.093947589
0.030960061 -0.11426102 -0.093590975
0.051900901 -0.11431396 -0.09014976
0.072895221 -0.11436731 -0.08668673
-0.17839685 -0.093426332 -0.08668673
-0.15722294 -0.093397282 -0.090468645
-0.13619563 -0.093380645 -0.092610657
-0.11520144 -0.093364201 -0.094749093
-0.094240822 -0.093347892 -0.096871436
-0.073312573 -0.093331531 -0.099003196
0.072576843 -0.093320228 -0.10047311
0.09351676 -0.093346402 -0.097061813
0.11451001 -0.093372859 -0.093629301
0.13555592 -0.093399182 -0.090200722
0.1566551 -0.093425691 -0.08676368
-0.17774227 -0.072485365 -0.096134722
0.15618026 -0.072485313 -0.095575392
0.1984013 -0.072485365 -0.088706851
0.21963899 -0.072485313 -0.084650934
-0.19923842 -0.072485209 -0.087978542
-0.1566872 -0.072485261 -0.099168003
0.13514996 -0.072485261 -0.09899044
0.17726369 -0.072485261 -0.092151821
-0.22006023 -0.051564194 -0.089268863
-0.19851179 -0.051626869 -0.097417295
0.19779165 -0.051627636 -0.097506285
0.21891256 -0.051601231 -0.094087422
0.24059458 -0.0515287 -0.084663689
-0.24086225 -0.030662857 -0.090558052
-0.21926172 -0.030788276 -0.098698795
0.23976642 -0.03072273 -0.094443619
0.26154995 -0.030572344 -0.084676385
-0.28342906 -0.0095921755 -0.083650947
-0.26164585 -0.0097810924 -0.091833234
-0.23999196 -0.0099692345 -0.099979043
0.26064771 -0.0098413229 -0.094443858
0.28250515 -0.0096161664 -0.084689379
-0.30424392 0.011332326 -0.08494556
-0.28240857 0.011080593 -0.093120039
0.28152773 0.011039421 -0.094456375
0.30346155 0.01134029 -0.084689379
-0.32504064 0.03223744 -0.086226046
-0.30315161 0.031922676 -0.094405591
0.30240756 0.031920232 -0.09446919
0.32441646 0.032296181 -0.084702194
-0.34581608 0.053122424 -0.087518156
-0.32387656 0.052745529 -0.095677197
0.32328716 0.052800722 -0.094481945
0.34537116 0.053251795 -0.084714949
-0.36657184 0.073987313 -0.088809013
-0.34458044 0.073548131 -0.096960306
0.34416664 0.073681049 -0.094494581
0.36632568 0.074207328 -0.084727645
-0.38730788 0.094832651 -0.09009856
-0.36526474 0.094331138 -0.098242104
0.36504585 0.094561167 -0.094507337
0.38727999 0.095162652 -0.08474052
-0.40918371 0.11617992 -0.083856225
-0.38628384 0.11526232 -0.097099841
0.38628837 0.11562283 -0.091896951
-0.40861008 0.13685581 -0.087581992
-0.38583866 0.13588884 -0.10014379
0.38584909 0.13627961 -0.095066845
0.40818164 0.13704601 -0.085112214
-0.40803605 0.15747425 -0.091310501
0.38541266 0.15688941 -0.098216832
0.40771753 0.15773037 -0.088285208
-0.40746358 0.17803615 -0.095028698
0.40725452 0.17836669 -0.09145093
-0.40689269 0.19854182 -0.098736823
0.40679255 0.19895497 -0.094609022
0.42920578 0.19995144 -0.084650934
0.40633169 0.21949548 -0.097760141
-0.42982963 0.22078252 -0.085816383
0.42871708 0.22056609 -0.087824941
-0.42922813 0.24130067 -0.089537024
0.42822954 0.24113262 -0.090991676
-0.4286263 0.26176113 -0.09326005
0.42774311 0.2616514 -0.094151139
-0.42802608 0.28216559 -0.096972883
0.42725784 0.28212261 -0.097303092
0.4497444 0.28343973 -0.087236881
-0.45107889 0.30482015 -0.084035695
-0.42742747 0.3025144 -0.10067582
0.42677367 0.30254596 -0.10044771
0.44921166 0.30392 -0.090532541
-0.4504458 0.32523474 -0.087773979
0.44870073 0.32436907 -0.093693018
-0.095399752 -0.13576838 -0.066761374
-0.074237853 -0.1357179 -0.068953753
-0.053110089 -0.13566753 -0.07112956
-0.032015879 -0.13561739 -0.07330215
-0.010955141 -0.13556728 -0.075470924
0.010072204 -0.13551702 -0.077649474
0.031086747 -0.13552895 -0.077134132
0.052155316 -0.13560992 -0.073625088
0.073277518 -0.13569054 -0.070132732
0.094453767 -0.13577142 -0.066631556
-0.17943613 -0.11459826 -0.071685791
-0.15807112 -0.11452113 -0.076695919
-0.13693662 -0.11448774 -0.078859687
-0.115835 -0.11445443 -0.081032634
-0.094767444 -0.11442111 -0.083189368
0.093942732 -0.11442047 -0.083227873
0.11504434 -0.11447413 -0.0797472
0.13619934 -0.11452763 -0.0762707
0.15740904 -0.11458151 -0.072772264
0.17867237 -0.11463533 -0.069277883
-0.22167404 -0.093553141 -0.070210338
-0.19997013 -0.09348949 -0.078473568
0.17780773 -0.0934522 -0.083317518
0.19901492 -0.093478858 -0.079850078
0.22039631 -0.093517795 -0.07481277
-0.24262112 -0.072485313 -0.071517706
-0.22086433 -0.072485313 -0.079772949
0.24142762 -0.072485313 -0.074825883
-0.26354948 -0.051437415 -0.072811007
-0.24173862 -0.051501114 -0.081071138
0.26245993 -0.051452979 -0.074825764
-0.28445667 -0.030409809 -0.074115753
-0.26259434 -0.030536592 -0.082355261
0.28349096 -0.030420855 -0.074838758
-0.32739168 -0.0092107356 -0.067137837
-0.30534393 -0.0094020814 -0.075419426
0.3045218 -0.0093889311 -0.074851632
-0.34831342 0.011840709 -0.068435073
-0.32621127 0.011585608 -0.076721787
0.3255524 0.01164265 -0.074864507
-0.36921352 0.032871887 -0.069744229
-0.34706038 0.032553703 -0.078009963
0.34658283 0.032674216 -0.074877381
-0.3904025 0.053980298 -0.068940639
-0.36788806 0.05350145 -0.07930994
0.36761305 0.053705625 -0.074890375
-0.38871282 0.07443548 -0.080492735
0.38864309 0.074736722 -0.07490325
-0.41045287 0.095724665 -0.075612903
0.40967292 0.09576758 -0.074916124
0.40864867 0.11631414 -0.081918836
0.43117398 0.11701047 -0.071867108
-0.43287015 0.11734711 -0.067007899
-0.43225828 0.13814819 -0.070793033
0.43068069 0.13781899 -0.075071096
-0.43165016 0.15889308 -0.074554682
0.43018854 0.15857872 -0.078267574
-0.43104163 0.17957973 -0.078319073
0.42969561 0.17928872 -0.081469297
0.45298305 0.18060657 -0.067202687
-0.43043482 0.20020956 -0.082072854
0.45233154 0.20129427 -0.071233034
-0.45362657 0.22259566 -0.068992615
0.45168191 0.22192121 -0.075251698
-0.45298645 0.24323651 -0.072772264
0.45103419 0.24248758 -0.079258442
-0.45235029 0.26382202 -0.076528311
0.45038831 0.26299366 -0.083253503
-0.45171371 0.28434938 -0.080287218
0.4739708 0.28598171 -0.067812562
0.47328851 0.30650988 -0.07184124
-0.47502297 0.30715442 -0.067189813
-0.4743529 0.32769206 -0.070974231
0.47260827 0.32697764 -0.075857997
-0.096039742 -0.15737477 -0.050134063
-0.07474903 -0.15730654 -0.052353024
-0.053492855 -0.15723869 -0.054555416
-0.032270651 -0.15717098 -0.056754231
-0.011082224 -0.157103 -0.058962584
0.010072204 -0.15703553 -0.061154246
0.031215079 -0.15705678 -0.06046319
0.052412439 -0.15716574 -0.056924224
0.073664494 -0.15727502 -0.053375959
0.094971471 -0.15738459 -0.049818635
-0.18068106 -0.1360697 -0.053716898
-0.15908767 -0.13592029 -0.060189366
-0.13782398 -0.13586935 -0.062392235
-0.11659497 -0.13581891 -0.064578533
0.11568476 -0.13585284 -0.063108325
0.13696982 -0.13593417 -0.059589267
0.15831025 -0.13601586 -0.056047797
0.17970496 -0.13609762 -0.0525105
-0.22296862 -0.11485635 -0.054922104
-0.20113587 -0.11472692 -0.063329697
0.19999102 -0.11468942 -0.065761328
0.2216064 -0.11479211 -0.059093237
-0.26548001 -0.093681663 -0.053520083
-0.24350983 -0.093617097 -0.061897278
0.24226782 -0.09359403 -0.064903617
0.26429856 -0.093670778 -0.054922104
-0.26451135 -0.072485365 -0.063199401
0.26337531 -0.072485313 -0.064916611
-0.28653371 -0.072485261 -0.054843426
0.28548276 -0.072485156 -0.054935217
-0.30756715 -0.051309403 -0.056165576
-0.28549153 -0.051373668 -0.064513564
0.2844826 -0.051376797 -0.064929485
0.30666679 -0.051299952 -0.054948211
-0.32858047 -0.030153733 -0.057486296
-0.30645165 -0.030282106 -0.065826297
0.30559111 -0.030268237 -0.064929605
0.32785061 -0.030114792 -0.054961562
-0.37189257 -0.0088245347 -0.050409913
-0.34957528 -0.0090180486 -0.05879283
0.32669809 -0.0091601312 -0.064942598
0.34903425 -0.0089298934 -0.054974437
-0.37054834 0.012097098 -0.060111284
0.34780487 0.011947811 -0.064955473
0.37021765 0.012254797 -0.054987669
-0.39210841 0.033351675 -0.057277083
0.36891147 0.033055708 -0.064968586
0.39140084 0.033439368 -0.055000663
-0.41404 0.054748423 -0.052313685
0.39001787 0.0541633 -0.06498158
0.41258577 0.054624312 -0.055000663
-0.41223982 0.075323932 -0.064006209
0.41112405 0.075270675 -0.064994693
0.43399259 0.075886913 -0.053559542
-0.43415388 0.09674377 -0.05906713
0.43223006 0.096377917 -0.065007687
-0.45684931 0.11852808 -0.049963236
0.45494929 0.11817626 -0.055040002
-0.45620251 0.13945782 -0.053782344
0.45429197 0.13904795 -0.059106112
-0.45555529 0.16032845 -0.057604074
0.45363653 0.15985793 -0.063160539
-0.45491204 0.18114248 -0.061402082
-0.45426843 0.20189783 -0.065202594
0.47671786 0.20325992 -0.051591992
-0.47771955 0.22443146 -0.051959395
0.47602969 0.22403312 -0.055655241
-0.47704205 0.24519783 -0.055786014
0.47534141 0.24474365 -0.059719563
-0.47636637 0.26590666 -0.059602141
0.47465509 0.26539314 -0.063772082
-0.47569486 0.28655988 -0.063394547
-0.4992651 0.30951768 -0.050134063
0.49781984 0.30923036 -0.052208781
-0.49855718 0.33017972 -0.053965807
0.49709839 0.32984072 -0.056283355
-0.096687034 -0.17924455 -0.03331697
-0.075266428 -0.17915863 -0.035549879
-0.053880285 -0.17907274 -0.037779212
-0.032528523 -0.1789871 -0.040004849
-0.011210953 -0.17890105 -0.042240143
0.010072204 -0.17881568 -0.044458747
0.031344987 -0.17884913 -0.043587565
0.052672934 -0.1789871 -0.040004849
0.074056245 -0.17912534 -0.036412835
0.095495157 -0.17926398 -0.032811403
-0.18194249 -0.15782523 -0.035509944
-0.16011657 -0.15757969 -0.043481946
-0.13872282 -0.15751106 -0.045711637
-0.11736417 -0.1574429 -0.047924638
0.11633305 -0.15749401 -0.046265244
0.13775039 -0.15760399 -0.042689562
0.15922256 -0.15771405 -0.039117694
0.1807511 -0.15782478 -0.035523295
-0.224509 -0.136462 -0.036731243
-0.20252764 -0.13626525 -0.045250297
0.20115566 -0.13617972 -0.048950911
0.22305037 -0.13637879 -0.040335774
-0.26703668 -0.11511746 -0.037964702
-0.2449356 -0.11498657 -0.046462893
0.24361311 -0.11494727 -0.049016714
0.26578176 -0.11510354 -0.038865924
-0.30982199 -0.093811631 -0.036638498
-0.28758323 -0.093746446 -0.04510498
0.28648895 -0.093748085 -0.044880986
0.30884331 -0.09382607 -0.034752846
-0.33098325 -0.072485313 -0.037977934
-0.30869058 -0.072485365 -0.046436548
0.30775177 -0.072485261 -0.044880867
0.33018258 -0.072485261 -0.034766316
-0.35212582 -0.051179491 -0.039303064
-0.3297776 -0.051244676 -0.047766566
0.32901308 -0.051222537 -0.044894099
0.35152164 -0.051144712 -0.034779429
-0.37351418 -0.029864572 -0.038706899
-0.35084602 -0.030024383 -0.049082398
0.35027421 -0.02996007 -0.044907212
0.37286222 -0.029804111 -0.034779429
-0.39556232 -0.0084377229 -0.033662796
0.37153509 -0.0086977556 -0.044920444
0.39420095 -0.0084638149 -0.034792781
-0.39382702 0.012546115 -0.045527101
0.3927958 0.012564406 -0.044933677
0.4155395 0.01287622 -0.034806013
-0.41585764 0.033997215 -0.040507793
0.41405627 0.033826411 -0.044946909
-0.43796638 0.055525772 -0.03548336
0.4359287 0.055271722 -0.040984035
-0.43605301 0.076223128 -0.047318935
0.45832339 0.076931693 -0.034168005
-0.4581438 0.097775094 -0.042319417
0.45628259 0.097499616 -0.046792269
-0.48113096 0.11972461 -0.032691717
0.47949994 0.11955328 -0.035164595
-0.48044395 0.14078254 -0.03657198
0.47880131 0.14057332 -0.039289713
-0.47976118 0.1617828 -0.040428281
0.47810477 0.161531 -0.043402553
-0.47907797 0.1827234 -0.044287086
0.47741026 0.18242648 -0.047503352
-0.47839898 0.20360705 -0.048121929
-0.50211418 0.22629011 -0.03471303
0.500727 0.22617418 -0.035788774
-0.50139832 0.24718374 -0.03858757
0.49999699 0.24703076 -0.039912105
-0.50068444 0.26801908 -0.04245162
0.49926907 0.2678256 -0.044023156
-0.49997261 0.28879651 -0.046304703
0.49854338 0.28855857 -0.048122168
-0.52380842 0.31190878 -0.032877922
0.52270585 0.31198999 -0.032292366
-0.097342789 -0.20138329 -0.016280055
-0.075790182 -0.20127892 -0.018540382
-0.054272469 -0.20117462 -0.020797253
-0.03278935 -0.20107001 -0.02306354
-0.011341256 -0.20096606 -0.025312901
0.010072204 -0.20086232 -0.027558804
0.031476505 -0.2009111 -0.026503086
0.052936647 -0.20107862 -0.022875905
0.074452855 -0.20124665 -0.019239306
0.09602534 -0.20141497 -0.015593171
-0.18322068 -0.17987017 -0.017060876
-0.16121159 -0.17953765 -0.025700808
-0.13963267 -0.17941731 -0.028827071
-0.11814278 -0.17933112 -0.031067133
0.11698987 -0.17940301 -0.029200673
0.13853998 -0.1795418 -0.025593996
0.16014688 -0.17968157 -0.021964312
0.1818094 -0.17982104 -0.018338799
-0.22606987 -0.15835518 -0.018298507
-0.20393787 -0.15808934 -0.026930809
0.20235686 -0.15794511 -0.03161335
0.22451313 -0.15826166 -0.021334052
-0.26887968 -0.13685882 -0.019548297
-0.24662635 -0.13665989 -0.028159738
0.24521315 -0.13661459 -0.030120969
0.26754022 -0.13685226 -0.019830585
-0.31165272 -0.11538196 -0.020783663
-0.28927571 -0.11524927 -0.029400706
0.28811425 -0.11526103 -0.02864027
0.31061229 -0.11541966 -0.018338799
-0.35471106 -0.093943134 -0.019548297
-0.33219752 -0.093877129 -0.028119683
0.33136219 -0.093904659 -0.0245502
-0.35341296 -0.072485313 -0.029467463
-0.37683082 -0.072485261 -0.014770985
0.3527799 -0.072485261 -0.02456367
-0.3751663 -0.051083118 -0.026783824
0.37419736 -0.051066168 -0.024576902
-0.39731061 -0.029602896 -0.021709561
0.39561462 -0.029647227 -0.024590492
-0.41953799 -0.008043766 -0.016603231
0.41735107 -0.0081781 -0.022420287
-0.41768888 0.013066903 -0.028613567
0.43985242 0.013470717 -0.015498877
-0.43989834 0.034650587 -0.023532629
0.43788055 0.034466781 -0.028306484
-0.46218687 0.056312598 -0.018446326
0.46038511 0.056175493 -0.021414518
-0.46015775 0.07713332 -0.030427575
-0.48242795 0.098819204 -0.025366545
0.48083326 0.09870059 -0.027291536
-0.50571632 0.12093543 -0.015215993
0.50441009 0.12095132 -0.014986873
-0.50499278 0.14212507 -0.01913178
0.50366908 0.14212197 -0.019172072
-0.50426888 0.16325426 -0.023050189
0.50293028 0.16322944 -0.023344994
-0.50354946 0.18432552 -0.02694416
0.50219369 0.18427369 -0.027505279
-0.50282961 0.20533651 -0.030840635
0.50145924 0.20525515 -0.031653285
-0.52681357 0.22817075 -0.017262697
0.5257836 0.22834632 -0.015633583
-0.5260585 0.24919307 -0.021186233
0.5250107 0.24935123 -0.019816995
-0.52530807 0.27015799 -0.025085568
0.52424008 0.27029341 -0.023987889
-0.52455717 0.29106274 -0.028987169
0.52347183 0.2911728 -0.028146386
-0.54866368 0.31433186 -0.015391111
-0.098006636 -0.22379562 0.00096750259
-0.07632041 -0.22367233 -0.0013209581
-0.054669175 -0.22354862 -0.003619194
-0.033053599 -0.22342566 -0.0059000254
-0.011473167 -0.22330284 -0.0081772804
0.010072204 -0.22318041 -0.010450721
0.031609654 -0.2232475 -0.0092061758
0.05320365 -0.22344545 -0.0055336952
0.074854404 -0.22364375 -0.0018515587
0.096562147 -0.22384274 0.0018402338
-0.18451601 -0.20221084 0.0016356707
-0.16235587 -0.20180637 -0.0071204901
-0.1405537 -0.20159319 -0.011734724
-0.11893098 -0.20148847 -0.014002562
0.11765433 -0.2015838 -0.011937499
0.13933943 -0.20175257 -0.0082856417
0.161082 -0.20192236 -0.0046106577
0.18288089 -0.2020919 -0.00093972683
-0.22765161 -0.1805416 0.00038135052
-0.20536692 -0.18020487 -0.0083669424
0.20368262 -0.18004668 -0.012477636
0.22599716 -0.18044779 -0.002055645
-0.27074736 -0.15889139 -0.00088524818
0.26932174 -0.15890187 -0.00054478645
-0.24833971 -0.15862259 -0.0096122026
0.24683414 -0.15858056 -0.010978103
-0.31380582 -0.13726091 -0.0021373034
-0.29127282 -0.13705918 -0.010869861
0.29003334 -0.13709176 -0.0094634295
0.31269443 -0.13733298 0.00098121166
-0.35722825 -0.11569712 -0.00031340122
-0.334169 -0.11551547 -0.012112856
0.33327779 -0.11557943 -0.0079604387
0.35611266 -0.11574036 0.0024952888
-0.3785136 -0.09407346 -0.0026267767
0.35404745 -0.093983665 -0.014272213
0.37689915 -0.094063289 -0.0039317608
0.37554413 -0.072485313 -0.014285803
0.39852425 -0.072485313 -0.0035918951
-0.40085682 -0.072485261 0.0025361776
-0.39907604 -0.050951153 -0.0096392632
0.39704064 -0.050987162 -0.014299154
-0.42140108 -0.029337984 -0.0045019388
0.41923231 -0.029415809 -0.0095580816
-0.44381043 -0.0076448321 0.00066757202
0.44184047 -0.0077200904 -0.0025860071
-0.44184482 0.013594158 -0.011491656
-0.46423584 0.035311967 -0.0063476562
0.46246374 0.035227001 -0.0085564852
-0.48670942 0.057109915 -0.0011848211
0.48519009 0.057092287 -0.0015659332
-0.48455942 0.078054763 -0.013328075
0.48300165 0.077992193 -0.014487982
-0.50701421 0.099876858 -0.0081907511
0.50573331 0.099918582 -0.0075135231
-0.53061599 0.12216245 0.0024952888
-0.52985018 0.14348373 -0.0014842749
0.52889854 0.14369237 0.0012265444
-0.52908909 0.16474563 -0.0054386854
0.52811629 0.16495147 -0.0030075312
-0.52832758 0.18594655 -0.0093955994
0.52733636 0.18614671 -0.0072288513
-0.52757078 0.20708904 -0.013327956
0.52655882 0.20727834 -0.011437416
-0.55182862 0.2300767 0.00042235851
-0.55103332 0.25122949 -0.0035511255
0.55039042 0.25170562 0.00057220459
-0.55024028 0.27232248 -0.0075134039
0.54957592 0.27279699 -0.0036598444
-0.54945225 0.29335767 -0.011451006
0.54876387 0.29382497 -0.0078793764
-0.57383418 0.31678563 0.0023179054
0.54795426 0.31478977 -0.012086034
-0.09867876 -0.24648684 0.018429518
-0.076857224 -0.24634406 0.016112566
-0.055071127 -0.24620086 0.01378572
-0.033321127 -0.24605864 0.011476517
-0.011606715 -0.24591669 0.0091707706
0.010072204 -0.24577406 0.0068552494
0.031744368 -0.24586269 0.0082936287
0.053473786 -0.24609163 0.012012243
0.075260997 -0.24632213 0.015754342
0.097105704 -0.24655223 0.019492626
-0.16351552 -0.22437453 0.011709809
-0.14148615 -0.22404364 0.0055692196
-0.11972828 -0.22391915 0.0032596588
0.11832711 -0.22404221 0.0055419207
0.1401495 -0.22424212 0.0092532635
0.16202885 -0.22444189 0.012960553
0.18396668 -0.22464296 0.016691446
-0.22925474 -0.20302728 0.019313097
-0.20681521 -0.20261768 0.010446668
0.20502679 -0.20245501 0.0069237947
0.22750084 -0.20294246 0.017477512
-0.27264023 -0.18122083 0.018029332
-0.25007609 -0.1808804 0.0091845989
0.24847877 -0.18085185 0.0084443092
0.27112934 -0.18125908 0.019023061
-0.31598794 -0.1594346 0.016760349
-0.29329675 -0.15916213 0.0079097748
0.29197776 -0.15922549 0.0099664927
-0.33648002 -0.13746382 0.006649971
0.33552539 -0.13757591 0.011503816
-0.38127449 -0.11596824 0.017298222
0.37911874 -0.11590254 0.013029218
-0.40265521 -0.094207793 0.014831543
0.40032881 -0.094166234 0.0094314814
0.4230454 -0.072485261 0.016512156
-0.42328462 -0.050817486 0.0077319145
0.42112902 -0.050850775 0.0034099817
-0.44579327 -0.029069576 0.012933135
0.44384912 -0.029107641 0.010460496
-0.4683876 -0.0072407052 0.018167257
0.46668124 -0.0072553977 0.017532587
-0.46630034 0.01412794 0.0058426857
0.46456379 0.014084533 0.0044344664
-0.48887578 0.035981625 0.011050701
0.48740119 0.035998575 0.011490226
-0.51153481 0.05791647 0.016278148
0.51035351 0.058022849 0.01858139
-0.50926346 0.07898768 0.0039834976
0.50803268 0.079067923 0.0054734945
-0.53190339 0.10094688 0.0091847181
0.53098768 0.10115322 0.012534261
0.52968317 0.12236873 0.0054734945
-0.55502695 0.14486051 0.016402006
-0.55422258 0.16625476 0.012383223
0.55367303 0.16669902 0.017629266
-0.55342323 0.1875895 0.008389473
0.55284858 0.18804741 0.01334548
-0.55262345 0.20886257 0.0043933392
0.55202675 0.2093311 0.0090749264
-0.57716 0.23200548 0.01831913
0.5512073 0.23055026 0.0048171282
-0.57632357 0.25329012 0.014294863
-0.57549238 0.27451605 0.010295749
0.57528454 0.27533767 0.016967297
-0.57466066 0.2956799 0.0062941313
0.5744276 0.29651618 0.012685537
0.57357323 0.31763068 0.0084167719
-0.099359274 -0.26946199 0.036110163
-0.077400319 -0.26929846 0.033750176
-0.055478092 -0.26913613 0.031408072
-0.033591997 -0.26897427 0.029069781
-0.01174182 -0.26881146 0.026721478
0.010072204 -0.26865005 0.024390936
0.031880885 -0.26876342 0.02602756
0.053747542 -0.26902434 0.029793262
0.075672403 -0.26928589 0.03356874
-0.16469087 -0.24724835 0.030795336
-0.14242946 -0.24677294 0.023074746
-0.12053613 -0.24662971 0.020750165
0.11900835 -0.24678311 0.023240924
0.14096917 -0.24701458 0.026999235
0.16298838 -0.24724659 0.030767322
0.18514019 -0.24755335 0.035746813
-0.20828307 -0.22533396 0.029514909
-0.1858288 -0.22485274 0.020584464
0.2063888 -0.22517595 0.026582837
-0.25183466 -0.2034387 0.028221726
0.25014526 -0.20343423 0.028124452
-0.31819966 -0.1819092 0.03591454
-0.29534808 -0.18156397 0.026943684
0.29395077 -0.18166932 0.029681802
-0.33910614 -0.15977983 0.027971506
0.31480414 -0.15955162 0.020556808
0.3378028 -0.15988016 0.031227112
-0.36023098 -0.13783291 0.022631645
0.35852635 -0.13782048 0.022091985
0.38201311 -0.13812192 0.035145998
-0.40562439 -0.11624276 0.035132051
0.40331033 -0.11617845 0.03094852
-0.42709929 -0.094343871 0.032508969
0.42497975 -0.094322555 0.029737473
-0.42518252 -0.072485313 0.020059228
0.44792083 -0.072485313 0.036906958
-0.44779569 -0.050682127 0.025320053
0.44587436 -0.050695226 0.023615003
-0.47049087 -0.028797831 0.030586481
0.46882072 -0.028795004 0.030767441
-0.49327305 -0.0068315491 0.035886526
-0.49106357 0.014668763 0.02340734
0.48963064 0.014707036 0.024654508
-0.51382625 0.036660112 0.028680563
0.51269853 0.036781296 0.031826138
-0.53667396 0.058733813 0.033973575
-0.53427559 0.079932176 0.021510839
0.5334242 0.080159076 0.025722146
-0.55710346 0.10203031 0.026777029
0.55660903 0.10240649 0.032885313
-0.55583084 0.12340415 0.020418525
0.55532932 0.1238072 0.0262357
0.55449992 0.14528567 0.021925926
-0.58003682 0.16792947 0.032160521
-0.57883716 0.18925214 0.026388407
0.57873857 0.18997616 0.03422451
-0.57799882 0.21066007 0.022354841
0.57787108 0.2114141 0.029890418
0.57700628 0.23278686 0.025569677
0.5761441 0.25409457 0.021261811
-0.60180867 0.29901376 0.031770229
0.60047114 0.29924729 0.033555031
-0.60054392 0.32005367 0.02590251
0.59957075 0.32051378 0.029222727
-0.011940914 -0.29261646 0.052584648
0.010072204 -0.29242626 0.050112724
0.032081839 -0.29258168 0.052132487
-0.16588224 -0.27043402 0.050140858
-0.14340045 -0.26980734 0.041094184
-0.12135412 -0.26962471 0.038460016
0.097655706 -0.26954818 0.037354589
0.11969823 -0.26981211 0.041164279
0.14179921 -0.27007577 0.044970393
0.16395935 -0.2703402 0.048786521
-0.20977093 -0.24835977 0.048842907
-0.18715946 -0.24780232 0.039790392
0.20777093 -0.24821749 0.046532154
-0.25361848 -0.22630489 0.047532201
-0.2308796 -0.22581828 0.038501859
0.22902665 -0.2257534 0.037298441
0.25183639 -0.22633523 0.048095822
-0.2974273 -0.20427081 0.046236753
-0.27455878 -0.2038534 0.03720057
0.27296105 -0.20392972 0.038851976
0.29595017 -0.20442894 0.04966116
-0.34198976 -0.18250465 0.051383495
0.31694499 -0.18208271 0.040421128
0.34011394 -0.18249924 0.051242113
-0.3632814 -0.16033319 0.045940995
0.36097571 -0.16021124 0.041978121
-0.3844921 -0.13824603 0.040519238
-0.43028164 -0.11652067 0.053178549
0.42819121 -0.11649791 0.051694274
-0.45185161 -0.094481647 0.050408959
0.44998658 -0.094481029 0.05032444
-0.44981581 -0.072485261 0.037816048
-0.47261506 -0.05054497 0.043129206
0.47098041 -0.050537318 0.044126868
-0.49550214 -0.028522335 0.048476458
0.49415496 -0.028477795 0.051369309
-0.51847255 -0.0064172 0.053829432
0.49188098 -0.0067840815 0.03794229
-0.51614046 0.015216827 0.041206479
0.51506317 0.015339188 0.045181394
-0.53909093 0.037347287 0.046532154
0.53836095 0.03757485 0.052443266
0.53588098 0.058966883 0.039020061
-0.55960435 0.080889128 0.039272189
0.5591839 0.081265979 0.046264768
-0.58425552 0.10361177 0.052457571
0.58260298 0.103678 0.053532362
-0.58249485 0.12503704 0.04398632
0.58135694 0.12526709 0.047306776
-0.58126181 0.14652732 0.038053989
0.58048147 0.14690289 0.04293263
0.57960868 0.16847244 0.038571954
0.60410041 0.21352828 0.051016092
-0.60564059 0.23537114 0.049548149
0.60318887 0.23505673 0.046630859
-0.60435694 0.25667319 0.043592811
0.6022802 0.25651908 0.042258859
-0.60308164 0.27788839 0.037676215
0.60137433 0.27791601 0.037899971
0.62599188 0.32346308 0.050507784
-0.14497246 -0.29397765 0.0702672
-0.12258302 -0.29357722 0.065066338
-0.10037784 -0.29338533 0.062572837
-0.078210734 -0.29319263 0.060069084
-0.056082282 -0.29300028 0.0575701
-0.033992376 -0.2928082 0.055075169
0.054153364 -0.29289106 0.056151986
0.076287031 -0.29320142 0.060183048
0.098483108 -0.29351258 0.064225197
0.12074132 -0.29382357 0.068264842
-0.21127923 -0.27170154 0.068436265
-0.18850829 -0.2710658 0.059259415
0.1863759 -0.27082688 0.055811763
0.2091717 -0.27158475 0.066750288
-0.25542676 -0.24948457 0.067107439
-0.23252669 -0.24892092 0.057953238
0.23057406 -0.24888676 0.05739975
0.25355154 -0.2495611 0.068350434
-0.29953507 -0.2272889 0.065793991
-0.27650356 -0.22679535 0.056634068
0.27481994 -0.22692141 0.05897522
0.29797935 -0.2275123 0.069937944
-0.32061505 -0.20476022 0.056832433
0.31911457 -0.20493194 0.060552478
0.34245628 -0.20543894 0.071527481
-0.36638245 -0.18320721 0.069637656
0.36375448 -0.183011 0.064538956
-0.38776505 -0.16089368 0.064139843
0.38529885 -0.16077389 0.060254097
-0.40906399 -0.13866469 0.058648705
0.40677905 -0.13860315 0.055981994
-0.45525628 -0.11680223 0.071470022
-0.47692034 -0.094621323 0.068550706
0.47535896 -0.09464182 0.071212173
-0.47475815 -0.072485313 0.05578351
0.47315818 -0.072485365 0.057598472
-0.49774852 -0.050406121 0.061164021
0.49645051 -0.050377198 0.064923882
-0.52082807 -0.028243653 0.066579103
0.51745009 -0.0063055232 0.058662772
-0.54153204 0.015771411 0.059216738
0.54086709 0.015980437 0.066008091
-0.56265962 0.059683643 0.054537058
0.56178045 0.059924714 0.059756637
-0.58805537 0.08258485 0.070739627
0.58532 0.082389124 0.067107439
0.60793209 0.12680128 0.06945169
0.60685182 0.14854422 0.064253807
-0.60951775 0.17092505 0.067535996
0.60593182 0.17027229 0.059827685
-0.6082179 0.19249624 0.061505437
0.60501474 0.19193348 0.055415273
-0.60692656 0.21397835 0.055514216
0.63039905 0.2598325 0.070954442
0.62892401 0.28114438 0.064111233
-0.63155669 0.30364206 0.06713593
0.62745297 0.30235311 0.057286382
-0.63021392 0.32493359 0.061121345
-0.034490746 -0.3175815 0.087445378
-0.012189775 -0.31736711 0.084912777
0.010072204 -0.31715295 0.082384467
0.032333404 -0.31735849 0.084811568
-0.1677196 -0.29472509 0.079975843
0.1430629 -0.29413643 0.072329879
0.16544692 -0.29444921 0.076392293
0.18830527 -0.29527664 0.087141156
-0.25726002 -0.27298442 0.086953044
-0.23419523 -0.27234048 0.07765758
0.23214237 -0.27234846 0.077772737
-0.30174363 -0.25066572 0.086286902
-0.27847508 -0.2500529 0.076334715
0.27670401 -0.25023982 0.079370737
-0.323374 -0.22809348 0.080725431
0.3213166 -0.22810754 0.08098495
-0.34491959 -0.2056073 0.075170875
-0.39109075 -0.18391946 0.088140845
0.38864321 -0.18382972 0.085809588
-0.41256094 -0.1614607 0.082557678
0.41030952 -0.16142695 0.081460834
-0.43395075 -0.13908875 0.077010393
0.43190664 -0.13909066 0.077096701
0.45344076 -0.11682215 0.072759867
-0.50230682 -0.09476269 0.086909652
-0.50001746 -0.072485313 0.073979259
0.4987655 -0.072485365 0.078593135
-0.52320468 -0.050265364 0.079442739
0.52229494 -0.050214767 0.086026549
0.51986229 -0.028155759 0.072286963
-0.54456371 -0.0059290305 0.074969769
0.54339439 -0.0058200806 0.079687834
0.56705058 0.016631238 0.087141275
-0.56632698 0.038360655 0.07286036
0.56440163 0.038380586 0.073376536
0.58806008 0.060896583 0.080797553
-0.61374348 0.10574777 0.087141275
0.60975736 0.10519923 0.078233242
-0.61213076 0.12750855 0.079658866
-0.61081994 0.14926195 0.073577404
0.63337028 0.21690309 0.084739327
-0.63562524 0.23923075 0.085361123
0.63188112 0.23841909 0.077830434
-0.63426226 0.26079118 0.0792557
-0.63290823 0.28226247 0.073190212
-0.14689417 -0.31914672 0.10592973
-0.12408864 -0.31844684 0.097664356
-0.10163033 -0.31823081 0.095113754
-0.079210982 -0.318014 0.09255302
-0.056831148 -0.31779754 0.089996934
0.054657694 -0.31770545 0.08890903
0.077045664 -0.31805465 0.093032837
0.099497497 -0.31840491 0.097168446
0.12201346 -0.3187561 0.10131574
0.14459313 -0.31910703 0.10546041
-0.21367642 -0.29623386 0.099576592
-0.19061977 -0.29547635 0.089735866
0.21139841 -0.29618111 0.098890305
-0.28047392 -0.27363256 0.096308351
0.25528994 -0.27311799 0.088880181
0.27861643 -0.27389345 0.10007334
-0.32617766 -0.2518186 0.10500586
0.30003756 -0.25092551 0.090504885
0.3235487 -0.25161469 0.10169601
-0.3478986 -0.22909749 0.099357486
0.34511423 -0.22883829 0.09454596
-0.36953735 -0.20646515 0.09374547
0.36691156 -0.20630008 0.090171099
-0.43767932 -0.16203563 0.10122812
0.43568867 -0.16208869 0.10295463
-0.45915616 -0.13951789 0.095594287
0.45740983 -0.13958596 0.098539829
-0.48055238 -0.11708753 0.089996934
0.47906283 -0.11715108 0.09412396
0.50110507 -0.094805069 0.092407823
-0.52620757 -0.072485313 0.095696449
0.52475095 -0.072485261 0.099897861
-0.5481379 -0.027828485 0.093541861
0.54594594 -0.027829204 0.09349823
0.56972218 -0.0053272918 0.10102332
-0.57003868 0.016762592 0.091405272
0.59185958 0.039396934 0.099781036
-0.5919072 0.061287962 0.089271665
-0.61778063 0.084477969 0.10587108
0.61413282 0.084122963 0.09928453
0.63788402 0.15173313 0.10568047
-0.63974249 0.17399603 0.10380399
0.63637322 0.17356154 0.098671198
-0.63836533 0.19583377 0.09763515
0.63486969 0.19528499 0.091695786
-0.63699079 0.21757749 0.091477752
-0.66205859 0.3083888 0.10340869
0.65907693 0.30796579 0.10017562
-0.66063094 0.32993665 0.09722662
0.65751815 0.32937762 0.093192935
-0.057597164 -0.3431628 0.12316656
-0.035000749 -0.34292302 0.12057102
-0.012444328 -0.34268358 0.11798
0.010072204 -0.34244475 0.11539364
0.032590672 -0.34270689 0.11823153
0.055173922 -0.34309557 0.12243927
-0.16993079 -0.31998941 0.11588097
0.16739434 -0.31970581 0.11253166
-0.26026151 -0.2977635 0.1194452
-0.236889 -0.29699546 0.10946977
0.2346798 -0.29709285 0.11073506
0.25815302 -0.2980133 0.12269151
-0.30437207 -0.27462795 0.11067605
0.30212396 -0.27467492 0.11135328
0.34813645 -0.25278622 0.12071908
-0.3727456 -0.23011613 0.11826098
0.3701255 -0.2300086 0.11626506
-0.39447454 -0.20733422 0.11256135
0.3920477 -0.20730022 0.11182451
-0.41611892 -0.1846409 0.10688376
0.41390342 -0.18466061 0.10739756
-0.46312436 -0.16261795 0.12014127
-0.4846935 -0.13995335 0.1144489
0.4832927 -0.14008825 0.12028956
-0.50648093 -0.11740294 0.11048472
0.50507045 -0.11748518 0.11582208
-0.5296858 -0.094975255 0.11452281
0.52723318 -0.094970636 0.11391783
0.55123806 -0.072485261 0.12214255
-0.55176133 -0.050011959 0.11236966
0.54852468 -0.050049819 0.10745621
0.57368958 -0.0273959 0.1216383
-0.57380152 -0.0051152334 0.11020505
0.59613335 0.017677948 0.12113404
-0.59580588 0.039714351 0.10802913
0.61856943 0.062736325 0.12063015
-0.64395237 0.10793532 0.12266183
0.64099455 0.10777817 0.1201117
-0.64251775 0.13004264 0.11623549
0.63940209 0.12979928 0.11272347
-0.64112884 0.1520668 0.11001384
-0.66637135 0.24318829 0.12208319
0.66380543 0.24311009 0.12135661
-0.66492534 0.26501346 0.11582208
0.66222382 0.26483443 0.11427188
-0.66348892 0.28674734 0.10960209
0.66064656 0.28645238 0.1072067
-0.12569022 -0.34401023 0.1323396
-0.10291157 -0.34364635 0.12840128
-0.080234148 -0.34340432 0.12578142
0.077821888 -0.34348407 0.12664425
0.10053543 -0.34387496 0.13087618
0.12331402 -0.34426576 0.13510573
0.14615829 -0.34465751 0.13934696
-0.21647827 -0.32169086 0.13597393
-0.19312429 -0.32083654 0.12588561
0.19060527 -0.32071832 0.12448835
0.21400706 -0.32173905 0.13654315
-0.28406179 -0.29874218 0.13216019
0.281818 -0.29894015 0.13473165
-0.32903057 -0.27594697 0.12971282
0.32608032 -0.27563342 0.1251868
-0.35092986 -0.25298637 0.12396848
-0.3979159 -0.23114735 0.13739729
0.39551398 -0.23119655 0.13831186
-0.41973731 -0.20821458 0.13162279
0.41756243 -0.20831543 0.1338042
-0.44147328 -0.18537164 0.1258707
0.43953913 -0.18550293 0.12928045
0.46145058 -0.16276102 0.12478542
0.53146738 -0.11782397 0.13783205
-0.5554235 -0.072485261 0.1313988
-0.57761037 -0.027278982 0.12923574
-0.59975851 0.017860048 0.12704611
-0.62187356 0.062931694 0.12485969
-0.6692785 0.19925496 0.13467181
0.66699511 0.19934484 0.13564456
-0.66782004 0.22126803 0.12835658
0.66539806 0.22128132 0.12849069
-0.058381278 -0.36911711 0.15711951
-0.035522558 -0.36885118 0.15446341
-0.012704768 -0.36858597 0.1518122
0.010072204 -0.36832109 0.14916563
0.032853954 -0.36864802 0.15243292
0.055702016 -0.36907908 0.15673983
-0.17219767 -0.34589007 0.15269041
-0.14886332 -0.34494624 0.14247227
0.16944253 -0.3456915 0.15054131
-0.2637305 -0.32347119 0.15699804
-0.23999223 -0.32254964 0.14611673
0.23760214 -0.32276821 0.14869738
-0.30889514 -0.30031911 0.15264511
0.30575383 -0.29993278 0.14762545
-0.35401291 -0.27728319 0.14899957
0.35121197 -0.27716908 0.14735377
-0.37600657 -0.25416946 0.14317954
0.37339783 -0.25414813 0.14283347
-0.42341766 -0.23219216 0.15678549
-0.44533211 -0.20910668 0.1509347
0.4434599 -0.20934451 0.1560868
-0.46716022 -0.18611208 0.14510703
0.46556503 -0.1863585 0.15150952
-0.48995963 -0.16340011 0.14554405
0.48759958 -0.16344294 0.14693129
-0.5128057 -0.14068675 0.14620721
0.50956857 -0.14059845 0.14238214
-0.53566217 -0.11796318 0.14687097
-0.55913365 -0.095253527 0.15067744
0.55524701 -0.095200926 0.14384174
-0.58146328 -0.049733944 0.14848602
