ply
format ascii 1.0
comment PCL generated
element vertex 1358
property float x
property float y
property float z
element camera 0
property float view_px
property float view_py
property float view_pz
property float x_axisx
property float x_axisy
property float x_axisz
property float y_axisx
property float y_axisy
property float y_axisz
property float z_axisx
property float z_axisy
property float z_axisz
property float focal
property float scalex
property float scaley
property float centerx
property float centery
property int viewportx
property int viewporty
property float k1
property float k2
end_header
-0.45484108 -0.25097623 -0.20905483
0.4557707 -0.2509847 -0.20899343
0.48080891 -0.25250474 -0.19802344
-0.45613214 -0.22872493 -0.20066893
0.45706061 -0.22878957 -0.20017433
-0.43269849 -0.2052944 -0.20080817
0.43355563 -0.2052944 -0.20080817
-0.40941691 -0.18199101 -0.19986498
-0.38484302 -0.18097246 -0.20868587
0.38567936 -0.18089619 -0.20934689
0.41021416 -0.18194461 -0.20026708
-0.38630322 -0.15882334 -0.19752789
-0.36181742 -0.15790606 -0.20603895
0.36272371 -0.15791437 -0.2059617
0.38703781 -0.15873829 -0.19831753
-0.36336622 -0.13579255 -0.19346416
-0.33894235 -0.13496479 -0.20173526
-0.31484279 -0.13432002 -0.2081784
0.31578749 -0.13435084 -0.20787072
0.33988988 -0.13504222 -0.20096266
0.36410046 -0.13573495 -0.19403863
-0.31624627 -0.11216739 -0.1951561
-0.29221091 -0.1116325 -0.20094717
-0.2682668 -0.11109951 -0.20671654
0.26911074 -0.11103562 -0.20740891
0.29306343 -0.11162674 -0.20100904
0.31711888 -0.1122219 -0.19456637
-0.26957279 -0.088929892 -0.19257843
-0.24564397 -0.088476747 -0.19793046
-0.22183226 -0.088061631 -0.20283163
-0.1981803 -0.0877496 -0.20651639
-0.17458558 -0.087438405 -0.21019197
0.19907947 -0.087747127 -0.2065469
0.22274134 -0.088106126 -0.20230675
0.24646941 -0.088466227 -0.19805443
0.27033499 -0.088898301 -0.19295156
-0.17552589 -0.065273792 -0.1949234
-0.15188625 -0.065013617 -0.19830215
-0.1283318 -0.064808875 -0.20096254
-0.10484642 -0.064660281 -0.20289314
-0.08139129 -0.064513028 -0.20480597
-0.057972427 -0.064388528 -0.20642388
-0.034596279 -0.064352915 -0.2068857
-0.011227236 -0.064317331 -0.20734763
0.012134696 -0.064281821 -0.20780909
0.03549983 -0.064349294 -0.20693195
0.058879897 -0.064424053 -0.2059617
0.082274914 -0.064498708 -0.2049911
0.10571435 -0.064647153 -0.20306313
0.1292026 -0.06483385 -0.20063829
0.15272766 -0.065019682 -0.19822466
0.17631766 -0.065245062 -0.19529569
-0.55329728 -0.32545087 -0.18166173
0.5538047 -0.32526627 -0.18280363
-0.55460727 -0.30298296 -0.17457068
-0.52838588 -0.30071583 -0.18929613
0.5291754 -0.30073506 -0.18917155
0.55502582 -0.30277726 -0.17590666
-0.52974033 -0.27833387 -0.18164599
0.53032005 -0.27822167 -0.18241274
-0.50527561 -0.25403371 -0.18698943
0.50607425 -0.25407478 -0.18669307
-0.50690258 -0.23177227 -0.17738271
-0.48121288 -0.23007464 -0.1903547
0.48217413 -0.23023146 -0.18915606
0.50747275 -0.23168597 -0.17804182
-0.48284858 -0.20782807 -0.1802367
-0.45756927 -0.20646116 -0.19133484
0.45848316 -0.20657042 -0.19044805
0.4835811 -0.20785517 -0.18001723
-0.45913568 -0.18415082 -0.18116045
-0.43413413 -0.18301547 -0.19099259
0.4349739 -0.18306401 -0.1905725
0.45998815 -0.18426648 -0.18015838
-0.43578523 -0.16074434 -0.17970395
-0.41097203 -0.15978104 -0.18864191
0.41173753 -0.15978277 -0.18862629
0.4365972 -0.1608355 -0.17885733
-0.41261479 -0.13746148 -0.17678618
-0.38792333 -0.13662475 -0.18514788
0.38862529 -0.13659653 -0.18542898
0.41334659 -0.1375072 -0.1763308
-0.36496839 -0.11352536 -0.18045592
-0.34050822 -0.11281237 -0.18817437
0.3412748 -0.11281809 -0.18811214
0.36560738 -0.11347625 -0.18098843
-0.3177124 -0.089863569 -0.18155205
-0.29358587 -0.089384705 -0.18720782
0.2943556 -0.08940053 -0.18702054
0.31847143 -0.089905977 -0.18105114
-0.27093884 -0.066592574 -0.17779076
-0.24690768 -0.066191092 -0.183007
-0.22297978 -0.065812513 -0.18792498
-0.19921809 -0.065534368 -0.19153714
0.20001341 -0.065546378 -0.19138157
0.22376905 -0.065847382 -0.18747282
0.24758564 -0.066148996 -0.18355429
0.27161345 -0.066587791 -0.17785347
-0.20031403 -0.043146804 -0.17571807
-0.17650661 -0.042919487 -0.17899835
-0.15276101 -0.042706802 -0.18206847
-0.12907524 -0.042512923 -0.18486679
-0.10547296 -0.042391837 -0.18661499
-0.081897661 -0.04227075 -0.18836141
-0.058351438 -0.042156443 -0.19001245
-0.034849592 -0.042127311 -0.19043255
-0.011354213 -0.042098239 -0.19085264
0.012134696 -0.042069152 -0.1912725
0.035626721 -0.042126223 -0.19044816
0.059132405 -0.042187721 -0.18956077
0.082651764 -0.042249218 -0.18867314
0.1062189 -0.042387441 -0.18667758
0.12982407 -0.042538851 -0.18449199
0.15346377 -0.042691633 -0.18228745
0.1771874 -0.042908683 -0.17915523
0.20100124 -0.043172881 -0.17534101
-0.58108294 -0.30527222 -0.15970242
0.58160889 -0.30525988 -0.15978181
-0.55592346 -0.28041071 -0.16744685
0.55639511 -0.28030443 -0.16817343
-0.55745399 -0.25788954 -0.1591624
-0.53124648 -0.25595286 -0.17313921
0.53168011 -0.2557807 -0.17438173
0.55797642 -0.25787854 -0.15924191
-0.53281152 -0.23348433 -0.16429996
0.53328305 -0.23340356 -0.16491723
-0.50858796 -0.2094053 -0.167431
0.50900936 -0.20926929 -0.16853631
-0.48467621 -0.18556309 -0.16893089
0.48517621 -0.18547907 -0.16965675
0.51086134 -0.18693128 -0.15708065
-0.4865174 -0.16313276 -0.15754163
-0.46099913 -0.16189173 -0.16905725
0.46161413 -0.16189343 -0.16904151
0.48691422 -0.16304371 -0.15836811
-0.43754101 -0.13837093 -0.16769946
0.43823522 -0.1384373 -0.16703594
0.46335426 -0.13942719 -0.15714419
-0.41439322 -0.11505002 -0.16395164
-0.38959378 -0.1142711 -0.17238343
0.39024955 -0.11428407 -0.17224181
0.41508266 -0.11513188 -0.16306472
-0.39143828 -0.091833472 -0.15828884
-0.36673421 -0.0911704 -0.16611946
-0.34215713 -0.090512037 -0.17389429
0.34273589 -0.090456098 -0.17455482
0.36730605 -0.091157049 -0.16627729
0.39203268 -0.091877908 -0.15776432
-0.34393525 -0.068078041 -0.15849531
-0.31942162 -0.067523956 -0.16569245
-0.29507101 -0.06701006 -0.17236781
0.29575866 -0.067051336 -0.1718322
0.31999737 -0.067515403 -0.16580307
0.34442729 -0.068049848 -0.1588608
-0.27244851 -0.044135466 -0.161448
-0.24831223 -0.043790966 -0.16641974
-0.22425255 -0.043446466 -0.17139113
0.22488433 -0.043447614 -0.17137527
0.24888398 -0.043772414 -0.16668832
0.27302548 -0.044154197 -0.16117835
-0.20154251 -0.02063325 -0.15798688
-0.17760406 -0.020436779 -0.16117835
-0.15371934 -0.020245478 -0.16428411
-0.12988275 -0.020054698 -0.16738355
-0.10614026 -0.019937977 -0.16927814
-0.082433797 -0.01983501 -0.17094982
-0.058755655 -0.019738942 -0.17250931
-0.035118505 -0.019710779 -0.172966
-0.01148888 -0.019686565 -0.17335951
0.012134696 -0.019663349 -0.17373705
0.035761297 -0.019710779 -0.172966
0.059400264 -0.019760251 -0.17216301
0.083052322 -0.019811675 -0.17132807
0.10675562 -0.019939885 -0.16924655
0.13049655 -0.020077065 -0.1670202
0.15427557 -0.020219192 -0.16471148
0.17815952 -0.020440757 -0.16111481
0.20209838 -0.020661667 -0.15752578
-0.58246726 -0.28259555 -0.15250921
0.58305275 -0.28267482 -0.15196693
-0.58390433 -0.25984615 -0.14504206
0.58453357 -0.25999713 -0.14395189
-0.55905181 -0.23528847 -0.15051413
0.55960941 -0.23535329 -0.15001905
-0.56080997 -0.21266109 -0.14099777
-0.53458858 -0.21102726 -0.15426314
0.53507924 -0.21102145 -0.1543107
0.56139165 -0.21278977 -0.13995278
-0.53638017 -0.188425 -0.1441443
0.536888 -0.1884844 -0.14363086
-0.51042169 -0.18698645 -0.15660334
-0.51236606 -0.16447124 -0.14512229
0.51281524 -0.16448498 -0.14499414
-0.48860028 -0.14067689 -0.14465737
-0.46297532 -0.13951957 -0.15622151
0.48899549 -0.1406576 -0.14484966
-0.46504718 -0.11700717 -0.14276445
0.46539176 -0.11696556 -0.14321387
-0.43961352 -0.11601269 -0.15352988
0.44006473 -0.11598471 -0.15383267
-0.44172162 -0.093456924 -0.13911629
-0.41641235 -0.092587918 -0.14937973
0.41689658 -0.09260273 -0.1492039
0.44200358 -0.09339571 -0.13984025
-0.39339009 -0.069242075 -0.14337432
-0.36856186 -0.068633288 -0.15128064
0.36906725 -0.068653047 -0.15102506
0.39387625 -0.069286406 -0.14279652
-0.34579435 -0.045455381 -0.14239538
-0.32117447 -0.044968188 -0.14942777
0.32158813 -0.044935033 -0.14990723
0.34621221 -0.045462102 -0.14229894
-0.2967107 -0.044514 -0.15598285
0.29725364 -0.044537202 -0.15564847
-0.27401882 -0.021467045 -0.144449
-0.249789 -0.021187887 -0.14898014
-0.22562997 -0.020909682 -0.15349793
0.22609308 -0.020883337 -0.15392828
0.25024712 -0.021187887 -0.14898014
0.27448145 -0.021495685 -0.14398396
-0.17877167 0.0022589415 -0.14221871
-0.15475708 0.0024101734 -0.14502609
-0.13078743 0.0025594682 -0.14779663
-0.1068877 0.0026706159 -0.14985919
-0.083035022 0.0027550757 -0.15142441
-0.059206489 0.0028392076 -0.15298784
-0.035416275 0.0028734952 -0.15362549
-0.011637845 0.0028941631 -0.15400803
0.012134696 0.002913937 -0.1543746
0.035910551 0.0028709471 -0.15357769
0.059698924 0.0028271973 -0.15276468
0.083506458 0.0027678758 -0.15166366
0.10735802 0.0026611537 -0.14968336
0.13124017 0.002554372 -0.14770067
0.15517665 0.0024196804 -0.1452024
0.17918903 0.0022477359 -0.14200985
-0.60927027 -0.28480169 -0.1374259
0.60998988 -0.28506798 -0.13560486
-0.61111003 -0.26217511 -0.12823367
0.61151445 -0.26225147 -0.12768281
-0.58559638 -0.23715511 -0.13624966
0.58625448 -0.23736623 -0.13463688
-0.58765715 -0.21456486 -0.12554193
0.58798581 -0.2145988 -0.12526584
-0.56279719 -0.19003043 -0.13024163
0.56330019 -0.19015375 -0.1291734
-0.53842372 -0.16582057 -0.13260233
0.53894186 -0.16593897 -0.13150334
-0.51442069 -0.14184439 -0.13299024
0.51486808 -0.14191392 -0.13229537
-0.49070576 -0.11803547 -0.13163269
0.49109265 -0.11807287 -0.13122845
-0.46728179 -0.094377071 -0.12825
0.46759462 -0.094385326 -0.12815273
-0.44402778 -0.070783585 -0.12334907
-0.41862741 -0.070010275 -0.13339388
0.41886628 -0.069951937 -0.13415277
0.44427288 -0.070774764 -0.12346292
-0.39565155 -0.0465848 -0.12609363
-0.37055421 -0.045960501 -0.13510478
0.37098941 -0.046010897 -0.13437879
0.39589354 -0.046562418 -0.12641799
-0.34782287 -0.02267535 -0.1248275
-0.32310623 -0.022264242 -0.13150346
-0.29849684 -0.021855891 -0.1381346
0.29884028 -0.021835074 -0.13847256
0.32341856 -0.022257254 -0.13161659
0.34814411 -0.022703409 -0.12437272
-0.27583286 0.0013208687 -0.12481129
-0.25138259 0.0016091168 -0.13016081
-0.22707568 0.0018547326 -0.13471758
-0.20287219 0.0020744652 -0.13879466
0.20325094 0.0020751953 -0.13881052
0.22740951 0.0018659979 -0.13492739
0.25171703 0.0015943348 -0.12988567
0.27610362 0.0013217777 -0.1248275
-0.18002586 0.025181547 -0.12185299
-0.15586388 0.02530317 -0.12448645
-0.13175164 0.025415525 -0.12692082
-0.10768763 0.025515184 -0.12907612
-0.0836813 0.025577962 -0.13043571
-0.059696298 0.025639877 -0.13177812
-0.035741933 0.025671989 -0.13247311
-0.011801007 0.025687829 -0.1328125
0.012134696 0.025701106 -0.13310313
0.036073636 0.025668368 -0.13239229
0.060023274 0.025636271 -0.1316973
0.083994821 0.025581732 -0.13051665
0.10800104 0.025502533 -0.12880087
0.13203375 0.025423124 -0.12708306
0.15613273 0.02530396 -0.12450266
0.1802936 0.025165766 -0.12151122
-0.63909304 -0.2648499 -0.10893071
0.6389311 -0.26463407 -0.11048841
-0.61309457 -0.23950171 -0.1183188
0.61316603 -0.23939922 -0.11910129
-0.61526585 -0.21679065 -0.10747015
0.61515802 -0.21663296 -0.10875046
-0.58997756 -0.19196537 -0.11348462
0.58996004 -0.19183889 -0.11458015
-0.56512952 -0.16743544 -0.11761737
0.56529421 -0.16740382 -0.11791086
-0.56766027 -0.14475363 -0.10391939
-0.54071605 -0.14317894 -0.11965513
0.5410257 -0.14322457 -0.11919892
0.56756759 -0.14463836 -0.10507119
-0.54332155 -0.12050128 -0.10493946
-0.51670116 -0.11915392 -0.11952484
0.51709062 -0.11924431 -0.11854684
0.5432986 -0.12042388 -0.10577786
-0.51929665 -0.096413732 -0.10419917
-0.49301895 -0.095302254 -0.11732364
0.49337921 -0.095382512 -0.116377
0.51935953 -0.096387297 -0.10451162
-0.4695929 -0.071561813 -0.11323917
0.46987161 -0.071612284 -0.11258459
-0.44640315 -0.047900185 -0.10710883
-0.42091748 -0.047224119 -0.11686671
0.42109638 -0.047207192 -0.11711144
0.44660497 -0.047933191 -0.10663247
-0.39797917 -0.023692787 -0.10830724
-0.37277243 -0.023151606 -0.11709523
0.37298512 -0.023151606 -0.11709523
0.39808175 -0.023671582 -0.10865188
-0.35000545 0.00030326843 -0.10592592
-0.32512397 0.00067257881 -0.11278117
-0.30043095 0.00099743903 -0.11880779
0.30063275 0.0010114759 -0.11906838
0.32532641 0.00066034496 -0.11255205
0.35014811 0.00029525161 -0.10577798
-0.27774146 0.02436386 -0.10414982
-0.25313583 0.02460894 -0.1094557
-0.22868754 0.024808586 -0.11377895
-0.20432582 0.024994984 -0.11781311
0.20452295 0.025010824 -0.11815548
0.22888152 0.024804071 -0.11368072
0.25330868 0.02459757 -0.10920954
0.27782807 0.024378374 -0.10446239
-0.13280416 0.048519641 -0.10413337
-0.10857362 0.048593633 -0.10605741
-0.084431969 0.048593633 -0.10605741
-0.060290296 0.048593633 -0.10605741
-0.036148634 0.048593633 -0.10605741
-0.012006843 0.048594274 -0.10607386
0.012134696 0.048594274 -0.10607386
0.036276236 0.048594274 -0.10607386
0.060417775 0.048594274 -0.10607386
0.084559307 0.048594274 -0.10607386
0.10870034 0.048595011 -0.10609043
0.13290821 0.04852847 -0.10436368
-0.66742516 -0.26755801 -0.089386821
0.66742104 -0.26755551 -0.089403629
-0.64104915 -0.24196205 -0.099519253
0.64098454 -0.24186903 -0.10022879
-0.64319658 -0.21904254 -0.089187503
0.64321768 -0.21905673 -0.089071274
-0.6174556 -0.19392312 -0.096529484
0.61743361 -0.1938774 -0.096926093
-0.59235412 -0.16921172 -0.10113597
0.59227943 -0.16911578 -0.10202587
-0.59487736 -0.14634436 -0.088024259
0.59486628 -0.14634436 -0.088024259
-0.57021636 -0.1218735 -0.090084434
0.57016814 -0.12184587 -0.090383053
-0.54602814 -0.097645491 -0.089652538
0.54594237 -0.09760198 -0.090167284
-0.52213448 -0.073547676 -0.087442279
-0.49564651 -0.072498649 -0.10106981
0.49574602 -0.072503671 -0.101004
0.52201408 -0.073497683 -0.088090777
-0.4722521 -0.04867205 -0.095967293
0.47234812 -0.048693895 -0.095652819
-0.44904381 -0.024878457 -0.089054704
-0.42339668 -0.024267539 -0.098974705
0.42351311 -0.024287924 -0.098644376
0.44910741 -0.024908051 -0.08857286
-0.40050736 -0.00060945749 -0.088988423
-0.37518737 -0.0001513958 -0.097488165
0.37520146 -0.00012922287 -0.097901106
0.40052828 -0.00062029064 -0.088788748
-0.3273358 0.023814648 -0.092257619
-0.30244216 0.024112672 -0.098710418
0.30252555 0.024106547 -0.098578334
0.32738554 0.02380152 -0.091975808
-0.25502384 0.047866248 -0.087159634
-0.23039149 0.048038937 -0.091644287
-0.20589668 0.048173413 -0.09513998
-0.18145514 0.048308313 -0.098644376
-0.15709285 0.048425138 -0.10167956
0.15719374 0.048419505 -0.10153139
0.18152314 0.04831028 -0.098693967
0.20593834 0.048174687 -0.095173001
0.2304301 0.048026823 -0.091329098
0.25498304 0.047877781 -0.087458968
-0.66947913 -0.24453503 -0.079857469
0.66958237 -0.24464655 -0.079005122
-0.67154926 -0.2213746 -0.070253491
0.6717509 -0.2215817 -0.068571568
-0.64548331 -0.19604138 -0.078185678
0.6455974 -0.19615731 -0.077181697
-0.61995077 -0.17105171 -0.084062696
0.61999571 -0.17110023 -0.0836128
-0.62246579 -0.14799833 -0.071497083
0.62257648 -0.14812765 -0.070203066
-0.59756708 -0.12335485 -0.0740484
0.59760952 -0.12343547 -0.073176146
-0.57304269 -0.098904341 -0.074786067
0.57302463 -0.09894979 -0.074249506
-0.54885334 -0.074605778 -0.073696256
0.54877734 -0.074626476 -0.073427796
-0.5250057 -0.050437346 -0.070488691
-0.49849823 -0.049540773 -0.083429456
0.49834141 -0.049491018 -0.084146261
0.52487862 -0.050445423 -0.070371032
-0.47508243 -0.025584906 -0.077583313
0.47488332 -0.025539592 -0.07831955
-0.4519659 -0.0016824305 -0.06907618
-0.42599931 -0.001083523 -0.080191612
0.42600009 -0.001113221 -0.079640388
0.45171335 -0.0016452819 -0.069765806
-0.40313518 0.022736132 -0.068907857
-0.37770501 0.023112029 -0.077047706
-0.35245878 0.023464531 -0.084679246
0.35237709 0.023483768 -0.085095763
0.37762102 0.023107514 -0.076947212
0.40304536 0.022710457 -0.068352699
-0.32977614 0.047191054 -0.069614649
-0.30468211 0.047449373 -0.076327562
-0.27979887 0.047663048 -0.081878185
0.27974471 0.047661133 -0.081828117
0.30461192 0.047436461 -0.075992703
0.32958463 0.047205888 -0.070001364
-0.20770475 0.071595542 -0.069042563
-0.18327813 0.071595542 -0.069042563
-0.15885063 0.071596071 -0.069059491
-0.13442415 0.071596071 -0.069059491
-0.10999769 0.071596071 -0.069059491
-0.085571207 0.071596071 -0.069059491
-0.061144728 0.071596071 -0.069059491
-0.036718253 0.071596071 -0.069059491
-0.012291779 0.071596071 -0.069059491
0.012134696 0.071596071 -0.069059491
0.036561172 0.071596071 -0.069059491
0.060987648 0.071596071 -0.069059491
0.085413732 0.071596548 -0.06907618
0.10984007 0.071596548 -0.06907618
0.13426642 0.071596548 -0.06907618
0.15869278 0.071596548 -0.06907618
0.18311912 0.071596548 -0.06907618
0.20754546 0.071596548 -0.06907618
-0.69851273 -0.2472845 -0.058847785
0.69856912 -0.24746177 -0.057492614
-0.6742413 -0.19839951 -0.057763577
0.6741311 -0.19847378 -0.057119846
-0.64788407 -0.17292994 -0.066634774
0.64803559 -0.17310625 -0.064999461
-0.65109724 -0.15003195 -0.051175594
0.65075475 -0.15000805 -0.051413774
-0.62551981 -0.12500009 -0.056238174
0.62535214 -0.12504238 -0.055780053
-0.60044682 -0.10023388 -0.059084892
0.60038185 -0.10031125 -0.058170438
-0.57594353 -0.075730637 -0.059084892
0.57592857 -0.075825825 -0.057848454
-0.55188131 -0.051399916 -0.056594133
0.55180633 -0.051472738 -0.055542469
-0.52811229 -0.027151436 -0.052145362
0.52796519 -0.027204856 -0.051277757
-0.50148857 -0.026363999 -0.064931989
0.50130224 -0.026365042 -0.06491518
-0.47818083 -0.0023085177 -0.057458639
0.47793445 -0.0023085177 -0.057458639
-0.42901078 0.022253573 -0.058458447
0.42869234 0.022281572 -0.059067965
-0.38042483 0.04662706 -0.054965496
-0.3549768 0.04693146 -0.062872767
0.35478303 0.046927638 -0.06277144
0.38021219 0.046609417 -0.054507136
-0.30711576 0.071070984 -0.052009106
-0.28202799 0.07124766 -0.057746768
-0.2571176 0.071392074 -0.0624336
-0.23228428 0.071534418 -0.06705606
0.23209894 0.071539998 -0.067241311
0.2569069 0.07139308 -0.062467456
0.28180969 0.071238354 -0.057441831
0.30679759 0.071080975 -0.052332163
-0.7013135 -0.22432467 -0.04630208
0.70084876 -0.22424895 -0.046916485
-0.70413256 -0.20118111 -0.033674121
0.70333987 -0.20098647 -0.035359263
-0.6772604 -0.17539552 -0.0437572
0.67665988 -0.17526668 -0.044953227
-0.65433824 -0.12690824 -0.035582542
0.65368271 -0.12679711 -0.036784887
-0.62891549 -0.10191151 -0.039272189
0.62826198 -0.10179412 -0.040660143
-0.60398275 -0.077145055 -0.040711522
0.60344291 -0.077076435 -0.041601896
-0.57946783 -0.0525489 -0.04000926
0.578987 -0.052509844 -0.040574312
-0.55533695 -0.02807948 -0.037076592
0.55487257 -0.028057307 -0.037437081
-0.50458574 -0.0029381514 -0.04577291
0.5043624 -0.002977699 -0.045038581
-0.4813242 0.021264359 -0.037042141
-0.45505735 0.021767706 -0.047939777
0.45473769 0.021767706 -0.047939777
0.48102358 0.021231771 -0.036338091
-0.43208534 0.04590749 -0.036269665
-0.40618065 0.046267964 -0.045636296
0.40578228 0.046287157 -0.046131372
0.43168035 0.045906164 -0.036235213
-0.35778311 0.070657142 -0.038569212
-0.33235478 0.070876502 -0.045687556
0.33202806 0.070873201 -0.045585155
0.35742277 0.07064832 -0.038277745
-0.70714432 -0.17793617 -0.020182967
0.70653248 -0.17789692 -0.020547509
-0.68033212 -0.1522004 -0.029505968
0.67970568 -0.15212113 -0.030299067
-0.6577661 -0.10362056 -0.019089937
0.65722084 -0.10361907 -0.019107342
-0.6323545 -0.078578517 -0.022090077
0.63177907 -0.078555822 -0.022384763
-0.6075598 -0.053788036 -0.022124887
0.60695809 -0.053756848 -0.02257514
-0.583166 -0.029131576 -0.019992352
0.58255434 -0.029104844 -0.020426035
-0.55911839 -0.0045575798 -0.015718818
-0.53163987 -0.0037173033 -0.031315804
0.53114212 -0.0037005097 -0.031625748
0.55849177 -0.0045389235 -0.01606679
-0.50820708 0.020632908 -0.023371816
0.50763959 0.020650446 -0.02375257
-0.45830151 0.045503005 -0.025759101
0.45790455 0.045477062 -0.025084853
-0.40931875 0.070136465 -0.021656871
-0.3834523 0.0704052 -0.030385375
0.38295972 0.070415244 -0.030712724
0.40881383 0.070132263 -0.02151835
-0.33518574 0.094876118 -0.01941967
-0.30975133 0.095020585 -0.025672674
-0.28448233 0.095147677 -0.031177998
-0.25976425 0.095147677 -0.031177998
-0.23504616 0.095147677 -0.031177998
-0.21032807 0.095147677 -0.031177998
-0.18560892 0.095148049 -0.031195283
-0.16089097 0.095148049 -0.031195283
-0.13617301 0.095148049 -0.031195283
-0.11145508 0.095148049 -0.031195283
-0.086737119 0.095148049 -0.031195283
-0.062018771 0.095148474 -0.031212449
-0.037300944 0.095148474 -0.031212449
-0.012583124 0.095148474 -0.031212449
0.012134696 0.095148474 -0.031212449
0.036852516 0.095148474 -0.031212449
0.061570074 0.095148847 -0.031229734
0.086287759 0.095148847 -0.031229734
0.11100545 0.095148847 -0.031229734
0.13572314 0.095148847 -0.031229734
0.16044083 0.095148847 -0.031229734
0.18515758 0.095149271 -0.03124702
0.20987514 0.095149271 -0.03124702
0.23459271 0.095149271 -0.03124702
0.25931025 0.095149271 -0.03124702
0.28402779 0.095149271 -0.03124702
0.30926988 0.095018193 -0.025568962
0.3346552 0.094874151 -0.019332886
-0.7347337 -0.20413217 -0.0081169605
0.73418158 -0.20417053 -0.0077847242
-0.71035343 -0.15457201 -0.0058082342
0.70990181 -0.15466136 -0.0049154758
-0.68374282 -0.12893125 -0.013682365
0.68322819 -0.12896177 -0.01335144
-0.68717968 -0.10542867 0.0022627115
-0.66137898 -0.080147505 -0.0017075539
0.66092467 -0.08023271 -0.00060164928
-0.63611108 -0.05509074 -0.0033209324
0.63560313 -0.055146664 -0.0025144815
-0.61129326 -0.030194983 -0.0027250051
0.61074215 -0.03023383 -0.0020935535
-0.58690089 -0.0054166764 0.00022363663
0.58633178 -0.005453676 0.00090885162
-0.53538537 0.019978344 -0.0091999769
0.53472227 0.019991308 -0.0094795227
-0.51195043 0.044519849 -0.0002155304
-0.48499039 0.045020752 -0.013229609
0.48433474 0.045038827 -0.01369977
0.51124448 0.044524528 -0.00033843517
-0.46196824 0.069490775 -0.00068938732
-0.43546385 0.069835626 -0.011887431
0.43492371 0.069822177 -0.011451364
0.46120703 0.06950815 -0.0012513399
-0.38665628 0.094528563 -0.0043723583
-0.36079565 0.094715923 -0.012480259
0.36018425 0.094720013 -0.012654424
0.38602751 0.094523348 -0.0041446686
-0.73772019 -0.1806303 0.0048152208
0.7373485 -0.18080115 0.0064014196
-0.74123549 -0.15715837 0.020036817
0.7406069 -0.15725455 0.020997405
-0.71361101 -0.13100657 0.0087838173
0.71329266 -0.13119423 0.010815978
0.68679178 -0.10555831 0.0037937164
-0.69134825 -0.081941932 0.021602392
0.69047105 -0.081933737 0.0214957
-0.66545892 -0.056562632 0.017922163
0.66468197 -0.056579754 0.018170714
-0.64023495 -0.031427145 0.017282844
0.63948148 -0.03144905 0.017638087
-0.61550617 -0.0064374059 0.019165874
0.61473227 -0.0064556897 0.019503474
-0.56297874 0.019272432 0.0060840845
0.56235361 0.019242287 0.006736517
-0.53934473 0.043965742 0.014178991
0.53865856 0.043939158 0.014870405
-0.48882315 0.069110468 0.011664987
0.48805502 0.069108181 0.011735678
-0.43913957 0.094089575 0.014639854
-0.41275769 0.094321005 0.0046213865
0.41203994 0.094319776 0.0046741962
0.43828714 0.094098613 0.01425004
-0.36406437 0.11914204 0.015827775
-0.33822337 0.11925089 0.0087661743
-0.31307945 0.11926907 0.0075833797
-0.28806296 0.11926907 0.0075833797
-0.26304647 0.11926907 0.0075833797
-0.23803002 0.11926907 0.0075833797
-0.21301354 0.11926907 0.0075833797
-0.18799816 0.11926875 0.0076009035
-0.16298155 0.11926875 0.0076009035
-0.13796493 0.11926875 0.0076009035
-0.11294834 0.11926875 0.0076009035
-0.087931737 0.11926875 0.0076009035
-0.062915541 0.11926843 0.0076187849
-0.03789879 0.11926843 0.0076187849
-0.012882047 0.11926843 0.0076187849
0.012134696 0.11926843 0.0076187849
0.037151575 0.11926816 0.0076363087
0.062168457 0.11926816 0.0076363087
0.087185331 0.11926816 0.0076363087
0.11220221 0.11926816 0.0076363087
0.1372191 0.11926816 0.0076363087
0.16223598 0.11926816 0.0076363087
0.1872538 0.119268 0.0076539516
0.21227083 0.119268 0.0076539516
0.23728783 0.119268 0.0076539516
0.26230487 0.119268 0.0076539516
0.28732187 0.119268 0.0076539516
0.31233886 0.119268 0.0076539516
0.33746895 0.11925052 0.0087839365
0.36329779 0.11913581 0.016235828
-0.76995879 -0.18390149 0.035168529
0.76889157 -0.1838513 0.034701824
-0.74558485 -0.13378581 0.038869977
0.74417943 -0.13361308 0.037000179
-0.71804166 -0.10766155 0.028630614
0.71695524 -0.10759175 0.027808428
0.6689257 -0.032787576 0.039373755
0.64365411 -0.0075234622 0.039319873
-0.59120607 0.0184668 0.023525953
0.59036779 0.01845856 0.023704171
-0.56728101 0.043341994 0.030383468
0.56633109 0.043348268 0.030222416
-0.51595849 0.068712734 0.024577737
0.51520962 0.068686955 0.025416136
-0.49288705 0.0935487 0.038060784
-0.46587524 0.093826793 0.026022792
0.46501341 0.093822166 0.02621913
0.49194214 0.093542859 0.038312435
-0.41648063 0.11887659 0.033069968
-0.39014077 0.11901756 0.023917913
0.3892453 0.11902058 0.023721933
0.41553959 0.11887632 0.03308785
-0.77414423 -0.16042781 0.052707195
0.77262682 -0.16024464 0.05087626
-0.72257918 -0.084047586 0.048956394
0.7213186 -0.083977968 0.048051715
-0.6960097 -0.058315903 0.043228984
0.69477463 -0.058244735 0.042201281
-0.67012709 -0.032849714 0.04038167
-0.64482927 -0.0075729042 0.040237784
-0.62015444 0.017552644 0.043319225
0.6190123 0.017582521 0.042670012
-0.59593117 0.042621523 0.049101233
0.5947907 0.042637572 0.048685074
-0.54373962 0.068233885 0.040129781
0.5426634 0.068248875 0.039643645
-0.52051759 0.093208797 0.052779794
0.51933038 0.09322267 0.052181244
-0.47004893 0.11854577 0.054558754
-0.44307598 0.11872303 0.043048501
0.44211727 0.11871576 0.043517709
0.4689 0.11855035 0.054268241
-0.3939147 0.14392395 0.054558635
-0.36769548 0.14397992 0.047274113
-0.34237346 0.14397992 0.047274113
-0.31705144 0.14397992 0.047274113
-0.29173109 0.14397982 0.047292352
-0.26640892 0.14397982 0.047292352
-0.24108681 0.14397982 0.047292352
-0.21576466 0.14397982 0.047292352
-0.19044249 0.14397982 0.047292352
-0.16512035 0.14397982 0.047292352
-0.13979819 0.14397982 0.047292352
-0.11447606 0.14397982 0.047292352
-0.089153901 0.14397982 0.047292352
-0.063831754 0.14397982 0.047292352
-0.0385096 0.14397982 0.047292352
-0.013187452 0.14397982 0.047292352
0.012134696 0.14397982 0.047292352
0.037456844 0.14397982 0.047292352
0.062778994 0.14397982 0.047292352
0.088101141 0.14397982 0.047292352
0.11342329 0.14397982 0.047292352
0.13874546 0.14397982 0.047292352
0.1640676 0.14397982 0.047292352
0.18938975 0.14397982 0.047292352
0.21471189 0.14397982 0.047292352
0.24003406 0.14397982 0.047292352
0.26535758 0.14397976 0.047310233
0.29067987 0.14397976 0.047310233
0.31600216 0.14397976 0.047310233
0.34132445 0.14397976 0.047310233
0.36664677 0.14397976 0.047310233
0.39283118 0.14392215 0.054776788
-0.77837032 -0.13669997 0.070416451
0.77715218 -0.13670513 0.070471406
-0.74998045 -0.11014017 0.057903528
0.74871188 -0.11008942 0.05730319
-0.72717762 -0.06013976 0.069554806
0.72613126 -0.060196951 0.070379734
-0.70072949 -0.034373477 0.065125704
0.69966853 -0.034411788 0.065747261
-0.67495108 -0.0088313222 0.063591003
0.67387146 -0.0088579506 0.064084172
-0.64973009 0.016563967 0.06472373
0.64864862 0.016538665 0.065271974
-0.6249814 0.04187873 0.068400621
0.62389809 0.041851252 0.069115043
-0.60073084 0.067157716 0.075080276
-0.57205367 0.067704014 0.057339549
0.57091737 0.06770508 0.05730319
-0.54848409 0.09285406 0.068144321
0.54730922 0.09284848 0.068382263
-0.4974933 0.11833917 0.067979574
0.49626258 0.11834119 0.067851424
-0.4473998 0.1437723 0.074252963
-0.42047006 0.14385459 0.063554525
0.41929436 0.14385453 0.063573003
0.44610825 0.14377406 0.074014306
-0.78278363 -0.11276585 0.088910222
0.78183025 -0.11291978 0.090728045
-0.75443161 -0.086220175 0.077177763
0.75342423 -0.086315095 0.078411698
-0.73233563 -0.036069065 0.092659712
-0.70578015 -0.010176703 0.088557959
0.7046293 -0.010233745 0.089614868
-0.68013257 0.015464783 0.088520885
0.67889595 0.015433893 0.089188337
-0.65506119 0.040995017 0.091359377
0.65371561 0.040985882 0.091600657
0.59963346 0.067128271 0.076036811
-0.57697445 0.092461742 0.085132003
0.57578391 0.092440695 0.086038709
-0.52516508 0.11813055 0.081528664
0.52393681 0.11812183 0.082100868
-0.47463432 0.14368258 0.085909009
0.47331765 0.14368068 0.086149812
-0.39803839 0.16930202 0.088039041
-0.37240258 0.16930202 0.088039041
-0.34676674 0.16930202 0.088039041
-0.32113093 0.16930202 0.088039041
-0.29549512 0.16930202 0.088039041
-0.26985928 0.16930202 0.088039041
-0.24422348 0.16930202 0.088039041
-0.21858767 0.16930202 0.088039041
-0.19295184 0.16930202 0.088039041
-0.16731602 0.16930202 0.088039041
-0.14168021 0.16930202 0.088039041
-0.11604439 0.16930202 0.088039041
-0.090408579 0.16930202 0.088039041
-0.064772762 0.16930202 0.088039041
-0.039136939 0.16930202 0.088039041
-0.013501122 0.16930202 0.088039041
0.012134696 0.16930202 0.088039041
0.037770513 0.16930202 0.088039041
0.063406333 0.16930202 0.088039041
0.089042149 0.16930202 0.088039041
0.11467797 0.16930202 0.088039041
0.14031379 0.16930202 0.088039041
0.16594961 0.16930202 0.088039041
0.19158542 0.16930202 0.088039041
0.2172201 0.16930202 0.088020205
0.2428558 0.16930202 0.088020205
0.26849148 0.16930202 0.088020205
0.29412714 0.16930202 0.088020205
0.3197628 0.16930202 0.088020205
0.34539849 0.16930202 0.088020205
0.37103418 0.16930202 0.088020205
0.39666983 0.16930202 0.088020205
-0.81234074 -0.13987634 0.10480142
0.81146663 -0.14011681 0.10740519
-0.75981802 -0.062283814 0.10050154
0.75848484 -0.062323883 0.10108042
0.73114192 -0.036128655 0.09362638
-0.63050956 0.066478863 0.097125769
0.6290077 0.06648986 0.096771479
-0.60637754 0.091987945 0.10564399
0.60470647 0.092009954 0.104689
-0.55365109 0.11786692 0.09865427
0.55218786 0.11786835 0.098560929
-0.50228494 0.14358102 0.099101901
0.50087154 0.14357899 0.099363089
-0.45194414 0.16930191 0.10704911
-0.4248414 0.16930196 0.096957922
0.42342699 0.16930196 0.097125649
0.45045841 0.16930196 0.10725522
0.81630522 -0.11604887 0.12768137
-0.78843397 -0.088945985 0.11258769
0.78680032 -0.088919938 0.11224902
-0.76607293 -0.038219988 0.12758613
0.76406336 -0.038126647 0.12606907
-0.73858982 -0.011907279 0.12067485
0.73666674 -0.01183106 0.11925817
-0.71200287 0.014129654 0.11742771
0.71016717 0.014183596 0.11625898
-0.68614864 0.039990187 0.11746562
0.68438578 0.040022865 0.11661696
-0.66106862 0.065732338 0.12137413
0.65936548 0.065745041 0.12095833
-0.63650686 0.091465041 0.12828839
0.63486207 0.091460995 0.12845933
-0.58263248 0.11758309 0.11708832
0.58097208 0.11758941 0.11667359
-0.53053588 0.14346051 0.1147517
0.52888548 0.14346451 0.11424339
-0.47962251 0.16930202 0.12001359
0.47795501 0.16930202 0.11961687
-0.81845856 -0.11621451 0.12963676
-0.79467541 -0.06493327 0.13874209
0.79260999 -0.064840525 0.13740563
-0.61235487 0.1172612 0.13799739
0.61071205 0.11725184 0.13860846
-0.55928451 0.14332832 0.13191807
0.55761719 0.14332658 0.13214636
-0.50757468 0.16930202 0.13345957
0.50587529 0.16930202 0.13357389
-0.45703277 0.19536686 0.14377308
-0.42952356 0.19528176 0.13273633
-0.40318534 0.19525944 0.12982678
-0.37722784 0.19525944 0.12982678
-0.35127032 0.19525944 0.12982678
-0.32531282 0.19525944 0.12982678
-0.29935357 0.19525939 0.12980759
-0.27339622 0.19525939 0.12980759
-0.24743885 0.19525939 0.12980759
-0.2214815 0.19525939 0.12980759
-0.19552414 0.19525939 0.12980759
-0.16956678 0.19525939 0.12980759
-0.14360943 0.19525939 0.12980759
-0.11765208 0.19525939 0.12980759
-0.091694146 0.19525912 0.12978876
-0.065736935 0.19525912 0.12978876
-0.039779723 0.19525912 0.12978876
-0.013822514 0.19525912 0.12978876
0.012134696 0.19525912 0.12978876
0.038091905 0.19525912 0.12978876
0.064049117 0.19525912 0.12978876
0.090006322 0.19525912 0.12978876
0.11596294 0.19525912 0.1297698
0.14192002 0.19525912 0.1297698
0.16787708 0.19525912 0.1297698
0.19383414 0.19525912 0.1297698
0.2197912 0.19525912 0.1297698
0.24574828 0.19525912 0.1297698
0.27170533 0.19525912 0.1297698
0.29766238 0.19525912 0.1297698
0.3236177 0.19525896 0.12975061
0.34957463 0.19525896 0.12975061
0.37553358 0.19525912 0.1297698
0.40149063 0.19525912 0.1297698
0.4277826 0.19528006 0.13248885
0.45525736 0.19536798 0.14392626
-0.82466316 -0.092197388 0.15482438
0.82262158 -0.092145473 0.15414965
-0.77243453 -0.013764158 0.15513289
0.77079278 -0.013822347 0.15621316
-0.74494994 0.012663782 0.14916468
0.74332839 0.012617528 0.15016437
-0.71835095 0.038858145 0.1468792
0.71675098 0.038817495 0.14793527
-0.69247365 0.064915605 0.14789677
0.69088477 0.064878933 0.14908779
-0.66720444 0.090916723 0.15203059
0.66563815 0.090881482 0.15355217
-0.64297092 0.11689344 0.16187692
0.64106107 0.11689147 0.16201246
-0.58858746 0.14318354 0.15072215
0.58686876 0.14317775 0.15149164
-0.53613937 0.16930196 0.14941454
0.5344159 0.16930196 0.15016425
-0.48491153 0.19546227 0.15617466
0.4830741 0.19546519 0.15656054
-0.83096117 -0.067818791 0.18039095
-0.8010149 -0.040543109 0.16530764
0.79940778 -0.040637478 0.16684091
-0.75224006 0.037513301 0.18182039
0.75011361 0.037519991 0.18164396
-0.72571766 0.063894555 0.1810565
0.72345203 0.063921556 0.18017578
-0.61909336 0.14300075 0.17447031
0.61687165 0.1430091 0.17339766
-0.56543255 0.16930191 0.1682204
0.56333572 0.16930191 0.16752076
-0.5134176 0.19557947 0.17141056
0.51133245 0.19557554 0.17088485
-0.43474278 0.22187568 0.17261827
-0.40845829 0.22187611 0.1726377
-0.38217121 0.22187611 0.1726377
-0.35588413 0.22187611 0.1726377
-0.32959709 0.22187611 0.1726377
-0.30331001 0.22187611 0.1726377
-0.27702296 0.22187611 0.1726377
-0.25073591 0.22187611 0.1726377
-0.22444884 0.22187611 0.1726377
-0.19816178 0.22187611 0.1726377
-0.17187576 0.22187638 0.17265713
-0.14558856 0.22187638 0.17265713
-0.11930136 0.22187638 0.17265713
-0.093014151 0.22187638 0.17265713
-0.066726938 0.22187638 0.17265713
-0.040439725 0.22187638 0.17265713
-0.014152515 0.22187638 0.17265713
0.012134696 0.22187638 0.17265713
0.038421907 0.22187638 0.17265713
0.064709418 0.2218767 0.1726768
0.090996772 0.2218767 0.1726768
0.11728413 0.2218767 0.1726768
0.1435715 0.2218767 0.1726768
0.16985886 0.2218767 0.1726768
0.19614623 0.2218767 0.1726768
0.2224336 0.2218767 0.1726768
0.24872093 0.2218767 0.1726768
0.27500981 0.22187696 0.17269623
0.30129731 0.22187696 0.17269623
0.32758483 0.22187696 0.17269623
0.35387233 0.22187696 0.17269623
0.38015985 0.22187696 0.17269623
0.40644735 0.22187696 0.17269623
0.43273485 0.22187696 0.17269623
0.82949144 -0.067995206 0.1829375
-0.80862308 -0.01603055 0.19718909
0.8063159 -0.016007006 0.19675422
-0.77978939 0.010917097 0.18698049
0.7776525 0.01091896 0.18694115
-0.69996047 0.0901803 0.183918
0.69752634 0.090218306 0.18227112
-0.6748333 0.11645834 0.19014668
0.67254448 0.11646907 0.18943822
-0.59548414 0.16930196 0.18967438
0.59331864 0.16930202 0.18957603
-0.54251099 0.19571368 0.18882835
0.54036856 0.19571368 0.18882835
-0.49077448 0.22223978 0.19626021
-0.46251115 0.22204046 0.18330979
0.46040365 0.22203955 0.18325114
0.48862156 0.22224493 0.19659615
-0.83918446 -0.043527752 0.21377337
0.83647877 -0.043431953 0.21221745
-0.65034163 0.14280292 0.20017624
0.64815217 0.14280123 0.20039392
-0.62630677 0.16930196 0.21351409
0.62417579 0.16930191 0.21465158
-0.57209462 0.19585788 0.20755792
0.56993991 0.1958641 0.20837331
-0.51971561 0.22248693 0.21231723
0.51744199 0.22249219 0.21265614
-0.4404867 0.24917626 0.21650982
-0.4138619 0.24917626 0.21650982
-0.3872371 0.24917626 0.21650982
-0.36061233 0.24917626 0.21650982
-0.33398753 0.24917626 0.21650982
-0.30736274 0.24917626 0.21650982
-0.28073794 0.24917626 0.21650982
-0.25411317 0.24917626 0.21650982
-0.22748837 0.24917626 0.21650982
-0.2008636 0.24917626 0.21650982
-0.17423883 0.24917626 0.21650982
-0.14761402 0.24917626 0.21650982
-0.12098924 0.24917626 0.21650982
-0.094364457 0.24917626 0.21650982
-0.067740127 0.24917684 0.21652985
-0.041115187 0.24917684 0.21652985
-0.014490246 0.24917684 0.21652985
0.012134696 0.24917684 0.21652985
0.038759638 0.24917684 0.21652985
0.065384582 0.24917684 0.21652985
0.092009515 0.24917684 0.21652985
0.11863446 0.24917684 0.21652985
0.14525941 0.24917684 0.21652985
0.17188434 0.24917684 0.21652985
0.19850929 0.24917684 0.21652985
0.22513424 0.24917684 0.21652985
0.25175917 0.24917684 0.21652985
0.27838412 0.24917684 0.21652985
0.30500904 0.24917684 0.21652985
0.33163399 0.24917684 0.21652985
0.35825893 0.24917684 0.21652985
0.38488388 0.24917684 0.21652985
0.4115088 0.24917684 0.21652985
0.43813378 0.24917684 0.21652985
-0.81757343 0.008713305 0.23469508
0.81496137 0.0087365806 0.23419011
-0.78842723 0.035874933 0.22438335
0.78596193 0.035883501 0.22416246
-0.76065409 0.06271033 0.21951079
0.75830579 0.062706128 0.21965086
-0.73390263 0.089369468 0.21903002
0.73164427 0.089356445 0.21959066
-0.70794982 0.11596243 0.22235632
0.70579028 0.11594377 0.22356021
-0.68274027 0.14257601 0.2296524
0.68054348 0.1425657 0.23100221
-0.60295135 0.19604476 0.23184907
0.60038561 0.19604057 0.23130453
-0.54944277 0.22278553 0.23170805
0.54683381 0.22277188 0.23082101
-0.46845582 0.24940035 0.22621143
0.46597311 0.24939105 0.22580957
-0.84843802 -0.018948331 0.25133801
0.84593612 -0.018975765 0.25184798
-0.65858632 0.16930196 0.24301696
0.65587687 0.16930191 0.24220526
-0.57985115 0.2231189 0.25335836
0.57719886 0.22311774 0.25327659
-0.49724838 0.2497308 0.24052215
0.49470535 0.24973053 0.240502
-0.79771566 0.061321892 0.26460338
0.79545361 0.061257951 0.26668
-0.7699874 0.088392854 0.26131856
0.76739752 0.088380888 0.26183152
-0.74335825 0.11533816 0.26289856
0.74041533 0.11535522 0.26179039
-0.7175687 0.14227591 0.26863563
0.71451944 0.14228708 0.26717377
-0.63485467 0.19625981 0.25978112
0.63212264 0.19625784 0.25953507
-0.52675509 0.25013548 0.25804007
0.52414882 0.25014645 0.25851083
-0.44637483 0.27718669 0.26150322
-0.41940367 0.27718669 0.26150322
-0.39243251 0.27718669 0.26150322
-0.36546135 0.27718669 0.26150322
-0.33849022 0.27718669 0.26150322
-0.31151909 0.27718669 0.26150322
-0.28454792 0.27718669 0.26150322
-0.25757521 0.27718583 0.26148283
-0.2306042 0.27718583 0.26148283
-0.20363322 0.27718583 0.26148283
-0.17666222 0.27718583 0.26148283
-0.14969122 0.27718583 0.26148283
-0.12272026 0.27718583 0.26148283
-0.095749266 0.27718583 0.26148283
-0.068778269 0.27718583 0.26148283
-0.041807283 0.27718583 0.26148283
-0.014836294 0.27718583 0.26148283
0.012134696 0.27718583 0.26148283
0.039105687 0.27718583 0.26148283
0.066076674 0.27718583 0.26148283
0.09304814 0.27718669 0.26150322
0.12001929 0.27718669 0.26150322
0.14699043 0.27718669 0.26150322
0.17396159 0.27718669 0.26150322
0.20093273 0.27718669 0.26150322
0.22790389 0.27718669 0.26150322
0.25487503 0.27718669 0.26150322
0.28184617 0.27718669 0.26150322
0.30881733 0.27718669 0.26150322
0.33578849 0.27718669 0.26150322
0.36275962 0.27718669 0.26150322
0.38973075 0.27718669 0.26150322
0.41670191 0.27718669 0.26150322
0.44367307 0.27718669 0.26150322
-0.82717967 0.033928677 0.27494919
0.82494277 0.033833951 0.27741075
-0.69236529 0.16930196 0.27774203
0.68956637 0.16930185 0.27788675
-0.61126018 0.22351016 0.27877736
0.60860437 0.22352658 0.27983427
-0.55712897 0.2506254 0.27925384
0.55433518 0.25063193 0.27954412
-0.47496864 0.27754715 0.27321386
0.47215241 0.27754146 0.27302802
-0.85894364 0.005974859 0.29398561
0.85646576 0.0058829635 0.29597187
-0.66790509 0.19650367 0.29143846
0.66528517 0.19651665 0.29312921
-0.58859527 0.25121969 0.30498946
0.58541596 0.25119933 0.30410683
-0.50445455 0.27805769 0.28979087
0.50149453 0.27804855 0.28949904
-0.81021076 0.087067291 0.31870854
0.80705911 0.087068252 0.31866622
-0.78164208 0.11455863 0.31352508
0.77870375 0.11454715 0.31428576
-0.75434786 0.14192751 0.31388426
0.75158554 0.1419149 0.31553328
0.72538573 0.16930196 0.3214649
-0.72818762 0.16930202 0.31972599
-0.64445633 0.22401771 0.31175137
0.64119959 0.2240032 0.31080186
-0.53465432 0.27865973 0.30934703
0.53161198 0.27866557 0.3095367
-0.45262215 0.30599517 0.30924165
-0.42510447 0.30593932 0.30778801
-0.39777702 0.30593932 0.30778801
-0.37044957 0.30593932 0.30778801
-0.34312212 0.30593932 0.30778801
-0.31579468 0.30593932 0.30778801
-0.28846723 0.30593932 0.30778801
-0.26113978 0.30593932 0.30778801
-0.23381232 0.30593932 0.30778801
-0.20648487 0.30593932 0.30778801
-0.17915745 0.30593932 0.30778801
-0.15182999 0.30593932 0.30778801
-0.12450255 0.30593932 0.30778801
-0.097175099 0.30593932 0.30778801
-0.069848135 0.30594 0.30780923
-0.042520523 0.30594 0.30780923
-0.015192914 0.30594 0.30780923
0.012134696 0.30594 0.30780923
0.039462306 0.30594 0.30780923
0.066789918 0.30594 0.30780923
0.094117522 0.30594 0.30780923
0.12144513 0.30594 0.30780923
0.14877276 0.30594 0.30780923
0.17610036 0.30594 0.30780923
0.20342797 0.30594 0.30780923
0.23075558 0.30594 0.30780923
0.25808316 0.30594 0.30780923
0.28541082 0.30594 0.30780923
0.31273842 0.30594 0.30780923
0.34006602 0.30594 0.30780923
0.36739361 0.30594 0.30780923
0.39472124 0.30594 0.30780923
0.42204887 0.30594 0.30780923
0.44960743 0.30601224 0.3096844
-0.84064138 0.059266448 0.3313601
0.83734763 0.059273519 0.33112538
-0.70364827 0.19683205 0.33411479
0.70003802 0.19681817 0.33229935
-0.62126231 0.25191891 0.33526945
0.61805785 0.25192779 0.33565426
-0.56592518 0.27940843 0.33366621
0.56281918 0.27943894 0.33464932
-0.48220795 0.30661923 0.32545912
0.47901386 0.30661923 0.32545912
-0.87378961 0.030876309 0.35425282
0.87061113 0.030838102 0.35524726
-0.67951572 0.22463396 0.35176921
0.67617089 0.22463821 0.35204983
-0.51260257 0.30739057 0.3454994
0.50918561 0.30737162 0.34500456
-0.43094462 0.33545679 0.35520411
-0.40325215 0.33545679 0.35520411
-0.37555969 0.33545679 0.35520411
-0.34786725 0.33545679 0.35520411
-0.32017478 0.33545679 0.35520411
-0.29248413 0.33545771 0.35522568
-0.26479152 0.33545771 0.35522568
-0.23709889 0.33545771 0.35522568
-0.20940629 0.33545771 0.35522568
-0.18171366 0.33545771 0.35522568
-0.15402104 0.33545771 0.35522568
-0.12632841 0.33545771 0.35522568
-0.098636463 0.33545873 0.35524738
-0.070943668 0.33545873 0.35524738
-0.043250881 0.33545873 0.35524738
-0.015558093 0.33545873 0.35524738
0.012134696 0.33545873 0.35524738
0.039827485 0.33545873 0.35524738
0.067520604 0.33545968 0.35526872
0.095213555 0.33545968 0.35526872
0.12290651 0.33545968 0.35526872
0.15059948 0.33545968 0.35526872
0.17829242 0.33545968 0.35526872
0.2059854 0.33545968 0.35526872
0.23367965 0.33546078 0.35529041
0.26137277 0.33546078 0.35529041
0.28906593 0.33546078 0.35529041
0.31675905 0.33546078 0.35529041
0.34445217 0.33546078 0.35529041
0.37214527 0.33546078 0.35529041
0.39983842 0.33546078 0.35529041
0.42753404 0.33546174 0.35531211
0.79180241 0.14145674 0.37505615
-0.65574425 0.25278693 0.37284899
0.65240574 0.25281569 0.37409425
-0.59873343 0.28036889 0.36485267
0.59515876 0.28035405 0.36437452
-0.54396421 0.30832669 0.36981642
0.54042536 0.30832577 0.36979449
-0.46011606 0.33597866 0.36650586
0.45667303 0.3360039 0.36704969
-0.82550198 0.11345945 0.38492155
0.82115871 0.11350718 0.38182473
-0.7961601 0.14142963 0.37855756
-0.76865631 0.16930191 0.38026714
0.76475322 0.16930196 0.37888622
-0.74249297 0.19725116 0.38855231
0.73910862 0.19726247 0.3900286
-0.49059662 0.33687896 0.38599885
0.48694798 0.33688304 0.38608682
-0.85755038 0.085138939 0.40221632
0.85295635 0.085219786 0.39871323
-0.71749634 0.2254274 0.4033041
0.71389103 0.2254425 0.40428138
-0.63346934 0.28158101 0.40421486
0.62960124 0.28156871 0.40381491
-0.57656229 0.30946803 0.39946628
0.57297254 0.30951136 0.40059698
-0.52213442 0.33801869 0.41066921
0.51814538 0.33797216 0.40966642
-0.43809769 0.36627859 0.41327965
-0.40889347 0.36578178 0.40405929
-0.38082492 0.36578178 0.40405929
-0.35275638 0.36578178 0.40405929
-0.32468784 0.36578178 0.40405929
-0.2966193 0.36578178 0.40405929
-0.26854903 0.36578056 0.40403688
-0.24048066 0.36578056 0.40403688
-0.21241228 0.36578056 0.40403688
-0.1843439 0.36578056 0.40403688
-0.15627554 0.36578056 0.40403688
-0.12820716 0.36578056 0.40403688
-0.1001388 0.36578056 0.40403688
-0.072070427 0.36578056 0.40403688
-0.04400171 0.36577955 0.40401483
-0.015933506 0.36577955 0.40401483
0.012134696 0.36577955 0.40401483
0.040202901 0.36577955 0.40401483
0.068271101 0.36577955 0.40401483
0.0963393 0.36577955 0.40401483
0.12440751 0.36577955 0.40401483
0.15247487 0.36577809 0.40399265
0.18054289 0.36577809 0.40399265
0.20861092 0.36577809 0.40399265
0.23667894 0.36577809 0.40399265
0.26474699 0.36577809 0.40399265
0.29281503 0.36577809 0.40399265
0.32088304 0.36577809 0.40399265
0.34894902 0.36577684 0.40397036
0.37701687 0.36577684 0.40397036
0.40508476 0.36577684 0.40397036
0.43428171 0.36630389 0.41374862
0.88863057 0.05620569 0.43075645
-0.69414467 0.25405556 0.42778349
0.68993008 0.25402638 0.42652369
-0.61145234 0.31102628 0.43995428
0.60735482 0.31102103 0.43981838
-0.5551675 0.33949259 0.44258428
0.55102861 0.33947897 0.44228911
-0.46883425 0.36734802 0.43312514
0.46485862 0.36736858 0.43350887
-0.67081881 0.28312755 0.4544425
0.66716588 0.28322038 0.45745873
-0.50076473 0.36876294 0.4593811
0.49650374 0.36874801 0.45910645
-0.41618752 0.39774042 0.46722782
-0.38622281 0.39693487 0.45414567
-0.35776871 0.39693487 0.45414567
-0.3293125 0.39693332 0.45412266
-0.30085856 0.39693332 0.45412266
-0.27240464 0.39693332 0.45412266
-0.24395069 0.39693332 0.45412266
-0.21549678 0.39693332 0.45412266
-0.18704283 0.39693332 0.45412266
-0.15858784 0.39693201 0.45410001
-0.13013409 0.39693201 0.45410001
-0.10168034 0.39693201 0.45410001
-0.073226579 0.39693201 0.45410001
-0.044772819 0.39693201 0.45410001
-0.016319063 0.39693201 0.45410001
0.012134696 0.39693058 0.45407701
0.040588278 0.39693058 0.45407701
0.069041863 0.39693058 0.45407701
0.097495437 0.39693058 0.45407701
0.12594903 0.39693058 0.45407701
0.15440173 0.39692923 0.45405424
0.18285514 0.39692923 0.45405424
0.21130855 0.39692923 0.45405424
0.23976195 0.39692923 0.45405424
0.26821536 0.39692923 0.45405424
0.29666877 0.39692923 0.45405424
0.32512024 0.39692771 0.45403147
0.35357347 0.39692771 0.45403147
0.3820267 0.39692771 0.45403147
-0.81805968 0.16930196 0.4766556
0.81280601 0.16930191 0.47250032
-0.7893675 0.19792715 0.47635508
0.78432089 0.19790141 0.47303081
-0.59039968 0.34145457 0.48506296
0.41193435 0.3977589 0.46752656
-0.85037994 0.14055134 0.49264622
0.84524888 0.14057389 0.48973477
-0.76308346 0.22672555 0.48761845
0.75923699 0.22677121 0.49059629
-0.65017635 0.31328258 0.49857581
0.64561397 0.31327468 0.4983654
0.58624512 0.341535 0.48680484
-0.53452373 0.37070239 0.49537528
0.52982759 0.37062699 0.49397504
-0.44748011 0.39910927 0.48945558
0.44306388 0.39913088 0.48980498
-0.73859197 0.25592428 0.50870454
0.73427242 0.25595844 0.51018596
-0.48020625 0.40099186 0.52002287
0.47546199 0.40096557 0.51959705
-0.36356068 0.4293988 0.51202202
-0.33407027 0.42895561 0.50562727
-0.30521986 0.42895561 0.50562727
-0.27636942 0.42895561 0.50562727
-0.24751902 0.42895561 0.50562727
-0.21866862 0.42895561 0.50562727
-0.18981819 0.42895561 0.50562727
-0.16096778 0.42895561 0.50562727
-0.13211736 0.42895561 0.50562727
-0.10326768 0.42895737 0.50565064
-0.074417092 0.42895737 0.50565064
-0.045566492 0.42895737 0.50565064
-0.016715899 0.42895737 0.50565064
0.012134696 0.42895737 0.50565064
0.04098529 0.42895737 0.50565064
0.069835886 0.42895737 0.50565064
0.098686479 0.42895737 0.50565064
0.1275378 0.42895892 0.50567424
0.15638858 0.42895892 0.50567424
0.18523936 0.42895892 0.50567424
0.21409014 0.42895892 0.50567424
0.24294092 0.42895892 0.50567424
0.27179167 0.42895892 0.50567424
0.30064246 0.42895892 0.50567424
0.32949322 0.42895892 0.50567424
0.35888907 0.42936766 0.51157475
-0.39455229 0.43074363 0.53143358
0.38975123 0.43072876 0.53121948
-0.71787596 0.28610358 0.55109501
0.7131893 0.28614429 0.55241776
-0.63091052 0.34467804 0.55484939
0.62528533 0.34448776 0.55073404
-0.57124519 0.37348491 0.54701209
0.56648946 0.37353796 0.54799581
-0.51532519 0.40372843 0.56446171
0.51006633 0.40362275 0.56274343
-0.42678142 0.43265164 0.55897355
0.42176113 0.43263304 0.55870795
-0.31059191 0.46268976 0.56906819
