ply
format ascii 1.0
comment PCL generated
element vertex 1332
property float x
property float y
property float z
element camera 0
property float view_px
property float view_py
property float view_pz
property float x_axisx
property float x_axisy
property float x_axisz
property float y_axisx
property float y_axisy
property float y_axisz
property float z_axisx
property float z_axisy
property float z_axisz
property float focal
property float scalex
property float scaley
property float centerx
property float centery
property int viewportx
property int viewporty
property float k1
property float k2
end_header
0.13757238 0.0064407066 -0.14460218
-0.093760498 0.027470015 -0.14451396
-0.072664291 0.027486442 -0.14664358
-0.051601227 0.027502658 -0.14875734
-0.030570578 0.027519058 -0.15088028
-0.0095726391 0.027535327 -0.15299988
0.011392671 0.027551701 -0.15511632
0.032340143 0.027553121 -0.15531653
0.053339887 0.027527047 -0.15192169
0.074392088 0.027500872 -0.14851844
0.095496953 0.027474642 -0.14510661
-0.0096244765 0.048500612 -0.14626575
0.011392671 0.048500638 -0.1483925
0.032392379 0.048500638 -0.14853108
0.05344462 0.048500612 -0.14511901
-0.03067442 0.048500665 -0.14413553
-0.24228646 -0.3954379 -0.13031614
-0.22028117 -0.3937858 -0.14053571
0.24340113 -0.39442462 -0.13658381
0.28674069 -0.3751117 -0.12503058
-0.26333588 -0.37415871 -0.13122052
-0.24143709 -0.37288228 -0.13951081
0.26464057 -0.37357911 -0.13498467
-0.26342893 -0.35316169 -0.13029069
-0.24156226 -0.35201126 -0.13815582
0.26474851 -0.35264611 -0.13381588
-0.24228178 -0.33201104 -0.13036722
-0.22050735 -0.33097216 -0.13786429
0.22207244 -0.33072296 -0.13966262
0.24353977 -0.33137637 -0.13494664
0.26547033 -0.33261579 -0.12600237
-0.19993405 -0.31075484 -0.13125873
-0.17840785 -0.31001139 -0.13693905
-0.15719871 -0.30975604 -0.13889056
-0.13602047 -0.30950269 -0.14082646
0.11663717 -0.3093307 -0.14214092
0.13782977 -0.30973783 -0.13902986
0.15907066 -0.31014591 -0.13591129
0.18036078 -0.31055659 -0.13277322
0.20169882 -0.31096655 -0.12964046
0.22308664 -0.31137913 -0.12648797
-0.11562666 -0.29021761 -0.12642401
-0.094384521 -0.2899864 -0.12830132
-0.073170178 -0.28975073 -0.13021415
-0.051985648 -0.28951705 -0.13211161
-0.030830175 -0.28928208 -0.1340192
-0.0097041847 -0.28904903 -0.13591141
0.011392671 -0.28881475 -0.13781363
0.032474685 -0.28881171 -0.13783896
0.053603586 -0.28918672 -0.13479418
0.07477922 -0.28956091 -0.13175535
0.096002243 -0.28993767 -0.1286968
0.11727261 -0.29031521 -0.12563169
-0.13678761 -0.26902851 -0.12659037
-0.11551167 -0.26876023 -0.12891382
-0.094271183 -0.26849088 -0.13124597
-0.073067106 -0.26822355 -0.13356167
-0.051898483 -0.26795515 -0.13588595
-0.030765899 -0.26768863 -0.13819373
-0.0096687833 -0.26742119 -0.14051038
0.053535838 -0.26757306 -0.13919437
0.074693196 -0.26800209 -0.13547975
0.095908456 -0.2684336 -0.13174254
0.11718115 -0.26886484 -0.12800783
-0.20005764 -0.2475298 -0.12965339
-0.17843421 -0.24678558 -0.13655835
-0.15720028 -0.246537 -0.13886511
-0.13600138 -0.24628755 -0.14118046
0.13782918 -0.2465179 -0.13904244
0.1591028 -0.24691975 -0.13531476
0.18043366 -0.24732113 -0.13158977
0.20182256 -0.24772364 -0.12785465
-0.22086956 -0.22599113 -0.133587
-0.19908661 -0.22512251 -0.14226729
0.2010071 -0.2253868 -0.13962466
0.22235535 -0.22575089 -0.13598764
0.24395669 -0.2263478 -0.13002294
-0.26376599 -0.20549202 -0.12692243
-0.24180476 -0.20469683 -0.13553059
0.24302903 -0.20419362 -0.14097828
0.26503649 -0.20514312 -0.13069838
-0.28497475 -0.18435946 -0.12652642
-0.26294267 -0.18362918 -0.13514984
0.26425403 -0.18328896 -0.13916892
0.28635591 -0.18416059 -0.12887555
-0.30626342 -0.16327009 -0.12549102
0.30777526 -0.1632013 -0.12638575
-0.28416175 -0.16260964 -0.13406998
-0.26219749 -0.16195327 -0.14259571
0.28557816 -0.16241118 -0.13664728
-0.30554888 -0.14166427 -0.13167888
-0.28350991 -0.14107963 -0.14011812
0.30708548 -0.14158759 -0.13278604
-0.36863932 -0.12040248 -0.13382846
0.34819219 -0.11989912 -0.14200205
0.37073478 -0.12060156 -0.1305964
-0.41183004 -0.099627264 -0.12756103
-0.389429 -0.099170588 -0.1360383
0.36924878 -0.098851852 -0.1419515
0.39170137 -0.09939722 -0.13183153
-0.26374173 -0.078484438 -0.12716508
-0.24181415 -0.078102745 -0.13542897
0.24305794 -0.07786224 -0.14063686
0.26502827 -0.078317054 -0.13078749
-0.24203835 -0.057095617 -0.13300216
-0.22022443 -0.056779757 -0.14120591
0.24327232 -0.056899242 -0.13810503
0.26526147 -0.057278015 -0.12826306
-0.24237479 -0.036088467 -0.1293602
-0.22053099 -0.035835288 -0.13758558
0.22208025 -0.035774343 -0.13956136
0.24359034 -0.035934851 -0.13434947
-0.22091478 -0.014855944 -0.13305295
-0.19916539 -0.014666788 -0.14124376
0.17977841 -0.014643952 -0.14222944
0.20106499 -0.014723428 -0.13878918
0.22240518 -0.014803119 -0.13534021
0.24398799 -0.014934398 -0.12965339
-0.22132578 0.0061881877 -0.12819922
-0.1995368 0.0063147098 -0.13641888
-0.17803955 0.0064045414 -0.14225465
0.1587874 0.0063878261 -0.14116782
0.18005583 0.0063348673 -0.13772506
0.20137787 0.0062816478 -0.13427329
0.22275272 0.0062286109 -0.13082558
-0.20006254 0.027355058 -0.12958956
-0.17847462 0.027404258 -0.13597471
-0.15724629 0.027420763 -0.13811761
-0.13605182 0.027437137 -0.1402446
-0.11488965 0.027453562 -0.14238095
0.11665516 0.027448123 -0.14167339
0.13786604 0.027421709 -0.13824439
0.15913017 0.027395269 -0.13480681
0.18044777 0.027368698 -0.13136059
0.20181902 0.027342152 -0.12790561
-0.17894706 0.048500638 -0.12915611
-0.11520313 0.048500586 -0.13559401
-0.072872624 0.048500612 -0.13987768
-0.051757243 0.048500586 -0.14200193
0.074549578 0.048500612 -0.14169866
0.11691848 0.048500638 -0.13483214
0.15950067 0.048500612 -0.12793118
-0.15766557 0.048500691 -0.13130969
-0.13641742 0.048500665 -0.13345981
-0.094021313 0.048500691 -0.13773769
0.095707469 0.048500665 -0.13826984
0.13818282 0.048500691 -0.13138604
-0.13684891 0.069677994 -0.12545276
-0.1155718 0.069661438 -0.12761211
-0.094328061 0.069644801 -0.12976807
-0.073117636 0.069628321 -0.13192081
-0.051940713 0.06961184 -0.13405734
-0.030796546 0.069595233 -0.13620323
-0.0096854446 0.069578782 -0.13834578
0.011392671 0.069562249 -0.14048511
0.032453831 0.069561854 -0.14054841
0.053567827 0.069588214 -0.13711637
0.074734859 0.069614604 -0.13367593
0.095955126 0.069641247 -0.13022685
0.11722883 0.06966795 -0.12676919
-0.052104305 0.090831906 -0.12697345
-0.030905437 0.090798713 -0.1291306
-0.0097398059 0.090765566 -0.13128406
0.011392671 0.090732634 -0.13342172
0.03250879 0.09073285 -0.13340902
0.053678021 0.090785995 -0.12995923
0.07490056 0.090839215 -0.12650067
0.011392671 0.11203746 -0.12524796
0.032572303 0.11203957 -0.12515849
-0.28679535 -0.39878142 -0.10963333
-0.26445675 -0.3971023 -0.12001997
0.26563454 -0.39642259 -0.12422442
0.28806812 -0.39843661 -0.11176598
-0.30753532 -0.37673667 -0.11447561
-0.2853691 -0.3754448 -0.12286699
0.30900189 -0.37665534 -0.115004
-0.3075428 -0.35548434 -0.11441118
-0.28542295 -0.35432062 -0.12236744
0.28680471 -0.35402465 -0.12439084
0.30901301 -0.35541266 -0.11490077
-0.28621793 -0.33414152 -0.11499107
-0.26417565 -0.33305556 -0.1228286
0.28756368 -0.33389002 -0.11680651
-0.26559979 -0.31372035 -0.10859811
-0.24359031 -0.31272516 -0.11620182
-0.22170031 -0.3117339 -0.1237765
0.2447722 -0.31217688 -0.12039214
0.26682359 -0.3133598 -0.1113528
-0.20127167 -0.29176238 -0.11388236
-0.1795329 -0.29092255 -0.12070018
-0.15820128 -0.29068732 -0.12261081
-0.13689922 -0.2904523 -0.12451881
0.1385899 -0.290692 -0.12257242
0.15995535 -0.29107115 -0.11949342
0.18136783 -0.29144964 -0.11642057
0.202829 -0.29183057 -0.11332792
0.22433831 -0.29221243 -0.1102283
-0.20129451 -0.27053007 -0.11358589
-0.17944847 -0.26956797 -0.12191874
-0.15810032 -0.26929876 -0.12425005
0.13851242 -0.26929876 -0.12425005
0.15990208 -0.26973382 -0.12048203
0.18134961 -0.27016854 -0.11671662
0.20285672 -0.27060613 -0.11292797
0.22442295 -0.27104476 -0.10912883
-0.24401079 -0.24947011 -0.11164975
-0.22196187 -0.24849603 -0.12068737
0.22327073 -0.24812859 -0.12409645
0.24510199 -0.24894753 -0.11649787
-0.26485562 -0.22774765 -0.11603427
-0.24279244 -0.22686651 -0.12483877
0.2660692 -0.22739896 -0.11951917
0.28835276 -0.22845942 -0.10892177
-0.30810791 -0.20709988 -0.10951686
-0.28586701 -0.20629346 -0.11824709
0.28721002 -0.2060999 -0.12034094
0.30955282 -0.20706519 -0.10989213
-0.32945895 -0.1858348 -0.10910296
-0.30714735 -0.18509543 -0.11783564
0.30862466 -0.18503886 -0.11850417
0.33106366 -0.18592477 -0.10804129
-0.35088414 -0.16460344 -0.10817087
-0.32850376 -0.16393468 -0.11685812
0.33013776 -0.16399604 -0.11606014
-0.35003379 -0.14284277 -0.11466885
-0.32772261 -0.14225179 -0.12320006
0.32937837 -0.14229077 -0.12263644
0.35183677 -0.14299911 -0.11241162
-0.41395983 -0.12164039 -0.11372775
-0.39114943 -0.1209907 -0.12427574
0.39346617 -0.12130993 -0.11909521
0.41638881 -0.12202411 -0.10749733
-0.4354465 -0.10044577 -0.11237288
0.41431892 -0.099945806 -0.1216495
0.43710688 -0.10049928 -0.11137855
-0.30799592 -0.079254754 -0.11048687
-0.28580189 -0.078868471 -0.1188513
0.28715736 -0.078775339 -0.12086701
0.30944693 -0.079236872 -0.11087453
-0.30827382 -0.058054812 -0.10808027
-0.28606248 -0.057733282 -0.1164335
-0.26398477 -0.057413816 -0.12473631
0.28740925 -0.057659581 -0.11835003
0.30971599 -0.058043465 -0.10837805
-0.28645974 -0.036600024 -0.11274719
-0.26435015 -0.036343299 -0.12108505
0.2656109 -0.036238745 -0.12448043
0.28779054 -0.036544912 -0.11453992
-0.28695014 -0.015430003 -0.10819685
-0.26480666 -0.015237615 -0.1165235
-0.24279483 -0.015046254 -0.12481314
0.26604548 -0.01516258 -0.11977589
0.28826213 -0.015392289 -0.10982728
-0.26529956 0.0059325658 -0.11159813
-0.24324588 0.006060902 -0.11993003
0.24441302 0.0061333105 -0.12463403
0.26651368 0.0059804805 -0.11470753
-0.24388199 0.027227746 -0.11304414
-0.22190647 0.027291559 -0.12134159
0.22324413 0.027315449 -0.12444192
0.24501483 0.027262282 -0.11752695
0.26717255 0.027185719 -0.10757518
0.20229778 0.048500612 -0.12099516
0.24566792 0.04850056 -0.10981441
-0.22253922 0.048500665 -0.11386967
-0.2006343 0.048500665 -0.12216234
0.18087228 0.048500665 -0.12446767
0.22377744 0.048500665 -0.11751425
-0.20130841 0.069770664 -0.11340529
-0.17950356 0.069711372 -0.12112355
-0.15815946 0.069694653 -0.1232897
0.13855618 0.069694549 -0.12330264
0.15993735 0.069721356 -0.11982739
0.18137181 0.069748089 -0.11635613
0.20286119 0.069774926 -0.11286336
0.22440502 0.069801994 -0.10936177
-0.18000077 0.09103252 -0.11394703
-0.15859836 0.090998404 -0.11616302
-0.13723232 0.090964898 -0.11833698
-0.11589994 0.09093146 -0.1205076
-0.094601572 0.09089835 -0.12266201
-0.073336102 0.090864941 -0.12482584
0.096176624 0.090892568 -0.12303352
0.1175064 0.090946108 -0.11955756
0.13889009 0.090999693 -0.11607295
0.16032793 0.091053598 -0.11257946
0.18182008 0.091107503 -0.1090771
-0.15910889 0.11243874 -0.10787308
-0.13767834 0.11238822 -0.11006021
-0.11628163 0.11233777 -0.11224377
-0.094919153 0.1122877 -0.11441106
-0.073589765 0.11223742 -0.11658788
-0.05229396 0.11218735 -0.1187613
-0.031031676 0.11213712 -0.12093103
-0.0098029235 0.1120874 -0.12308484
0.053805564 0.11211991 -0.12167507
0.07509236 0.11220025 -0.11819571
0.096432999 0.11228097 -0.11470765
0.11782768 0.11236158 -0.11121047
0.13927661 0.11244263 -0.10770464
-0.052519698 0.13371709 -0.10898638
-0.03118173 0.13364942 -0.1111846
-0.0098777348 0.13358222 -0.11336648
0.011392671 0.13351515 -0.11554497
0.032647695 0.13352066 -0.11536455
0.053956732 0.13362874 -0.11185646
0.075319685 0.13373667 -0.1083523
-0.30936009 -0.40055326 -0.098672867
0.31076333 -0.40055537 -0.098659754
-0.35227734 -0.3793464 -0.097525001
-0.32983869 -0.37803853 -0.10601985
0.33142594 -0.37821034 -0.10490394
0.35401624 -0.37977883 -0.094716787
-0.35227734 -0.35795408 -0.09752512
0.35401624 -0.35836488 -0.094716787
-0.32983869 -0.35671163 -0.10601974
0.33142594 -0.35687488 -0.10490394
-0.35315374 -0.33748969 -0.090828061
-0.33071148 -0.33636653 -0.098933697
-0.30840096 -0.33525169 -0.10697913
0.30983603 -0.33521223 -0.10726416
0.33226293 -0.33654368 -0.097655416
-0.3099876 -0.3157303 -0.093238354
-0.28773227 -0.31472248 -0.10093963
0.28902137 -0.31455231 -0.10224056
0.31136453 -0.3157509 -0.093081474
-0.2672784 -0.29447916 -0.091824293
-0.24516018 -0.29356977 -0.099207282
-0.22315779 -0.29266366 -0.10656428
0.24626411 -0.29313058 -0.10277367
0.268428 -0.29421309 -0.093984365
-0.24551825 -0.27263805 -0.095331192
-0.22333357 -0.27158058 -0.10448873
0.24652968 -0.27214083 -0.099637389
-0.28854391 -0.25143594 -0.093408585
-0.26620346 -0.25044906 -0.10256577
0.26735216 -0.25011885 -0.10563064
0.28977954 -0.2513006 -0.094664454
-0.30940825 -0.22952685 -0.098255515
-0.28706041 -0.22863442 -0.10717344
0.3108069 -0.22952685 -0.098255515
-0.35302168 -0.20873308 -0.091837287
-0.33049008 -0.20791146 -0.10073137
0.33206418 -0.20803663 -0.099376559
-0.37450865 -0.18732801 -0.091470242
-0.35191226 -0.18657902 -0.10031474
0.35367194 -0.1868163 -0.097512126
-0.39607224 -0.16595456 -0.090618134
-0.3734059 -0.16527638 -0.099428654
0.35266879 -0.16479692 -0.1056565
0.37537032 -0.16560382 -0.095174313
-0.39507541 -0.14403683 -0.097433686
-0.37248543 -0.14343846 -0.10607147
0.3744626 -0.14371282 -0.10211051
0.39726496 -0.14443552 -0.091679811
-0.43848047 -0.1228796 -0.093605042
0.4395071 -0.12274512 -0.09578836
-0.45967263 -0.10138381 -0.0949651
0.46006542 -0.10105699 -0.10103071
-0.35279036 -0.080034517 -0.093604922
-0.33032501 -0.079643436 -0.10207164
0.33189875 -0.079701863 -0.10080922
0.35451457 -0.080170058 -0.090670586
-0.353104 -0.058704302 -0.09120822
-0.3306216 -0.058378853 -0.099663377
0.3321861 -0.058430523 -0.098320723
-0.33107957 -0.037117414 -0.095945239
-0.30870202 -0.036857881 -0.10437167
0.31012955 -0.036852702 -0.10454047
0.33263096 -0.037162907 -0.094468355
-0.33164522 -0.015818954 -0.091352344
-0.30922917 -0.015623778 -0.099806666
0.31063974 -0.015623778 -0.099806666
0.33317852 -0.015856534 -0.08972621
-0.30980632 0.0056741089 -0.094808221
-0.2874856 0.0058037564 -0.10322857
0.28877303 0.0058267526 -0.10472214
0.31119394 0.0056719258 -0.094664454
-0.28823394 0.027098805 -0.096284986
-0.26599026 0.027163513 -0.10469627
0.28948936 0.027108582 -0.097564101
-0.26674578 0.04850056 -0.09714663
-0.24457522 0.04850056 -0.1055398
0.26788896 0.04850056 -0.09981966
0.29027113 0.048500665 -0.089752436
-0.24539395 0.069899499 -0.096676588
-0.2232841 0.069834843 -0.10507262
0.24644035 0.069868647 -0.10069227
0.26873773 0.069946021 -0.090631366
-0.22394864 0.091289923 -0.097224951
-0.20190789 0.091160752 -0.10561764
0.20336677 0.091161512 -0.10556567
0.22496822 0.091215812 -0.10204554
0.24713139 0.091362253 -0.092531681
-0.20260523 0.11269993 -0.096559048
-0.18062368 0.11250605 -0.10495591
0.16078 0.11252376 -0.10418987
0.18233806 0.11260521 -0.10066628
0.20395097 0.11268669 -0.097133517
0.22564718 0.11277699 -0.093225479
-0.18136661 0.13417144 -0.094233036
-0.15971643 0.13405514 -0.098007798
-0.1382091 0.13398734 -0.10021043
-0.11673585 0.1339196 -0.1024096
-0.095296577 0.13385211 -0.10460544
-0.073891222 0.13378456 -0.10679758
0.096736871 0.13384485 -0.10483909
0.11820848 0.13395333 -0.10131705
0.13973534 0.13406239 -0.097772956
0.16131724 0.13417189 -0.094219923
0.18295361 0.13428111 -0.090670586
-0.13875073 0.15574586 -0.090159059
-0.11719935 0.15566063 -0.092374206
-0.095681719 0.15557504 -0.094599128
-0.074198849 0.15549001 -0.096807241
-0.052750055 0.15540519 -0.099011779
-0.03133506 0.15532005 -0.10122597
-0.0099542746 0.15523541 -0.10342336
0.011392671 0.15515095 -0.10561764
0.032724924 0.15516189 -0.10533214
0.054111589 0.15529799 -0.10179842
0.075552858 0.1554343 -0.098255515
0.097048953 0.15557101 -0.094703674
0.11860009 0.15570813 -0.091142654
-0.010043469 0.17711744 -0.091837287
0.011392671 0.17701465 -0.094062686
0.032814898 0.17703405 -0.093644261
0.054292198 0.17719921 -0.090067387
-0.3551065 -0.40423366 -0.075906157
-0.33213994 -0.40238598 -0.087335944
0.33372948 -0.40277085 -0.084954739
-0.39790061 -0.38233444 -0.078117609
-0.37485579 -0.38066438 -0.088965058
0.37678352 -0.38137099 -0.084375143
0.39984953 -0.38311815 -0.073027372
-0.39778453 -0.36067656 -0.078911304
-0.37485579 -0.35920608 -0.088964939
0.37677148 -0.35986394 -0.084467649
0.39969501 -0.36137402 -0.074142694
-0.37572736 -0.33861941 -0.082675099
0.354846 -0.33788434 -0.087979913
0.37758687 -0.33923438 -0.078236818
-0.3548708 -0.31776288 -0.07770741
-0.33236676 -0.31674376 -0.085494518
0.33385572 -0.31695747 -0.083861589
0.35649803 -0.31817377 -0.074567199
-0.31187117 -0.29631424 -0.076926231
-0.28951603 -0.29539505 -0.084388494
0.29073149 -0.29530096 -0.085152149
0.31317699 -0.29639578 -0.076264024
-0.2903288 -0.27477238 -0.076846838
-0.26784864 -0.27370095 -0.086126089
0.268922 -0.27341104 -0.088636756
0.2914924 -0.27469137 -0.077548504
-0.33367184 -0.25343078 -0.07489872
-0.31103384 -0.25243089 -0.084177613
0.31238374 -0.25249052 -0.083624244
0.33516806 -0.25368974 -0.072496176
-0.3545368 -0.23132783 -0.080259442
-0.3318989 -0.23042372 -0.089293122
0.33343631 -0.23060393 -0.087493658
0.35624006 -0.2316879 -0.076661468
-0.37570727 -0.20956597 -0.082820177
0.35476026 -0.209025 -0.088676095
0.37763709 -0.21002486 -0.077852845
-0.39739805 -0.18816769 -0.081553698
0.37645286 -0.18771482 -0.086902022
0.3994084 -0.18862006 -0.076210976
-0.42015246 -0.167272 -0.073505402
0.39824426 -0.16641691 -0.08461237
0.4212926 -0.16723612 -0.07396996
-0.41885036 -0.14510876 -0.081962585
0.42025101 -0.14516908 -0.081091642
-0.46336544 -0.12413865 -0.07316041
0.46331859 -0.12366169 -0.08090663
-0.48420823 -0.10233436 -0.077323556
0.48456398 -0.10205393 -0.082530022
-0.39846647 -0.080928586 -0.074248672
-0.37539503 -0.080428667 -0.085073352
0.37729624 -0.080641739 -0.080457568
-0.37572554 -0.059032202 -0.082688212
0.3548201 -0.058820494 -0.088190079
0.3776215 -0.059213705 -0.077972054
-0.3762452 -0.037641168 -0.078937769
-0.35359353 -0.037378453 -0.087467432
0.35529807 -0.03747575 -0.08430934
0.3781296 -0.037790373 -0.074089527
-0.37688577 -0.016212448 -0.074314833
-0.35419652 -0.01601515 -0.082859635
0.35588315 -0.016091369 -0.079559088
-0.35485694 0.0054124407 -0.077813148
-0.33226302 0.0055436417 -0.086336732
0.33377811 0.0055159405 -0.084533453
0.35652745 0.0053588003 -0.074328303
-0.33312547 0.026968209 -0.079334378
-0.31061149 0.027033599 -0.087835312
0.31196958 0.027030919 -0.087467432
0.33461371 0.026952544 -0.077296972
-0.28905112 0.048500612 -0.088702321
-0.31149238 0.048500665 -0.080206752
0.31281614 0.048500717 -0.079612017
-0.29001653 0.070029758 -0.079744101
-0.26763818 0.069964573 -0.088229537
0.2911973 0.070024081 -0.080497265
-0.26843178 0.091550544 -0.08029902
-0.24612211 0.091419756 -0.088794231
0.26949707 0.091518 -0.082411289
0.29202592 0.091675013 -0.072217107
-0.24697153 0.11309172 -0.079598904
-0.22472148 0.11289537 -0.088098168
0.2479303 0.11301093 -0.0830971
0.27037618 0.11324652 -0.072894812
-0.22564283 0.13469538 -0.077217579
-0.20343672 0.13443238 -0.085757852
0.20464617 0.13439105 -0.087099314
0.22651014 0.13454765 -0.082015634
-0.20428592 0.15633993 -0.074726224
-0.18212624 0.1560111 -0.083268285
-0.16033642 0.15583131 -0.087940574
0.14020649 0.15584551 -0.087572694
0.1618676 0.15598273 -0.084006429
0.18358502 0.15612094 -0.080417991
0.2053583 0.15625942 -0.076820374
-0.16105959 0.17783991 -0.076197743
-0.13938178 0.17773589 -0.078448296
-0.11773939 0.17763275 -0.080682158
-0.096131027 0.17752901 -0.082925558
-0.074557729 0.17742631 -0.085152268
-0.053018477 0.17732298 -0.087388635
-0.031513721 0.17721981 -0.089621305
0.075824469 0.17736426 -0.086494446
0.097412437 0.17753023 -0.082899213
0.11905561 0.17769623 -0.079308033
0.14075451 0.17786247 -0.075707436
0.16251004 0.17802987 -0.072084308
-0.053323466 0.199505 -0.074182272
-0.031716514 0.19938275 -0.076449394
-0.010144602 0.19926152 -0.078699589
0.011392671 0.19914049 -0.080946445
0.032916918 0.19917035 -0.080391526
0.054496761 0.19936496 -0.076780677
0.076132715 0.19956073 -0.073146939
-0.42244756 -0.38533959 -0.05859828
0.42310575 -0.3848815 -0.061573744
-0.42199975 -0.36322224 -0.061506748
0.42278874 -0.3628954 -0.063740849
-0.42291698 -0.34237808 -0.055549383
-0.39880639 -0.34010893 -0.071924925
0.40048724 -0.34059399 -0.068425179
0.42354876 -0.34196299 -0.058544755
-0.4009617 -0.32044801 -0.057188749
-0.37750077 -0.31878757 -0.06987679
0.37928981 -0.31939653 -0.065223813
0.40223411 -0.32062748 -0.0558182
-0.35696638 -0.29819027 -0.061694145
-0.33434775 -0.29723984 -0.069410682
0.33576742 -0.29749906 -0.067305684
0.35853431 -0.29864097 -0.058034539
-0.33572248 -0.27691987 -0.058249354
-0.31295282 -0.2758449 -0.067559004
0.3142373 -0.27597582 -0.066425323
0.33715752 -0.27726421 -0.055266976
-0.37940592 -0.25545385 -0.056127429
-0.35646251 -0.25443903 -0.065544367
0.35813469 -0.2548987 -0.061279058
-0.4011012 -0.2337321 -0.056234956
0.40238506 -0.23388273 -0.054728985
-0.37732193 -0.23223764 -0.071167111
0.37922168 -0.23278028 -0.065744638
-0.39898723 -0.21068668 -0.070688367
0.40069228 -0.21103236 -0.066945434
0.42392984 -0.21204919 -0.055939198
-0.42170519 -0.18970317 -0.063420177
0.42254058 -0.1895324 -0.065437555
-0.44465637 -0.16866556 -0.055401444
0.44465119 -0.16812864 -0.062376738
-0.44327149 -0.14635545 -0.063967943
0.44341248 -0.1459083 -0.070422173
0.48911279 -0.12521574 -0.0556705
-0.50905454 -0.10329656 -0.059470057
0.5097158 -0.10316298 -0.061948299
-0.42261907 -0.081702881 -0.05748415
0.40024555 -0.081117027 -0.070169449
0.42330948 -0.081578337 -0.060180545
-0.39889583 -0.059469953 -0.0713135
0.40059251 -0.059610486 -0.067665458
0.42373332 -0.060010031 -0.057282686
-0.39956003 -0.038015798 -0.066772103
0.40113077 -0.038107812 -0.063781023
-0.40038303 -0.016516559 -0.061145186
0.37875411 -0.016327932 -0.06931746
0.401795 -0.016566448 -0.05898726
-0.40129197 0.0050600767 -0.054930687
-0.37759116 0.0052801631 -0.069224358
0.37944368 0.0052005015 -0.06404829
-0.37856779 0.026836166 -0.062175989
-0.35577717 0.026902398 -0.07078135
0.35742199 0.026873855 -0.067065477
0.38039762 0.026794432 -0.056759
-0.33407086 0.048500612 -0.071658969
0.3355259 0.048500612 -0.06939733
0.35840207 0.048500612 -0.059108138
-0.35678604 0.048500665 -0.063072443
-0.33518776 0.070161901 -0.062590718
-0.31253311 0.070095673 -0.071193695
0.3138209 0.070102662 -0.070289135
0.33661029 0.070181824 -0.060006261
-0.33618096 0.091947302 -0.054527044
-0.31346005 0.091814257 -0.063165903
-0.29087645 0.091681898 -0.071765304
0.3147198 0.091833077 -0.061948538
-0.29188251 0.11348812 -0.062430143
-0.26935896 0.11328952 -0.071034074
0.29298794 0.11348417 -0.062604189
-0.27046257 0.13522542 -0.06000638
-0.24798401 0.13495955 -0.068638325
0.24888757 0.13486245 -0.071792006
0.27142939 0.13517952 -0.061493278
-0.24901314 0.15700303 -0.057497621
-0.22658154 0.15667079 -0.066131592
0.2273913 0.15649998 -0.070568562
0.24986401 0.15689664 -0.060260892
-0.20527986 0.17850414 -0.061814547
-0.18301348 0.17810473 -0.070461988
0.18432112 0.17819703 -0.068465233
0.2061895 0.17836511 -0.06482327
0.22842129 0.17871779 -0.057188869
-0.18402246 0.20049018 -0.055898786
-0.16188107 0.20011514 -0.062858224
-0.14009942 0.19999269 -0.065130472
-0.11835292 0.1998705 -0.067399025
-0.096641481 0.19974843 -0.069663644
-0.07496503 0.19962659 -0.071924925
0.097824499 0.19975635 -0.069517374
0.11957253 0.19995248 -0.065878034
0.14137764 0.20014974 -0.062216163
0.16323893 0.20034695 -0.058557987
0.18515712 0.20054457 -0.054890394
-0.097173877 0.22220713 -0.055831671
-0.07538984 0.22206566 -0.058128476
-0.053640943 0.22192365 -0.060435176
-0.031927619 0.22178179 -0.062737942
-0.010249776 0.2216402 -0.065036893
0.011392671 0.22149974 -0.067318916
0.033022992 0.22154322 -0.066612124
0.054710079 0.22177029 -0.06292522
0.076453835 0.22199708 -0.059242129
0.098255016 0.22222528 -0.055535913
-0.44733715 -0.38838494 -0.03881824
0.44728133 -0.38738802 -0.04529357
-0.44651821 -0.36579964 -0.043884158
0.44657561 -0.36492315 -0.049877286
-0.44731298 -0.34467566 -0.038967848
0.4474315 -0.34393439 -0.04431808
-0.42506599 -0.32248926 -0.041591167
0.42533445 -0.32186839 -0.046335816
-0.40373421 -0.30107993 -0.038233042
-0.37975261 -0.29918414 -0.053625226
0.38145015 -0.29978877 -0.04871583
0.40451998 -0.30094588 -0.039321661
-0.3586418 -0.27800047 -0.048891425
0.36026216 -0.27856454 -0.044006228
-0.40391147 -0.25751296 -0.03702116
0.38128757 -0.25611869 -0.049958348
0.40462551 -0.25734714 -0.038559914
-0.42570245 -0.2356112 -0.037456989
0.42572874 -0.2349925 -0.043640018
-0.42344967 -0.21240485 -0.052089572
0.4482573 -0.21361822 -0.038954258
-0.4463298 -0.19125873 -0.045049548
0.44634295 -0.19072202 -0.051388621
-0.46947658 -0.17007628 -0.037075639
0.46973133 -0.16975594 -0.04123795
-0.46801144 -0.14761925 -0.045726657
0.46824312 -0.14729244 -0.050444245
-0.48883596 -0.12549198 -0.051186085
-0.53421986 -0.10427094 -0.041387439
0.53524339 -0.10428918 -0.041047931
-0.44701844 -0.082473986 -0.040789723
0.4471375 -0.082222782 -0.046227694
-0.42316139 -0.060137868 -0.053961873
0.44781372 -0.060604557 -0.041835546
-0.42386091 -0.038550086 -0.049418211
0.42429978 -0.038427219 -0.053409815
0.44856122 -0.03893315 -0.036980271
-0.42473173 -0.016918018 -0.043762207
0.42500412 -0.016806431 -0.048594117
-0.42570037 0.0047913119 -0.037470579
0.40253049 0.0050408877 -0.053679228
0.42578626 0.0048803054 -0.043246865
-0.40255105 0.026714165 -0.046322346
0.40354425 0.026714427 -0.046362877
-0.40393937 0.04850056 -0.036830425
-0.37966681 0.048500612 -0.054244518
0.38144663 0.048500665 -0.048742771
0.40466136 0.048500717 -0.038301229
-0.38120949 0.070311867 -0.043111205
-0.3579818 0.070228554 -0.053935051
0.35956728 0.070261568 -0.049647689
0.38269377 0.070341885 -0.039212823
-0.35904357 0.09208139 -0.045821548
0.33757889 0.09199208 -0.051617742
0.36060813 0.092152506 -0.041197181
-0.33734828 0.11388949 -0.045049548
-0.31454462 0.11368812 -0.053773403
0.31576487 0.11372329 -0.052251339
0.33871001 0.11396403 -0.041821957
-0.31583533 0.13576151 -0.042595625
-0.29307976 0.13549276 -0.05132103
0.29413867 0.13549933 -0.051105142
0.31701475 0.13582122 -0.040653706
-0.29429385 0.15767437 -0.040055871
-0.27158433 0.15733802 -0.048796892
0.27250117 0.15729576 -0.049890757
0.29530704 0.15769851 -0.039430499
-0.25022686 0.17931044 -0.044358611
-0.2276839 0.17890605 -0.05311358
0.25100765 0.17919973 -0.046755433
-0.22893819 0.20143846 -0.038301229
-0.206411 0.20096323 -0.047120571
0.20713243 0.20074272 -0.051213145
0.22959483 0.20124218 -0.041944146
-0.18508242 0.2231451 -0.040599346
-0.16274205 0.22263533 -0.048877835
-0.1408501 0.22249243 -0.051199794
-0.11899407 0.22234955 -0.05351758
0.1201131 0.22245336 -0.051833391
0.14202929 0.22268277 -0.048107624
0.16400334 0.22291276 -0.044372082
0.18603469 0.22314265 -0.040640354
-0.097836584 0.24511325 -0.038614035
-0.075918719 0.24495131 -0.040952682
-0.054037262 0.24479041 -0.043273926
-0.032191399 0.24462891 -0.045604825
-0.010381554 0.24446863 -0.04791832
0.011392671 0.24430862 -0.050228238
0.033156078 0.24437135 -0.049323678
0.054976743 0.24462891 -0.045604825
0.076854885 0.24488729 -0.041876316
0.098791152 0.24514726 -0.038124084
0.47283506 -0.39096826 -0.022038937
-0.47134793 -0.36841178 -0.026025772
0.47165409 -0.36792636 -0.02934432
-0.47199515 -0.34699848 -0.02220428
0.47234374 -0.34660029 -0.025078177
-0.44943848 -0.32455313 -0.025819898
0.44961882 -0.32399154 -0.030111074
-0.42798087 -0.30299819 -0.022658348
0.42801607 -0.30234012 -0.028001428
-0.38222143 -0.27951124 -0.035808206
0.3835502 -0.27987358 -0.032668829
0.40702537 -0.28119329 -0.021240354
0.42861649 -0.2589274 -0.023896456
0.45069847 -0.23704809 -0.023098707
-0.44823852 -0.21414581 -0.033242702
-0.47127816 -0.19283482 -0.02643764
0.47156331 -0.19254106 -0.029905915
0.49518883 -0.17140666 -0.019793153
-0.493072 -0.14889863 -0.0272609
0.49360839 -0.14876938 -0.029125214
-0.51470643 -0.12686577 -0.02887857
0.51547873 -0.12683365 -0.029398918
-0.55971032 -0.10525794 -0.02307117
0.56115305 -0.10543222 -0.019834518
-0.47170857 -0.083254226 -0.023896456
0.47205743 -0.083117835 -0.026849389
-0.44772902 -0.060814135 -0.036394238
0.47294188 -0.061392032 -0.02137804
-0.44846389 -0.03909108 -0.031848669
-0.44938076 -0.017324083 -0.02617681
0.44949239 -0.01721435 -0.030932188
-0.45041275 0.0045191869 -0.019793153
0.4505333 0.0045865215 -0.024171233
-0.42703587 0.026579177 -0.028796315
0.42695004 0.026629221 -0.035290122
0.42843559 0.04850056 -0.025133133
-0.42851329 0.048500717 -0.019200206
-0.40558594 0.070446804 -0.025572658
0.40599355 0.07042294 -0.028686881
-0.38257882 0.092275195 -0.033228874
0.38380787 0.092314251 -0.030699611
0.40717813 0.092476785 -0.020137787
-0.38419804 0.11443243 -0.021543264
-0.36029154 0.11409192 -0.036285281
0.36182696 0.11420709 -0.031301618
0.38511428 0.11445156 -0.020716786
-0.36177254 0.13630414 -0.024968266
-0.33873355 0.13603216 -0.033802509
0.34006068 0.13614544 -0.030124784
0.36327669 0.1364716 -0.019531012
-0.34014174 0.15835521 -0.022369266
-0.31714574 0.15801346 -0.031246901
0.31828085 0.15810347 -0.028905869
-0.29573488 0.18012676 -0.026684761
-0.27291009 0.1797173 -0.035549045
0.27376178 0.17968524 -0.036244392
0.29668558 0.18017429 -0.02565515
-0.27441651 0.20239797 -0.020496249
-0.25160623 0.20191664 -0.029426455
0.25231162 0.20181271 -0.031356335
0.27519873 0.20238751 -0.020689011
-0.23026161 0.22424918 -0.022672057
-0.20760137 0.22369581 -0.031657219
0.20814778 0.22339407 -0.036557794
0.23083501 0.22405455 -0.025833607
-0.18639028 0.2462835 -0.021722198
-0.16386153 0.24566156 -0.030699611
-0.1417802 0.2454372 -0.033939123
-0.11979 0.24527463 -0.036285281
0.12078505 0.24540687 -0.034375787
0.14283711 0.24566722 -0.030617476
0.16494757 0.24592844 -0.026849389
0.18711582 0.24618912 -0.023084879
-0.12053964 0.26838779 -0.020055056
-0.098460257 0.26820642 -0.022410631
-0.07641726 0.2680254 -0.024762392
-0.054410558 0.26784462 -0.027109981
-0.032440059 0.26766425 -0.029453874
-0.010505681 0.26748413 -0.031794071
0.011392671 0.26730317 -0.034143806
0.033281237 0.26738632 -0.033065081
0.055227511 0.26767477 -0.029317021
0.077232026 0.26796514 -0.025545239
0.099294931 0.26825625 -0.021763563
-0.47257635 -0.39147121 -0.018772483
-0.49649021 -0.37105483 -0.0079548359
0.49709955 -0.37097341 -0.0085109472
-0.49697313 -0.3493509 -0.0052272081
0.49759433 -0.34930065 -0.005589366
-0.47408363 -0.32664013 -0.0098721981
0.4744789 -0.3263787 -0.011870146
-0.45249289 -0.30493599 -0.0069255829
0.45270488 -0.30454916 -0.010066628
-0.4069199 -0.28174615 -0.016452312
0.43174472 -0.28335625 -0.0025084019
-0.42878532 -0.259624 -0.017433286
-0.45063353 -0.23751563 -0.018427372
-0.47335809 -0.21590889 -0.014156342
0.47366667 -0.21565595 -0.016894579
-0.49655917 -0.19443288 -0.0075653791
0.4971725 -0.19438928 -0.0080801249
-0.49462375 -0.17150652 -0.018496394
-0.51846427 -0.15019575 -0.0085386038
0.51935679 -0.15026799 -0.0074958801
-0.54099131 -0.12826228 -0.0062019825
0.54233527 -0.12848023 -0.0026618242
-0.58553523 -0.10625843 -0.0045026541
-0.56357187 -0.084183507 -0.0037777424
-0.54149812 -0.084193237 -0.0035685301
-0.51940823 -0.084199615 -0.0034291744
-0.49669459 -0.084043838 -0.0068004131
0.49731854 -0.08402469 -0.0072177649
0.52016079 -0.08422152 -0.0029547215
0.5422734 -0.084219538 -0.0029968023
0.56431568 -0.084200911 -0.0034012794
-0.47260436 -0.061498657 -0.018606901
-0.47337455 -0.039638884 -0.014059305
0.47372696 -0.039563008 -0.016521454
-0.47434011 -0.01773566 -0.0083580017
0.47471213 -0.01768788 -0.010427356
-0.4754324 0.0042438544 -0.0019080639
0.47581866 0.0042696632 -0.0035825968
-0.4518258 0.026442617 -0.011051893
0.45195803 0.026472369 -0.014917374
0.45354432 0.04850056 -0.0046141148
-0.43026817 0.070583731 -0.0078018904
0.43020719 0.070543468 -0.013020635
-0.40705132 0.092547372 -0.015553713
0.43178964 0.092752844 -0.0022011995
-0.40878594 0.11484459 -0.0036939383
0.4085775 0.11469804 -0.010038853
-0.38612327 0.13683757 -0.0076489449
0.38666615 0.13680035 -0.0088583231
-0.36353743 0.15877414 -0.011482
0.34143052 0.1585132 -0.01826179
0.36475217 0.15892547 -0.0075515509
-0.34181616 0.18095398 -0.0087749958
-0.31870416 0.1805394 -0.017750978
0.31978098 0.18066701 -0.014986634
0.34304985 0.18116355 -0.0042378902
-0.32046902 0.20336947 -0.0024664402
-0.29737031 0.20288208 -0.011509657
0.2982581 0.20296666 -0.0099416971
-0.25306672 0.22480699 -0.013616323
0.25369424 0.22471994 -0.015028
-0.27601567 0.22536731 -0.0045164824
0.27672744 0.22539052 -0.004140377
-0.23187689 0.24753934 -0.0035965443
-0.20906161 0.24690944 -0.012688041
0.20950244 0.2466104 -0.017005086
0.23234949 0.24736178 -0.0061602592
-0.18762289 0.26962897 -0.0039311647
-0.1649503 0.26892933 -0.013020635
-0.14265549 0.26856953 -0.017695665
0.12141591 0.26854715 -0.017985702
0.14359616 0.26883981 -0.014183998
0.16583547 0.26913321 -0.010371923
0.1881341 0.26942742 -0.0065499544
-0.099181719 0.29176438 -0.0036662817
-0.076993056 0.29156139 -0.0060628653
-0.054841045 0.29135758 -0.0084691048
-0.032726366 0.29115534 -0.010857821
-0.010648386 0.29095224 -0.013255954
0.011392671 0.29074946 -0.015650392
0.033425413 0.29086077 -0.014336109
0.055517267 0.29118583 -0.010496736
0.077668779 0.29151303 -0.0066335201
0.099880531 0.29184234 -0.0027456284
-0.49857637 -0.39495075 0.0038276911
0.49923193 -0.39498952 0.0040800571
-0.5219534 -0.37373161 0.01034677
0.52292013 -0.37406555 0.012629747
-0.52224749 -0.35172948 0.01193881
0.52319497 -0.35204032 0.014181972
-0.49900863 -0.32875249 0.0062689781
0.49965972 -0.32879671 0.0066059828
-0.47727904 -0.30689698 0.0089954138
0.47770652 -0.30678621 0.0080956221
-0.4317244 -0.28383717 0.0016566515
0.45663828 -0.28543356 0.015481472
-0.45400473 -0.26176438 0.0024267435
0.45411363 -0.26140413 -0.00091636181
-0.47590107 -0.23944572 0.00085902214
0.47626999 -0.23928064 -0.00079059601
-0.49881974 -0.21769711 0.0052021742
0.4994742 -0.2177256 0.0055109262
-0.52217978 -0.19605345 0.011572361
0.52317494 -0.19626477 0.014068961
-0.52012557 -0.17296532 0.00045359135
0.52106404 -0.17309573 0.0021466017
-0.54418969 -0.15150902 0.010417104
0.54550207 -0.15179038 0.014478326
0.58745325 -0.10659259 0.001698494
-0.58841097 -0.08478903 0.0093331337
0.59022605 -0.085076295 0.015551925
-0.49779329 -0.062191978 -0.00059497356
0.49843544 -0.062190875 -0.00062310696
-0.49859622 -0.040193148 0.0039399862
0.49925801 -0.040202186 0.004234314
-0.49961343 -0.018152289 0.0096850395
0.50029558 -0.018167846 0.010360837
-0.47692427 0.026304426 0.0069007874
0.47732952 0.02631315 0.0057635307
-0.45339432 0.04850056 -0.0013494492
-0.45526004 0.070722185 0.010191798
0.45543617 0.070702791 0.0076737404
-0.43183002 0.092822969 0.0023425817
-0.43368107 0.11526169 0.014365315
0.43366408 0.11517501 0.010614395
-0.41084576 0.13739297 0.01038897
0.41063491 0.13722107 0.0048093796
-0.38809654 0.15946978 0.0065919161
0.38825113 0.15934137 0.0032529831
-0.36571532 0.18159747 0.0051600933
0.36649421 0.18166375 0.0065919161
-0.34371233 0.20385903 0.0066199303
0.32149172 0.20355019 0.00088703632
0.34489986 0.20413733 0.011783838
-0.32235721 0.2265006 0.013885379
-0.29911244 0.22593212 0.0046550035
0.29993799 0.22606689 0.006844759
-0.2779434 0.24881023 0.014746785
-0.2548362 0.24817231 0.0055388212
0.25536928 0.24811786 0.0047533512
0.27856484 0.24887967 0.015750051
-0.23340148 0.2710408 0.014407873
-0.21043882 0.27033204 0.0052021742
0.21078081 0.27004308 0.0014467239
0.23377962 0.27088761 0.012418032
-0.16623165 0.29273409 0.0077860355
-0.14367494 0.29217833 0.0012227297
-0.12140942 0.29197106 -0.0012238026
0.12215416 0.29217592 0.0011948347
0.14448832 0.29250932 0.0051319599
0.16688442 0.2928448 0.0090941191
0.18934219 0.29318127 0.013067007
-0.055400688 0.3156741 0.015763998
-0.033097968 0.31544444 0.013278604
-0.010833549 0.3152152 0.010797501
0.011392671 0.31498638 0.0083204508
0.033612169 0.31513461 0.0099242926
0.055892874 0.31550184 0.013899684
-0.52517259 -0.39863709 0.027771235
0.52647811 -0.39939979 0.032725096
-0.5477435 -0.37644291 0.028883457
-0.54782581 -0.35413671 0.02931118
-0.52421325 -0.33088687 0.022578716
0.52516735 -0.33124584 0.02532196
-0.50233924 -0.30887803 0.025080085
0.50302702 -0.30905169 0.026489258
-0.48130259 -0.28742796 0.032753706
0.48178521 -0.28749397 0.033325911
-0.45638028 -0.28562292 0.017121434
-0.47957456 -0.26393312 0.022550344
0.48002255 -0.26391926 0.022422314
-0.50158477 -0.24144316 0.020818949
0.50232387 -0.24159512 0.022337198
-0.52462548 -0.21950847 0.024809957
0.5256893 -0.21982816 0.028270245
-0.54814452 -0.19769579 0.030967236
-0.54596776 -0.17444354 0.01965642
0.54734248 -0.17481184 0.024440169
-0.57025743 -0.15283978 0.029625177
-0.56769824 -0.12968117 0.01683867
0.56968462 -0.13015276 0.024496913
-0.61276239 -0.10753816 0.019245267
0.61415005 -0.10776976 0.02354455
-0.52330178 -0.062894113 0.01764524
0.52430224 -0.063001446 0.020435929
-0.52413982 -0.040754855 0.022181034
0.52516234 -0.040850677 0.025293589
-0.5252068 -0.018574379 0.027956605
0.52625287 -0.018655069 0.031452894
-0.50076985 0.0039648414 0.016216516
0.50147408 0.0039477572 0.017319679
-0.50234175 0.026164394 0.02509439
0.50306803 0.026151672 0.026731253
-0.47858572 0.048500717 0.016711354
0.47901931 0.048500665 0.016216516
-0.48056743 0.07086248 0.0284127
0.48103249 0.070864372 0.028669477
-0.45692065 0.093101934 0.020464182
0.45712611 0.093074016 0.018650293
-0.45889351 0.11568441 0.032667756
0.4591324 0.1156616 0.031681538
-0.43588331 0.13795577 0.028669477
0.43588811 0.13786799 0.025820136
-0.41296747 0.1601744 0.02489531
0.41276482 0.1599929 0.020180702
-0.39042982 0.18244144 0.023430943
0.39011791 0.1821683 0.017517924
-0.36819193 0.20480016 0.024084806
0.36848775 0.20472977 0.022777319
-0.34608242 0.22723821 0.025862694
0.32332522 0.22674778 0.01789999
0.34689248 0.22743383 0.029040217
-0.32460362 0.25009844 0.033340216
-0.30119875 0.24945226 0.024013638
0.30193952 0.24964848 0.026845217
-0.27976835 0.27247065 0.032982469
-0.25651002 0.27175289 0.023658395
0.25695449 0.27173865 0.02347362
-0.2121027 0.29434553 0.026816845
-0.18909127 0.29353654 0.017263174
0.21231967 0.29407808 0.023658276
-0.14499578 0.31659511 0.025734663
-0.12253964 0.3163653 0.023246288
-0.10012143 0.31613439 0.020748019
-0.077741809 0.31590408 0.018253803
0.07823503 0.31587005 0.017885685
0.1006389 0.3162393 0.02188313
0.12310527 0.31661084 0.025905609
0.14563344 0.31698215 0.029924989
-0.010999926 0.33960444 0.032410502
0.011392671 0.33935714 0.029939175
0.033780206 0.33953857 0.031752825
-0.57431555 -0.37951696 0.04990077
0.54912424 -0.37720349 0.034084201
-0.57431555 -0.35698959 0.049900651
0.54914802 -0.35481587 0.034213066
-0.54972959 -0.3330625 0.039203286
0.55109364 -0.3337875 0.044743896
-0.52768838 -0.31088665 0.041388273
0.5286929 -0.31136048 0.045234323
-0.50649822 -0.28925434 0.048570156
0.50724196 -0.28957847 0.051377296
-0.50550443 -0.26613235 0.042957067
0.50635797 -0.26647723 0.046157718
-0.5276565 -0.24348429 0.041215777
0.52884364 -0.24397165 0.046085596
-0.55078202 -0.22134313 0.044671893
0.54958212 -0.19816956 0.0365628
-0.57216299 -0.17594379 0.039145827
0.57403111 -0.17655468 0.047081709
0.57204807 -0.15333536 0.036777854
-0.59712559 -0.13180107 0.051261425
0.6412583 -0.10896584 0.045739293
-0.61612129 -0.085966654 0.034828663
0.61650735 -0.085969336 0.034886122
-0.54913586 -0.063605018 0.036118269
0.55055076 -0.063824058 0.041805506
-0.55000889 -0.041323654 0.040654778
0.55144817 -0.041508622 0.046662927
-0.5511235 -0.019001417 0.046446562
-0.52642882 0.0036821514 0.034571171
0.52750307 0.0036214367 0.038514137
-0.52808201 0.02602247 0.043519139
0.52918631 0.02598783 0.04802084
0.50486422 0.048500612 0.037337065
-0.50409824 0.048500665 0.035014987
-0.50619376 0.071004353 0.046850681
0.5070017 0.071028218 0.049958706
-0.48232675 0.093384206 0.038801193
0.48283288 0.093399704 0.039806724
-0.4844321 0.11611318 0.051232457
-0.46123993 0.13852587 0.047182798
0.46151009 0.13852409 0.047125101
-0.43815625 0.16088781 0.043432474
0.438182 0.16081358 0.04150331
-0.41546607 0.18329808 0.041978359
0.41527134 0.18312684 0.038269877
-0.39309755 0.20580241 0.042683482
0.39272469 0.20551968 0.037437439
-0.37089175 0.22839931 0.044715166
0.37064365 0.22812611 0.040281177
-0.34900925 0.25122675 0.049625754
0.32549268 0.25042206 0.038011551
0.3492294 0.25120264 0.049278736
-0.30317515 0.27319196 0.042352438
0.28030872 0.27259728 0.034628391
0.30384186 0.27346155 0.045854688
-0.2352666 0.29515985 0.036433578
0.23552684 0.2950483 0.035115242
-0.25858307 0.29597849 0.04610002
0.25891936 0.29602736 0.04667747
-0.19096024 0.31830454 0.044239402
-0.16788204 0.3174127 0.034585238
0.1682241 0.3173545 0.033955455
0.19100665 0.31792158 0.040094137
-0.14623719 0.34124187 0.048772335
-0.1235459 0.34086752 0.045032501
-0.10095798 0.34061223 0.042482138
-0.078409009 0.34035608 0.039921761
-0.055899892 0.34010166 0.037380338
-0.033430416 0.33985063 0.034871817
0.056228772 0.3399353 0.03571701
0.078740612 0.34034172 0.039777875
0.1013162 0.34075201 0.043879271
0.12395483 0.3411622 0.047977448
-0.55266678 -0.40274701 0.054465771
0.57572043 -0.38038853 0.055859923
0.57572043 -0.35781536 0.055859804
-0.5769015 -0.3361533 0.06282115
0.57752126 -0.33646679 0.065217018
-0.55336887 -0.31294671 0.058113456
0.55473566 -0.31372812 0.06445694
-0.53196925 -0.29110062 0.06455934
-0.53180188 -0.26836288 0.06365335
-0.55409509 -0.2455529 0.061887145
0.55232185 -0.22196388 0.051391721
-0.57522631 -0.19968432 0.054451227
0.5764035 -0.20010415 0.059409142
-0.59926438 -0.15505177 0.061551809
0.59900683 -0.15490428 0.059423804
0.5975588 -0.13185817 0.052188635
-0.64339626 -0.10955191 0.056615472
-0.64573455 -0.087456726 0.067090034
0.64388472 -0.087033443 0.057924509
-0.5763877 -0.064534068 0.060254216
0.57718658 -0.064658172 0.063478231
-0.57769734 -0.04212857 0.066797137
0.57812405 -0.042176455 0.068349361
0.55259228 -0.019149333 0.052855492
-0.55241555 0.0033959374 0.053160071
0.5539161 0.0032902807 0.060021043
-0.55414844 0.02587902 0.062164307
-0.52993554 0.04850056 0.053551674
0.53108919 0.048500665 0.058768511
-0.53215021 0.071148172 0.065538883
-0.50805914 0.093670309 0.057386279
0.50891811 0.093730234 0.061274529
0.48497751 0.11615565 0.053073049
-0.48692182 0.13910325 0.065933704
0.48751342 0.13919029 0.068759799
-0.46366888 0.16161051 0.062208176
0.46397835 0.16164705 0.063156962
-0.4408291 0.18416718 0.0607934
0.44088188 0.18412882 0.05996263
-0.41832465 0.20681748 0.061522484
0.41816214 0.20668876 0.059132457
-0.39602548 0.22957531 0.063814163
0.39565915 0.22933194 0.059860706
-0.37402686 0.25254619 0.068671942
0.37349361 0.25218239 0.063419819
-0.3269006 0.27402946 0.053232431
0.32755724 0.27433234 0.057168126
0.35145691 0.27521011 0.068569422
-0.30568504 0.29763311 0.065641403
-0.2820563 0.29680359 0.05584538
0.28249702 0.29701295 0.058317304
-0.23758017 0.32010734 0.063755512
-0.21419202 0.31920224 0.053957939
0.21426117 0.31899193 0.051681399
0.23770349 0.3200736 0.063390613
-0.19264282 0.34321859 0.068525434
-0.1693615 0.34222606 0.058608413
0.14665708 0.34157345 0.052087307
0.16942324 0.341986 0.056208611
0.19254571 0.34287435 0.06508553
-0.079282999 0.3658655 0.068305612
-0.056552555 0.36557826 0.065641284
-0.033863422 0.36529332 0.062996387
-0.011214941 0.36500713 0.060341597
0.011392671 0.3647216 0.057691693
0.033997476 0.36496785 0.059977293
0.056667432 0.3654238 0.064208627
0.079403147 0.36588275 0.068466783
0.60324353 -0.38400581 0.08059144
0.60271758 -0.36087823 0.077963829
0.58112335 -0.316127 0.083934188
0.53301656 -0.29168883 0.069653988
0.53312564 -0.26907593 0.070270181
0.55579883 -0.24638605 0.070211649
-0.57949865 -0.22421846 0.0757972
0.5793817 -0.22413406 0.074884415
0.60365486 -0.20207193 0.082646608
-0.60234773 -0.17881069 0.076386571
0.60114253 -0.17832631 0.070094228
0.62600392 -0.13360646 0.080576658
-0.57938373 -0.01966583 0.075223088
0.57932508 -0.019651219 0.074590206
-0.58135855 0.0029043555 0.085089922
0.5807218 0.0029543415 0.081847668
0.55569315 0.02582141 0.069639564
0.5577029 0.048500612 0.080517411
-0.5569337 0.048500717 0.07663691
0.5333569 0.071194693 0.071576595
-0.53412169 0.093960203 0.076209664
0.53539026 0.094065696 0.083060861
-0.51029873 0.11654731 0.070035577
0.51120812 0.11665733 0.074796081
-0.51293534 0.13968803 0.084926844
-0.48951176 0.16234258 0.081226826
0.49015805 0.16249239 0.085119486
-0.46652371 0.1850481 0.079867601
0.46687651 0.18514583 0.081980824
-0.44388172 0.20784664 0.080621004
0.44397905 0.20787451 0.081138253
-0.42149004 0.23076701 0.083164454
0.42135066 0.2307041 0.082143545
0.39903253 0.25372174 0.085638165
-0.35180518 0.27549931 0.072325706
-0.33026117 0.29904687 0.08233583
0.30626467 0.29800773 0.070064902
0.33022338 0.2990104 0.081906915
-0.28482726 0.3219344 0.083534479
-0.26112384 0.32101703 0.073604584
0.26133403 0.32116389 0.075193405
-0.21608087 0.34421632 0.078494906
0.21601668 0.34406862 0.077020168
-0.14793029 0.36714661 0.080192447
-0.12486762 0.3664414 0.073648691
-0.10205466 0.36615324 0.070974827
0.1022048 0.36634305 0.072737098
0.12507269 0.36680469 0.077020288
0.14800708 0.36726761 0.081315517
0.17102906 0.36777329 0.086008787
-0.60561401 -0.38568917 0.092101216
-0.6044957 -0.36209169 0.086720824
-0.6065563 -0.34057835 0.096634746
0.60465449 -0.33940133 0.087640882
-0.58182758 -0.31655797 0.087433219
-0.55896288 -0.29371265 0.087180853
0.55911499 -0.29382583 0.088160634
-0.56068456 -0.2718626 0.096127033
0.56033862 -0.27171776 0.094783902
-0.58511364 -0.24975252 0.10385132
0.58320272 -0.24884063 0.094739199
-0.60596704 -0.20301622 0.093799591
-0.6303072 -0.15776005 0.10064292
0.62853861 -0.15721476 0.09277153
-0.62796265 -0.13417226 0.089765429
-0.67539668 -0.11175021 0.097411752
0.67430961 -0.11151383 0.093024731
-0.67658931 -0.089095704 0.10257614
0.67577308 -0.088957302 0.099580169
-0.60660595 -0.065943532 0.09687376
0.6045416 -0.06556654 0.087076902
-0.60796571 -0.043256186 0.10341609
0.60603338 -0.042982586 0.094530344
0.60795903 -0.020333976 0.10415149
-0.58398926 0.02560127 0.098233819
0.58259195 0.025652679 0.091565371
0.58491307 0.048500612 0.10362613
-0.56031126 0.071368836 0.094187379
0.56010443 0.071363688 0.093516588
-0.53701919 0.11705209 0.091892958
0.53782797 0.11716615 0.096828938
0.51390439 0.13986649 0.090717196
-0.51568878 0.16308358 0.10047841
-0.49255165 0.18593997 0.099176049
-0.46977329 0.20888931 0.099969149
0.47018591 0.20907828 0.10347629
-0.44728738 0.23197263 0.10274112
-0.39937228 0.25388306 0.087967753
-0.37704623 0.27699408 0.091744065
0.37650982 0.2766988 0.087908268
-0.35551995 0.30075306 0.10248613
0.35479423 0.30032834 0.097471595
-0.30901238 0.32313353 0.096515298
0.28515509 0.32226312 0.087091804
0.30916747 0.32336971 0.099071503
-0.26343766 0.34623358 0.098652482
-0.23967944 0.34522223 0.088546872
0.23968004 0.34527421 0.089066625
0.26353601 0.34648821 0.10119736
-0.19488043 0.36936983 0.10082281
-0.17132422 0.36825514 0.090479255
0.19459726 0.36910868 0.098398328
-0.080308728 0.39238086 0.10161674
-0.057321135 0.39206958 0.098921657
-0.034375113 0.39175898 0.09623158
-0.011470436 0.3914471 0.093531489
0.011392671 0.39113778 0.090851068
0.034255777 0.3914471 0.093531489
0.057185762 0.39194873 0.097875118
0.08018256 0.39245003 0.10221636
0.63422573 -0.36672142 0.12013364
-0.61121976 -0.32045487 0.11907184
0.60976416 -0.31972805 0.1131705
-0.58771729 -0.29713973 0.11686003
0.58604157 -0.29628876 0.10949004
-0.61071599 -0.22799218 0.11664808
0.60883766 -0.22724321 0.10854113
-0.63369173 -0.18188664 0.11634529
0.63222337 -0.18143669 0.11049986
-0.60972959 -0.020512909 0.11190248
0.61022699 0.0024364255 0.11548293
-0.58698487 0.04850056 0.11320066
-0.56332582 0.094478071 0.10985172
0.56225795 0.094406053 0.10517263
0.56487352 0.11768565 0.11932993
-0.54104793 0.14057405 0.11369908
0.54069453 0.14055313 0.11301947
0.51673186 0.1633504 0.10741258
0.49326387 0.18617803 0.10433161
-0.49600586 0.20994559 0.11957252
0.44743285 0.2320964 0.10475206
-0.42505202 0.25523767 0.10751784
0.42495838 0.2552835 0.10817993
-0.40265745 0.27852839 0.1116761
0.40233934 0.27846915 0.11090696
