ply
format ascii 1.0
comment PCL generated
element vertex 1366
property float x
property float y
property float z
element camera 0
property float view_px
property float view_py
property float view_pz
property float x_axisx
property float x_axisy
property float x_axisz
property float y_axisx
property float y_axisy
property float y_axisz
property float z_axisx
property float z_axisy
property float z_axisz
property float focal
property float scalex
property float scaley
property float centerx
property float centery
property int viewportx
property int viewporty
property float k1
property float k2
end_header
-0.4886055 -0.2881363 -0.33783329
-0.5516035 0.11298184 -0.34039629
-0.50910801 0.23934507 -0.34282839
0.039922759 0.55815279 -0.33022857
0.10228767 0.57682228 -0.34185886
0.12465988 0.57939327 -0.3299309
0.14490966 0.59877622 -0.33797431
0.14441727 0.61890817 -0.34223819
0.1457075 0.64265847 -0.33106458
0.16781338 -0.6292274 -0.32346511
0.16725461 -0.60702121 -0.3280015
0.19030057 -0.61007261 -0.3138454
0.16820155 -0.58742571 -0.32031357
0.082659528 -0.56502116 -0.32606924
-0.0017549098 -0.54512119 -0.31927097
-0.5119198 -0.24741106 -0.31999946
-0.87276906 -0.056086555 -0.32191145
-0.78913832 -0.056178305 -0.31595242
-0.55348629 0.13481201 -0.32680833
-0.53304219 0.19886594 -0.32101297
-0.46914071 0.32616642 -0.32249618
-0.40586507 0.41189435 -0.31739795
-0.044622317 0.53766966 -0.32676554
0.062502131 0.56159687 -0.31365871
0.14660807 0.58082986 -0.32326567
0.16892402 0.58273065 -0.31444752
0.16744535 0.60134816 -0.32645309
0.19034939 0.60424602 -0.31347227
0.16734384 0.62236333 -0.32727706
0.14825828 -0.65380228 -0.30897415
0.19181041 -0.63395047 -0.3023082
0.2137294 -0.61338043 -0.29849899
0.19088529 -0.58969879 -0.30937731
0.21383594 -0.59211969 -0.29773009
0.1054173 -0.56812024 -0.3105855
0.12712021 -0.5688175 -0.30710173
0.14870603 -0.56921875 -0.30509686
0.17061885 -0.57010126 -0.30068731
0.020583749 -0.54811585 -0.30371058
-0.064776294 -0.52751076 -0.29951382
-0.44889271 -0.35459426 -0.31262565
-0.53554112 -0.20615381 -0.30191767
-0.57844591 -0.013606089 -0.30112159
-0.5783295 0.0077881776 -0.30191755
-0.55737078 0.15774104 -0.2987746
-0.21470338 0.45789328 -0.29703343
-0.17183979 0.47874245 -0.30032516
-0.12907745 0.49954209 -0.30360925
-0.086415984 0.52029276 -0.30688548
-0.022524267 0.54099441 -0.31015396
0.085355148 0.56508255 -0.29688823
0.19141902 0.58470273 -0.30529881
0.21357872 0.60734594 -0.29958618
0.19084199 0.62642074 -0.30970824
0.17043702 0.64955533 -0.30216348
0.23719014 -0.594859 -0.28454995
0.19287156 -0.57139993 -0.29419959
0.21552019 -0.57312608 -0.28557503
0.043176696 -0.55114722 -0.28795898
-0.042507142 -0.5309366 -0.28097093
-0.10743795 -0.50735343 -0.29242337
-0.15031764 -0.48709309 -0.28529692
-0.77361512 -0.056590032 -0.28921521
-0.58073902 -0.035127055 -0.28544319
-0.58037961 0.029398147 -0.28790057
-0.51568627 0.26576924 -0.28941965
-0.00015805662 0.54435968 -0.29334092
0.10730486 0.56615591 -0.29172409
0.12884663 0.56628919 -0.29108262
0.15039833 0.56642258 -0.29044092
0.1721326 0.56684732 -0.28839707
0.19415544 0.56768048 -0.28438878
0.21433927 0.58711696 -0.29409754
0.23745383 0.58956361 -0.28274691
0.23725013 0.61079431 -0.28413963
0.21496524 0.63106894 -0.28958011
0.21817921 -0.64197004 -0.2663852
0.23781885 -0.6173135 -0.28025115
0.26093966 -0.59785843 -0.27011979
0.23838057 -0.57496023 -0.27641082
0.26171124 -0.57722235 -0.26510847
0.066027358 -0.55421317 -0.27202797
-0.020088926 -0.53389478 -0.26495993
-0.19341707 -0.46672902 -0.27813375
-0.75637209 -0.056904737 -0.26877236
-0.58245063 0.051227227 -0.27374136
-0.54014641 0.22471008 -0.26672649
-0.063745089 0.52686751 -0.27272236
0.022481248 0.54776585 -0.27632236
0.21664308 0.56911838 -0.27747118
0.23943712 0.57084 -0.26918721
0.26105589 0.59244788 -0.26936471
0.26147354 0.61469817 -0.26665235
0.26271522 -0.62198305 -0.2585876
0.28542447 -0.6015172 -0.25251615
0.28511935 -0.57936502 -0.25440323
0.088663206 -0.55632067 -0.2610774
0.11037923 -0.55633497 -0.26100278
0.13209482 -0.55634642 -0.26094329
0.15381302 -0.55636072 -0.26086879
0.17553239 -0.55637503 -0.2607944
0.19725291 -0.55638945 -0.2607199
0.21916462 -0.5566678 -0.25927377
0.24144627 -0.55740356 -0.25545037
0.26379073 -0.55814421 -0.2516017
-0.47642279 -0.33994496 -0.25492692
-0.51895159 -0.27393994 -0.26290834
-0.58453614 0.073277369 -0.25948262
-0.49733615 0.31189033 -0.26222372
-0.43272728 0.39946589 -0.25691533
-0.0413284 0.53019154 -0.25545049
0.045398638 0.55121386 -0.25909483
0.26226765 0.57243896 -0.2614944
0.28534693 0.5742054 -0.25299561
0.28506857 0.59560502 -0.25471735
0.24049912 0.63745534 -0.26192617
0.30939162 -0.58233404 -0.23956883
0.2863664 -0.55908966 -0.24668944
0.30964535 -0.56074822 -0.23807061
0.0025862157 -0.53688419 -0.24877954
-0.084405988 -0.51635051 -0.24160898
-0.54311156 -0.23200125 -0.2440685
-0.74145609 -0.035514407 -0.23513043
-0.71899652 -0.035492308 -0.23799503
-0.58664292 0.095552698 -0.24507833
-0.56500959 0.18297885 -0.24364638
-0.10612848 0.51208436 -0.23572206
-0.01863426 0.53355646 -0.23796463
0.068257108 0.55389571 -0.24569583
0.090145305 0.55402839 -0.24503314
0.11204375 0.55416107 -0.24436998
0.13395245 0.55429375 -0.2437067
0.15587138 0.55442667 -0.24304307
0.17780243 0.55456257 -0.24236393
0.199742 0.55469549 -0.24169958
0.22169183 0.55482864 -0.24103487
0.24323897 0.55439651 -0.24319386
0.26483685 0.55407357 -0.24480712
0.28718519 0.55471063 -0.241624
0.31021011 0.55608928 -0.23473597
0.3092252 0.57679188 -0.24055147
0.3338145 -0.56323028 -0.22517371
0.025524482 -0.53991079 -0.23239708
0.24642502 -0.54194057 -0.22141063
0.26737088 -0.54065895 -0.2283479
0.2890408 -0.54032671 -0.23014557
0.31151927 -0.54090679 -0.22700596
0.33473045 -0.54220104 -0.22000062
-0.061913185 -0.51926839 -0.22512794
-0.12779965 -0.49804771 -0.22061384
-0.56759673 -0.18949795 -0.22497511
-0.69856328 -0.035552815 -0.23013043
-0.6780166 -0.035613701 -0.22222221
-0.58877355 0.11805734 -0.23051107
-0.23778871 0.44803634 -0.22543359
-0.19379622 0.46943524 -0.22888148
-0.14990996 0.49078009 -0.23233628
0.0043424964 0.53696346 -0.22026122
0.26905537 0.5375129 -0.21740711
0.29029447 0.53655374 -0.22239041
0.31246167 0.53673649 -0.22144115
0.3339904 0.55820203 -0.22418034
0.33439672 0.58067167 -0.22188532
0.31066799 0.60049474 -0.23203206
0.28921807 0.62309301 -0.22904885
0.33560884 -0.58724356 -0.21503949
0.35942006 -0.5670017 -0.20557654
0.048729658 -0.5429728 -0.21582389
0.070988595 -0.5434134 -0.21343839
0.093070999 -0.54342771 -0.21336138
0.11515464 -0.54344177 -0.21328437
0.13723944 -0.54345608 -0.21320736
0.15932541 -0.54347038 -0.21313035
0.18141256 -0.54348457 -0.21305323
0.20350094 -0.54349875 -0.21297622
0.22549014 -0.54337919 -0.21362317
0.35877419 -0.54422009 -0.20907259
0.29340851 -0.5231638 -0.20312726
0.36016798 -0.5234468 -0.20152855
-0.039158463 -0.52221787 -0.20846999
0.31469506 -0.52225614 -0.2082535
0.33704036 -0.52248621 -0.20695436
-0.17183979 -0.47723731 -0.21313024
-0.21611121 -0.45632023 -0.20559204
-0.65724105 -0.035669699 -0.2149471
-0.63725114 -0.035768516 -0.20211864
-0.59092396 0.14079332 -0.21580851
-0.54753572 0.25159109 -0.21026158
-0.083633319 0.51563275 -0.21651578
0.027606115 0.5404104 -0.20235133
0.22704338 0.54039824 -0.20241332
0.24810536 0.53895342 -0.20992196
0.33539373 0.53773475 -0.21625447
0.3590855 0.53944111 -0.20738745
0.35879415 0.56124735 -0.20896459
0.38394481 -0.54715919 -0.19316375
-0.016137585 -0.52519894 -0.19163203
0.25141275 -0.5259645 -0.18730927
0.27246815 -0.52456033 -0.19524002
0.38412821 -0.52509665 -0.19221056
-0.50513202 -0.32467878 -0.19470954
-0.7721293 -0.035839025 -0.19296062
-0.61729878 -0.013606042 -0.18776417
-0.61712503 0.0086581409 -0.1888926
-0.57296151 0.20923935 -0.18625796
-0.52679306 0.29697812 -0.19924355
-0.46079147 0.38648102 -0.19372606
-0.060889937 0.51895332 -0.19854319
0.29547423 0.52046704 -0.1903491
0.31655842 0.51919198 -0.19725084
0.33844686 0.51886702 -0.19901013
0.36123186 0.51946568 -0.19577026
0.3847155 0.52068698 -0.18915892
0.050145015 0.54135585 -0.19743788
0.072401538 0.54148781 -0.19675231
0.094668642 0.54161978 -0.1960665
0.1169479 0.54175484 -0.19536471
0.13923635 0.54188704 -0.19467831
0.16153534 0.54201925 -0.19399154
0.183845 0.54215133 -0.19330442
0.20587303 0.5418539 -0.19484997
0.38371938 0.54195309 -0.19433498
0.0071557462 -0.52821827 -0.17457974
0.20895486 -0.52879882 -0.17130065
0.23024343 -0.52737904 -0.17931914
0.40925038 -0.52764726 -0.17780423
-0.10493755 -0.50422245 -0.18415308
0.32005513 -0.50550097 -0.17660367
0.34118038 -0.50432098 -0.18357134
0.36320102 -0.50406021 -0.18511164
0.38593614 -0.50444883 -0.18281627
0.4094969 -0.50550628 -0.17657232
-0.55100185 -0.25894618 -0.1837759
-0.6199165 -0.036009822 -0.17076135
-0.61946505 0.031156473 -0.1736933
-0.12712061 0.50066459 -0.17650902
0.34349626 0.50172997 -0.17049146
0.36461234 0.500494 -0.17747271
0.38667291 0.50022554 -0.17898798
0.40989888 0.50100899 -0.17456388
-0.03785938 0.5223155 -0.18034387
0.25320286 0.52328992 -0.17507029
0.27439547 0.52187634 -0.18272197
0.40908921 0.52263618 -0.17860925
0.41053933 0.54637384 -0.17136407
0.38565463 0.56618822 -0.18427885
0.030247509 -0.53005135 -0.16422606
0.052707791 -0.53006554 -0.1641463
0.075169295 -0.5300796 -0.16406655
0.097632036 -0.53009379 -0.1639868
0.12009598 -0.53010786 -0.16390729
0.14256118 -0.53012192 -0.16382754
0.1650276 -0.53013599 -0.16374791
0.18749525 -0.53015018 -0.16366804
-0.082109004 -0.50712538 -0.16701221
0.27781796 -0.50822961 -0.16049206
0.29899496 -0.50686151 -0.16857016
0.43499237 -0.50806183 -0.16148221
0.36733955 -0.48538792 -0.16271126
0.38854021 -0.48432526 -0.16928506
0.41100633 -0.48436642 -0.1690309
0.43503553 -0.48562023 -0.16127479
0.41360569 -0.46394876 -0.15604353
0.43643612 -0.4641808 -0.15453637
-0.57606518 -0.21571873 -0.16385925
-0.62182742 0.053892173 -0.15834939
-0.59882313 0.1661765 -0.1618017
-0.21691036 0.4596349 -0.15368569
-0.17183979 0.4815565 -0.15730894
0.36878771 0.48196909 -0.15487313
0.38958132 0.48044458 -0.16387534
0.41184682 0.48028263 -0.16483128
0.43534106 0.48113397 -0.1598047
-0.10433425 0.50393629 -0.15802932
0.30118847 0.50447261 -0.1550014
0.32239711 0.50309622 -0.16277504
0.43481326 0.5031724 -0.1623441
-0.014536157 0.52572072 -0.16191328
0.21048225 0.52614272 -0.15962887
0.23190029 0.52471411 -0.16736197
-0.059008703 -0.51006281 -0.14966726
0.23510961 -0.51098871 -0.14420044
0.25652319 -0.50960529 -0.1523689
-0.14923808 -0.488242 -0.14505661
0.3260166 -0.48883268 -0.14140284
0.34710062 -0.48742121 -0.15013385
0.46129018 -0.48845348 -0.14374804
0.37190509 -0.46672678 -0.13799953
0.39221346 -0.46484864 -0.15019834
0.46084112 -0.46552101 -0.14583135
0.43890351 -0.44338837 -0.14266491
0.46213782 -0.44380516 -0.13981569
-0.62420988 0.076867901 -0.14287496
0.39376605 0.46150273 -0.14213097
0.41478205 0.46020392 -0.15016615
0.43726414 0.46014151 -0.15055215
0.46114045 0.46112913 -0.14444256
0.3484717 0.48408309 -0.14238977
0.46082371 0.48348677 -0.14591217
-0.081256099 0.50725019 -0.13931322
0.25842804 0.50724435 -0.13934565
0.27986401 0.50585341 -0.14720249
0.0087801963 0.52825379 -0.1482017
0.031405732 0.52838194 -0.14750874
0.054044411 0.52851617 -0.14678323
0.076692939 0.52864718 -0.14607334
0.099352404 0.52877831 -0.14536321
0.12202285 0.52890968 -0.14465272
0.1447043 0.52904081 -0.14394212
0.1673034 0.52902305 -0.14403892
0.18895225 0.52758205 -0.15183866
0.43747824 0.52800989 -0.14952254
-0.035632521 -0.51303267 -0.13213086
0.19192214 -0.51377869 -0.1277262
0.21357627 -0.51237977 -0.13598633
-0.12631741 -0.49159095 -0.12434042
0.28329819 -0.49150091 -0.124897
0.30471718 -0.49016303 -0.13317311
-0.19450256 -0.46686164 -0.13712323
0.35152543 -0.46870622 -0.12514246
0.48805183 -0.46870366 -0.12515903
-0.24001122 -0.44535837 -0.12919593
0.39691579 -0.44586021 -0.12576425
0.41730481 -0.44413489 -0.13756144
0.48692119 -0.44520804 -0.13022387
0.44261354 -0.42324156 -0.12481523
0.46455705 -0.42271835 -0.12859178
0.48810297 -0.42322567 -0.12492979
-0.5350973 -0.30875283 -0.13182127
-0.62661767 0.1000884 -0.12723601
-0.58124179 0.23658407 -0.12650037
-0.55759418 0.28138256 -0.1334008
-0.49014026 0.37290159 -0.12764442
0.46591139 0.41915366 -0.12230837
0.48866624 0.41913924 -0.12240684
0.41895962 0.440855 -0.1292938
0.44022405 0.43977448 -0.13631129
0.46293515 0.43980461 -0.13611639
0.48725629 0.44094285 -0.12872243
0.37346828 0.46353844 -0.12953866
0.48713243 0.46358082 -0.12927747
0.32798171 0.48621535 -0.1297996
0.21520753 0.51004624 -0.12352133
0.2368746 0.50864005 -0.13146281
-0.011974066 -0.51604116 -0.11436701
0.010934994 -0.51623666 -0.11321235
0.033787534 -0.51625073 -0.11312985
0.056641385 -0.51626468 -0.11304748
0.079496488 -0.51627862 -0.11296511
0.10235284 -0.51629257 -0.11288249
0.12521051 -0.51630664 -0.1128
0.14806943 -0.51632059 -0.11271739
0.17014618 -0.51518548 -0.11941957
-0.10314382 -0.49447784 -0.10648215
0.24009736 -0.49419942 -0.10820484
0.26175857 -0.4928464 -0.11657441
0.33096695 -0.47070315 -0.11217248
0.37656081 -0.44775653 -0.1128
0.42213863 -0.42482185 -0.11341047
0.51350087 -0.42481044 -0.11349297
0.46806407 -0.40211913 -0.11232114
0.48994619 -0.40154958 -0.11667323
0.51378286 -0.40212563 -0.11227167
0.49215841 -0.37994981 -0.10676396
0.51496691 -0.3799029 -0.10714495
-0.62904871 0.12355664 -0.1114459
0.46900487 0.39836553 -0.10795653
0.49055678 0.39753667 -0.11393821
0.51399267 0.39789343 -0.11136341
0.44442898 0.4200646 -0.1160804
0.51336378 0.42035607 -0.11408663
0.39868122 0.44281077 -0.11659086
0.51436293 0.44386235 -0.10976017
0.35299587 0.46559164 -0.11683786
-0.14901705 0.48849425 -0.11634398
0.2854709 0.48943564 -0.11078501
0.30704421 0.4880819 -0.11877847
-0.057879865 0.51060963 -0.12033927
0.17151953 0.51287818 -0.10752583
0.19342346 0.51146007 -0.11553693
0.19640584 -0.49692845 -0.091323018
0.21831344 -0.49556005 -0.099787831
0.31022727 -0.47271752 -0.09908855
0.35602635 -0.44966933 -0.099721313
0.51535732 -0.4488309 -0.10545433
0.40180606 -0.42663103 -0.10035372
0.44756979 -0.40360466 -0.10096943
0.54174399 -0.40492612 -0.090870976
0.47132581 -0.38112926 -0.097188354
0.54027623 -0.38114986 -0.09702158
0.49494076 -0.35849252 -0.094300389
0.51677358 -0.35791272 -0.099321604
0.54066259 -0.3583653 -0.095402718
0.54196393 -0.335969 -0.089949489
-0.58490396 -0.2430861 -0.10007095
-0.60770839 0.192858 -0.10105264
0.51752436 0.35405481 -0.096070647
0.54102933 0.35432637 -0.093865871
0.47248185 0.3775892 -0.091825366
0.49301404 0.37613586 -0.10293114
0.51544929 0.37585771 -0.10505617
0.54022449 0.37688082 -0.097238421
0.44910526 0.40035734 -0.093581796
0.54086179 0.40022057 -0.094567657
0.40368587 0.42379338 -0.090586185
0.42411965 0.42190281 -0.10351241
0.35759634 0.44677314 -0.090854168
0.37822753 0.44478342 -0.10377812
0.31151778 0.46975151 -0.091105223
0.33234644 0.46766254 -0.10402715
-0.12589785 0.49175534 -0.097088218
0.24197535 0.4921681 -0.094651222
0.26378322 0.49079958 -0.1027317
-0.034203216 0.51400089 -0.10118556
-0.011013314 0.51482379 -0.096537709
0.012007102 0.51495373 -0.095803499
0.035038859 0.51508391 -0.095068812
0.05808197 0.51521397 -0.094333768
0.081136391 0.51534414 -0.093598604
0.10420223 0.51547444 -0.092862725
0.12728105 0.51560783 -0.092109799
0.14949696 0.5143044 -0.099471569
-0.079689108 -0.49739709 -0.088423729
0.15221532 -0.49968863 -0.074248433
0.17437349 -0.49830455 -0.082810163
-0.17183979 -0.47558957 -0.080433965
0.26712102 -0.47567001 -0.079910994
0.28891104 -0.47435683 -0.088440657
0.33531022 -0.45159918 -0.086526871
0.38129687 -0.42845854 -0.087164998
0.40678114 -0.40706825 -0.074502468
0.42726725 -0.40532994 -0.087786078
0.45167327 -0.38309532 -0.081226349
0.47503167 -0.36014432 -0.079995394
0.56869906 -0.36073369 -0.074891806
0.49840927 -0.33717459 -0.078763366
0.51915479 -0.33607018 -0.089010596
0.56734633 -0.33699998 -0.08038342
0.52214962 -0.31433484 -0.076042533
0.54392087 -0.31376383 -0.081748843
0.56784523 -0.31410316 -0.078357935
-0.61093634 -0.19848889 -0.078982711
-0.63464528 0.14837585 -0.075095057
0.54482275 0.31004807 -0.077969551
0.56838226 0.31024104 -0.076177835
0.52019811 0.33241296 -0.084493041
0.54258835 0.33208498 -0.087332726
0.56742525 0.33292446 -0.080062866
0.47628504 0.35675094 -0.074180722
0.49610662 0.35491604 -0.089077711
0.56764144 0.35613465 -0.079185367
0.45276833 0.37966567 -0.075957894
0.42927939 0.40255335 -0.077733159
0.38307375 0.42570055 -0.077547073
-0.24127665 0.44930634 -0.074400902
0.3367852 0.44878015 -0.07781744
-0.19495676 0.47185054 -0.078121543
0.29050756 0.47185865 -0.078070879
-0.10247637 0.4950591 -0.077580929
0.1980048 0.4949303 -0.078341246
0.22005107 0.49354687 -0.086509943
-0.055947222 -0.50035483 -0.070127726
-0.032323346 -0.50191367 -0.060485363
-0.0090650767 -0.50193018 -0.060382724
0.014193714 -0.50194407 -0.060297489
0.037453815 -0.50195789 -0.060211897
0.060715258 -0.5019716 -0.060126543
0.083976552 -0.50198269 -0.060058117
0.10724045 -0.50199652 -0.059972644
0.12993021 -0.50108063 -0.065637946
-0.14859875 -0.47842684 -0.062005639
0.22316624 -0.47831902 -0.062705517
0.24520646 -0.47699085 -0.071332812
0.2933203 -0.45550811 -0.059801579
0.31440991 -0.45354623 -0.073215246
0.33972919 -0.43216252 -0.060434103
0.36060542 -0.43030226 -0.073859096
0.38611549 -0.40882435 -0.061083555
0.43180591 -0.38508034 -0.065109849
0.45528519 -0.36200881 -0.063848495
0.47878051 -0.33891618 -0.062602997
0.5959568 -0.31607133 -0.058689833
0.50229514 -0.31580448 -0.061356664
-0.56639743 -0.2921173 -0.066131711
0.52582926 -0.29267365 -0.060109377
0.54647541 -0.29166353 -0.071044445
0.5692541 -0.29151624 -0.072638869
0.59485 -0.29240227 -0.063046694
0.5487057 -0.2692835 -0.061698198
0.57043362 -0.26876253 -0.067850471
0.59488463 -0.26918092 -0.062910318
0.57179773 -0.24599278 -0.06231308
0.59533137 -0.24608211 -0.061151743
-0.65945756 -0.013606089 -0.064751863
-0.65921253 0.0096022189 -0.066267967
0.57223529 0.24216977 -0.060536623
0.5956049 0.24220884 -0.060074925
-0.58987349 0.26508313 -0.064206481
0.54927671 0.26553571 -0.059305787
0.57082349 0.26489276 -0.066267967
0.59501904 0.26525164 -0.062381268
0.5473066 0.28797147 -0.067561388
0.56948799 0.28755841 -0.071689129
0.59475464 0.28838566 -0.063422084
0.5235588 0.31091329 -0.069940805
0.5951882 0.31179962 -0.061715364
0.49983329 0.33381096 -0.072384477
-0.52086389 0.35868627 -0.058467269
0.45647484 0.35872847 -0.058125019
0.4328444 0.38176438 -0.059921384
0.40877903 0.40443948 -0.064121246
0.3622812 0.42762432 -0.064393997
0.31579179 0.45080501 -0.064666748
0.26927096 0.47393745 -0.065212011
0.1535513 0.49772272 -0.061851859
0.17583989 0.49632409 -0.070110679
-0.12507102 -0.48129386 -0.043384075
0.1787046 -0.48099855 -0.045301557
0.20099933 -0.47965503 -0.054028511
-0.21839875 -0.45591617 -0.057012081
0.27204424 -0.45749024 -0.046250701
-0.26521635 -0.43380055 -0.048612475
0.31866574 -0.43403944 -0.046888828
0.36526459 -0.41059622 -0.047544003
0.41172725 -0.38708889 -0.048801899
0.43532169 -0.36389154 -0.047544003
0.45893568 -0.34067482 -0.046285152
0.48257303 -0.31744051 -0.045008183
0.50622636 -0.29418513 -0.043747187
0.52921313 -0.27065888 -0.045456886
0.55083925 -0.24672832 -0.052757859
0.55310917 -0.22407521 -0.043245792
0.57342434 -0.2232116 -0.0557096
0.59625244 -0.22308581 -0.057525754
0.6227501 -0.22393866 -0.045215249
0.57519811 -0.20036551 -0.048508883
0.59727174 -0.20005736 -0.053513408
0.62240237 -0.20048651 -0.046543956
0.59868753 -0.17705123 -0.047940493
0.62284046 -0.17721672 -0.0448699
0.623528 -0.15396507 -0.042243004
-0.66188025 0.03306454 -0.049765944
0.59931397 0.17334035 -0.045474172
0.62305748 0.1734286 -0.044040799
0.57595426 0.19671106 -0.045439601
0.59784353 0.19630758 -0.051262617
0.62257391 0.19667986 -0.045888424
0.57405418 0.21948583 -0.053152919
0.59661806 0.21925995 -0.056086659
0.62262356 0.22005963 -0.045698404
0.55149573 0.24306139 -0.050006866
0.52982354 0.26705924 -0.042813659
0.52740407 0.28939953 -0.053290248
0.50382388 0.31257635 -0.054509044
0.48013705 0.33566725 -0.056309581
0.41270667 0.38388559 -0.043712497
0.38800615 0.40627831 -0.050849915
0.34130573 0.42956513 -0.05112505
0.29461378 0.45284751 -0.051400185
-0.17183979 0.47580913 -0.05363369
0.22501509 0.47662646 -0.048577666
0.24720503 0.4752796 -0.056909323
-0.078747183 0.49840322 -0.05783391
-0.054932497 0.50078607 -0.043764353
-0.031516716 0.50091183 -0.043020964
-0.0080885291 0.50104082 -0.04226017
0.10860528 0.50054324 -0.045197845
0.13114183 0.49913195 -0.053530693
0.13372724 -0.48370922 -0.027695775
0.15628092 -0.48234993 -0.036524057
0.25044632 -0.45935261 -0.033517361
0.29740989 -0.43593076 -0.033239007
0.34422582 -0.41238403 -0.033882499
0.39101881 -0.38884512 -0.034543395
0.41514456 -0.36579663 -0.03104496
0.4388786 -0.34245437 -0.029772401
0.46263254 -0.31909266 -0.028498888
0.48641002 -0.2957131 -0.027206659
0.5098877 -0.27219239 -0.027346373
0.53155684 -0.24807164 -0.035308242
0.62462974 -0.24786182 -0.038033843
0.5555346 -0.20131552 -0.033082485
0.57730883 -0.17748237 -0.039940596
0.57954741 -0.15449117 -0.030853391
0.60017437 -0.15397228 -0.042087317
0.60128343 -0.1307459 -0.037721634
0.62399918 -0.13064125 -0.040442944
0.65102422 -0.13115805 -0.027014494
0.60187 -0.10738904 -0.03541255
0.62433016 -0.10727315 -0.039178133
0.65077484 -0.10761915 -0.027940035
0.60246193 -0.08399713 -0.033082366
0.62466151 -0.08388561 -0.037912488
0.65065724 -0.084105767 -0.028376698
0.60305476 -0.060569331 -0.030748606
0.62499756 -0.06047881 -0.036628246
0.65053964 -0.060599204 -0.028812766
0.603715 -0.037107673 -0.028149605
0.6254704 -0.037056364 -0.034821749
0.65044564 -0.037099894 -0.02916193
0.62594384 -0.013606042 -0.033012867
0.65060544 -0.013605994 -0.028568625
0.62626743 0.0098677557 -0.031776547
0.65071839 0.0098955892 -0.028149724
0.60412323 0.033422112 -0.026542664
0.62573892 0.033310447 -0.033795714
0.65053964 0.033387024 -0.028813004
-0.66457725 0.05678495 -0.033082366
0.60332054 0.056863047 -0.029702663
0.62521124 0.056721985 -0.03581202
0.65048319 0.056878701 -0.029022336
0.60266095 0.080272786 -0.032299161
0.62477046 0.080112703 -0.037495971
0.65061492 0.08038877 -0.028533816
0.60200244 0.10364269 -0.034891009
0.62440735 0.10348915 -0.038883567
0.65074652 0.10390614 -0.028044939
0.60134953 0.12697385 -0.0374614
0.62403995 0.12684327 -0.040287137
0.65094417 0.12744263 -0.027311563
0.5804801 0.15096383 -0.027066946
0.60069335 0.15026462 -0.040044546
0.62367296 0.150176 -0.041689277
0.57826596 0.17392026 -0.036055088
0.55646598 0.19783761 -0.029179215
-0.61697644 0.22067644 -0.037686706
0.5539434 0.22051764 -0.03974998
0.53225583 0.24456233 -0.032281518
0.62371373 0.24377885 -0.041533589
0.50786215 0.29108787 -0.036419988
0.48403138 0.31432959 -0.038241863
0.46022916 0.33754322 -0.040061831
0.43645191 0.36072734 -0.041897058
0.39235169 0.38602954 -0.027328968
0.36704975 0.40813372 -0.0374614
0.32014489 0.43152297 -0.037738919
0.27324861 0.45490807 -0.038016558
-0.14837971 0.47905549 -0.03355217
0.18026833 0.47934526 -0.031759143
0.20270462 0.47798342 -0.040183067
0.0153514 0.50116968 -0.041499019
0.038803056 0.50129879 -0.040737391
0.06226781 0.50143063 -0.039957881
0.085743114 0.50155973 -0.039195538
-0.10125165 -0.48419362 -0.024549007
0.11104234 -0.48507634 -0.018815875
-0.19543347 -0.46188602 -0.016196489
0.20571105 -0.46194765 -0.015774131
0.22814362 -0.46064633 -0.024671555
0.27596444 -0.43784162 -0.01944828
0.32299393 -0.4141857 -0.020115376
0.37000602 -0.3905423 -0.02076447
0.3947435 -0.36772063 -0.014383078
0.41860211 -0.34425357 -0.013079047
0.44247746 -0.32076469 -0.011791468
0.46637291 -0.29725608 -0.010502696
0.51218051 -0.24947509 -0.017076015
-0.62082326 -0.22628243 -0.01138556
0.5339123 -0.22533168 -0.025109053
0.53628761 -0.20244002 -0.014823437
0.55797625 -0.17840324 -0.022850633
0.56043017 -0.15533571 -0.012567639
0.65173095 -0.15478961 -0.024391532
0.58128572 -0.131282 -0.02379632
0.58208448 -0.10784662 -0.020553946
0.58288056 -0.084361061 -0.017322183
0.58368266 -0.060826283 -0.014065981
0.58448213 -0.037241057 -0.010820508
0.60444748 -0.013606089 -0.02526629
0.60494101 0.0099327639 -0.023323536
0.58403444 0.057257183 -0.012638092
-0.66730416 0.080768198 -0.016214132
0.58314049 0.080766492 -0.016266942
0.58225304 0.10422094 -0.019869447
0.58136767 0.12762034 -0.023463607
0.65170729 0.15110333 -0.024478912
-0.64456815 0.17548536 -0.010643959
0.55900198 0.17499825 -0.018552542
0.65318578 0.17497122 -0.01899147
0.53717941 0.19909975 -0.010961652
0.53470904 0.22191018 -0.021658897
0.5128485 0.24610335 -0.014083624
0.51046532 0.26872715 -0.024759054
0.48797256 0.29273537 -0.019957304
0.46402502 0.31610158 -0.021799088
0.44010627 0.33943972 -0.023638725
0.41621292 0.36274755 -0.025493622
0.37177598 0.38819695 -0.010767579
0.34590733 0.41000521 -0.023953915
0.27725738 0.43549106 -0.010608673
0.2987963 0.43349826 -0.024234056
0.22994931 0.45908701 -0.010873675
0.25169629 0.45698965 -0.024496436
-0.12460634 0.48234525 -0.013202429
0.13502248 0.4820945 -0.014752865
0.15770926 0.48071745 -0.023271084
-0.077145979 -0.48707512 -0.005833149
-0.053469114 -0.48708883 -0.0057445765
-0.029790074 -0.4871051 -0.005638361
-0.006111294 -0.48711604 -0.0055674314
0.017569661 -0.4871296 -0.0054788589
0.041251987 -0.48714337 -0.0053902864
0.064935654 -0.48715693 -0.0053017139
0.088226631 -0.4864541 -0.0098668337
-0.17183979 -0.46469557 0.0030138493
0.16045181 -0.46457323 0.0021767616
0.1831475 -0.46325666 -0.0068249702
0.25432408 -0.43976986 -0.0055320263
0.30157202 -0.41600615 -0.0062050819
0.34880221 -0.39225486 -0.0068602562
0.37412143 -0.36966774 0.0024796724
0.39809918 -0.34607047 0.0037802458
0.4221006 -0.32245502 0.0050998926
-0.59912366 -0.27472401 0.0025507212
0.49029225 -0.27372923 -0.0091952085
0.49256688 -0.25089416 0.0013577938
0.51448482 -0.22660331 -0.0067541599
0.51680863 -0.203578 0.0036554337
0.53867894 -0.17939369 -0.0044686794
0.56230789 -0.13201697 -0.004699111
0.56308717 -0.1084353 -0.0014338493
0.56387228 -0.084804028 0.0018563271
0.56465483 -0.061121836 0.0051355362
0.58528763 -0.013606137 -0.007550478
0.58581984 0.0100707 -0.0053902864
0.58492607 0.033691823 -0.0090184212
0.56411874 0.081356317 0.0028892756
-0.67005563 0.1050168 0.00080621243
0.56324828 0.10495648 -0.00075852871
0.56237984 0.12850088 -0.0043976307
0.56151348 0.15198989 -0.0080282688
0.53966713 0.1761291 -0.00018954277
0.51524448 0.22331956 -0.0033512115
0.49320436 0.24766129 0.0043151379
0.49087566 0.27041483 -0.0064884424
0.46786672 0.29440081 -0.0033156872
0.44380122 0.31789291 -0.0051776171
0.41976482 0.34135666 -0.0070371628
0.39575416 0.36478999 -0.0089123249
0.3505922 0.39009136 0.0037088394
0.30305445 0.41379887 0.00342381
0.32457644 0.41189346 -0.010326147
0.25552553 0.43750179 0.0031387806
-0.21913956 0.45939165 -0.0088948011
0.20752327 0.46059787 -0.0010604858
0.089269087 0.48487452 0.0024439096
0.11221056 0.48348203 -0.006169796
0.11465935 -0.46722963 0.020339251
0.13762282 -0.4658975 0.011231303
0.23248611 -0.44171587 0.0085111856
0.27995449 -0.4178431 0.0078319311
0.30580866 -0.39572471 0.021312475
0.327402 -0.39398074 0.007152915
0.35327137 -0.37163645 0.019528747
0.37737292 -0.34790948 0.020843983
0.44611901 -0.29881784 0.0064028502
0.47015774 -0.27516058 0.0077067614
0.47271967 -0.25233179 0.020033121
0.4948225 -0.2278904 0.011822581
0.51914829 -0.18039623 0.014135718
0.54108238 -0.15619045 0.0059386492
0.54308736 -0.13276052 0.014620304
0.54385513 -0.10903204 0.017944813
0.54462039 -0.085252121 0.021258473
0.56544334 -0.037389375 0.0084395409
0.56622922 -0.013606137 0.011733055
0.56674695 0.010219354 0.013902545
0.56587029 0.033988133 0.010228753
0.56499559 0.05770053 0.0065634251
0.54400474 0.10570136 0.018592715
-0.67283493 0.12953538 0.017998815
0.5431537 0.12939256 0.014907598
0.54216826 0.1529959 0.010640264
0.52009499 0.17727257 0.018376708
0.51766121 0.20037699 0.0074745417
0.49554551 0.22474587 0.015177011
0.47105038 0.27212289 0.012001753
0.44754106 0.29608437 0.013507724
0.42335647 0.31970379 0.011625409
-0.55306131 0.34378916 0.014028192
0.399198 0.3432925 0.0097275972
0.37507224 0.36685455 0.0078496933
0.32908845 0.39190739 0.017585039
0.28133893 0.41572121 0.017297506
-0.26700118 0.43841058 0.0093518496
0.23359825 0.43953067 0.017009616
-0.19564888 0.46257573 0.01178658
0.1619729 0.46326926 0.016290784
0.1848131 0.46193108 0.0075995922
-0.10051499 0.48566753 0.0073494911
-0.076606728 0.48636755 0.011679292
-0.052768812 0.48649207 0.012449741
-0.028918177 0.48661962 0.013238788
-0.0050543994 0.4867501 0.014046073
0.018820718 0.48687783 0.014835835
0.042708024 0.4870055 0.015625954
0.06619598 0.48626906 0.011070251
-0.14794862 -0.46753824 0.022448778
0.09156023 -0.46856964 0.029500961
-0.24363139 -0.44435576 0.027563095
0.18770237 -0.44505659 0.032621384
0.2104478 -0.4436796 0.022683263
-0.29183555 -0.42159158 0.036476016
0.23612194 -0.4215678 0.036294103
0.25813872 -0.41969693 0.02199769
0.28401631 -0.39748484 0.03560245
0.33188939 -0.37341261 0.034911275
0.40149492 -0.32416233 0.022160172
0.42564088 -0.30039677 0.023495555
0.44980395 -0.27660918 0.02481401
0.47492117 -0.22919296 0.030624986
0.4970935 -0.20472974 0.022358418
0.49937606 -0.18140997 0.032948256
0.52149981 -0.15705572 0.024669409
0.52362794 -0.13351426 0.034202099
0.54539144 -0.061421465 0.024597049
0.54615992 -0.037539311 0.027925014
0.54693431 -0.013606042 0.031278014
0.54743332 0.010369761 0.033438921
0.54657412 0.03428819 0.029718399
0.545717 0.058149524 0.026007056
0.54485774 0.081953533 0.022286415
0.5236848 0.13029562 0.034456611
0.522542 0.15400332 0.029338002
0.50028557 0.17842983 0.037168026
0.49790716 0.20166968 0.026133657
0.47560799 0.22618935 0.033929586
-0.62664974 0.24970496 0.028450251
0.47332299 0.24923801 0.022935867
0.45098525 0.27385166 0.030715704
0.426992 0.29778644 0.030516267
0.40268713 0.32153469 0.028613329
0.37840879 0.34525174 0.026694417
0.35416341 0.36894172 0.02479589
0.30739045 0.39373967 0.031586647
0.25942719 0.41766092 0.031296253
0.21147288 0.44157773 0.031006217
-0.17183979 0.46580303 0.032748461
0.11590637 0.46597093 0.033838749
0.13900562 0.46461761 0.02504909
-0.12375472 -0.47041419 0.042111754
-0.099508658 -0.47170317 0.050924897
-0.07539545 -0.47171673 0.051016808
-0.051280834 -0.47173011 0.051108599
-0.027164802 -0.47174352 0.05120039
-0.0030473471 -0.47175699 0.051292539
0.021071523 -0.47177035 0.05138433
0.044950128 -0.47127366 0.047987819
0.068324223 -0.46991763 0.038717031
-0.22005913 -0.44758019 0.050833106
0.14161716 -0.44762337 0.051145434
0.16472812 -0.44633609 0.041855931
0.21389909 -0.4234536 0.050704241
0.26202226 -0.39926118 0.050024867
0.31012177 -0.37507728 0.049327135
0.35641611 -0.34976891 0.038097143
0.38066339 -0.32589045 0.039428115
0.40493137 -0.30199164 0.040760279
0.4292236 -0.27807388 0.042111754
0.4526304 -0.25378689 0.038935661
0.45477635 -0.23051168 0.049657702
0.47713774 -0.20589569 0.041289687
0.47936583 -0.18243712 0.052009463
0.50167817 -0.15793133 0.043628931
0.52437544 -0.10963581 0.037550688
0.52512866 -0.085706241 0.040924549
0.52587938 -0.061724603 0.044287562
0.52663589 -0.037691426 0.047675967
0.52738988 -0.013606137 0.051053643
0.52787429 0.010521971 0.053223372
0.52703315 0.034591991 0.049455643
0.52619404 0.058604352 0.045696855
0.52535701 0.082559057 0.041947365
0.52451783 0.10645562 0.038188338
0.50267702 0.15502323 0.048262954
0.47791296 0.20297815 0.045019507
0.45543116 0.22765194 0.052929044
0.45320028 0.25083402 0.041782975
0.43067223 0.27559981 0.049639225
0.40621579 0.29950735 0.047712803
0.38178951 0.32338578 0.045788407
0.35739011 0.34723237 0.043848515
0.33302391 0.37105212 0.041929007
0.2854954 0.39558852 0.045715213
0.2373165 0.41961828 0.045422316
0.18914877 0.44364598 0.045147777
0.069314912 0.46870336 0.051586628
0.092677578 0.46733466 0.042696595
0.11836834 -0.44891819 0.060490251
0.19147409 -0.42536175 0.065285683
0.23982374 -0.40105414 0.064581156
0.2881518 -0.37675732 0.063877106
0.33522183 -0.35164705 0.055525184
0.35959864 -0.32763776 0.056889534
0.38399345 -0.30360597 0.05823648
0.40840924 -0.27955344 0.059584737
0.43229479 -0.2552599 0.058070421
0.43438363 -0.23184651 0.068924427
0.45693713 -0.20707591 0.060453415
0.48161304 -0.15881784 0.062821388
0.50392073 -0.13427754 0.054033279
0.50465173 -0.11024773 0.057424545
0.50538427 -0.086165808 0.060823083
0.50612241 -0.062031914 0.064247727
0.50685817 -0.037845388 0.067660928
-0.70536047 -0.013606042 0.069184661
-0.70502383 0.010629561 0.067196965
0.5064221 0.059064865 0.065638065
0.50560355 0.083171539 0.061840415
0.50478297 0.10721937 0.058033586
0.50396842 0.13120992 0.054254174
0.48257262 0.15605639 0.067438126
0.4802345 0.17960104 0.056188703
-0.65492874 0.20378387 0.056649804
0.45767426 0.20430261 0.064136386
0.4328317 0.25244948 0.060860157
0.40978813 0.27720785 0.067048192
0.38520867 0.30124739 0.065100312
0.36065972 0.32525736 0.063154697
0.33613807 0.3492353 0.061192989
0.3116498 0.37318569 0.059252262
0.26340073 0.39745444 0.059972763
0.21500422 0.42159337 0.059677124
-0.24434575 0.44559842 0.058494925
0.14309163 0.44667831 0.065879107
0.16635029 0.44536632 0.056908011
-0.1477062 0.46906573 0.05394125
-0.12335021 0.47128963 0.068385482
-0.099086963 0.47141272 0.069184661
0.045817599 0.4700771 0.060508847
-0.1961039 -0.45036012 0.070895672
0.071452036 -0.45153132 0.079348326
0.094980374 -0.45022088 0.069891214
0.16883732 -0.42728537 0.079984665
0.21741559 -0.40286154 0.079254866
0.26597661 -0.37845311 0.078562856
0.31379229 -0.35354853 0.073167682
0.33829391 -0.32940307 0.074528813
0.36281985 -0.3052386 0.075909615
0.38736397 -0.28105131 0.07727313
-0.63337564 -0.25651968 0.074435592
0.41170824 -0.256751 0.077441096
-0.65894824 -0.20844944 0.082757115
0.43648696 -0.20827058 0.079853654
0.45910913 -0.1834769 0.071305275
0.4612999 -0.15971522 0.082251072
0.48387587 -0.13503489 0.073708296
0.48467112 -0.11086695 0.077534676
0.48539048 -0.086631581 0.080995679
0.48610753 -0.062342972 0.084445477
0.50759947 -0.013606042 0.071100354
0.50806516 0.010676313 0.073260784
0.50724268 0.03489973 0.069444895
0.48559684 0.083791852 0.081988573
0.48479545 0.10799313 0.078132868
0.48399985 0.13213603 0.074304938
0.45993727 0.18078691 0.07544291
0.43718654 0.20564343 0.083488703
0.43500304 0.22913097 0.072143078
0.41221267 0.25408471 0.080171943
0.38867044 0.27883407 0.084651947
0.36396682 0.30300695 0.082682252
0.33929396 0.32714981 0.080714583
0.31464875 0.35126039 0.07873106
0.28972882 0.37508339 0.074659348
0.24110357 0.39933723 0.074360847
0.19248758 0.42358679 0.074062586
-0.22050968 0.44875783 0.08009696
0.096174672 0.44932804 0.083994985
0.11970134 0.44800073 0.074920416
-0.074811406 0.47153574 0.069984198
-0.050522089 0.47166476 0.070821285
-0.026220724 0.47179088 0.071640372
-0.0019067228 0.47191697 0.072459698
0.022186056 0.47145852 0.069482088
-0.17183979 -0.45317328 0.091198206
0.023970217 -0.45417851 0.098453164
0.047782004 -0.45284966 0.088862658
-0.2697967 -0.42992306 0.1001395
0.14571787 -0.42887381 0.092122197
0.19479956 -0.40468809 0.094085097
0.24359091 -0.38016254 0.093367457
0.29212028 -0.35547134 0.091009736
0.31675118 -0.33119017 0.092386127
0.34140342 -0.30688789 0.093763947
0.36607707 -0.2825644 0.095142722
0.39077556 -0.25822145 0.096541762
0.41373837 -0.23319791 0.088429809
0.41578269 -0.2094802 0.099494934
0.43860132 -0.18452959 0.09084022
0.46350592 -0.13578787 0.093272924
0.46443665 -0.11149471 0.09792304
0.48683006 -0.038001299 0.087921619
0.48755026 -0.013606089 0.091386676
0.48800117 0.010832505 0.093556285
-0.70807219 0.035142269 0.085196614
0.48719782 0.035211544 0.089690924
0.48639637 0.059531309 0.085835338
0.46455032 0.1087767 0.098490953
0.46377426 0.13307418 0.094613791
-0.68373436 0.15702559 0.085421801
0.46221656 0.15710133 0.086831093
0.43938941 0.18198721 0.09493506
0.41432297 0.23062846 0.091594219
0.39133871 0.25574014 0.099722385
0.34248614 0.30478618 0.1004616
-0.58684111 0.32815978 0.090086579
0.31768811 0.32906342 0.098471999
0.29291832 0.35330826 0.096466184
0.26744813 0.37687218 0.089182734
0.21860127 0.40123752 0.088881373
-0.29420209 0.42689815 0.097961068
0.16976367 0.42559844 0.088580251
0.072513774 0.45066574 0.093141079
-0.14727694 -0.45573741 0.10970306
-0.12271232 -0.45575315 0.10981739
-0.098146394 -0.45576647 0.10991275
-0.073578991 -0.4557797 0.11000824
-0.049010105 -0.45579299 0.11010361
-0.024439782 -0.45580608 0.11019897
1.2859702e-05 -0.45551294 0.10808289
0.09849216 -0.43139175 0.11136305
0.12217639 -0.43012908 0.10171366
0.17197026 -0.40653181 0.1090548
0.22099678 -0.38189042 0.10833061
0.27000374 -0.35726205 0.10762584
0.29496038 -0.33299562 0.11042774
0.31974632 -0.30855772 0.11184037
0.34455109 -0.28409648 0.113235
0.36937749 -0.25961399 0.11463082
0.39283586 -0.23456603 0.10817814
0.41783786 -0.18559533 0.11061871
0.44073409 -0.16062373 0.10192227
0.44288182 -0.13655034 0.11308217
0.46513832 -0.087103575 0.10142887
0.46583778 -0.062658206 0.10492361
0.46654254 -0.038159147 0.10844493
0.46724504 -0.013606089 0.11195493
0.4676773 0.010990735 0.11411452
0.46689361 0.035527248 0.11019897
-0.71115559 0.059936918 0.10340321
0.4661119 0.060003728 0.1062932
0.46533203 0.08442042 0.10239685
0.44328666 0.13402428 0.11518562
0.44160825 0.15815954 0.10646439
0.41858613 0.1832027 0.11466908
0.41644859 0.20700207 0.10309935
0.39338619 0.23214428 0.11128676
0.36731523 0.28047854 0.10245371
0.29583549 0.33099684 0.11641109
0.27094251 0.35537925 0.11440134
0.24496146 0.37867752 0.10384023
0.19589089 0.40315536 0.10353637
0.14683162 0.42763129 0.10325146
-0.19634318 0.4519583 0.10197914
0.024778187 0.45336157 0.11157298
0.048714429 0.45200843 0.10232079
-0.24578644 -0.43263707 0.12087929
0.050690189 -0.43394059 0.13083875
0.074663863 -0.43266225 0.12107122
0.14892469 -0.40839303 0.12416661
0.19818865 -0.38363457 0.12343562
0.24743013 -0.3588872 0.12270486
0.27292317 -0.3348237 0.12869537
0.29783839 -0.31024495 0.13010454
0.3227784 -0.28564608 0.13153446
0.37167114 -0.23595147 0.12817419
0.3948161 -0.2107037 0.11936283
0.39681375 -0.18667449 0.13064551
0.41991091 -0.16154382 0.12183976
0.44393915 -0.11213072 0.11857653
0.444619 -0.087581165 0.1221087
0.44530404 -0.062977508 0.12566817
0.44598681 -0.038319089 0.12921631
0.44667488 -0.013606042 0.13279164
0.44632512 0.035847124 0.13097417
0.44556361 0.060482308 0.12701714
-0.71427792 0.085019104 0.12183976
0.44480395 0.085057043 0.12307
0.44404626 0.10957112 0.11913264
0.42074287 0.15923065 0.12634254
0.39544868 0.20837641 0.1229353
-0.6657536 0.23335081 0.12695932
0.37218785 0.23367937 0.13122535
0.37020487 0.25741628 0.11951625
0.34571856 0.28214148 0.12045693
0.32076269 0.30658543 0.11844218
0.24871726 0.35747367 0.13254011
0.22226582 0.38049957 0.11863399
0.17296956 0.40509099 0.11832714
-0.27068254 0.43118629 0.12890756
0.099767104 0.43084162 0.12641966
0.123596 0.42954764 0.11708128
-0.17183979 0.45519224 0.1240896
-0.14713578 0.45576999 0.12803924
-0.12241901 0.45589131 0.12886894
-0.097689003 0.45601565 0.12971842
-0.0729459 0.45613992 0.13056827
-0.0481897 0.45626432 0.13141859
-0.023519486 0.45607492 0.13012397
0.00069931149 0.45471439 0.12082183
-0.22146016 -0.43537921 0.14183295
0.026569843 -0.43522659 0.14066589
0.12566154 -0.41027442 0.13944137
0.17516349 -0.38539535 0.13868403
0.2246445 -0.36052978 0.13794625
0.25063223 -0.3366729 0.14717293
0.27568102 -0.31195334 0.14859843
0.34773755 -0.26102388 0.13294637
0.35023624 -0.23735298 0.14840305
0.37358922 -0.21194394 0.13949978
0.39882553 -0.16247527 0.14200795
0.42199868 -0.13732229 0.13313985
0.42317009 -0.11277436 0.13948047
0.42383486 -0.088065386 0.14307845
0.42449749 -0.063300848 0.1466651
0.44708848 0.011151196 0.13494051
0.42474639 0.0609672 0.1480124
0.42400759 0.085701823 0.14401352
-0.71743006 0.11039177 0.14045215
0.42327064 0.11037523 0.14002442
0.42253184 0.1349868 0.13602591
0.39961559 0.16031522 0.14647019
0.39752281 0.18443295 0.13465023
0.37418544 0.20976797 0.14302027
0.34880638 0.25911334 0.13955808
0.32387614 0.28382349 0.13866472
0.29879236 0.30840543 0.13662708
0.27373761 0.33295408 0.13457263
0.19935839 0.38233882 0.13356566
0.17623617 0.38419503 0.14863753
0.12648217 0.40901676 0.14832497
0.14983432 0.40704477 0.13325596
0.05168803 0.43344951 0.1452415
0.075797155 0.43214032 0.13579333
-0.1968134 -0.43815747 0.16306257
-0.022115469 -0.43782499 0.16052163
0.0023014396 -0.43652049 0.15055335
0.077960119 -0.41328591 0.16389084
0.10209592 -0.412058 0.15392148
0.15191813 -0.38717288 0.15407848
0.20164101 -0.3621881 0.15333366
0.30075204 -0.28721189 0.15002549
0.32584816 -0.26245001 0.15147328
-0.67052114 -0.23801266 0.15792561
0.35209352 -0.21319969 0.15989184
0.37552422 -0.18776728 0.15092504
0.37747288 -0.16341859 0.16243196
0.40084809 -0.13810344 0.15343153
0.40213132 -0.11342719 0.16067898
0.40277332 -0.088555589 0.16430509
0.4251653 -0.038481347 0.15027952
0.42583084 -0.013606137 0.15388238
0.42622954 0.011313364 0.15604007
0.42548704 0.03617122 0.15202141
0.40222192 0.11118999 0.16119087
0.40150464 0.13596207 0.15713978
-0.69531232 0.18581203 0.15704131
0.37619436 0.18567897 0.15488231
0.35265392 0.21117683 0.16335821
0.35072309 0.23523343 0.15141439
0.32702923 0.26077181 0.1591444
0.30178398 0.28552479 0.15708077
0.2765708 0.31024593 0.15501964
0.25138712 0.3349337 0.1529417
0.20288967 0.36112341 0.16414726
0.2259974 0.35936618 0.14893067
0.15289612 0.38606885 0.16385138
0.1029117 0.41100988 0.16355574
-0.24649343 0.43431583 0.15149271
0.0030413866 0.43608838 0.16428542
0.027436912 0.43476644 0.15474498
-0.17183979 -0.43917635 0.17084825
-0.14680533 -0.43919203 0.17096746
-0.12176934 -0.43920487 0.1710664
-0.096731827 -0.43921787 0.17116547
-0.071692787 -0.43923083 0.17126441
-0.04668425 -0.4391349 0.17053151
-0.29706779 -0.41433573 0.17241406
0.053675085 -0.41452137 0.1739217
0.12844758 -0.38896531 0.16960108
0.17841654 -0.3638624 0.1688689
0.22808068 -0.33854142 0.16584468
0.25326705 -0.31368142 0.16730666
0.27847332 -0.28879753 0.16875017
0.30370206 -0.26389122 0.17019486
0.32853252 -0.2387736 0.16890836
0.33032387 -0.21447156 0.18054378
0.35396409 -0.18887402 0.17146266
0.3794322 -0.13889526 0.17400098
0.40342027 -0.063628733 0.16795886
0.40406513 -0.038645413 0.17160141
0.404715 -0.013606089 0.17527175
0.40509504 0.011478044 0.17741823
0.40437764 0.036499821 0.17336619
0.40365493 0.06145858 0.16928422
0.40293753 0.086355232 0.16523254
0.38019961 0.13694997 0.17853236
0.37822145 0.16141351 0.16685212
0.35459906 0.18694207 0.17539084
0.32898682 0.23680717 0.17185879
0.3048138 0.26235133 0.17779624
0.27943754 0.28724545 0.17570877
-0.6223284 0.31174693 0.17001677
0.25409377 0.31210777 0.17362392
0.22877996 0.3369363 0.17152214
0.17956312 0.3628971 0.17950797
0.12933512 0.38796043 0.17920911
-0.32242909 0.41306353 0.17924905
0.07911633 0.41301942 0.17891073
-0.22196001 0.4374758 0.17429876
-0.021499306 0.43741548 0.1738621
-0.27269027 -0.41700792 0.19411027
0.0046517849 -0.41701543 0.19417036
0.029239431 -0.41576451 0.18401468
0.10475408 -0.39077953 0.18531299
0.15496792 -0.36555281 0.18455398
0.20515837 -0.34033772 0.18379486
0.23058937 -0.31542793 0.18621278
0.25593495 -0.29040152 0.18769312
0.28130066 -0.26535085 0.18915474
0.30655134 -0.24021238 0.18967581
0.33212817 -0.18999486 0.19226265
0.35584795 -0.1643739 0.18311632
0.35774219 -0.13969694 0.19483364
0.38081372 -0.11408848 0.18215859
0.38143599 -0.089052752 0.18583286
0.38205963 -0.063960515 0.18951535
0.38268811 -0.038811944 0.19322634
0.38298422 0.0368325 0.19497454
0.38228369 0.061956182 0.19083822
0.3815884 0.087017268 0.18673265
0.38089484 0.11201534 0.18263733
-0.72543061 0.13737325 0.18769312
0.35655546 0.16252571 0.18749285
0.33272523 0.18821988 0.196141
0.33084905 0.2126039 0.18395483
0.30697376 0.238401 0.19256389
0.2568326 0.28898606 0.1945523
0.23135678 0.31399119 0.19244325
0.20591147 0.33896172 0.19031703
0.15601476 0.36468759 0.1950146
0.10555007 0.38987011 0.19471323
0.054742932 0.41438347 0.18933511
-0.19701426 0.43953443 0.18915474
-0.17183979 0.43965101 0.18999648
-0.14665221 0.43977052 0.19085836
-0.12145103 0.43989277 0.19174111
-0.096236251 0.44001505 0.19262397
-0.071019009 0.44008759 0.19314611
-0.04618603 0.43874758 0.18347549
-0.020089298 -0.41827402 0.20438969
0.08082892 -0.39260918 0.20115781
0.13128997 -0.36725748 0.20037103
0.18173118 -0.34192193 0.1996249
0.20764853 -0.31719679 0.20536041
0.23312975 -0.29202276 0.20683801
0.25863653 -0.26682746 0.20833707
0.28416377 -0.24160783 0.20981729
0.30827498 -0.21575971 0.2014606
0.33394539 -0.1653415 0.20406616
0.35920852 -0.1147581 0.20390451
0.35981047 -0.089556038 0.20762789
0.36041701 -0.064297274 0.21138012
0.38331461 -0.013606042 0.19692564
0.38367957 0.011644857 0.19908071
0.3599546 0.087688029 0.20851958
0.35928369 0.11285202 0.20436943
0.35852975 0.13792808 0.19970548
0.33461231 0.16365202 0.20839798
0.30876559 0.21404912 0.20481443
0.28234118 0.2639491 0.19666398
0.20835535 0.31589636 0.21148157
0.18277718 0.34101081 0.20933056
0.13224132 0.36649531 0.21066964
0.081537709 0.39179784 0.21036518
0.030167267 0.41565886 0.19908071
-0.29822776 0.41611302 0.20255065
0.0054457486 0.41694462 0.20890462
-0.24798401 -0.41970855 0.21603656
-0.070036896 -0.42081767 0.22504103
-0.04498446 -0.41954321 0.21469331
0.056671917 -0.39445886 0.21717715
0.10738327 -0.36898097 0.21636236
0.15807368 -0.34351951 0.21558869
0.18443723 -0.31898636 0.22473395
0.21005823 -0.29366457 0.22622895
0.23570238 -0.26831988 0.22772539
0.28594154 -0.2170644 0.22264719
0.31001121 -0.19113012 0.21333051
0.31175989 -0.16632175 0.22528684
0.33577269 -0.1405092 0.21593463
0.33731657 -0.1154374 0.22596264
0.3610217 -0.038980417 0.21512043
0.36163104 -0.013606089 0.21888995
-0.75552559 -0.013606042 0.21554792
-0.75507903 0.011752067 0.21302569
0.36197746 0.011813853 0.22103298
0.36130476 0.037169542 0.21687186
0.36062717 0.062460795 0.2126801
0.33738285 0.11369964 0.22639287
0.33651674 0.13890085 0.22076738
0.31057078 0.18951418 0.21715689
0.28639805 0.21551293 0.22594213
0.28467876 0.24001542 0.213534
0.25960684 0.26556531 0.21575141
0.23396449 0.29074708 0.21361518
0.15919591 0.34289402 0.22680283
0.10823958 0.36832035 0.22647476
0.057296187 0.39374679 0.22618794
-0.27367547 0.41919571 0.22610605
-0.019425213 0.41823521 0.2187674
-0.22288316 -0.42195308 0.23425949
-0.19736242 -0.42196819 0.23438299
-0.17183979 -0.42198357 0.23450661
-0.14631541 -0.42199627 0.2346096
-0.12078944 -0.42200884 0.23471248
-0.095261887 -0.42202154 0.23481524
0.0070675611 -0.396979 0.23900163
0.031983107 -0.39577389 0.22856629
0.083242431 -0.37072116 0.23251045
0.1341867 -0.34513476 0.23172891
0.26137251 -0.24295381 0.22924352
0.26331788 -0.21838619 0.24410939
0.28760761 -0.19228013 0.23467124
0.31351835 -0.14133194 0.23730934
0.3378976 -0.090066627 0.22973633
0.33847988 -0.064638063 0.23351872
0.33906668 -0.039151449 0.23732984
0.3396517 -0.013606137 0.24112976
0.33998293 0.011985028 0.24328113
-0.75857258 0.037414167 0.23275721
0.33933359 0.037511233 0.23906362
0.33867961 0.062971808 0.23481548
0.33803034 0.088367991 0.23059893
0.3142193 0.13988623 0.24210155
0.31238669 0.16479325 0.22957206
0.2881304 0.19082525 0.23844421
-0.70742267 0.2159294 0.23195505
0.26209897 0.24165201 0.23479474
0.23660611 0.26720044 0.2350626
0.21082871 0.29252869 0.2329011
0.18508483 0.31782383 0.23074269
0.13520603 0.34461397 0.24276376
0.084006265 0.37016305 0.24243259
0.032819211 0.3957119 0.24214292
-0.069618456 0.42083454 0.23863006
-0.044445738 0.4195337 0.22868955
-0.32560778 -0.39802611 0.24806988
-0.043237865 -0.3994118 0.2600708
-0.01800561 -0.39819154 0.24950302
0.058863997 -0.37247863 0.24881732
0.1100647 -0.34676594 0.2480284
0.16094859 -0.32079533 0.24431658
0.18671297 -0.29532602 0.24584997
0.21249874 -0.26983178 0.24736416
0.23830797 -0.24431421 0.24887979
0.26491201 -0.19344503 0.25629032
0.28928304 -0.16731368 0.24676251
0.2909736 -0.14216524 0.25896299
0.31512862 -0.11612571 0.24831891
0.31568807 -0.090584047 0.25214374
0.31624877 -0.064983778 0.25597751
0.31681079 -0.039324619 0.2598201
-0.76210457 0.063385002 0.25270593
0.31643802 0.063490413 0.25727129
