ply
format ascii 1.0
comment PCL generated
element vertex 1367
property float x
property float y
property float z
element camera 0
property float view_px
property float view_py
property float view_pz
property float x_axisx
property float x_axisy
property float x_axisz
property float y_axisx
property float y_axisy
property float y_axisz
property float z_axisx
property float z_axisy
property float z_axisz
property float focal
property float scalex
property float scaley
property float centerx
property float centery
property int viewportx
property int viewporty
property float k1
property float k2
end_header
0.21682501 -0.29872283 0.00028824806
0.21682626 -0.28491187 0.00029689074
0.21682626 -0.27109939 0.00029695034
0.21682626 -0.25728691 0.00029689074
0.21682626 -0.24347442 0.00029695034
0.21682626 -0.22966202 0.00029689074
-0.2942664 -0.21587737 0.00052309036
0.21682626 -0.21584952 0.00029695034
0.21682626 -0.20203705 0.00029689074
0.21682626 -0.18822457 0.00029695034
-0.32143638 -0.17413668 -0.0024545193
0.21682626 -0.1744121 0.00029695034
0.21682626 -0.1605996 0.00029695034
0.21682626 -0.14678721 0.00029689074
-0.35015038 -0.13327713 0.0042260885
0.21682626 -0.13297471 0.00029695034
0.21682626 -0.11916222 0.00029695034
0.21682626 -0.10534976 0.00029695034
-0.36262316 -0.091332078 -0.00351125
0.21682626 -0.091537267 0.00029695034
0.21682626 -0.077724807 0.00029695034
-0.37760693 -0.064015873 0.0029870272
0.21682626 -0.063912369 0.00029695034
0.21682626 -0.050099909 0.00029695034
-0.37627044 -0.049959965 -0.0042467117
0.21682626 -0.036287412 0.00029695034
0.21682754 -0.022475045 0.00030559301
0.21682754 -0.0086625461 0.00030559301
0.21682754 0.0051499838 0.00030565262
-0.37688038 0.01895291 -0.00094538927
0.21682754 0.018962516 0.00030571222
0.21682754 0.032775044 0.00030559301
0.21682754 0.046587609 0.00030559301
-0.36336669 0.060411949 0.00068819523
0.21682754 0.060400106 0.00030565262
0.21682754 0.074212678 0.00030571222
-0.34886494 0.087855704 -0.0033640862
0.21682754 0.088025235 0.00030559301
0.21682754 0.10183774 0.00030565262
-0.33535805 0.11553001 -0.0016482472
0.21682754 0.1156503 0.00030565262
0.21682754 0.12946282 0.00030559301
-0.3220368 0.14336307 0.0014451742
0.21682754 0.14327537 0.00030559301
0.21682754 0.15708791 0.00030565262
0.21682754 0.17090042 0.00030571222
-0.29487878 0.185177 0.0049423575
0.21682754 0.18471298 0.00030559301
-0.28021461 0.19835325 -0.0012924671
0.21682754 0.19852546 0.00030559301
-0.26615494 0.21191029 -0.0033986568
0.21682754 0.21233803 0.00030565262
-0.2522161 0.22552915 -0.0047395825
0.21682754 0.22615051 0.00030565262
0.21682501 0.23996077 0.00028824806
-0.22478123 0.25323236 -0.0036151409
0.21682754 0.25377563 0.00030565262
-0.21134099 0.26755634 8.8393688e-05
0.21682501 0.26758558 0.00028824806
-0.19784428 0.28193843 0.003798306
0.21682501 0.28139806 0.00028830767
0.21682501 0.29521039 0.00028824806
-0.15607667 0.30893162 -0.00025057793
0.21682501 0.30902287 0.00028824806
0.21682501 0.32283518 0.00028830767
0.21682501 0.33664766 0.00028836727
-0.087105341 0.35093912 0.0027779341
0.21682626 0.35046175 0.00029706955
0.21682626 0.36427423 0.00029706955
-0.018025393 0.37755084 -0.0022812486
0.21682626 0.37808666 0.00029706955
0.02357439 0.39258617 0.0034842491
0.21682626 0.39189911 0.00029706955
0.023647666 -0.42425144 0.0053881407
0.23209453 -0.41140771 0.0097523928
-0.059482854 -0.39714432 0.008058548
0.23209319 -0.39752051 0.0097437501
0.23209319 -0.38363528 0.0097436309
0.23209178 -0.36974832 0.0097349286
-0.14268546 -0.35541359 0.0074887872
0.23209319 -0.35586491 0.0097436309
0.23209587 -0.34198314 0.0097612739
-0.18434902 -0.32782209 0.008269012
0.23209587 -0.32809782 0.0097612739
0.23209319 -0.31420937 0.0097435713
0.23209319 -0.30032414 0.0097436309
-0.2405692 -0.28728783 0.014994681
0.23209453 -0.2864404 0.009752512
-0.25434902 -0.27316785 0.013732016
0.23209587 -0.27255651 0.0097612143
-0.26848248 -0.25951034 0.015498519
0.23209587 -0.25867119 0.0097612143
0.23209587 -0.24478586 0.0097612739
0.23209587 -0.23090054 0.0097612739
0.23209587 -0.21701521 0.0097612739
-0.3090533 -0.20283103 0.0071732998
0.23209587 -0.2031299 0.0097613335
-0.32394752 -0.18968576 0.013855517
0.23209587 -0.18924449 0.0097611547
0.23209587 -0.17535919 0.0097612143
-0.33695558 -0.16133283 0.0082339048
0.23209587 -0.16147384 0.0097612143
0.23209587 -0.14758861 0.0097612143
0.23209587 -0.13370326 0.0097612143
0.23209587 -0.11981796 0.0097612143
-0.36452889 -0.10577811 0.0072522163
0.23209587 -0.10593265 0.0097612739
0.23209587 -0.092047311 0.0097612739
-0.37905654 -0.078211494 0.010833681
0.23209587 -0.07816194 0.0097612143
0.23209587 -0.064276598 0.0097612143
0.23209587 -0.050391294 0.0097612143
-0.39347056 -0.036593221 0.013537943
0.23209587 -0.036505956 0.0097612143
-0.39206207 -0.022566127 0.006219089
0.23209587 -0.022620631 0.0097612739
-0.3927725 -0.0087364912 0.0099105835
0.23209587 -0.0087353718 0.0097612143
0.23209587 0.0051499512 0.0097612143
0.23209587 0.019035274 0.0097612739
-0.37814745 0.032861456 0.0059128404
0.23209587 0.032920666 0.0097611547
-0.37983513 0.046928085 0.015047729
0.23209587 0.046805989 0.0097612143
0.23209587 0.060691312 0.0097612143
-0.3651801 0.074621633 0.010930359
0.23209587 0.074576639 0.0097612143
0.23209587 0.088461965 0.0097612143
-0.35097179 0.10231031 0.0090762377
0.23209587 0.10234728 0.0097612739
0.23209587 0.11623261 0.0097612739
-0.33759782 0.13028733 0.012206852
0.23209587 0.13011792 0.0097613335
0.23209587 0.1440032 0.0097612739
0.23209587 0.15788859 0.0097612143
-0.30971995 0.1719559 0.011731327
0.23209587 0.17177391 0.0097612143
0.23209587 0.18565924 0.0097612143
0.23209587 0.19954455 0.0097612143
0.23209587 0.2134299 0.0097612143
0.23209178 0.22731201 0.0097349286
0.23209319 0.24119826 0.0097436309
0.23209587 0.25508583 0.0097613335
0.23209453 0.26896983 0.0097524524
0.23209319 0.28285378 0.0097437501
-0.18468674 0.29720986 0.012656212
0.23209319 0.29673898 0.0097437501
0.23209453 0.3106257 0.0097523928
-0.14288324 0.32475993 0.011159182
0.23209453 0.32451093 0.0097523928
-0.11491406 0.33780643 0.0065603256
0.23209453 0.33839616 0.009752512
0.23209453 0.35228133 0.0097524524
-0.059496704 0.36618784 0.0098579526
0.23209587 0.36616838 0.0097612143
0.23209587 0.3800537 0.0097612739
0.079320781 0.40770683 0.0092342496
0.080126449 -0.44191521 0.020863235
-0.031638756 -0.4140065 0.021005511
0.2475245 -0.41361445 0.019308209
0.2475245 -0.39965567 0.01930815
-0.10166079 -0.38720098 0.026286602
0.2475231 -0.38569498 0.019299328
0.2475231 -0.37173623 0.019299269
0.2475231 -0.35777751 0.019299328
-0.17133479 -0.34408379 0.020676434
0.24752596 -0.34382212 0.019316971
0.24752596 -0.32986325 0.019316971
-0.21358936 -0.31680924 0.024427593
0.2475245 -0.31590283 0.01930815
-0.22710636 -0.30199662 0.019618988
0.2475231 -0.3019425 0.019299328
0.2475245 -0.28798515 0.01930815
0.24752596 -0.27402771 0.019317031
0.24752596 -0.2600688 0.019316971
-0.28264359 -0.2458261 0.017268419
0.24752596 -0.24610993 0.019317031
-0.29695427 -0.23223008 0.019920886
0.24752596 -0.23215105 0.019317031
-0.31191167 -0.21910354 0.026716173
0.24752596 -0.21819218 0.019317031
0.24752596 -0.20423329 0.019317031
0.24752596 -0.19027443 0.019317031
-0.33936858 -0.17670017 0.023160756
0.24752596 -0.17631555 0.019317091
0.24752596 -0.16235666 0.019317031
-0.35266253 -0.14837593 0.019059539
0.24752596 -0.14839776 0.019317031
0.24752596 -0.13443886 0.019317091
-0.36645764 -0.1203988 0.0181458
0.24752596 -0.12047996 0.019317091
0.24752596 -0.10652108 0.019317091
-0.38107723 -0.092694439 0.021770835
0.24752596 -0.092562221 0.019317091
0.24752596 -0.07860335 0.019317091
0.24752596 -0.064644463 0.019317091
-0.39494023 -0.050742775 0.02117449
0.24752596 -0.05068551 0.019316971
0.24752596 -0.036726635 0.019316971
0.24752596 -0.022767762 0.019316971
0.24752596 -0.0088088885 0.019317031
-0.39410841 0.0051500499 0.01685214
0.24752596 0.0051500169 0.019316971
-0.39555085 0.019147605 0.024347246
0.24752596 0.019108856 0.019316971
0.24752596 0.033067763 0.019317031
0.24752596 0.047026701 0.019317031
-0.38175789 0.061174579 0.025454998
0.24752596 0.060985543 0.019317091
0.24752596 0.074944451 0.019317031
-0.36701596 0.088994831 0.021299124
0.24752596 0.088903323 0.019317031
0.24752596 0.10286219 0.019317091
-0.35334799 0.11705451 0.023107111
0.24752596 0.11682107 0.019317031
0.24752596 0.13077995 0.019317091
-0.33987537 0.14527605 0.026295543
0.24752596 0.14473885 0.019317091
-0.32467356 0.15863462 0.018571496
0.24752596 0.15869771 0.019317091
0.24752596 0.1726566 0.019317091
0.24752739 0.18661641 0.019325852
-0.29752678 0.20108482 0.02405268
0.24752739 0.20057532 0.019325912
-0.28323978 0.2148228 0.021824241
0.24752739 0.21453427 0.019325912
-0.2689878 0.2285271 0.019601166
0.2475231 0.22849004 0.019299209
-0.25476962 0.24219686 0.017374814
0.2475245 0.24244982 0.01930815
-0.24108097 0.25646901 0.019743264
0.24752596 0.25640997 0.019317031
-0.22745544 0.27092323 0.023107171
0.2475245 0.27036756 0.01930815
-0.21380574 0.28547513 0.026769936
0.2475245 0.28432643 0.01930815
0.2475245 0.29828516 0.019308269
-0.17151 0.31290391 0.023205221
0.2475245 0.31224397 0.019308209
0.2475245 0.32620281 0.01930815
0.2475245 0.34016159 0.01930815
-0.1016641 0.35548413 0.02639401
0.24752596 0.35412219 0.019317091
0.24752596 0.36808097 0.019317031
-0.031646829 0.38217276 0.01995647
0.24752596 0.3820399 0.019317091
0.010428771 0.39742586 0.025937736
0.010639679 -0.43078989 0.032787204
-0.07377664 -0.40325704 0.035440266
0.26311889 -0.40181163 0.028965592
0.26311889 -0.38777852 0.028965592
-0.12986642 -0.37400103 0.030195773
0.2631174 -0.3737435 0.028956711
-0.15818512 -0.36071703 0.033986449
0.2631174 -0.35971034 0.028956592
0.26312041 -0.3456808 0.028974652
-0.20040362 -0.33258012 0.03402257
0.26312193 -0.33164915 0.028983593
0.26312041 -0.31761429 0.028974533
0.26311889 -0.30357951 0.028965592
0.26311889 -0.28954634 0.028965592
0.26312041 -0.2755146 0.028974652
0.26312041 -0.2614814 0.028974652
0.26312041 -0.24744812 0.028974712
0.26312041 -0.23341493 0.028974712
0.26312041 -0.21938168 0.028974712
-0.32697877 -0.20587614 0.033544421
0.26312041 -0.2053484 0.028974533
0.26312041 -0.1913152 0.028974533
0.26312041 -0.17728196 0.028974652
-0.35521951 -0.16372754 0.034157872
0.26312041 -0.16324876 0.028974652
0.26312041 -0.14921553 0.028974652
-0.36855772 -0.13526182 0.030007124
0.26312041 -0.13518229 0.028974712
0.26312041 -0.12114909 0.028974712
-0.38324076 -0.10739339 0.033481419
0.26312041 -0.10711581 0.028974652
0.26312041 -0.093082629 0.028974712
0.26312041 -0.079049446 0.028974712
-0.39648974 -0.065025844 0.029225945
0.26312041 -0.065016106 0.028974533
0.26312193 -0.050983191 0.028983593
0.26312193 -0.03694988 0.028983653
-0.41137663 -0.022985844 0.0334813
0.26312193 -0.022916637 0.028983653
-0.41209456 -0.0089455936 0.037068427
0.26312193 -0.0088832937 0.028983593
0.26312193 0.0051499512 0.028983653
0.26312193 0.019183261 0.028983653
-0.39701912 0.033262622 0.03197664
0.26312193 0.033216607 0.028983653
0.26312193 0.04724985 0.028983653
0.26312193 0.06128316 0.028983593
-0.3838667 0.075619981 0.036869287
0.26312193 0.075316504 0.028983653
0.26312193 0.089349754 0.028983653
-0.36930221 0.10366479 0.034212112
0.26312193 0.10338306 0.028983593
0.26312193 0.11741641 0.028983653
-0.3557615 0.13202992 0.037358046
0.26312193 0.13144971 0.028983593
0.26312193 0.14548296 0.028983593
0.26312193 0.15951623 0.028983653
-0.32751995 0.17429553 0.037059307
0.26312193 0.17354961 0.028983653
-0.31240353 0.18769248 0.030079007
0.26312193 0.18758281 0.028983593
0.26312193 0.20161612 0.028983653
0.2631174 0.21564634 0.028956771
0.2631174 0.22967941 0.028956652
0.26311889 0.24371368 0.028965652
0.26312193 0.25774941 0.028983653
0.26312041 0.27178138 0.028974712
0.26311889 0.28581321 0.028965592
-0.20060252 0.30104357 0.036371469
0.26311889 0.29984638 0.028965592
0.26311889 0.31387952 0.028965771
-0.15829748 0.32912466 0.035810888
0.26311889 0.32791275 0.028965771
-0.12990461 0.34232587 0.031022727
0.26312041 0.3419475 0.028974652
0.26312041 0.35598075 0.028974652
-0.073747039 0.37092316 0.033517361
0.26312041 0.37001395 0.028974652
0.066914417 0.41305333 0.033183753
0.27888188 -0.40399271 0.038735628
0.27888027 -0.38988239 0.038726509
0.29481304 -0.39201096 0.048601747
0.27888027 -0.37577406 0.038726568
0.29481134 -0.37782469 0.048592567
0.27888027 -0.36166579 0.038726509
0.29481134 -0.36364049 0.048592627
-0.18731917 -0.34912127 0.04685235
0.29481474 -0.34945974 0.048610926
0.27888188 -0.34755924 0.038735628
0.2788851 -0.33345422 0.038753808
0.2948164 -0.33527708 0.048620105
0.27888188 -0.31934249 0.038735628
0.29481474 -0.32109097 0.048610866
-0.24413778 -0.30682117 0.04810679
0.27888027 -0.30523261 0.038726568
0.29481304 -0.30690503 0.048601747
-0.2577906 -0.29190192 0.043536901
0.27888027 -0.29112431 0.038726568
0.29481304 -0.29272074 0.048601687
-0.27163088 -0.27737528 0.041060328
0.27888349 -0.27701882 0.038744628
0.29481474 -0.27853784 0.048610866
-0.28599775 -0.26351798 0.042899013
0.27888349 -0.2629104 0.038744748
0.29481474 -0.26435339 0.048610926
-0.30039343 -0.24963281 0.044741213
0.27888349 -0.24880192 0.038744688
0.29481474 -0.25016904 0.048610926
-0.31483275 -0.2357329 0.046687722
0.27888349 -0.23469344 0.038744688
0.29481474 -0.23598464 0.048610926
0.27888349 -0.22058505 0.038744688
0.29481474 -0.22180027 0.048610985
0.27888349 -0.20647657 0.038744688
0.29481474 -0.2076159 0.048610985
-0.34216082 -0.19255014 0.040433168
0.27888349 -0.19236818 0.038744748
0.29481474 -0.1934315 0.048610926
0.27888349 -0.17825975 0.038744688
0.29481474 -0.17924705 0.048610866
0.27888349 -0.16415128 0.038744628
0.29481474 -0.16506265 0.048610866
-0.37146088 -0.15069146 0.046404243
0.27888349 -0.15004289 0.038744748
0.29481474 -0.1508783 0.048610866
0.27888349 -0.13593441 0.038744628
0.29481474 -0.13669388 0.048610926
-0.38549149 -0.12230536 0.045663655
0.27888349 -0.12182593 0.038744628
0.29481474 -0.12250951 0.048610926
0.27888349 -0.10771752 0.038744748
0.29481474 -0.10832511 0.048610926
0.27888349 -0.093609065 0.038744688
0.29481474 -0.094140738 0.048610985
-0.39821172 -0.079474263 0.038173497
0.27888349 -0.07950066 0.038744748
0.29481474 -0.07995633 0.048610926
0.27888349 -0.065392174 0.038744748
0.29481474 -0.06577196 0.048610926
0.27888349 -0.051283769 0.038744628
0.29481474 -0.051587574 0.048610985
-0.41301003 -0.037242237 0.041642547
0.27888349 -0.037175365 0.038744748
0.29481474 -0.037403118 0.048610866
0.27888349 -0.023066893 0.038744688
0.29481474 -0.023218729 0.048610926
0.27888349 -0.0089584216 0.038744628
0.29481474 -0.009034371 0.048610926
0.27888349 0.0051499838 0.038744748
-0.41364303 0.0051500169 0.04480505
0.29481474 0.0051500169 0.048610926
0.27888349 0.019258454 0.038744688
0.29481474 0.019334372 0.048610926
0.27888349 0.033366863 0.038744748
0.29481474 0.033518728 0.048610926
-0.39896691 0.047552764 0.042097509
0.27888349 0.047475301 0.038744688
0.29481474 0.047703117 0.048610926
0.27888349 0.061583802 0.038744688
0.29481474 0.061887506 0.048610926
0.27888349 0.075692147 0.038744748
0.29481474 0.076071896 0.048610985
-0.38599873 0.090247013 0.048409283
0.27888349 0.089800619 0.038744688
0.29481474 0.090256356 0.048610866
0.27888349 0.10390909 0.038744628
0.29481474 0.10444074 0.048610926
0.27888349 0.11801749 0.038744688
0.29481474 0.11862513 0.048610926
0.27888349 0.13212597 0.038744688
0.2948164 0.13281018 0.048620105
0.2788851 0.14623509 0.038753748
0.2948164 0.14699453 0.048620105
-0.34275398 0.16079648 0.04410243
0.2788851 0.16034363 0.038753748
0.2948164 0.16117905 0.048620045
0.27888349 0.17445128 0.038744628
0.2948164 0.17536354 0.048620105
0.27888349 0.18855971 0.038744748
0.29481134 0.1895452 0.048592627
0.27888027 0.20266615 0.038726628
0.29481134 0.20372945 0.048592567
-0.30082044 0.21782489 0.047822833
0.27887866 0.21677351 0.038717508
0.29481134 0.21791378 0.048592567
-0.28634042 0.23171926 0.045517504
0.27888027 0.23088281 0.038726509
0.29481134 0.23209801 0.048592627
-0.2718955 0.24557771 0.043208778
0.27888027 0.24499117 0.038726568
0.29481304 0.24628349 0.048601806
-0.25811005 0.26014933 0.046303511
0.27888349 0.25910196 0.038744628
0.2948164 0.2604703 0.048620045
0.27888188 0.27320901 0.038735688
0.29481304 0.27465212 0.048601747
0.27888188 0.28731745 0.038735688
0.29481304 0.28883648 0.048601747
0.27888188 0.30142578 0.038735688
0.29481304 0.30302072 0.048601806
-0.1873544 0.31698626 0.047310054
0.27888188 0.31553423 0.038735628
0.29481304 0.31720507 0.048601806
0.27888188 0.32964253 0.038735688
0.29481304 0.33138937 0.048601806
0.27888188 0.34375089 0.038735688
0.29481474 0.3455753 0.048610926
0.27888188 0.35785931 0.038735628
0.29481474 0.35975975 0.048611045
-0.045610636 0.38728446 0.044549525
-0.0030494183 0.40238798 0.048959374
0.068397678 -0.4508833 0.057268918
-0.045610636 -0.42137697 0.05292058
-0.11676091 -0.39329156 0.054543078
-0.14542678 -0.37985516 0.05836153
0.31091663 -0.37989944 0.058574677
0.31091484 -0.36563653 0.058565378
0.31091842 -0.3513791 0.058583915
0.31092018 -0.33711958 0.058593094
-0.23041686 -0.32181489 0.052699506
0.31092018 -0.32285839 0.058593094
0.31091663 -0.30859402 0.058574677
0.31091663 -0.29433289 0.058574617
0.31091842 -0.28007326 0.058583856
0.31091842 -0.26581207 0.058583856
0.31091842 -0.25155094 0.058583975
0.31091842 -0.23728982 0.058583915
-0.33007827 -0.22242408 0.053676069
0.31091842 -0.22302862 0.058583915
0.31091842 -0.20876744 0.058583915
0.31091842 -0.19450626 0.058583856
-0.35795158 -0.17941512 0.050290048
0.31091842 -0.18024509 0.058583856
0.31091842 -0.16598389 0.058583856
0.31091842 -0.15172276 0.058583796
-0.38804296 -0.13753015 0.059473991
0.31091842 -0.13746163 0.058583915
0.31091842 -0.12320045 0.058583915
0.31091842 -0.1089393 0.058583915
-0.40056831 -0.094238162 0.050418735
0.31091842 -0.094678126 0.058583856
0.31091842 -0.080416933 0.058583856
-0.4163211 -0.066140458 0.058185458
0.31091842 -0.066155791 0.058583856
-0.41465816 -0.051626518 0.049876928
0.31092018 -0.051894926 0.058593154
0.31092018 -0.037633665 0.058593154
0.31092018 -0.023372471 0.058593154
0.31092018 -0.0091112424 0.058593214
0.31092018 0.0051500169 0.058593214
-0.41520467 0.019365162 0.052607477
0.31092018 0.019411212 0.058593214
0.31092018 0.033672441 0.058593214
0.31092018 0.047933698 0.058593154
-0.40120229 0.062044669 0.053712964
0.31092018 0.062194929 0.058593154
0.31092018 0.076456122 0.058593154
0.31092018 0.090717383 0.058593214
0.31092018 0.10497861 0.058593214
-0.37207738 0.11870362 0.049886107
0.31092018 0.11923981 0.058593214
0.31092018 0.13350117 0.058593154
-0.35837054 0.14731359 0.052763939
0.31092018 0.14776233 0.058593154
0.31092018 0.16202353 0.058593094
0.31091484 0.17628218 0.058565438
-0.33042496 0.19027938 0.055928051
0.31091484 0.19054325 0.058565319
-0.31533545 0.20389462 0.050124705
0.31091663 0.2048052 0.058574677
0.31091663 0.21906641 0.058574677
0.31091663 0.2333274 0.058574677
0.31091663 0.2475885 0.058574677
0.31091842 0.26185092 0.058583856
-0.24431765 0.27482387 0.049775898
0.31091842 0.27611214 0.058583856
-0.23047955 0.28956366 0.053325891
0.31091663 0.29037187 0.058574677
0.31091663 0.30463287 0.058574677
0.31091842 0.31889549 0.058583856
0.31091842 0.3331567 0.058583856
-0.14531159 0.34698188 0.056223869
0.31091842 0.34741786 0.058583856
-0.11666091 0.36040133 0.051944792
0.054235972 0.41880032 0.05892688
-0.0027705729 -0.43753064 0.061033666
-0.088591062 -0.41032749 0.067111731
-0.17430422 -0.36663148 0.063536465
0.3271955 -0.36765614 0.068656087
0.32719737 -0.35331923 0.068665445
-0.21730196 -0.3382327 0.064617813
0.32720113 -0.33898395 0.06868428
0.32719925 -0.32464334 0.068674862
0.32719737 -0.310303 0.068665445
0.3271955 -0.29596266 0.068656027
-0.28944331 -0.28171194 0.069227755
0.32719737 -0.28162539 0.068665504
-0.30404904 -0.26764613 0.071123183
0.32719737 -0.26728663 0.068665445
0.32719737 -0.25294787 0.068665445
0.32719737 -0.23860911 0.068665385
0.32719737 -0.22427034 0.068665445
-0.3456248 -0.20914586 0.061860979
0.32719737 -0.20993158 0.068665445
-0.3613669 -0.19578579 0.070456505
0.32719737 -0.19559276 0.068665445
0.32719737 -0.181254 0.068665445
-0.37447277 -0.16643025 0.063415349
0.32719737 -0.16691522 0.068665445
0.32719737 -0.15257648 0.068665385
0.32719925 -0.13823846 0.068674862
0.32719925 -0.12389956 0.068674803
-0.40295839 -0.10920127 0.062837958
0.32719925 -0.10956074 0.068674803
0.32719925 -0.095221922 0.068674862
-0.41822001 -0.080836765 0.067672908
0.32719925 -0.080883116 0.068674862
0.32719925 -0.066544227 0.068674743
0.32719925 -0.052205406 0.068674803
-0.43324289 -0.037920233 0.071000993
0.32719925 -0.037866585 0.068674862
-0.43149203 -0.023433818 0.062577367
0.32719925 -0.023527695 0.068674862
-0.43214697 -0.009166209 0.065728486
0.32719925 -0.0091888066 0.068674803
0.32719925 0.0051500169 0.068674862
0.32719925 0.019488839 0.068674862
-0.41677588 0.033701155 0.060457826
0.32719925 0.033827629 0.068674862
-0.41886169 0.048217468 0.070878983
0.32719925 0.048166517 0.068674803
0.32719925 0.062505342 0.068674803
-0.40346614 0.07672108 0.065476418
0.32719925 0.076844163 0.068674862
0.32720113 0.091183513 0.068684161
-0.38867822 0.1052114 0.062912464
0.32720113 0.1055224 0.06868422
0.32720113 0.11986133 0.068684161
-0.37490052 0.13400257 0.065831184
0.32720113 0.13420022 0.06868422
0.32719925 0.14853841 0.068674862
0.32719737 0.16287647 0.068665445
-0.34603882 0.17682324 0.064421952
0.3271955 0.17721431 0.068656027
0.3271955 0.19155313 0.068656087
0.3271955 0.20589183 0.068656027
0.3271955 0.22023049 0.068656206
0.32719737 0.23457037 0.068665504
-0.28955746 0.24909686 0.07009995
0.32719737 0.24890906 0.068665385
0.32719925 0.26324916 0.068674862
0.32719737 0.27758667 0.068665445
0.32719737 0.29192543 0.068665445
-0.21728474 0.30557975 0.06443125
0.32719737 0.30626425 0.068665445
0.32719737 0.32060286 0.068665385
-0.17420167 0.33377156 0.062056303
0.32719737 0.33494177 0.068665385
-0.088432685 0.37627435 0.060253382
-0.20416324 -0.35519683 0.078421772
0.34365448 -0.35528067 0.078857303
0.34365845 -0.34086698 0.078876257
0.34365845 -0.3264496 0.078876257
-0.26173788 -0.31183657 0.077721417
0.34365645 -0.31203055 0.07886678
-0.27556527 -0.29666549 0.07300365
0.34365448 -0.29761177 0.078857303
0.34365645 -0.283196 0.078866899
0.34365645 -0.26877874 0.07886678
-0.31881124 -0.25367165 0.073888779
0.34365645 -0.25436136 0.07886678
-0.33365509 -0.23968774 0.07690829
0.34365645 -0.23994406 0.07886678
0.34365645 -0.22552684 0.078866839
0.34365645 -0.2111095 0.07886678
0.34365645 -0.1966922 0.07886678
-0.37752745 -0.18245515 0.080667973
0.34365645 -0.18227488 0.07886678
0.34365645 -0.1678576 0.078866839
-0.39122909 -0.15325844 0.076719284
0.34365645 -0.15344033 0.078866839
0.34365645 -0.13902296 0.07886678
-0.40538269 -0.124368 0.075435102
0.34365645 -0.1246057 0.07886678
0.34365645 -0.11018842 0.078866839
-0.42075258 -0.095849752 0.080326378
0.34365645 -0.095771089 0.078866839
0.34365645 -0.081353784 0.07886678
0.34365645 -0.066936441 0.07886678
-0.43500966 -0.052538779 0.079501629
0.34365645 -0.052519239 0.078866839
0.34365645 -0.038101934 0.07886678
0.34365645 -0.023684628 0.07886678
0.34365645 -0.0092672892 0.07886678
-0.43380392 0.0051499512 0.073700428
0.34365645 0.0051499838 0.078866839
-0.43547314 0.019589361 0.081731379
0.34365645 0.019567257 0.078866839
0.34365645 0.033984631 0.07886678
0.34365645 0.048401903 0.07886672
0.34365845 0.062819436 0.078876317
0.34365845 0.077236816 0.078876317
-0.40575537 0.091584712 0.077371597
0.34365845 0.091654249 0.078876317
0.34365845 0.10607159 0.078876317
-0.39166781 0.12050241 0.079094052
0.34365845 0.12048896 0.078876317
0.34365645 0.13490568 0.07886678
-0.37777966 0.14957133 0.082092524
0.34365645 0.14932299 0.07886678
-0.36181578 0.16325261 0.073107243
0.34365645 0.16374035 0.07886678
0.34365448 0.17815667 0.078857303
0.34365252 0.19257297 0.078847826
-0.3339785 0.20700744 0.079008877
0.34365448 0.20699118 0.078857303
-0.31904981 0.22102298 0.075520039
0.34365448 0.2214084 0.078857422
-0.30419359 0.23500153 0.072166264
0.34365448 0.23582567 0.078857362
0.34365645 0.25024405 0.07886678
-0.2756511 0.26394552 0.073700488
0.34365645 0.26466143 0.078866839
-0.26169312 0.27885449 0.077333808
0.34365645 0.27907869 0.07886678
-0.24778511 0.29397073 0.08194989
0.34365448 0.29349455 0.078857303
0.34365448 0.30791178 0.078857362
-0.2039503 0.32182941 0.075907052
0.34365448 0.32232904 0.078857303
-0.13213281 0.36565912 0.0792647
-0.059996944 0.39358023 0.074840784
-0.016806772 0.40840408 0.076870561
-0.060134806 -0.43057504 0.092749357
-0.13255544 -0.40059245 0.088414729
-0.16172707 -0.38674298 0.09150058
0.36029682 -0.3427707 0.089180529
-0.24786502 -0.3271251 0.082691371
0.36029887 -0.32827571 0.089190125
0.36029476 -0.31377569 0.089170933
0.36029267 -0.29927751 0.089161336
0.36029476 -0.28478241 0.089170933
0.36029476 -0.27028576 0.089170933
0.36029476 -0.25578919 0.089170933
0.36029476 -0.24129258 0.089170814
0.36029476 -0.22679588 0.089170933
-0.3493154 -0.22624408 0.084690571
0.36029476 -0.21229935 0.089170933
0.36029476 -0.19780272 0.089170933
0.36029476 -0.18330608 0.089170933
0.36029476 -0.16880947 0.089170933
0.36029476 -0.15431283 0.089170933
-0.40822896 -0.13989736 0.090224743
0.36029476 -0.13981621 0.089170933
0.36029476 -0.12531959 0.089170992
-0.42332369 -0.11106942 0.093172371
0.36029476 -0.11082296 0.089170933
0.36029476 -0.096326359 0.089170933
0.36029476 -0.081829719 0.089170933
-0.43679461 -0.067291461 0.088089585
0.36029476 -0.067333102 0.089170992
0.36029682 -0.052836791 0.089180529
0.36029682 -0.038340081 0.089180529
0.36029682 -0.023843404 0.089180529
0.36029682 -0.0093466938 0.08918047
0.36029682 0.0051499838 0.08918047
0.36029682 0.019646728 0.08918047
-0.43715879 0.034153502 0.089841485
0.36029682 0.034143407 0.089180529
0.36029887 0.048640311 0.089190066
-0.4212583 0.062941931 0.082853138
0.36029887 0.063137054 0.089190066
0.36029887 0.077633806 0.089190125
0.36029887 0.092130609 0.089190066
-0.40867415 0.10680778 0.09253794
0.36029476 0.1066264 0.089170933
0.36029476 0.12112298 0.089170992
0.36029476 0.13561955 0.089170933
0.36029682 0.15011692 0.089180529
0.36029682 0.16461366 0.089180529
0.36029476 0.17910939 0.089170933
-0.34947723 0.19325793 0.08569181
0.36029267 0.19360511 0.089161277
0.36029476 0.20810275 0.089170933
0.36029476 0.22259933 0.089170992
0.36029476 0.23709597 0.089170933
0.36029476 0.25159255 0.089170933
0.36029476 0.26608914 0.089170992
0.36029476 0.28058574 0.089170933
0.36029476 0.29508239 0.089170933
0.36029476 0.30957904 0.089171052
-0.19087526 0.33925867 0.09304744
-0.16131532 0.35226408 0.084814429
-0.10355558 0.38179207 0.087821662
0.041194737 0.42470926 0.085396051
-0.10394207 -0.41775292 0.10037351
-0.19134381 -0.37375626 0.099134147
-0.23482873 -0.34417567 0.096785426
0.37712362 -0.33012199 0.099618077
0.37711927 -0.31554168 0.099598646
0.37711716 -0.30096325 0.09958899
-0.30831173 -0.28674006 0.10188639
0.37711716 -0.28638637 0.09958905
-0.32324305 -0.27248245 0.10418946
0.37711716 -0.27180958 0.099589109
0.37711716 -0.25723282 0.09958905
0.37711716 -0.24265595 0.099589109
0.37711716 -0.2280791 0.09958899
-0.365271 -0.2128002 0.093509018
0.37711716 -0.21350229 0.09958905
-0.38137019 -0.1992254 0.10237181
0.37711716 -0.19892548 0.09958899
0.37711716 -0.18434863 0.09958905
-0.39446437 -0.16927688 0.094230831
0.37711927 -0.16977271 0.099598706
0.37711927 -0.15519579 0.099598646
0.37711927 -0.14061894 0.099598706
0.37711927 -0.12604211 0.099598706
0.37711927 -0.11146515 0.099598706
0.37711927 -0.096888274 0.099598706
-0.4390339 -0.082277395 0.098863184
0.37711927 -0.082311369 0.099598706
0.37711927 -0.067734502 0.099598706
0.37711927 -0.053157602 0.099598706
-0.45451006 -0.03866066 0.10306144
0.37711927 -0.038580664 0.099598706
-0.45245317 -0.023910144 0.093518674
0.37711927 -0.024003759 0.099598646
-0.45308033 -0.00940248 0.096428335
0.37711927 -0.0094268881 0.099598706
0.37711927 0.0051499181 0.099598765
0.37711927 0.019726887 0.099598706
0.37712145 0.034303892 0.099608481
-0.4395816 0.048924576 0.10149825
0.37712145 0.048880894 0.099608421
0.37711927 0.063457534 0.099598706
-0.42368588 0.077856816 0.094982028
0.37711716 0.078034081 0.09958899
0.37711716 0.092610948 0.09958905
0.37711716 0.10718773 0.09958905
0.37711716 0.12176454 0.099589109
-0.39471355 0.13606365 0.095579565
0.37711716 0.13634139 0.099589109
0.37711927 0.15091896 0.099598706
-0.38157836 0.16583022 0.10354751
0.37711927 0.1654958 0.099598765
-0.36545193 0.17960894 0.094577491
0.37711716 0.18007188 0.09958905
0.37711716 0.19464862 0.09958899
0.37711716 0.20922549 0.099589109
0.37711716 0.22380224 0.09958905
-0.32310513 0.23882951 0.10324621
0.37711716 0.23837908 0.099589109
-0.30820823 0.25315878 0.10113937
0.37711927 0.25295725 0.099598765
-0.29403898 0.26819175 0.10434508
0.37711927 0.26753417 0.099598706
0.37711927 0.28211099 0.099598706
0.37711716 0.29668641 0.099589109
-0.23450951 0.31029433 0.093595564
-0.22159515 -0.36148435 0.11109275
-0.28020957 -0.31742349 0.11071068
0.39413121 -0.31732741 0.11014265
-0.29429263 -0.30204543 0.10628343
0.39412895 -0.30266771 0.11013287
0.39412668 -0.28800821 0.11012298
0.39412668 -0.2733503 0.11012304
-0.33833539 -0.2583023 0.10730785
0.39412895 -0.25869375 0.11013293
-0.353479 -0.2440768 0.11044621
0.39412895 -0.24403575 0.11013287
0.39412895 -0.22937781 0.11013287
0.39412895 -0.21471979 0.11013287
0.39412895 -0.20006181 0.11013287
-0.39776081 -0.18559799 0.11207324
0.39412895 -0.18540376 0.11013287
0.39412895 -0.17074586 0.11013293
-0.41166884 -0.15591556 0.10809875
0.39412895 -0.15608789 0.11013293
0.39412895 -0.14142987 0.11013287
-0.42607275 -0.12654842 0.10690767
0.39412895 -0.12677188 0.11013293
0.39412895 -0.11211385 0.11013287
-0.44202438 -0.097623996 0.11325121
0.39412895 -0.097455949 0.11013287
0.39412895 -0.08279793 0.11013287
0.39412895 -0.068139941 0.11013293
-0.45658574 -0.053560741 0.11269146
0.39412895 -0.053481929 0.11013287
0.39412895 -0.038824007 0.11013293
0.39412895 -0.024165988 0.11013287
0.39412895 -0.0095080025 0.11013287
-0.45501754 0.0051499512 0.10541606
0.39413348 0.0051499838 0.11015242
-0.45697543 0.019841585 0.11449939
0.39413348 0.019808136 0.11015242
0.39412895 0.034465957 0.11013287
0.39412895 0.049123909 0.11013293
-0.4424004 0.063933663 0.11506015
0.39412895 0.063781992 0.11013275
0.39412895 0.078439951 0.11013293
-0.42630529 0.09300258 0.10806948
0.39412668 0.093097441 0.1101231
0.39412668 0.10775536 0.1101231
-0.41193786 0.12237473 0.10949671
0.39412668 0.12241325 0.1101231
0.39412895 0.13707189 0.11013287
-0.39785868 0.15191998 0.11260313
0.39413121 0.15173057 0.11014265
0.39413121 0.16638866 0.11014259
0.39412895 0.18104582 0.11013293
0.39412895 0.19570391 0.11013293
-0.35348216 0.21039765 0.11046576
0.39412895 0.21036179 0.11013299
-0.33826479 0.22464065 0.10684919
0.39412895 0.22501978 0.11013287
0.39412895 0.23967783 0.11013293
0.39412895 0.25433576 0.11013287
0.39412895 0.26899368 0.11013287
-0.27982169 0.28327566 0.10756153
0.39412895 0.2836518 0.11013287
-0.26586658 0.29882461 0.11347717
-0.22106895 0.32682353 0.10539663
-0.14843647 0.37238508 0.11421424
-0.074865393 0.40008914 0.10615671
-0.030958377 0.41541329 0.10938913
-0.016167048 -0.45122561 0.11842167
-0.26641589 -0.33341804 0.1182341
0.41132891 -0.28964975 0.12078494
0.41132891 -0.2749097 0.12078488
0.41132891 -0.26016971 0.12078488
0.41132891 -0.24542975 0.12078488
-0.36927119 -0.23023948 0.11712891
0.41132891 -0.23068976 0.12078494
0.41132891 -0.21594979 0.12078488
0.41132891 -0.20120983 0.12078488
0.41132891 -0.18646985 0.12078494
0.41132891 -0.17172988 0.12078488
0.41132891 -0.15698983 0.12078482
-0.42957285 -0.14252773 0.12439525
0.41132891 -0.14224985 0.12078482
0.41132891 -0.12750988 0.12078488
0.41132891 -0.11276989 0.12078488
0.41132891 -0.098029867 0.12078494
0.41132891 -0.083289914 0.12078488
-0.4586826 -0.068612851 0.12241971
0.41132891 -0.068549924 0.12078494
0.41132891 -0.053809937 0.12078494
0.4113313 -0.039070182 0.12079471
0.4113313 -0.024330126 0.12079477
0.41132891 -0.0095899701 0.12078488
0.41132891 0.0051500169 0.12078488
0.4113313 0.019890005 0.12079477
-0.45895424 0.034674566 0.12367994
0.41132891 0.03462993 0.12078488
0.41132891 0.049369916 0.12078488
0.41132891 0.064109877 0.12078494
0.41132891 0.078849867 0.12078488
0.41132891 0.093589954 0.12078488
-0.42981365 0.10858927 0.12559831
0.41132891 0.10832994 0.12078488
0.41132891 0.12306983 0.12078488
0.41132891 0.13780989 0.12078488
0.4113313 0.15255064 0.12079477
0.4113313 0.16729066 0.12079489
-0.38555479 0.18251216 0.12600648
0.4113313 0.18203074 0.12079477
-0.3691743 0.19634673 0.11655718
0.4113313 0.19677076 0.12079489
0.41132891 0.21150979 0.120785
0.4113313 0.2262509 0.12079477
0.4113313 0.240991 0.12079471
0.4113313 0.25573105 0.12079477
-0.25253209 0.31553215 0.12599641
-0.20811428 0.34493032 0.12508112
-0.17797965 0.358134 0.11658663
-0.11933229 0.38850263 0.12134939
-0.14939526 -0.40998858 0.1320073
-0.17878555 -0.39437467 0.12821859
-0.20910805 -0.38129842 0.1368171
-0.25337547 -0.35101828 0.1338219
0.42872241 -0.27648523 0.13155675
0.42872241 -0.26166233 0.13155675
0.42872241 -0.2468394 0.13155675
0.42872241 -0.23201653 0.13155675
-0.38565174 -0.21661592 0.12655395
0.42872241 -0.21719362 0.13155681
0.42872241 -0.20237069 0.13155675
0.42872241 -0.18754783 0.13155675
-0.4155198 -0.17240641 0.12810898
0.42872241 -0.17272484 0.13155675
0.42872241 -0.15790199 0.13155675
0.42872241 -0.14307907 0.13155675
0.42872241 -0.12825616 0.13155675
-0.44505861 -0.11320501 0.1278497
0.42872241 -0.11343321 0.13155675
0.42872241 -0.098610371 0.13155675
-0.46125281 -0.083916165 0.13434398
0.42872488 -0.083787948 0.13156676
0.42872488 -0.068964869 0.13156676
0.42872488 -0.054141965 0.13156676
0.42872488 -0.039318986 0.13156676
-0.47474533 -0.024445549 0.12828863
0.42872488 -0.024495941 0.13156682
-0.4752605 -0.0096654948 0.1305961
0.42872241 -0.0096728634 0.13155675
0.42872241 0.0051499838 0.13155675
0.42872488 0.01997293 0.13156676
0.42872488 0.034795973 0.13156682
-0.46160153 0.049720459 0.13596189
0.42872241 0.049618755 0.13155669
0.42872488 0.064441934 0.1315667
-0.44525772 0.079158731 0.12880754
0.42872241 0.079264514 0.13155681
0.42872241 0.094087467 0.13155675
0.42872241 0.10891031 0.13155681
0.42872241 0.12373329 0.13155675
-0.41554472 0.1383263 0.12823868
0.42872488 0.13855685 0.13156682
0.42872733 0.15338059 0.13157684
-0.40239364 0.16867556 0.13714939
0.4287298 0.16820449 0.13158679
0.42872733 0.18302675 0.13157672
0.42872488 0.19784871 0.13156676
0.42872488 0.21267182 0.13156682
0.42872488 0.22749479 0.13156676
-0.34267578 0.24280213 0.13549936
0.42872488 0.24231781 0.13156676
-0.32770202 0.25754747 0.13467532
-0.075420432 -0.44199684 0.1422075
-0.12022211 -0.4275966 0.14446747
-0.29970858 -0.32368261 0.14766884
-0.31402227 -0.30799687 0.14309865
-0.32826874 -0.29238489 0.1385501
-0.34317654 -0.27753761 0.1387518
-0.35861838 -0.26314235 0.14223796
-0.37432781 -0.24885872 0.14698696
0.4463127 -0.24826512 0.14245051
0.4463127 -0.23335826 0.14245045
0.4463127 -0.21845147 0.14245045
-0.40250903 -0.20304078 0.13777387
0.4463127 -0.20354477 0.14245045
0.4463127 -0.18863796 0.14245045
0.4463127 -0.17373125 0.14245045
-0.43364918 -0.15902014 0.14476174
0.4463127 -0.15882441 0.14245045
0.44631526 -0.14391841 0.14246058
-0.44813335 -0.12902421 0.1426428
0.44631526 -0.12901165 0.14246064
0.44631526 -0.1141048 0.14246064
0.44631526 -0.099197909 0.14246058
0.44631526 -0.084291115 0.14246058
0.44631526 -0.069384225 0.14246058
-0.47918776 -0.054653782 0.14818817
0.44631526 -0.054477341 0.14246058
-0.47695512 -0.039471872 0.13818717
0.44631526 -0.039570518 0.14246053
0.44631526 -0.024663696 0.1424607
0.44631526 -0.009756906 0.14246058
-0.47734255 0.0051500169 0.1399225
0.4463127 0.0051500169 0.14245045
0.44631526 0.02005684 0.14246064
0.44631526 0.034963664 0.14246058
0.44631526 0.049870551 0.14246058
0.44631526 0.064777344 0.14246064
0.44631526 0.079684168 0.14246064
-0.44815651 0.094604641 0.14275426
0.44631526 0.094591029 0.14246064
0.4463127 0.10949735 0.14245051
-0.43362683 0.12453964 0.1446501
0.4463127 0.12440418 0.14245051
0.44631526 0.13931157 0.14246058
-0.41943106 0.15467823 0.14843267
0.44631782 0.15421918 0.14247072
0.44632038 0.16912696 0.14248085
0.44632038 0.18403398 0.14248085
0.44631782 0.19894004 0.14247072
-0.37387875 0.2140478 0.14433563
0.44631782 0.213847 0.14247072
-0.35813147 0.22837916 0.13922602
-0.31330958 0.27284893 0.13795525
-0.29886547 0.28819954 0.14122617
-0.23901938 0.33245707 0.13866103
-0.090450749 0.40871102 0.14763838
-0.24017176 -0.36900607 0.15017629
-0.2861793 -0.34066743 0.15917867
-0.39049137 -0.23476703 0.15388817
0.46410313 -0.21972372 0.15346819
0.46410313 -0.20473219 0.15346825
-0.41956836 -0.18930805 0.14914608
0.46410581 -0.18974158 0.15347838
0.46410581 -0.17474991 0.15347844
0.46410581 -0.15975827 0.15347838
0.46410581 -0.1447666 0.15347838
0.4641085 -0.1297757 0.1534887
0.4641085 -0.11478388 0.15348864
-0.46446967 -0.099564731 0.14926833
0.4641085 -0.09979216 0.15348858
0.46410581 -0.084799945 0.15347844
-0.48144594 -0.069994032 0.15830356
0.46410581 -0.069808289 0.15347838
0.46410581 -0.054816701 0.15347844
0.46410581 -0.039824981 0.15347844
0.46410581 -0.024833327 0.15347838
0.46410581 -0.0098417047 0.1534785
0.46410313 0.0051499512 0.15346825
-0.47944486 0.020109799 0.14933974
0.46410581 0.020141639 0.15347844
-0.48157007 0.035216153 0.15885949
0.46410581 0.035133295 0.15347838
0.46410581 0.050124947 0.1534785
-0.46463016 0.065009899 0.15001297
0.46410581 0.065116607 0.15347844
0.46410581 0.08010833 0.15347844
0.46410581 0.095099986 0.15347838
0.46410581 0.1100916 0.1534785
0.46410581 0.12508322 0.1534785
0.4641085 0.14007564 0.15348858
0.46411118 0.15506825 0.15349889
0.46411386 0.17006086 0.15350914
0.46411118 0.18505178 0.15349889
-0.39001134 0.19981128 0.15117705
-0.28499383 0.30437905 0.14955395
-0.19532335 0.36446059 0.15082967
-0.16537452 0.37941211 0.15072751
-0.13577396 0.3958576 0.15809768
0.02933348 0.43982589 0.15310985
-0.40761867 -0.22110499 0.16543061
0.48209998 -0.19085684 0.16462237
-0.4378213 -0.17587031 0.16560692
0.48210278 -0.17578036 0.16463274
0.48210278 -0.16070279 0.16463268
-0.4520933 -0.14539917 0.1616953
0.48210278 -0.14562522 0.16463274
0.48210278 -0.13054773 0.16463262
-0.46773002 -0.11545556 0.16439456
0.48210278 -0.11547023 0.16463274
0.48209998 -0.10039207 0.16462237
0.48209998 -0.085314721 0.16462237
0.48209998 -0.070237219 0.16462231
0.48209998 -0.055159777 0.16462237
0.48210278 -0.040082537 0.16463268
-0.49811351 -0.025016839 0.16539955
0.48210278 -0.02500503 0.16463268
-0.49853283 -0.0099474881 0.16721541
0.48209998 -0.0099274572 0.16462231
0.48209998 0.0051499838 0.16462237
0.48209998 0.02022749 0.16462231
0.48209998 0.035304833 0.16462243
0.48209998 0.050382338 0.16462237
0.48210278 0.065460108 0.16463268
-0.46770102 0.080523312 0.16425985
0.48210278 0.080537617 0.16463274
0.48209998 0.095614664 0.16462237
-0.45202249 0.11051606 0.1613546
0.48209998 0.11069211 0.16462237
0.48209998 0.12576951 0.16462237
-0.43751439 0.14080895 0.16407359
0.48210278 0.14084777 0.16463268
0.48210558 0.15592603 0.16464299
-0.40709847 0.18589395 0.16261494
-0.27154052 0.32145181 0.16261494
-0.22650076 0.35185605 0.16419774
-0.045610636 0.42685458 0.16247028
-0.19697748 -0.40354049 0.17231768
-0.27302676 -0.35871577 0.17548591
-0.34968591 -0.29892531 0.18103158
-0.36458692 -0.28344756 0.17915851
-0.42495421 -0.20728242 0.17713165
0.50030422 -0.14649303 0.17590505
-0.47125024 -0.13166279 0.18072617
0.50030422 -0.13132872 0.17590499
0.50030124 -0.11616378 0.17589444
0.50030124 -0.10099953 0.17589456
-0.48452556 -0.085660003 0.17209834
0.50030124 -0.085835323 0.17589462
0.50030124 -0.070671074 0.17589444
0.50030422 -0.055507164 0.17590499
-0.5007478 -0.04036374 0.17680645
0.50030422 -0.040342953 0.17590505
0.50030422 -0.025178608 0.17590499
0.50030422 -0.010014327 0.17590505
0.50030124 0.0051499838 0.17589444
-0.5010047 0.0051500169 0.17791885
0.50030124 0.020314196 0.17589462
0.50030124 0.035478443 0.17589456
-0.48464677 0.050567526 0.17264134
0.50030124 0.050642654 0.17589444
0.50030422 0.065807201 0.17590505
0.50030422 0.080971509 0.17590499
-0.4709962 0.096304037 0.17954749
0.50030422 0.096135825 0.17590511
0.50030422 0.11130004 0.17590499
-0.45616701 0.12679638 0.18129486
-0.42438972 0.17181276 0.17419863
-0.3795343 0.23282515 0.1777299
-0.36348608 0.24734083 0.17234898
-0.34833789 0.26246813 0.17227596
-0.33358836 0.277971 0.17492056
-0.31879908 0.29351562 0.17757243
-0.25811428 0.33908427 0.17779279
-0.16739663 -0.42110097 0.18356252
-0.22844094 -0.39098233 0.18520075
-0.32042593 -0.33073533 0.18931317
-0.3350873 -0.31479797 0.18516898
-0.38061154 -0.26894164 0.18409073
-0.39671463 -0.2543616 0.18903702
-0.44252568 -0.19330755 0.18911141
-0.45658788 -0.16228516 0.18331975
-0.48837811 -0.10172493 0.18935567
0.51871324 -0.10161401 0.18729717
0.51871324 -0.086361974 0.18729717
0.51871634 -0.071110398 0.18730778
-0.50341547 -0.055890635 0.18835771
0.51871634 -0.055858299 0.18730778
0.51871634 -0.040606294 0.18730783
0.51871634 -0.025354158 0.18730778
0.51871634 -0.010102054 0.18730778
0.51871634 0.0051499512 0.18730783
-0.50350618 0.02041314 0.18875045
0.51871324 0.020401988 0.18729717
0.51871324 0.035653993 0.18729722
0.51871634 0.050906263 0.18730783
-0.48826429 0.066205665 0.18884599
0.51871634 0.066158265 0.18730783
-0.44188485 0.15756316 0.18590963
-0.41193295 0.20357454 0.18878227
-0.39566872 0.21822883 0.18312979
-0.30514729 0.31048721 0.18922818
-0.26044536 -0.37848347 0.19942266
-0.41290042 -0.23970988 0.19401884
-0.5061121 -0.071600243 0.20003444
0.53734279 -0.025531748 0.19884336
0.53734279 -0.010190865 0.19884336
-0.50604266 0.035845466 0.19973385
-0.47576633 0.11268889 0.20167845
-0.42959133 0.18946077 0.20122689
-0.29165387 0.32808179 0.20362675
-0.21385063 0.372219 0.19282436
-0.18361692 0.38850078 0.1979537
-0.10682561 0.41835099 0.19401878
-0.30752462 -0.34920421 0.20739436
-0.43074289 -0.22592938 0.20721048
-0.46165013 -0.17975645 0.20767558
-0.47629085 -0.14866434 0.2041117
-0.49229646 -0.1180737 0.20690781
-0.52337343 -0.025673419 0.20804352
-0.5235672 -0.010267967 0.20885545
-0.49193957 0.082103267 0.20530903
-0.4608534 0.14356427 0.20384228
-0.38538441 0.25225815 0.2122733
-0.37032714 0.26801568 0.2146672
-0.24579287 0.35931849 0.20634574
-0.15374039 0.40677482 0.21264279
-0.38746226 -0.29008549 0.22454226
-0.44915518 -0.21214327 0.22223449
-0.4964101 -0.1347533 0.22533458
-0.50975066 -0.087678 0.21578991
-0.52621305 -0.041359913 0.21994293
-0.52623922 0.0051500169 0.22005254
-0.50953412 0.051542319 0.21485233
-0.49577442 0.098287307 0.22248697
-0.48073006 0.1294698 0.22470725
-0.44788936 0.17534485 0.2159099
-0.40193087 0.23753276 0.21849847
-0.35529277 0.28386396 0.21744901
-0.34044278 0.29998216 0.22178453
-0.13919125 -0.44715628 0.23208439
-0.2944212 -0.36806586 0.22609466
-0.35765359 -0.32249513 0.23278302
-0.37255612 -0.30622664 0.22845536
-0.40397364 -0.27530801 0.23003596
-0.48165226 -0.16615207 0.22898561
-0.51390827 -0.10411949 0.2337929
-0.52908671 -0.057233993 0.23198473
-0.52894127 0.020741282 0.23137528
-0.51343697 0.067526855 0.23175204
-0.46645868 0.16101965 0.2308107
-0.43587789 0.20808899 0.23389292
-0.41884074 0.22286764 0.22617179
-0.32697743 0.31777978 0.23659462
-0.27897364 0.34741569 0.22698754
-0.21817486 -0.41841671 0.24389094
-0.24954119 -0.40271112 0.24380124
-0.34365645 -0.33995569 0.24375653
-0.42091659 -0.26069173 0.23740774
-0.43798125 -0.24596721 0.24482214
-0.4678553 -0.19815303 0.23753035
-0.53230828 -0.07334964 0.24548459
-0.53194141 0.036526192 0.24394703
-0.50102377 0.11507733 0.24600142
-0.45411909 0.19369239 0.24703574
-0.45600992 -0.23161887 0.25648284
-0.48716351 -0.18408695 0.25455469
-0.50208741 -0.15225576 0.25076568
-0.51844931 -0.12094031 0.25345606
-0.55061686 -0.026412927 0.25607419
-0.5505302 -0.010628741 0.25572246
-0.51760125 0.083815068 0.24978393
-0.48580727 0.14664176 0.24826235
-0.3133128 0.33584091 0.25162411
-0.23472102 0.38337082 0.2531845
-0.20327497 0.3993108 0.25412416
-0.28373611 -0.39172578 0.26823175
-0.33084503 -0.35931614 0.26450634
-0.53701699 -0.089960858 0.26521599
-0.55378139 0.0051500169 0.2689209
-0.53629124 0.05263523 0.2621749
-0.47302508 0.17928185 0.26240331
-0.42650744 0.24321043 0.2676692
-0.40985206 0.2585353 0.26323724
-0.39434093 0.2746233 0.26515883
-0.37880445 0.29074469 0.26710695
-0.26714683 0.36910227 0.26160425
-0.18932942 -0.44197509 0.28040636
-0.47522449 -0.21761276 0.27298522
-0.50878227 -0.17053582 0.28075504
-0.52402472 -0.13837425 0.27759838
-0.55408168 -0.042519167 0.27013963
-0.52256006 0.10053983 0.27125615
-0.5069859 0.13242595 0.27270836
-0.49283591 0.1648733 0.28087133
-0.44392812 0.22820786 0.27572298
-0.36452302 0.30811673 0.27740145
-0.39842311 -0.31558865 0.28926301
-0.4137952 -0.29900247 0.2855081
-0.42962644 -0.28286183 0.28455114
-0.54214936 -0.10697171 0.28672326
-0.5575943 -0.058847997 0.28439957
-0.55706906 0.021132976 0.28226727
-0.54106104 0.069079027 0.28216243
-0.46173051 0.21320996 0.28506452
-0.30187574 0.35751447 0.28661805
0.40309277 0.3577027 0.28772908
0.38750589 0.37410113 0.28983736
-0.38329607 -0.33253545 0.29489142
-0.44737461 -0.26804948 0.29363143
-0.49550006 -0.20372725 0.29323143
-0.5611589 -0.075404383 0.29886949
-0.56039667 0.037324149 0.29577541
-0.5459187 0.085844912 0.30251855
-0.52904361 0.11795108 0.29933083
-0.51327014 0.15028563 0.30085826
-0.48065853 0.1985046 0.29912972
-0.35106489 0.32668081 0.29440844
0.42145973 0.34337333 0.29821926
0.42168149 0.35964745 0.29921257
0.40457058 0.37494171 0.29458505
0.39005035 0.39240414 0.30207956
-0.32015499 -0.382442 0.30390799
-0.46568048 -0.25335449 0.30479968
-0.51616871 -0.18956371 0.31384224
-0.53113759 -0.15669227 0.30839777
-0.54739296 -0.12434222 0.30869621
-0.58037639 -0.027260058 0.31109864
-0.57981765 -0.011038097 0.30889928
0.42309347 0.37688088 0.3055374
0.37432829 0.39278591 0.30414569
0.40687227 0.39299253 0.3052637
0.42483503 0.39448431 0.31333858
-0.17538063 0.42690244 0.31320673
-0.37077197 -0.35252744 0.31798929
-0.48418322 -0.2385014 0.31608802
-0.56700456 -0.092611365 0.32260019
-0.58386719 0.0051499181 0.32484037
-0.56540632 0.053880829 0.31611222
-0.501091 0.18408874 0.3191703
-0.43704087 0.26610348 0.32468277
-0.33886957 0.34728533 0.32241875
0.44343373 0.36378261 0.32362884
0.4433918 0.38005188 0.32344717
0.37847275 0.41292253 0.32485241
0.3934623 0.411699 0.31849533
0.40969831 0.41167581 0.31837469
0.42705658 0.41262168 0.32328993
-0.5047456 -0.22441752 0.33612543
-0.58473706 -0.043861475 0.32826442
-0.55191469 0.10314436 0.32764429
-0.53571713 0.13584505 0.32822794
-0.45349279 0.24987918 0.32542247
-0.42082357 0.28248131 0.32520407
-0.40499526 0.29919198 0.32806975
0.44587022 0.34918666 0.3341791
0.44420674 0.39700383 0.326976
0.44570082 0.4145762 0.33344561
0.41290456 0.43091419 0.33325011
0.42974702 0.43133271 0.33534151
-0.53890854 -0.17572588 0.34204715
-0.55479968 -0.1426791 0.33973354
-0.58916938 -0.060735974 0.34571248
-0.58798492 0.021585619 0.34104973
-0.57141292 0.070875295 0.340496
-0.52196252 0.16940922 0.33979493
-0.47213179 0.23481518 0.33703238
-0.25965083 0.40030107 0.3448227
0.36561325 0.41637385 0.34278673
0.39731008 0.43166623 0.33700794
0.44780678 0.43277836 0.34256476
-0.35973752 -0.3751089 0.35370344
-0.57354891 -0.11033655 0.34916717
-0.59219468 0.038276244 0.35762137
-0.49097613 0.21958525 0.34877032
-0.39195392 0.31850812 0.3484481
-0.29356813 0.38535148 0.35337967
0.46711734 0.38556111 0.35456318
0.46571127 0.40101209 0.34867114
0.4661524 0.41786209 0.35051972
0.38347334 0.43423396 0.34983701
0.41655469 0.45080936 0.35018462
0.43275595 0.45052576 0.34881991
-0.42832416 -0.32764435 0.36756736
-0.444475 -0.31061769 0.36492127
-0.46058634 -0.29363257 0.36228162
-0.4778195 -0.27744812 0.36544997
-0.5268451 -0.21057585 0.36166662
-0.59426022 -0.077978738 0.36575216
-0.57757556 0.088269502 0.36551291
-0.56023443 0.12135533 0.36250752
-0.54455757 0.15483402 0.36650819
-0.51065958 0.2044567 0.36356288
