ply
format ascii 1.0
comment PCL generated
element vertex 1348
property float x
property float y
property float z
element camera 0
property float view_px
property float view_py
property float view_pz
property float x_axisx
property float x_axisy
property float x_axisz
property float y_axisx
property float y_axisy
property float y_axisz
property float z_axisx
property float z_axisy
property float z_axisz
property float focal
property float scalex
property float scaley
property float centerx
property float centery
property int viewportx
property int viewporty
property float k1
property float k2
end_header
0.25807449 -0.075670816 -0.34108609
-0.37176377 -0.055229612 -0.34353262
0.23753516 -0.055237003 -0.34337056
-0.35094097 -0.034769155 -0.34745514
0.19621332 -0.03457617 -0.35246909
0.21737981 -0.034997009 -0.34153569
-0.33110642 -0.014601089 -0.34384435
-0.30972484 -0.014314495 -0.35315025
0.17609888 -0.014391646 -0.35064697
0.19719736 -0.014729053 -0.33968592
-0.31121746 0.0056224018 -0.34022367
-0.28987688 0.005837936 -0.3495549
0.15595731 0.0058206841 -0.34880984
0.17698577 0.0055675022 -0.33784604
-0.26997456 0.026045509 -0.34594989
0.13578695 0.026061472 -0.34698266
-0.25001761 0.046308525 -0.34233493
-0.22891004 0.046380207 -0.35165137
0.095007576 0.04638695 -0.35253102
0.11558855 0.046330243 -0.34515291
-0.18844101 0.06662719 -0.35129184
-0.16804177 0.06662719 -0.35371953
0.075034477 0.06662719 -0.34385681
-0.23000589 0.066627242 -0.33870995
-0.20894015 0.066627242 -0.34805202
0.034300726 0.066627242 -0.35163885
0.054637518 0.066627242 -0.3477537
0.095491394 0.066627242 -0.33996093
-0.18931705 0.08697436 -0.33864731
-0.16881901 0.086955421 -0.34109843
-0.14835964 0.086936638 -0.34353262
-0.12793796 0.086918049 -0.34596229
-0.10755386 0.08689931 -0.34838748
-0.087207228 0.086880669 -0.35080802
-0.066897966 0.08686208 -0.35322452
-0.02644743 0.086881265 -0.35073388
-0.006193399 0.086911105 -0.34685844
0.014120482 0.086941093 -0.34295881
0.034494579 0.086971186 -0.33904797
-0.087596722 0.10732881 -0.33815902
-0.067189552 0.10729134 -0.3405987
-0.046835192 0.10726903 -0.34204769
-0.026544424 0.10732926 -0.33813405
-0.5356912 -0.32031348 -0.33627939
0.40146425 -0.32064754 -0.33399528
-0.53881925 -0.30211377 -0.32065082
-0.51733685 -0.26050463 -0.32583016
0.38187674 -0.26016867 -0.32855743
-0.49593791 -0.21905705 -0.3309896
0.36114636 -0.21908155 -0.33076274
-0.47538036 -0.17816606 -0.3318454
0.34153143 -0.17882556 -0.32470489
-0.45411748 -0.15733477 -0.33694386
0.32015258 -0.15773562 -0.33221036
-0.4564603 -0.13803962 -0.32311004
-0.435164 -0.11721728 -0.32824218
0.30045474 -0.11736175 -0.3261587
-0.41394779 -0.09647461 -0.33336693
0.27920488 -0.096457474 -0.33364356
-0.39483628 -0.056102037 -0.32464159
0.25942424 -0.055965595 -0.32759845
-0.37367108 -0.035449937 -0.32976776
0.23872422 -0.035421804 -0.33049846
-0.35264161 -0.014889985 -0.33445984
0.2184713 -0.01506906 -0.32864571
-0.35439897 0.0051791891 -0.32103121
-0.33271146 0.0054051578 -0.33081335
0.19819105 0.0053119399 -0.32677776
-0.31272629 0.025756091 -0.3271566
-0.29127517 0.02590121 -0.33658022
0.15674676 0.025892213 -0.33599102
0.1778813 0.025721688 -0.32491982
-0.29268596 0.046163436 -0.3234899
-0.27127653 0.046236206 -0.33293962
0.13647868 0.046245575 -0.33414608
0.15754393 0.046159968 -0.32304668
-0.25122276 0.066627145 -0.32928872
0.11618228 0.06662719 -0.33229828
0.13717715 0.066627145 -0.3211835
-0.23111364 0.087074488 -0.32562792
-0.20993911 0.087001771 -0.33507502
0.054929152 0.087001428 -0.33512539
0.075424097 0.087031566 -0.33120358
0.095980346 0.087062001 -0.32725781
-0.21094893 0.10757835 -0.32195711
-0.19020154 0.10751797 -0.32588083
-0.16960378 0.10747975 -0.32835561
-0.14904504 0.10744193 -0.33081335
-0.12852436 0.10740416 -0.33326638
-0.10804162 0.10736649 -0.33571512
-0.006193399 0.10738958 -0.3342213
0.014218051 0.10745016 -0.33028442
0.034690294 0.10751089 -0.32633579
0.055223312 0.10757171 -0.32238799
-0.1085341 0.12803164 -0.32291996
-0.087989978 0.12797469 -0.32538778
-0.067483947 0.12791774 -0.32785088
-0.047030464 0.12788284 -0.32936448
-0.026642349 0.12797409 -0.32541311
-0.006193399 0.12806541 -0.32146257
0.40379834 -0.30236536 -0.31883502
-0.5419845 -0.28369769 -0.30483615
-0.52036846 -0.24187782 -0.31007743
0.38410324 -0.24150166 -0.3133347
-0.4988369 -0.20022133 -0.31529808
0.36303172 -0.20003542 -0.31715679
-0.47783917 -0.15894246 -0.31795812
0.34331849 -0.1595276 -0.31104898
-0.48032391 -0.1395165 -0.30392432
0.32182661 -0.13838527 -0.31861901
-0.45882779 -0.11854149 -0.30913067
0.32351628 -0.11883447 -0.30490029
-0.43741307 -0.097646929 -0.31432962
0.30202985 -0.097758539 -0.31251788
-0.41608346 -0.076834314 -0.3194955
0.28066668 -0.076802872 -0.32007957
-0.41824159 -0.056987196 -0.3054781
0.28214353 -0.056945711 -0.30637622
-0.39687857 -0.036184601 -0.31067848
0.2607891 -0.036058344 -0.31395972
-0.37559664 -0.015462354 -0.31587124
0.23992495 -0.015412241 -0.31750023
0.21957351 0.0050543919 -0.31562924
0.2411375 0.0047945157 -0.30437398
-0.35623124 0.025446322 -0.30702996
-0.33433238 0.025609806 -0.3176527
0.19919443 0.025549628 -0.31374288
-0.33596793 0.046016309 -0.30437398
-0.31425014 0.046090022 -0.31395972
0.17878565 0.04607391 -0.31186664
-0.29411215 0.06662719 -0.31025636
-0.27259016 0.066627145 -0.31981295
0.15834893 0.066627242 -0.30997515
-0.27391815 0.087221473 -0.30654287
-0.25243869 0.087147661 -0.31612599
0.11678182 0.087123118 -0.31931776
0.13788252 0.087209471 -0.30809355
-0.23223241 0.10772523 -0.31241584
0.075817861 0.10763288 -0.31841564
0.096474022 0.10769425 -0.31443155
0.11738727 0.10782075 -0.30620933
-0.21196884 0.12835991 -0.30870831
-0.19109462 0.12826097 -0.31299031
-0.17039613 0.12820326 -0.31548905
-0.14973709 0.1281459 -0.31797075
-0.12911643 0.12808871 -0.32044768
0.014316561 0.12815706 -0.31748748
0.034887902 0.12824917 -0.31350064
0.055520609 0.12834117 -0.30951452
0.076215446 0.12843376 -0.30550361
-0.15043585 0.14905149 -0.30500317
-0.12971427 0.14897445 -0.30750406
-0.10903137 0.14889753 -0.31000054
-0.08838705 0.14882089 -0.31249249
-0.067781195 0.1487443 -0.31497955
-0.047227617 0.14869572 -0.31655872
-0.026741125 0.14881817 -0.31258178
-0.006193399 0.14894129 -0.30858004
0.014416026 0.14906493 -0.30456638
-0.56446892 -0.34691015 -0.29580522
-0.54379719 -0.34691423 -0.29577935
-0.52312762 -0.34692016 -0.29574049
0.3866747 -0.34691811 -0.29575348
0.40734798 -0.34691423 -0.29577935
0.42802089 -0.34691015 -0.29580522
-0.56368279 -0.32568014 -0.29958725
0.42838272 -0.32656068 -0.29356706
0.40616125 -0.28387427 -0.3034873
-0.54518497 -0.26505992 -0.28884578
0.40854958 -0.26516715 -0.28797472
-0.52343625 -0.22302881 -0.29413664
0.38635543 -0.22261932 -0.29793632
-0.5017705 -0.18116134 -0.29941976
0.36493471 -0.18079156 -0.30342317
0.36685741 -0.16134834 -0.2895472
0.34512573 -0.14003113 -0.29723918
-0.48302355 -0.11995854 -0.28867674
-0.46121812 -0.098836266 -0.29501641
0.32522348 -0.099081241 -0.29103971
-0.43968794 -0.077870928 -0.30025744
0.30362269 -0.077953674 -0.29872334
-0.42042255 -0.036930121 -0.29131222
0.28363571 -0.036883175 -0.29253078
-0.39894053 -0.016056441 -0.29658043
0.2621668 -0.015945226 -0.30019295
-0.37754425 0.0047353804 -0.30181551
-0.37951255 0.025147311 -0.28761065
0.22068658 0.025376279 -0.30248451
0.24236207 0.025201242 -0.29111755
-0.35808292 0.045927823 -0.29288054
0.20020778 0.045987159 -0.30057943
0.2218107 0.045899469 -0.28920937
0.20123115 0.06662719 -0.28728545
-0.33762148 0.066627242 -0.29094899
-0.31578773 0.066627242 -0.30064404
0.17969894 0.066627294 -0.29868472
-0.29555261 0.087295681 -0.29689062
0.15916188 0.087296665 -0.29677427
-0.27525946 0.10802196 -0.29313958
-0.25366795 0.10787305 -0.30281889
0.13859487 0.10799524 -0.29487419
-0.25490952 0.12880619 -0.28937817
-0.23336129 0.12858209 -0.29908454
0.096972495 0.12852666 -0.30148089
0.11799872 0.12872331 -0.29297125
-0.21299793 0.14934897 -0.29533982
-0.19199641 0.14920636 -0.29997396
-0.17119624 0.14912859 -0.30249727
0.035087232 0.14918855 -0.30055392
0.055820797 0.14931288 -0.29651594
0.076616906 0.14943755 -0.29246593
0.097475834 0.14956257 -0.28840363
-0.17200416 0.17025886 -0.28937817
-0.15114146 0.17016155 -0.29190874
-0.13031794 0.17006424 -0.29443419
-0.1095335 0.16996734 -0.29695523
-0.088787995 0.16987042 -0.29947126
-0.068081342 0.16977371 -0.30198276
-0.047426689 0.16971046 -0.3036288
-0.026840957 0.16986501 -0.299613
-0.006193399 0.17002052 -0.2955724
0.014516361 0.17017597 -0.29153264
0.035288706 0.17033248 -0.2874676
-0.068384431 0.19100928 -0.28885865
-0.047627702 0.19093002 -0.29057264
-0.5670222 -0.3072587 -0.2835207
0.4309091 -0.3080321 -0.27793884
-0.54842657 -0.24619967 -0.27264977
0.41096777 -0.24624369 -0.27226818
-0.52654088 -0.20395353 -0.27800441
0.38863569 -0.20351893 -0.28234613
-0.50473922 -0.16187292 -0.28335118
0.36880013 -0.1417025 -0.27552652
0.34695005 -0.12033116 -0.28329897
-0.48589149 -0.10022437 -0.2724787
-0.46363607 -0.078922667 -0.28073931
0.32695004 -0.079123087 -0.27702177
-0.44198695 -0.057885297 -0.2860359
0.30523062 -0.057942383 -0.2847985
-0.44431046 -0.037686326 -0.27166319
0.30685526 -0.037722364 -0.27072823
-0.42262474 -0.016658999 -0.27700865
0.28514475 -0.016612254 -0.27852821
-0.40102631 0.0042852014 -0.28232014
0.26355878 0.0043767579 -0.28628349
0.26496664 0.024910312 -0.27221572
-0.38150179 0.045776732 -0.27325463
0.24359882 0.045811236 -0.27772939
-0.3599543 0.066627294 -0.27858067
0.222946 0.066627294 -0.27580214
-0.33929166 0.087445825 -0.27738881
-0.31734225 0.08737053 -0.28718138
0.18062128 0.087384358 -0.28537178
0.20226473 0.08747299 -0.2738589
-0.31891245 0.10832316 -0.27358317
-0.29700616 0.10817181 -0.28340328
0.1599829 0.10817137 -0.2834425
0.18155283 0.10834853 -0.27192616
-0.27661297 0.12903169 -0.27961457
0.13931428 0.12898767 -0.28152323
-0.23450261 0.14964882 -0.28560638
-0.25616243 0.14995021 -0.27581513
0.11861625 0.14983362 -0.27960169
-0.23565543 0.17092817 -0.27199209
-0.21403839 0.17054969 -0.28182375
-0.19290705 0.17035706 -0.28683019
0.056123924 0.17048946 -0.2833904
0.077022292 0.1706468 -0.27930069
0.097984105 0.17080468 -0.27519834
-0.19382666 0.1917161 -0.27355683
-0.17282005 0.19159715 -0.27613008
-0.15185401 0.19147918 -0.27868533
-0.13092755 0.19136125 -0.28123593
-0.11004054 0.19124377 -0.28378165
-0.089192867 0.19112632 -0.28632247
-0.026941765 0.19111745 -0.28651762
-0.006193399 0.19130582 -0.28243744
0.014617778 0.19149435 -0.2783581
0.035492159 0.19168386 -0.27425313
-0.08960174 0.2125918 -0.27304423
-0.068690203 0.2124531 -0.27561843
-0.047830682 0.21235764 -0.27738857
-0.027043562 0.21257839 -0.27329397
-0.5926733 -0.35228702 -0.2608819
0.45343587 -0.35121751 -0.26782811
-0.57040185 -0.2886152 -0.26726043
0.43346503 -0.28928682 -0.26212811
-0.55170733 -0.22711113 -0.25625777
0.41341221 -0.2270968 -0.25639081
-0.52968049 -0.18464655 -0.26169074
0.39094067 -0.18419439 -0.2665869
-0.50774372 -0.14235213 -0.26708889
0.37083125 -0.1218851 -0.26086855
0.34879342 -0.10042543 -0.26921296
-0.48879409 -0.080251239 -0.2560848
0.35065612 -0.080310829 -0.25497961
-0.46607983 -0.058796294 -0.26630962
0.32869309 -0.05895517 -0.26287007
-0.4466567 -0.01727055 -0.25714922
0.30849701 -0.017290279 -0.25651062
-0.42485252 0.0038283542 -0.26253891
0.28666818 0.0038710833 -0.26439238
-0.40313435 0.024843935 -0.26790738
0.26638788 0.045659401 -0.25801349
-0.38351235 0.066627145 -0.25874448
0.24484792 0.06662719 -0.26420724
-0.36184397 0.087547794 -0.26414108
0.22409268 0.087562323 -0.26226056
-0.34097713 0.10847513 -0.2637043
0.20330864 0.10852759 -0.26029789
-0.32049707 0.12948799 -0.25986016
-0.2984758 0.12925917 -0.26976657
0.16081212 0.12925431 -0.26997757
0.1824937 0.12952283 -0.25834584
-0.29996037 0.15056059 -0.25599158
-0.27798149 0.15025428 -0.26593947
0.14004089 0.1501897 -0.26803923
0.16164967 0.15054879 -0.25637746
-0.25742924 0.17130882 -0.26210177
0.11923993 0.17115501 -0.26609814
0.14077479 0.17160451 -0.2544198
-0.23681884 0.19242296 -0.25825286
-0.21508938 0.19196481 -0.26817119
0.056430027 0.19187406 -0.27013564
0.077431671 0.19206479 -0.26600575
0.098497391 0.19225615 -0.26186299
-0.21615 0.21359676 -0.2543931
-0.19475444 0.21328586 -0.26016533
-0.17364396 0.21314651 -0.26275086
-0.1525736 0.21300742 -0.26533151
-0.13154317 0.21286857 -0.26790726
-0.11055259 0.21273011 -0.27047801
-0.006193399 0.21280044 -0.2691735
0.014720194 0.21302232 -0.26505375
0.035697613 0.21324575 -0.26090825
0.056739151 0.2134698 -0.25675011
-0.1321649 0.23458916 -0.25444639
-0.11106972 0.23442927 -0.25704277
-0.090014249 0.2342689 -0.25964773
-0.068999298 0.23410958 -0.26223433
-0.048035659 0.23399627 -0.2640748
-0.027146362 0.2342509 -0.25993967
-0.006193399 0.23450714 -0.25577867
-0.59499842 -0.37497655 -0.25009465
-0.57397801 -0.37498301 -0.2500546
0.43541902 -0.37498519 -0.25004125
0.45644137 -0.37497878 -0.25008142
0.4561336 -0.33265516 -0.25189841
-0.57382244 -0.26974559 -0.25080311
0.43605322 -0.27032259 -0.24611795
-0.55502808 -0.2077902 -0.23966634
0.41588557 -0.20772412 -0.24032629
-0.53286082 -0.16510639 -0.24516559
0.39327466 -0.16464373 -0.25062943
-0.51078463 -0.12259454 -0.25062919
0.37304989 -0.10192535 -0.24485683
-0.49173206 -0.060035087 -0.23949111
0.35254022 -0.059984721 -0.24058199
-0.46854755 -0.038453288 -0.25173819
0.33045444 -0.038575254 -0.24856961
-0.4490304 0.0033648163 -0.24246585
0.31015757 0.0033570379 -0.24212956
-0.4271042 0.024536099 -0.2479136
0.28820765 0.024569858 -0.250108
-0.405265 0.045623459 -0.25333977
-0.4074187 0.066627242 -0.23861516
0.26782411 0.066627242 -0.243662
-0.38554272 0.087702155 -0.24409163
0.2461096 0.087652385 -0.25054908
-0.36375567 0.10869335 -0.24953294
0.22525087 0.10870797 -0.24858296
-0.34268138 0.12971869 -0.24986732
0.20436308 0.12979415 -0.24660051
-0.32209933 0.1508688 -0.24598384
0.18344404 0.15091056 -0.24462867
-0.30145866 0.17207912 -0.24208915
-0.27936393 0.17169279 -0.2521255
0.16249567 0.1720579 -0.2426405
-0.28075916 0.19334984 -0.23818362
-0.25870895 0.19288501 -0.24824822
0.11986989 0.19269052 -0.25245905
0.14151609 0.19323537 -0.24066293
-0.23799525 0.21413749 -0.24436021
0.077845097 0.2136946 -0.25257921
0.099015236 0.21391931 -0.24840891
0.12050559 0.2144427 -0.23869598
-0.21722251 0.23545048 -0.24046087
-0.19569238 0.23507077 -0.24662745
-0.17447612 0.23490992 -0.24923873
-0.15330033 0.23474947 -0.251845
0.014823625 0.23476332 -0.25161803
0.035905108 0.23502129 -0.24743128
0.057051338 0.2352798 -0.24323189
0.078262217 0.23553842 -0.23903286
-0.15403432 0.25670835 -0.23822403
-0.13279283 0.25652632 -0.2408514
-0.11159199 0.25634468 -0.24347389
-0.090431266 0.25616235 -0.24610436
-0.06931147 0.2559815 -0.24871695
-0.048242461 0.25584796 -0.25064278
-0.027250182 0.25613821 -0.24645317
-0.006193399 0.25642845 -0.24226403
0.014928082 0.25672057 -0.23804867
-0.59783918 -0.33484671 -0.23691523
0.45886555 -0.31387559 -0.23576725
-0.57728475 -0.25064567 -0.23414505
0.43866986 -0.25113231 -0.22993159
-0.55838954 -0.1882326 -0.22287166
0.41839027 -0.18812296 -0.22405767
-0.53607994 -0.14532742 -0.22843838
0.39563426 -0.14486101 -0.23449659
-0.51386011 -0.10259505 -0.23398256
0.37529665 -0.081729986 -0.22864211
-0.49470603 -0.039571106 -0.22269428
0.35444257 -0.039442204 -0.22604561
-0.47104421 -0.017891131 -0.23699629
0.33223441 -0.017979711 -0.23411798
-0.47356799 0.0028942898 -0.22209406
-0.45142984 0.024223704 -0.22762299
0.31183422 0.024223458 -0.2276094
-0.42938027 0.045467809 -0.23312998
0.28976339 0.045487437 -0.23567259
0.29133713 0.06662719 -0.22107017
-0.40959373 0.087858804 -0.22374415
0.26927695 0.087817162 -0.22914445
-0.38759691 0.1090054 -0.22926664
0.24738404 0.1088901 -0.23675311
-0.365688 0.13006742 -0.23476696
0.22642078 0.13006742 -0.23476696
0.24869156 0.1303485 -0.22259891
-0.34440145 0.15117928 -0.23590231
0.20542818 0.15127593 -0.2327646
0.22760256 0.15164396 -0.22081077
-0.34614083 0.17286074 -0.22178006
-0.32371804 0.17246872 -0.23196542
0.18440402 0.17251468 -0.23077261
-0.30297378 0.19381878 -0.22803068
0.16335021 0.19378486 -0.2287643
-0.28217006 0.21523008 -0.22408485
-0.26000053 0.21468136 -0.23426664
0.1422649 0.21508557 -0.22676671
-0.23918371 0.23607475 -0.2303251
0.099538751 0.23579866 -0.23480761
0.12114835 0.23641622 -0.22477961
-0.21830601 0.25752857 -0.22638583
-0.19663969 0.25707355 -0.23295403
-0.17531656 0.25689074 -0.23559153
0.036114659 0.25701353 -0.23382032
0.057366334 0.25730637 -0.22959232
0.078683913 0.2576012 -0.22533786
0.1000675 0.25789678 -0.22107017
-0.17616545 0.27909231 -0.22180748
-0.15477566 0.27888763 -0.22446632
-0.13342705 0.27868325 -0.22712016
-0.11211897 0.27847832 -0.22978234
-0.090852454 0.27827492 -0.23242605
-0.069626756 0.2780717 -0.23506439
-0.048451528 0.27791783 -0.23706365
-0.027355036 0.27824354 -0.23283231
-0.006193399 0.27856928 -0.22860122
0.015033582 0.27889705 -0.22434378
-0.069945209 0.30038381 -0.22127497
-0.048662681 0.30020827 -0.22334886
-0.60309684 -0.31709644 -0.21252263
0.46162996 -0.29487261 -0.21944427
-0.58078957 -0.23131156 -0.21728241
0.44131765 -0.23171344 -0.21355283
-0.56179237 -0.16843387 -0.20586991
0.42092279 -0.16828668 -0.20760858
-0.53933865 -0.12530506 -0.21150541
0.39802191 -0.12484317 -0.21817195
-0.51697588 -0.082351081 -0.21711791
0.37756833 -0.061293401 -0.21224773
-0.49771661 -0.018855087 -0.2056905
0.35636517 -0.018680699 -0.21135414
0.33403504 0.0028344095 -0.21949887
-0.47611931 0.0239067 -0.2070291
0.33585316 0.023871403 -0.20473731
-0.45385545 0.04531002 -0.21261883
0.31352872 0.045312405 -0.21293473
-0.43167895 0.066627145 -0.21819949
0.29292619 0.087992944 -0.20632541
-0.41179448 0.10932206 -0.20869744
0.27074388 0.10923293 -0.21448612
-0.3896735 0.13054052 -0.21428025
-0.36764139 0.15167373 -0.21984053
0.25005341 0.1520429 -0.20785666
-0.36961427 0.17351568 -0.20476484
0.20650411 0.17297594 -0.21878779
0.22879642 0.17344081 -0.20671177
-0.34789824 0.19476655 -0.20751202
-0.32535186 0.19429055 -0.21781623
0.18537377 0.19433856 -0.21677554
0.20759104 0.19489789 -0.20466805
-0.30450451 0.21578273 -0.21382737
0.16421348 0.21573326 -0.21474671
-0.28359553 0.23733616 -0.20984054
-0.26130664 0.23670271 -0.22012758
0.14302136 0.23715839 -0.21272862
-0.26262626 0.25895184 -0.20584238
-0.24038325 0.25823712 -0.21615899
0.12179768 0.25861382 -0.21072137
-0.21939965 0.27983344 -0.21217895
-0.19759652 0.27929729 -0.21914327
0.036326315 0.27922586 -0.2200731
0.057684794 0.27955452 -0.21580267
0.07910984 0.27988529 -0.21150541
0.10060158 0.28021723 -0.20719481
-0.19856301 0.30174565 -0.20519328
-0.17702289 0.30151772 -0.20788419
-0.15552448 0.30129024 -0.21056986
-0.13406701 0.30106214 -0.21326435
-0.11265177 0.30083558 -0.21593976
-0.091277875 0.30060953 -0.21860981
-0.027460938 0.30057019 -0.21907496
-0.006193399 0.3009319 -0.21480155
0.01514014 0.30129614 -0.21050119
0.036539886 0.30166024 -0.2062012
-0.091707595 0.32316974 -0.20465422
-0.07026688 0.32292101 -0.20734656
-0.048875954 0.32272252 -0.20949626
-0.027567906 0.32312131 -0.20517933
-0.62658191 -0.40401235 -0.20281529
-0.60519814 -0.4040193 -0.20277393
-0.58380514 -0.4040193 -0.20277393
0.46445552 -0.40402174 -0.20275998
0.48584133 -0.40401468 -0.20280159
0.48711857 -0.38378814 -0.1955874
-0.6084488 -0.29902783 -0.18769264
0.46559015 -0.2764881 -0.1960603
-0.58577621 -0.21243113 -0.19329059
0.44399938 -0.21206352 -0.19696367
-0.56523746 -0.14838979 -0.1886574
0.42348784 -0.14821336 -0.19094801
-0.54263777 -0.10503497 -0.194363
0.40044013 -0.10458691 -0.20163858
-0.52013016 -0.061857022 -0.20004511
0.37986723 -0.0406119 -0.1956569
-0.5007621 0.0021182075 -0.18848968
0.3583084 0.0023033544 -0.19650519
-0.47869626 0.045149811 -0.19181299
0.33769086 0.045134492 -0.18981719
-0.45630533 0.066627145 -0.19746399
0.31524298 0.066627242 -0.19808888
-0.43400493 0.088017777 -0.20309198
-0.43635648 0.10964352 -0.18781841
0.29453233 0.109588 -0.19142234
-0.41401944 0.13102072 -0.1934855
0.27222648 0.130878 -0.19967079
-0.39177281 0.15231152 -0.1991297
0.25142854 0.17396964 -0.19297004
-0.37161067 0.19559807 -0.18950975
0.23000254 0.19546139 -0.19246829
-0.34967217 0.21689922 -0.19310951
-0.32700413 0.21633887 -0.20350683
0.18635343 0.21638593 -0.20263541
0.20868914 0.21704495 -0.19040358
-0.32867363 0.23861668 -0.18904865
-0.30604962 0.23797369 -0.19949055
0.16508557 0.23790619 -0.20058572
0.18734317 0.23865971 -0.18834984
-0.28503442 0.25967097 -0.19546223
0.14378555 0.25945726 -0.19854689
-0.26395833 0.28143132 -0.19142234
-0.2415964 0.28062999 -0.20183253
0.12245364 0.281039 -0.19651902
-0.2205057 0.30237076 -0.19781101
0.058006458 0.30202678 -0.20187414
0.079540074 0.30239424 -0.19753337
0.10114103 0.30276304 -0.19317913
-0.19953933 0.3244217 -0.19110155
-0.17788903 0.32417074 -0.19381976
-0.15628088 0.32392004 -0.19653296
-0.13471411 0.32366863 -0.19925463
-0.11318997 0.32341895 -0.20195711
-0.006193399 0.32351997 -0.20086288
0.015247777 0.32392129 -0.19651902
0.036755826 0.32432261 -0.19217563
0.058331385 0.32472637 -0.18780446
-0.11373362 0.34623185 -0.18783247
-0.09214168 0.34595907 -0.19055712
-0.070591807 0.34568688 -0.19327664
-0.049091376 0.34546414 -0.19550407
-0.02767585 0.34589908 -0.1911571
-0.63121265 -0.38597301 -0.18207204
0.49149632 -0.36614653 -0.17086196
0.46977615 -0.25789744 -0.17134333
0.44671121 -0.19217545 -0.18018889
-0.56872553 -0.12809548 -0.17122996
0.42608169 -0.12789664 -0.17410028
-0.54597789 -0.08451245 -0.17700696
0.40288541 -0.084086023 -0.18492019
-0.5233236 -0.041108251 -0.18276
0.38219577 -0.019681431 -0.1788522
-0.50384802 0.023352891 -0.17106009
0.36027443 0.023513306 -0.18148196
0.33954841 0.066627145 -0.17473567
-0.48130405 0.066627242 -0.17641485
-0.45878449 0.088179179 -0.18212819
0.3169741 0.088171743 -0.18309689
-0.43873399 0.13150831 -0.17237604
0.29615581 0.13141629 -0.17635834
-0.41626889 0.15295887 -0.17810583
0.27372646 0.15275642 -0.18468189
-0.3938933 0.1743217 -0.18382657
0.25281987 0.19613382 -0.17790866
-0.37362909 0.21792424 -0.17408597
0.23122111 0.21770915 -0.1780777
-0.35146636 0.23926365 -0.17854249
0.20979856 0.23942071 -0.17599165
-0.33035895 0.26112661 -0.1744535
-0.30761233 0.26039654 -0.18499017
0.16596662 0.26030716 -0.18627894
0.18834312 0.2611638 -0.1739167
-0.28648975 0.28223979 -0.18092
0.14455687 0.28198478 -0.18423331
0.1668568 0.28293994 -0.17182434
-0.26530558 0.30414677 -0.17683768
-0.24282217 0.30325595 -0.18735683
0.12311639 0.30369517 -0.18217027
-0.24405958 0.32611766 -0.17274368
-0.22162327 0.32514301 -0.18329334
0.079974659 0.32513136 -0.18341959
0.10168598 0.32553768 -0.17902112
-0.20052558 0.3473292 -0.17686594
-0.178764 0.34705439 -0.17961204
-0.15704499 0.34678021 -0.1823529
-0.13536777 0.34650496 -0.18510234
-0.006193399 0.34633669 -0.18678308
0.015356503 0.34677601 -0.18239498
0.036973961 0.34721494 -0.17800725
0.058659613 0.34765688 -0.17359185
-0.13602813 0.36957493 -0.17080545
-0.11428285 0.36927772 -0.17356336
-0.092580192 0.36898097 -0.17631602
-0.07092005 0.36868501 -0.1790632
-0.049308993 0.36843631 -0.18136954
-0.027784996 0.36890951 -0.17697883
-0.006193399 0.36938584 -0.17255986
-0.63687891 -0.36832836 -0.15669036
-0.61390066 -0.28063414 -0.16239905
-0.59101218 -0.19329223 -0.16809869
0.44945818 -0.1720475 -0.16319633
0.42870712 -0.10733291 -0.15704787
-0.54935992 -0.063732751 -0.15943348
0.40536237 -0.063337721 -0.1679852
-0.52655703 -0.020100109 -0.16525877
0.38455057 0.0015031844 -0.1618576
0.36225989 0.044953559 -0.16631031
-0.48421139 0.088355303 -0.15924788
0.34142789 0.088353567 -0.15947628
-0.46129107 0.10996985 -0.16662264
0.31872395 0.10994948 -0.16794264
-0.4411357 0.15361562 -0.15677619
0.29779845 0.15348205 -0.16111648
-0.41854122 0.17513986 -0.16256988
0.27524132 0.17487144 -0.16954482
-0.39603919 0.19657585 -0.16833985
0.27677262 0.19722691 -0.15424311
0.25422496 0.21853793 -0.16269815
-0.37566996 0.24049848 -0.15849102
0.2324523 0.24018767 -0.16353786
-0.35327938 0.26186308 -0.16382241
0.2109195 0.26202881 -0.16143012
-0.33206365 0.28387412 -0.15969026
-0.30918992 0.28305322 -0.1703521
0.18935348 0.28390142 -0.15933359
-0.31078562 0.30594966 -0.15554595
-0.28796032 0.30504534 -0.16622484
0.14533691 0.30474624 -0.16975725
0.16775624 0.30580798 -0.15721941
-0.26666704 0.32710081 -0.16209984
0.12378599 0.32658598 -0.16767311
0.14612508 0.3277446 -0.15513086
-0.24531122 0.34922108 -0.15796256
-0.22275148 0.34815279 -0.16863763
0.080413677 0.34810024 -0.16916203
0.10223593 0.34854341 -0.16473281
-0.20152196 0.37047163 -0.16248441
-0.17964792 0.37017253 -0.16525877
-0.1578169 0.36987424 -0.16802764
0.015466228 0.3698619 -0.16814113
0.037194323 0.37034109 -0.1636945
0.058991194 0.37082183 -0.15923357
0.080857188 0.37130433 -0.15475857
-0.13669525 0.39288187 -0.15636158
-0.11483769 0.39256018 -0.15914798
-0.093023203 0.39223894 -0.16192901
-0.071251653 0.39191857 -0.16470432
-0.049528822 0.3916429 -0.16709113
-0.027895257 0.39215517 -0.16265535
-0.006193399 0.39267051 -0.1581912
-0.63751161 -0.43407342 -0.15385628
-0.61574203 -0.43407342 -0.15385628
0.47273281 -0.43406841 -0.15388477
0.49450982 -0.43407598 -0.15384185
0.49595249 -0.34818888 -0.14569378
0.47403458 -0.23897251 -0.14619815
-0.59634066 -0.17380315 -0.1424619
0.452241 -0.15167484 -0.14598215
-0.57225734 -0.10754632 -0.15358377
0.4313668 -0.086518906 -0.13977265
-0.55278456 -0.042691 -0.14163828
0.4078674 -0.042336076 -0.15085816
-0.52983105 0.0011724979 -0.14753723
0.38693616 0.022946116 -0.14464128
-0.50697273 0.044854268 -0.15341198
0.36426702 0.06662719 -0.15097296
-0.48722547 0.1103574 -0.14145041
0.34332615 0.11031714 -0.14406431
-0.46382326 0.13200288 -0.15095866
0.32049286 0.1319645 -0.15262341
-0.4435665 0.17597042 -0.14098775
0.29945749 0.17578819 -0.14572263
-0.42084098 0.19756851 -0.14684629
-0.39820898 0.21907771 -0.15268075
0.27832213 0.21982786 -0.13875937
0.25564539 0.24118638 -0.14732146
-0.37773171 0.26332399 -0.14273643
0.23369636 0.26290062 -0.14884639
-0.35515583 0.28472877 -0.1485877
0.21205215 0.28487268 -0.14671659
-0.3337847 0.30686083 -0.14478552
0.19037434 0.30687663 -0.14459813
-0.3123982 0.32908842 -0.14058292
-0.28944498 0.32809019 -0.15138948
0.16866507 0.32891497 -0.1424619
-0.26804149 0.35029602 -0.14722061
0.12446256 0.34971505 -0.15302491
0.14692149 0.35098338 -0.1403513
-0.2465761 0.37256894 -0.14302516
-0.22389266 0.37140608 -0.15381312
0.10279208 0.37178645 -0.15028369
0.12514623 0.3730863 -0.13822353
-0.22504595 0.39490592 -0.13883162
-0.2025286 0.39385259 -0.14795482
-0.18054098 0.393529 -0.15075779
-0.15859678 0.39320597 -0.15355527
0.01557719 0.39318594 -0.15372729
0.037416942 0.39370465 -0.14923477
0.059326194 0.39422515 -0.14472795
0.081304826 0.3947455 -0.14022124
-0.093470775 0.41573673 -0.14739347
-0.071586676 0.4153913 -0.15019763
-0.049750905 0.41508725 -0.15266633
-0.028006651 0.41563925 -0.14818501
-0.15938471 0.41677868 -0.13893318
-0.13736928 0.41642964 -0.14176834
-0.11539827 0.41608271 -0.14458358
-0.006193399 0.41619483 -0.14367473
0.015689291 0.41675028 -0.13916457
-0.04997528 0.43877327 -0.13809288
-0.64265209 -0.35036302 -0.13082981
-0.61944902 -0.26190263 -0.13665783
0.45505568 -0.13105091 -0.1285708
-0.57583386 -0.086737461 -0.13571477
0.43405697 -0.065447964 -0.12229955
-0.55625272 -0.021382257 -0.12361741
0.41040307 -0.021077298 -0.13352156
-0.53314662 0.02271447 -0.12959146
0.38934898 0.044652663 -0.12722802
-0.51013696 0.06662719 -0.13554037
0.36629608 0.088538371 -0.13546813
-0.4902778 0.13263872 -0.12342715
0.34524524 0.13252199 -0.12848318
-0.46638617 0.1542829 -0.13510501
0.32228285 0.15422089 -0.1371218
0.32409081 0.17672196 -0.12146413
-0.44602463 0.19857663 -0.12502193
0.30113474 0.19833919 -0.13015974
-0.42316654 0.22024888 -0.1309464
-0.40040305 0.24183154 -0.13684642
0.27988726 0.24267688 -0.12311971
0.25708142 0.26408333 -0.13177609
-0.37981853 0.28640673 -0.12679005
0.23495343 0.2858516 -0.13400114
-0.35711178 0.30788347 -0.13270724
0.21319667 0.30795631 -0.13184905
-0.33552572 0.33009312 -0.12970805
0.19140598 0.33009312 -0.12970805
-0.31402642 0.35247213 -0.12547505
-0.29094684 0.35138059 -0.1363821
0.16958253 0.35226309 -0.12756383
-0.29246467 0.37491933 -0.12121511
-0.26943189 0.37373874 -0.13216901
0.14772625 0.37446651 -0.12541676
-0.24785319 0.39616323 -0.12794352
0.10335395 0.39526922 -0.13568568
0.12583706 0.39670339 -0.1232661
-0.22621037 0.41865438 -0.12370539
-0.20354569 0.41747573 -0.13327444
-0.18144326 0.41712686 -0.13610661
0.037641861 0.41730928 -0.13462567
0.059664309 0.41786826 -0.1300869
0.081757538 0.41843098 -0.1255188
0.10392166 0.41899529 -0.12093639
-0.18235493 0.44097036 -0.12130284
-0.16018003 0.44059476 -0.12417364
-0.1380503 0.44022173 -0.12702358
-0.11596466 0.43984956 -0.12986839
-0.093922995 0.43947804 -0.13270724
-0.071925163 0.43910724 -0.1355406
-0.028119193 0.43936571 -0.13356495
-0.006193399 0.43996215 -0.12900841
0.015802553 0.44055837 -0.12445164
-0.050201751 0.46270233 -0.12338316
0.50048649 -0.32990494 -0.1200856
-0.62509966 -0.24282593 -0.11044228
0.47837245 -0.21970722 -0.12058437
-0.60176718 -0.15395567 -0.11635375
0.45790511 -0.11017231 -0.11094439
-0.57945579 -0.065664195 -0.11761832
0.43678272 -0.044116862 -0.1045953
-0.55976516 0.00019862503 -0.10536647
0.41297218 0.00044310838 -0.11595643
-0.53650439 0.044530965 -0.11141694
0.39179161 0.06662719 -0.10959995
-0.51334137 0.08867722 -0.11744201
0.36834946 0.11069106 -0.11977744
-0.49336666 0.15520418 -0.10518849
0.34718552 0.15497194 -0.11273015
-0.4689779 0.17681402 -0.11907279
0.32591882 0.19947207 -0.10563314
-0.44851053 0.22143817 -0.10887551
0.30283207 0.22113997 -0.11441052
-0.42551833 0.24318504 -0.11486709
-0.40261978 0.26484042 -0.1208483
0.2814697 0.2657786 -0.10730708
-0.40486366 0.28811064 -0.10465467
0.25853461 0.28723392 -0.11604476
-0.38192892 0.30975008 -0.11066389
0.23622376 0.30904427 -0.11899936
-0.35908979 0.33129951 -0.11664808
0.21435325 0.33128312 -0.11682427
-0.33728531 0.35357359 -0.11446929
0.19244848 0.35355443 -0.11466086
-0.31567362 0.37610734 -0.11019099
0.1705106 0.37585914 -0.11249399
-0.29399729 0.39870849 -0.10589993
-0.27083716 0.39743191 -0.11695671
0.14853954 0.39819783 -0.11032414
-0.24914515 0.42001149 -0.11268592
0.12653521 0.42057011 -0.10815072
-0.2273884 0.44265875 -0.10840225
-0.20457338 0.44134492 -0.11844134
0.037869111 0.44115844 -0.11986542
0.060006276 0.44175872 -0.11527932
0.082214959 0.4423627 -0.11066365
0.10449756 0.44297636 -0.10597408
-0.18327612 0.46506324 -0.10634458
-0.16098447 0.46466139 -0.10924506
-0.13873844 0.46426234 -0.11212516
-0.11653695 0.46386403 -0.11499953
-0.094379917 0.46346658 -0.1178683
-0.072267175 0.46306995 -0.120731
-0.028232906 0.46333835 -0.11879361
-0.006193399 0.46397427 -0.11420417
0.015916992 0.46461418 -0.10958517
0.03809873 0.46525633 -0.10495126
-0.072612762 0.4872832 -0.10576665
-0.050430801 0.48688257 -0.10850585
-0.64882678 -0.46520731 -0.10317075
-0.62667018 -0.46521005 -0.10315585
0.4813115 -0.46519628 -0.10323012
0.50347608 -0.46520182 -0.10320044
0.50510585 -0.31128967 -0.093995571
0.4827894 -0.20009068 -0.09450376
-0.60729444 -0.13373989 -0.0897609
0.46078998 -0.089033984 -0.093098879
-0.58382219 -0.044455282 -0.095802546
0.41557097 0.022230957 -0.098188281
-0.53990525 0.066627242 -0.093009114
0.39426669 0.088875003 -0.091737628
-0.51658684 0.11100926 -0.099111676
0.37051883 0.13310587 -0.10320044
0.3491492 0.17767175 -0.096787214
-0.47159901 0.19960031 -0.1028589
0.32776716 0.2224755 -0.089626074
-0.45102236 0.24455884 -0.09256053
0.30454665 0.24419287 -0.098501086
-0.42789462 0.2663804 -0.098620415
0.28307122 0.28913835 -0.091303587
-0.40713307 0.31164595 -0.088276625
0.26000258 0.31064022 -0.10015345
0.23750752 0.33248267 -0.10383856
-0.3840633 0.33335888 -0.094354272
-0.36108837 0.35497934 -0.10042131
0.21552211 0.35485744 -0.10164058
0.23880497 0.35617068 -0.088516593
-0.33906209 0.37730461 -0.099081874
0.19350307 0.37726617 -0.099439144
-0.31733853 0.39999685 -0.094742537
0.17144851 0.39970571 -0.09726429
-0.29554793 0.42275593 -0.090405226
-0.27225614 0.42137751 -0.10159612
0.14936145 0.4221811 -0.095071077
-0.25045103 0.44411623 -0.09726429
0.12724079 0.44469079 -0.092874527
-0.20561178 0.465464 -0.10345292
-0.2285791 0.46692133 -0.09293437
0.060351811 0.46589851 -0.10031724
0.082677163 0.46654469 -0.095653415
0.10508643 0.46723461 -0.090674877
-0.20666116 0.48983696 -0.088306546
-0.18420701 0.48940945 -0.091228724
-0.16179734 0.4889808 -0.09416008
-0.13943379 0.48855504 -0.097070456
-0.11711526 0.48813018 -0.09997499
-0.094841629 0.48770633 -0.10287368
-0.028347801 0.48756069 -0.10386837
-0.006193399 0.48823899 -0.099230766
0.016032631 0.48892173 -0.094563365
0.038330521 0.4896045 -0.089895606
-0.0953082 0.51220125 -0.087721229
-0.072961986 0.51175123 -0.090644836
-0.050662253 0.51131576 -0.0934726
-0.0284639 0.51203722 -0.088786483
-0.63085538 -0.22339445 -0.083739161
0.43954241 -0.022519961 -0.086670518
-0.56332272 0.022056863 -0.086880684
0.41820443 0.044290498 -0.080183268
-0.54335004 0.089008749 -0.074363947
0.39677066 0.11140101 -0.073667049
-0.51987404 0.13362899 -0.080545306
0.37286487 0.15581742 -0.085273266
-0.49649766 0.17805998 -0.086700439
0.35113296 0.20062461 -0.080680966
-0.47424757 0.22264522 -0.086475372
0.32963797 0.24573734 -0.073424578
-0.45356527 0.26794446 -0.076044083
0.30628037 0.26750317 -0.08241415
-0.43030021 0.28984126 -0.082173228
0.28468916 0.31275854 -0.075135946
-0.40942848 0.33545059 -0.071711063
0.26148689 0.33430743 -0.084085107
-0.38622007 0.35723579 -0.077873349
-0.36311159 0.37893066 -0.083994746
0.21670341 0.37868279 -0.086295009
0.24011758 0.3801139 -0.073015094
-0.3408598 0.40129358 -0.083513379
0.19456787 0.40122923 -0.084070206
-0.31901982 0.42414302 -0.079142094
0.17239645 0.42380688 -0.081871867
-0.29711384 0.44706157 -0.074757695
-0.27369177 0.44558319 -0.086054683
0.15019216 0.44642067 -0.07965529
-0.25176972 0.46847939 -0.081691027
0.1279539 0.46906918 -0.077435136
-0.22978155 0.49144459 -0.077314377
0.060700975 0.49029163 -0.085198045
0.083144225 0.49098098 -0.080484867
0.1056816 0.49175221 -0.075211883
-0.20772688 0.51447928 -0.072924376
-0.18514773 0.51401293 -0.075953364
-0.16261882 0.51355708 -0.078915715
-0.14013647 0.51310426 -0.081856847
-0.11769965 0.5126521 -0.084792137
-0.006193399 0.51275873 -0.084100127
0.016149485 0.51348495 -0.079383492
0.038564991 0.514211 -0.074666858
-0.09577924 0.53695285 -0.072423816
-0.073314555 0.5364753 -0.075378299
-0.050896138 0.53600597 -0.078281403
-0.028581224 0.53677142 -0.073545814
0.50981015 -0.29233181 -0.067425728
-0.63671917 -0.20359814 -0.056534648
0.48728499 -0.18011191 -0.067958355
-0.61292517 -0.11314517 -0.062669873
0.46477059 -0.067933984 -0.068475485
-0.5892247 -0.023069948 -0.068809867
0.44233668 -0.00065235794 -0.068521023
-0.56692624 0.044197902 -0.068156123
0.42086872 0.066627145 -0.061967373
-0.54683954 0.11168104 -0.055476189
0.39930823 0.13421077 -0.055353522
-0.52320391 0.15654215 -0.061738372
0.37524235 0.17881426 -0.067106247
-0.49966922 0.20121157 -0.067973375
0.35313895 0.22383502 -0.064394116
-0.47692886 0.24595496 -0.069888949
0.33152807 0.26926014 -0.057055712
-0.45613733 0.29159924 -0.059337735
0.30803517 0.29107615 -0.066131473
-0.43273339 0.31357142 -0.065537572
0.28632531 0.33664444 -0.058786869
-0.4117482 0.35952792 -0.054969788
0.26298928 0.3582418 -0.067821264
-0.38840359 0.38138849 -0.061188221
-0.36515799 0.4031564 -0.067380071
0.21789736 0.40276331 -0.070785284
0.24144305 0.40431333 -0.057362437
-0.34267703 0.42554307 -0.067775726
0.19564304 0.42544758 -0.068551421
0.21910419 0.42710331 -0.055107951
-0.320721 0.44855362 -0.063356996
0.17335454 0.44816658 -0.066314459
-0.29869834 0.47163397 -0.058924437
-0.27514297 0.47005162 -0.070344687
0.15103176 0.47092059 -0.064073801
-0.27660865 0.49478471 -0.054478645
-0.25310406 0.49310914 -0.065933466
0.12867467 0.49370953 -0.061829925
0.06105382 0.51494187 -0.069919348
0.083616219 0.51567537 -0.065156341
-0.23099822 0.51623684 -0.061509132
0.10628257 0.51653111 -0.05959785
-0.20882522 0.53943479 -0.057071209
-0.18609846 0.53887796 -0.060515523
-0.16344899 0.53839391 -0.063509464
-0.14084661 0.53791344 -0.066481948
-0.11829023 0.53743386 -0.069448471
-0.006193399 0.53753722 -0.068809986
0.016267575 0.53830761 -0.064043403
0.038801938 0.53907824 -0.059276462
0.061410412 0.53985393 -0.054478645
-0.096255757 0.56197029 -0.056948662
-0.073671214 0.56146437 -0.059934378
-0.051132731 0.56095982 -0.062914133
-0.028699789 0.56176788 -0.058143616
-0.66055834 -0.49748054 -0.050619841
-0.63799399 -0.49748054 -0.050619841
0.49021095 -0.49746868 -0.050681353
0.51277208 -0.4974657 -0.05069685
0.51460183 -0.27302185 -0.040362358
0.49186668 -0.15976378 -0.04090476
0.46914244 -0.046548016 -0.041431546
-0.59472924 -0.0012808144 -0.041307569
0.44516623 0.021491259 -0.050142527
-0.57057381 0.066627242 -0.049202919
0.4235667 0.089246191 -0.043521404
-0.52657723 0.17975411 -0.042685747
0.37764782 0.20210049 -0.048725128
-0.50288206 0.22466451 -0.049002647
0.35516766 0.24730769 -0.047923446
-0.47964108 0.26953343 -0.053111672
0.33343953 0.29304919 -0.040501833
-0.45873922 0.31552735 -0.042438269
0.30980816 0.31491411 -0.049680591
-0.43519241 0.33757392 -0.048725247
0.28798151 0.36080208 -0.042236805
0.26450723 0.38244462 -0.051389337
-0.41409689 0.38388547 -0.038019538
-0.39061239 0.40582043 -0.044309974
-0.36722803 0.42766187 -0.050573587
0.24278286 0.42877448 -0.041539907
-0.34451231 0.45005527 -0.051881671
0.19673085 0.44992852 -0.052850246
0.22032407 0.45170686 -0.039261341
-0.32243919 0.4732289 -0.047414303
0.17432296 0.47278911 -0.050588965
-0.30030015 0.49647558 -0.042917848
0.15188046 0.49568483 -0.048324227
-0.27809179 0.51979125 -0.038423181
-0.25445291 0.51800823 -0.050003767
0.12940325 0.51861602 -0.046055913
-0.23222822 0.5413003 -0.045530915
0.084092759 0.54062951 -0.049680471
0.10689065 0.5415802 -0.043799758
-0.20993559 0.56466371 -0.041044116
-0.18705933 0.56400853 -0.044912815
-0.16428803 0.56349599 -0.047938824
-0.14156432 0.56298727 -0.050943017
-0.1188871 0.56247944 -0.053941131
-0.006193399 0.56257832 -0.053357482
0.016386919 0.56339425 -0.048540235
0.039041411 0.56421018 -0.04372251
0.061770797 0.56503129 -0.038873315
-0.11949036 0.58779317 -0.03826797
-0.096737377 0.58725506 -0.041307569
-0.074031688 0.58672082 -0.044325471
-0.051372558 0.58618742 -0.047337174
-0.0288195 0.58702755 -0.042592883
-0.006193399 0.58788669 -0.037739992
-0.64269406 -0.18342659 -0.028814554
-0.61866564 -0.092161961 -0.035051107
0.44803172 0.043915991 -0.031530619
-0.5742721 0.089350387 -0.029986024
0.42630124 0.11215295 -0.024824858
-0.55037469 0.13464975 -0.036341548
0.40187582 0.15730926 -0.03682363
-0.5299949 0.20327103 -0.023383141
0.38008583 0.22568327 -0.0300951
-0.50613701 0.24842492 -0.029782891
0.35722128 0.27104795 -0.031249881
-0.48238468 0.29338497 -0.036139607
0.33537281 0.31710905 -0.023759365
-0.46136895 0.33973256 -0.025357604
0.31160125 0.33902261 -0.03304255
-0.43768221 0.36185631 -0.031702161
0.28965503 0.38523328 -0.025514126
0.26604381 0.40692362 -0.034755349
-0.39284682 0.43053633 -0.027235627
-0.36932206 0.45245129 -0.033572197
0.24413723 0.45350179 -0.025545478
-0.34636953 0.47483867 -0.035797477
0.19783045 0.47467485 -0.03697896
0.22155724 0.47657847 -0.023241758
-0.32417789 0.49817759 -0.031280994
0.17530189 0.49767852 -0.034693122
-0.30191809 0.52158827 -0.026750803
0.15273836 0.52071804 -0.032403708
-0.2795898 0.54507101 -0.022206545
-0.25581533 0.54317814 -0.033914804
0.13013972 0.5437932 -0.030110717
-0.23347056 0.56663704 -0.0293926
0.084574856 0.56585252 -0.034023881
0.10750533 0.56690162 -0.027830005
-0.21105713 0.59016782 -0.02485621
-0.18802957 0.58940613 -0.029158235
-0.16513607 0.58886743 -0.032201171
-0.14228971 0.58832979 -0.035237789
0.016507417 0.58874595 -0.032886863
0.039283443 0.58961087 -0.028001785
0.062134691 0.59047598 -0.023116469
-0.12010011 0.61337948 -0.022426128
-0.097224168 0.61281192 -0.025498509
-0.074396029 0.61224824 -0.028548837
-0.051614951 0.61168581 -0.031592965
-0.028940607 0.61256027 -0.026860237
-0.006193399 0.61346656 -0.021955371
0.49653423 -0.13903415 -0.013344288
-0.62451249 -0.070777021 -0.0069202185
0.47359625 -0.024761356 -0.013880968
-0.6003387 0.02092367 -0.013281107
0.45093381 0.06662719 -0.012681007
-0.5780192 0.1123732 -0.010515451
0.42907315 0.13535357 -0.0058734417
-0.55395347 0.15792057 -0.016971111
0.40447614 0.18070215 -0.018057466
0.38255295 0.24956658 -0.011242867
-0.50943494 0.27249873 -0.010309696
0.35929647 0.2950584 -0.014401674
-0.48551911 0.31770256 -0.016750574
0.33733001 0.34144583 -0.0068092346
-0.46403185 0.36422223 -0.0080616474
0.31341648 0.36340773 -0.016199112
-0.44020104 0.38642237 -0.014480472
-0.41647294 0.4085269 -0.020871878
0.29134926 0.40994567 -0.0085842609
0.26759645 0.43168029 -0.017947197
-0.39510742 0.45554122 -0.0099617243
-0.37143859 0.47752807 -0.016388178
0.24550644 0.47849959 -0.0093761683
-0.34824726 0.49989542 -0.019536138
0.19894202 0.4996908 -0.02093482
0.22280391 0.50172216 -0.0070471764
-0.32593581 0.52340209 -0.014969587
0.17629153 0.52283937 -0.018623829
0.20006578 0.52498108 -0.0047146082
-0.30355549 0.54698139 -0.010388851
0.15360561 0.54602426 -0.0163095
-0.28110591 0.57063347 -0.0057940483
-0.2571941 0.56862873 -0.017632365
0.13088425 0.56924516 -0.013991237
-0.23472783 0.59225643 -0.013060093
0.085062131 0.59134656 -0.018199086
0.10812672 0.59249979 -0.011685491
-0.18901123 0.61508065 -0.013217926
-0.16599326 0.61451232 -0.016293645
-0.14302292 0.61394536 -0.019363165
0.016629331 0.61437273 -0.017049789
0.039528083 0.61528498 -0.012112379
-0.21219216 0.6159572 -0.0084733963
0.062502861 0.61619741 -0.007174015
-0.12071647 0.63924265 -0.0064128637
-0.097716227 0.63864493 -0.0095186234
-0.074764311 0.63805145 -0.012601852
-0.051859964 0.63745934 -0.015679002
-0.029063022 0.63836771 -0.010958195
-0.006193399 0.63932192 -0.0060002804
-0.64973199 -0.53094429 0.0038374662
-0.62674844 -0.53094429 0.0038374662
0.49944139 -0.53094119 0.0038214922
0.52242196 -0.53093797 0.0038055182
-0.62718034 -0.50836062 0.0059152842
-0.62802583 -0.48611268 0.009983182
0.59299362 -0.25601199 0.01190877
0.61559904 -0.25578368 0.0097907782
0.63838995 -0.25566453 0.0086847544
0.66116053 -0.25554356 0.007563591
0.68391401 -0.25542298 0.0064431429
0.70665038 -0.25530225 0.0053236485
0.68490934 -0.23285067 0.010753155
0.70735693 -0.23260355 0.0082843304
0.73061937 -0.23270303 0.0092778206
0.45387575 0.089630619 0.0064271688
-0.58181608 0.13570189 0.009213686
-0.55758262 0.1815 0.0026720762
0.407112 0.20439571 0.00096547604
-0.5334577 0.22709894 -0.0038250685
0.38505179 0.27375689 0.0078516006
-0.51277667 0.29689232 0.0094220638
0.36139548 0.31934455 0.0026400089
-0.48869249 0.34234095 0.0028795004
0.33930793 0.36606181 0.010320067
-0.46672609 0.38900003 0.0094379187
0.3152509 0.38807148 0.00082194805
-0.44274953 0.41127679 0.0029432774
-0.41887686 0.4334569 -0.0035231113
0.29306144 0.43494081 0.0085244179
0.26916695 0.45672098 -0.00094616413
-0.39739248 0.480838 0.0074994564
-0.37358189 0.50290108 0.001013279
0.24689069 0.5037725 0.00697124
-0.350144 0.52522784 -0.0031099319
0.22406429 0.52714258 0.0093256235
-0.32771158 0.54890448 0.0015076399
0.17729197 0.54827636 -0.0023784637
0.20120192 0.55054969 0.01168406
-0.3052111 0.57265717 0.0061551332
0.15448238 0.57160825 -3.8504601e-05
-0.28263894 0.5964812 0.010801315
-0.25858819 0.59436184 -0.0011690855
0.13163695 0.5949769 0.0023050308
-0.23599911 0.61816084 0.0034542084
0.085554674 0.61711556 -0.0022033453
0.10875495 0.61837924 0.0046362877
-0.21333985 0.64203393 0.0080919266
-0.19000357 0.64103401 0.0028955936
-0.16685975 0.64043552 -0.00021374226
-0.14376409 0.63983858 -0.0033165216
0.016752562 0.64027619 -0.00104177
0.039775364 0.64123684 0.0039491653
0.062875025 0.64219743 0.0089411736
-0.12133953 0.66538709 0.0097745657
-0.098213628 0.6647588 0.0066350698
-0.075136587 0.66413486 0.0035181046
-0.052107632 0.66351223 0.00040769577
-0.029186761 0.66445464 0.0051158667
-0.006193399 0.66545773 0.010127544
-0.62887359 -0.4638041 0.014062047
0.57298315 -0.28087875 0.027680159
0.59429812 -0.27981019 0.018426538
0.61723644 -0.27972272 0.017668605
0.64016318 -0.27963525 0.016911268
0.66307831 -0.27954784 0.01615417
0.68598193 -0.27946037 0.015397549
0.70893538 -0.27940282 0.014898539
0.54975915 -0.25767845 0.027371883
0.57132024 -0.25678048 0.019039631
0.73134273 -0.25604486 0.012213826
0.75703973 -0.25716862 0.022641897
0.54925007 -0.23423803 0.024616361
0.5716185 -0.23383501 0.020589232
0.59442085 -0.23367995 0.019039631
0.61721295 -0.23353136 0.017555952
0.63981956 -0.23330736 0.015316963
0.66238165 -0.23307881 0.01303339
0.75468463 -0.2331126 0.013370991
0.77946597 -0.23377189 0.01995945
0.73408282 -0.21097639 0.023337483
0.75587058 -0.21048701 0.018039703
0.77902675 -0.21050924 0.018281341
0.80304801 -0.21082699 0.021720409
0.80466688 -0.1882146 0.027728915
0.50129008 -0.11791221 0.014737725
-0.630472 -0.048980013 0.021752715
0.47813162 -0.0025620759 0.0141747
-0.60605615 0.043555558 0.015284896
0.45685321 0.11293186 0.025766611
0.43187848 0.15885285 0.013306618
-0.5612601 0.20539388 0.022577286
0.4097797 0.22839457 0.020217896
-0.5369637 0.25124291 0.015977144
0.38758507 0.29826167 0.02720964
0.36351871 0.34391123 0.019878864
-0.49191079 0.36730945 0.022787452
0.3413088 0.39096254 0.027647734
-0.4694497 0.41406947 0.027128577
0.31710821 0.41302174 0.018055558
-0.44532573 0.43642277 0.020556808
-0.42130688 0.45867872 0.014014125
0.29479337 0.46022522 0.025831342
0.27075705 0.48205289 0.016266942
-0.39970669 0.50643617 0.025183201
-0.37575048 0.52857351 0.018620253
0.24833548 0.52940708 0.024033427
-0.35206375 0.55084568 0.013515592
0.22533864 0.55284441 0.025879979
-0.32950893 0.57469451 0.018184662
0.17830345 0.57399356 0.014046192
0.20235066 0.57640159 0.028264523
-0.30688366 0.59861761 0.022868395
0.15536883 0.59747446 0.016411781
-0.28418767 0.62261581 0.027566552
-0.25999647 0.62037933 0.015461922
0.13239722 0.62098974 0.018765211
-0.23728336 0.6443522 0.020137072
0.086052552 0.64316452 0.013965964
0.10939012 0.64454478 0.02113843
-0.21449926 0.66839981 0.024826765
-0.19100672 0.66727054 0.019184709
-0.16773567 0.66664141 0.016041517
-0.14451332 0.66601354 0.012904882
0.016877126 0.66646099 0.015140176
0.040025335 0.66747087 0.020185709
0.063251242 0.66848087 0.025231838
-0.12196878 0.6918143 0.026123047
-0.098716468 0.69115794 0.022965431
-0.075512931 0.69050294 0.019814253
-0.052358005 0.6898495 0.016669631
-0.029311845 0.69082528 0.021364689
-0.006193399 0.69187832 0.026431322
0.48312491 -0.53919536 0.045062542
0.59792227 -0.30513626 0.036533952
0.62114733 -0.30513024 0.036484957
0.64437515 -0.30512631 0.036452413
0.66760242 -0.30512226 0.036419749
0.69082922 -0.3051182 0.036386967
0.71546823 -0.30584338 0.042274475
0.55200428 -0.28224641 0.039524198
0.73568863 -0.28112999 0.029856324
0.52829754 -0.25871518 0.036991119
0.7839365 -0.2587204 0.037040114
0.52720702 -0.23486006 0.030831695
0.80538899 -0.23481768 0.030408978
0.52847105 -0.21232817 0.037971139
0.55224609 -0.21259263 0.040833116
0.71497983 -0.2125366 0.040227532
0.83046454 -0.21225879 0.037219763
0.78323197 -0.18877509 0.03434813
0.82892865 -0.18854895 0.031677604
0.85587806 -0.16636509 0.044848919
0.83084482 -0.16588333 0.0385921
0.50613678 -0.096386991 0.04335618
0.48275629 0.020060591 0.042782426
-0.61188138 0.06662719 0.044389606
0.4598695 0.13653657 0.045358062
-0.58730954 0.15960568 0.037758708
0.43472016 0.18265703 0.032735467
-0.564987 0.2296086 0.042749524
0.41248435 0.25270611 0.039736748
-0.54051965 0.27571136 0.036060572
-0.51616299 0.32161209 0.029417515
0.36566865 0.36876515 0.037334085
-0.49517223 0.39261305 0.04296267
0.34333292 0.4161534 0.045177341
-0.47220826 0.43943906 0.045046091
0.31898537 0.43826011 0.035473347
-0.4479349 0.46186954 0.038396001
-0.42376795 0.48420173 0.031774998
0.29654717 0.48580652 0.04335618
0.27236408 0.50767654 0.033663988
-0.40204844 0.53233904 0.043077469
-0.37794483 0.55455095 0.0364362
0.24981767 0.55537575 0.041537285
-0.35400504 0.57675087 0.030327678
0.22662719 0.57883251 0.042618513
