ply
format ascii 1.0
comment PCL generated
element vertex 1352
property float x
property float y
property float z
element camera 0
property float view_px
property float view_py
property float view_pz
property float x_axisx
property float x_axisy
property float x_axisz
property float y_axisx
property float y_axisy
property float y_axisz
property float z_axisx
property float z_axisy
property float z_axisz
property float focal
property float scalex
property float scaley
property float centerx
property float centery
property int viewportx
property int viewporty
property float k1
property float k2
end_header
0.10676637 0.21021992 -0.088597953
-0.23828599 0.22654673 -0.082785785
0.10676637 0.22587566 -0.088597894
-0.22205681 0.24159652 -0.088069201
0.10676637 0.24153137 -0.088597834
-0.20591059 0.25656712 -0.093334973
0.10676698 0.25718835 -0.088588238
0.10676698 0.27284417 -0.088588059
0.10676698 0.28849995 -0.088588238
0.10676698 0.30415583 -0.088588238
0.10676698 0.31981155 -0.088588238
-0.12799942 0.33524534 -0.089899123
0.10676698 0.33546743 -0.088588119
0.10676757 0.35112491 -0.088578463
-0.080946587 0.36584255 -0.09365648
0.10676757 0.36678079 -0.088578403
0.10676757 0.38243663 -0.088578463
0.10676757 0.39809263 -0.088578463
0.10676698 0.41374642 -0.088588238
0.10676698 0.42940214 -0.088588119
0.12312488 -0.43377322 -0.078454256
0.12312556 -0.41804138 -0.078444362
0.12312556 -0.40230751 -0.078444362
0.12312625 -0.38657543 -0.078434527
0.12312625 -0.3708415 -0.078434467
0.12312625 -0.35510749 -0.078434527
0.12312625 -0.33937353 -0.078434467
0.12312556 -0.32363802 -0.078444362
0.12312556 -0.30790415 -0.078444362
0.12312556 -0.29217029 -0.078444421
0.12312556 -0.27643642 -0.078444421
0.12312556 -0.26070252 -0.078444362
0.12312556 -0.24496862 -0.078444362
-0.23842615 -0.22890703 -0.081485212
0.12312556 -0.22923476 -0.078444362
0.12312556 -0.21350081 -0.078444421
0.12312625 -0.1977679 -0.078434467
0.12312625 -0.18203388 -0.078434527
0.12312625 -0.16629994 -0.078434467
0.12312625 -0.15056598 -0.078434467
0.12312625 -0.13483196 -0.078434527
0.12312625 -0.11909802 -0.078434467
0.12312625 -0.10336402 -0.078434527
-0.30225918 -0.087787963 -0.074332535
0.12312625 -0.087630041 -0.078434467
-0.30142251 -0.071836494 -0.080370605
0.12312625 -0.071896173 -0.078434467
0.12312625 -0.056162156 -0.078434527
0.12312556 -0.04042799 -0.078444421
0.12312556 -0.024694124 -0.078444362
0.12312556 -0.0089602564 -0.078444421
0.12312556 0.0067736488 -0.078444362
0.12312556 0.022507517 -0.078444362
0.12312556 0.038241386 -0.078444362
0.12312556 0.053975254 -0.078444302
-0.30119979 0.069573134 -0.081978142
0.12312556 0.069709159 -0.078444302
-0.30177715 0.085472293 -0.07781136
0.12312488 0.085442647 -0.078454256
-0.30235413 0.10143547 -0.07364738
0.12312488 0.10117644 -0.078454256
0.12312488 0.11691026 -0.078454256
-0.28564405 0.13247986 -0.080824673
0.12312488 0.13264401 -0.078454196
0.12312488 0.14837784 -0.078454196
0.12312419 0.16411084 -0.078464091
0.12312419 0.1798446 -0.07846415
0.12312419 0.19557828 -0.078464091
-0.25530237 0.21207443 -0.071389794
0.12312419 0.211312 -0.07846415
0.12312419 0.22704569 -0.078464091
0.12312419 0.24277955 -0.078464091
0.12312488 0.25851458 -0.078454196
0.12312488 0.27424833 -0.078454256
0.12312488 0.2899822 -0.078454256
0.12312488 0.3057161 -0.078454196
-0.17633995 0.30676067 -0.071668565
0.12312488 0.32144979 -0.078454196
0.12312488 0.33718365 -0.078454196
0.12312556 0.35291919 -0.078444302
0.12312556 0.36865309 -0.078444302
-0.065844029 0.3857446 -0.071389794
0.12312556 0.38438693 -0.078444302
0.12312556 0.40012085 -0.078444421
0.12312488 0.4158527 -0.078454196
0.12312419 0.43158433 -0.07846415
0.15633467 -0.43804944 -0.057880342
0.13964662 -0.4359006 -0.068218887
0.13964739 -0.42008996 -0.068208873
0.1563355 -0.42215919 -0.057870328
0.13964739 -0.40427732 -0.068208873
0.1563355 -0.40626702 -0.057870209
0.13964814 -0.38846648 -0.068198919
0.1563355 -0.39037478 -0.057870269
0.15633637 -0.37448421 -0.057860315
0.13964814 -0.37265375 -0.0681988
-0.11351171 -0.35741189 -0.064827681
0.13964814 -0.35684097 -0.068198919
0.15633637 -0.35859182 -0.057860196
0.13964814 -0.34102821 -0.068198919
0.15633637 -0.34269956 -0.057860196
-0.16102645 -0.3257314 -0.064847708
0.13964739 -0.32521394 -0.068208754
0.1563355 -0.32680559 -0.057870328
-0.17702717 -0.3102009 -0.062741339
0.13964739 -0.30940115 -0.068208873
0.1563355 -0.31091335 -0.057870328
-0.19306067 -0.29463863 -0.06063062
0.13964739 -0.29358852 -0.068208933
0.1563355 -0.29502112 -0.057870209
-0.20912799 -0.27904567 -0.058505654
0.13964739 -0.27777582 -0.068208873
0.1563355 -0.27912885 -0.057870269
0.13964739 -0.26196319 -0.068208873
0.1563355 -0.26323655 -0.057870269
0.13964739 -0.24615051 -0.068208814
0.1563355 -0.2473443 -0.057870328
0.13964739 -0.23033783 -0.068208873
0.1563355 -0.23145199 -0.057870328
-0.25606242 -0.21486548 -0.064807653
0.13964739 -0.21452512 -0.068208814
0.1563355 -0.21555969 -0.057870328
0.13964814 -0.19871339 -0.0681988
0.15633637 -0.19966841 -0.057860196
-0.27173352 -0.18307251 -0.066169441
0.13964814 -0.18290061 -0.068198919
0.15633637 -0.1837761 -0.057860196
0.13964814 -0.16708787 -0.068198919
0.15633637 -0.16788377 -0.057860196
-0.28738263 -0.1513208 -0.067539454
0.13964814 -0.15127516 -0.0681988
0.15633637 -0.15199137 -0.057860136
0.13964814 -0.13546234 -0.068198919
0.15633637 -0.13609904 -0.057860136
-0.30394602 -0.11997507 -0.062158883
0.13964814 -0.1196496 -0.068198919
0.15633637 -0.12020665 -0.057860315
-0.30309939 -0.10383362 -0.068268776
0.13964814 -0.10383688 -0.0681988
0.15633637 -0.1043143 -0.057860196
0.13964814 -0.088024065 -0.068198919
0.15633637 -0.088421963 -0.057860196
0.13964814 -0.072211318 -0.0681988
0.15633637 -0.072529651 -0.057860196
0.13964814 -0.056398526 -0.068198919
0.15633637 -0.056637324 -0.057860196
-0.320232 -0.040723719 -0.059241354
0.13964739 -0.04058563 -0.068208873
0.1563355 -0.040744804 -0.057870328
-0.31933728 -0.024794837 -0.065358639
0.13964739 -0.024773 -0.068208814
0.1563355 -0.024852475 -0.057870328
-0.31866935 -0.0089602945 -0.069925129
0.13964739 -0.0089602945 -0.068208814
0.1563355 -0.0089602564 -0.057870328
-0.31928602 0.0068716612 -0.065708935
0.13964739 0.0068524107 -0.068208814
0.1563355 0.0069319252 -0.057870209
-0.31990671 0.022768868 -0.061465383
0.13964739 0.022665078 -0.068208814
0.1563355 0.022824218 -0.057870269
0.13964739 0.038477786 -0.068208814
0.1563355 0.038716547 -0.057870209
0.13964739 0.054290488 -0.068208933
0.1563355 0.054608807 -0.057870269
0.13964662 0.070102744 -0.068218887
0.15633467 0.070500687 -0.057880402
0.13964662 0.085915379 -0.068218887
0.15633467 0.086392865 -0.057880342
0.13964662 0.10172801 -0.068218946
0.15633467 0.10228512 -0.057880402
-0.30395576 0.11791809 -0.062088549
0.13964662 0.11754057 -0.068218768
0.15633467 0.11817724 -0.057880342
0.13964662 0.13335319 -0.068218768
0.15633467 0.1340694 -0.057880402
-0.287689 0.14939828 -0.065198302
0.13964662 0.14916581 -0.068218887
0.15633467 0.14996171 -0.057880402
0.13964584 0.16497754 -0.068228781
0.1563338 0.16585296 -0.057890415
-0.27147126 0.18078363 -0.068298757
0.13964584 0.18079007 -0.068228781
0.1563338 0.18174511 -0.057890475
0.13964584 0.19660269 -0.068228841
0.1563338 0.19763723 -0.057890475
0.13964584 0.21241517 -0.068228781
0.1563338 0.21352933 -0.057890415
0.13964584 0.22822765 -0.0682289
0.1563338 0.22942142 -0.057890534
0.13964584 0.24404016 -0.068228781
0.1563338 0.24531353 -0.057890475
0.13964662 0.25985405 -0.068218887
0.15633467 0.26120707 -0.057880402
-0.20890471 0.27667767 -0.060922384
0.13964662 0.27566662 -0.068218887
0.15633467 0.27709916 -0.057880342
-0.19257891 0.29175696 -0.066319466
0.13964662 0.29147917 -0.068218768
0.15633467 0.2929914 -0.057880402
0.13964662 0.30729178 -0.068218887
0.15633467 0.30888352 -0.057880342
-0.16110563 0.32383415 -0.063704789
0.13964662 0.32310453 -0.068218887
0.15633467 0.3247757 -0.057880402
0.13964662 0.33891711 -0.068218887
0.15633467 0.34066784 -0.057880402
-0.11338553 0.35484642 -0.067559481
0.13964739 0.35473144 -0.068208814
0.1563355 0.35656187 -0.057870269
0.13964739 0.37054408 -0.068208814
0.1563355 0.3724542 -0.057870269
0.13964739 0.38635677 -0.068208814
0.1563355 0.38834637 -0.057870328
0.13964739 0.40216953 -0.068208754
0.1563355 0.40423873 -0.057870328
0.013218511 0.41896215 -0.063494146
0.13964662 0.41798002 -0.068218887
0.15633467 0.42012879 -0.057880342
0.13964662 0.43379259 -0.068218887
0.15633467 0.43602103 -0.057880402
0.17319152 -0.44021997 -0.047437429
0.17319247 -0.42424944 -0.047427118
0.17319247 -0.40827671 -0.047427237
-0.066263892 -0.39123586 -0.053209186
0.17319247 -0.39230415 -0.047427118
0.17319342 -0.37633324 -0.047416866
0.17319342 -0.36036053 -0.047416925
0.17319342 -0.34438774 -0.047416985
0.17319247 -0.32841346 -0.047427237
0.17319247 -0.31244084 -0.047427118
0.17319247 -0.29646808 -0.047427118
0.17319247 -0.28049552 -0.047427118
-0.22522745 -0.26341939 -0.056386292
0.17319247 -0.26452285 -0.047427058
0.17319247 -0.24855015 -0.047427118
-0.24136111 -0.24776205 -0.054252446
-0.25818118 -0.23268189 -0.046458721
0.17319247 -0.2325775 -0.047427058
0.17319247 -0.21660483 -0.047427237
-0.27399054 -0.20059355 -0.047844827
0.17319342 -0.20063315 -0.047416925
0.17319342 -0.18466036 -0.047416985
-0.28977749 -0.16854735 -0.049239516
0.17319342 -0.16868767 -0.047416925
0.17319342 -0.15271494 -0.047416925
-0.30554461 -0.13654479 -0.050621927
0.17319342 -0.13674214 -0.047416925
0.17319342 -0.1207694 -0.047416985
0.17319342 -0.10479674 -0.047416925
0.17319342 -0.088823944 -0.047416925
-0.32204047 -0.072867855 -0.046876729
0.17319342 -0.072851159 -0.047416985
-0.32113352 -0.056747757 -0.053077519
0.17319342 -0.056878529 -0.047416925
0.17319247 -0.040905632 -0.047427118
0.17319247 -0.024932964 -0.047427118
0.17319247 -0.0089602564 -0.047427118
0.17319247 0.0070123747 -0.047427237
0.17319247 0.022985047 -0.047427118
-0.32052848 0.038731672 -0.057214439
0.17319247 0.038957715 -0.047427237
-0.3211543 0.054760739 -0.0529356
0.17319247 0.054930389 -0.047427118
-0.32178122 0.070856042 -0.048649311
0.17319152 0.070902646 -0.04743737
0.17319152 0.086875238 -0.04743737
0.17319152 0.10284775 -0.04743737
0.17319152 0.11882035 -0.047437251
-0.30616111 0.1348806 -0.046173036
0.17319152 0.13479298 -0.047437251
0.17319059 0.15076482 -0.047447562
-0.28976551 0.1665778 -0.04933095
0.17319059 0.16673727 -0.047447503
0.17319059 0.18270972 -0.047447503
-0.27341974 0.19817874 -0.052479386
0.17319059 0.1986822 -0.047447562
0.17319059 0.21465482 -0.047447562
0.17319059 0.23062725 -0.047447562
-0.24181479 0.24628016 -0.050042689
0.17319059 0.24659973 -0.047447562
-0.22531644 0.26151893 -0.055496871
0.17319152 0.26257366 -0.04743737
0.17319152 0.27854621 -0.04743737
0.17319152 0.29451883 -0.047437251
0.17319152 0.31049129 -0.04743737
0.17319152 0.32646391 -0.04743737
0.17319152 0.34243649 -0.047437251
0.17319152 0.35840917 -0.04743737
0.17319247 0.3743836 -0.047427118
0.17319247 0.39035618 -0.047427118
0.17319247 0.40632883 -0.047427118
0.17319152 0.42229941 -0.047437251
0.17319247 0.43827423 -0.047427058
0.19021982 -0.44241261 -0.036888003
0.19022086 -0.42636088 -0.036877811
0.19022086 -0.41030696 -0.036877811
0.19022188 -0.39425504 -0.036867499
0.19022188 -0.37820107 -0.036867499
0.19022188 -0.36214715 -0.03686744
-0.14648768 -0.34498185 -0.043742001
0.19022188 -0.34609309 -0.036867499
0.19022086 -0.33003765 -0.036877871
0.19022086 -0.31398383 -0.036877751
0.19022086 -0.29792994 -0.036877751
0.19022086 -0.28187606 -0.036877811
0.19022086 -0.26582217 -0.036877811
0.19022086 -0.24976829 -0.036877811
0.19022086 -0.23371442 -0.036877811
0.19022188 -0.21766157 -0.036867499
0.19022188 -0.20160766 -0.036867499
0.19022188 -0.18555368 -0.036867499
0.19022188 -0.16949975 -0.03686744
0.19022188 -0.1534458 -0.03686744
0.19022188 -0.13739182 -0.036867619
0.19022188 -0.1213379 -0.036867499
-0.32386926 -0.10539913 -0.034373283
0.19022188 -0.10528394 -0.036867499
-0.32295287 -0.089084886 -0.040638685
0.19022188 -0.089230008 -0.036867499
0.19022188 -0.073176041 -0.03686744
0.19022188 -0.057122134 -0.03686744
0.19022188 -0.041068226 -0.03686744
0.19022086 -0.025014166 -0.036877811
-0.33966145 -0.0089602945 -0.03619808
0.19022086 -0.0089602945 -0.036877811
0.19022086 0.0070936158 -0.036877811
0.19022086 0.023147488 -0.036877811
0.19022086 0.039201394 -0.036877811
0.19022086 0.055255234 -0.036877811
0.19022086 0.071309067 -0.036877751
-0.32240927 0.08701764 -0.044355333
0.19021982 0.087362446 -0.036888063
-0.32303989 0.10324623 -0.040043533
0.19021982 0.10341629 -0.036888182
0.19021982 0.11947 -0.036888063
0.19021982 0.13552384 -0.036888182
0.19021982 0.15157756 -0.036888003
0.19021878 0.16763049 -0.036898375
-0.29187429 0.18402436 -0.033216953
0.19021878 0.18368433 -0.036898375
0.19021878 0.19973795 -0.036898375
-0.2753984 0.21584377 -0.036414444
0.19021878 0.2157917 -0.036898375
-0.2584016 0.23096187 -0.044549525
0.19021878 0.23184536 -0.036898494
0.19021982 0.24790034 -0.036888063
0.19021982 0.26395416 -0.036888182
0.19021982 0.2800079 -0.036888003
0.19021982 0.29606172 -0.036888182
-0.19540298 0.31271887 -0.032968998
0.19021982 0.31211546 -0.036888003
0.19021982 0.32816929 -0.036888063
-0.14666995 0.34356359 -0.040782154
0.19021982 0.34422308 -0.036888182
0.19021982 0.36027679 -0.036888063
-0.098446816 0.37488315 -0.044723153
0.19022086 0.37633255 -0.036877811
0.19022086 0.3923865 -0.036877811
0.19022086 0.40844032 -0.036877811
0.19021982 0.42449206 -0.036888182
0.19022086 0.44054803 -0.036877811
0.20742214 -0.44462761 -0.026230991
0.20742324 -0.42849383 -0.02622062
0.20742324 -0.41235793 -0.02622056
0.20742324 -0.39622203 -0.02622062
-0.098941021 -0.37908348 -0.031883538
0.20742437 -0.38008803 -0.026210189
0.20742437 -0.36395198 -0.026210248
0.20742324 -0.34781432 -0.02622062
-0.18014652 -0.33229446 -0.022219598
0.20742324 -0.33167842 -0.02622062
-0.19627875 -0.3160682 -0.022626758
0.20742324 -0.31554246 -0.026220679
-0.21264595 -0.30021 -0.020422399
0.20742324 -0.29940659 -0.026220679
0.20742324 -0.28327072 -0.02622062
0.20742324 -0.26713482 -0.02622062
0.20742324 -0.25099891 -0.02622056
0.20742324 -0.23486294 -0.02622062
-0.27628812 -0.2184298 -0.029190779
0.20742437 -0.21872808 -0.026210189
0.20742437 -0.2025921 -0.026210248
-0.29221538 -0.18608353 -0.030610502
0.20742437 -0.18645616 -0.026210189
0.20742437 -0.17032012 -0.026210248
-0.30812249 -0.15378179 -0.032017946
0.20742437 -0.15418415 -0.026210189
0.20742437 -0.1380482 -0.026210248
-0.32479268 -0.12181257 -0.028059661
0.20742437 -0.12191223 -0.026210189
0.20742437 -0.10577615 -0.026210189
0.20742437 -0.089640275 -0.026210189
0.20742437 -0.073504224 -0.026210248
0.20742437 -0.057368256 -0.026210189
-0.34137863 -0.041250214 -0.025044858
0.20742437 -0.041232243 -0.026210248
-0.34040537 -0.025056606 -0.03136611
0.20742324 -0.025096193 -0.026220679
0.20742324 -0.0089602564 -0.026220679
-0.3403337 0.0071324147 -0.031831741
0.20742324 0.007175643 -0.02622062
-0.34100717 0.02329248 -0.027457416
0.20742324 0.023311542 -0.02622056
-0.34168509 0.039520539 -0.023054361
0.20742324 0.039447516 -0.026220679
0.20742324 0.055583417 -0.02622062
0.20742324 0.071719237 -0.02622062
0.20742214 0.087854654 -0.026230991
0.20742214 0.10399047 -0.026230991
-0.32497653 0.12009114 -0.026802897
0.20742214 0.12012634 -0.026230991
0.20742214 0.13626216 -0.026230991
-0.30840075 0.1521071 -0.030009568
0.20742214 0.15239799 -0.026230991
0.20742103 0.16853294 -0.026241422
0.20742103 0.18466866 -0.026241481
0.20742103 0.20080441 -0.026241422
0.20742103 0.21694013 -0.026241422
0.20742103 0.23307596 -0.026241422
0.20742214 0.24921295 -0.02623105
0.20742214 0.26534879 -0.02623105
-0.2286832 0.28209108 -0.021854043
0.20742214 0.28148466 -0.02623105
-0.21199703 0.29744267 -0.027447164
0.20742214 0.29762051 -0.02623105
0.20742214 0.31375635 -0.02623105
0.20742214 0.32989216 -0.02623105
0.20742214 0.34602797 -0.02623105
0.20742214 0.36216381 -0.02623105
0.20742324 0.3783015 -0.02622056
0.20742324 0.3944374 -0.026220679
0.20742324 0.41057339 -0.02622062
0.20742214 0.42670709 -0.026230931
0.20742324 0.44284517 -0.02622056
0.22480118 -0.44686544 -0.015464544
0.2248024 -0.4306488 -0.015453935
0.2248024 -0.41442999 -0.015454054
0.2248024 -0.39821124 -0.015453935
0.2248036 -0.38199425 -0.015443504
-0.13229874 -0.36667809 -0.010113537
0.2248036 -0.36577538 -0.015443504
0.2248024 -0.34955484 -0.015454054
0.2248024 -0.33333606 -0.015454054
0.2248024 -0.3171173 -0.015454054
0.2248024 -0.30089843 -0.015454054
-0.22904646 -0.28431723 -0.01822412
0.2248024 -0.28467971 -0.015453935
-0.24548137 -0.26839101 -0.016021252
0.2248024 -0.2684609 -0.015454113
-0.26195189 -0.25243264 -0.013803184
0.2248024 -0.25224209 -0.015453935
-0.27862743 -0.23658977 -0.010198057
0.2248024 -0.23602329 -0.015454113
0.2248036 -0.21980555 -0.015443504
-0.29469749 -0.20393774 -0.011643648
0.2248036 -0.20358668 -0.015443504
0.2248036 -0.18736783 -0.015443504
-0.31074703 -0.17133115 -0.013076723
0.2248036 -0.17114902 -0.015443444
0.2248036 -0.15493014 -0.015443444
-0.32677326 -0.13876818 -0.014518499
0.2248036 -0.13871121 -0.015443444
0.2248036 -0.12249234 -0.015443504
0.2248036 -0.10627346 -0.015443504
0.2248036 -0.090054616 -0.015443504
-0.34334612 -0.073933572 -0.012265682
0.2248036 -0.07383579 -0.015443504
-0.34235939 -0.05754225 -0.018674731
0.2248036 -0.057616889 -0.015443444
0.2248036 -0.041397989 -0.015443504
0.2248024 -0.025179045 -0.015454054
0.2248024 -0.0089602564 -0.015453935
0.2248024 0.0072585326 -0.015454054
0.2248024 0.023477284 -0.015454054
0.2248024 0.039696075 -0.015454054
-0.34236422 0.055816665 -0.01864326
0.2248024 0.055914864 -0.015453935
-0.34304622 0.072181463 -0.014213502
0.22480118 0.07213328 -0.015464544
-0.34372947 0.088614702 -0.0097755194
0.22480118 0.088351957 -0.015464485
0.22480118 0.10457063 -0.015464485
0.22480118 0.12078941 -0.015464544
-0.3273851 0.13736345 -0.010335386
0.22480118 0.1370081 -0.015464544
0.22480118 0.15322678 -0.015464544
-0.31067556 0.16960399 -0.013592601
0.22479996 0.1694447 -0.015475035
0.22479996 0.1856633 -0.015475035
-0.29401472 0.20174314 -0.016861022
0.22479996 0.2018819 -0.015475035
0.22479996 0.2181005 -0.015475035
0.22479996 0.23431909 -0.015475035
-0.26232675 0.25114354 -0.010556996
0.22480118 0.25053912 -0.015464544
-0.24545985 0.26665881 -0.016220748
0.22480118 0.26675773 -0.015464544
0.22480118 0.28297645 -0.015464485
0.22480118 0.2991952 -0.015464365
0.22480118 0.31541383 -0.015464544
-0.18083331 0.33198288 -0.013297915
0.22480118 0.33163258 -0.015464544
0.22480118 0.34785134 -0.015464485
-0.13190915 0.36373734 -0.017343462
0.22480118 0.36406988 -0.015464544
0.2248024 0.38029066 -0.015454054
0.2248024 0.39650938 -0.015453875
0.2248024 0.41272822 -0.015454054
0.2248024 0.42894703 -0.015454054
0.2248036 0.44516799 -0.015443385
0.24236098 -0.44912851 -0.0045762062
0.24236098 -0.43282595 -0.0045762062
0.24236098 -0.41652337 -0.0045762658
0.24236098 -0.4002209 -0.0045761466
0.24236229 -0.38392031 -0.004565537
0.24236229 -0.36761758 -0.0045656562
0.24236098 -0.35131332 -0.0045762062
0.24236098 -0.3350108 -0.0045762658
0.24236098 -0.31870821 -0.0045762658
0.24236098 -0.30240577 -0.0045762062
0.24236098 -0.28610319 -0.0045761466
0.24236098 -0.26980069 -0.0045762062
0.24236098 -0.2534982 -0.0045762658
0.24236098 -0.2371956 -0.0045762062
0.24236229 -0.22089414 -0.004565537
0.24236229 -0.20459156 -0.0045656562
0.24236229 -0.18828896 -0.0045656562
0.24236229 -0.17198633 -0.0045654774
-0.32959044 -0.15632863 0.004742682
0.24236229 -0.15568373 -0.004565537
0.24236229 -0.13938119 -0.004565537
0.24236229 -0.12307854 -0.004565537
-0.34533605 -0.10701728 0.0006596446
0.24236229 -0.10677586 -0.0045656562
-0.34433883 -0.090425126 -0.0058174133
0.24236229 -0.090473309 -0.0045656562
0.24236229 -0.074170649 -0.004565537
0.24236229 -0.057868108 -0.004565537
0.24236229 -0.04156553 -0.0045656562
-0.36218148 -0.02532704 0.0037685037
0.24236098 -0.025262762 -0.0045762658
0.24236098 -0.0089602945 -0.0045761466
-0.36135671 -0.0089602191 -0.0013334751
-0.36208463 0.0074019115 0.0031695366
0.24236098 0.0073422119 -0.0045761466
0.24236098 0.023644717 -0.0045762062
0.24236098 0.039947331 -0.0045762062
0.24236098 0.056249842 -0.0045762658
0.24235967 0.072551936 -0.0045866966
0.24235967 0.088854402 -0.0045868158
-0.34441558 0.1051174 -0.0053190589
0.24235967 0.10515683 -0.0045866966
0.24235967 0.12145928 -0.0045868158
0.24235967 0.13776173 -0.0045866966
0.24235967 0.15406416 -0.0045868158
0.24235839 0.17036577 -0.0045974255
-0.31298631 0.18737762 0.0030839443
0.24235839 0.18666811 -0.0045974255
0.24235839 0.20297047 -0.0045973063
-0.29633549 0.21986237 0.00087291002
0.24235839 0.21927272 -0.0045973659
-0.27928585 0.23554569 -0.0048521757
0.24235839 0.23557518 -0.0045974255
0.24235967 0.25187889 -0.0045866966
0.24235967 0.26818132 -0.0045868158
0.24235967 0.2844837 -0.0045868158
0.24235967 0.30078614 -0.0045868158
0.24235967 0.3170886 -0.004586935
0.24235967 0.33339113 -0.0045868158
0.24235967 0.34969354 -0.0045868158
0.24236098 0.36599785 -0.0045762658
0.24236098 0.38230035 -0.0045761466
0.24236098 0.39860278 -0.0045761466
-0.03478099 0.41488004 -0.0047035813
0.24235967 0.41490334 -0.0045868158
0.24236098 0.43120798 -0.0045761466
0.24236229 0.44751281 -0.0045656562
0.27802777 -0.4372485 0.017519891
0.26010182 -0.43502575 0.0064145327
0.26010182 -0.41863865 0.0064144731
0.27802777 -0.42077577 0.017519891
0.26010182 -0.40225148 0.0064145327
0.27802777 -0.40430325 0.01752001
0.27802777 -0.38783053 0.017519891
0.26010182 -0.38586432 0.0064144731
0.26010323 -0.369479 0.0064252019
0.27802777 -0.37135795 0.017519891
-0.16635856 -0.35401151 0.012114584
0.26010182 -0.35309005 0.0064145327
0.27802777 -0.35488537 0.01752001
0.26010182 -0.336703 0.0064144731
0.27802777 -0.3384127 0.017519891
0.26010182 -0.32031581 0.0064145327
0.27802777 -0.32194012 0.01752001
0.26010182 -0.30392864 0.0064144731
0.27802777 -0.30546746 0.017519891
0.26010182 -0.28754151 0.0064145327
0.27802777 -0.28899482 0.017519832
0.26010182 -0.2711544 0.0064144731
0.27802777 -0.27252227 0.017519891
0.26010182 -0.2547673 0.0064144731
0.27802777 -0.25604957 0.017519891
0.26010182 -0.23838016 0.0064145327
0.27802777 -0.23957695 0.017519832
0.27802926 -0.22310545 0.017530799
-0.29722503 -0.22211869 0.0076701641
0.26010323 -0.22199406 0.0064252019
0.26010323 -0.20560686 0.0064252615
0.27802926 -0.2066327 0.017530739
-0.31341961 -0.18920149 0.006210804
0.26010323 -0.18921962 0.0064252019
0.27802926 -0.19016002 0.017530739
0.26010323 -0.17283244 0.0064252615
0.27802926 -0.17368734 0.017530739
0.26010323 -0.15644518 0.0064252615
0.27802926 -0.15721457 0.017530739
0.26010323 -0.14005801 0.0064252615
0.27802926 -0.14074196 0.017530859
-0.34634104 -0.12371183 0.0071870685
0.26010323 -0.12367076 0.0064251423
0.27802926 -0.12426927 0.017530799
0.26010323 -0.10728358 0.0064252615
0.27802926 -0.1077965 0.017530799
0.26010323 -0.090896316 0.0064252019
0.27802926 -0.091323823 0.017530799
0.26010323 -0.074509151 0.0064252615
0.27802926 -0.074851111 0.017530739
-0.3643029 -0.058363616 0.016891479
0.26010323 -0.058121845 0.0064252019
0.27802926 -0.058378398 0.017530739
-0.36323979 -0.04179465 0.010315299
0.26010323 -0.041734725 0.0064252019
0.27802926 -0.041905686 0.017530799
0.26010182 -0.025347415 0.0064144731
0.27802777 -0.025432821 0.017519832
0.27802777 -0.0089602945 0.017519891
0.26010182 -0.0089602191 0.0064144731
0.26010182 0.0074268654 0.0064145327
0.27802777 0.007512344 0.017519891
-0.36281568 0.023833686 0.0076916218
0.26010182 0.02381395 0.0064144731
0.27802777 0.023984944 0.01752001
-0.36355159 0.040335707 0.012243986
0.26010182 0.040201105 0.0064146519
0.27802777 0.040457584 0.017519891
-0.3642889 0.056908198 0.016804874
0.26010182 0.056588233 0.0064146519
0.27802777 0.056930266 0.017519891
0.26010042 0.072975017 0.0064038038
0.27802625 0.073402375 0.017509103
0.26010042 0.089362025 0.0064038038
0.27802625 0.089875013 0.017509043
0.26010042 0.10574911 0.0064038038
0.27802625 0.1063475 0.017509043
-0.34673151 0.12234055 0.0097232461
0.26010042 0.12213616 0.0064037442
0.27802625 0.12282003 0.017509103
0.26010042 0.13852324 0.0064037442
0.27802625 0.1392926 0.017509043
-0.32983184 0.15490943 0.0063931346
0.26010042 0.15491021 0.006403923
0.27802476 0.15576422 0.017498314
0.26009902 0.17129636 0.006393075
0.27802476 0.17223674 0.017498314
0.26009902 0.18768333 0.0063930154
0.27802476 0.1887092 0.017498314
0.26009902 0.20407034 0.0063931346
0.27802476 0.20518154 0.017498314
0.26009902 0.22045732 0.0063930154
0.27802476 0.22165413 0.017498136
0.26009902 0.23684421 0.0063931346
0.27802476 0.23812659 0.017498136
0.26010042 0.2532326 0.0064038038
0.27802625 0.25460035 0.017509103
0.26010042 0.26961958 0.0064037442
0.27802625 0.2710728 0.017509103
0.26010042 0.28600666 0.0064038038
0.27802625 0.28754544 0.017509162
-0.23216572 0.30335042 0.012945235
0.26010042 0.3023937 0.006403923
0.27802625 0.30401799 0.017509103
-0.2159169 0.32010219 0.014986753
0.26010042 0.31878063 0.0064038038
0.27802625 0.32049045 0.017509103
0.26010042 0.33516777 0.0064038038
0.27802625 0.33696294 0.017509103
-0.16626522 0.35229382 0.0107674
0.26010042 0.35155481 0.0064038038
0.27802625 0.35343564 0.017509103
0.26010182 0.36794382 0.0064145327
0.27802777 0.36991003 0.01752001
-0.11681265 0.3843725 0.0066397786
0.26010182 0.38433087 0.0064144731
0.27802777 0.38638258 0.017519891
0.26010182 0.400718 0.0064144731
0.27802777 0.40285531 0.017519891
0.26010042 0.41710308 0.0064038038
0.27802777 0.41932791 0.01752001
0.26010323 0.4334946 0.0064252019
0.27802926 0.4358027 0.017530799
0.29614171 -0.43949455 0.028741837
0.29614171 -0.42293543 0.028741777
0.29614171 -0.40637645 0.028741777
-0.11764316 -0.38908786 0.024620712
0.29614171 -0.38981748 0.028741837
0.29614171 -0.37325844 0.028741837
0.29614171 -0.35669947 0.028741837
0.29614171 -0.34014037 0.028741658
-0.21629518 -0.32216853 0.019081712
0.29614171 -0.32358143 0.028741777
-0.23300928 -0.30600163 0.021374464
0.29614171 -0.30702239 0.028741777
-0.24975801 -0.28979853 0.023661077
0.29614171 -0.29046348 0.028741837
-0.26654378 -0.27356225 0.025963604
0.29614171 -0.27390441 0.028741896
-0.28336558 -0.25729102 0.028271079
0.29614171 -0.25734532 0.028741777
-0.30022356 -0.24098487 0.030583382
0.29614171 -0.24078639 0.028741777
0.29614332 -0.22422847 0.028752804
-0.31614149 -0.20740163 0.02585429
0.29614332 -0.2076693 0.028752625
0.29614332 -0.19111031 0.028752804
-0.33246115 -0.17421384 0.024369836
0.29614332 -0.17455122 0.028752804
0.29614332 -0.15799209 0.028752685
-0.34875658 -0.14107111 0.022876561
0.29614332 -0.14143305 0.028752863
0.29614332 -0.12487395 0.028752804
0.29614332 -0.10831486 0.028752804
-0.36645246 -0.091811001 0.030188441
0.29614332 -0.091755763 0.028752804
-0.36537436 -0.075035542 0.023519397
0.29614332 -0.075196669 0.028752804
0.29614332 -0.058637574 0.028752685
0.29614332 -0.042078517 0.028752863
0.29614171 -0.025519276 0.028741837
0.29614171 -0.0089603318 0.028741896
0.29614171 0.0075987615 0.028741777
0.29614171 0.024157742 0.028741837
0.29614171 0.040716723 0.028741837
0.29614171 0.057275787 0.028741837
-0.36502936 0.07355161 0.021385252
0.29614013 0.073834389 0.028730869
-0.36577126 0.090265974 0.025974333
0.29614013 0.09039326 0.028730869
-0.36651453 0.10705145 0.030572295
0.29614013 0.10695221 0.028730869
0.29614013 0.1235112 0.028730869
-0.34935635 0.13993436 0.026772201
0.29614013 0.14007005 0.02873081
0.29613853 0.15662813 0.028719902
-0.33231765 0.17273551 0.023388505
0.29613853 0.17318697 0.028719962
0.29613853 0.18974583 0.028719902
-0.31533244 0.20543362 0.020015717
0.29613853 0.20630467 0.028719842
0.29613853 0.22286354 0.028719902
0.29613853 0.23942237 0.028719902
-0.28363553 0.25619578 0.030462682
0.29614013 0.25598249 0.028730869
-0.26638368 0.27199784 0.024577141
0.29614013 0.27254146 0.028730869
-0.24922588 0.28771383 0.018723667
0.29614013 0.28910041 0.028730869
0.29614013 0.30565935 0.028730869
0.29614013 0.32221818 0.02873069
0.29614013 0.3387771 0.02873081
0.29614013 0.35533601 0.028730869
0.29614171 0.37189692 0.028741837
0.29614171 0.38845602 0.028741837
0.29614171 0.40501496 0.028741837
0.29614171 0.42157394 0.028741777
0.29614332 0.4381353 0.028752804
0.31444666 -0.42511791 0.040082037
-0.085114464 -0.40877032 0.041699052
0.31444666 -0.40847155 0.040082037
0.31444666 -0.39182526 0.040082037
0.31444666 -0.37517896 0.040082037
0.31444666 -0.35853267 0.040082037
-0.20114285 -0.34107554 0.034815311
0.31444666 -0.34188637 0.040082037
0.31444666 -0.32524008 0.040081918
0.31444666 -0.30859378 0.040081918
0.31444666 -0.29194748 0.040081918
0.31444666 -0.27530116 0.040081918
0.31444666 -0.25865486 0.040081918
0.31444666 -0.24200849 0.040081918
0.31444836 -0.22536331 0.040093124
0.31444836 -0.20871696 0.040093124
0.31444836 -0.19207053 0.040092945
0.31444836 -0.17542416 0.040093064
-0.35182866 -0.15896744 0.042830288
0.31444836 -0.15877776 0.040093124
0.31444836 -0.1421314 0.040093124
0.31444836 -0.12548496 0.040093064
-0.3675355 -0.10869058 0.036888123
0.31444836 -0.10883858 0.040093064
0.31444836 -0.09219224 0.040093124
0.31444836 -0.07554587 0.040093124
0.31444836 -0.058899418 0.040093064
0.31444836 -0.042253047 0.040093064
-0.38470191 -0.025606742 0.040104151
0.31444666 -0.025606632 0.040082037
-0.38378757 -0.0089602945 0.034705281
0.31444666 -0.0089603318 0.040082037
-0.38457635 0.0076805279 0.039362729
0.31444666 0.0076860432 0.040082037
0.31444666 0.02433238 0.040082037
0.31444666 0.040978678 0.040082037
0.31444666 0.057624981 0.040082037
0.31444499 0.074270755 0.040071011
0.31444499 0.090917058 0.040070891
0.31444499 0.10756332 0.040070891
0.31444499 0.12420946 0.040071011
0.31444499 0.14085568 0.040070891
0.31444326 0.15750101 0.040059865
0.31444326 0.17414716 0.040059805
-0.33484346 0.19084847 0.040657759
0.31444326 0.1907934 0.040059924
0.31444326 0.2074395 0.040059924
-0.31842613 0.22433154 0.042342305
0.31444326 0.22408569 0.040059865
-0.30098367 0.24030823 0.036391616
0.31444326 0.24073176 0.040059924
0.31444499 0.25737923 0.040070891
0.31444499 0.27402544 0.040071011
0.31444499 0.29067165 0.040070891
0.31444499 0.30731791 0.040070891
0.31444326 0.32396248 0.040059865
-0.20155132 0.34054053 0.039639473
0.31444499 0.34061036 0.040070891
0.31444499 0.35725665 0.040070891
-0.1513615 0.37307578 0.035399318
0.31444666 0.37390471 0.040082037
0.31444666 0.39055106 0.040082037
0.31444666 0.40719736 0.040082037
0.31444836 0.42384574 0.040093124
0.33294564 -0.41058892 0.051542401
0.33294564 -0.39385441 0.051542401
-0.15211156 -0.37644863 0.047578752
0.33294564 -0.3771199 0.051542401
0.33294564 -0.36038536 0.051542401
0.33294564 -0.34365082 0.051542401
0.33294564 -0.32691631 0.051542401
0.33294564 -0.31018177 0.051542401
0.33294564 -0.29344723 0.051542342
0.33294564 -0.27671272 0.051542401
0.33294564 -0.25997818 0.051542401
0.33294564 -0.24324368 0.051542342
-0.31891409 -0.22594088 0.045863867
0.33294743 -0.22651023 0.051553547
0.33294743 -0.20977564 0.051553607
-0.33538371 -0.19243118 0.044351578
0.33294743 -0.19304104 0.051553607
0.33294743 -0.17630638 0.051553547
0.33294743 -0.15957178 0.051553547
0.33294743 -0.1428372 0.051553607
-0.36862713 -0.12567611 0.043640614
0.33294743 -0.1261026 0.051553667
0.33294743 -0.10936793 0.051553547
0.33294743 -0.092633337 0.051553607
0.33294743 -0.075898744 0.051553607
-0.38700122 -0.059213229 0.053681016
0.33294743 -0.059164077 0.051553547
-0.38584888 -0.042357512 0.046876848
0.33294743 -0.042429484 0.051553547
0.33294564 -0.025694774 0.051542401
0.33294564 -0.0089602564 0.051542342
0.33294564 0.007774299 0.051542342
-0.38537043 0.02439343 0.044051528
0.33294564 0.024508817 0.051542342
-0.38616607 0.04117883 0.048749506
0.33294564 0.041243337 0.051542401
-0.38696706 0.058037519 0.053479195
0.33294564 0.057977855 0.051542342
0.33294383 0.074712001 0.051531196
0.33294383 0.09144637 0.051531255
0.33294383 0.10818085 0.051531196
-0.36925656 0.12466908 0.047534108
0.33294383 0.12491529 0.051531196
0.33294383 0.14164962 0.051531196
-0.35202351 0.15781167 0.044096053
0.33294383 0.15838414 0.051531196
0.33294204 0.17511769 0.05151993
0.33294204 0.19185197 0.05152005
0.33294204 0.20858631 0.05152005
0.33294204 0.22532068 0.05151999
0.33294383 0.24205637 0.051531315
0.33294383 0.25879076 0.051531196
0.33294383 0.27552527 0.051531196
0.33294383 0.2922596 0.051531255
-0.25312865 0.30949223 0.054937005
0.33294383 0.30899417 0.051531196
0.33294204 0.32572681 0.05151999
0.33294383 0.34246299 0.051531255
0.33294383 0.35919738 0.051531196
0.33294564 0.37593383 0.051542401
0.33294564 0.39266831 0.051542401
0.33294564 0.40940285 0.051542401
0.35164171 -0.41272888 0.063124955
0.35164171 -0.39590508 0.063124895
0.35164171 -0.37908146 0.063124895
0.35164171 -0.36225778 0.063124895
0.35164171 -0.34543404 0.063124895
-0.23712409 -0.32851782 0.062492013
0.35164171 -0.32861039 0.063124776
-0.25419888 -0.31202811 0.064867258
0.35164171 -0.31178668 0.063124955
-0.27131215 -0.29550403 0.067258954
0.35164171 -0.29496303 0.063124955
0.35164171 -0.27813926 0.063124895
0.35164171 -0.26131564 0.063124895
0.35164171 -0.24449193 0.063124955
0.35164365 -0.2276694 0.06313628
-0.3383612 -0.21099085 0.06470871
0.35164365 -0.21084557 0.06313628
0.35164365 -0.19402184 0.063136101
-0.35495847 -0.17719975 0.06315887
0.35164365 -0.17719804 0.06313628
0.35164365 -0.16037421 0.06313622
-0.37153402 -0.14345731 0.061622441
0.35164365 -0.14355052 0.06313628
0.35164365 -0.1267267 0.06313622
0.35164365 -0.10990287 0.063136101
-0.38933152 -0.093244866 0.067440629
0.35164365 -0.093079194 0.06313628
-0.3881627 -0.076175369 0.060539007
0.35164365 -0.076255366 0.063136101
0.35164365 -0.05943162 0.06313628
0.35164365 -0.042607829 0.063136101
0.35164365 -0.025784083 0.06313628
0.35164171 -0.0089602945 0.063124955
0.35164171 0.0078633819 0.063124955
0.35164171 0.024687132 0.063124895
0.35164171 0.041510768 0.063124895
0.35164171 0.058334447 0.063124895
-0.3877677 0.074968889 0.058206975
0.35163981 0.075157747 0.06311363
-0.38856998 0.091973543 0.062943995
0.35163981 0.091981307 0.06311363
0.35163981 0.10880495 0.06311363
0.35163981 0.12562852 0.06311363
-0.37211168 0.14259642 0.065195739
0.35163981 0.14245211 0.06311363
0.35163981 0.15927576 0.06311363
-0.35473406 0.17597984 0.061701357
0.3516379 0.17609841 0.063102305
0.3516379 0.19292186 0.063102365
-0.33740857 0.20925446 0.05819571
0.3516379 0.20974547 0.063102365
0.3516379 0.22656895 0.063102186
0.35163981 0.24339375 0.063113511
0.35163981 0.26021734 0.06311363
-0.28813413 0.2775479 0.06698668
0.35163981 0.27704099 0.06311363
-0.27058178 0.29356259 0.060933948
0.35163981 0.29386464 0.06311363
0.3516379 0.31068659 0.063102365
0.3516379 0.32751003 0.063102186
0.35163981 0.34433535 0.063113511
-0.1868557 0.36146745 0.064935327
0.35163981 0.361159 0.063113511
0.35164171 0.37798458 0.063124895
0.35164171 0.39480829 0.063124895
-0.085602328 0.41055778 0.057543278
0.35164365 0.41163421 0.06313622
-0.035420652 -0.4324905 0.078390956
0.37053815 -0.39797783 0.074831545
0.37053815 -0.38106406 0.074831426
-0.18732598 -0.36353797 0.071044385
0.37053815 -0.36415023 0.074831426
0.37053815 -0.34723637 0.074831545
0.37053815 -0.33032256 0.074831545
0.37053815 -0.31340873 0.074831426
0.37053815 -0.29649496 0.074831426
-0.28846151 -0.27894232 0.06964463
0.37053815 -0.27958122 0.074831605
-0.30564976 -0.26234585 0.072046936
0.37053815 -0.26266742 0.074831605
-0.32287574 -0.24571297 0.074454546
0.37053815 -0.2457536 0.074831545
0.37054014 -0.22884092 0.074842989
0.37054014 -0.21192697 0.07484293
0.37054014 -0.19501312 0.07484293
0.37054014 -0.17809923 0.07484293
0.37054014 -0.16118535 0.074842989
0.37054014 -0.14427145 0.07484287
0.37054014 -0.12735756 0.07484293
-0.39050579 -0.11042202 0.074374616
0.37054014 -0.11044363 0.074842989
0.37054014 -0.093529746 0.074842989
0.37054014 -0.076615788 0.07484293
0.37054014 -0.059701942 0.07484287
0.37054014 -0.042788059 0.07484293
-0.40800548 -0.025896242 0.077703357
0.37054014 -0.025874214 0.074842989
-0.4069939 -0.0089602945 0.071989954
0.37053815 -0.0089603318 0.074831545
-0.40784934 0.0079688989 0.076821506
0.37053815 0.0079535507 0.074831605
0.37053815 0.024867358 0.074831605
0.37053815 0.041781165 0.074831545
0.37053815 0.058694974 0.074831545
0.37053612 0.075608335 0.074820101
0.37053612 0.092522033 0.074820042
-0.3895469 0.10910664 0.068712652
0.37053612 0.10943572 0.074820101
0.37053612 0.12634949 0.074820101
0.37053612 0.14326319 0.074820042
0.37053612 0.16017689 0.074820101
0.37053409 0.17708965 0.074808717
-0.35748723 0.19444431 0.079583764
0.37053409 0.19400334 0.074808657
0.37053409 0.21091692 0.074808657
0.37053409 0.22783054 0.074808657
-0.32354352 0.24525982 0.079273999
0.37053612 0.24474552 0.074820161
-0.30578855 0.26144826 0.073107541
0.37053612 0.2616592 0.074820042
0.37053612 0.27857301 0.074820042
0.37053612 0.2954866 0.074820042
0.37053409 0.31239882 0.074808657
-0.23781028 0.32847181 0.06934911
0.37053409 0.32931238 0.074808717
0.37053612 0.34622782 0.074820101
0.37053612 0.3631416 0.074820042
0.37053815 0.38005739 0.074831426
0.37053815 0.39697114 0.074831545
-0.13738626 -0.39965403 0.084298968
0.38963807 -0.383068 0.086664259
0.38963807 -0.36606312 0.086664259
0.38963807 -0.34905815 0.086664259
0.38963807 -0.33205327 0.086664259
0.38963807 -0.3150484 0.086664259
0.38963807 -0.29804352 0.086664259
0.38963807 -0.28103861 0.086664259
0.38963807 -0.2640337 0.086664259
0.38963807 -0.24702881 0.0866642
-0.34139517 -0.22990263 0.085452139
0.38964021 -0.23002501 0.086675704
0.38964021 -0.21302007 0.086675704
-0.35814756 -0.19577768 0.083872676
0.38964021 -0.1960151 0.086675823
0.38964021 -0.17901011 0.086675644
-0.37487787 -0.16170245 0.082306862
0.38964021 -0.1620051 0.086675644
0.38964021 -0.14500014 0.086675704
-0.39168948 -0.12770893 0.081363916
0.38964021 -0.12799519 0.086675823
0.38964021 -0.11099017 0.086675704
0.38964021 -0.093985245 0.086675704
0.38964021 -0.076980218 0.086675823
-0.41049388 -0.060092568 0.091757894
0.38964021 -0.059975192 0.086675644
-0.40924671 -0.042939998 0.084713876
0.38964021 -0.04297024 0.086675823
0.38964021 -0.025965285 0.086675823
0.38963807 -0.0089602564 0.0866642
0.38963807 0.0080446228 0.0866642
-0.40870652 0.024972463 0.081662893
0.38963807 0.025049539 0.086664259
-0.40956748 0.042051189 0.086525619
0.38963807 0.042054415 0.0866642
-0.41043431 0.05920583 0.091421485
0.38963807 0.059059337 0.086664259
0.38963592 0.076063797 0.086652637
0.38963592 0.093068533 0.086652696
0.38963592 0.11007341 0.086652696
-0.3925969 0.12708248 0.086721957
0.38963592 0.12707824 0.086652696
0.38963592 0.14408301 0.086652696
-0.37501365 0.16081788 0.083147049
0.38963592 0.16108778 0.086652637
0.38963377 0.17809162 0.086641133
0.38963377 0.1950963 0.086641133
0.38963377 0.21210107 0.086641192
-0.34139687 0.22897889 0.085463703
0.38963377 0.2291058 0.086641133
0.38963592 0.24611175 0.086652696
0.38963592 0.26311663 0.086652696
0.38963592 0.28012145 0.086652637
0.38963377 0.29712462 0.086641133
0.38963377 0.31412935 0.086641192
0.38963377 0.33113408 0.086641133
0.38963592 0.34814066 0.086652696
0.38963592 0.36514547 0.086652696
-0.17181292 0.38289189 0.090841591
0.38963807 0.38215229 0.086664259
0.40894482 -0.36799666 0.098625004
-0.22331035 -0.35034513 0.095023155
0.40894482 -0.35089961 0.098625004
0.40894482 -0.33380273 0.098625064
0.40894482 -0.3167057 0.098625004
0.40894255 -0.29960719 0.098613322
0.40894482 -0.2825118 0.098625064
0.40894482 -0.2654148 0.098625064
0.40894482 -0.2483179 0.098625064
0.40894705 -0.231222 0.098636627
-0.36139768 -0.21471122 0.10498291
0.40894705 -0.21412504 0.098636806
0.40894705 -0.19702797 0.098636687
-0.37828565 -0.18029656 0.10338712
0.40894705 -0.17993087 0.098636806
0.40894705 -0.16283381 0.098636627
-0.39514741 -0.14593053 0.1017819
0.40894705 -0.14573675 0.098636627
0.40894705 -0.12863979 0.098636687
0.40894705 -0.11154263 0.098636806
-0.41301638 -0.0947292 0.10600489
0.40894705 -0.094445556 0.098636687
-0.41175112 -0.07735531 0.098858476
0.40894705 -0.077348515 0.098636687
0.40894705 -0.060251407 0.098636627
0.40894705 -0.043154441 0.098636806
0.40894705 -0.02605737 0.098636687
0.40894482 -0.0089602945 0.098625064
0.40894482 0.0081367437 0.098625004
0.40894482 0.025233669 0.098625064
0.40894482 0.04233063 0.098625004
0.40894482 0.059427634 0.098625064
-0.41130087 0.076435663 0.096315682
0.40894255 0.076524109 0.098613381
-0.41216919 0.093741372 0.10122001
0.40894255 0.093620993 0.098613381
0.40894255 0.11071796 0.098613381
0.40894255 0.12781475 0.098613381
-0.39569747 0.14535621 0.10502988
0.40894255 0.14491166 0.098613381
0.40894255 0.16200858 0.098613381
-0.37796369 0.17934097 0.10139549
0.40894032 0.17910449 0.098601639
0.40894032 0.19620126 0.098601639
-0.36028588 0.21321388 0.097761452
0.40894032 0.21329804 0.098601639
0.40894032 0.23039474 0.098601818
0.40894255 0.24749303 0.098613381
0.40894255 0.26458979 0.098613381
0.40894032 0.28168514 0.098601639
-0.29279667 0.29964656 0.10484207
0.40894032 0.2987819 0.098601639
-0.27508372 0.31607184 0.099921703
0.40894032 0.31587872 0.098601639
0.40894032 0.33297557 0.098601639
-0.22333616 0.34953895 0.095302582
0.40894255 0.3500742 0.098613381
0.40894255 0.36717111 0.098613381
-0.17303956 -0.38677385 0.10854644
0.42846176 -0.35276115 0.11071604
0.42846176 -0.33557117 0.1107161
-0.27626747 -0.31830594 0.11017329
0.42846176 -0.3183811 0.11071599
-0.29375881 -0.30144465 0.11265349
0.42845944 -0.30118954 0.11070436
-0.31128907 -0.28454578 0.11513907
0.42846176 -0.28400099 0.11071604
-0.32885998 -0.26761073 0.11764216
0.42846176 -0.26681098 0.1107161
0.42846176 -0.2496209 0.11071604
0.42846414 -0.23243205 0.11072791
0.42846414 -0.21524191 0.11072791
0.42846414 -0.19805177 0.11072785
0.42846414 -0.18086165 0.11072809
0.42846414 -0.16367152 0.11072791
0.42846414 -0.14648141 0.11072791
0.42846414 -0.12929128 0.11072785
-0.41428778 -0.11221465 0.11318564
0.42846414 -0.11210106 0.11072791
0.42846414 -0.094911002 0.11072797
0.42846414 -0.077720866 0.11072797
0.42846414 -0.060530663 0.11072797
0.42846414 -0.043340564 0.11072791
-0.43213373 -0.026195908 0.11663318
0.42846414 -0.026150392 0.11072791
-0.43101877 -0.0089603318 0.11059815
0.42846176 -0.0089603318 0.11071622
-0.43194094 0.008267289 0.1155895
0.42846176 0.0082298033 0.11071604
0.42846176 0.025419788 0.11071622
0.42846176 0.042609885 0.1107161
0.42846176 0.05979991 0.1107161
0.42845944 0.076989479 0.11070436
0.42845944 0.094179384 0.11070436
-0.41348723 0.11125951 0.10866439
0.42845944 0.11136941 0.11070418
0.42845944 0.12855932 0.11070424
0.42845944 0.14574938 0.11070436
0.42845944 0.16293928 0.11070436
0.42845708 0.18012829 0.1106925
0.42845708 0.19731809 0.11069238
0.42845708 0.21450792 0.11069256
0.42845708 0.23169787 0.11069262
0.42845944 0.24888903 0.11070436
-0.32883695 0.26691312 0.11747599
0.42845944 0.26607892 0.11070436
-0.31076276 0.28332305 0.11111748
0.42845708 0.28326744 0.1106925
0.42845708 0.30045736 0.1106925
0.42845708 0.31764728 0.1106925
0.42845708 0.33483696 0.11069256
0.42845944 0.35202882 0.11070436
-0.2600902 -0.33686057 0.11953205
0.44819242 -0.33735898 0.12293953
0.44818994 -0.32007316 0.12292755
0.44818994 -0.30278912 0.12292767
0.44819242 -0.28550661 0.12293953
0.44819242 -0.26822248 0.12293965
-0.346472 -0.25063899 0.12016279
0.44819242 -0.2509383 0.12293965
-0.36471063 -0.23401052 0.12650096
0.44819489 -0.2336553 0.12295151
0.44819489 -0.21637109 0.12295151
-0.3817592 -0.19924967 0.12487429
0.44819489 -0.19908689 0.12295157
0.44819489 -0.18180263 0.12295151
-0.39878112 -0.16453819 0.12323779
0.44819489 -0.16451842 0.12295157
0.44819489 -0.14723414 0.12295139
-0.41578037 -0.12987792 0.12161577
0.44819489 -0.12994993 0.12295157
0.44819489 -0.11266561 0.12295139
0.44819489 -0.095381401 0.12295151
0.44819489 -0.078097269 0.12295151
-0.43482339 -0.061003238 0.13119107
0.44819489 -0.060812987 0.12295139
-0.43347532 -0.043543227 0.12389445
0.44819489 -0.04352878 0.12295151
0.44819489 -0.026244501 0.12295139
0.44819242 -0.0089602945 0.12293947
0.44819242 0.0083239134 0.12293947
-0.43286723 0.025572022 0.12060332
0.44819242 0.025608046 0.12293953
-0.43379989 0.042954765 0.12565148
0.44819242 0.042892218 0.12293953
-0.43473455 0.060415566 0.13071048
0.44819242 0.06017635 0.12293953
0.44818994 0.077460028 0.12292761
0.44818994 0.094744124 0.12292755
0.44818994 0.11202807 0.12292767
0.44818994 0.1293121 0.12292755
-0.41679373 0.12958382 0.1273393
0.44818994 0.14659622 0.12292755
-0.39884984 0.16393536 0.12364382
0.44818994 0.16388024 0.12292755
0.44818747 0.18116328 0.12291569
-0.38096097 0.19817211 0.11993659
0.44818747 0.19844723 0.12291569
0.44818747 0.21573117 0.12291586
-0.36530137 0.23381504 0.13033807
0.44818747 0.23301519 0.12291569
-0.34701782 0.2504122 0.12389451
0.44818994 0.25030053 0.12292755
0.44818747 0.26758301 0.12291563
0.44818747 0.28486696 0.12291569
0.44818747 0.30215096 0.12291563
0.44818747 0.31943491 0.12291569
-0.26084644 0.33727831 0.12654889
0.44818747 0.33671892 0.12291569
-0.20852017 0.37112114 0.12193763
-0.13950188 0.40597391 0.12356019
-0.20948508 -0.37360743 0.13333279
0.46813765 -0.32178554 0.13528556
0.46813765 -0.30440637 0.13528544
0.46814027 -0.28702867 0.1352976
0.46814027 -0.26964936 0.13529754
0.46814027 -0.2522701 0.13529754
0.46814287 -0.234892 0.13530952
0.46814287 -0.2175127 0.13530964
0.46814287 -0.20013329 0.13530952
0.46814287 -0.18275401 0.1353097
0.46814287 -0.16537464 0.13530964
-0.4196476 -0.14849703 0.14345807
0.46814287 -0.14799516 0.13530952
0.46814287 -0.13061588 0.13530964
0.46814287 -0.11323649 0.13530952
0.46814287 -0.095857091 0.13530952
-0.43618247 -0.078577429 0.13854736
0.46814287 -0.0784778 0.13530964
0.46814287 -0.061098397 0.13530952
0.46814287 -0.043719031 0.1353097
0.46814287 -0.026339661 0.13530964
0.46814027 -0.0089602945 0.13529754
0.46814027 0.0084189977 0.1352976
0.46814027 0.02579833 0.13529754
0.46814027 0.043177582 0.13529754
0.46814027 0.060556807 0.13529754
-0.43566898 0.077954255 0.13576812
0.46813765 0.077935606 0.13528556
-0.43660983 0.095572315 0.14086074
0.46813765 0.09531486 0.13528556
0.46813765 0.11269397 0.13528556
0.46813765 0.13007319 0.13528556
0.46813765 0.14745232 0.13528544
0.46813765 0.16483158 0.13528556
-0.4020533 0.18282661 0.14255935
0.46813506 0.18220967 0.1352734
0.46813506 0.1995887 0.13527346
-0.38400871 0.21731982 0.13878947
0.46813506 0.21696785 0.1352734
0.46813506 0.23434696 0.1352734
0.46813506 0.25172603 0.13527346
0.46813506 0.26910517 0.1352734
0.46813506 0.28648427 0.1352734
0.46813506 0.30386329 0.13527346
0.46813506 0.32124239 0.1352734
0.48830888 -0.28856766 0.14779228
0.48830888 -0.27109218 0.14779228
0.48830888 -0.25361669 0.14779228
0.48831162 -0.23614252 0.14780456
-0.38530049 -0.21857229 0.14678031
0.48831162 -0.21866693 0.14780444
0.48831162 -0.20119137 0.14780456
-0.40248561 -0.18350853 0.14511198
0.48831162 -0.18371582 0.14780444
0.48831162 -0.16624025 0.14780456
0.48831162 -0.14876468 0.14780456
0.48831162 -0.13128912 0.14780444
-0.43892518 -0.11407174 0.15339273
0.48831162 -0.11381358 0.14780456
-0.43755043 -0.096266739 0.14595181
0.48831162 -0.096338034 0.14780444
0.48831162 -0.078862458 0.14780456
0.48831162 -0.061386921 0.14780444
0.48831162 -0.043911412 0.14780456
0.48831162 -0.026435798 0.14780444
-0.45590183 -0.0089603318 0.15057689
0.48830888 -0.0089602945 0.14779228
-0.45689714 0.0085764863 0.15574878
0.48830888 0.0085152481 0.14779228
0.48830888 0.025990637 0.14779228
0.48830888 0.043466143 0.14779228
0.48830888 0.060941577 0.14779228
0.48830613 0.078416593 0.14778012
0.48830613 0.095891908 0.14778
-0.43831909 0.11349289 0.15011233
0.48830613 0.11336726 0.14778012
0.48830613 0.13084269 0.14778012
-0.42015603 0.14821751 0.14632958
0.48830613 0.14831796 0.14778012
0.48830613 0.1657934 0.14778012
0.48830613 0.18326883 0.14778012
0.48830613 0.20074411 0.14778
0.48830345 0.21821825 0.14776784
0.48830345 0.23569345 0.14776796
0.48830613 0.25317016 0.14778012
0.48830345 0.2706441 0.14776796
0.48830345 0.28811938 0.14776796
-0.31592506 0.30598211 0.15056473
-0.24627364 0.35901496 0.15391999
-0.24675205 -0.36014894 0.15870064
