ply
format ascii 1.0
comment PCL generated
element vertex 1368
property float x
property float y
property float z
element camera 0
property float view_px
property float view_py
property float view_pz
property float x_axisx
property float x_axisy
property float x_axisz
property float y_axisx
property float y_axisy
property float y_axisz
property float z_axisx
property float z_axisy
property float z_axisz
property float focal
property float scalex
property float scaley
property float centerx
property float centery
property int viewportx
property int viewporty
property float k1
property float k2
end_header
-0.30633155 0.20331624 -0.30409729
0.40419737 0.20302421 -0.31042063
-0.28352758 0.22525907 -0.30942416
-0.26106712 0.24728093 -0.31213784
0.38378367 0.24827033 -0.29607034
-0.23940228 0.26982617 -0.30669069
0.33770508 0.26960078 -0.30994403
0.36137921 0.27049431 -0.2970469
-0.2176898 0.29248837 -0.3008163
0.3161155 0.29224357 -0.30399573
-0.17270535 0.31416401 -0.30766034
0.27106732 0.31388751 -0.31092584
0.2944352 0.31497881 -0.29803753
-0.15086263 0.33690605 -0.30181873
0.24934648 0.33661249 -0.30499625
-0.12894541 0.35976672 -0.29569089
-0.10613473 0.35864848 -0.3068645
-0.0837726 0.35824928 -0.31085384
0.18230674 0.35814682 -0.3118782
0.2047231 0.35854718 -0.3078773
0.22755115 0.35945323 -0.2988236
-0.062046342 0.38200793 -0.29618692
-0.039663084 0.38157621 -0.30019116
-0.017341422 0.38114446 -0.30419886
0.0049183369 0.38071525 -0.30818105
0.027116789 0.38028577 -0.31216681
0.093688779 0.38060614 -0.3091929
0.11600287 0.38103825 -0.3051846
0.13837853 0.38146982 -0.30117965
0.16081706 0.38190416 -0.29714894
0.049397361 0.40414554 -0.29751325
-0.5093857 -0.22066858 -0.28793979
0.60805494 -0.22053221 -0.28930295
0.60832489 -0.1312505 -0.28795445
-0.48759544 -0.086714692 -0.28475416
-0.46411157 -0.041705899 -0.29127944
0.56473231 -0.019665629 -0.28191507
0.54137665 0.025218673 -0.28730905
-0.42094836 0.069936931 -0.28157628
0.51810986 0.069936827 -0.29266858
-0.39853862 0.11474273 -0.2816205
0.49665838 0.11465519 -0.28730905
-0.37532309 0.13701019 -0.28748512
0.47337738 0.13687602 -0.29329705
-0.35220665 0.15918952 -0.29328239
0.45308906 0.18203488 -0.27945375
-0.33162037 0.20446333 -0.27926195
0.42990246 0.20419881 -0.28498924
-0.3085736 0.22659236 -0.2846806
0.4068 0.22627708 -0.29053307
-0.28561243 0.24863929 -0.290079
-0.26288682 0.27070877 -0.29395437
-0.24112631 0.2934728 -0.28802752
0.33974186 0.29324049 -0.29104531
-0.21927537 0.31632903 -0.2820915
-0.19588761 0.31524172 -0.29493248
0.31801459 0.31608135 -0.28501856
-0.17399547 0.33808669 -0.28903913
0.27266529 0.33780813 -0.29205465
0.29619962 0.33901975 -0.27893734
-0.15204215 0.36107019 -0.28266585
0.25083685 0.360773 -0.28563571
-0.10700071 0.38287771 -0.28811562
-0.084492229 0.38244218 -0.29215682
0.18331824 0.38233986 -0.29310703
0.20588143 0.38277513 -0.28906846
0.22892176 0.38385579 -0.27904058
-0.040097736 0.40600955 -0.28136992
-0.017630616 0.40554246 -0.28541529
0.0047742538 0.40507489 -0.289464
0.027116789 0.40460876 -0.2935015
0.071725085 0.40449914 -0.29445064
0.09412241 0.40496504 -0.290416
0.11658266 0.40543383 -0.28635526
0.13910586 0.40590414 -0.28228307
0.049543083 0.42875767 -0.27858317
0.63495171 -0.22272435 -0.26739752
0.63614106 -0.20074058 -0.26167524
-0.51148814 -0.1320399 -0.27655995
0.6123054 -0.11012106 -0.26806664
-0.49109548 -0.065248929 -0.26498604
0.58845955 -0.064785324 -0.27502203
-0.46748957 -0.01999148 -0.27133346
-0.4441793 0.02505156 -0.27645648
0.54529208 0.047407523 -0.26519454
0.52203226 0.092433043 -0.26950777
-0.40129867 0.13758139 -0.26274979
0.49978352 0.13746065 -0.26797736
-0.37796229 0.15995452 -0.26843822
0.4763642 0.15978637 -0.27389705
-0.35474932 0.18225047 -0.27385271
0.43270722 0.2276665 -0.26474774
-0.31088039 0.25020215 -0.26470315
0.40946794 0.2498669 -0.27014637
-0.28781185 0.27239105 -0.26967132
0.38634881 0.27200496 -0.27524388
-0.26481849 0.29450247 -0.274652
0.36358109 0.29424646 -0.27797806
-0.24287279 0.3174274 -0.26912165
0.34180552 0.31719229 -0.27189696
-0.22090563 0.34050688 -0.26283932
-0.19734177 0.33928722 -0.27604258
0.31996122 0.34025493 -0.26556706
-0.17534864 0.36238694 -0.26950788
0.27433708 0.36210638 -0.27231193
-0.15325856 0.38559383 -0.26291382
-0.12999941 0.38416943 -0.27613127
0.2523737 0.38529664 -0.26567113
-0.107878 0.40742379 -0.26912165
-0.085221276 0.40695116 -0.27321589
-0.062627949 0.40647978 -0.27729869
0.16169229 0.40637565 -0.27819955
0.18434221 0.40684849 -0.27410448
0.20705588 0.40732267 -0.26999784
0.0046268012 0.42977685 -0.27030957
0.027116789 0.42926544 -0.27445972
0.072018974 0.42915446 -0.27536225
0.094566189 0.42966715 -0.27119994
-0.040545329 0.43080154 -0.26198888
-0.01792703 0.43028754 -0.26616263
0.1171774 0.43017942 -0.26704049
0.13985367 0.43069491 -0.26285422
-0.53785688 -0.22384933 -0.25615549
-0.51692992 -0.111412 -0.24710536
-0.49464875 -0.043490373 -0.24491727
0.59248871 -0.043137558 -0.25408566
-0.47107482 0.0020017549 -0.25016356
0.56881946 0.0022240803 -0.2597928
-0.44758469 0.047332034 -0.25539088
-0.42438498 0.092512004 -0.25925434
0.52605617 0.1152951 -0.24574757
0.50304312 0.16058962 -0.24781406
-0.38072401 0.18322599 -0.24850714
0.47950906 0.18303496 -0.2534703
-0.35734597 0.20562965 -0.2540108
0.45606533 0.20539442 -0.25910497
-0.33405152 0.22794798 -0.25952363
0.41227412 0.2738438 -0.24870288
-0.29005539 0.29648837 -0.24885356
0.38897884 0.29610074 -0.25389051
-0.26689464 0.31871584 -0.25390565
0.36581221 0.31831348 -0.25865614
-0.24468525 0.34173903 -0.24950111
0.34394357 0.34150276 -0.25205815
-0.19886574 0.36371419 -0.25624537
0.29805237 0.36345056 -0.25888062
0.32198843 0.36480859 -0.24530983
-0.17672849 0.38702962 -0.24959147
0.27604321 0.38675246 -0.25216353
-0.13106856 0.40890566 -0.25629044
0.23031124 0.40859434 -0.25898528
0.25394115 0.41017351 -0.24530983
-0.10880092 0.43238407 -0.24913967
-0.085975513 0.43183231 -0.25362051
-0.063228257 0.43131703 -0.2578032
0.16259496 0.43121219 -0.25865614
0.18540153 0.43173051 -0.25444579
0.20827368 0.43225062 -0.25022364
-0.018234601 0.45542374 -0.2461853
0.0044735689 0.45487159 -0.25040424
0.027116789 0.45432112 -0.25461113
0.049695332 0.45377219 -0.25880563
0.072325759 0.4542132 -0.25543594
0.095027685 0.45476541 -0.25121629
0.11779495 0.45531917 -0.24698484
-0.54169577 -0.24859819 -0.23620784
-0.51798224 -0.24803749 -0.24140942
0.61890692 -0.2487193 -0.23508346
0.6405924 -0.24816161 -0.24025846
-0.5416519 -0.20307201 -0.23643577
0.64291555 -0.18094417 -0.22908115
0.61807126 -0.089166172 -0.23925829
0.59679896 -0.021212302 -0.23168921
-0.47470987 0.024316296 -0.22869956
0.57299161 0.024447355 -0.23721015
-0.45122418 0.069936879 -0.23287725
0.54943365 0.069936827 -0.24180293
-0.42787248 0.11543581 -0.2366029
-0.40472794 0.16085158 -0.23930383
-0.38352367 0.20681703 -0.22830248
0.48269832 0.20661134 -0.23275542
-0.36001202 0.22934279 -0.23363829
0.45910791 0.22909155 -0.23830295
-0.33661291 0.25180179 -0.23872745
0.43564972 0.25150713 -0.24351215
-0.31329593 0.27418441 -0.24378419
-0.29237396 0.32096541 -0.2273401
0.39169085 0.32058159 -0.23187196
-0.26909202 0.34336033 -0.23194826
0.3683587 0.3429305 -0.23660278
-0.24654759 0.36640671 -0.22934067
-0.22259855 0.3650552 -0.24284685
0.346147 0.36617932 -0.2316128
-0.2004129 0.38847849 -0.23614717
0.29993224 0.38822165 -0.23853028
-0.17815265 0.41205269 -0.2290355
-0.15449996 0.41046837 -0.24275601
0.27780145 0.41177967 -0.23139966
-0.13219002 0.4340668 -0.23547852
0.23177044 0.43376556 -0.23792362
-0.109769 0.45777985 -0.22818029
-0.086751066 0.4570877 -0.23347092
-0.063846931 0.45653272 -0.23771107
-0.041008011 0.45597735 -0.24195433
0.14062841 0.45587644 -0.24272597
0.16352732 0.45643339 -0.2384696
0.18649243 0.45699203 -0.23420131
0.20952402 0.45755222 -0.22992051
0.0043182354 0.48031095 -0.23022556
0.027116789 0.47971988 -0.23449039
0.049849659 0.47912854 -0.23875785
0.072636768 0.47961658 -0.23523533
0.095495544 0.4802095 -0.23095763
-0.52275866 -0.090443484 -0.21555626
-0.49845994 -0.021467775 -0.22339177
0.57735962 0.047010168 -0.21356773
0.55371559 0.092832439 -0.21761906
-0.43153769 0.13873512 -0.21279633
0.53025526 0.13854674 -0.22095346
-0.40829596 0.18451917 -0.2149092
0.50702584 0.18420099 -0.22317731
0.48603514 0.23055837 -0.21108234
-0.3628062 0.25343004 -0.21228683
0.46231547 0.25317842 -0.21637237
-0.33923554 0.27601004 -0.21743429
0.43867773 0.27571744 -0.2216593
-0.31574264 0.2985099 -0.22259486
0.4151198 0.29817408 -0.22695792
0.37100786 0.3679758 -0.21366036
-0.22431476 0.38994059 -0.22257948
0.32404238 0.38970289 -0.22478557
0.34839794 0.3912181 -0.21072674
-0.20202528 0.41364998 -0.21520174
0.30188814 0.41340098 -0.21735752
-0.1557973 0.43576512 -0.22168994
0.25558594 0.43548757 -0.22394335
-0.13332999 0.45959333 -0.21432328
0.23325714 0.45931324 -0.21646488
-0.018546166 0.4809036 -0.22594869
0.11842056 0.48080391 -0.22666752
-0.087543868 0.48271531 -0.21287334
-0.064476982 0.48210889 -0.21724975
-0.041477412 0.48150206 -0.22162855
0.14141388 0.4814066 -0.22231877
0.16447619 0.48201513 -0.21792662
0.18760595 0.48262337 -0.21353674
0.027116789 0.50556391 -0.21344435
0.05001073 0.50492167 -0.21783435
0.072962053 0.50546688 -0.21410739
-0.54875505 -0.27558619 -0.19952679
0.64909393 -0.27560595 -0.19935548
-0.54718316 -0.18275496 -0.20769465
0.64986199 -0.16070941 -0.19566023
0.62549102 -0.068149514 -0.20218694
-0.50232989 0.00087863952 -0.20153415
0.60122901 0.001043506 -0.20867002
-0.47855055 0.046952046 -0.20602119
-0.45495492 0.092892706 -0.20979941
0.53468162 0.16222139 -0.19481695
0.5113253 0.20828217 -0.19658089
-0.38646072 0.23077255 -0.20710611
0.46556878 0.27762464 -0.19412947
-0.34194049 0.30059764 -0.19547284
0.44179413 0.30031312 -0.19916856
-0.31832722 0.3232626 -0.20021164
0.41811958 0.32293868 -0.20403552
-0.29479021 0.34585714 -0.20491993
0.39452571 0.34549373 -0.20885575
-0.27132714 0.36838078 -0.20961368
-0.24845563 0.3914381 -0.20868528
-0.22612317 0.41526422 -0.20122302
0.32620439 0.4150379 -0.20318139
-0.2036787 0.43920979 -0.19372308
-0.17962581 0.43747926 -0.20777214
0.27962792 0.43722588 -0.20983005
0.30389965 0.43898064 -0.19558215
-0.15711235 0.46142381 -0.20033622
0.25725356 0.46116942 -0.20228028
-0.11076528 0.48358315 -0.20661032
0.21083272 0.48329771 -0.20867002
0.23480025 0.48530385 -0.19419217
-0.065137438 0.5081445 -0.19580078
-0.041971646 0.50749707 -0.20022726
-0.018874222 0.50685149 -0.20464087
0.0041552782 0.50620562 -0.20905674
0.095986322 0.50611055 -0.20970666
0.11907875 0.50675631 -0.20529234
0.14224024 0.50740594 -0.20084965
0.16547073 0.50805783 -0.19639373
0.050175898 0.53111905 -0.19637811
0.67681956 -0.27811819 -0.17759919
0.67606443 -0.25453693 -0.18110275
-0.55300236 -0.16211084 -0.17745709
-0.52890861 -0.069069467 -0.18226886
-0.50641662 0.02354278 -0.17845225
0.60582232 0.023640435 -0.18480265
-0.48253047 0.069936879 -0.18252063
0.58191109 0.069936827 -0.1889323
-0.45883828 0.11621831 -0.18577719
0.5581513 0.11611386 -0.19256616
-0.43536156 0.16243264 -0.18795979
-0.41201741 0.2086108 -0.1894654
-0.38947275 0.25508782 -0.18536842
0.48947433 0.25487983 -0.18874419
-0.36564305 0.27786863 -0.19060946
0.44505233 0.32534209 -0.17565453
-0.32096201 0.34839997 -0.17739391
0.42119086 0.34810695 -0.18056679
-0.29725686 0.37114102 -0.18203247
0.39741665 0.37080562 -0.18538415
-0.27366537 0.39385617 -0.18624854
0.37377086 0.39348078 -0.18973184
-0.25044852 0.41689357 -0.18711221
0.35075352 0.41669056 -0.1888696
-0.22795914 0.44095653 -0.17954147
0.32840443 0.44075251 -0.1811974
-0.18112789 0.46328804 -0.1860913
0.28148782 0.46305579 -0.18786561
-0.1584941 0.48756152 -0.17789936
-0.13451505 0.4855617 -0.19233143
0.25900155 0.48732939 -0.17957294
-0.11180304 0.50984979 -0.18414187
-0.08837188 0.50879389 -0.19136107
0.18877055 0.50871134 -0.19192469
0.21223576 0.50959456 -0.1858871
0.0039891284 0.53249002 -0.1874733
0.027116789 0.5318048 -0.19192445
0.073294908 0.53171802 -0.19248784
0.09648709 0.53240561 -0.18802261
-0.042472705 0.53386676 -0.17853129
-0.019207267 0.5331775 -0.18300879
0.11974842 0.53309506 -0.1835438
0.14307983 0.53378904 -0.17903638
0.63410294 -0.046791136 -0.1591593
0.5865885 0.093248233 -0.16361499
-0.46291906 0.13994208 -0.16053414
0.56286806 0.13981752 -0.1659255
-0.439316 0.18654507 -0.16227484
0.53923774 0.18632802 -0.16791463
-0.41594067 0.23316854 -0.16264212
0.51590294 0.23286554 -0.16826439
-0.3926506 0.27982068 -0.16243446
0.49301693 0.27959207 -0.16573429
-0.36863175 0.30273017 -0.16777134
0.46899641 0.30250511 -0.17069471
-0.34475791 0.32560086 -0.17259824
0.40047938 0.3966291 -0.16051805
-0.27608368 0.41978365 -0.16208339
0.37663752 0.41945773 -0.16490626
-0.25247037 0.44271982 -0.16522479
0.35314563 0.44254127 -0.16667366
-0.20538181 0.46518451 -0.17159927
0.3059701 0.4649792 -0.1731689
-0.18270388 0.48957822 -0.16334403
0.28344142 0.4893772 -0.16479468
-0.13573828 0.51197201 -0.16963089
0.23639522 0.511747 -0.17117083
-0.11286245 0.53653443 -0.16120505
-0.089211933 0.5352518 -0.16953564
-0.065807492 0.53455812 -0.17404008
0.16648054 0.53448278 -0.17453086
0.18995219 0.53518081 -0.16999614
0.2136673 0.536313 -0.16264188
-0.019553782 0.55997783 -0.16050208
0.0038169995 0.55923247 -0.16511333
0.027116789 0.55849177 -0.16969454
0.050346151 0.55775356 -0.17426169
0.073638499 0.55841482 -0.17017078
0.097005852 0.55916029 -0.16555929
0.12044415 0.55990565 -0.16094947
-0.5578658 -0.30445188 -0.15218616
0.65902489 -0.30452716 -0.15157533
-0.55936939 -0.14119813 -0.1443733
0.65777123 -0.14028123 -0.1576072
-0.53570706 -0.047318064 -0.14547122
0.61242729 0.04652445 -0.15048182
-0.48663592 0.093289301 -0.15827942
-0.37168109 0.3279826 -0.14447021
0.47250161 0.32779133 -0.14672947
-0.34763852 0.35100335 -0.14921081
0.44837993 0.35077909 -0.15163958
-0.32371882 0.37399447 -0.15351903
0.42439461 0.3737376 -0.15608549
-0.29986677 0.39692056 -0.15781522
-0.22987072 0.46709949 -0.15696657
0.33069313 0.46692124 -0.15832746
0.35568482 0.46891236 -0.14311302
-0.20714989 0.49161693 -0.14863098
0.30812231 0.49144518 -0.14987051
-0.15990463 0.51411283 -0.15499532
0.26079112 0.5139181 -0.15632582
-0.13699931 0.53883994 -0.14622939
0.2380383 0.53865135 -0.14745474
-0.090094097 0.5622226 -0.14661646
-0.066508628 0.56147033 -0.15126979
-0.042995505 0.56072307 -0.15589297
0.14395458 0.56065571 -0.15630972
0.16753709 0.56140798 -0.15165567
0.19119117 0.56215996 -0.14700365
0.0036399253 0.58642781 -0.14211071
0.027116789 0.58564019 -0.14676154
0.050522029 0.58485222 -0.15141463
0.073992953 0.58557463 -0.14714849
0.097539164 0.58636761 -0.14246631
-0.51373452 0.04642164 -0.13712096
-0.49099267 0.11703774 -0.13255417
0.5916003 0.11697717 -0.13648772
-0.46711615 0.16407655 -0.13457119
0.56768668 0.16394901 -0.13871026
-0.44352123 0.21112832 -0.13496125
0.54412597 0.2109395 -0.1390506
-0.4199917 0.25819319 -0.13494503
0.52061772 0.25793725 -0.13909924
-0.39665791 0.30536729 -0.13351429
0.49735728 0.30505717 -0.13754261
-0.350685 0.37690082 -0.12447655
0.45190358 0.37672734 -0.12620974
-0.32656866 0.4000434 -0.1288389
0.42771274 0.39983955 -0.13073039
-0.30252081 0.42311999 -0.13318872
0.40359715 0.42288736 -0.13520491
-0.2785899 0.4461914 -0.13703978
0.37960434 0.44592363 -0.13921285
-0.25472367 0.46921083 -0.1408323
-0.23183461 0.49367553 -0.13377452
0.33304611 0.49353141 -0.13481498
-0.20896399 0.51849031 -0.12506545
-0.18430728 0.5162766 -0.14020085
0.28542942 0.51611328 -0.14131784
0.31032911 0.5183565 -0.12598109
-0.1613759 0.54116857 -0.13110495
0.26265615 0.54101551 -0.13209844
-0.11397411 0.56375504 -0.13713694
0.21516906 0.56357408 -0.13825631
-0.067223445 0.58880836 -0.12805557
-0.04352998 0.58801329 -0.13274956
-0.019908765 0.58721805 -0.13744533
0.12115741 0.58716041 -0.13778603
0.14484888 0.58795804 -0.133075
0.16861357 0.58875841 -0.12834942
0.050702855 0.61241645 -0.12792504
-0.54268605 -0.28618988 -0.10769629
-0.56597298 -0.11985185 -0.11005986
0.6659829 -0.11935677 -0.11809862
0.64306855 -0.024824917 -0.1143645
0.59670269 0.14113513 -0.10887027
0.57289684 0.18858477 -0.10928357
0.54913366 0.23603314 -0.10948169
0.52566487 0.28360045 -0.10787821
-0.37487441 0.35369536 -0.12006891
0.47616357 0.35354552 -0.12169254
-0.30533239 0.44987881 -0.10710073
0.40689978 0.44971988 -0.10839105
-0.28120065 0.47312126 -0.11095142
0.38270381 0.4729355 -0.11237037
-0.25712758 0.49630341 -0.11480904
0.35857025 0.49609143 -0.11633956
-0.23387067 0.52073342 -0.10972941
0.33548707 0.52063197 -0.11042321
-0.1859969 0.54352278 -0.11581314
0.28752223 0.54340124 -0.11660278
-0.13830914 0.56621456 -0.12192202
0.23974596 0.56607163 -0.12280679
0.26457283 0.56859463 -0.10720003
-0.11510432 0.59141433 -0.1126672
-0.090989724 0.58960563 -0.12334716
0.19245093 0.58955842 -0.1236254
0.21669723 0.59128314 -0.11344194
-0.044086799 0.61583096 -0.10863888
-0.020277811 0.6149748 -0.11347485
0.0034567267 0.6141184 -0.11831212
0.027116789 0.61326754 -0.12311792
0.074358389 0.61321521 -0.12341261
0.098090909 0.61407185 -0.11857498
0.12189838 0.61493111 -0.11372209
0.14578052 0.61579007 -0.10887015
-0.56708437 -0.33411986 -0.104285
0.66890913 -0.33415461 -0.10401976
0.64668602 -0.28750685 -0.096290469
-0.54289091 -0.025064409 -0.10658777
0.62253588 0.069936879 -0.097955942
-0.52174371 0.069936983 -0.091884971
-0.49542671 0.14119279 -0.10637248
-0.47161046 0.18868156 -0.1067698
-0.44783607 0.23617044 -0.10693526
-0.42429912 0.28376549 -0.10549474
-0.40082982 0.33145979 -0.10340607
0.50225317 0.3312619 -0.10574317
-0.3781738 0.37986502 -0.094856739
0.47995692 0.37977493 -0.095757008
-0.35378343 0.40322474 -0.099320292
0.45548666 0.40311339 -0.10035121
-0.32952642 0.42658013 -0.10322368
0.43115833 0.4264442 -0.10440111
-0.21086392 0.54589826 -0.10038447
0.31264144 0.54581118 -0.10094929
-0.18771493 0.57121086 -0.091015697
-0.1628878 0.56869906 -0.10655451
0.28965208 0.57114065 -0.091450453
-0.1396571 0.59408349 -0.09690702
0.24150342 0.59399331 -0.097439885
-0.091929883 0.61755168 -0.09892118
-0.067970701 0.61668998 -0.10378754
0.16973883 0.61665475 -0.10398662
0.19377318 0.61752218 -0.099087477
0.0032666605 0.64234 -0.093621969
0.027116789 0.64143783 -0.098505139
0.050891727 0.64053535 -0.10338962
0.074739046 0.64140391 -0.098688006
0.098663323 0.64230925 -0.093788862
-0.54796016 -0.31344774 -0.079149127
0.65086299 -0.31390694 -0.075420976
0.67536616 -0.098127671 -0.072953343
-0.47619545 0.21374035 -0.078407526
0.57820839 0.21369985 -0.079283953
-0.4524515 0.26176432 -0.076957226
0.55452472 0.26172158 -0.077648878
0.53088176 0.30982497 -0.075606823
-0.42875457 0.30986926 -0.075032592
0.45929474 0.43008506 -0.072868705
-0.3326062 0.45364141 -0.076552153
0.43475202 0.45359361 -0.076940298
-0.30819961 0.47710678 -0.08049643
0.41027328 0.47704083 -0.081001401
-0.28390849 0.50058734 -0.08389318
0.38591838 0.50049889 -0.084531426
-0.25967813 0.52402878 -0.087198853
0.36163315 0.5239234 -0.087919354
-0.23598166 0.5482977 -0.084800005
0.33801937 0.54824859 -0.08511889
-0.21280381 0.57377017 -0.075184584
0.31500432 0.57374024 -0.075370431
-0.16446251 0.59677994 -0.080984592
0.26656887 0.59673142 -0.081270576
-0.11630078 0.61970431 -0.086762905
0.21831749 0.61963904 -0.087131739
-0.092890985 0.64597428 -0.073951006
-0.068737157 0.64506054 -0.078896403
-0.044660211 0.64415288 -0.083809137
-0.02065889 0.64324498 -0.088723302
0.12266402 0.64322019 -0.088857293
0.1467406 0.64413118 -0.083926797
0.17089459 0.64504814 -0.078963637
0.19512495 0.64596474 -0.074001789
0.051085465 0.66915381 -0.078222036
0.027116789 0.67012554 -0.073173165
0.075130835 0.67011249 -0.073240757
-0.55086982 -0.0023114458 -0.063400388
0.65326893 -0.0023114458 -0.063400388
-0.50259763 0.16624862 -0.064030051
0.60496193 0.16624439 -0.064166069
-0.40527934 0.35820091 -0.071294665
0.50749171 0.35816184 -0.071717858
-0.38186541 0.40674582 -0.066647887
0.48419213 0.40672934 -0.066800714
-0.35707268 0.43011445 -0.072615027
-0.26229218 0.55228508 -0.058900833
0.36477712 0.5523088 -0.058747053
-0.23816319 0.57638049 -0.059037209
0.34063801 0.57639426 -0.058951855
-0.18952446 0.59950423 -0.064897537
0.29189909 0.59950167 -0.064914465
-0.14106736 0.6225419 -0.070735693
0.24334534 0.62252104 -0.070854306
-0.11751992 0.64848369 -0.060368061
0.21996889 0.64849317 -0.060316801
-0.045256741 0.67304975 -0.057978749
-0.021054002 0.67207181 -0.063060045
0.0030703824 0.67109704 -0.068124771
0.099255227 0.67109054 -0.068158746
0.12345784 0.67206836 -0.063076973
0.14773999 0.67305285 -0.057961583
-0.57666069 -0.36478281 -0.054525018
0.67921418 -0.36479467 -0.054439306
-0.55332977 -0.34121272 -0.050085664
0.65527833 -0.34078407 -0.053360701
-0.5304116 0.094177373 -0.042928815
0.6338402 0.094205923 -0.039217114
-0.48113215 0.23935315 -0.047869802
0.583956 0.23940974 -0.046820998
-0.45719722 0.28787827 -0.046132684
0.56007504 0.2879653 -0.044876099
-0.43354604 0.33663639 -0.042273283
0.536488 0.33675042 -0.040927172
-0.36042348 0.45747718 -0.045409918
0.46317831 0.45754722 -0.044841647
-0.33580706 0.48125055 -0.04883194
0.4384934 0.48131353 -0.04835093
-0.31125334 0.5049842 -0.052161217
0.41387194 0.50503647 -0.051784158
-0.28674644 0.52866012 -0.055534601
0.38929826 0.52870011 -0.055260897
-0.21484697 0.60225707 -0.048643112
0.31749552 0.60229808 -0.048402667
-0.16609095 0.62540919 -0.054542184
0.26863828 0.62543643 -0.054388046
-0.1425221 0.65155596 -0.043738961
0.24524663 0.65161657 -0.043411493
-0.093898162 0.67501152 -0.047783852
-0.069537692 0.67402744 -0.052898169
0.17210089 0.67403746 -0.05284667
0.19654235 0.67502838 -0.047697783
0.0028668623 0.7004351 -0.041686535
0.027116789 0.6994074 -0.04682076
0.051288195 0.69839352 -0.051886916
0.075538918 0.69942462 -0.046734691
0.099869356 0.70045912 -0.041565895
-0.55739826 -0.36844933 -0.02806437
0.66008019 -0.36826852 -0.029369235
-0.82588291 -0.22252005 -0.025904298
-0.80080491 -0.22227082 -0.028603673
-0.77637917 -0.22224349 -0.02889955
-0.75203079 -0.22224349 -0.02889955
-0.72792751 -0.22233823 -0.027872682
-0.70445675 -0.22269246 -0.024038315
-0.40993738 0.3855871 -0.037678123
0.51298833 0.38575348 -0.036016345
-0.386446 0.43484533 -0.031645894
0.48963898 0.43508598 -0.029560447
-0.31437451 0.53338939 -0.023200512
0.41754958 0.53357589 -0.021925211
-0.28969425 0.55733848 -0.026078582
0.39280885 0.55752647 -0.024858117
-0.26506677 0.581258 -0.028864741
0.36812139 0.58144379 -0.027716041
-0.2404841 0.60513872 -0.031628489
0.34348017 0.60532117 -0.030551195
-0.21694137 0.63127065 -0.021436095
-0.19137552 0.62830615 -0.038179874
0.29419807 0.62837964 -0.037764549
-0.16779125 0.65466106 -0.026932359
0.27079877 0.65477371 -0.026322722
-0.11881045 0.67796719 -0.032427311
0.22171745 0.67806411 -0.031923771
-0.070360832 0.70354158 -0.026165843
-0.04587169 0.70250368 -0.031350613
-0.021462632 0.7014693 -0.036518574
0.12427937 0.70149362 -0.036397338
0.14877027 0.70253515 -0.031194329
0.17334208 0.70357984 -0.025974035
-0.80636173 -0.24874601 -0.0073728561
-0.78155661 -0.24863142 -0.0085186958
-0.75705135 -0.24863142 -0.0085186958
-0.73282373 -0.2487478 -0.0073552132
-0.88019037 -0.22432485 -0.0063673258
-0.85210341 -0.22313651 -0.019232035
-0.68156618 -0.22331119 -0.017340541
-0.65933055 -0.22425479 -0.0071259737
-0.90403652 -0.19960743 -0.0086774826
-0.87783933 -0.19910404 -0.014621973
-0.85338587 -0.19910559 -0.014604449
-0.82891804 -0.19910255 -0.014639497
-0.80446446 -0.19910404 -0.014621973
-0.78000617 -0.19910404 -0.014621973
-0.75554788 -0.19910404 -0.014621973
-0.73108542 -0.19910255 -0.014639497
-0.70662731 -0.19910255 -0.014639497
-0.68217307 -0.19910404 -0.014621973
-0.65771484 -0.19910404 -0.014621973
-0.63433099 -0.19954181 -0.009452343
-0.55958027 0.021045569 -0.01625371
0.66457802 0.020901386 -0.006896615
-0.51259935 0.19259974 -0.0049726963
-0.48617226 0.26547551 -0.016692042
0.5911904 0.26613653 -0.0059614182
-0.46233803 0.31466433 -0.012742281
0.56606233 0.31491214 -0.0095227957
-0.43853202 0.36403096 -0.0081838369
0.54235464 0.36435848 -0.0046371222
-0.36400163 0.48550016 -0.016358852
0.46733403 0.48569772 -0.01485014
-0.33916435 0.50947422 -0.019756913
0.44241863 0.50966835 -0.018356562
0.32005116 0.63139439 -0.020736694
-0.19333164 0.65779942 -0.0099455118
0.29662982 0.65796548 -0.0090472698
-0.14404383 0.68122488 -0.015499473
0.24723515 0.68137676 -0.014709592
-0.094930455 0.70458269 -0.020964026
0.19801593 0.70470506 -0.020351887
-0.56285787 -0.39712641 0.0014867783
0.66602182 -0.39695525 0.00031685829
-0.86011153 -0.25045115 0.0096648932
-0.83222735 -0.249248 -0.0023567677
-0.70931274 -0.24918252 -0.0030111074
-0.68658566 -0.24999857 0.0051438808
-0.63784915 -0.22560343 0.0074739456
-0.6130783 -0.20091483 0.0067622662
-0.93108124 -0.17575482 -0.00021469593
-0.90651196 -0.17575482 -0.00021469593
-0.88194281 -0.17575482 -0.00021469593
-0.63625103 -0.17575482 -0.00021469593
-0.6116783 -0.17575347 -0.00023245811
0.61854303 0.19315085 0.009344101
-0.41487822 0.41371068 -0.0020204782
0.51884693 0.41414794 0.0020366907
-0.39135358 0.46379125 0.0058550835
0.49552742 0.46438801 0.010699034
-0.34265435 0.53831363 0.010467172
-0.31769186 0.56252056 0.0075808764
0.42147341 0.56288272 0.0099322796
-0.2927779 0.58668977 0.0047352314
0.39648882 0.58705777 0.0070112944
-0.26791969 0.61083716 0.0020188093
0.37156704 0.61121595 0.0042556524
-0.24315618 0.63505304 -7.3075294e-05
0.34675026 0.63544226 0.0021252632
-0.21914768 0.6609717 0.0072249174
0.32274434 0.66119212 0.0084176064
-0.16954906 0.68451756 0.0016108751
0.2730324 0.68472594 0.0026931763
-0.12011768 0.70795286 -0.0041247606
0.22351326 0.70822555 -0.0027635098
-0.66478711 -0.25130418 0.018189549
-0.91231 -0.22672406 0.019605637
-0.61733323 -0.22750166 0.028021336
-0.93777537 -0.2022121 0.022082686
-0.91433412 -0.15303829 0.026525617
-0.96208495 -0.15263343 0.020682096
-0.9354406 -0.15219164 0.014305711
-0.61458814 -0.15219164 0.014305711
-0.96462792 -0.12841201 0.028941035
-0.93983978 -0.12841317 0.028959036
-0.54033643 0.11928071 0.013126493
-0.46766654 0.34206781 0.021867037
0.57231987 0.34253839 0.027426362
-0.44384858 0.39217636 0.02816546
-0.36786222 0.51428831 0.014985323
0.47224513 0.51506513 0.020592451
0.44651064 0.5386712 0.012912154
-0.19532186 0.6878221 0.018780947
0.2990956 0.68807048 0.020072103
-0.5452137 -0.40285778 0.040673018
0.64809108 -0.40200347 0.034832478
-0.54580945 -0.37844011 0.044038057
0.64834553 -0.37734774 0.036154747
0.64927107 -0.35312793 0.040963769
0.65020978 -0.32884261 0.045841813
-0.81819087 -0.27813098 0.037822723
-0.79220152 -0.27765268 0.0333848
-0.76737368 -0.27765268 0.0333848
-0.74264085 -0.27769557 0.033782959
-0.71889794 -0.27820325 0.038493991
-0.8930456 -0.25336343 0.038766265
-0.64434177 -0.25335786 0.038711786
-0.96918142 -0.10441532 0.043728709
0.64717954 0.11954195 0.030096054
0.5486474 0.39278919 0.034289479
-0.42014784 0.4426575 0.036010027
0.52516222 0.44347095 0.043055177
-0.39650065 0.49355444 0.045185804
-0.34629124 0.56781435 0.041963696
0.45077473 0.568358 0.045495629
-0.32111147 0.59227926 0.039310932
0.4255262 0.59284937 0.042836785
-0.29602739 0.61679631 0.037206054
0.40037575 0.61738336 0.040673018
-0.27097264 0.64127487 0.035068035
0.37525699 0.64188141 0.038493991
-0.24595101 0.66572124 0.032932758
0.35017022 0.66634333 0.036299706
-0.57322258 -0.43034589 0.057587504
-0.54899949 -0.43103379 0.062055469
0.65266466 -0.4305014 0.058597565
-0.54671687 -0.3542009 0.049162865
-0.54762709 -0.32988486 0.054304004
-0.54839379 -0.30539608 0.0586344
0.65103185 -0.30441213 0.050112963
-0.69752342 -0.2798894 0.054139137
-0.5490908 -0.28079814 0.062571049
0.65173256 -0.27984801 0.053754449
0.65243495 -0.25522855 0.057403803
-0.97186822 -0.17980936 0.052454233
-0.94904691 -0.105272 0.059626818
-0.97378242 -0.080198027 0.058671117
-0.52384496 0.22019914 0.06142962
-0.4980911 0.29502606 0.057036757
-0.47373492 0.37044793 0.061282396
0.50172573 0.49458694 0.053076744
-0.37303257 0.54511428 0.056963205
-0.62752712 -0.25738502 0.078953028
-0.54978627 -0.25613874 0.066498756
-0.95539111 -0.08121819 0.080758452
-0.97843194 -0.055756666 0.073770761
-0.55133653 0.14538735 0.075255156
-0.44949579 0.42112499 0.066775799
0.55539584 0.42212293 0.076034904
-0.42569646 0.47243747 0.076053262
0.4784961 0.54639292 0.065705299
-0.35014397 0.59810179 0.075329304
0.45540166 0.59899467 0.080851793
-0.32476136 0.62288821 0.073177457
0.42985085 0.62369615 0.077948809
-0.29940841 0.6476354 0.070991397
0.40442038 0.64846909 0.075700521
-0.95883638 -0.056467317 0.092234135
-0.98311341 -0.03108608 0.088973999
0.63471079 0.22183529 0.096854448
0.60863608 0.297488 0.092571855
0.53180856 0.47369027 0.086224556
-0.40210614 0.5244081 0.088019609
-0.55715567 -0.46352923 0.1081214
0.63772792 -0.46434784 0.11318529
-0.53200918 -0.43835944 0.1096369
0.63582474 -0.4373197 0.10288417
0.63719141 -0.41303888 0.11028159
0.63811773 -0.38831374 0.11529505
-0.96125215 -0.031434253 0.100281
-0.98784423 -0.0061852038 0.10433805
-0.96395296 -0.0062991977 0.10927677
0.58501917 0.37424743 0.1024121
-0.45545718 0.45091647 0.10753441
0.50847006 0.52595586 0.099188209
-0.37854907 0.57701921 0.1017518
0.48528054 0.5790078 0.11466753
-0.53323489 -0.46494424 0.11687446
-0.53363502 -0.41434872 0.11923683
-0.53527021 -0.39019796 0.12889278
0.6390503 -0.36351609 0.12034309
0.63978082 -0.3385058 0.12429678
0.64049172 -0.3134225 0.12814486
0.64120084 -0.28827876 0.1319828
-0.99261379 0.01895041 0.11982787
-0.96711493 0.018950615 0.11980879
-0.43173826 0.50330007 0.11965621
-0.3549214 0.63025951 0.11670315
-0.51271552 -0.4698953 0.14750147
0.6171726 -0.46880978 0.14078617
0.61827582 -0.44411445 0.14701688
-0.53627557 -0.3654117 0.13482869
-0.53697389 -0.34031093 0.13895226
-0.53767723 -0.31514996 0.14310539
-0.5383594 -0.2899116 0.14713311
0.64173371 -0.26298061 0.13486719
0.64222836 -0.23761895 0.13754451
-0.95009136 -0.0072111785 0.14876258
-0.94905925 0.018559236 0.14523423
-0.97182071 0.044323161 0.13548326
-0.94843656 0.044264428 0.14310527
-0.53729105 0.24952111 0.14082479
-0.51257443 0.32693267 0.14662898
0.56476355 0.45397028 0.1339823
0.53906655 0.50509429 0.1333667
-0.40807071 0.55632299 0.13359761
0.51577765 0.55859786 0.14915061
-0.38435364 0.60999191 0.14887893
-0.51563084 -0.4986558 0.16553569
0.62119049 -0.49830753 0.16347873
-0.51408887 -0.4454971 0.15599728
-0.51568472 -0.42116934 0.16586924
0.61995214 -0.41979659 0.1564846
0.621638 -0.39534062 0.16600633
-0.53884572 -0.26449543 0.15000486
-0.53933299 -0.2390357 0.15288174
-0.95195699 -0.084653683 0.15513992
-0.95067644 -0.058720194 0.15076256
-0.95102328 -0.033025213 0.15194821
-0.95081854 0.069937035 0.15124834
-0.48970729 0.40587255 0.16502631
-0.43816885 0.53522241 0.16606522
0.59867948 -0.50162578 0.18307257
0.59866613 -0.47563303 0.18299353
-0.51729006 -0.39669755 0.17579925
0.62321824 -0.37065992 0.17493176
0.6247859 -0.34583297 0.18378592
-0.93233466 0.044005685 0.17670667
-0.93023723 0.069936879 0.16934299
-0.9554857 0.095794834 0.16720259
-0.92962772 0.095794834 0.16720259
-0.93421555 0.12190075 0.18331039
-0.41436917 0.5893321 0.18172622
-0.49352157 -0.5027653 0.18980038
-0.49410087 -0.47734159 0.19356322
0.60030097 -0.45113969 0.19264674
-0.51877981 -0.37197945 0.18501484
-0.5202713 -0.34712067 0.19424105
0.62635827 -0.32087281 0.19266665
0.6278007 -0.29569688 0.20081365
-0.93539625 0.017909218 0.18745577
-0.91050094 0.095981918 0.19149184
-0.90867299 0.12192517 0.18489587
-0.91273493 0.14825796 0.19955289
-0.8869459 0.14828508 0.20073354
-0.49565512 -0.4528349 0.20365798
-0.49721855 -0.42818171 0.21381354
0.60194516 -0.42650577 0.2023555
0.60353065 -0.40167445 0.21171713
-0.5217548 -0.32211426 0.20341766
-0.52312577 -0.29689136 0.21189833
0.62924659 -0.27039739 0.20897961
0.63067794 -0.24496463 0.2170639
-0.94173884 -0.0086188838 0.20972395
-0.91380584 0.069936931 0.20341754
-0.88930321 0.12230372 0.20948255
-0.89105195 0.17487052 0.21597302
-0.86481327 0.17486987 0.21595275
-0.46943435 0.48808527 0.20309699
0.55070174 0.54116338 0.20893943
-0.49861032 -0.53464931 0.22285318
-0.47362339 -0.53622222 0.23173726
0.57992136 -0.53551567 0.22774684
-0.47336119 -0.50956392 0.22994459
0.57863241 -0.50784153 0.21977389
0.58022398 -0.48317027 0.22961891
-0.49870402 -0.40330184 0.22346163
-0.50016016 -0.37824848 0.23291981
0.60505623 -0.37665272 0.22072554
0.60659343 -0.35150072 0.22980201
-0.52450693 -0.2715444 0.22044194
-0.52584565 -0.24604163 0.22872317
0.63109684 -0.21892315 0.21942985
-0.91877073 0.043662317 0.22133315
-0.89331013 0.096234836 0.22435451
-0.8666352 0.14879739 0.2229141
-0.84284359 0.17538658 0.23273635
-0.86915797 0.20174214 0.23255265
-0.8427918 0.20174122 0.23253226
-0.45009553 -0.53983438 0.25213873
0.55641121 -0.53875166 0.24602354
0.55733681 -0.51330501 0.2520355
-0.47511244 -0.48515862 0.24191797
-0.47669184 -0.46038795 0.2527163
0.58182466 -0.45835626 0.23952079
0.58340806 -0.43337429 0.24931514
-0.50162446 -0.35305613 0.24243057
-0.50297308 -0.32763052 0.25119019
0.60804176 -0.3261483 0.23835385
0.60945904 -0.30064464 0.24672258
-0.89961392 0.069936879 0.24775088
-0.87090671 0.12276176 0.23923397
-0.84690881 0.14939374 0.24873877
-0.81812215 0.20200548 0.23939776
-0.8205601 0.2288762 0.24929476
-0.79406035 0.22887436 0.24925339
-0.45125583 -0.51474088 0.26051259
0.5591594 -0.4887079 0.2638737
-0.47816885 -0.43534869 0.26281488
0.58489668 -0.40816018 0.25852394
0.58639002 -0.38280812 0.26776123
-0.50431263 -0.30206367 0.25989091
-0.50563657 -0.27635273 0.26848996
0.61087972 -0.27501392 0.25511146
0.61217028 -0.24918324 0.26273191
-0.87762755 0.096547052 0.26491237
-0.82174873 0.17604509 0.25411999
-0.79578388 0.20266277 0.25647557
-0.76939625 0.22923949 0.25715804
-0.77147502 0.25627503 0.26615953
-0.74485528 0.25627503 0.26615953
-0.71834761 0.25630292 0.26667929
0.53550541 -0.57223833 0.28403056
-0.42714226 -0.54464895 0.27933073
0.53357381 -0.54314256 0.27082384
0.53524745 -0.51842487 0.28226662
-0.45294476 -0.49013495 0.27270126
-0.45464858 -0.46535796 0.28499734
0.56099451 -0.46394086 0.27579319
-0.47958434 -0.41009563 0.27249253
-0.48100775 -0.38470092 0.28222454
0.58784056 -0.35728118 0.27673435
0.58922392 -0.33156812 0.28529143
-0.50686407 -0.25045156 0.27646255
-0.50809711 -0.22443074 0.28447187
0.61346304 -0.2232362 0.27036524
-0.85326129 0.12329313 0.2737453
-0.82740712 0.15004846 0.27709019
-0.80063832 0.17674387 0.27681804
-0.77334273 0.20334679 0.27424657
-0.74583143 0.22985727 0.27053189
-0.72209668 0.23048258 0.28407264
-0.69362253 0.2567952 0.27581418
-0.66848892 0.25721532 0.28361034
-0.69516003 0.28394496 0.28321135
-0.66840905 0.28394496 0.28321135
-0.64165401 0.28394359 0.28319025
-0.61490321 0.28394359 0.28319025
-0.42816463 -0.57281327 0.28714275
0.51077414 -0.57493949 0.29865158
0.51107377 -0.54845262 0.30081403
-0.42875206 -0.52001095 0.29163182
-0.43037882 -0.49520475 0.3040626
0.53700954 -0.49362874 0.29431379
-0.45628235 -0.44031781 0.29678822
0.5627678 -0.43893158 0.2873112
0.56453013 -0.41373506 0.29875767
-0.48234665 -0.3590849 0.2913785
-0.48364604 -0.33329692 0.30026269
0.59061068 -0.30572569 0.29387009
0.59190476 -0.27969372 0.301875
-0.779836 0.17753056 0.30236351
-0.75082928 0.2040655 0.29291952
-0.697806 0.23103091 0.29594183
-0.64316082 0.25761467 0.29101992
-0.61784583 0.25805098 0.2991178
-0.58899379 0.28423622 0.28794277
-0.56334978 0.28465202 0.29469419
-0.59120512 0.31188902 0.30043221
-0.56432152 0.31188902 0.30043221
-0.40362448 -0.57617486 0.30533826
-0.40429351 -0.55021542 0.31077027
0.51276392 -0.52363187 0.31301153
-0.43198648 -0.4701845 0.31634736
0.53876513 -0.46864027 0.30631697
0.54045767 -0.44340402 0.31788898
-0.45791844 -0.41509828 0.30859554
-0.45953587 -0.38967952 0.32026863
0.56629092 -0.3883611 0.31019437
0.56798071 -0.36275423 0.3211695
-0.48495215 -0.30737701 0.30919206
-0.48614895 -0.28124493 0.31737494
0.59316343 -0.25351828 0.30966115
0.59442776 -0.2272259 0.31748199
-0.80920416 0.1508711 0.31271291
-0.72792017 0.20476481 0.31109035
-0.673204 0.23154929 0.30716836
-0.64822459 0.23201883 0.31733203
-0.59247321 0.2585077 0.30759442
-0.37962446 -0.58084905 0.33063781
0.48691291 -0.57918704 0.32164192
0.48825401 -0.55395466 0.33188975
-0.4058415 -0.52538067 0.32333839
-0.40740064 -0.50036722 0.33599734
0.51446593 -0.49863708 0.32529485
0.5161199 -0.47339976 0.33723128
-0.43354905 -0.44492507 0.3282876
0.54216146 -0.41800025 0.32953787
-0.46109536 -0.36402947 0.33152282
0.56968105 -0.33698624 0.33221352
-0.48735452 -0.25499228 0.32561767
-0.48853105 -0.22859606 0.33366144
0.59557253 -0.20075634 0.32456374
-0.84009326 0.12413749 0.3285892
-0.75948089 0.17843315 0.33167386
-0.70482016 0.20548072 0.32968891
-0.62321508 0.23251987 0.32817996
-0.38161492 -0.61128253 0.34787571
-0.35480103 -0.6120593 0.35191119
0.46316972 -0.61139578 0.34846413
-0.35461521 -0.58446074 0.35018671
0.46251568 -0.58316147 0.34315383
-0.38103205 -0.55589128 0.3428278
-0.38251004 -0.53084904 0.35562778
0.48988169 -0.52893531 0.34432769
-0.40890396 -0.47508901 0.34820235
0.51775491 -0.44795883 0.34903085
-0.43511662 -0.41948676 0.34026587
-0.43662918 -0.39380911 0.35182393
0.54382265 -0.39237887 0.3408953
0.54545617 -0.36655933 0.35206401
-0.46266481 -0.33821449 0.34284961
-0.46418989 -0.31219047 0.35385585
0.57117474 -0.31090367 0.34191585
0.57240117 -0.28449795 0.34988129
-0.48960489 -0.20202184 0.34100378
-0.68160886 0.20623034 0.34916162
-0.59828085 0.23308411 0.34039605
-0.32875371 -0.61442941 0.36422694
0.43719137 -0.61352074 0.35950553
-0.32938644 -0.58822286 0.37054968
0.43761218 -0.58685577 0.36314988
-0.35609046 -0.5596177 0.36387515
0.46417066 -0.55832809 0.35659075
0.46583828 -0.53330523 0.3701303
-0.3839784 -0.5055964 0.36834419
0.49150947 -0.50372458 0.35676587
0.49307081 -0.47824442 0.36869693
-0.41039607 -0.44960958 0.36031711
-0.41188213 -0.42393693 0.37238252
0.51939476 -0.42234108 0.36086571
0.52095687 -0.39646766 0.37213933
-0.43813151 -0.36794385 0.36330378
0.54710013 -0.34057629 0.36330378
-0.46569401 -0.28598195 0.36471093
0.57363307 -0.25797293 0.35788321
0.57477242 -0.23127371 0.36528301
0.57588583 -0.2044476 0.37251484
-0.65817338 0.20699486 0.3690275
-0.30283388 -0.61746037 0.37997591
0.41140279 -0.61628813 0.37388527
0.41242537 -0.59059209 0.38337362
-0.33077213 -0.5632512 0.38439631
0.43918139 -0.56189561 0.37673974
-0.35757715 -0.53458214 0.37767005
0.46748587 -0.50804752 0.38350677
-0.38539326 -0.48007649 0.38059723
0.4946427 -0.45259207 0.3807081
-0.41330984 -0.39801636 0.38397384
0.52253205 -0.37043223 0.38350677
-0.43963486 -0.34190279 0.37479198
-0.44106939 -0.31562808 0.38575339
0.54865748 -0.31435624 0.37395144
0.55021769 -0.28797421 0.38461852
-0.46720126 -0.25960842 0.37558854
-0.46831384 -0.23282623 0.38361812
-0.27689394 -0.62099653 0.39835119
0.38565007 -0.61955011 0.39083529
-0.30386591 -0.59202856 0.39114809
0.38694811 -0.59436715 0.40380609
-0.30515778 -0.56692261 0.40513301
0.41390428 -0.56549978 0.3970964
-0.33216414 -0.53807682 0.39830601
0.44076005 -0.53673995 0.39041138
-0.35903689 -0.5092935 0.39121485
0.44230154 -0.51132172 0.40376115
-0.36047867 -0.48377097 0.40459299
0.46910724 -0.48255128 0.39667082
-0.3868179 -0.45438027 0.3929348
-0.38820046 -0.42844382 0.40490806
0.49618131 -0.42671967 0.39246559
0.49768308 -0.40062931 0.40394092
-0.41475508 -0.37193498 0.39570796
0.52407384 -0.34419397 0.39463401
0.5255723 -0.31775075 0.4054482
-0.44251564 -0.28919381 0.39680505
0.55175126 -0.26141128 0.39510381
0.55323458 -0.23465768 0.40524554
-0.46936035 -0.20588365 0.39117038
-0.27811933 -0.65153033 0.41282165
-0.25071889 -0.65243572 0.41734636
0.33305666 -0.65319389 0.42113364
0.3602958 -0.65195107 0.4149245
-0.25073981 -0.62470466 0.41761851
0.35989091 -0.62334257 0.41054106
-0.27804852 -0.5958783 0.41198587
0.38833487 -0.56914127 0.41766381
-0.30645353 -0.54160869 0.41915977
0.41539219 -0.54021019 0.41090202
-0.33352181 -0.51263309 0.41187286
0.44383886 -0.48569256 0.41707468
-0.36193374 -0.45806032 0.41809416
0.47074059 -0.45686644 0.4099319
0.47232449 -0.43092173 0.42279124
-0.38957134 -0.40230972 0.41678047
0.49919739 -0.37437433 0.41551268
-0.41615441 -0.34562981 0.40706909
-0.41753194 -0.31913072 0.41825283
0.52707666 -0.29114532 0.41630495
-0.44391486 -0.26255611 0.40749705
-0.44527799 -0.23573023 0.41791308
0.55472636 -0.20775235 0.41544485
-0.22341649 -0.653826 0.42429161
-0.19607912 -0.65544981 0.43240499
0.27858144 -0.65651667 0.43773496
0.30584112 -0.65474635 0.42889059
-0.22376354 -0.62695289 0.42930102
-0.19661069 -0.62921149 0.44103694
0.30640209 -0.62827641 0.43617797
0.33334529 -0.626037 0.42454171
-0.25186402 -0.59961706 0.43222237
0.33457696 -0.60088533 0.43908715
0.36117581 -0.59818113 0.42445064
-0.27924466 -0.57063711 0.4261117
0.36247072 -0.57282472 0.4384681
-0.28043079 -0.54515833 0.44011903
0.38971868 -0.54369712 0.43149161
-0.30770871 -0.51600778 0.4327476
0.41683272 -0.51463705 0.42426872
-0.33487615 -0.48697537 0.4254061
0.41828647 -0.48887706 0.43775785
-0.33622921 -0.46110713 0.43892658
0.44537973 -0.45986289 0.43041885
-0.36334071 -0.43207985 0.43114924
0.47391126 -0.40478221 0.43567443
-0.39094079 -0.37599117 0.42864013
-0.39224508 -0.34942496 0.4399358
0.50063515 -0.34787345 0.42649865
0.50207561 -0.32120571 0.43750596
-0.41890955 -0.29245952 0.42943811
-0.42020822 -0.26555675 0.43998158
0.52850807 -0.26432386 0.42663527
0.52993816 -0.23734283 0.43695617
-0.44664896 -0.20874876 0.42838943
-0.44794697 -0.18156752 0.43830776
0.55615008 -0.1806578 0.42517853
-0.16867073 -0.65727389 0.4415189
-0.14116681 -0.65929204 0.45160198
0.22376412 -0.66046751 0.45747483
0.25122795 -0.65842438 0.44726717
-0.16928251 -0.6314891 0.45287204
0.27928334 -0.63052583 0.4478662
-0.22478192 -0.60179311 0.44400012
-0.19752181 -0.60397881 0.45583129
0.30752724 -0.60304826 0.4507941
-0.25299737 -0.57432562 0.44694495
0.33581662 -0.57552654 0.45372725
0.36374792 -0.54722029 0.45229471
-0.28159872 -0.51942903 0.4539119
0.39107171 -0.51799023 0.44501173
-0.30897978 -0.49022406 0.44650745
0.41972128 -0.46288353 0.45107114
-0.33755082 -0.43498749 0.45213306
0.44687364 -0.43377137 0.44335651
-0.36476034 -0.40591395 0.44432187
0.44837826 -0.40749276 0.4563868
-0.36615291 -0.37951419 0.45724332
0.47540435 -0.37835073 0.44779718
-0.39355755 -0.32269248 0.45130205
0.50348866 -0.29434744 0.44830382
-0.42151436 -0.23849708 0.45058656
0.53135097 -0.21019325 0.44715214
0.53270113 -0.18285522 0.45689607
-0.11353303 -0.66144216 0.46234488
-0.085562743 -0.66248006 0.46753025
-0.057477914 -0.66321713 0.47121334
-0.029337576 -0.66396981 0.47497404
0.1399737 -0.66363299 0.47329104
0.16804601 -0.66289514 0.46960413
0.19606298 -0.6621632 0.46594763
-0.14177568 -0.63378179 0.46478474
0.22452202 -0.63508189 0.47153997
0.25199074 -0.63279408 0.45965302
-0.17008619 -0.6061877 0.46778667
0.25290689 -0.60743338 0.47452962
0.28030574 -0.60523367 0.46262324
-0.22580858 -0.57642794 0.45881867
-0.19844466 -0.57855219 0.47081685
0.30866688 -0.57762843 0.4655987
-0.2541078 -0.54875702 0.46136975
-0.22681774 -0.55079204 0.47338474
0.33704069 -0.54991108 0.4681828
-0.25518388 -0.5228945 0.47534811
0.3650156 -0.52138597 0.46601748
-0.28277758 -0.49350733 0.46783304
0.39243948 -0.49209803 0.45867956
-0.31022626 -0.46418959 0.46000099
0.39376855 -0.46593881 0.47196019
-0.31146261 -0.43793219 0.47338474
0.42113155 -0.43665349 0.46415699
-0.33888441 -0.40868002 0.46545887
0.44984794 -0.38097629 0.46911454
-0.36752525 -0.35289386 0.46997714
0.47677615 -0.35161877 0.45893455
0.47815636 -0.32472262 0.47014034
-0.39482999 -0.29575026 0.46232152
-0.39606968 -0.26861224 0.47305775
0.50485259 -0.2672883 0.45872569
0.50622731 -0.24007577 0.46923101
-0.42279106 -0.21125561 0.46095216
-0.42403197 -0.18383434 0.47102678
-0.05771514 -0.69355053 0.48148572
-0.029426271 -0.69339436 0.48073494
-0.0011626873 -0.69360894 0.4817673
0.027116789 -0.69391644 0.48324633
0.055416517 -0.69415575 0.48439777
0.08368478 -0.69373101 0.48235416
0.11194438 -0.69351149 0.48129797
0.14018847 -0.69329691 0.48026586
-0.0011401251 -0.66474283 0.47883606
0.027116789 -0.66551745 0.48270619
0.05542013 -0.66595006 0.48486769
0.083663821 -0.66517454 0.48099303
0.11184804 -0.66440052 0.47712624
-0.11409026 -0.63609844 0.47682226
-0.086023517 -0.63719016 0.48249495
-0.057828002 -0.63793635 0.48637271
-0.029572906 -0.63868427 0.49025881
0.1122009 -0.63909733 0.49240553
0.14044248 -0.63834882 0.48851502
0.16862446 -0.63760138 0.48463249
0.19674705 -0.63685584 0.48075819
-0.14247124 -0.60841513 0.47984385
-0.11467281 -0.61065322 0.49195731
0.22532889 -0.60964745 0.48651385
0.25382474 -0.58184838 0.48943365
-0.17089647 -0.58067816 0.48282373
0.28133649 -0.57973576 0.47750092
-0.19934182 -0.55282432 0.48538494
0.28233969 -0.55394125 0.49198079
0.30977973 -0.55192167 0.48005486
-0.22782685 -0.52493149 0.48794973
0.33826059 -0.5240649 0.48258877
-0.25625911 -0.49681479 0.48931599
0.36628851 -0.49534929 0.47979689
-0.28391972 -0.46730798 0.48132145
0.3950932 -0.43956894 0.48519683
-0.31269935 -0.41146916 0.48677278
0.42255202 -0.41023451 0.47733712
-0.34017619 -0.38211596 0.47836757
0.42391923 -0.38355166 0.49002326
-0.341463 -0.35534742 0.49122572
0.45130351 -0.35424989 0.48172045
-0.36890468 -0.32608449 0.48277664
0.47946703 -0.29759762 0.48078179
0.48077667 -0.27030802 0.49141455
-0.39731669 -0.24131426 0.48385727
0.50753647 -0.21266297 0.47923446
0.50883728 -0.18509158 0.4891746
-0.0012580361 -0.63943362 0.49415314
0.027116789 -0.64018923 0.4980793
0.055538066 -0.64059502 0.50018787
0.083899193 -0.63984311 0.49628067
-0.086496107 -0.61174071 0.49784267
-0.058183193 -0.612463 0.50175297
-0.029810565 -0.61319125 0.50569546
-0.0013771188 -0.61391705 0.50962257
0.11255617 -0.61357808 0.5077889
0.14091514 -0.61285341 0.50386572
0.16921498 -0.61213452 0.49997449
0.19745417 -0.6114127 0.496068
-0.14316599 -0.5828138 0.49488592
-0.11525285 -0.58496362 0.50702763
0.22613347 -0.58397502 0.5014447
-0.17168538 -0.55486989 0.4974637
-0.14384556 -0.55692494 0.50959873
0.2547223 -0.5559783 0.50400817
-0.20024468 -0.526887 0.5000459
0.28335083 -0.52794242 0.50657535
0.31089592 -0.52599949 0.49455523
-0.22883083 -0.49883568 0.50244117
0.31200084 -0.49983126 0.50890803
0.33947811 -0.49799269 0.49696684
-0.25730419 -0.47046298 0.50289226
0.36751649 -0.46902925 0.49309015
-0.28506634 -0.44090813 0.49486208
0.36875337 -0.44251806 0.50648034
-0.28619722 -0.41427574 0.50821745
0.39641082 -0.41298616 0.49836361
-0.31389478 -0.38474521 0.49971402
0.42529333 -0.35668084 0.5027734
-0.34273741 -0.32836762 0.50396073
0.45275277 -0.32732335 0.4942714
-0.37022755 -0.29902565 0.49505126
0.4541598 -0.30016711 0.50645649
-0.37149003 -0.27172607 0.50676572
0.48206466 -0.24283978 0.50187182
-0.39849469 -0.21380401 0.49405873
-0.39967921 -0.18614069 0.50431728
0.027116789 -0.61464387 0.51355803
0.055656992 -0.6150279 0.51563632
0.084136538 -0.61429989 0.51169646
-0.086965315 -0.58603531 0.51308072
-0.058535293 -0.58672905 0.51699936
-0.03004506 -0.58742446 0.52092671
-0.0014944319 -0.58812106 0.52486193
0.084370688 -0.58848292 0.52690494
0.1129072 -0.58778965 0.52298939
0.14138295 -0.58709341 0.51905763
0.1697994 -0.58640313 0.51515841
0.19815619 -0.58571416 0.51126742
-0.11582291 -0.55899769 0.52183771
0.19884849 -0.55974597 0.52625573
0.22692138 -0.55802029 0.51606679
-0.14453167 -0.53083277 0.52445352
0.25562403 -0.52989471 0.51865065
-0.17247932 -0.52885145 0.51219773
-0.20113713 -0.50069797 0.51453733
-0.17326148 -0.50257242 0.52671278
0.28434676 -0.50168526 0.52095044
-0.22981791 -0.47248077 0.51668859
0.3130922 -0.47341645 0.52308524
0.34067085 -0.47165656 0.51105273
0.3418707 -0.44511497 0.52522218
-0.25835887 -0.44391918 0.51659262
0.36996832 -0.41576949 0.51963246
-0.28730384 -0.38740218 0.52128613
0.39769262 -0.38615638 0.51117182
0.39898333 -0.35913986 0.52406943
-0.31509647 -0.35782966 0.51272237
-0.31626892 -0.33067963 0.52541459
0.42664352 -0.32958981 0.51530182
-0.34398001 -0.30115989 0.51637745
0.45557615 -0.27283061 0.51872241
-0.3726342 -0.24415311 0.51738203
0.48330122 -0.21517837 0.51191115
0.48454741 -0.18736786 0.52202952
0.027116789 -0.5888195 0.52880609
0.05577413 -0.58918178 0.53085315
-0.087429523 -0.56006777 0.52815568
