ply
format ascii 1.0
comment PCL generated
element vertex 1368
property float x
property float y
property float z
element camera 0
property float view_px
property float view_py
property float view_pz
property float x_axisx
property float x_axisy
property float x_axisz
property float y_axisx
property float y_axisy
property float y_axisz
property float z_axisx
property float z_axisy
property float z_axisz
property float focal
property float scalex
property float scaley
property float centerx
property float centery
property int viewportx
property int viewporty
property float k1
property float k2
end_header
-0.44172689 -0.18937278 -0.24976468
-0.46274221 -0.14644951 -0.25259268
-0.50687277 -0.039779149 -0.242998
-0.50560296 -0.018274872 -0.25167966
-0.50535506 0.15259896 -0.2533747
-0.50614011 0.17428716 -0.24800706
-0.50715888 0.19616856 -0.24104178
-0.48497096 0.23862435 -0.2463491
-0.46286738 0.28091842 -0.25163615
-0.37821728 0.41036311 -0.24330425
-0.35602453 0.43053547 -0.25150573
-0.3344183 0.45146015 -0.2542721
0.41497099 0.4961887 -0.24282289
0.43581808 0.49564418 -0.24589777
0.45832211 0.4966076 -0.24045742
0.35069937 0.51767868 -0.2425456
0.43403381 0.51534653 -0.25516891
0.28614613 0.53879964 -0.24420822
0.43406445 0.53672099 -0.25501001
0.11392051 0.55814695 -0.25460482
0.0082086697 -0.88061333 -0.22787642
0.0078212619 -0.85596019 -0.23794162
0.008030735 -0.79308116 -0.23249912
0.28759554 -0.40556917 -0.23374784
-0.25010175 -0.38400957 -0.234115
0.35129228 -0.38334957 -0.23887825
0.39623597 -0.36336273 -0.22755194
0.45859134 -0.36184978 -0.23911226
0.4831214 -0.36377811 -0.22437716
0.43991989 -0.34217176 -0.2245841
0.46046853 -0.34153771 -0.22973323
0.48296469 -0.34210446 -0.22513092
-0.44479194 -0.21267375 -0.22487974
-0.46599215 -0.16934259 -0.22775829
-0.48714885 -0.1261003 -0.23063123
-0.50943637 -0.083193928 -0.22547066
-0.50815058 -0.06141847 -0.23426175
-0.53130007 0.024682742 -0.22357857
-0.52994251 0.046133999 -0.23239625
-0.53044772 0.067728788 -0.22911453
-0.53128862 0.089441344 -0.22365236
-0.4879438 0.26201785 -0.22489429
-0.46566242 0.30459124 -0.23027813
-0.42300183 0.36966234 -0.22672558
-0.40054309 0.39007306 -0.23503959
-0.3154065 0.4779565 -0.22388911
0.43899417 0.47702408 -0.22939444
0.46006793 0.47662771 -0.23173463
0.48289716 0.47769114 -0.22545576
0.39640838 0.49906498 -0.226578
-0.25017852 0.5194996 -0.23269022
0.33172816 0.52064228 -0.22650433
0.45869088 0.5184049 -0.23861468
0.26681277 0.54188031 -0.22820079
0.030160174 -0.90495056 -0.21926761
0.051798716 -0.90506107 -0.21892619
-0.012789041 -0.86462128 -0.20981419
0.24748191 -0.40901735 -0.21017253
0.26762298 -0.40728608 -0.22200978
0.33270526 -0.38594365 -0.2201575
-0.29474947 -0.36559406 -0.21050107
0.37787595 -0.36583251 -0.20867848
0.46378642 -0.32191223 -0.2131561
0.48474824 -0.32152042 -0.21654963
0.50775105 -0.32224983 -0.21023226
-0.51194489 -0.10542639 -0.20831966
-0.53266394 0.0030958315 -0.21472001
-0.53213286 0.11123875 -0.21816921
-0.53298044 0.13312158 -0.21266425
-0.51030892 0.21927904 -0.21950495
-0.46850279 0.32863283 -0.2085737
-0.44559652 0.34913161 -0.21834731
0.46325302 0.45767614 -0.21582115
0.48456293 0.45741418 -0.21744132
0.50773811 0.45856982 -0.21029198
0.42031991 0.47965309 -0.21387124
0.37789112 0.50225002 -0.2085886
0.48361653 0.49987647 -0.22199488
0.31253493 0.52363771 -0.21029198
0.24725398 0.54499376 -0.21202314
0.008995384 -0.90877563 -0.20743704
-0.012599587 -0.88825601 -0.20366144
-0.012702025 -0.84377682 -0.2069881
-0.23050749 -0.41156888 -0.19272733
0.22717017 -0.41076335 -0.19823515
0.31386712 -0.38857272 -0.20118392
0.42200667 -0.34461588 -0.20474124
0.50862128 -0.34443682 -0.20619452
-0.36102477 -0.32373422 -0.19737637
0.44559139 -0.3239955 -0.19511425
-0.38301417 -0.30216181 -0.19537079
0.48788577 -0.30150613 -0.20145428
0.50925785 -0.30131352 -0.20324135
0.53280228 -0.30218291 -0.19517457
-0.405038 -0.28056169 -0.19333196
-0.46930081 -0.19264895 -0.20247567
-0.49064493 -0.14899243 -0.20540071
-0.53542006 -0.040490195 -0.19681871
-0.53403872 -0.018628104 -0.20579028
-0.53382897 0.15508968 -0.20715284
-0.53468311 0.17714481 -0.2016046
-0.53613842 0.19955578 -0.19215274
-0.51350582 0.24274826 -0.19764757
-0.49096075 0.28577358 -0.20312119
0.51163495 0.41783556 -0.19221318
0.53348023 0.41784671 -0.19213748
-0.38281345 0.43886909 -0.19737637
0.48775464 0.43814406 -0.20208526
0.50931287 0.43800554 -0.20298624
0.53273827 0.43916395 -0.19546127
0.44445217 0.46006665 -0.20103347
0.40224391 0.48308286 -0.19361901
0.50887966 0.48115611 -0.20499611
-0.29597354 0.50503951 -0.1928333
0.3588458 0.50515997 -0.19215262
0.2931183 0.52666771 -0.19389105
0.20588231 0.54852986 -0.19364929
0.22684529 0.54710579 -0.20104849
-0.16473417 0.56793225 -0.2057153
-0.012049161 -0.91577595 -0.18578577
-0.012054309 -0.82821542 -0.18595302
0.20668721 -0.41252643 -0.18618095
0.2947726 -0.39123753 -0.18195212
0.35926676 -0.36833599 -0.18954885
-0.34016353 -0.34687203 -0.18642378
0.40419364 -0.34734213 -0.18260682
0.53527492 -0.32526755 -0.18409836
0.46934056 -0.30323574 -0.18540597
0.51220268 -0.28093725 -0.18957913
0.53398377 -0.28090698 -0.18988216
0.55847871 -0.28205466 -0.17841327
-0.42709705 -0.25893319 -0.1912601
0.53580511 -0.25981417 -0.18172348
0.55842227 -0.26009738 -0.17865765
-0.44918838 -0.23727331 -0.18918502
-0.47266975 -0.2163801 -0.17673242
-0.49420461 -0.17230141 -0.17971087
-0.51569456 -0.12831493 -0.18268311
-0.5382067 -0.084633484 -0.17871857
-0.53681004 -0.062491629 -0.18778992
-0.56045759 0.025043245 -0.17674768
-0.55898428 0.04685038 -0.18586183
-0.55959654 0.06881512 -0.18207383
-0.5605095 0.090895541 -0.17642653
-0.49402499 0.30990127 -0.18100715
-0.42836723 0.39766356 -0.18025994
0.51467198 0.39795953 -0.178123
0.53513569 0.39704534 -0.18472195
0.55828482 0.39780301 -0.17925286
-0.40552086 0.41832733 -0.18885159
0.49258906 0.41979381 -0.17882562
0.46880269 0.44029826 -0.1880933
-0.36228365 0.46286088 -0.18374848
0.42646766 0.46337053 -0.18059552
0.53552288 0.46298388 -0.18298757
0.27347624 0.52973616 -0.17728257
0.0097603649 0.54970115 -0.18756235
0.16362402 0.55139732 -0.1787492
0.18480781 0.54995829 -0.18622649
-0.033650458 -0.89767802 -0.17380893
-0.033683352 -0.87526947 -0.17523313
-0.033425003 -0.85666877 -0.16404665
0.1651904 -0.41609356 -0.1617924
0.1860275 -0.41430247 -0.17403865
-0.2756533 -0.39311251 -0.16842103
0.27541646 -0.39393887 -0.16245663
0.34040326 -0.3708736 -0.17015779
0.42790556 -0.32657066 -0.1728127
0.45177823 -0.30565405 -0.16296625
0.49324989 -0.28233153 -0.17564642
0.51617038 -0.26078895 -0.17117119
0.53836304 -0.23887528 -0.17026532
0.55951017 -0.23856351 -0.17394686
0.58421016 -0.23953269 -0.16250288
0.56144768 -0.2172403 -0.1655575
0.58416963 -0.21746238 -0.16267288
-0.56193799 0.003095737 -0.16759014
-0.5614261 0.1130637 -0.17075658
-0.56234634 0.13532016 -0.16506445
-0.539572 0.22310136 -0.16985059
-0.5167551 0.26658702 -0.17543197
-0.47447935 0.35596034 -0.1629045
0.56114525 0.35547236 -0.16686678
0.58413649 0.35597166 -0.16281188
-0.4513523 0.3768743 -0.1716162
0.53757876 0.37659124 -0.1737783
0.55925554 0.37642494 -0.1750493
0.58442032 0.37818223 -0.16162241
0.55929798 0.42037293 -0.17486572
0.45091206 0.44347402 -0.167467
0.38390848 0.48656502 -0.17305815
0.33957472 0.50810146 -0.17553914
-0.27611101 0.53274655 -0.16098881
0.25360072 0.53283787 -0.16049409
0.1209202 0.55429816 -0.16367626
0.14232844 0.55284393 -0.17123246
-0.033253916 -0.92519981 -0.15663803
0.14417507 -0.41790247 -0.14942503
0.32128024 -0.37344614 -0.15049994
0.38610178 -0.35011339 -0.16010725
0.40993899 -0.32918674 -0.15015733
0.47581929 -0.28459427 -0.15303612
0.49908233 -0.2629678 -0.1475848
0.52045149 -0.24048048 -0.15130937
0.54185551 -0.21808229 -0.15462077
-0.49782971 -0.19603869 -0.15354896
0.56414551 -0.19601612 -0.15387523
0.58532494 -0.19574198 -0.15783143
0.61022675 -0.19653192 -0.14642966
0.58738315 -0.17418011 -0.14920688
0.61015749 -0.17433384 -0.14671063
-0.51951301 -0.15162358 -0.15657592
0.61075032 -0.15228476 -0.14430404
-0.54115069 -0.10730177 -0.15959668
-0.56492746 -0.041224852 -0.14909768
-0.56342793 -0.018993188 -0.15837371
-0.56327021 0.15766567 -0.15934908
-0.56419528 0.18009938 -0.15362668
-0.54305768 0.24701907 -0.14721036
-0.52005351 0.29080132 -0.15288043
0.58829564 0.29155171 -0.14538288
0.61035758 0.29150009 -0.14589846
0.58666599 0.31300455 -0.1522119
0.60994983 0.31350672 -0.14755356
-0.49774793 0.3349185 -0.15413928
0.56402355 0.33488789 -0.15440345
0.58535457 0.3345063 -0.15770769
0.61059237 0.33598006 -0.14494526
0.54116297 0.35659847 -0.15772319
0.5190624 0.3786884 -0.15775406
0.49715555 0.40090659 -0.15685511
0.47523499 0.42313883 -0.15595567
0.43275964 0.44669613 -0.14653885
0.40822119 0.46672273 -0.1598599
-0.34309614 0.49016652 -0.15179181
0.36530253 0.49009532 -0.1522119
0.32007653 0.51107776 -0.15872979
0.033096611 0.55583471 -0.15569174
0.07776311 0.5572328 -0.14842725
0.099398404 0.55576003 -0.15607965
-0.0550908 -0.90853804 -0.1394006
-0.055105533 -0.88600838 -0.14035749
-0.054924194 -0.8673169 -0.1285789
-0.032677047 -0.84409773 -0.13165879
-0.1887565 -0.44288301 -0.13109064
0.12297635 -0.41972467 -0.13696611
0.2557914 -0.39667529 -0.14270818
-0.3215799 -0.37433681 -0.14369416
0.30189016 -0.37605223 -0.13058555
0.36752841 -0.35278171 -0.13844287
-0.38817158 -0.32991666 -0.14383495
-0.41059682 -0.3079403 -0.1417526
0.4339394 -0.30811259 -0.14015365
-0.43305445 -0.28593215 -0.13966727
0.45811021 -0.2868931 -0.13006449
-0.45555231 -0.26389793 -0.13751614
-0.4780817 -0.24182953 -0.13537741
0.52490819 -0.21992882 -0.13063288
0.54636937 -0.19736527 -0.13440156
-0.52340221 -0.17536384 -0.12998545
0.56784368 -0.17487878 -0.13786173
0.58911717 -0.15241215 -0.14194059
-0.54523593 -0.13060682 -0.13306224
0.59098387 -0.13055809 -0.13411784
0.61161822 -0.13025032 -0.14078093
0.63675761 -0.13078029 -0.12930608
0.61280203 -0.10821089 -0.13597548
0.63624406 -0.10838985 -0.13132751
-0.56795585 -0.086122297 -0.13036454
0.6142503 -0.086130559 -0.13009596
0.63657296 -0.086132541 -0.1300329
-0.56643677 -0.063600861 -0.13976145
-0.58900928 0.047591075 -0.13775194
-0.58974206 0.069938652 -0.13342476
-0.56615281 0.20306389 -0.14151752
0.61423862 0.22615813 -0.1301434
0.63659304 0.22617261 -0.12995386
0.61259669 0.24789982 -0.13680875
0.63626409 0.24837066 -0.13124871
0.59025174 0.27011991 -0.13718629
0.61127466 0.26965901 -0.14217556
0.56970274 0.29310998 -0.12981153
-0.52340686 0.31540349 -0.12995374
0.56689447 0.31410822 -0.14197195
0.54593372 0.33697233 -0.13635278
0.52387196 0.35934308 -0.13544047
0.50179625 0.38172796 -0.13452733
0.47970665 0.40412697 -0.13361394
-0.43391365 0.42660931 -0.13222671
0.45753026 0.42648488 -0.13307786
-0.41066775 0.44753432 -0.14109445
0.38970691 0.47012404 -0.13881969
0.34642288 0.49367765 -0.13105905
0.30034932 0.51409191 -0.14170539
0.23348969 0.53597647 -0.14350629
0.056012198 0.55871344 -0.14073384
-0.054684352 -0.9393084 -0.11300087
-0.25597888 -0.42146769 -0.12504888
0.034742951 -0.42219919 -0.12004769
0.10159332 -0.42156279 -0.12439883
0.23589572 -0.39945197 -0.12266946
-0.3683151 -0.35524336 -0.11845624
0.34838039 -0.35525706 -0.1183449
0.39168239 -0.33184263 -0.1271553
0.4158141 -0.31061068 -0.11697483
0.48182088 -0.2652342 -0.12305033
0.50339431 -0.24255262 -0.12683856
-0.501522 -0.22021604 -0.1269021
0.55104339 -0.17638123 -0.11346424
0.57130456 -0.15343955 -0.12287569
0.59315574 -0.10863264 -0.12501717
0.59568781 -0.086613782 -0.11440659
0.6159116 -0.063979782 -0.12335181
0.63732404 -0.06389375 -0.12707603
0.61760032 -0.041726865 -0.11649656
0.63804442 -0.041607596 -0.12424028
0.61816233 -0.019333057 -0.11421502
0.63838297 -0.019266246 -0.12290752
0.66322905 -0.019339196 -0.11341643
0.63872188 0.003095737 -0.12157345
0.66310364 0.0030956899 -0.11389554
-0.5922097 0.0030958315 -0.11885428
-0.59060287 0.025415791 -0.12834167
0.63906509 0.0254784 -0.12022257
0.66297823 0.025523352 -0.11437476
0.63940459 0.047881603 -0.11888611
0.66285712 0.047943883 -0.11483753
0.63980108 0.07031054 -0.11732543
0.66294068 0.070375271 -0.1145184
-0.5907315 0.09239956 -0.12758231
0.63971609 0.092705145 -0.11766005
0.66293234 0.092800766 -0.11455023
-0.59172493 0.11495126 -0.1217165
0.63912976 0.11501855 -0.11996794
0.66294485 0.11522899 -0.11450231
-0.59272242 0.13759439 -0.11582685
0.61849689 0.13773145 -0.1128571
0.63858062 0.13730334 -0.12212956
0.66314965 0.13769165 -0.1137197
0.61754531 0.15996268 -0.11671996
0.63803238 0.15955497 -0.12428772
0.61668247 0.18215653 -0.12022257
0.63756937 0.18179396 -0.12611032
0.61582565 0.2042982 -0.12370086
0.63719946 0.20403038 -0.12756681
-0.56988603 0.22706011 -0.11842442
0.59550118 0.22730923 -0.11518872
0.59262282 0.24870931 -0.12725008
-0.54660153 0.27132025 -0.12419248
0.57273728 0.27201498 -0.11667204
0.637312 0.27104947 -0.12712348
0.5499965 0.31667516 -0.11815357
0.52875346 0.3396925 -0.11279309
-0.48084068 0.38437566 -0.11429477
-0.45730472 0.40555784 -0.12328839
0.41434252 0.44996804 -0.12528646
0.37091905 0.47357556 -0.11746883
-0.32347858 0.5181067 -0.11902928
0.28038451 0.51713932 -0.12449384
0.21313894 0.53915226 -0.12631619
-0.077012144 -0.92139661 -0.098659396
-0.077072978 -0.8964147 -0.10656214
-0.07700742 -0.87648362 -0.098045945
-0.054529548 -0.85249704 -0.10294592
-0.12204059 -0.46898112 -0.10758913
0.058231607 -0.42519769 -0.099546671
0.080023572 -0.42341703 -0.11172175
-0.30243549 -0.40265381 -0.099562764
0.21572179 -0.40226752 -0.10235059
0.28223187 -0.3786968 -0.11037755
0.32896173 -0.35776526 -0.097981453
0.37313417 -0.33454341 -0.10376656
0.44011283 -0.28922749 -0.10673869
0.46426594 -0.26754108 -0.098078132
0.48604453 -0.2446603 -0.10194802
0.50776893 -0.22184117 -0.10579145
-0.52736413 -0.19954793 -0.10289776
0.52943289 -0.19908072 -0.10964096
-0.54939747 -0.15434708 -0.10603237
0.55467653 -0.15482359 -0.097189903
0.57392478 -0.13160135 -0.11152983
-0.57138366 -0.10924306 -0.1091603
0.57656556 -0.109592 -0.10009503
0.5984112 -0.064449877 -0.10299444
-0.59544945 -0.041985001 -0.099724174
0.66377729 -0.041806474 -0.11132181
-0.59382427 -0.01937069 -0.10932052
0.61882776 0.003095737 -0.11151385
0.61949438 0.025566177 -0.10880768
0.62016219 0.048078455 -0.10609663
0.62083131 0.070632465 -0.10338032
0.62065697 0.093122877 -0.10408807
0.61956936 0.11545984 -0.1085031
-0.59372389 0.16032948 -0.10991311
0.66375637 0.16024929 -0.1114018
-0.59472948 0.18315719 -0.10397542
0.59953815 0.18350835 -0.098271966
0.66623491 0.183283 -0.10193193
0.59834981 0.20571496 -0.1032517
0.57579565 0.25072646 -0.10342872
-0.55019987 0.2960113 -0.10082054
0.55295002 0.29560059 -0.10492384
-0.50452507 0.36306405 -0.10522914
0.50650644 0.3622466 -0.11186576
0.48424518 0.38481507 -0.11093783
0.46196979 0.40739766 -0.11000919
0.43920702 0.42962021 -0.11164188
0.3956489 0.4532862 -0.10373425
-0.39160472 0.47485918 -0.10952878
0.32726339 0.49731323 -0.10959291
0.26018015 0.52022326 -0.10707581
0.19254258 0.54236335 -0.10893607
-0.23461121 0.56580609 -0.10387909
0.19508404 -0.40487394 -0.083540082
0.26229739 -0.3813785 -0.08988595
-0.41636518 -0.3363376 -0.088228822
-0.43924388 -0.31394181 -0.086065412
0.39739549 -0.31314915 -0.093420982
-0.46215627 -0.29151306 -0.083898783
0.42182624 -0.2916013 -0.083018303
-0.48510459 -0.26905292 -0.081712604
0.51220745 -0.20082691 -0.084436774
0.53402364 -0.17792834 -0.088342547
-0.57582605 -0.13298 -0.081680059
0.55725449 -0.13279699 -0.085642099
0.57922709 -0.087409347 -0.088570118
-0.59708542 -0.064748526 -0.090064287
0.60084653 -0.042091809 -0.092789173
0.6015898 -0.019522022 -0.089674592
0.60233462 0.0030957842 -0.086553693
0.60307711 0.025761468 -0.08344233
-0.62006837 0.048357319 -0.08798492
-0.62093616 0.071101144 -0.083083391
0.60312378 0.116432 -0.083246469
0.60192704 0.13886754 -0.088261127
0.6007306 0.16122603 -0.093275189
-0.59725869 0.20669954 -0.089041233
0.57888579 0.22924453 -0.090048194
-0.57368207 0.25144506 -0.09494257
0.55593401 0.27433491 -0.091557026
0.53300583 0.31937909 -0.093064547
-0.52835727 0.34161931 -0.096107125
0.51129091 0.34245783 -0.088846445
0.48885548 0.36519799 -0.0879035
0.46640563 0.38795286 -0.086960554
0.4439413 0.41072223 -0.086016536
0.42061031 0.4328022 -0.089885831
0.37667555 0.45665407 -0.081859589
0.35185137 0.4770785 -0.095800042
0.30781782 0.50100291 -0.087806106
0.23973376 0.52334732 -0.089431167
0.17169794 0.54561305 -0.091346264
-0.099560738 -0.90798926 -0.068972349
-0.099560738 -0.88558304 -0.067736626
-0.07686156 -0.85947299 -0.079098105
-0.031339854 -0.83829516 -0.073756814
0.17362183 -0.40667814 -0.070519447
-0.34971508 -0.38350645 -0.073625326
0.24208093 -0.3840982 -0.069103956
0.3092716 -0.36031073 -0.077314377
0.35428435 -0.33728802 -0.07999754
0.37867373 -0.31572726 -0.069499135
0.44640654 -0.2698878 -0.072672963
-0.50809383 -0.24656336 -0.079474211
0.46839434 -0.24680449 -0.07662642
-0.5314008 -0.22418848 -0.075298786
0.49032992 -0.22378525 -0.080536842
-0.5536375 -0.1785349 -0.078492999
0.53774828 -0.15623146 -0.071062326
0.55985284 -0.11059626 -0.074002862
-0.59873217 -0.087662764 -0.080340624
0.58190972 -0.065051332 -0.076954126
0.5843544 -0.042498536 -0.066368103
-0.62353086 0.0030957842 -0.068428755
-0.62179244 0.025801461 -0.078247428
0.60382503 0.048475504 -0.080307841
0.60457456 0.071237937 -0.077166915
-0.62200689 0.093956076 -0.077035904
0.60432845 0.093920194 -0.078198314
-0.62308204 0.11690478 -0.070963621
0.58419067 0.1626377 -0.067077279
0.58301598 0.1851162 -0.072163582
0.58184546 0.20751762 -0.07723248
-0.60131371 0.23116538 -0.065097213
0.55894548 0.2528739 -0.078067422
-0.57753986 0.27622658 -0.071078658
0.5388419 0.27669689 -0.06598866
0.53591043 0.29813606 -0.079588771
-0.55385673 0.32110304 -0.077068686
0.51572299 0.32213178 -0.067522407
-0.46346208 0.43522856 -0.073297024
0.40173411 0.43603224 -0.067802548
-0.44155833 0.45909262 -0.066021681
0.33250007 0.4806366 -0.073789597
-0.37225184 0.50302947 -0.075839877
0.28755558 0.50406975 -0.069696546
0.21903709 0.52650642 -0.071588278
0.12797496 0.54918146 -0.072031975
0.15004712 0.54769462 -0.080079079
-0.099560738 -0.8669579 -0.053510904
-0.053934366 -0.84099215 -0.064288139
-0.0080406666 -0.84346491 -0.055606127
0.15196899 -0.40849829 -0.05738318
0.28930172 -0.36289245 -0.056353807
0.33512318 -0.34007576 -0.055855513
0.40324026 -0.29401392 -0.058909297
0.4504391 -0.24898753 -0.0508461
0.47258687 -0.22576328 -0.054841638
-0.55795562 -0.20318197 -0.050445914
0.49467856 -0.20260252 -0.058809876
0.5167079 -0.17950238 -0.062783957
-0.58035028 -0.15716732 -0.05369401
0.54028207 -0.13401335 -0.059307098
-0.60269612 -0.11125325 -0.056934953
0.56247187 -0.088219173 -0.062271118
0.56511176 -0.065663457 -0.050446033
-0.625278 -0.019761508 -0.058561087
0.5850867 -0.019725859 -0.063197136
0.5858205 0.003095737 -0.060019612
0.58655208 0.025966156 -0.056851864
0.58728909 0.048885822 -0.05366075
0.58802766 0.071854636 -0.050462604
0.58773512 0.094735257 -0.051729321
0.58654827 0.11744731 -0.056868434
-0.62416166 0.13994816 -0.064866066
0.58536553 0.14008094 -0.061989903
-0.62524569 0.16308683 -0.058743596
-0.62633419 0.18632129 -0.052595377
0.56504476 0.20935263 -0.050745964
0.56198478 0.23121491 -0.064453125
0.54179686 0.25505763 -0.052279115
0.51856953 0.30071399 -0.053827167
0.49353909 0.3452687 -0.064502716
0.47091198 0.36819831 -0.063544393
-0.51153696 0.39218453 -0.054625392
0.4482702 0.39114276 -0.062585473
-0.48742381 0.41377431 -0.063990593
0.42561382 0.41410196 -0.061625838
0.35741621 0.4600727 -0.05965519
0.31285369 0.4842459 -0.05146277
0.2670114 0.50713247 -0.051612735
0.19808748 0.52970421 -0.053527474
0.083467126 0.55217934 -0.055805564
0.10578197 0.55067635 -0.063941002
-0.099560738 -0.93934768 -0.041783452
-0.076625712 -0.84550023 -0.048460484
0.1301242 -0.41033706 -0.044112802
0.22157642 -0.38685644 -0.048026204
-0.39784646 -0.36402521 -0.047157407
0.2690461 -0.36551112 -0.035093307
0.35964677 -0.31834951 -0.045167327
0.38434467 -0.29646474 -0.034419298
0.42798328 -0.27214462 -0.048243284
0.49909174 -0.18110502 -0.036760092
0.52051896 -0.15766564 -0.044447541
0.54283601 -0.11161786 -0.047458291
0.54541045 -0.089043021 -0.035514235
-0.62880737 -0.065936416 -0.038627028
-0.62703681 -0.042771641 -0.048627377
0.56756645 -0.042913105 -0.039450288
0.5682835 -0.019933332 -0.036238313
-0.65221584 0.049150381 -0.036474109
0.56850904 0.141317 -0.035227895
0.56734902 0.1640739 -0.040424228
0.56619304 0.18675195 -0.045602322
-0.6295166 0.21046974 -0.034621477
0.544783 0.23321863 -0.038425326
-0.60543829 0.25603449 -0.040743113
0.52144599 0.27909881 -0.039987683
-0.58145821 0.30141324 -0.046839833
0.4981333 0.32493109 -0.041548371
-0.56022853 0.34859657 -0.035682797
0.47549397 0.34812859 -0.039735794
-0.5358054 0.37045968 -0.045184135
0.45267177 0.37125072 -0.038761497
0.42983472 0.39438811 -0.037786365
0.40698278 0.41754052 -0.036810637
0.38257468 0.4393135 -0.045368195
0.33786437 0.46354321 -0.037113547
-0.35245261 0.53186971 -0.04129684
0.17688194 0.5329442 -0.035227895
0.038467899 0.55521035 -0.039399743
0.061029434 0.55369061 -0.047625303
-0.12267779 -0.92158628 -0.024814963
-0.12261281 -0.89593518 -0.033255696
-0.12268341 -0.87556559 -0.024085522
-0.099560738 -0.85151583 -0.027340412
-0.33053944 -0.41266581 -0.027306557
0.10808219 -0.41219005 -0.03074038
0.20077768 -0.38965452 -0.026645899
-0.44685006 -0.34419355 -0.020193934
0.31564787 -0.34291139 -0.031297803
-0.46901822 -0.32017949 -0.028186917
0.34030172 -0.32101342 -0.020449162
-0.4924041 -0.29731387 -0.0259341
-0.51582515 -0.27441382 -0.023678064
0.40922415 -0.27442327 -0.02357626
-0.53928888 -0.25148368 -0.02136755
0.43216443 -0.25120756 -0.024628401
-0.56279135 -0.22851948 -0.019036651
0.45453167 -0.22777605 -0.02869451
0.47684169 -0.20440905 -0.032732725
-0.58496392 -0.18181966 -0.025154233
-0.60751891 -0.13543832 -0.028457761
0.5230065 -0.13525252 -0.032479644
0.52551407 -0.1126589 -0.020415068
-0.63058996 -0.089257099 -0.028559089
0.54800558 -0.066286296 -0.023474336
0.56900585 0.0030957842 -0.033002734
-0.6540786 0.026200637 -0.026391864
0.56972593 0.026174622 -0.029776931
0.57045144 0.049303506 -0.026527405
-0.6532377 0.072305329 -0.030943036
0.57117844 0.072482534 -0.023270488
-0.65439498 0.095568076 -0.024679184
0.57084125 0.095565051 -0.024780989
-0.6555571 0.11892828 -0.018389225
0.56967312 0.11848094 -0.030013561
0.54906857 0.18841849 -0.018542647
0.54779708 0.21117511 -0.024441719
0.52434933 0.25728127 -0.026018977
0.50092626 0.30333921 -0.027594328
-0.58544147 0.3270162 -0.022200465
0.36311996 0.44264248 -0.022608042
-0.42249528 0.48749751 -0.031348348
0.2929081 0.48791015 -0.028796077
0.24621448 0.51023257 -0.03330636
0.015782133 0.55674154 -0.031112075
-0.007029824 0.55828118 -0.022778034
-0.12283966 -0.85822427 -0.0037873983
0.063402832 -0.41595346 -0.0035809278
0.085843787 -0.41406444 -0.017213345
0.17967829 -0.39249292 -0.0049564838
0.2484985 -0.36816743 -0.01352632
0.29584801 -0.34579435 -0.0063309669
0.36513743 -0.29895809 -0.0095045567
0.43615913 -0.22982594 -0.0020660162
0.4586888 -0.20624788 -0.0061936378
0.48116028 -0.18273498 -0.010292649
0.50297332 -0.15912499 -0.017366767
0.50541592 -0.13651422 -0.0051627159
-0.63515258 -0.11333723 -0.0027893782
0.5280419 -0.089882448 -0.0082529783
0.55046678 -0.043334756 -0.012055755
-0.65784198 -0.020165972 -0.0060219765
0.5511719 -0.020144723 -0.0087846518
-0.65595704 0.003095737 -0.016224265
0.55188215 0.003095737 -0.0054893494
0.55259031 0.026386768 -0.0022039413
0.55249012 0.11953337 -0.0026687384
-0.65672404 0.14238656 -0.012072921
0.55134559 0.14257562 -0.0079785585
-0.65789592 0.16594356 -0.0057297945
0.55020511 0.16553727 -0.013269782
-0.63391507 0.23542371 -0.009778738
0.52727997 0.23525898 -0.011918783
-0.60963118 0.28131607 -0.01598537
0.50374532 0.28154472 -0.013509154
0.48014683 0.32773203 -0.01555872
0.45714152 0.35103458 -0.014568448
0.43412101 0.37435266 -0.013577461
0.41108543 0.397686 -0.012586117
-0.51879829 0.42233339 -0.0022211075
0.38803461 0.42103454 -0.011593699
-0.49423823 0.44420597 -0.011919022
0.31801325 0.46706685 -0.014226913
0.27265638 0.49163061 -0.0057812929
0.22516197 0.51337427 -0.014756322
0.15541092 0.53621823 -0.016735911
-0.14627135 -0.90776128 0.0061359406
-0.14629322 -0.88482159 0.0075563192
-0.099560738 -0.83973002 0.013477683
-0.07621076 -0.83750355 0.0054434538
0.040757701 -0.41785955 0.010175467
-0.37925142 -0.39313278 -6.7234039e-05
0.22765261 -0.37086231 0.0083538294
0.3206358 -0.32372373 0.0046995878
0.39015454 -0.2767415 0.0015199184
0.41356498 -0.25346705 0.0020552874
-0.58966702 -0.20694973 0.0039385557
-0.61243504 -0.16009153 0.00057089329
0.48510945 -0.16061196 0.01022768
0.50787491 -0.11371879 0.0071231127
0.5305903 -0.06692104 0.0040078163
-0.65974289 -0.043586046 0.0042669773
0.55330372 0.049728934 0.0011057854
0.55401868 0.073122092 0.0044227839
0.55363494 0.096409298 0.0026425123
-0.65906954 0.18959859 0.00062274933
0.53163058 0.19011539 0.0090128183
0.53023827 0.21302882 0.0023143291
0.50659108 0.25954464 0.00070905685
0.48572487 0.28403291 0.013425469
-0.61389118 0.30701822 0.0091689825
0.48296559 0.30600956 -0.00091195107
0.46168417 0.33048871 0.010019302
0.43847728 0.3539902 0.011026502
0.41525501 0.37750721 0.012034416
-0.54351687 0.40031955 0.0075390339
0.3920173 0.40103984 0.013042688
0.36876419 0.4245882 0.014051914
0.34336609 0.44602251 0.00050199032
0.29785827 0.47064757 0.0090302229
-0.40299103 0.5165931 0.0042499304
0.20384529 0.51655215 0.0040078163
0.13367289 0.53953314 0.001986146
-0.30972013 0.56352091 0.005581975
-0.14653298 -0.86589086 0.023129582
0.017906293 -0.41978559 0.024075389
0.15827024 -0.3953703 0.017031074
-0.42886162 -0.3732481 0.027723789
0.27571332 -0.34872371 0.019037962
0.34560779 -0.30149326 0.015828252
0.37076369 -0.27909893 0.027039051
0.3946349 -0.2557686 0.029234886
0.41745448 -0.23191115 0.025021672
0.44021434 -0.20812061 0.020837545
0.46290874 -0.18439405 0.016647577
-0.64038098 -0.13798782 0.026740551
0.48749804 -0.13779838 0.022639394
-0.66358382 -0.090908058 0.02505672
0.51035398 -0.090737268 0.019509435
-0.66165674 -0.067166239 0.014626384
0.53305072 -0.043764435 0.015845776
0.53374326 -0.020359941 0.019177556
0.53444093 0.003095737 0.02253437
-0.68752033 0.026614167 0.027319908
0.53513652 0.026602976 0.025880933
-0.68551004 0.049971726 0.016874194
0.53583723 0.050162248 0.02925241
-0.6867004 0.073552482 0.023059368
-0.68794972 0.097238056 0.029551268
0.53499073 0.12060534 0.025179386
0.5338667 0.14385752 0.019771457
0.53274667 0.16702729 0.01438272
-0.6629917 0.21438241 0.021852016
0.51236033 0.21491459 0.029533744
0.50946027 0.2373347 0.015044332
-0.6383903 0.2607969 0.015497208
0.48851037 0.26184699 0.027899265
0.46468592 0.30872938 0.026266813
-0.59344113 0.35586733 0.027284861
-0.568398 0.37816551 0.01737988
0.32330599 0.44945508 0.023970127
-0.47428286 0.47149843 0.014556885
0.25209141 0.49540871 0.017589331
0.18226147 0.51976973 0.023007035
0.11166286 0.54288954 0.02094245
-0.1467268 -0.94022536 0.035717487
-0.17049581 -0.89541531 0.043771267
-0.1231009 -0.84435022 0.030149341
0.13654985 -0.3982923 0.039358735
0.20650011 -0.37359449 0.030536175
0.25516385 -0.35162878 0.044197202
-0.49998766 -0.32666755 0.032014728
0.30063814 -0.32647985 0.030272484
-0.52386701 -0.30334762 0.034358859
0.32574502 -0.30406952 0.041572332
-0.5477829 -0.27999198 0.036706686
-0.57173562 -0.25660044 0.03905797
-0.5957365 -0.23317842 0.041483641
-0.61744732 -0.18522663 0.030166745
0.44432831 -0.18608302 0.044072986
0.46691179 -0.16212547 0.038315058
0.48990625 -0.11479776 0.035153031
0.51285338 -0.067567401 0.031997204
0.51530939 -0.044201903 0.04426825
-0.68954444 0.003095737 0.037837744
0.53653955 0.0737736 0.032631516
0.53611511 0.09726993 0.030589104
-0.68920445 0.12102454 0.036070824
-0.6904645 0.14491265 0.042618394
0.51496494 0.16854492 0.042547345
0.51387018 0.19184378 0.037077665
0.49132252 0.23944895 0.042511821
-0.64294112 0.28659865 0.041200161
0.46738267 0.28656745 0.040863633
-0.61864763 0.33342385 0.037254453
0.44290519 0.33329234 0.036035538
0.41949326 0.35699618 0.037059903
0.39606556 0.38071597 0.038085222
0.37262228 0.40445134 0.039110899
0.34900793 0.42805552 0.039075732
0.27738759 0.47428122 0.032631278
0.23120588 0.49924573 0.041324258
0.16040537 0.52302796 0.042245865
0.08937569 0.54628789 0.040137529
-0.17070545 -0.92178559 0.052848816
-0.17072484 -0.87459481 0.053688049
-0.14696692 -0.85021567 0.051314354
-0.36055931 -0.42399278 0.054438591
0.18503791 -0.37636906 0.053063035
-0.47939542 -0.35299924 0.056065321
0.28030038 -0.32928276 0.056280255
0.35104075 -0.28149465 0.052973628
0.3753621 -0.25811177 0.056906462
0.39841184 -0.23403405 0.052598834
-0.62255853 -0.21085794 0.060346961
0.42140341 -0.21002592 0.04833889
-0.64571249 -0.16312429 0.056852818
0.46925086 -0.13910717 0.05097568
-0.66881412 -0.11549869 0.053366661
0.49233437 -0.091607437 0.047769427
0.49478251 -0.068225421 0.060490489
-0.69363481 -0.0444302 0.059091687
-0.69158256 -0.020585166 0.04842782
0.51598877 -0.02057917 0.047662735
0.51667327 0.0030956899 0.051082492
0.51735568 0.02682334 0.054492235
0.51804322 0.050603729 0.057927012
0.51873225 0.074437283 0.061369658
0.51826912 0.098146565 0.059055805
0.51716262 0.1216963 0.053527474
0.51606357 0.1451629 0.048036456
-0.6917299 0.16890314 0.049193501
-0.69299734 0.19299556 0.055779338
0.49416167 0.21683596 0.057264566
-0.66775703 0.23984425 0.047644973
0.47010535 0.2641927 0.055600405
0.44607496 0.31149858 0.05393827
0.30293256 0.45294127 0.047805071
0.25659624 0.47797179 0.056602359
-0.45509684 0.50084627 0.051225185
0.043082476 0.54989469 0.06050837
0.066383004 0.54833955 0.051724672
-0.17122748 -0.85690522 0.075453162
-0.41029617 -0.4032506 0.07724762
0.11450854 -0.40125728 0.062016129
0.16325718 -0.3791849 0.075924158
0.2339651 -0.35425338 0.06692636
0.30554578 -0.3066915 0.067773461
0.40224993 -0.21196595 0.076340914
0.42541313 -0.18780385 0.072015166
0.44837779 -0.16366814 0.06694448
0.47160602 -0.11589731 0.063723087
0.47398078 -0.092494465 0.07657671
-0.69570136 -0.068441063 0.069829702
0.49723363 -0.044647727 0.07322669
0.49789923 -0.020802697 0.076685429
-0.7200495 0.050825745 0.072340488
0.49792367 0.14649202 0.076812387
0.49684745 0.17009005 0.07122004
0.49577856 0.19360432 0.065665841
0.47285098 0.24160065 0.070461631
-0.672607 0.26574191 0.073896289
0.44870329 0.2891466 0.068783164
-0.64756626 0.31283799 0.06732285
0.42380184 0.33614469 0.062501192
0.40018401 0.36005634 0.06356132
0.37654722 0.38398215 0.064604282
-0.57686257 0.40880227 0.072358608
0.35289186 0.40792176 0.065629959
-0.55150843 0.43125677 0.062177896
0.32873461 0.43139109 0.063148022
-0.52767932 0.45499867 0.061872602
0.28223842 0.45648229 0.072015285
0.20982847 0.50287837 0.063794971
0.13827327 0.52633059 0.061746836
0.019648626 0.55145872 0.069342375
-0.1954163 -0.9075321 0.085193038
-0.1954646 -0.88401496 0.086761594
-0.1235854 -0.83776754 0.093087912
-0.29100731 -0.45158988 0.080897093
0.09206064 -0.40409964 0.083735466
0.21244854 -0.35691491 0.089976311
0.25961161 -0.3321318 0.082716107
0.33098254 -0.28393313 0.079370856
0.35573721 -0.26049784 0.085083842
0.37902209 -0.23619565 0.08067894
-0.65115011 -0.18876141 0.087564588
-0.67447531 -0.1406329 0.084008694
0.45066148 -0.14044048 0.079843163
0.45296115 -0.11701768 0.092831373
-0.69778228 -0.092619777 0.0806427
0.47637528 -0.068896331 0.089537621
0.49856985 0.0030956427 0.080170155
-0.72218078 0.027042665 0.082989097
0.49923849 0.027047668 0.083644509
0.49991214 0.051053617 0.087144852
-0.72139114 0.074845433 0.079043984
0.50058728 0.075113527 0.090652943
-0.72273868 0.098969184 0.085776567
0.50008786 0.099039495 0.088057637
-0.72409207 0.12319795 0.092538238
0.49900377 0.12280869 0.08242476
-0.69775432 0.21844536 0.080497265
0.47562653 0.21879113 0.085484743
0.45136034 0.26657984 0.083790183
0.42712063 0.3143166 0.082097292
0.40436852 0.3390485 0.089446187
-0.62808168 0.36345094 0.092959642
0.38053519 0.36316767 0.090506792
-0.60238731 0.38620177 0.082625151
0.35668558 0.38730314 0.091568112
0.33281976 0.41145518 0.09262991
0.30814055 0.43477947 0.087601185
0.23547661 0.4817206 0.080951691
0.18785617 0.50607532 0.083571672
-0.43544662 0.53091645 0.088824868
0.11585698 0.52967244 0.081478953
-0.027623571 0.55461401 0.08716321
-0.0039202273 0.5530287 0.078209281
-0.19598943 -0.86476237 0.10380566
-0.14766994 -0.83881533 0.096976757
0.068891779 -0.40600318 0.098281384
-0.46147743 -0.3829487 0.10648274
0.14115082 -0.38204271 0.099127173
-0.53222567 -0.33342141 0.094682574
-0.55661964 -0.30962878 0.097123742
0.28499869 -0.30935881 0.094425917
-0.58105183 -0.28579891 0.099568725
0.31057766 -0.2864137 0.10622418
-0.60552222 -0.26193169 0.10201752
-0.63003725 -0.23802996 0.10450697
0.38274464 -0.21394171 0.10485756
0.40614772 -0.18955509 0.10045207
0.42948502 -0.16523699 0.096058726
0.45528007 -0.093398392 0.10592866
0.47878993 -0.045100261 0.10260713
-0.72656143 -0.021019708 0.10487604
0.47946501 -0.021030331 0.10626125
-0.72436339 0.0030956427 0.093894243
-0.72545129 0.14753197 0.099329472
0.4794445 0.14784697 0.10615039
-0.72681642 0.17197227 0.10615015
0.47839177 0.17166533 0.10045207
0.47734278 0.19539689 0.094774365
-0.70291179 0.24443619 0.10729623
0.45404333 0.24379317 0.098943353
-0.67754042 0.29208556 0.10059929
0.4296841 0.29177481 0.097234011
-0.65394729 0.34054843 0.10336304
0.26121801 0.46008205 0.096627831
-0.5088402 0.48460096 0.099660635
0.21402091 0.48552907 0.10568857
0.16559941 0.50931048 0.10358465
0.093151316 0.53305405 0.10144639
-0.19640531 -0.94113886 0.11731184
-0.22090791 -0.89487332 0.12488413
-0.17209461 -0.84313279 0.11300099
0.045505285 -0.40792465 0.1129638
0.11871143 -0.38494363 0.12267959
0.19061074 -0.35961854 0.11339068
0.23856708 -0.33503205 0.1096276
0.26409259 -0.31207049 0.12152243
0.33575049 -0.26292774 0.1137805
0.35927829 -0.23839843 0.10929406
-0.65669715 -0.2149141 0.1188941
-0.68025023 -0.16627204 0.11526632
0.41010648 -0.16679327 0.12494028
0.4317171 -0.14179817 0.10923862
-0.70374906 -0.11774194 0.11164701
0.43395865 -0.11815859 0.12247431
0.45761853 -0.069579758 0.11913621
-0.72877491 -0.045305323 0.11593556
0.48012114 0.0030956427 0.10981262
0.48077536 0.027276343 0.11335349
0.48143446 0.051512003 0.11692119
0.48209506 0.075802714 0.12049675
0.4815582 0.099948898 0.1175909
0.48050117 0.123942 0.11186957
-0.72839564 0.19658333 0.11404037
0.45856011 0.19722481 0.12445438
0.45675242 0.22078356 0.1142447
0.43227261 0.26901242 0.11251855
0.40781963 0.31718844 0.11079431
0.38459051 0.34200168 0.11684668
0.36054078 0.36633375 0.117926
0.33647454 0.39068264 0.11900592
0.31239182 0.41504827 0.12008667
0.287218 0.43822178 0.1124444
0.23985907 0.46373689 0.12161589
0.14305447 0.51258767 0.12385619
0.070152193 0.53647918 0.1216718
-0.39066446 0.56104463 0.1234827
-0.22128183 -0.92198455 0.13459897
-0.22132093 -0.87357765 0.13561499
-0.19692659 -0.84885561 0.13424134
0.021898068 -0.40986419 0.12778485
-0.51363409 -0.36226311 0.13629282
0.16844246 -0.36236319 0.13715935
0.21715525 -0.33798295 0.13700855
0.28981471 -0.28893584 0.13352704
0.33916757 -0.24064216 0.13844121
0.36288035 -0.21595529 0.13392174
0.38652554 -0.19133873 0.12941527
0.41241091 -0.14318183 0.13919556
-0.73354751 -0.094440617 0.13978052
0.43621922 -0.094318755 0.13582194
-0.73100412 -0.069763049 0.12707329
0.45997679 -0.045559686 0.13245571
0.46067613 -0.02126231 0.13640594
0.46131712 0.0030956899 0.14002597
-0.75812781 0.027487073 0.14072442
-0.75593317 0.051715888 0.13016546
-0.75737894 0.076186687 0.13712156
0.46061283 0.14922798 0.13604796
0.45958459 0.17327048 0.13024056
0.43488657 0.24602637 0.12795341
-0.70816255 0.27088067 0.13458014
0.41030902 0.29444996 0.12619352
-0.68255615 0.31888491 0.12774742
0.38815627 0.32011175 0.14000702
-0.61166358 0.4176552 0.14000702
-0.58564126 0.44056812 0.12937784
0.26595908 0.44171956 0.13768697
0.19222102 0.48939872 0.13082218
-0.48954377 0.51494843 0.13845992
-0.0019329935 -0.4118222 0.14274645
0.095931441 -0.38788864 0.14658952
0.2428225 -0.31483153 0.1491127
0.31538934 -0.26540136 0.14299238
-0.68614233 -0.19243149 0.14715838
0.3903662 -0.16837859 0.15436101
-0.70987248 -0.14337905 0.14346516
0.41459477 -0.11932226 0.15270495
0.43849897 -0.070276119 0.14928341
-0.76047945 0.0030956427 0.15203905
0.4619562 0.02750955 0.14363551
0.46260011 0.051979359 0.14727211
0.46324551 0.076505214 0.15091729
-0.75883114 0.10076538 0.14410841
0.4626773 0.10087629 0.14770842
-0.76028973 0.12545297 0.15112627
0.46164489 0.1250969 0.1418767
0.43941694 0.19908768 0.15470397
-0.7338801 0.22266772 0.1414423
0.4375264 0.22281329 0.14354098
0.412826 0.27148882 0.14176357
0.39057449 0.2971769 0.15571404
0.36446166 0.34500685 0.14473319
0.34019163 0.36955601 0.14583158
-0.63786495 0.39458963 0.15072715
0.31590477 0.39412209 0.14693081
0.29160112 0.41870517 0.14803088
-0.56430423 0.46783915 0.14966321
0.21815577 0.46745074 0.14700675
0.17006853 0.49333084 0.15636241
0.12021704 0.51591063 0.14441133
0.046853825 0.539949 0.14216042
-0.24719274 -0.90730166 0.16851902
-0.2472709 -0.88316524 0.17021108
-0.22222015 -0.85552013 0.15897727
-0.44296798 -0.41389886 0.15861428
-0.025990672 -0.41380122 0.15786958
0.072803035 -0.39087856 0.17086518
0.14593615 -0.36514956 0.16129041
-0.56679523 -0.34118235 0.16669428
0.19536459 -0.34098378 0.16485262
-0.59074306 -0.31617284 0.16251516
-0.61571419 -0.29184896 0.16506338
0.26868901 -0.291504 0.16132879
-0.6407252 -0.26748648 0.16761601
-0.66577619 -0.24308491 0.17017257
0.31867713 -0.24292654 0.16811562
0.34264135 -0.21800537 0.16351116
0.36653662 -0.19315575 0.15891993
0.39273539 -0.14459306 0.16974926
-0.74003106 -0.12007169 0.17217457
0.41679424 -0.095257476 0.16631055
0.44080144 -0.046028081 0.16287899
-0.76284796 -0.021470398 0.16343462
0.44152242 -0.02149887 0.16713595
0.44214749 0.0030958315 0.17082679
0.44242465 0.12627426 0.17246354
-0.76175487 0.15024999 0.15817523
0.44141835 0.15063548 0.16652167
-0.76322645 0.17515722 0.16525531
0.4404158 0.17490636 0.16060197
-0.73945719 0.24920985 0.16930711
0.41536802 0.24829988 0.15748787
0.39301684 0.27401349 0.17157757
-0.71350551 0.29778922 0.16234303
0.36812618 0.32309201 0.16978776
-0.69080329 0.34798717 0.17238653
-0.66424423 0.37136769 0.16151989
0.24435565 0.445274 0.16333866
0.097078592 0.51927388 0.16521716
0.023250327 0.54346448 0.16291749
-0.19851276 -0.83799636 0.18575335
-0.17380437 -0.83833218 0.18703616
0.12308265 -0.36797646 0.18577278
0.22117639 -0.31764144 0.1771903
0.29464841 -0.267923 0.17277181
-0.69215524 -0.21912716 0.17970419
-0.71612132 -0.16954114 0.17593491
0.37025404 -0.16999385 0.18433607
0.39485568 -0.12050836 0.18352103
-0.76763225 -0.071134381 0.18645287
0.41901261 -0.070986122 0.18003321
-0.76522952 -0.046212982 0.17489254
0.44277394 0.027747335 0.17452621
0.44339865 0.052455641 0.17821455
0.44402802 0.077221639 0.18193114
0.44343138 0.10182144 0.17840815
-0.76552635 0.20041896 0.17632115
0.4199028 0.20098665 0.18553984
0.41793537 0.22487991 0.17336917
0.39548367 0.25061792 0.1875999
0.37046421 0.29995361 0.18577278
0.34397265 0.34806618 0.17311871
0.31948072 0.37283817 0.17425609
0.2949667 0.39762315 0.17535591
0.27043805 0.42242768 0.17647564
0.1960997 0.47122481 0.17281032
0.14755492 0.49732691 0.18231893
0.07363461 0.52268183 0.18629742
-0.00066431612 0.54702604 0.18394792
-0.24813336 -0.8635779 0.18888402
-0.2238186 -0.84185761 0.20050633
-0.49581674 -0.39316025 0.18939018
0.049318165 -0.3939147 0.19551504
0.17318878 -0.34403992 0.1932106
0.24718845 -0.29411781 0.18962359
0.27340311 -0.27041104 0.20215392
0.29780141 -0.24525566 0.19837093
0.32201999 -0.22009403 0.19365954
0.34617329 -0.19500826 0.18900073
0.37267363 -0.14603087 0.20087886
-0.77073663 -0.096337669 0.20138884
0.39699128 -0.096214764 0.19739234
0.42125016 -0.046505306 0.19387436
0.42199612 -0.021740196 0.19848859
0.42260134 0.0030957842 0.2022326
-0.79543012 0.027948197 0.20062411
-0.79318088 0.052640073 0.19018853
-0.79473782 0.077578939 0.19741189
0.42282671 0.12747367 0.20362639
0.4218505 0.1520704 0.19758809
0.42087489 0.1765743 0.19155276
0.3979753 0.22698697 0.20378375
-0.74513716 0.27622432 0.19768608
0.37282857 0.27658439 0.20193803
-0.71893942 0.32517266 0.19057822
0.34771323 0.32612693 0.20011437
0.32311624 0.35118261 0.20203614
0.2983931 0.37617752 0.20317459
-0.62157375 0.45053545 0.20131028
0.22240117 0.44888917 0.18942904
0.17368212 0.47506061 0.19903684
-0.5453946 0.4984667 0.18972111
-0.025113612 0.54904127 0.19584727
-0.24891415 -0.94280922 0.20578837
-0.27405474 -0.89430201 0.2103976
0.099876791 -0.37084964 0.2106539
0.19914246 -0.32049936 0.20574927
0.22530293 -0.29677835 0.21842539
-0.72249556 -0.19624348 0.20905697
0.32541931 -0.19689488 0.21963501
0.34976214 -0.1716409 0.21490073
-0.74664468 -0.14623131 0.2052182
0.3747274 -0.12171689 0.21492064
0.39914542 -0.071710199 0.21138406
-0.79796219 0.003095737 0.21237099
0.42321122 0.027989561 0.20600498
0.42381924 0.052941509 0.20976651
0.42443198 0.077951767 0.21355641
-0.79630178 0.10263023 0.20466781
0.42380649 0.10278482 0.20968759
-0.79787278 0.12779447 0.2119565
-0.79945087 0.15307227 0.21927798
0.40000686 0.20292281 0.21697903
-0.77145082 0.22705913 0.20482516
0.37521681 0.25297865 0.21826684
0.34997326 0.30278513 0.21642458
0.27365255 0.40118986 0.20431411
-0.64801723 0.42690304 0.21067345
0.24889451 0.42621994 0.20545423
0.2000829 0.45256123 0.21592975
0.12467124 0.50138909 0.20870209
0.049878106 0.52613169 0.20763838
-0.049781114 0.55067158 0.20547378
-0.27461559 -0.92219424 0.220806
-0.27468091 -0.87250495 0.22201717
-0.24965271 -0.8474254 0.22177887
0.025467753 -0.39699543 0.22052789
-0.54970455 -0.37202418 0.22082555
0.076308742 -0.37376738 0.23592305
0.15061548 -0.34715104 0.22207689
-0.62632513 -0.32299653 0.23070192
0.176714 -0.32341078 0.23484135
-0.6518594 -0.29815805 0.23336041
0.2516672 -0.27286908 0.23118126
0.27652666 -0.24762914 0.22920454
0.30100524 -0.22222264 0.22438312
0.35222024 -0.14749786 0.2326405
-0.77773547 -0.12249205 0.23506176
0.37679911 -0.097190507 0.22908509
0.40131837 -0.046992164 0.22549748
-0.80051267 -0.021938227 0.22420394
0.4020797 -0.0219862 0.2304424
0.40266758 0.0030956427 0.23426104
0.4028464 0.1286976 0.23542249
0.40189528 0.15353253 0.22924459
-0.80103618 0.17846447 0.22663271
0.40094775 0.17827371 0.22309017
0.37762937 0.22913314 0.23476148
-0.77747744 0.2541759 0.2338208
0.35225627 0.27920607 0.23290038
-0.75091881 0.30372259 0.22657287
0.32681274 0.329146 0.23028266
0.30187708 0.35435382 0.23146105
-0.70203137 0.37963995 0.2331605
0.27692109 0.37957755 0.23262048
-0.67493087 0.40335336 0.22187829
0.25194731 0.40481925 0.23378074
0.22675952 0.42982227 0.23298061
0.15089414 0.47896004 0.22569656
0.10116678 0.50491446 0.231601
-0.52600217 0.52987617 0.23080206
0.025804803 0.52963102 0.22928464
-0.2760489 -0.85413241 0.24740422
0.0012449175 -0.40012684 0.24595225
0.12763254 -0.35031605 0.25144494
0.20302022 -0.29948518 0.24772739
-0.67743534 -0.27327907 0.23602331
-0.70305312 -0.24835941 0.2386905
-0.72900695 -0.22350487 0.24289083
0.30426618 -0.19881772 0.25085831
-0.75340039 -0.172938 0.23897159
0.32887387 -0.17331852 0.2460326
0.35420445 -0.12295001 0.2469604
-0.80577445 -0.072570026 0.24861538
0.37888607 -0.072448492 0.24335372
-0.80308187 -0.047155678 0.23612368
0.40325999 0.028236885 0.23810863
0.40385067 0.053436816 0.24194539
0.40444583 0.078696758 0.2458111
0.40379804 0.10376751 0.24160349
-0.80415905 0.20440949 0.24112105
0.37971473 0.20489593 0.24901938
0.35456249 0.25538635 0.2495445
0.3290877 0.30567116 0.2476666
-0.72932076 0.35576132 0.2445215
0.17739388 0.45629427 0.24287057
-0.60308051 0.48143938 0.24264944
0.0014065802 0.5331741 0.25120223
-0.47813448 0.55833721 0.25073719
-0.30184096 -0.90716541 0.25681412
-0.30190724 -0.8821702 0.25789011
0.052370027 -0.37673119 0.26159
-0.60465282 -0.35046867 0.25286138
0.15387833 -0.32637498 0.26446211
0.22953707 -0.27537158 0.26073539
0.25484133 -0.25004867 0.26063371
0.27958819 -0.22439359 0.25571847
0.33135772 -0.14899319 0.26501274
0.35620338 -0.098185286 0.26138639
0.3809914 -0.047488749 0.25774765
0.38176483 -0.022237206 0.26303566
0.38233459 0.003095737 0.26693118
0.38154742 0.1550248 0.26154923
0.38062933 0.1800079 0.25527227
0.35689244 0.23132227 0.26635933
-0.78395641 0.28192362 0.26499248
0.33128297 0.28187698 0.26444197
-0.75680095 0.33171579 0.25596189
0.30542257 0.33214483 0.26024735
0.28024739 0.35758328 0.26142716
0.25505409 0.38304022 0.26260805
0.22984272 0.40851542 0.26378953
0.204173 0.43338528 0.26020634
0.12772648 0.48292428 0.25280082
0.077260762 0.50830007 0.25359046
-0.30290383 -0.86111248 0.27407253
-0.2522046 -0.83644527 0.27702856
-0.53202212 -0.40392664 0.27680266
-0.023374744 -0.40322953 0.27114284
0.10398717 -0.35311303 0.27739835
0.18033329 -0.3022432 0.27758324
-0.76029861 -0.20020831 0.27343726
0.28270239 -0.20077784 0.28268802
0.30758065 -0.17502868 0.27776814
0.33326918 -0.12420703 0.2796191
0.35821998 -0.073201038 0.27594006
0.38290867 0.028488789 0.27085626
0.38348112 0.053942278 0.27477002
0.38405797 0.079456627 0.27871406
0.38339111 0.10476979 0.2741549
0.38246903 0.1299457 0.26785004
0.35902074 0.2069097 0.28171933
0.33350357 0.25783935 0.28141034
0.30779341 0.30861136 0.2794956
0.15432486 0.46008974 0.27026284
0.10416958 0.48695517 0.28036022
0.053029045 0.51172835 0.27585793
-0.023322225 0.53676528 0.27341664
-0.3043372 -0.84160739 0.29734802
-0.27806467 -0.83842295 0.28481281
-0.22734304 -0.84026736 0.29207349
-0.48331261 -0.4318231 0.29558098
-0.048518263 -0.40524405 0.28749812
0.028051019 -0.37973952 0.28764284
0.13062274 -0.32939151 0.29460478
0.20699999 -0.27791822 0.29080939
0.2327334 -0.2525152 0.2926749
0.25775439 -0.22660691 0.28766358
0.31007934 -0.15051931 0.29805517
0.33519769 -0.099200405 0.29435563
0.3602545 -0.047994871 0.29062295
0.3610394 -0.022493219 0.29628754
0.36079186 0.15654665 0.29450107
0.35990462 0.18177676 0.28809798
0.33574718 0.23355296 0.29855454
0.30990255 0.28460178 0.29662001
0.28363299 0.33519703 0.29074728
0.25821629 0.36087283 0.29194927
0.23278114 0.38656703 0.29315197
-0.71369427 0.41251814 0.29628754
0.20732757 0.41228011 0.29435575
-0.68602985 0.43657282 0.28456497
0.1812079 0.43701091 0.28791177
-0.66269958 0.46384573 0.29736888
0.13086613 0.46394953 0.29811776
-0.58411372 0.51315135 0.28510153
0.028466195 0.51520354 0.29842973
-0.048388384 0.54040533 0.29593432
-0.3302806 -0.89414829 0.30234683
-0.3303529 -0.86878568 0.30339015
-0.58775222 -0.38231853 0.30997837
0.0033443421 -0.38279837 0.31413293
0.079961151 -0.355948 0.30370331
-0.66346139 -0.33011833 0.30186713
-0.68958479 -0.30474287 0.30464315
0.15722737 -0.30504999 0.30796778
-0.71659172 -0.27971014 0.31197047
0.26071802 -0.20277783 0.31516254
0.28587055 -0.17677218 0.31012511
0.31191471 -0.12549035 0.31295681
0.33714071 -0.073969267 0.30920303
0.36159012 0.0030956899 0.30026209
0.36214507 0.028745981 0.30426729
0.36269847 0.05445794 0.30826092
0.3632561 0.080231935 0.31228518
0.36257088 0.10579157 0.30734015
0.36167964 0.13121802 0.30090809
0.33790961 0.20896412 0.3150785
0.31203371 0.26034242 0.31392288
0.28608361 0.31161124 0.31197047
0.080213502 0.49105433 0.30838656
-0.33118743 -0.84620219 0.31543589
-0.30581042 -0.82190311 0.32126987
-0.28001559 -0.8218407 0.32101655
-0.40940568 -0.46167165 0.32636237
0.05555062 -0.35883075 0.33045173
0.10693872 -0.33246583 0.32532561
0.18404868 -0.28051361 0.32145965
0.21018845 -0.25502849 0.32532561
0.2354916 -0.22886357 0.32023633
0.31376669 -0.10023617 0.32799268
0.33910123 -0.048511427 0.32418394
0.3398909 -0.022754237 0.33021832
0.33961627 0.15809944 0.32811975
0.33876127 0.18358126 0.32158637
0.28809765 0.28737855 0.32941258
0.26143533 0.33830655 0.32181859
0.23577246 0.36422384 0.32304311
0.21009275 0.39016253 0.32428968
0.18439212 0.41611817 0.32551599
0.15785083 0.44069538 0.31606686
0.10700779 0.46787494 0.32644701
0.0035654008 0.51872647 0.32131195
-0.073798835 0.54409564 0.31876111
-0.33226895 -0.82431108 0.33104551
-0.25499219 -0.825872 0.33738172
-0.33331454 -0.80205643 0.34613812
-0.3071759 -0.801413 0.3434422
-0.021760315 -0.38590646 0.34104955
