ply
format ascii 1.0
comment PCL generated
element vertex 1348
property float x
property float y
property float z
element camera 0
property float view_px
property float view_py
property float view_pz
property float x_axisx
property float x_axisy
property float x_axisz
property float y_axisx
property float y_axisy
property float y_axisz
property float z_axisx
property float z_axisy
property float z_axisz
property float focal
property float scalex
property float scaley
property float centerx
property float centery
property int viewportx
property int viewporty
property float k1
property float k2
end_header
-0.14257035 0.33050194 -0.54716468
-0.12385163 0.33156425 -0.53949827
-0.12385163 0.35057804 -0.53949815
-0.105106 -0.37364477 -0.52788633
-0.105106 -0.3545416 -0.52788633
-0.105106 -0.33543834 -0.52788639
-0.105106 -0.31633511 -0.52788633
-0.10510573 -0.29723072 -0.52789742
-0.105106 -0.27812877 -0.52788633
-0.21991643 -0.25930187 -0.52512515
-0.105106 -0.2590256 -0.52788633
-0.10510625 -0.23992339 -0.5278753
-0.23911898 -0.22113901 -0.52411038
-0.25833723 -0.18294491 -0.52309483
-0.27757016 -0.14471886 -0.5220896
-0.27677917 -0.12517557 -0.53065246
-0.29669672 -0.029830303 -0.52230185
-0.29612786 -0.010684179 -0.52798647
-0.29617351 0.0084218131 -0.52753043
-0.29674146 0.027615104 -0.521855
-0.27682015 0.12291308 -0.53020859
-0.27770647 0.14258927 -0.52061391
-0.25846118 0.18082917 -0.52163142
-0.23923241 0.21903904 -0.52263707
-0.1051065 0.23765945 -0.52786422
-0.22001921 0.25721794 -0.52364182
-0.10510625 0.25676176 -0.5278753
-0.105106 0.27586368 -0.52788639
-0.10510573 0.29496545 -0.52789742
-0.10510573 0.31406859 -0.52789742
-0.10510573 0.3331717 -0.52789742
-0.10510573 0.35227484 -0.52789742
-0.105106 0.37137961 -0.52788621
-0.067081027 -0.41566077 -0.50432062
-0.086183444 -0.39455429 -0.51615357
-0.067081027 -0.39637607 -0.5043205
-0.12455525 -0.37528852 -0.51664746
-0.086183444 -0.37536079 -0.51615351
-0.067081027 -0.37709153 -0.50432062
-0.067080937 -0.35780543 -0.50433183
-0.14390288 -0.35666734 -0.51254445
-0.086183265 -0.35616568 -0.51616478
-0.16331482 -0.33798626 -0.50841671
-0.086183265 -0.3369723 -0.51616478
-0.067080855 -0.33851939 -0.50434327
-0.18279044 -0.31924185 -0.50428659
-0.086183101 -0.31777751 -0.51617593
-0.067080855 -0.31923497 -0.50434315
-0.086183101 -0.29858419 -0.51617593
-0.067080855 -0.29995051 -0.50434327
-0.086183265 -0.27939203 -0.51616478
-0.24055868 -0.24199891 -0.50540817
-0.25992125 -0.20352487 -0.50438857
-0.27930063 -0.16502026 -0.50335687
-0.29841569 -0.087797828 -0.50512499
-0.29784009 -0.068386525 -0.51087689
-0.29726708 -0.04906426 -0.5166024
-0.29731202 0.04689642 -0.51615351
-0.29788408 0.066265821 -0.51043719
-0.29845989 0.085724875 -0.5046832
-0.27943692 0.16304626 -0.50188148
-0.26004702 0.20156647 -0.50290298
-0.24067293 0.24005538 -0.50392383
-0.086183444 0.25802496 -0.51615357
-0.086183265 0.27721709 -0.51616472
-0.086183101 0.29640919 -0.5161761
-0.067080855 0.29786658 -0.50434333
-0.18295372 0.31755495 -0.5012567
-0.086183101 0.31560251 -0.5161761
-0.067080855 0.31715101 -0.50434327
-0.086183101 0.33479595 -0.51617599
-0.16345325 0.33628631 -0.50541949
-0.067080855 0.33643547 -0.50434333
-0.14401743 0.35495561 -0.50956839
-0.086183101 0.35398924 -0.51617599
-0.067080855 0.35571983 -0.50434327
-0.12464589 0.37356311 -0.51370353
-0.086183265 0.37318432 -0.51616472
-0.067080937 0.37500605 -0.50433183
-0.086183265 0.39237761 -0.51616472
-0.067080937 0.39429054 -0.50433195
-0.067080937 0.41357505 -0.50433195
-0.047796428 -0.43696833 -0.49237484
-0.047796428 -0.41759187 -0.49237478
-0.10584456 -0.3976717 -0.49590546
-0.047796428 -0.39821529 -0.49237478
-0.047796428 -0.37883869 -0.49237484
-0.047796428 -0.35946056 -0.49238616
-0.047796428 -0.34008408 -0.49238628
-0.047796428 -0.32070622 -0.49239755
-0.20233119 -0.30043679 -0.50013149
-0.22193687 -0.28156927 -0.4959625
-0.24201934 -0.26317403 -0.48643374
-0.26153025 -0.22441795 -0.48538727
-0.29957604 -0.12689015 -0.49352998
-0.29899511 -0.10729901 -0.49933517
-0.31986964 -0.030117907 -0.48493844
-0.31923848 -0.010684229 -0.49079478
-0.3192879 0.0087080402 -0.49033642
-0.29903838 0.10527368 -0.49890268
-0.29962069 0.12491342 -0.49308389
-0.2421362 0.26139146 -0.48491526
-0.22214976 0.27990475 -0.49288964
-0.2025191 0.29876119 -0.49708009
-0.047796428 0.31871432 -0.49239767
-0.047796428 0.33809063 -0.49239767
-0.047796428 0.35746697 -0.49239755
-0.047796428 0.37684521 -0.49238628
-0.10599276 0.39669019 -0.48948801
-0.047796428 0.39622155 -0.49238628
-0.047796428 0.41560015 -0.49237484
-0.047796428 0.43611595 -0.48593926
-0.028327033 -0.43901095 -0.48031449
-0.028327033 -0.41954148 -0.48031455
-0.028327033 -0.40007204 -0.48031449
-0.14552954 -0.38206995 -0.4702825
-0.028327033 -0.38060269 -0.48031455
-0.16511005 -0.36262506 -0.46954864
-0.02832712 -0.3611317 -0.48032606
-0.02832712 -0.34166238 -0.480326
-0.28105736 -0.18562987 -0.48433965
-0.30059952 -0.14680885 -0.48330295
-0.32113957 -0.069257721 -0.4731552
-0.32050374 -0.049642295 -0.47905481
-0.31991804 0.028190333 -0.48448944
-0.3205511 0.047763266 -0.47861522
-0.32118714 0.067427449 -0.47271365
-0.30074838 0.1449786 -0.48181552
-0.28119466 0.1838143 -0.48285335
-0.26165694 0.22261827 -0.48389065
-0.02832721 0.3397617 -0.48033762
-0.02832712 0.35923266 -0.480326
-0.02832712 0.37870204 -0.480326
-0.02832712 0.39817131 -0.480326
-0.028327033 0.41764253 -0.48031437
-0.028327033 0.43711194 -0.48031455
-0.028195245 -0.4615114 -0.46319491
-0.0086701661 -0.46063611 -0.46813816
0.01117716 -0.46281502 -0.45583206
-0.0086701661 -0.441073 -0.46813816
0.01117688 -0.44315514 -0.45584381
0.01117688 -0.42349732 -0.45584399
-0.086944073 -0.42173448 -0.46674931
-0.0086701661 -0.42150995 -0.46813804
-0.0086701661 -0.40194678 -0.46813822
0.01117688 -0.40383956 -0.45584399
-0.0086701661 -0.38238361 -0.46813804
0.01117688 -0.3841818 -0.45584387
-0.0086703449 -0.36281887 -0.46814972
-0.18489186 -0.34363025 -0.46528894
-0.20474085 -0.32457301 -0.46100342
-0.22465602 -0.30545014 -0.45671505
-0.24463922 -0.28626403 -0.45240051
-0.26316383 -0.24563041 -0.46609533
-0.28283986 -0.20655368 -0.46504354
-0.30253333 -0.16744535 -0.46397913
-0.32306617 -0.12865691 -0.45527852
-0.32242137 -0.10876449 -0.46126133
-0.32177833 -0.088964693 -0.467228
-0.34305379 -0.01068408 -0.45245951
-0.34310696 0.0090031447 -0.45199889
-0.32182613 0.087183595 -0.46678442
-0.32246813 0.10703235 -0.46082759
-0.3231144 0.12697485 -0.45483077
-0.30268332 0.16577592 -0.46248031
-0.28297925 0.20490013 -0.4635343
-0.26329154 0.24399188 -0.46458745
-0.22487152 0.30411601 -0.4536044
-0.20493034 0.32322544 -0.45792663
-0.18505648 0.34227023 -0.46223432
-0.1652496 0.36125076 -0.46652752
-0.0086703449 0.36101359 -0.46814966
-0.14577802 0.38124222 -0.46382695
-0.0086703449 0.38057661 -0.46814966
0.011176612 0.38246951 -0.45585567
-0.0086703449 0.4001396 -0.46814972
0.011176612 0.40212709 -0.45585567
-0.08704482 0.42104807 -0.46020561
-0.0086701661 0.41970459 -0.46813804
0.01117688 0.42178676 -0.45584387
-0.0086701661 0.43926787 -0.46813816
0.01117688 0.44144464 -0.45584387
-0.028144276 0.46096754 -0.45657378
-0.0086701661 0.45883104 -0.46813804
0.01117716 0.4611046 -0.45583206
0.03121727 -0.48476639 -0.44341832
0.03121727 -0.46501291 -0.44341832
-0.067600057 -0.44636387 -0.43689704
0.031216897 -0.44525751 -0.44343013
0.031216897 -0.42550415 -0.44343019
-0.1268992 -0.40619797 -0.44052535
0.031216897 -0.40575084 -0.44343019
0.031216897 -0.38599744 -0.44343013
-0.2648226 -0.26716962 -0.44650632
-0.28465092 -0.22780082 -0.44543821
-0.30449697 -0.18839993 -0.44435734
-0.32435846 -0.14896514 -0.44328749
-0.3444511 -0.050238132 -0.44035852
-0.3437508 -0.030414462 -0.44642341
-0.34380287 0.02878337 -0.4459725
-0.34450203 0.048656959 -0.43991739
-0.32452133 0.14744428 -0.4417761
-0.30464807 0.18689397 -0.44284731
-0.28479141 0.22631079 -0.44391757
-0.2649563 0.26570106 -0.44492751
-0.24487948 0.28494045 -0.44927913
0.031216539 0.38438076 -0.44344211
0.031216539 0.40413383 -0.44344211
0.031216897 0.42388916 -0.44343001
0.031216897 0.44364253 -0.44343013
0.03121727 0.46339798 -0.4434182
0.03121727 0.48315135 -0.44341832
0.051453166 -0.48708227 -0.43088305
0.051453166 -0.46723235 -0.43088305
0.051452704 -0.44738042 -0.43089515
0.051452704 -0.4275305 -0.43089515
0.051452704 -0.40768069 -0.43089503
-0.18705975 -0.36878979 -0.42505819
-0.20722611 -0.34947225 -0.42064786
-0.28649008 -0.24937792 -0.42552847
-0.30649108 -0.20968002 -0.42443073
-0.32650778 -0.1699478 -0.42334408
-0.34656784 -0.11027458 -0.42202705
-0.34585893 -0.09016753 -0.42816645
-0.34515333 -0.070155494 -0.43427694
-0.3452045 0.068624631 -0.43383354
-0.34590894 0.088686675 -0.42773306
-0.34661812 0.10884458 -0.4215917
-0.3266719 0.1685929 -0.4218213
-0.30664334 0.20834014 -0.42290926
-0.28663164 0.24805394 -0.42399621
-0.1872257 0.36776674 -0.42197865
-0.12710193 0.40566981 -0.43394154
0.051452242 0.40616018 -0.43090713
0.051452704 0.42601207 -0.43089515
-0.067651339 0.44597897 -0.43023455
0.051452704 0.44586182 -0.43089527
0.051453166 0.46571386 -0.43088317
0.051453166 0.48556381 -0.43088317
0.092523932 -0.51182824 -0.40544194
0.071887739 -0.48942092 -0.41822493
0.092523932 -0.49178258 -0.40544194
0.071887739 -0.46947348 -0.41822487
0.092523932 -0.47173682 -0.40544182
0.071887188 -0.44952407 -0.41823703
0.092523277 -0.45168892 -0.40545416
-0.10782729 -0.43090025 -0.41005045
0.071886621 -0.42957488 -0.41824925
0.092522621 -0.43164131 -0.40546632
0.071886621 -0.40962759 -0.41824925
-0.16768706 -0.39033785 -0.41375482
-0.22746225 -0.33009011 -0.41621035
-0.24776696 -0.31063998 -0.41176993
-0.26814234 -0.29112443 -0.40730202
-0.28858909 -0.27154288 -0.40280616
-0.30851522 -0.23129243 -0.40420437
-0.3286908 -0.19125915 -0.40308839
-0.34728155 -0.13047823 -0.41584593
-0.3683719 -0.030720163 -0.4067148
-0.36760375 -0.010684179 -0.41295141
-0.36766225 0.0093074189 -0.41247654
-0.36842617 0.029394574 -0.40627426
-0.34733349 0.12909983 -0.41539651
-0.30866987 0.23012207 -0.40265894
-0.2684119 0.29015511 -0.40411848
-0.24801117 0.30965936 -0.40859741
-0.22767961 0.32909524 -0.41307318
-0.20741791 0.34846413 -0.41753358
-0.16799302 0.38997117 -0.40713066
0.071886621 0.40820649 -0.41824907
-0.10798213 0.43067765 -0.403346
0.071887188 0.42815581 -0.41823697
0.092523277 0.43032059 -0.40545416
0.071887188 0.44810295 -0.41823703
0.092523277 0.45036641 -0.40545404
0.071887739 0.46805254 -0.41822493
0.092523932 0.47041425 -0.40544182
0.071887739 0.48799989 -0.41822487
0.092523932 0.49046004 -0.40544182
0.092523932 0.51050586 -0.40544176
0.11336476 -0.51431286 -0.39253193
0.11336476 -0.49416766 -0.39253193
0.11336476 -0.47402251 -0.39253205
0.11336476 -0.45387748 -0.39253181
0.11336322 -0.43372831 -0.39255673
-0.34888223 -0.15119085 -0.4019838
-0.37069103 -0.091407873 -0.38788575
-0.3699148 -0.071081385 -0.39418811
-0.36914071 -0.050852142 -0.40047258
-0.36919525 0.049578048 -0.40003002
-0.36996806 0.069858678 -0.39375573
-0.37074456 0.090237096 -0.38745129
-0.34905955 0.1499895 -0.40044814
-0.32885614 0.19007277 -0.40155387
-0.28888416 0.27058485 -0.39961177
0.11336398 0.43250704 -0.39254433
0.11336476 0.45265424 -0.39253193
0.11336476 0.47279939 -0.39253175
0.11336476 0.49294454 -0.39253193
0.11336476 0.5130896 -0.39253193
0.073708996 -0.51695669 -0.37879384
0.13441324 -0.5168221 -0.37949336
0.13441324 -0.49657661 -0.37949336
0.13441324 -0.47633111 -0.37949336
-0.088297278 -0.45619354 -0.37885618
0.13441324 -0.45608553 -0.37949347
0.13441235 -0.43583801 -0.37950599
-0.148903 -0.41511035 -0.38263756
-0.20979212 -0.3751744 -0.37898123
-0.23035812 -0.35552287 -0.37441224
-0.25099668 -0.33580458 -0.36981452
-0.31057253 -0.25324675 -0.38364649
-0.33090824 -0.21290693 -0.38251281
-0.3512601 -0.17253147 -0.38139075
-0.37225637 -0.13235664 -0.37517685
-0.37147105 -0.11183255 -0.38155293
-0.39292425 -0.01068413 -0.37220335
-0.39298671 0.0096211387 -0.37172592
-0.37152481 0.11071391 -0.38111633
-0.3723135 0.13129209 -0.37471312
-0.35143882 0.17150122 -0.37984306
-0.33107489 0.2118918 -0.3809666
-0.31072965 0.25224903 -0.3820765
-0.23057818 0.35487923 -0.37123579
-0.20998551 0.37451494 -0.3758409
-0.14916268 0.41505411 -0.37589103
0.13441235 0.43471512 -0.37950599
-0.088402599 0.45628685 -0.37201488
0.13441324 0.45496273 -0.37949336
0.13441324 0.47520819 -0.37949336
0.13441324 0.49545377 -0.37949336
0.13441324 0.51569921 -0.37949336
0.15567249 -0.51935643 -0.36632442
0.17714575 -0.52191633 -0.35302281
0.15567249 -0.49900955 -0.36632448
0.17714575 -0.50146705 -0.35302269
0.15567249 -0.47866273 -0.36632431
0.17714575 -0.48101774 -0.35302269
0.15567249 -0.45831585 -0.36632442
0.17714682 -0.46057063 -0.35301018
0.17714466 -0.44011706 -0.35303557
0.15567152 -0.43796691 -0.36633688
-0.1908543 -0.3989841 -0.35464025
-0.27170628 -0.31601584 -0.36521363
-0.29248941 -0.29615936 -0.36058396
-0.31334671 -0.27623442 -0.3559252
-0.33315966 -0.23489819 -0.36162251
-0.35367584 -0.19421181 -0.36046994
-0.37420833 -0.15348934 -0.35932875
-0.39545768 -0.072036162 -0.35284436
-0.39461073 -0.051485825 -0.35931605
-0.39376792 -0.031035431 -0.36575645
-0.39382574 0.030025061 -0.36531466
-0.39466885 0.050528623 -0.35887206
-0.37440062 0.15261795 -0.35776782
-0.35385594 0.19335556 -0.3589102
-0.33332759 0.23405679 -0.36006421
-0.3136729 0.27564442 -0.35266602
-0.29278946 0.29555711 -0.35733604
-0.27198038 0.31540155 -0.3619771
-0.25124303 0.33517516 -0.36661458
0.15567152 0.43694538 -0.366337
0.17714466 0.43919796 -0.35303545
0.15567249 0.45729446 -0.36632431
0.17714575 0.45964947 -0.35302258
0.15567249 0.47764122 -0.36632442
0.17714575 0.48009884 -0.35302258
0.15567249 0.49798822 -0.36632442
0.17714575 0.50054812 -0.35302281
0.15567249 0.5183351 -0.36632442
0.17714575 0.52099741 -0.35302258
0.19883621 -0.5245021 -0.33958673
0.013648715 -0.50224525 -0.34881043
0.19883621 -0.50394934 -0.33958673
0.19883621 -0.48339671 -0.33958673
0.19883741 -0.46284619 -0.33957374
-0.12966271 -0.44048217 -0.35077798
0.19883503 -0.44228917 -0.33959949
-0.3354485 -0.25724313 -0.34038448
-0.35613036 -0.21624011 -0.33921301
-0.37682876 -0.17520039 -0.3380537
-0.39716572 -0.11343982 -0.33979261
-0.39631045 -0.09268748 -0.34632814
-0.3955161 0.071132161 -0.35239804
-0.39636746 0.091836721 -0.34589243
-0.39722469 0.11264353 -0.339342
-0.37702253 0.1745055 -0.3364805
-0.35631037 0.21555944 -0.33765435
-0.33562055 0.25658107 -0.33878815
-0.19121943 0.39909577 -0.34786403
-0.12987474 0.44074643 -0.34389234
0.19883503 0.44147339 -0.33959949
0.19883621 0.46202835 -0.3395865
0.19883621 0.48258126 -0.33958662
0.19883621 0.50313389 -0.33958662
0.19883621 0.52368653 -0.33958673
0.22074723 -0.52711421 -0.3260138
0.22074723 -0.50645709 -0.3260138
0.22074723 -0.48579985 -0.3260138
0.22074854 -0.46514487 -0.32600081
0.22074723 -0.4444854 -0.3260138
-0.17192072 -0.42443174 -0.32209373
-0.23370945 -0.38251027 -0.32603967
-0.25433242 -0.36179546 -0.32648182
-0.27538854 -0.34172717 -0.32172859
-0.39802521 -0.13429426 -0.33322501
-0.41997421 -0.031360656 -0.32350171
-0.41905394 -0.01068413 -0.33014286
-0.41912043 0.0099448888 -0.32966316
-0.4200356 0.030675758 -0.32305861
-0.39808783 0.13355336 -0.33274615
-0.25458091 0.36152789 -0.32325387
0.22074723 0.44377422 -0.3260138
0.22074854 0.4644337 -0.32600069
0.22074854 0.48509118 -0.32600069
0.22074854 0.50574857 -0.32600093
0.22074723 0.52640313 -0.32601368
0.24288213 -0.52975303 -0.31230223
0.24288213 -0.50899023 -0.31230247
-0.047796428 -0.48719463 -0.31813598
0.24288213 -0.48822752 -0.31230223
0.24288356 -0.46746692 -0.31228924
0.24288213 -0.44670197 -0.31230235
-0.29652059 -0.32158935 -0.31694508
-0.3177267 -0.30137822 -0.31215787
-0.33901119 -0.28109786 -0.30732703
-0.35862306 -0.23862369 -0.31762564
-0.37949157 -0.19726264 -0.31643438
-0.40037686 -0.1558643 -0.31525505
-0.42275518 -0.094008401 -0.30343151
-0.42182299 -0.073021971 -0.31015921
-0.42089722 -0.052139819 -0.31684029
-0.42095709 0.05150922 -0.31640828
-0.42188317 0.072446197 -0.30972493
-0.40058282 0.15533304 -0.31368113
-0.37968528 0.19674633 -0.31486177
-0.3588075 0.23812476 -0.31602824
-0.33936974 0.28088909 -0.30400002
-0.31805846 0.30115664 -0.30884266
-0.29682332 0.32135168 -0.31366801
-0.27566504 0.3414765 -0.31846297
-0.2341864 0.38280565 -0.31915581
-0.1722402 0.42486903 -0.31517637
0.097938254 0.4265199 -0.30496454
0.24288213 0.44609642 -0.31230235
0.24288356 0.46686161 -0.31228912
0.24288356 0.48762435 -0.312289
0.014576603 0.50909102 -0.30863178
0.24288356 0.50838709 -0.31228912
0.26524442 -0.51154959 -0.29844999
0.26524442 -0.49068022 -0.29844987
-0.11067458 -0.47179064 -0.28675926
0.26524597 -0.46981305 -0.29843664
-0.15251766 -0.45051336 -0.28872585
0.26524442 -0.44894138 -0.29844999
0.26640433 -0.42961848 -0.28840506
-0.21510132 -0.40803322 -0.29277062
-0.36115792 -0.2613734 -0.29567301
-0.38219786 -0.21968508 -0.2944622
-0.40325651 -0.17795947 -0.2932502
-0.42462993 -0.13629529 -0.28990185
-0.42369023 -0.11509909 -0.29668355
-0.44602865 -0.01068413 -0.28673244
-0.42281383 0.093487293 -0.30300808
-0.42375284 0.11463466 -0.29623151
-0.42469841 0.13588886 -0.28940749
-0.40346241 0.17760955 -0.291677
-0.38239306 0.21935105 -0.29287708
-0.36134696 0.26105961 -0.29403615
0.2656588 0.42815316 -0.29486144
0.26524442 0.44844249 -0.29844999
0.26524597 0.46931419 -0.29843664
0.26524597 0.49018359 -0.29843664
0.26524597 0.51105314 -0.29843664
0.28783759 -0.51413524 -0.2844547
0.31066525 -0.51674765 -0.27031398
0.28783926 -0.49316055 -0.28444123
0.31066704 -0.49566409 -0.27030051
0.31066704 -0.47457808 -0.27030039
0.28783926 -0.47218323 -0.28444123
0.28783926 -0.45120606 -0.28444111
0.31066704 -0.45349199 -0.27030051
0.098958954 -0.42998537 -0.28602266
0.24651194 -0.43112472 -0.27862191
0.28783593 -0.43022463 -0.28446817
0.31066346 -0.43240166 -0.27032769
-0.27919394 -0.3682985 -0.27678919
-0.30068558 -0.34786969 -0.27185786
-0.38494864 -0.2424763 -0.27212846
-0.40618008 -0.20041667 -0.27091002
-0.44804001 -0.052815009 -0.27298081
-0.4470318 -0.031696603 -0.27987397
-0.44609919 0.010279165 -0.28625035
-0.44709873 0.031347703 -0.27941632
-0.44810334 0.052522179 -0.27254796
-0.38514709 0.24232891 -0.27051723
-0.27947289 0.36842272 -0.2734946
-0.21552923 0.40864789 -0.2858218
0.12052588 0.43116188 -0.27624953
0.22582862 0.4313255 -0.27523732
0.24581543 0.4297336 -0.28508484
0.28783593 0.42983338 -0.28446794
0.31066346 0.43211934 -0.27032757
-0.15278903 0.45128316 -0.28167582
0.28783759 0.45081267 -0.2844547
0.31066704 0.45320979 -0.27030051
0.28783926 0.47179207 -0.28444111
0.31066704 0.47429582 -0.27030051
-0.047796428 0.49398124 -0.27788103
0.28783926 0.49276936 -0.28444135
0.31066704 0.49538177 -0.27030039
0.28783926 0.51374662 -0.28444111
0.31066704 0.51646811 -0.27030039
0.33373296 -0.49819389 -0.2560122
0.33373296 -0.47699794 -0.2560122
0.33373296 -0.45580173 -0.25601232
-0.19602524 -0.43419501 -0.25867963
0.12169465 -0.43441179 -0.25727141
0.20629367 -0.43416768 -0.25885713
0.22647464 -0.43263969 -0.26878202
0.33373103 -0.4346036 -0.25602591
0.33373103 -0.41340762 -0.25602591
-0.25923359 -0.39127102 -0.26281404
-0.32225633 -0.32736868 -0.26689506
-0.34390393 -0.30679166 -0.26192808
-0.36563328 -0.2861428 -0.25691557
-0.42743048 -0.15831965 -0.26969051
-0.45006382 -0.095372036 -0.25914407
-0.44904935 -0.074039847 -0.26608002
-0.44911298 0.073803559 -0.26564479
-0.45012775 0.095192507 -0.25870681
-0.42765224 0.15814061 -0.26809001
-0.40638939 0.2002528 -0.26931095
-0.34426877 0.30696478 -0.2585429
-0.32259113 0.32752469 -0.26354933
-0.30099353 0.34801164 -0.26852429
-0.2597751 0.39207533 -0.2557795
0.33373103 0.41323525 -0.25602591
0.18541841 0.43454418 -0.25532746
0.20569679 0.4329291 -0.26531851
0.33373103 0.43443114 -0.25602591
0.33373296 0.45562944 -0.25601208
0.33373296 0.47682562 -0.25601232
0.33373296 0.49802166 -0.25601208
0.35704076 -0.50075024 -0.24157417
0.35704076 -0.47944295 -0.24157405
0.35704279 -0.45813811 -0.24156022
0.16549008 -0.43725723 -0.23879027
0.18596603 -0.43570679 -0.24886012
0.35703877 -0.43682647 -0.241588
0.31393269 -0.41496968 -0.24534607
0.35703877 -0.41551936 -0.24158788
-0.38774335 -0.26564437 -0.24943817
-0.40915397 -0.22324747 -0.24818563
-0.43058398 -0.18081197 -0.24693203
-0.45211017 -0.13836217 -0.24515295
-0.45108539 -0.11681291 -0.25215936
-0.47389185 -0.01068413 -0.24189234
-0.47396854 0.010624406 -0.24139416
-0.4511537 0.11669181 -0.25169241
-0.45226565 0.13833083 -0.24408984
-0.43080565 0.18082044 -0.24533224
-0.40936494 0.22327186 -0.24657369
-0.38795021 0.2656908 -0.24775875
-0.36602557 0.28632966 -0.25351799
0.31344402 0.41430461 -0.2490803
0.35703877 0.41545802 -0.241588
-0.19640766 0.43514952 -0.2515825
0.14359829 0.43590358 -0.2469182
0.16499178 0.43617103 -0.24526346
0.35703877 0.43676513 -0.24158788
0.35704076 0.45807466 -0.24157405
-0.11160613 0.47852355 -0.24642205
0.35704076 0.47938201 -0.24157393
0.38059431 -0.48191395 -0.22698379
-0.17646495 -0.46102393 -0.22370827
0.38059649 -0.46049666 -0.22696984
0.14486516 -0.43882096 -0.22863281
0.38059431 -0.43907487 -0.22698379
-0.24050447 -0.41751221 -0.22796226
0.29489377 -0.41762882 -0.22716546
0.38059431 -0.41765538 -0.22698367
0.35871109 -0.39579654 -0.23015416
0.38059431 -0.39623582 -0.22698379
-0.30499372 -0.37504706 -0.22522092
-0.41217759 -0.2464602 -0.22508097
-0.43378645 -0.2036792 -0.22382021
-0.45541489 -0.16085942 -0.22255838
-0.47608173 -0.053512722 -0.22766864
-0.47498292 -0.032043517 -0.2348057
-0.47505569 0.032041777 -0.2343328
-0.47614625 0.05356833 -0.2272495
-0.45565301 0.16104488 -0.22093034
-0.43401185 0.20387992 -0.2221936
-0.4123939 0.24667886 -0.22342777
-0.30530316 0.3755759 -0.2218709
0.35816905 0.39528134 -0.23386002
0.38059431 0.39628714 -0.22698379
0.29442951 0.41709822 -0.2309351
0.38059217 0.4177044 -0.22699773
-0.24099945 0.41865578 -0.22081804
0.38059217 0.4391239 -0.22699761
0.38059431 0.46054563 -0.22698367
0.38059431 0.48196521 -0.22698379
0.40439975 -0.46288037 -0.21222472
0.40439975 -0.44134724 -0.2122246
0.27560112 -0.42032114 -0.20875835
0.40439975 -0.41981408 -0.2122246
0.33986104 -0.3983416 -0.21178663
0.40439975 -0.39828101 -0.2122246
0.40439975 -0.37674776 -0.21222472
-0.32693914 -0.35424444 -0.22010159
-0.34896693 -0.33336684 -0.21494937
-0.37107462 -0.31241041 -0.20979214
-0.39326757 -0.29137945 -0.20458734
-0.47939482 -0.11858373 -0.20614946
-0.47828332 -0.096781485 -0.21336877
-0.47717974 -0.075091705 -0.22053707
-0.47724459 0.075205527 -0.22011566
-0.47835076 0.096954376 -0.21293092
-0.47946697 0.11881697 -0.20568097
-0.37147394 0.31299338 -0.20633399
-0.34933522 0.33393162 -0.21153212
-0.32727844 0.35479227 -0.21671116
0.40439975 0.3769125 -0.2122246
0.33934465 0.39796478 -0.21551323
0.40439749 0.39844367 -0.21223867
0.27516335 0.41992876 -0.21254957
0.40439749 0.41997671 -0.21223879
0.40439749 0.44150978 -0.21223867
-0.17691512 0.46275106 -0.2139616
0.40439749 0.46304283 -0.21223867
0.42845672 -0.46528941 -0.19732261
-0.22129485 -0.44443011 -0.1922003
0.42845672 -0.44364157 -0.19732237
0.25605151 -0.42304924 -0.19010603
0.42845672 -0.4219937 -0.19732237
-0.28598833 -0.4004527 -0.19655108
0.32076019 -0.40092057 -0.1931746
0.42845672 -0.40034586 -0.19732249
0.38508403 -0.37863249 -0.19782233
0.42845672 -0.37869799 -0.19732249
0.42845431 -0.35704833 -0.19733667
-0.41554502 -0.27027148 -0.19934893
-0.43704492 -0.22693336 -0.20030415
-0.45885962 -0.18376346 -0.19900668
-0.48069009 -0.14055236 -0.1977365
-0.50387484 -0.032402188 -0.18820965
-0.50268817 -0.01068413 -0.19555044
-0.50276911 0.010981255 -0.19504988
-0.50394917 0.032759067 -0.18774974
-0.48094302 0.14091715 -0.1960938
-0.45909759 0.18414268 -0.19737947
-0.43727413 0.22733013 -0.19865012
-0.41599908 0.27088255 -0.1958791
-0.39369509 0.29197711 -0.2011162
0.40824714 0.35849392 -0.18842542
0.42845431 0.35732782 -0.19733667
0.38471946 0.37858 -0.20019019
0.42845672 0.37897757 -0.19732249
-0.28659853 0.40179214 -0.189345
0.3202697 0.40068394 -0.19692254
0.42845431 0.40062332 -0.19733667
0.25556496 0.42268926 -0.19462049
0.42845431 0.42227104 -0.19733667
0.42845431 0.44391882 -0.19733667
0.42845431 0.46556661 -0.19733667
0.45277137 -0.44596049 -0.18226063
0.2356194 -0.4249073 -0.17740202
0.45277137 -0.4241966 -0.18226063
0.30140525 -0.40353605 -0.17429888
0.45277137 -0.40243295 -0.18226063
0.36642671 -0.38130495 -0.17740202
0.4527688 -0.38066721 -0.18227506
0.40863082 -0.35843828 -0.18605196
0.4527688 -0.35890341 -0.18227506
0.43237555 -0.33807424 -0.17418277
0.45276624 -0.33713806 -0.18228936
-0.44035888 -0.25058347 -0.17638767
-0.4623588 -0.20705582 -0.17508256
-0.48437902 -0.16348802 -0.17377627
-0.5062598 -0.076178968 -0.17345667
-0.50506538 -0.054233652 -0.18084514
-0.50513542 0.054649938 -0.1804117
-0.50632793 0.076655105 -0.17303526
-0.48463407 0.16405082 -0.17211962
-0.46260086 0.20763396 -0.1734277
-0.44059405 0.25118089 -0.17469084
0.43197021 0.33823708 -0.17657602
0.4527688 0.33753514 -0.18227506
0.4527688 0.3592988 -0.18227506
0.36588085 0.38122061 -0.18113422
0.45277137 0.3810645 -0.18226051
0.30093923 0.40343949 -0.1780827
0.4527688 0.40282622 -0.18227506
0.2141746 0.42593417 -0.17354381
0.23494551 0.42430335 -0.18413591
0.45277137 0.42459223 -0.18226063
-0.22174352 0.44592702 -0.18491411
0.45277137 0.44635588 -0.18226063
-0.2671504 -0.42745668 -0.15997159
0.19381872 -0.4280194 -0.15612447
0.21479729 -0.42645761 -0.166803
0.28178746 -0.40618482 -0.15518308
0.47734517 -0.40454045 -0.16705108
-0.33251119 -0.38300353 -0.16442239
0.34726843 -0.38380095 -0.15832829
0.47734517 -0.38265944 -0.16705108
-0.35420609 -0.36086667 -0.16633606
0.39034334 -0.36119589 -0.16366196
0.47734243 -0.36077681 -0.16706562
-0.37670889 -0.3395966 -0.16099763
0.47734243 -0.33889592 -0.16706574
-0.39929822 -0.3182483 -0.15562451
0.45632339 -0.31753969 -0.16219866
0.47733974 -0.31701365 -0.16708016
0.47874254 -0.2958928 -0.15948749
-0.5086627 -0.12041426 -0.15859246
-0.50745809 -0.098238878 -0.166044
-0.50753129 0.098776534 -0.16559124
-0.50874102 0.12101422 -0.158108
0.47846085 0.29629925 -0.16101229
0.45589608 0.31781083 -0.16461241
0.47734243 0.31752771 -0.16706574
-0.37711212 0.34058592 -0.15750563
0.47734517 0.33941016 -0.16705108
-0.35457784 0.36183622 -0.1628865
0.38997659 0.36142302 -0.16604412
0.47734785 0.36129308 -0.16703641
-0.33324891 0.38455763 -0.15705037
0.34674838 0.38386056 -0.1620816
0.47734785 0.38317403 -0.16703653
0.28134802 0.40623218 -0.15898883
0.47734785 0.40505511 -0.16703653
0.19324611 0.42757499 -0.1628865
0.17268194 -0.42959297 -0.14536536
0.32785034 -0.38633093 -0.13899565
0.50218761 -0.38467333 -0.15166235
0.3717657 -0.36399972 -0.14089918
0.50218481 -0.36267218 -0.15167713
0.41420209 -0.34068301 -0.15158856
0.50218481 -0.34067285 -0.15167713
0.4382616 -0.31999382 -0.13942742
0.50218195 -0.31867206 -0.15169191
-0.42197484 -0.29682067 -0.1502161
0.50218195 -0.29667294 -0.15169179
-0.44473755 -0.27531159 -0.14478743
0.50218481 -0.27467519 -0.15167713
0.50447643 -0.25368419 -0.13976932
-0.46592024 -0.23074923 -0.15073287
-0.48813364 -0.18681902 -0.14938927
-0.51036316 -0.14284615 -0.14807379
-0.53375125 -0.0327731 -0.14003706
-0.53246778 -0.010684179 -0.14761543
-0.53255296 0.011350154 -0.14711237
-0.53383178 0.033500846 -0.13956118
-0.51063341 0.1435948 -0.14640188
-0.48838854 0.18758227 -0.14773369
-0.4661665 0.2315301 -0.14904928
0.50417894 0.25426391 -0.14131522
-0.44522896 0.27635053 -0.14124095
0.4825477 0.27658555 -0.13889146
0.50218481 0.27530608 -0.15167713
-0.42243719 0.29784343 -0.14668322
0.50218481 0.29730535 -0.15167713
-0.39973173 0.31925514 -0.15210474
0.50218481 0.31930462 -0.15167701
0.43785134 0.32043925 -0.14185011
0.41381136 0.34101698 -0.15400565
0.50218761 0.34130567 -0.15166235
0.37141171 0.36439687 -0.14331937
0.50219047 0.36330694 -0.15164757
0.50219047 0.38530645 -0.15164757
0.32735637 0.38653645 -0.14277041
0.26149079 0.40906283 -0.13963556
-0.26771513 0.42915326 -0.15263557
0.15091573 0.43089843 -0.14130032
0.17216085 0.42923048 -0.15213406
-0.24781607 -0.45517227 -0.12242818
0.12992562 -0.43277401 -0.12361681
0.15138413 -0.43117645 -0.1345396
-0.31406727 -0.41009042 -0.12699699
0.26190332 -0.40886953 -0.13580787
0.52729756 -0.36458811 -0.13612103
0.39573434 -0.34333226 -0.12864661
0.52729756 -0.34246916 -0.13612115
0.52729756 -0.32035011 -0.13612115
0.46115446 -0.29835209 -0.13491285
0.52729458 -0.29822966 -0.13613582
0.48283374 -0.27599919 -0.13734317
0.52729756 -0.2761122 -0.13612092
-0.46954343 -0.25485346 -0.12596118
0.52730054 -0.25399446 -0.13610601
0.52730352 -0.23187642 -0.13609111
-0.49195108 -0.2105538 -0.12459409
0.52974904 -0.21060377 -0.1238724
-0.51437515 -0.16621046 -0.12325573
-0.53633857 -0.077303566 -0.12475932
-0.53504395 -0.054979462 -0.13240349
-0.53511739 0.055768732 -0.13196993
-0.53640985 0.078154646 -0.12433863
-0.49220809 0.21152173 -0.1229248
0.52957159 0.21138044 -0.12475944
0.52730352 0.23262744 -0.13609123
-0.46979833 0.25584337 -0.12421834
0.52730054 0.25474513 -0.13610613
0.52729756 0.27686283 -0.13612115
0.46088248 0.2989465 -0.13644886
0.52729756 0.29898179 -0.13612092
0.52730054 0.3211025 -0.13610601
0.3953608 0.34384152 -0.13107252
0.52730352 0.34322351 -0.13609111
0.52730352 0.36534265 -0.13609123
0.30769956 0.38924882 -0.12319565
0.12950887 0.4325791 -0.13038409
0.10830344 -0.43438381 -0.11261058
0.24174887 -0.41159311 -0.11615252
0.30816898 -0.38889742 -0.11938429
-0.38254309 -0.36774719 -0.1104722
0.35288632 -0.36684662 -0.11778438
0.3769699 -0.34602606 -0.10531771
0.41990861 -0.32248744 -0.11628866
0.55268526 -0.32204506 -0.12039459
0.44326049 -0.30085421 -0.10991049
0.55268526 -0.2998049 -0.12039471
0.46514338 -0.27830493 -0.11238325
0.55268526 -0.27756488 -0.12039459
0.48698908 -0.25579423 -0.11485183
0.55268836 -0.25532609 -0.12037957
0.50880045 -0.23332287 -0.11730123
0.55269152 -0.23308708 -0.12036443
0.55269152 -0.21084686 -0.12036443
0.53228533 -0.18917081 -0.11120057
0.55269152 -0.18860656 -0.12036431
0.55269152 -0.16636626 -0.12036443
0.55445433 -0.14451773 -0.11188293
-0.53894335 -0.12230846 -0.10937893
-0.53763747 -0.09974619 -0.11708975
-0.53771424 0.10066076 -0.11663628
-0.53902823 0.12328815 -0.10887766
0.55426842 0.14540668 -0.11277747
-0.51464772 0.16716394 -0.12156975
0.55269152 0.16723809 -0.12036455
0.53210622 0.19005139 -0.11209524
0.55269152 0.1894784 -0.12036455
0.55269152 0.21171878 -0.12036431
0.50849533 0.23408414 -0.11888635
0.55269152 0.23395908 -0.12036431
0.48670125 0.25656468 -0.11640954
0.55268836 0.25619805 -0.12037945
0.46486717 0.27908221 -0.1139437
0.55268526 0.27843663 -0.12039471
0.44299829 0.30163977 -0.11145842
0.55268836 0.30067831 -0.12037945
0.41951308 0.32310829 -0.11873543
0.55268836 0.32291856 -0.12037945
0.37661153 0.34671199 -0.10776818
0.35254973 0.36742055 -0.12021363
-0.38295016 0.36915675 -0.10694647
-0.31474957 0.41199172 -0.11961043
0.24136209 0.41193217 -0.12001765
0.10793844 0.43427265 -0.11938429
0.086202562 0.4359791 -0.10830009
-0.24833471 0.45723844 -0.11494267
0.064562283 -0.43764728 -0.090298295
0.08651641 -0.43600819 -0.10150492
0.22131541 -0.41435197 -0.096241951
-0.36208269 -0.39231744 -0.093250155
0.28821507 -0.39149722 -0.09951818
0.3337023 -0.36974177 -0.094278693
-0.40554315 -0.34607178 -0.10492158
-0.42863348 -0.32431465 -0.099334836
0.40125963 -0.32502344 -0.092758536
-0.45181492 -0.30247533 -0.09371078
0.57835233 -0.30139607 -0.10449517
0.57835233 -0.27903375 -0.10449505
0.46919811 -0.25794247 -0.089482427
0.57835561 -0.25667241 -0.10447991
-0.49583295 -0.23470247 -0.099380612
0.49121284 -0.23527145 -0.091990232
0.57835889 -0.23431112 -0.10446453
0.51256436 -0.21241403 -0.097743392
0.57835889 -0.21194838 -0.10446441
-0.51845992 -0.18998452 -0.097988248
0.57836217 -0.18958659 -0.10444927
0.53484094 -0.16754805 -0.098432064
0.57836217 -0.16722377 -0.10444927
-0.54110324 -0.14522234 -0.09662509
0.57835889 -0.14486031 -0.10446465
0.55711013 -0.12270397 -0.099105239
0.57835889 -0.12249766 -0.10446453
0.55871999 -0.10053848 -0.091359854
0.57835889 -0.10013495 -0.10446453
0.57835889 -0.077772252 -0.10446441
0.57835889 -0.055409491 -0.10446465
-0.56466556 -0.033156753 -0.090190649
0.57835889 -0.033046886 -0.10446465
-0.56327683 -0.010684229 -0.098034143
0.57898694 -0.01068413 -0.10155082
-0.56336629 0.011731886 -0.097528815
0.57892448 0.01169869 -0.10184073
-0.56475008 0.034268297 -0.089713335
0.57835889 0.034041185 -0.10446453
0.57835889 0.056403887 -0.10446453
0.57835889 0.07876654 -0.10446441
0.55865926 0.10162243 -0.091651797
0.57835889 0.1011294 -0.10446465
0.55692255 0.12369786 -0.10000753
0.57835889 0.12349196 -0.10446465
-0.54139149 0.14636883 -0.094923019
0.57835889 0.14585465 -0.10446465
0.53466332 0.16853411 -0.099319458
0.57836217 0.16821828 -0.10444939
-0.51872981 0.19114451 -0.096318603
0.57836217 0.19058105 -0.10444927
0.51239347 0.21339189 -0.098630905
0.57835889 0.21294259 -0.10446453
-0.4960992 0.23588236 -0.097651362
0.49091762 0.23622632 -0.093587995
0.57835561 0.23530421 -0.10447979
0.46891743 0.25890565 -0.091067672
0.57835561 0.25766662 -0.10447991
0.57835233 0.28002769 -0.10449493
0.57835561 0.30239189 -0.10448003
-0.45231551 0.30394173 -0.090098262
-0.42910442 0.32576409 -0.095736027
0.40087911 0.32582253 -0.095230103
-0.40598282 0.34750226 -0.10135221
0.33338121 0.37049335 -0.096732378
0.28777245 0.39199844 -0.10335159
0.2209563 0.41484106 -0.10012972
0.064299308 0.43769869 -0.097130537
-0.13810521 -0.50738257 -0.076599121
-0.29513162 -0.43789953 -0.088573694
0.20059879 -0.41714916 -0.076055408
0.26798496 -0.39413294 -0.079377294
0.35789692 -0.34876198 -0.081623793
0.42505243 -0.3034001 -0.084469557
-0.47508615 -0.28055137 -0.088065147
0.4471429 -0.28065103 -0.086985826
-0.49978566 -0.25927827 -0.073706985
0.60430694 -0.25803372 -0.088404298
0.60430694 -0.23554745 -0.088404298
-0.52261424 -0.21417746 -0.072289944
0.60431039 -0.21306215 -0.088388801
0.51504755 -0.19079432 -0.084840178
0.60431385 -0.1905766 -0.088373423
0.60431385 -0.16809006 -0.088373303
0.63055432 -0.16896595 -0.072118521
0.53742218 -0.14573464 -0.085535169
0.60431385 -0.14560357 -0.088373303
0.63055432 -0.1463543 -0.072118521
0.54002649 -0.12372711 -0.072523594
0.60431385 -0.12311703 -0.088373303
0.63055432 -0.1237427 -0.072118521
0.60431039 -0.1006299 -0.088388801
0.63055432 -0.1011309 -0.072118521
-0.5674656 -0.07846716 -0.074375987
0.55958742 -0.078171246 -0.087186456
0.60431039 -0.078143559 -0.088388801
0.63055068 -0.078518845 -0.072134018
-0.56606454 -0.055750947 -0.082289219
0.56045741 -0.055740077 -0.083000779
0.60431039 -0.055657111 -0.088388801
0.63055068 -0.055907339 -0.072134018
0.56132978 -0.03324439 -0.07880342
0.60431039 -0.03317067 -0.088388801
0.63054711 -0.033295635 -0.072149634
0.56220472 -0.010684179 -0.074593782
0.60431039 -0.010684179 -0.088388801
0.63054711 -0.010684229 -0.072149634
0.56214333 0.01190618 -0.074889421
0.60431039 0.011802263 -0.088388801
0.63054711 0.011927328 -0.072149634
0.56126857 0.034431722 -0.079097986
0.60431039 0.034288757 -0.088388801
0.63054711 0.034538787 -0.072149634
-0.56614125 0.056925986 -0.081855774
0.56039631 0.056892786 -0.08329463
0.60431039 0.056775194 -0.088388801
0.63055068 0.057150442 -0.072134018
-0.56754273 0.07970652 -0.073940396
0.55952656 0.079289623 -0.087479353
0.60431039 0.079261683 -0.088388801
0.63055068 0.079762138 -0.072134018
0.60431039 0.10174803 -0.088388801
0.63055432 0.10237423 -0.072118521
0.53984565 0.12492554 -0.073426843
0.60431385 0.12423521 -0.088373542
0.63055432 0.12498604 -0.072118521
0.53724301 0.14682655 -0.08643043
0.60431385 0.14672175 -0.088373423
0.63055432 0.1475976 -0.072118521
0.51737893 0.17017196 -0.072726011
0.60431385 0.16920826 -0.088373423
0.63055432 0.17020929 -0.072118521
0.51487517 0.19187765 -0.085736036
0.60431039 0.19169389 -0.088388801
0.60431039 0.21418025 -0.088388801
0.60430694 0.2366654 -0.088404179
0.60430694 0.25915164 -0.088404059
-0.4756166 0.28203478 -0.084438443
0.44687659 0.28162271 -0.088558197
0.42480031 0.30438036 -0.086029291
0.35755399 0.34962732 -0.084098697
0.31389853 0.3736167 -0.072866082
-0.36289585 0.39444372 -0.085705161
0.26756942 0.39478621 -0.08323288
0.20026764 0.41779017 -0.079966426
-0.29576996 0.44017667 -0.081035256
0.2474744 -0.39680758 -0.058939695
0.31420186 -0.37268245 -0.070403457
0.33851019 -0.35154295 -0.057539701
0.38230252 -0.3275992 -0.068858266
0.40652207 -0.30599123 -0.058578134
0.42882398 -0.28303865 -0.061139226
0.45108986 -0.26012728 -0.063680172
0.47331464 -0.2372542 -0.066232443
0.49506557 -0.21425737 -0.071136594
0.49749327 -0.19244744 -0.057996035
-0.54545957 -0.16903156 -0.070902586
0.51755279 -0.16898204 -0.071822405
0.52008051 -0.14697471 -0.058688045
-0.57028776 -0.12426926 -0.058436513
-0.56887424 -0.10130642 -0.066420078
0.54168981 -0.10137434 -0.064212799
0.54254079 -0.078800008 -0.059961319
0.54339421 -0.056160368 -0.055697441
0.65708464 -0.033422273 -0.055697322
0.65708095 -0.01068413 -0.055713296
0.65708095 0.012053867 -0.055713296
0.65708464 0.034791965 -0.055697322
0.54333425 0.057523225 -0.055996776
0.54248101 0.080127738 -0.060259819
-0.56895733 0.10261162 -0.065950751
0.54163027 0.1026671 -0.064510345
-0.57037687 0.12564111 -0.057933211
0.51990503 0.14827229 -0.059599876
-0.54574764 0.17038904 -0.069201708
0.49732763 0.19373737 -0.058892608
-0.5228889 0.21555033 -0.070590615
0.49489856 0.21543875 -0.072040439
0.47302949 0.23840651 -0.067842841
-0.50005901 0.26067331 -0.071931362
0.45081928 0.26128802 -0.065277815
0.42856783 0.28420803 -0.062723637
0.4062801 0.30716935 -0.060149789
0.38193968 0.32858115 -0.07133913
0.33818504 0.35259247 -0.060024142
0.24708471 0.39761287 -0.062833548
0.17929021 0.42078045 -0.059521317
-0.20785451 -0.49085844 -0.039155364
-0.34356844 -0.42021465 -0.053931594
0.17959306 -0.41998526 -0.055587053
-0.41201597 -0.37490383 -0.052368999
0.29437938 -0.37567168 -0.046133876
-0.43553549 -0.35280696 -0.046593666
-0.45914927 -0.33062533 -0.04077971
0.36303443 -0.3302193 -0.044547081
-0.52683997 -0.23880012 -0.046149731
0.45509756 -0.23927236 -0.040015578
0.47724682 -0.21613599 -0.044023156
-0.54989612 -0.19326581 -0.044705868
0.49994284 -0.17044145 -0.044737577
-0.57296908 -0.14768569 -0.043292403
0.52263093 -0.12476962 -0.045435905
0.54425007 -0.033455223 -0.051421285
-0.59517223 -0.01068413 -0.046704531
0.54510838 -0.01068413 -0.047132611
-0.59526896 0.012127145 -0.04618144
0.54504818 0.012117554 -0.047433615
0.54418999 0.034853194 -0.051721454
0.52245384 0.12617598 -0.046355844
-0.57327312 0.14924344 -0.041575432
0.49977571 0.17183995 -0.045642018
-0.55018395 0.19483806 -0.04300642
0.4770838 0.21752462 -0.044943929
-0.52712727 0.24039382 -0.044372559
0.45482266 0.24062535 -0.04163909
0.36268714 0.33138546 -0.047053337
-0.43601328 0.35469633 -0.042942643
-0.41246 0.37677094 -0.048764229
0.29409212 0.3767896 -0.048621416
0.22631243 0.40047896 -0.042147875
-0.34432817 0.42270839 -0.046339869
0.15787779 0.42351696 -0.040811539
0.15829323 -0.42286357 -0.034815192
0.22667426 -0.39951757 -0.038231134
0.31880382 -0.35437185 -0.033040404
-0.48285827 -0.30835807 -0.03492713
0.38766071 -0.30862853 -0.032224059
-0.50666338 -0.28600422 -0.029035211
0.41017815 -0.28546894 -0.034831285
0.43265873 -0.26235116 -0.03741765
0.47961664 -0.19413216 -0.030638695
0.50241446 -0.1482369 -0.031359553
0.52433985 -0.10222598 -0.036556125
0.52517349 -0.079440527 -0.032224178
-0.59818488 -0.056549873 -0.030398011
0.52600962 -0.056588627 -0.027879715
-0.59667593 -0.033554174 -0.038565636
0.52684814 -0.033669993 -0.023522496
-0.59676433 0.035063241 -0.038087606
0.52678925 0.03528263 -0.023828387
-0.59826785 0.05812474 -0.029949307
0.52595091 0.058165509 -0.028184772
0.52511501 0.080981605 -0.032528281
0.5242815 0.1037314 -0.036859274
0.50224584 0.14974488 -0.03227222
0.47945213 0.1956306 -0.031567812
0.43239844 0.26371288 -0.039027929
-0.50723213 0.28794906 -0.025340915
0.40993226 0.28683934 -0.036428332
-0.4833988 0.31028587 -0.031231284
0.38740566 0.30999103 -0.033967972
-0.45965937 0.33253509 -0.037098646
0.31849468 0.35560706 -0.035550117
0.27388832 0.37993297 -0.024600744
0.13574246 0.42522061 -0.029163599
-0.32455114 -0.44887903 -0.013505936
0.11381519 -0.4262569 -0.010325432
0.13617614 -0.42462245 -0.022120953
-0.39316985 -0.40210736 -0.018441796
0.20558006 -0.40226606 -0.017229438
0.27422681 -0.37871072 -0.021460056
0.29876572 -0.35724628 -0.0081471205
0.34344289 -0.33288127 -0.019846797
0.36830142 -0.31119931 -0.0065356493
0.3911989 -0.28794435 -0.0080333948
-0.53114426 -0.26386639 -0.019523978
0.41389605 -0.264615 -0.010682702
0.43655309 -0.24132679 -0.013327718
-0.55440974 -0.21793504 -0.018054008
0.45909351 -0.2180483 -0.016420841
-0.57769239 -0.17195688 -0.016615152
0.48200792 -0.17192899 -0.017132521
0.5049085 -0.12583096 -0.017860174
-0.60122496 -0.10292232 -0.013943434
0.50666088 -0.10309366 -0.0083748102
-0.59970224 -0.079672359 -0.022185445
0.52768916 -0.010684179 -0.019152641
0.52763009 0.012332815 -0.019459248
-0.59978563 0.081314057 -0.021734118
-0.60131174 0.10463154 -0.013473511
0.50660688 0.10481646 -0.0086677074
0.50473839 0.1274496 -0.018780947
-0.57799906 0.17373416 -0.014883161
0.48184478 0.17353892 -0.018053889
-0.5547055 0.21972916 -0.016307712
0.4588936 0.21962936 -0.017601371
0.43628857 0.24288413 -0.014964104
-0.53143942 0.26568317 -0.017698407
0.4136461 0.26618141 -0.012305737
0.39096114 0.28951821 -0.0096591711
0.36794969 0.3126739 -0.0090740919
0.34311154 0.33423463 -0.022378802
0.29847479 0.35867184 -0.01066649
-0.39406389 0.4048368 -0.010699034
0.20524642 0.40338585 -0.021169782
0.11343357 0.42694017 -0.017407417
-0.27939647 -0.47388425 -0.00089037418
0.091276944 -0.42790431 0.001563549
0.1841868 -0.40505573 0.0040873289
0.25343093 -0.38142559 0.00058150291
0.32352427 -0.33558977 0.0052849054
-0.55900252 -0.24305059 0.009065032
0.46140271 -0.1958475 -0.0027853251
0.48442101 -0.14952354 -0.0035034418
-0.6027531 -0.1263001 -0.0056723356
0.48685616 -0.12691307 0.010250092
0.50747651 -0.080093242 -0.0039604902
0.50829446 -0.057025146 0.000467062
0.50911486 -0.033888891 0.0049074888
-0.62821567 -0.010684229 0.006483674
0.50993764 -0.010684229 0.0093612671
-0.62831372 0.012536568 0.0069929361
0.50987989 0.012552303 0.0090484619
0.50905728 0.035720281 0.0045958757
0.50823706 0.058820043 0.00015604496
0.50741923 0.081851691 -0.0042704344
-0.60284942 0.12807915 -0.0051509142
0.48668998 0.12874702 0.009311676
0.48425639 0.15124486 -0.0044335127
0.46357417 0.17526868 0.010035992
0.46124518 0.19756021 -0.0037158728
0.44024488 0.22171646 0.009509325
0.32320914 0.3371335 0.0027265549
0.25303683 0.38271311 -0.0033568144
0.1838804 0.40633407 0.00010716915
0.068286158 0.43042964 0.0064507723
0.090949506 0.42867789 -0.0055257082
-0.32526574 0.45176461 -0.0057700872
-0.21023065 0.49982345 0.0049403906
-0.37460589 -0.43086779 0.022950768
0.045659594 -0.43123627 0.025610089
0.068558671 -0.42956248 0.01353085
0.16248539 -0.4078832 0.025693297
-0.44397908 -0.38356206 0.01792717
0.23225084 -0.3840805 0.022137165
-0.46675941 -0.35982001 0.014141679
0.27839139 -0.36017114 0.017182589
-0.49091831 -0.33719501 0.020179868
-0.51517904 -0.3144829 0.026275754
0.34850323 -0.31373695 0.018821239
0.37187237 -0.29046339 0.019235373
0.39479268 -0.26692003 0.016537428
0.41767222 -0.2434185 0.013844252
0.44051373 -0.21995993 0.011172533
-0.58250439 -0.19666953 0.010563135
0.44284502 -0.19759525 0.0255934
0.46373314 -0.17344353 0.010974765
-0.60602355 -0.15024099 0.012029767
0.46608496 -0.15083365 0.024861813
0.48864365 -0.10397806 0.020345569
0.48944026 -0.080758497 0.024845004
-0.63146472 -0.057377569 0.023365974
-0.62983567 -0.033965711 0.01490128
-0.62992787 0.035886314 0.015380502
-0.63155419 0.059366774 0.023831129
0.48938727 0.08273904 0.024545789
0.48859078 0.10592172 0.020047307
-0.60634667 0.15222634 0.013778448
0.4659273 0.15277332 0.023930907
-0.58281082 0.19866931 0.012293577
0.44269449 0.19952618 0.024662137
-0.55930924 0.24507231 0.01087606
0.41741824 0.24518389 0.012194633
0.39455336 0.2686947 0.01490128
0.37164521 0.29224592 0.017596364
0.34816757 0.31540373 0.016256452
-0.49146935 0.33958396 0.023947358
-0.46727476 0.36218545 0.017860889
0.27811527 0.36178637 0.014620423
-0.44501719 0.38653645 0.025859714
0.23188487 0.38553101 0.018175483
0.16220796 0.40932465 0.021689057
0.045440868 0.43219298 0.018506646
0.022577174 -0.43292579 0.037803173
0.25766858 -0.36314377 0.04292655
0.30326596 -0.33834237 0.030826092
-0.53954029 -0.29168069 0.032412887
-0.56399739 -0.26878458 0.038558006
0.39844581 -0.24554843 0.041513681
-0.58740163 -0.22183406 0.038222313
0.42151332 -0.22187357 0.038792968
-0.6111418 -0.17499329 0.039732933
0.44511175 -0.1749869 0.039615393
0.46845847 -0.1280148 0.038876772
-0.63474703 -0.10459626 0.040421486
-0.63310605 -0.080921285 0.031894922
0.49023926 -0.05746993 0.02935791
0.49104065 -0.034111876 0.033884048
0.49184442 -0.010684179 0.038423777
0.49179095 0.012776122 0.038121939
0.49098736 0.03616659 0.033583045
0.4901861 0.059487466 0.029057741
-0.6331929 0.082979381 0.032345891
-0.63484079 0.10672463 0.040908694
0.46829939 0.13006917 0.037937284
-0.61146462 0.17720518 0.041480064
0.44495979 0.17703247 0.038675547
-0.58771962 0.22406499 0.040018439
0.42125511 0.22384167 0.037115812
0.39820251 0.24752572 0.039850593
-0.56464034 0.2712307 0.042354584
0.37511081 0.27125391 0.042607069
-0.54015154 0.29410714 0.036194205
-0.51576138 0.31689128 0.030058265
0.32804862 0.31818011 0.042018294
0.30296937 0.34008163 0.028257489
0.25741115 0.3649559 0.040354252
0.21042913 0.3883917 0.040035129
-0.37544745 0.43398508 0.030759454
0.022412576 0.43397281 0.030676007
0.14047055 -0.41075152 0.047611594
0.21076518 -0.38677371 0.044003725
0.28266144 -0.34114206 0.056803703
0.3283658 -0.31631601 0.044593215
0.35219139 -0.29302856 0.047003984
0.37533942 -0.26926711 0.044256568
0.42393622 -0.19937718 0.054530144
0.44739956 -0.15216874 0.053767323
-0.63640046 -0.12840499 0.049013019
0.47027814 -0.10487958 0.049621344
0.47105497 -0.081436686 0.05420804
0.47183406 -0.057923317 0.058808565
0.47178227 0.060167525 0.058502674
0.47100323 0.083643064 0.053902984
0.47022659 0.10704838 0.049317122
-0.63650125 0.13060492 0.049536705
0.44724622 0.15433002 0.052818775
0.4237901 0.20152986 0.053580999
0.35197514 0.29502356 0.045351624
0.28238353 0.3430801 0.054225087
0.14022246 0.41235834 0.043583035
-0.28280836 0.48284107 0.04343152
-0.35552266 -0.46043786 0.065522075
-0.42589599 -0.412415 0.060322642
0.11813542 -0.4136616 0.069848537
0.18896864 -0.38950834 0.066205382
0.23659021 -0.36616752 0.06911242
0.3078846 -0.31894106 0.070824862
0.33214623 -0.29564112 0.075286388
0.35552639 -0.27165776 0.07248795
-0.59238935 -0.24746369 0.066393137
0.37886417 -0.24771781 0.069694519
0.40216219 -0.22382246 0.066923022
-0.6163516 -0.20020261 0.067931771
0.42613652 -0.1765607 0.06882143
-0.64033449 -0.1528933 0.069454551
0.4497087 -0.12913777 0.068051457
0.6871019 -0.058096875 0.070088267
-0.6642108 -0.034392446 0.070328116
0.4726156 -0.034339283 0.063423038
-0.66246378 -0.010684179 0.061599493
0.4733994 -0.010684179 0.068051457
0.71131498 -0.01068413 0.072144866
-0.66256952 0.012961038 0.06212759
0.47334725 0.013004267 0.06774354
0.71093071 0.013026006 0.070585012
-0.66431022 0.036739927 0.070824862
0.47256356 0.036621206 0.063116193
0.71208465 0.036808483 0.075269341
0.68592262 0.060320962 0.065146446
0.44955662 0.13141665 0.067111015
-0.64067733 0.15532251 0.071236134
0.42598903 0.17882998 0.067863464
-0.61668038 0.20264733 0.069711566
0.40191486 0.22600597 0.0652318
-0.59271634 0.24992979 0.06823957
0.3786318 0.2499108 0.068017244
0.35530877 0.27386069 0.070824862
0.33194101 0.29785243 0.073620558
0.30758411 0.32100424 0.068222404
0.23635164 0.36817998 0.066529989
0.18866 0.39129183 0.062195778
-0.42687321 0.41577721 0.068256855
0.11791703 0.41543609 0.065795302
0.095473826 -0.41661653 0.092428684
0.16685162 -0.3922807 0.0887146
-0.49928766 -0.36712465 0.077401757
-0.52401936 -0.34404027 0.083695531
0.26170355 -0.34399179 0.08324635
-0.54885781 -0.32086506 0.090049982
0.40466091 -0.2011925 0.084006548
0.42835736 -0.15353033 0.083246469
0.45155707 -0.10579915 0.079485416
-0.6677382 -0.082215942 0.087952256
