ply
format ascii 1.0
comment PCL generated
element vertex 1350
property float x
property float y
property float z
element camera 0
property float view_px
property float view_py
property float view_pz
property float x_axisx
property float x_axisy
property float x_axisz
property float y_axisx
property float y_axisy
property float y_axisz
property float z_axisx
property float z_axisy
property float z_axisz
property float focal
property float scalex
property float scaley
property float centerx
property float centery
property int viewportx
property int viewporty
property float k1
property float k2
end_header
0.31631321 -0.37835586 -0.044275403
-0.23893848 -0.351439 -0.048030496
-0.21166681 -0.34993458 -0.060245275
0.28911781 -0.35071582 -0.053902507
0.31637254 -0.35198784 -0.043574691
-0.44860938 -0.32356995 -0.060533047
-0.31853411 -0.32538211 -0.044839263
-0.23902118 -0.32513773 -0.046955943
-0.21174423 -0.32373214 -0.059127688
0.28919894 -0.32445723 -0.052848577
0.31646088 -0.32564849 -0.042531848
-0.39796188 -0.29900026 -0.044207096
-0.37056026 -0.29811662 -0.05240643
-0.34393045 -0.2978785 -0.054615855
-0.31854096 -0.29893953 -0.044770837
-0.23911315 -0.29883277 -0.045761347
-0.21182525 -0.29751819 -0.057958364
0.28928664 -0.29819185 -0.051709056
0.31655794 -0.29930431 -0.041385412
-0.23920387 -0.27250785 -0.044582963
-0.2119063 -0.27128631 -0.056788445
0.2622571 -0.27088106 -0.060837626
0.28937444 -0.27190876 -0.050568938
-0.23930648 -0.24617894 -0.043249965
-0.21199918 -0.2450522 -0.055447817
0.2623474 -0.2446747 -0.059534311
0.28947407 -0.24562253 -0.049274445
-0.2394329 -0.2198558 -0.041607738
-0.21211331 -0.21882345 -0.053800225
0.26245776 -0.21847276 -0.057941437
0.28959608 -0.21934085 -0.047689438
-0.21222639 -0.19256796 -0.052168489
0.26256701 -0.19224508 -0.056364298
0.28971955 -0.19303627 -0.046085835
-0.21233955 -0.16628765 -0.050534725
0.26267755 -0.16599424 -0.054768682
0.28984311 -0.16670719 -0.044480562
-0.21247999 -0.14000633 -0.04850769
-0.18532498 -0.13927317 -0.060414433
0.2628153 -0.13974309 -0.052780628
0.28999576 -0.14037645 -0.042497516
-0.21262534 -0.11369754 -0.046410084
-0.18544181 -0.11304516 -0.058517814
0.23592195 -0.11291289 -0.060973048
0.26295674 -0.11346431 -0.050739169
-0.21276966 -0.087355971 -0.044326663
-0.18556708 -0.086794496 -0.05648303
-0.15896755 -0.086589471 -0.060922265
0.2360481 -0.086681753 -0.058924317
0.26309955 -0.087154984 -0.048678279
-0.21292841 -0.060990244 -0.04203546
-0.1857072 -0.060521618 -0.054208279
-0.15907885 -0.060342818 -0.058856487
0.23618488 -0.060425609 -0.056703568
0.26325428 -0.060820505 -0.046444058
-0.1858653 -0.034222856 -0.051641107
-0.15920493 -0.034072824 -0.056517124
-0.13264605 -0.033940166 -0.060820699
0.23633854 -0.034143969 -0.054208159
0.26342705 -0.034459807 -0.043950796
-0.18602362 -0.0078846216 -0.04907012
-0.15933026 -0.0077663958 -0.054191232
-0.13275401 -0.0076671913 -0.05848372
0.23649246 -0.0078235418 -0.051709056
0.26360124 -0.0080609843 -0.041436672
-0.18618324 0.018492956 -0.046478271
-0.15945576 0.018575765 -0.05186224
-0.13286051 0.018642128 -0.056177616
-0.10633278 0.01870824 -0.060465336
0.20967826 0.018692523 -0.059449434
0.23664659 0.018534884 -0.049206495
-0.18636733 0.044907242 -0.043489337
-0.15960255 0.044950645 -0.049138188
-0.13298602 0.044983916 -0.053460479
-0.10643712 0.045017127 -0.057755113
0.18332745 0.045032352 -0.059737325
0.20983627 0.04500749 -0.056516886
0.23682718 0.04492873 -0.04627347
-0.15975048 0.071367636 -0.046392918
-0.13311251 0.071367577 -0.050722003
-0.10654224 0.07136751 -0.055023313
-0.080038555 0.071367577 -0.059313893
0.15699412 0.071367577 -0.059686542
0.18345347 0.071367577 -0.057008982
0.20999548 0.071367577 -0.053562522
0.23701024 0.071367577 -0.043301105
-0.15989865 0.097826734 -0.043643117
-0.13323998 0.097793587 -0.047962308
-0.10664821 0.097760439 -0.052270532
-0.080123104 0.09772741 -0.056568027
-0.053664409 0.097694263 -0.060854435
0.13065998 0.097703718 -0.059635758
0.15709913 0.097724281 -0.056958199
0.18358047 0.097745031 -0.054259062
0.21015497 0.097773083 -0.050602913
-0.13337712 0.12426521 -0.044993162
-0.10676222 0.12419873 -0.049308658
-0.080214083 0.12413256 -0.053613544
-0.053732477 0.12406638 -0.057907581
0.10432977 0.12404367 -0.059381723
0.13075027 0.12408498 -0.056703687
0.15721217 0.12412617 -0.054021239
0.18371555 0.12416761 -0.051334858
0.21032666 0.12422795 -0.047416568
-0.13352479 0.15078779 -0.041796088
-0.10688494 0.15068796 -0.046119809
-0.080312021 0.15058839 -0.050432682
-0.053805746 0.15048902 -0.054734826
-0.027365612 0.15038963 -0.059042931
0.07799878 0.15039232 -0.058924317
0.1044022 0.15045409 -0.056245565
0.13084699 0.15051615 -0.053562641
0.15733391 0.15057853 -0.050858259
0.18386187 0.1506407 -0.048166752
0.21051066 0.15073684 -0.044002056
-0.10700792 0.17722645 -0.042925119
-0.080410153 0.17709348 -0.047245979
-0.053879157 0.17696071 -0.051555991
-0.027414432 0.17682786 -0.055872083
-0.0010163691 0.17669576 -0.060160756
0.02531567 0.17666548 -0.061142325
0.051660877 0.17674848 -0.058449864
0.078047335 0.17683086 -0.055770397
0.10447515 0.17691362 -0.053086638
0.1309444 0.17699642 -0.050398707
0.15745522 0.17707923 -0.047706485
0.18400767 0.17716223 -0.045009971
-0.080508985 0.2036484 -0.04403615
-0.053952701 0.2034815 -0.048371315
-0.027463598 0.20331581 -0.052678585
-0.0010407586 0.20314977 -0.056992054
0.02531567 0.20311128 -0.05799222
0.051685162 0.20321502 -0.055294871
0.078095987 0.20331845 -0.052610636
0.10454824 0.20342201 -0.04992187
0.13104202 0.20352545 -0.047228813
0.15757741 0.20362937 -0.044531703
0.18415533 0.20373392 -0.041813135
-0.05403664 0.23007222 -0.044736743
-0.027519157 0.22987209 -0.049069881
-0.0010685977 0.22967313 -0.053375602
0.02531567 0.22962525 -0.054412007
0.051712636 0.22974938 -0.051726103
0.078151017 0.22987375 -0.049036026
0.10463092 0.22999805 -0.046341658
0.13115296 0.23012353 -0.04362607
0.15771632 0.23024845 -0.040923238
-0.054120362 0.25671828 -0.041111588
-0.027574828 0.25648439 -0.045454144
-0.0010963678 0.25625193 -0.049768686
0.02531567 0.25619406 -0.050841331
0.05174017 0.25633904 -0.048149586
0.078206435 0.25648528 -0.045436859
0.10471417 0.25663072 -0.042736888
-0.027630882 0.28315383 -0.041813016
-0.001124192 0.28288656 -0.046153903
0.02531567 0.28281814 -0.047263026
0.051767755 0.28298438 -0.044565916
0.078261696 0.28315172 -0.041847587
-0.0011540502 0.30959511 -0.04227519
0.02531567 0.30951697 -0.043403864
-0.31853068 0.33586478 -0.044873357
-0.39661294 0.36144358 -0.055159211
-0.37028944 0.36147803 -0.054751635
-0.34495831 0.36229718 -0.045078278
-0.29407039 -0.54078895 -0.023337126
-0.26630825 -0.53839153 -0.036878109
0.34370947 -0.53888714 -0.034078598
0.3713865 -0.54091156 -0.022644997
-0.29379901 -0.51367599 -0.02627492
-0.26615721 -0.51157808 -0.038662076
0.3435238 -0.51201391 -0.036088586
0.37108892 -0.51378715 -0.025618672
-0.29382133 -0.48712224 -0.026033163
-0.26617754 -0.48511946 -0.038421988
0.34354603 -0.48553556 -0.035848141
0.37111312 -0.48722827 -0.025376678
-0.29384369 -0.46056467 -0.025791287
-0.2661964 -0.45865428 -0.038198948
0.34356821 -0.4590534 -0.035607815
0.37113559 -0.46066314 -0.025152206
-0.29387081 -0.4340111 -0.025497556
-0.26622549 -0.43220353 -0.037855864
0.34359837 -0.43257999 -0.035281301
0.37116671 -0.43410712 -0.02484107
-0.29393786 -0.40751266 -0.024772048
-0.26628503 -0.40579718 -0.037152648
0.34366342 -0.40615398 -0.03457725
0.37123767 -0.40760118 -0.02413249
-0.29400331 -0.38100088 -0.024063349
-0.26634461 -0.37938017 -0.036449075
0.34372693 -0.37971509 -0.033889532
0.37130687 -0.38108242 -0.023440838
-0.29406878 -0.35447842 -0.023354292
-0.26640421 -0.35295218 -0.035745025
0.34379205 -0.35326749 -0.033184767
0.37137783 -0.35455507 -0.022731781
-0.2941663 -0.32798493 -0.022299051
-0.26649436 -0.32655525 -0.034680128
0.34388581 -0.32684499 -0.0321697
0.37147829 -0.32805085 -0.0217278
-0.42666408 -0.30085093 -0.027034402
-0.29427502 -0.30148816 -0.02112186
-0.26659626 -0.30015671 -0.033477068
0.34399235 -0.30042189 -0.031016469
0.3715944 -0.301548 -0.020567656
-0.37374124 -0.27448165 -0.024858356
-0.34637916 -0.27377766 -0.031894326
-0.31967288 -0.2736209 -0.033459902
-0.26669678 -0.27373797 -0.032290101
0.31665507 -0.2729426 -0.040238261
0.34409893 -0.27398092 -0.029862642
-0.26680899 -0.24731384 -0.030964732
0.31676388 -0.24657588 -0.038953304
0.34421676 -0.24753354 -0.028586864
-0.26694757 -0.2208956 -0.029328346
0.31689894 -0.22021563 -0.037358522
0.34436658 -0.22109576 -0.026965261
-0.26708922 -0.19445498 -0.027655602
-0.23955944 -0.19350757 -0.039964199
0.31703556 -0.19383229 -0.035745144
0.34451652 -0.19463323 -0.025342226
-0.26722953 -0.16798754 -0.025998592
-0.23968607 -0.16713397 -0.038318872
0.31717083 -0.16742301 -0.034147501
0.34466499 -0.16814435 -0.023734927
-0.26740217 -0.14151806 -0.023959637
-0.23984322 -0.14075945 -0.036277652
0.31733975 -0.14101355 -0.032152534
0.34484878 -0.14165452 -0.021745205
-0.26758236 -0.11502203 -0.02183187
-0.24000588 -0.1143574 -0.034164667
0.29015386 -0.1140191 -0.040443897
0.31751469 -0.11457725 -0.030086517
-0.24016738 -0.08792229 -0.032066464
0.29031345 -0.087631106 -0.038370371
0.31769133 -0.088109955 -0.028000593
-0.24034369 -0.061462119 -0.029776216
0.29048517 -0.06121707 -0.036140084
0.31788135 -0.061616808 -0.025756836
-0.24054414 -0.034976251 -0.027172446
-0.21310753 -0.034598358 -0.039450169
0.29067957 -0.034777977 -0.033614516
0.31809649 -0.035098106 -0.023216128
-0.24074489 -0.0084504858 -0.024564624
-0.21328692 -0.0081665739 -0.036861062
0.29087427 -0.0082999691 -0.031085253
0.3183105 -0.0085401088 -0.020688772
-0.24094597 0.018115304 -0.021952868
-0.21346776 0.01830462 -0.034250498
0.26377568 0.018376503 -0.038918972
0.2910679 0.018217206 -0.028569818
-0.21367633 0.044812955 -0.031240463
0.26398009 0.044849358 -0.035968423
0.29129642 0.044769492 -0.025601268
-0.18655488 0.071367577 -0.040443778
0.26418725 0.071367636 -0.032978296
0.29152802 0.071367636 -0.02259326
-0.21388884 0.071367696 -0.028173089
-0.21410052 0.097969458 -0.025117636
-0.18674171 0.097874925 -0.037410021
0.2371936 0.097852394 -0.040323734
0.26439476 0.097932011 -0.029983044
-0.21432936 0.12462205 -0.021814346
-0.18694367 0.12443243 -0.034130335
-0.16005905 0.12433188 -0.040666461
0.237391 0.12438639 -0.037118316
0.26461819 0.12454599 -0.026758075
-0.18716303 0.15104714 -0.0305686
-0.16023268 0.15088846 -0.037444353
0.23760255 0.15097508 -0.0336833
0.26485762 0.15121491 -0.023302436
-0.18738174 0.17771631 -0.027017236
-0.16040571 0.17749402 -0.034233332
-0.13367349 0.17736039 -0.038576245
0.21069594 0.17729925 -0.040563703
0.23781556 0.17761761 -0.030224323
-0.18760304 0.20444177 -0.023423433
-0.16057998 0.20415018 -0.030999303
-0.1338225 0.20398279 -0.035350204
-0.10713176 0.20381507 -0.039707184
0.21088253 0.20391537 -0.03710115
0.23803009 0.20431408 -0.026740789
-0.16077784 0.23087631 -0.027327657
-0.13399087 0.23067416 -0.031705022
-0.10727237 0.23047325 -0.036054254
-0.080620654 0.23027214 -0.040409446
0.18432148 0.23037337 -0.038216114
0.21109264 0.23060493 -0.033201933
0.2382717 0.23108472 -0.022818208
-0.16097516 0.25765842 -0.023665547
-0.13415956 0.25742209 -0.028052449
-0.10741261 0.25718719 -0.032410622
-0.080732562 0.25695205 -0.036775231
0.1312636 0.25677651 -0.040032625
0.15785484 0.25692242 -0.03732419
0.18448797 0.25706869 -0.034611583
0.21130322 0.25735524 -0.029293776
-0.13432944 0.28422779 -0.024374485
-0.10755315 0.28395775 -0.02875936
-0.080845237 0.28368938 -0.033115983
-0.054204263 0.28342074 -0.037478685
0.10479719 0.2833184 -0.039141655
0.13137448 0.28348523 -0.036431909
0.15799364 0.28365242 -0.033717752
0.1846548 0.28381979 -0.030999303
0.21151337 0.28416485 -0.025393963
-0.13451248 0.3111099 -0.020411849
-0.10770528 0.31080535 -0.024806619
-0.080966115 0.31050164 -0.029190302
-0.054294683 0.31019866 -0.033563018
-0.027690751 0.30989659 -0.037924647
0.051797509 0.30970421 -0.040700555
0.07832104 0.30989176 -0.037993073
0.10488635 0.31007957 -0.03528142
0.13149406 0.31026897 -0.032548308
0.15814337 0.31045747 -0.029828072
0.18483475 0.31064624 -0.027103424
0.21174264 0.31105945 -0.021139145
-0.10786311 0.33772528 -0.020706296
-0.081092589 0.33738822 -0.025082946
-0.054389298 0.33705086 -0.029466152
-0.027753668 0.33671427 -0.033838034
-0.0011854284 0.33637863 -0.038198948
0.02531567 0.33628899 -0.039364696
0.051828653 0.33649743 -0.036655068
0.078383416 0.33670634 -0.033941031
0.10498007 0.33691561 -0.031223059
0.13161923 0.33712655 -0.02848351
0.15830006 0.33733642 -0.025756717
0.18502387 0.33754796 -0.023008466
-0.3200191 0.36357397 -0.03000021
-0.081218831 0.3643375 -0.020983219
-0.054483742 0.36396563 -0.025376678
-0.027816733 0.36359578 -0.029741764
-0.0012168828 0.3632257 -0.03411293
0.02531567 0.36312234 -0.035333037
0.051859871 0.36335367 -0.032599807
0.078445956 0.36358422 -0.029879689
0.10507401 0.36381471 -0.027155042
0.13174468 0.36404741 -0.024409056
0.15845713 0.36427885 -0.021675944
-0.054581597 0.39095664 -0.021139145
-0.027881278 0.39054924 -0.025549531
-0.0012490712 0.39014447 -0.029931188
0.02531567 0.39003003 -0.031171441
0.051891826 0.39028138 -0.028448939
0.078510225 0.39053512 -0.02570498
0.10517098 0.39078891 -0.022956491
-0.027951581 0.41760474 -0.020983219
-0.0012841336 0.41716504 -0.025376678
0.02531567 0.41703552 -0.026672006
0.05192665 0.41731024 -0.023925066
0.078579985 0.41758567 -0.021173596
-0.0013191551 0.44425517 -0.020827293
0.02531567 0.44411331 -0.022143126
-0.32209009 -0.54327345 -0.0093054771
0.39927214 -0.54298943 -0.010909081
-0.34968376 -0.51791728 -0.0012313128
-0.32164049 -0.51578897 -0.013798237
0.39882025 -0.51556814 -0.015102267
-0.34971023 -0.49117118 -0.00098621845
-0.32166487 -0.48913938 -0.013554931
0.39884648 -0.48892856 -0.014858842
-0.34973666 -0.46442139 -0.00074088573
-0.32168925 -0.46248615 -0.013311148
0.39887267 -0.46228516 -0.014615536
-0.3497631 -0.43766779 -0.00049543381
-0.32171708 -0.43583417 -0.013032913
0.39890265 -0.43564332 -0.01433742
-0.34984055 -0.41097599 0.00022315979
-0.32178846 -0.40923816 -0.012319446
0.39897764 -0.40905499 -0.013641715
-0.32185993 -0.3826313 -0.01160562
0.3990545 -0.38245809 -0.012928605
-0.32193136 -0.3560133 -0.010891676
0.39912951 -0.35584831 -0.012232423
0.39923838 -0.32926381 -0.01122272
0.39936417 -0.30268091 -0.010055304
-0.40208462 -0.27589518 -0.010734677
-0.29438704 -0.27497703 -0.019909143
0.37171057 -0.27502728 -0.019406557
0.39949006 -0.27608001 -0.0088869333
-0.3490524 -0.24951936 -0.0070898533
-0.32184771 -0.24909095 -0.011727691
-0.29450715 -0.24845521 -0.018608928
0.37183729 -0.24849854 -0.018140793
0.39962545 -0.24946927 -0.0076310635
-0.32257235 -0.22299917 -0.0044865608
-0.29466105 -0.22194435 -0.016943216
0.37200055 -0.22198103 -0.016509295
0.39980045 -0.22287033 -0.0060070753
-0.32274041 -0.19636787 -0.0028071404
-0.29481506 -0.195408 -0.015276074
0.37216222 -0.19543739 -0.014893532
0.39997751 -0.19624801 -0.0043640137
-0.32290861 -0.16971077 -0.0011262894
-0.2949692 -0.168846 -0.013607264
0.37232581 -0.16887012 -0.013259172
0.40016603 -0.16960765 -0.0026146173
-0.29515734 -0.14228097 -0.01157093
0.37252438 -0.14229931 -0.011274815
0.40042275 -0.14297931 -0.00023269653
-0.29535529 -0.11569044 -0.0094276667
0.3450408 -0.11513872 -0.019666553
0.37273365 -0.11570364 -0.0091834068
-0.29555351 -0.089066952 -0.0072818995
-0.26776132 -0.088492617 -0.019718528
0.34523466 -0.088591754 -0.017568111
0.37294492 -0.089076638 -0.0070722103
-0.2957665 -0.062416568 -0.0049760342
-0.26795515 -0.061937258 -0.017429233
0.34544158 -0.062018231 -0.01532805
0.37317044 -0.062422648 -0.0048187971
-0.29600891 -0.035740457 -0.0023521185
-0.26817724 -0.035357103 -0.014806747
0.3456777 -0.03541971 -0.012771964
0.37342608 -0.035743348 -0.0022644997
-0.26839966 -0.0087365508 -0.01218009
0.34591258 -0.0087816119 -0.010229588
-0.2686224 0.017924391 -0.009549737
0.31852627 0.018056739 -0.018140674
0.34614938 0.017895292 -0.0076657534
-0.26888242 0.04462241 -0.0064786673
-0.24118066 0.04471799 -0.018903852
0.31877768 0.044689201 -0.015171647
0.3464269 0.044608288 -0.0046614408
-0.26914591 0.071367636 -0.0033673048
-0.24141848 0.071367577 -0.015814543
0.31903392 0.071367636 -0.0121454
0.34670657 0.071367577 -0.0016342402
-0.26940835 0.098160684 -0.00026762486
-0.24165538 0.098064736 -0.012737155
0.29175994 0.09801206 -0.019579887
0.31929061 0.098092481 -0.0091136694
-0.24191147 0.12481296 -0.0094101429
0.29200971 0.1247064 -0.016335487
0.31956553 0.1248676 -0.0058672428
-0.24218825 0.15161866 -0.0058147907
-0.21457669 0.1513318 -0.018244743
0.29227731 0.1514561 -0.012858868
0.3198632 0.15169871 -0.0023521185
-0.24246559 0.17848015 -0.0022120476
-0.21482572 0.17809716 -0.014650345
0.26509872 0.17793787 -0.019822598
0.29254684 0.17826009 -0.0093579292
-0.21507649 0.2049188 -0.011030912
0.26534149 0.20471537 -0.016318202
0.29281822 0.20511892 -0.0058324337
-0.21535799 0.23181671 -0.0069674253
-0.18785149 0.23124298 -0.019389272
0.26561493 0.2315671 -0.012371659
0.29312387 0.23205249 -0.0018618107
-0.21564138 0.25877863 -0.0028772354
-0.1881016 0.25810766 -0.015328169
0.23851381 0.25791609 -0.018886447
0.26588899 0.25848022 -0.0084160566
-0.1883512 0.28503454 -0.011274934
-0.16117291 0.28449738 -0.019995689
0.23875648 0.28480846 -0.014945745
0.26616484 0.28545588 -0.0044342279
-0.18862292 0.31204849 -0.0068627596
-0.16138701 0.31141394 -0.01602304
0.23902118 0.31178629 -0.010647655
0.26646444 0.3125163 -0.00010967255
-0.29553741 0.33874518 -0.0074563026
-0.16161001 0.3384043 -0.011884212
-0.13470235 0.33806425 -0.016300797
0.21198185 0.3380335 -0.016700149
0.23929514 0.33884192 -0.0061990023
-0.18890393 0.33914202 -0.0022995472
-0.29553899 0.36548424 -0.0074390173
-0.16183357 0.36545926 -0.0077357292
-0.13489348 0.36508447 -0.012162685
-0.10802199 0.36471063 -0.016578555
0.18521267 0.36451209 -0.018921137
0.21222167 0.36507702 -0.012249827
0.23957087 0.36596853 -0.001721859
-0.16206425 0.39259034 -0.0034548044
-0.13509071 0.39218044 -0.0078928471
-0.10818593 0.39177144 -0.012319565
-0.081349649 0.3913635 -0.016734958
0.13187364 0.39104164 -0.020221114
0.15861925 0.39129609 -0.017463923
0.18540753 0.39155149 -0.01470232
0.21246867 0.39220124 -0.0076657534
-0.13530378 0.41937643 -0.003279686
-0.10836303 0.4189322 -0.0077180862
-0.081490427 0.41848743 -0.012162685
-0.054686926 0.41804546 -0.016578674
0.10527539 0.41785967 -0.018435478
0.1320136 0.41813588 -0.015675426
0.15879451 0.41841251 -0.012911201
0.18561733 0.41868788 -0.010159731
0.21273425 0.41943061 -0.0027372837
-0.10853994 0.44616336 -0.0031222105
-0.081632122 0.44568503 -0.0075610876
-0.054792926 0.44520777 -0.01198864
-0.028021799 0.44472998 -0.016422153
0.051961433 0.44440824 -0.019406557
0.078649662 0.44470555 -0.016648054
0.10538047 0.44500339 -0.013885379
0.13215341 0.44529963 -0.011135578
0.15896952 0.44559842 -0.0083639622
0.18582852 0.4458977 -0.0055875778
-0.081773654 0.47295249 -0.002964735
-0.054898798 0.47244006 -0.0074039698
-0.028092472 0.47192878 -0.01183188
-0.0013544019 0.47141874 -0.016248584
0.02531567 0.47126037 -0.017620087
0.05199644 0.47157919 -0.014858961
0.078719527 0.47189653 -0.012110472
0.10548542 0.47221649 -0.0093405247
0.1322941 0.47253674 -0.0065660477
0.15914501 0.47285557 -0.0038044453
0.18603943 0.47317708 -0.0010211468
-0.055015072 0.4997983 -0.0023696423
-0.028169515 0.4992491 -0.0068278313
-0.0013926905 0.49870157 -0.011274815
0.02531567 0.49852979 -0.012667537
0.052034494 0.49886876 -0.0099158287
0.078796022 0.49921042 -0.0071421862
0.10560035 0.49955243 -0.0043640137
0.13244759 0.49989527 -0.0015816689
-0.028247593 0.52665532 -0.0017565489
-0.0014316291 0.52607161 -0.0062167645
0.02531567 0.52588189 -0.0076657534
0.052073192 0.52624565 -0.0048886538
0.078873537 0.52660936 -0.0021070242
-0.0014708154 0.55352426 -0.0011262894
0.02531567 0.55331558 -0.0026321411
0.052112006 0.55370176 0.00015306473
0.42875612 -0.54724109 0.0131042
-0.35043287 -0.54593354 0.0057193041
-0.37800652 -0.5201717 0.012079954
0.42764971 -0.5187223 0.0035222769
-0.37804118 -0.49333191 0.012380123
0.42768419 -0.49194831 0.0038208961
-0.37807584 -0.46648777 0.012680292
0.42771667 -0.46516699 0.0041021109
-0.37810844 -0.43963623 0.012962699
0.42775115 -0.43838406 0.0044007301
-0.37820843 -0.41286123 0.013828397
0.42784858 -0.41167194 0.0052446127
-0.34991995 -0.38427573 0.00095975399
0.42794606 -0.38494682 0.0060887337
0.4280456 -0.35821092 0.0069508553
0.4281798 -0.33149654 0.0081130266
-0.45866609 -0.30506259 0.012044787
0.42834252 -0.30479074 0.0095225573
-0.43234253 -0.27860636 0.016357064
0.42850748 -0.27806526 0.010950565
-0.37706503 -0.25053692 0.0039263964
0.42867863 -0.25132275 0.012432933
-0.35068706 -0.22406317 0.0080777407
0.4289071 -0.22459938 0.014411449
-0.35086933 -0.197336 0.0097692013
0.4291358 -0.19784571 0.01639235
-0.35105181 -0.17058291 0.011462331
0.42936683 -0.1710631 0.01839304
-0.35127062 -0.14382461 0.013492942
-0.32311213 -0.14304957 0.00090706348
0.42964113 -0.14427273 0.020768642
-0.35150498 -0.11704282 0.015667081
-0.3233299 -0.1163646 0.0030833483
0.40069687 -0.1163231 0.0023108721
-0.35174149 -0.0902282 0.017861724
-0.3235462 -0.089645579 0.0052444935
0.40096948 -0.089626983 0.0048402548
-0.35198978 -0.063384324 0.020165443
-0.32377684 -0.062898815 0.0075494051
0.40126145 -0.062898815 0.0075494051
-0.32404134 -0.03612683 0.010192275
0.40159571 -0.036140949 0.010650873
-0.32430798 -0.0093148127 0.01285696
-0.29625326 -0.0090246424 0.00029337406
0.37368381 -0.0090250671 0.00031077862
0.40192863 -0.0093351305 0.013740063
-0.32457504 0.017538268 0.015525579
-0.29649803 0.017731942 0.0029428005
0.37394014 0.017733108 0.0028725863
0.40226215 0.017518133 0.016834736
-0.32488507 0.044429101 0.018623352
-0.29678378 0.044526033 0.006035924
0.37424088 0.044527199 0.0058777332
0.40265363 0.044414923 0.020466924
-0.29707327 0.071367636 0.0091700554
0.37454742 0.071367636 0.0089409351
-0.29736167 0.09825749 0.012291789
0.34698671 0.098173574 0.0013982058
0.37485275 0.098255098 0.011991858
-0.29767507 0.12519939 0.015684724
-0.26969358 0.12500578 0.003100872
0.34729004 0.12502997 0.0046820641
0.37518337 0.12519339 0.015295744
-0.29801038 0.15219906 0.019314528
-0.26999876 0.15190786 0.0067046881
0.3476167 0.15194291 0.008218646
0.37553945 0.15218845 0.018853664
-0.27030605 0.17886645 0.010333419
0.32015997 0.17858365 0.0011526346
0.34794247 0.17890993 0.011744738
-0.27061844 0.20588319 0.014022827
-0.24274758 0.20539922 0.0014507771
0.32046181 0.20552488 0.0047172308
0.34827372 0.20593353 0.015330791
-0.27096903 0.23297741 0.018162727
-0.24306396 0.23239546 0.0055611134
0.32080007 0.23254089 0.0087119341
0.34864664 0.23303302 0.019367695
-0.24337977 0.25945449 0.0096635818
0.29343024 0.25904781 0.002117753
0.32114062 0.2596198 0.012733459
-0.24369767 0.28657824 0.01379323
-0.21592423 0.28580308 0.0012052059
0.29373863 0.28610593 0.0061240196
0.32148191 0.28676122 0.016764045
-0.24404359 0.31379098 0.018286705
-0.21623453 0.31291777 0.0056843758
0.29407492 0.31325096 0.010492086
-0.21655297 0.3401106 0.010280371
0.26677573 0.33965659 0.0043832064
0.29442289 0.3404749 0.015012622
-0.21687226 0.36737525 0.014889002
-0.18918681 0.36630839 0.0022932291
0.26708663 0.36686546 0.0088703632
0.29477042 0.36776781 0.019527197
-0.21720588 0.39472985 0.019704461
-0.18947904 0.39355975 0.0070389509
0.23985597 0.39317799 0.0029076338
0.26740932 0.39415914 0.013528109
-0.18979494 0.42092222 0.012168407
-0.16231348 0.4198218 0.0011700392
0.24016136 0.42049176 0.0078663826
0.26775619 0.42155951 0.018534899
-0.19011067 0.4483636 0.017295122
-0.16256334 0.44712549 0.0058073997
-0.1355174 0.44664484 0.0013456345
0.2130006 0.44673747 0.0022056103
0.24046759 0.44788337 0.012839198
-0.16281389 0.47450221 0.01045692
-0.1357308 0.47398382 0.0059655905
-0.10871798 0.47346848 0.0015034676
0.21326865 0.47412395 0.0071796179
0.24077691 0.47535747 0.017861843
-0.16308893 0.50200683 0.015560865
-0.13596594 0.50145191 0.011056542
-0.10891274 0.50089848 0.0065636635
-0.081929073 0.5003466 0.0020825863
0.15933783 0.50023848 0.0012052059
0.18627119 0.5005824 0.0039967299
0.21356408 0.5016498 0.01266253
-0.13620257 0.52900279 0.016180038
-0.10910943 0.52841288 0.011674166
-0.082086027 0.52782476 0.0071798563
-0.055132478 0.5272404 0.0027146339
0.10571682 0.52697414 0.00067925453
0.13260312 0.52733946 0.0034695864
0.15953258 0.52770507 0.0062646866
0.18650444 0.52806902 0.0090466738
0.21386048 0.52926219 0.018162966
-0.10930671 0.55600816 0.01679945
-0.082243443 0.5553835 0.012291908
-0.055250235 0.55476296 0.0078135729
-0.028325895 0.55414164 0.0033291578
0.078951284 0.55408823 0.0029428005
0.10583363 0.55447531 0.0057370663
0.13275857 0.55486083 0.0085179806
0.1597272 0.55524909 0.011321306
0.18673918 0.55563813 0.014128804
-0.055458575 0.58293784 0.016834617
-0.028458176 0.58221912 0.011921167
-0.0015335344 0.58150256 0.0070214272
0.02531567 0.58125281 0.0053149462
0.052175313 0.58170074 0.0083771944
0.079081908 0.58214688 0.011427045
0.106036 0.5825963 0.014499903
0.13303702 0.58304399 0.01756072
0.16008605 0.58349502 0.020644426
-0.37961498 -0.54952598 0.02600956
-0.40788296 -0.52428049 0.036342025
0.45708835 -0.52231979 0.024764538
-0.40792266 -0.49725765 0.036664128
0.45712337 -0.49538004 0.025048971
-0.40795791 -0.47022444 0.036950588
0.45716062 -0.46843863 0.025351405
-0.40799543 -0.44318932 0.03725493
0.45719787 -0.44149256 0.02565372
0.45729432 -0.41460836 0.026436687
0.45739952 -0.38772148 0.02729094
0.45750701 -0.36082375 0.028163791
0.45764312 -0.33393943 0.029268742
0.45782101 -0.30707461 0.030713081
0.45799688 -0.28018582 0.03214097
-0.40646136 -0.25246513 0.024799943
0.4581773 -0.25327861 0.033605576
-0.37931934 -0.22536467 0.023449302
0.45842394 -0.22639434 0.035608172
-0.37956363 -0.19855191 0.02556479
0.45867309 -0.19948082 0.037630916
-0.37980819 -0.17170669 0.02768302
0.45892251 -0.17253624 0.039656281
-0.38009632 -0.14485216 0.03017807
-0.38040751 -0.11796989 0.032873154
0.42993838 -0.11745633 0.023342729
-0.38071921 -0.091046304 0.03557241
0.43023399 -0.090599775 0.025902867
-0.38104999 -0.064087644 0.038437366
0.43054855 -0.063710049 0.028627038
-0.35227856 -0.03651645 0.022845268
0.43090898 -0.036790483 0.031748176
-0.35256591 -0.0096069574 0.025511503
0.43127 -0.009823285 0.034875035
-0.35285559 0.017343119 0.028199434
0.43163377 0.017191797 0.038025022
-0.35319188 0.044331312 0.031319857
-0.35353458 0.07136751 0.034499526
-0.32520097 0.07136751 0.021780014
0.40305161 0.071367636 0.024159908
-0.35387784 0.098452821 0.037684798
-0.32551742 0.098354787 0.024942279
0.40345049 0.098377258 0.027860999
-0.35424885 0.12559116 0.041127086
-0.32585943 0.12539461 0.028359652
0.40388095 0.12544832 0.031855464
-0.32622531 0.15249255 0.03201592
0.40434328 0.15258777 0.036145091
-0.32659373 0.17964736 0.035697699
-0.29834804 0.17925553 0.022969723
0.37589446 0.17923796 0.022401333
0.40480477 0.17979303 0.040427327
-0.32697013 0.20686214 0.039458752
-0.2986913 0.20637049 0.026685834
0.37625736 0.20634526 0.026027322
-0.29907653 0.23356384 0.030855775
0.3766638 0.23352836 0.030088782
-0.29946101 0.26082072 0.035017967
-0.27131888 0.26013508 0.022294998
0.34902039 0.26019537 0.023413777
0.3770712 0.26077443 0.03415966
-0.29984805 0.2881434 0.039207816
-0.27167115 0.28735811 0.026454449
0.34939504 0.28742057 0.027469039
0.37747952 0.28808379 0.038240194
-0.27205744 0.31467301 0.03101635
0.32185557 0.31399119 0.021176696
0.34980515 0.31473464 0.031908989
-0.27203929 0.3416903 0.03080225
-0.24440271 0.34108615 0.022951841
0.32223919 0.34129804 0.025707126
0.35022622 0.34212643 0.036467314
-0.27204233 0.36872566 0.030837893
-0.24476004 0.36845076 0.02759397
0.3226223 0.36867428 0.030231595
0.35064673 0.36958772 0.041019559
-0.24513346 0.39590657 0.032444596
0.29513255 0.3951478 0.024231195
0.32302612 0.39614254 0.035000205
-0.24553272 0.4234705 0.037630916
-0.21756263 0.4221918 0.024853468
0.29551893 0.42263174 0.02925086
0.3234553 0.42371434 0.040068746
-0.21792039 0.44973481 0.030017734
0.26810282 0.44903654 0.023538113
0.29590923 0.45019865 0.034320712
-0.21828294 0.47736526 0.035250664
-0.19042841 0.47588772 0.022454739
0.26845539 0.47660035 0.028627038
0.29630339 0.47784907 0.03944087
-0.19077891 0.50355679 0.028145909
0.24111664 0.50296956 0.023378372
-0.21868014 0.50513804 0.040983677
0.26883996 0.50429976 0.034177542
-0.19112945 0.5313136 0.033838034
-0.16338484 0.52964038 0.021052599
0.24145854 0.53067112 0.028929949
0.26922697 0.53208899 0.03976357
-0.19148113 0.55916029 0.039548635
-0.16369031 0.557383 0.026721358
-0.13643992 0.55663431 0.021318555
0.21415874 0.55696416 0.023698092
0.24180041 0.55845827 0.034481406
-0.1369604 0.58524185 0.032587409
-0.10970506 0.58444643 0.027148724
-0.082535595 0.58366114 0.021780133
0.18718855 0.58396506 0.02385819
0.21484876 0.5858146 0.036503196
-0.16443951 0.58641738 0.040624619
0.45977229 -0.55316383 0.0465554
-0.43817738 -0.52844685 0.060943127
0.48688576 -0.52595842 0.046249151
-0.43822011 -0.50123537 0.061269999
0.48692581 -0.49885672 0.046555281
-0.4382605 -0.47401607 0.061578512
0.48696584 -0.47175026 0.046861291
-0.43830088 -0.44679207 0.061887145
0.48700595 -0.44463927 0.04716742
0.48710018 -0.4175806 0.047887802
0.48721576 -0.39053243 0.048770785
0.48732901 -0.36346847 0.049636245
0.4874683 -0.3364141 0.050700545
0.48765963 -0.30938625 0.052162647
0.48784879 -0.28233421 0.053607941
0.48804045 -0.2552616 0.055072546
-0.4092851 -0.22742037 0.047725916
0.48830333 -0.22821276 0.057081699
-0.40954041 -0.20041756 0.049798608
0.48856893 -0.20113428 0.059111238
-0.40980491 -0.17338778 0.051946163
0.4888396 -0.17402744 0.061179161
-0.41011426 -0.14634731 0.054457664
0.45921424 -0.14558168 0.042024732
-0.41045082 -0.11928028 0.057190418
0.45953515 -0.11860344 0.044630051
-0.41078791 -0.092171222 0.059927106
0.45985433 -0.091584355 0.047221422
0.46018952 -0.064530477 0.04994297
-0.38143107 -0.037098214 0.041737437
0.46058086 -0.037448674 0.053120136
-0.38181493 -0.010058582 0.045061827
0.46097067 -0.010317758 0.056285143
-0.38219953 0.017032377 0.048392296
0.4613634 0.016861599 0.059473872
-0.38264531 0.044170111 0.052253008
0.43205619 0.044251509 0.041683674
-0.38310045 0.071367577 0.056194544
0.43248782 0.071367636 0.0454216
-0.38355657 0.098625809 0.060144782
0.43292037 0.098541215 0.049167514
0.43338722 0.12577705 0.053210616
-0.35464576 0.15278789 0.044810057
0.43388858 0.15308219 0.057552576
-0.35510954 0.18006057 0.049113393
0.4343912 0.1804544 0.061905265
-0.35560954 0.20741241 0.053752661
0.40527904 0.20706876 0.044827938
-0.35616943 0.23486118 0.05894804
-0.3273887 0.23415419 0.043641448
0.4058089 0.2344362 0.049744606
-0.32781005 0.26151231 0.04785192
0.40634221 0.26188093 0.054692864
-0.32823062 0.28893465 0.052054405
0.40687504 0.28940153 0.05963707
-0.3286975 0.31645364 0.056719542
-0.30027419 0.31556004 0.043821096
0.37801105 0.31554127 0.043551445
0.37856042 0.34309441 0.049041271
0.37911153 0.37073326 0.054548144
-0.30160457 0.39828777 0.058223009
-0.27326658 0.39709365 0.045295596
0.35109162 0.39714366 0.045835376
0.37969884 0.39849061 0.060416937
-0.27370897 0.42476028 0.050520182
0.35156274 0.42480189 0.050934911
-0.2741527 0.45250905 0.055760264
-0.24593315 0.45111597 0.042832851
0.32388574 0.45136577 0.04515183
0.35203683 0.4525423 0.056067944
-0.27460542 0.48035073 0.061106563
-0.24634171 0.4788537 0.048140287
0.32432505 0.47910768 0.050339699
0.35252076 0.48037392 0.061306238
-0.2467849 0.50672853 0.053897381
0.29673469 0.50563794 0.045043826
0.32480091 0.50698256 0.055959344
-0.24723092 0.53469688 0.05969131
-0.21907739 0.53299892 0.046717405
0.29716599 0.53351319 0.050646424
0.3252798 0.53494841 0.061614752
-0.21947592 0.56095088 0.05246973
0.26961395 0.55996412 0.045349479
0.29759863 0.56147707 0.056266904
-0.19260885 0.58893824 0.057860613
0.24273816 0.58774585 0.049708486
0.51706833 -0.5296635 0.068126678
0.5170936 -0.50237328 0.06830883
0.51713651 -0.47510004 0.068618655
0.51717949 -0.44782209 0.068928599
0.51727295 -0.42058969 0.069603205
0.51739681 -0.39337569 0.070497155
0.51751822 -0.36614567 0.071373105
0.5176599 -0.33891934 0.072395921
0.517865 -0.31172633 0.073876143
0.51806778 -0.28450888 0.075339198
-0.43937987 -0.25665283 0.070132375
0.51827317 -0.25727081 0.076822042
-0.43965939 -0.22949864 0.072268009
0.51854742 -0.23005174 0.078800678
-0.4399344 -0.20230897 0.074369669
0.51883459 -0.20280962 0.080873489
-0.44021937 -0.17509212 0.076547265
-0.44054788 -0.1478623 0.079057336
0.48915097 -0.14690781 0.063558578
-0.4409129 -0.12060876 0.081846356
0.48949373 -0.11976457 0.066177845
0.48983702 -0.092581093 0.068801045
-0.41114119 -0.065025195 0.062795401
0.49019513 -0.065361664 0.071537614
-0.41155556 -0.037850268 0.066159725
0.49061364 -0.038114227 0.074735403
-0.41196847 -0.010623157 0.069512129
0.49103531 -0.010818183 0.07795763
-0.41238442 0.016655095 0.07288909
0.49145532 0.016527593 0.081167102
-0.41286653 0.043981224 0.076803684
0.46181729 0.044086255 0.063158751
-0.41335878 0.071367636 0.080800056
0.46228331 0.071367636 0.066942453
0.46275035 0.098707274 0.070734501
-0.38405153 0.12594992 0.06443131
0.46325669 0.12611026 0.074845433
-0.38458136 0.15334702 0.069019794
0.46379581 0.15358266 0.079222322
-0.38511258 0.18081519 0.073620081
-0.38565996 0.20835954 0.078360677
0.43490556 0.20789754 0.066359997
0.43548235 0.23543441 0.071354985
-0.356731 0.262391 0.064158559
0.43605864 0.26304764 0.076345682
-0.35729223 0.29000074 0.069366217
0.43663654 0.29073867 0.081350684
0.4074623 0.31703323 0.065086126
0.40806317 0.34475857 0.070661306
0.40866593 0.37257141 0.076254368
-0.33015299 0.39949262 0.071263671
0.40931016 0.40050578 0.082232237
-0.33068356 0.42736679 0.076565504
-0.30209076 0.42605776 0.063485861
0.38031727 0.42636913 0.066596746
-0.33121386 0.45532238 0.081864834
-0.30257839 0.45391071 0.068764567
0.38093966 0.45434731 0.072816133
-0.30307928 0.48186135 0.074186921
0.3815771 0.48243845 0.079185843
-0.30362067 0.50994956 0.080047727
-0.27509806 0.50833297 0.066924453
0.35304311 0.50833762 0.066960692
-0.27559233 0.53640729 0.072761178
0.35356709 0.53639054 0.072633386
-0.27608663 0.56457138 0.078599095
-0.24767703 0.56275433 0.065486312
0.3257587 0.56300175 0.067270517
0.35409278 0.56453323 0.07832408
0.27105698 0.59015471 0.066177845
-0.46899801 -0.53279352 0.086609006
0.54772216 -0.53352422 0.090922832
0.54763848 -0.5059365 0.090350747
-0.4689419 -0.50526625 0.086203933
-0.46899036 -0.47786134 0.086553812
0.54768431 -0.47849423 0.090664387
-0.46903118 -0.45044303 0.086848378
0.54773027 -0.45104694 0.090978146
0.54781938 -0.4236359 0.091587424
0.54794902 -0.39625168 0.092473865
0.54808146 -0.36885625 0.093379498
0.54822481 -0.34145546 0.094359398
0.54844123 -0.31409329 0.095839262
-0.46995151 -0.28632545 0.093490362
0.54866064 -0.28671056 0.097339153
-0.47016931 -0.25895572 0.095062137
0.54888016 -0.25930476 0.098840356
-0.47045916 -0.2316059 0.097153902
0.54916775 -0.23191513 0.10080671
-0.47076216 -0.20423125 0.099341035
0.54947466 -0.20450552 0.10290515
-0.47106302 -0.17682166 0.10151184
0.51912212 -0.17553563 0.082948565
0.51945335 -0.14824913 0.08533895
0.51982075 -0.12093988 0.087990403
0.52018619 -0.093589142 0.090627432
-0.44127604 -0.093311846 0.084621668
-0.44165424 -0.065976515 0.087511539
0.52056748 -0.066202298 0.093379498
-0.44209826 -0.038612202 0.090904593
0.52101862 -0.038788565 0.096635461
-0.44254553 -0.011196204 0.094322324
0.52146804 -0.011324503 0.099878788
-0.4429937 0.01627247 0.097746611
0.52192086 0.016189288 0.10314643
-0.4435083 0.043789759 0.10167909
0.49194351 0.043918855 0.084897399
0.49244475 0.071367577 0.088727832
-0.41385213 0.09881562 0.084805608
0.4929471 0.098875284 0.092566609
-0.41438746 0.12633045 0.089151859
0.49349171 0.12644708 0.096727967
-0.41496053 0.15391931 0.093804598
0.49407402 0.15408966 0.10117781
-0.41553739 0.18158093 0.098488212
0.46433851 0.18112335 0.083628774
0.46489847 0.20873725 0.088174701
-0.38626826 0.23600127 0.083628654
0.46551901 0.23644386 0.093213081
-0.38687623 0.26372376 0.08889389
0.46614131 0.26422888 0.098265529
-0.3874881 0.29152951 0.094192982
0.43727776 0.31854504 0.086903691
0.43792737 0.3464421 0.092529416
0.43858331 0.37443048 0.098210096
-0.35986623 0.40152359 0.093250036
-0.36058062 0.42970002 0.099878907
0.40998438 0.42856002 0.088488221
0.41066098 0.45671302 0.094766259
-0.33184353 0.48347431 0.088156462
0.41135997 0.48498654 0.10125184
-0.33256978 0.51184201 0.095413804
0.38226289 0.51068723 0.086038351
-0.33329901 0.54032522 0.10270083
-0.30416217 0.5381279 0.085909486
0.38295317 0.5390473 0.092936039
-0.30470204 0.56639409 0.091753602
0.38362938 0.56749433 0.099693298
-0.50039989 -0.53735554 0.11354649
0.57997245 -0.53875494 0.12180889
-0.50010198 -0.50935721 0.11151028
0.57936311 -0.51038229 0.11785078
-0.50015116 -0.48175538 0.11184633
0.57943237 -0.48274904 0.11830056
-0.50020033 -0.45414835 0.11218262
0.57950449 -0.4551118 0.11876929
0.57961994 -0.42750621 0.11951935
0.57981342 -0.39995557 0.12077618
0.58001 -0.37238795 0.12205291
-0.50070626 -0.34391272 0.11564124
0.58020955 -0.34480298 0.12334943
-0.50093347 -0.31639493 0.11719525
-0.50116378 -0.28885514 0.11876917
-0.50139415 -0.26129127 0.12034476
-0.50169349 -0.23374291 0.12239099
0.54978198 -0.17706382 0.10500586
-0.47140801 -0.14939848 0.10400164
0.55012774 -0.14960596 0.10737026
-0.4718025 -0.12195614 0.1068486
0.55052042 -0.12212875 0.11005461
-0.47219244 -0.094468504 0.10966289
0.55091357 -0.094610736 0.11274302
-0.47259596 -0.066941142 0.11257482
0.55131835 -0.067054152 0.11551046
-0.47307271 -0.039385371 0.11601579
0.55179775 -0.039470695 0.11878812
-0.47355041 -0.011776738 0.11946297
0.55228078 -0.011837445 0.12209046
-0.4740316 0.015884627 0.12293577
0.52244413 0.043749426 0.10692298
-0.44404107 0.071367577 0.1057502
0.52298146 0.071367636 0.11080098
-0.44457263 0.099007942 0.10981214
0.52351993 0.099045575 0.1146872
-0.44514942 0.12671639 0.11421978
0.52410376 0.12678859 0.11890042
-0.44576937 0.15450016 0.1189568
0.52472544 0.1546025 0.12338698
-0.44638845 0.18235679 0.12368751
0.49465781 0.18180105 0.1056385
-0.41612947 0.20931926 0.10329533
0.49526015 0.20958655 0.11024106
-0.41678745 0.23715626 0.10863745
0.49592766 0.23746583 0.11534202
-0.41744739 0.26507643 0.11399531
0.4965995 0.26542571 0.12047601
-0.4181093 0.29308015 0.11936939
0.4667677 0.29209352 0.103351
0.46746239 0.32007509 0.1089915
0.46816623 0.34814924 0.11470592
0.46887463 0.37631446 0.12045717
-0.3902913 0.40385306 0.11846936
0.43928644 0.4025442 0.10429907
0.44001994 0.43077809 0.11065161
-0.36129367 0.45797694 0.10649478
0.44074959 0.45910585 0.11697054
-0.36203551 0.4863866 0.11337841
0.44151434 0.48756629 0.12359357
-0.36282673 0.51495898 0.12072003
0.41210771 0.51341569 0.10819006
0.41286033 0.5419575 0.1151737
-0.33400321 0.56888598 0.10973752
0.41357341 0.5705561 0.12179005
-0.53257769 -0.54231501 0.14283073
-0.53170455 -0.51350355 0.13715911
-0.531757 -0.48570502 0.13750017
-0.53233504 -0.34687042 0.14125466
-0.5326274 -0.31919259 0.14315367
0.58053678 -0.31728721 0.12547433
0.58086431 -0.28973907 0.12760174
0.58119226 -0.26215833 0.12973177
0.58161074 -0.23459475 0.13244987
-0.50201786 -0.20617636 0.12460876
0.58207351 -0.2070113 0.13545549
-0.50234264 -0.17857577 0.12682962
0.58253413 -0.17938082 0.13844764
-0.50270647 -0.15095739 0.12931681
0.58304518 -0.15172431 0.14176726
-0.50312597 -0.12332144 0.13218522
-0.50354618 -0.095641419 0.1350584
-0.50397539 -0.067919463 0.13799262
-0.50448585 -0.040169463 0.14148235
0.55277294 0.015845709 0.1254555
-0.47458419 0.043595407 0.12692356
0.55355293 0.043565571 0.13078821
0.55436015 0.071367577 0.13630748
-0.47515365 0.071367696 0.13103366
-0.47572443 0.099203154 0.13515282
0.55516708 0.099254414 0.14182425
-0.47634646 0.12710786 0.139642
-0.47701219 0.15508892 0.14444637
0.52535117 0.18248668 0.1279031
-0.44703138 0.21029317 0.1286006
0.52599955 0.21044639 0.13258195
-0.44774041 0.23832856 0.13401818
0.52671778 0.23850161 0.13776553
-0.44844905 0.26644731 0.13943338
0.52743542 0.26663625 0.14294481
0.49727085 0.29346412 0.12560594
0.49802315 0.32162446 0.13135445
0.49878278 0.34987766 0.13715935
0.49954489 0.37822181 0.14298284
-0.42115113 0.40621781 0.14406621
0.46963865 0.40460974 0.12666011
-0.39106756 0.43223298 0.12519205
0.4704262 0.43301988 0.13305438
-0.3918424 0.46071506 0.1319021
0.47121421 0.4615289 0.13945246
-0.39265731 0.4893406 0.13895953
0.44232771 0.51618046 0.13063729
-0.3636232 0.54365069 0.12811041
0.4431442 0.54490656 0.13770866
-0.36436388 0.57238412 0.13498259
0.6139304 -0.51724714 0.16031694
0.61400795 -0.48929167 0.16079652
0.6140824 -0.46132612 0.16125703
0.6141786 -0.43337208 0.16185212
0.61438662 -0.40549928 0.16313875
0.6145978 -0.37760925 0.16444564
-0.53298163 -0.2915256 0.14545441
-0.5333392 -0.2638253 0.14777696
-0.53379124 -0.2361411 0.15071297
-0.53429991 -0.2084402 0.15401709
-0.53480953 -0.18068878 0.15732694
-0.53536439 -0.15290441 0.16093087
0.58363634 -0.12404464 0.14560652
0.58422869 -0.096306369 0.14945412
0.5848282 -0.068510443 0.15334809
0.58555579 -0.040680386 0.15807402
-0.50499719 -0.012365989 0.14497888
0.58628237 -0.012777463 0.16279304
-0.50550956 0.015491258 0.14848197
-0.50610119 0.043398414 0.15252662
-0.50671089 0.071367696 0.15669501
-0.50732195 0.09940125 0.16087329
0.55604333 0.1272337 0.14781523
0.55698121 0.15531483 0.15422726
-0.4776797 0.18314433 0.1492635
0.55792236 0.18349528 0.16066229
-0.47837016 0.21128039 0.15424645
-0.47913155 0.23951671 0.15974152
0.52815783 0.29485297 0.14815807
0.52914715 0.32328349 0.15529823
0.53028947 0.35190856 0.16354227
-0.4515714 0.37994164 0.16329241
0.50036931 0.40669966 0.14928246
-0.42198864 0.43480241 0.15086567
0.50121415 0.43528992 0.15573812
-0.4228293 0.46349454 0.15769076
0.50206447 0.46398413 0.16223598
-0.42372045 0.49233913 0.16492629
0.47204724 0.49017829 0.14621568
-0.39351714 0.51812273 0.14640605
0.47292575 0.51897776 0.15334821
-0.39438277 0.5470258 0.15390217
0.47380769 0.54789031 0.16050875
-0.39533174 0.57614452 0.16212082
0.44394857 0.57372689 0.14467442
0.61682844 -0.54831249 0.17824376
-0.56714749 -0.52109545 0.18412256
-0.56723231 -0.49296385 0.18464744
0.61480922 -0.34969938 0.16575336
0.61513603 -0.32184601 0.1677748
0.61549121 -0.29397911 0.16997159
0.61584365 -0.26607686 0.1721518
0.61627156 -0.23818077 0.17479897
0.6167627 -0.21027379 0.17783689
0.61726093 -0.1823232 0.18091881
0.61779451 -0.15433864 0.18421996
-0.53602397 -0.12510118 0.1652149
-0.53668207 -0.097231641 0.16948962
-0.53734773 -0.069298282 0.1738131
-0.53814918 -0.041325375 0.17901874
-0.53895289 -0.013272613 0.18423927
0.58700782 0.01519832 0.16750515
0.58784217 0.043241203 0.17292452
0.58870888 0.071367636 0.1785537
0.58957827 0.099580742 0.18420041
-0.50799912 0.12750602 0.16550326
-0.5090394 0.15573943 0.17261529
-0.51008368 0.18408324 0.17975533
0.55890626 0.21178617 0.16738963
0.55998719 0.24021129 0.17477977
0.56106961 0.26875073 0.18218029
0.53143972 0.38066572 0.17184305
-0.45245051 0.40861428 0.17001033
0.53269726 0.40962201 0.18091893
-0.45335567 0.43741053 0.17692685
-0.45426175 0.46631372 0.18385053
0.50296831 0.49282587 0.16914284
-0.42464846 0.52133179 0.17246079
0.50391358 0.52181274 0.17636585
-0.42558274 0.55044717 0.18004608
0.47480229 0.5770399 0.16858363
0.64932328 -0.52427608 0.20379686
0.64940643 -0.49598777 0.20428824
0.6494897 -0.46769172 0.20477939
0.64957625 -0.43939102 0.20529044
-0.56787091 -0.38058412 0.18859792
-0.56810719 -0.35250592 0.1900593
-0.5684604 -0.3244831 0.19224441
-0.56884569 -0.29644656 0.19462705
-0.56923139 -0.26837349 0.19701314
-0.56969053 -0.24030219 0.19985306
-0.57023919 -0.21222998 0.20324719
0.618433 -0.12633812 0.18816912
0.61906648 -0.098275527 0.19208825
0.61970454 -0.07015346 0.19603503
0.62048972 -0.041998915 0.20089233
0.62127072 -0.013768926 0.20572305
-0.53975898 0.014860079 0.18947458
-0.54068172 0.043067787 0.19546771
-0.5416407 0.071367577 0.20169652
0.59052533 0.12788852 0.19035184
0.59153581 0.15630063 0.19691551
0.59254998 0.18481442 0.20350254
-0.5111776 0.21254994 0.18723464
0.5621736 0.29741308 0.18972802
0.5634023 0.32625079 0.19812918
-0.48329195 0.38218349 0.189767
-0.48469225 0.41137296 0.19987273
0.53397465 0.43873245 0.19013751
0.53525841 0.46798974 0.19940233
-0.45522997 0.49537843 0.19124925
-0.45623285 0.52458972 0.1989125
0.50522894 0.5512808 0.1864171
-0.42683765 0.58004004 0.19023478
0.50723362 0.58163381 0.20173573
0.64978606 -0.41117775 0.20652938
0.65000933 -0.38295507 0.20784783
0.65023279 -0.35471237 0.20916724
0.6505599 -0.32651514 0.21109903
0.6509409 -0.29832 0.21334839
0.65132236 -0.27009058 0.21560061
0.65176117 -0.24185516 0.2181921
0.65228462 -0.21361832 0.22128284
-0.57078886 -0.18410571 0.20664752
0.65280896 -0.18533425 0.22437906
-0.57136822 -0.15594067 0.21023154
-0.57207322 -0.12776205 0.21459281
-0.57278317 -0.099517822 0.21898425
-0.57349795 -0.071207047 0.22340596
0.62205368 0.014535464 0.21056652
0.62294418 0.042909101 0.21607518
0.62387264 0.071367577 0.22181845
-0.54260594 0.099763677 0.20796621
-0.54365659 0.12826487 0.21479011
-0.54478139 0.15688215 0.2220962
0.59361631 0.2134428 0.2104286
0.59478414 0.24220821 0.218014
0.59595078 0.27108997 0.22559106
0.56463963 0.35522228 0.20658851
0.56588262 0.38432741 0.2150867
0.56725913 0.41364765 0.22449827
-0.48611668 0.44073534 0.21015251
-0.4875491 0.47026241 0.22048998
0.53665245 0.49748147 0.20946276
0.5380953 0.52717173 0.21987534
-0.45723736 0.55392069 0.20658851
-0.45970336 0.58491701 0.22543192
-0.60397577 -0.5293197 0.2349962
-0.6040265 -0.50076157 0.23529553
-0.6049245 -0.35834163 0.24059796
-0.60526741 -0.32991254 0.24262273
-0.60569233 -0.30150074 0.24513173
0.65336788 -0.15701492 0.22767901
0.65404934 -0.12868409 0.23170292
0.65473562 -0.10029228 0.23575521
0.65542006 -0.071837857 0.23979664
-0.5743593 -0.042856187 0.22873402
0.65624875 -0.043347582 0.24469006
-0.57522631 -0.014424168 0.23409736
-0.57609588 0.014090288 0.2394762
-0.57708484 0.042681847 0.24559391
0.62480718 0.099914871 0.2275995
0.62582535 0.12855898 0.23389757
0.6269117 0.15730989 0.24061799
-0.54591066 0.18561281 0.22943103
0.62800211 0.18616505 0.24736261
0.59715277 0.30010262 0.23339868
0.59847724 0.32929027 0.24200106
-0.51889473 0.38643676 0.23999703
0.5686456 0.4431197 0.23397768
0.57003331 0.47273862 0.24346542
-0.48910555 0.50005203 0.23172295
-0.49069652 0.53004509 0.24320459
0.53953248 0.55701691 0.2302475
0.68573922 -0.53162777 0.24927413
0.6856643 -0.50284868 0.24885142
0.68575346 -0.47421139 0.2493546
0.68584615 -0.4455694 0.24987793
0.68603873 -0.41699296 0.25096583
0.68627781 -0.3884322 0.25231624
0.68651354 -0.35984844 0.25364745
0.68683523 -0.3312965 0.25546432
0.6872431 -0.30276537 0.25776827
-0.60611099 -0.27304697 0.24760401
0.68765152 -0.27419895 0.26007509
-0.60657799 -0.24457921 0.25036156
0.68809998 -0.24561615 0.26260757
0.68866044 -0.21704315 0.26577318
-0.60716528 -0.21612374 0.25382924
-0.60775709 -0.1876166 0.2573235
-0.60836369 -0.15906125 0.26090539
-0.6091193 -0.13049801 0.26536703
0.65709335 -0.014783897 0.2496767
0.65793675 0.01385659 0.25465667
0.65888864 0.042568833 0.26027751
-0.5781194 0.071367636 0.25199378
0.65988129 0.071367636 0.26613879
-0.57916081 0.10015225 0.25843573
-0.58029771 0.12904498 0.2654686
0.62915838 0.21513966 0.25451541
0.63041085 0.24425203 0.26226306
0.5998078 0.35861361 0.25064349
0.60116017 0.38808209 0.25942719
-0.52041954 0.41604239 0.25042188
-0.52196175 0.44582045 0.26096618
0.5715639 0.50261623 0.25392997
0.57311201 0.53266984 0.26451445
-0.49229738 0.56022429 0.25475776
0.54447192 0.59052402 0.26589513
-0.64185178 -0.50877798 0.28736341
0.68921828 -0.1884204 0.26892376
0.69008744 -0.15985733 0.2738328
0.6915459 -0.13139819 0.28207076
-0.60988015 -0.10186765 0.26985979
-0.61064631 -0.073169217 0.27438354
-0.61155981 -0.044427872 0.27977753
-0.61249673 -0.01560685 0.28531015
0.66088045 0.10025692 0.27203882
0.66197282 0.12924553 0.27848887
0.66313845 0.15834346 0.28537178
0.63166851 0.27348524 0.2700429
0.63297439 0.30285674 0.27812099
0.63439876 0.33240324 0.28693199
