ply
format ascii 1.0
comment PCL generated
element vertex 1354
property float x
property float y
property float z
element camera 0
property float view_px
property float view_py
property float view_pz
property float x_axisx
property float x_axisy
property float x_axisz
property float y_axisx
property float y_axisy
property float y_axisz
property float z_axisx
property float z_axisy
property float z_axisz
property float focal
property float scalex
property float scaley
property float centerx
property float centery
property int viewportx
property int viewporty
property float k1
property float k2
end_header
0.20858927 0.23398447 -0.66974866
0.20858927 0.25159162 -0.6697486
0.2442496 0.2529296 -0.65816069
0.19114763 0.2705228 -0.65899825
0.20858927 0.26919878 -0.6697486
0.19114763 0.28821281 -0.65899825
0.20858903 0.28680459 -0.66975892
0.19114748 0.30590123 -0.65900862
0.20862666 0.30463734 -0.66812998
0.19114748 0.32359105 -0.65900874
0.17354143 -0.35021427 -0.64812535
0.17354143 -0.33244064 -0.64812529
0.17354134 -0.31466565 -0.64813596
0.20898296 -0.31406823 -0.65270162
0.17354134 -0.29689214 -0.64813596
0.22695118 -0.29724917 -0.64523745
0.26248908 -0.243745 -0.646402
0.27986962 -0.18980393 -0.6539427
0.29798141 -0.15472928 -0.64772373
0.31619132 -0.11946467 -0.64147133
0.31593844 -0.10149937 -0.64512098
0.31574494 -0.083616585 -0.64791405
0.31555188 -0.065777041 -0.65070039
0.31535929 -0.047980472 -0.65347993
0.54715258 -0.048096161 -0.64596796
0.72307736 -0.047972586 -0.6539951
0.31516647 -0.030226659 -0.65626341
0.54715258 -0.03030598 -0.64596796
0.72307736 -0.030244114 -0.65399522
0.54715258 -0.012515686 -0.64596796
0.72307736 -0.012515664 -0.65399522
0.54715258 0.0052745175 -0.64596796
0.72307736 0.005212741 -0.65399522
0.54715258 0.023064744 -0.64596796
0.72307992 0.02294128 -0.65398473
0.3152501 0.058365352 -0.6550563
0.31576544 0.076371916 -0.64761817
0.29778904 0.14725813 -0.65084791
0.29824942 0.16558641 -0.64337188
0.28018478 0.20077062 -0.64809364
0.26263687 0.23684537 -0.64320201
0.22670254 0.28895688 -0.65331161
0.17354126 0.30740631 -0.64814645
0.17354126 0.32517973 -0.64814645
0.17354117 0.34295166 -0.64815694
0.15576781 -0.38753596 -0.63714898
0.15576781 -0.36967453 -0.63717026
0.17361721 -0.36950389 -0.63827902
0.15576781 -0.35181502 -0.63718098
0.19158316 -0.35276142 -0.6307103
0.15576781 -0.33395711 -0.6371811
0.24503659 -0.28032199 -0.63771427
0.2632401 -0.26328433 -0.63014168
0.28061324 -0.20870143 -0.6401422
0.29883525 -0.17346659 -0.63385928
0.31715709 -0.13804063 -0.62753129
0.53133196 -0.048283707 -0.63378423
0.74678081 -0.048334662 -0.63047421
0.53133196 -0.03039973 -0.63378423
0.74678081 -0.030425141 -0.63047433
0.53133196 -0.012515664 -0.63378441
0.74678081 -0.012515664 -0.63047439
0.33498251 0.0054058451 -0.62891793
0.53133196 0.005368311 -0.63378441
0.74678081 0.0053938124 -0.63047439
0.33476448 0.023283593 -0.63175017
0.53133196 0.023252357 -0.63378441
0.74678081 0.023303311 -0.63047439
0.33495274 0.041239809 -0.62930447
0.31628484 0.094495721 -0.64012098
0.31680691 0.11273689 -0.63258564
0.29888797 0.18427452 -0.63300323
0.28126499 0.22055048 -0.62804735
0.24501443 0.27307346 -0.63828957
0.22731701 0.30945566 -0.63335627
0.15576781 0.3267836 -0.6371811
0.2093121 0.32659799 -0.63844949
0.15576781 0.34463987 -0.63719165
0.1914745 0.34455109 -0.63776743
0.15576781 0.36249763 -0.63719165
0.1736265 0.36251655 -0.63707435
0.15576781 0.38049272 -0.63638067
0.11970942 -0.40915796 -0.61492372
0.13782457 -0.407267 -0.62608933
0.11970976 -0.3911252 -0.61494553
0.13782465 -0.38932204 -0.62610006
0.13782474 -0.37137714 -0.62611091
0.20966651 -0.33590791 -0.62310284
0.22786885 -0.3189452 -0.61543465
0.28212643 -0.24718168 -0.61206114
0.28136528 -0.2278257 -0.62618625
0.29970005 -0.19243097 -0.61981642
0.31813458 -0.15684173 -0.61342257
0.33630279 -0.10278318 -0.61176676
0.3360815 -0.084641166 -0.61464113
0.33586079 -0.066543564 -0.61750817
0.33564064 -0.048490256 -0.62036848
0.49852139 -0.048595008 -0.61356407
0.51499772 -0.048438698 -0.62371796
0.335421 -0.030481001 -0.62322158
0.498523 -0.030555481 -0.61355305
0.51499772 -0.030477125 -0.62371802
0.498523 -0.012515754 -0.61355317
0.51499772 -0.012515731 -0.62371802
0.33520108 -0.012515686 -0.62607861
0.498523 0.0055240858 -0.61355317
0.51499772 0.0054457523 -0.62371796
0.498523 0.023563813 -0.61355317
0.51499772 0.023407348 -0.62371802
0.33553904 0.059392914 -0.62168777
0.33612841 0.077664621 -0.61403203
0.3173331 0.13109794 -0.62499052
0.31786203 0.14957854 -0.61735636
0.30013877 0.20404074 -0.61269301
0.2635667 0.25698155 -0.62307048
0.2457926 0.29356861 -0.61807209
0.13782474 0.34634587 -0.62611085
0.13782482 0.36428714 -0.62612152
0.11970976 0.38412288 -0.61494553
0.13782482 0.38223016 -0.6261217
0.11970976 0.40215185 -0.61494541
0.13782482 0.40017316 -0.6261217
0.11970976 0.42018101 -0.61494541
0.10141989 -0.42918307 -0.60365069
0.11963983 -0.42798758 -0.61040336
0.10142013 -0.41106534 -0.60366154
0.1014204 -0.39294758 -0.60367256
0.17393446 -0.39401522 -0.59706861
0.19204766 -0.37531409 -0.60054022
0.24619123 -0.30187064 -0.60771585
0.26463428 -0.28468186 -0.59995675
0.30057472 -0.21162516 -0.60561371
0.31912476 -0.17587262 -0.59913075
0.33667105 -0.12105764 -0.60698259
0.48190254 -0.048752934 -0.60331029
0.48190254 -0.030634288 -0.60331029
0.48190254 -0.012515686 -0.60331029
0.48190254 0.0056030042 -0.60331035
0.3555215 0.023803145 -0.59800625
0.48190254 0.023721494 -0.60331035
0.33672249 0.096057154 -0.60631478
0.33731964 0.11457057 -0.59855765
0.31839517 0.16818139 -0.60966116
0.31926301 0.1873118 -0.59713489
0.28236413 0.24067691 -0.60764998
0.26451287 0.27747107 -0.60258543
0.24658448 0.31442422 -0.59749877
0.22841331 0.3325505 -0.59775263
0.21026826 0.35082057 -0.59704643
0.19211249 0.3691034 -0.59632868
0.10142013 0.40414986 -0.6036616
0.1014204 0.42226368 -0.60367256
0.1014204 0.44037953 -0.60367256
0.082953438 -0.449402 -0.59226847
0.1011821 -0.44920141 -0.59335405
0.082953773 -0.43119645 -0.59227955
0.082954116 -0.41299102 -0.59229058
0.21036811 -0.35831758 -0.59272289
0.22881018 -0.34120634 -0.58486438
0.28320014 -0.26738036 -0.59213543
0.30146009 -0.23105404 -0.59123749
0.3201263 -0.19513619 -0.58467484
0.33777732 -0.13992241 -0.59261191
0.35676283 -0.067332514 -0.58334678
0.35651353 -0.049014892 -0.5862909
0.44822186 -0.049072433 -0.58255357
0.46513611 -0.048912 -0.59297758
0.77755755 -0.049091592 -0.58131272
0.35626483 -0.03074269 -0.58922791
0.44822186 -0.030794071 -0.58255368
0.46513611 -0.030713854 -0.59297752
0.77755755 -0.030803664 -0.58131272
0.35601676 -0.012515686 -0.59215766
0.44822329 -0.012515642 -0.58254248
0.46513611 -0.012515642 -0.59297758
0.77755755 -0.012515686 -0.58131272
0.35576832 0.0056661237 -0.59509104
0.44822329 0.0057628322 -0.58254254
0.46513611 0.005682392 -0.59297758
0.77755457 0.0057721548 -0.5813238
0.44822329 0.024041306 -0.58254254
0.46513611 0.023880605 -0.59297758
0.77755457 0.024060041 -0.58132392
0.35576087 0.042027932 -0.59517968
0.35642493 0.060450457 -0.58733749
0.33792156 0.13320729 -0.59073806
0.33852667 0.15196732 -0.5828777
0.3014116 0.22415546 -0.59202468
0.28348267 0.26115897 -0.58689231
0.26547578 0.29832351 -0.5817377
0.17394568 0.38739735 -0.59561068
0.15576781 0.4057005 -0.59490317
0.082954116 0.42436659 -0.59229058
0.13757896 0.42401671 -0.59418428
0.082954116 0.44256994 -0.5922907
0.04547888 -0.49043447 -0.56915939
0.045479402 -0.47205073 -0.56917059
0.064307049 -0.46981955 -0.58076453
0.08245454 -0.47072357 -0.57606637
0.045479923 -0.45366725 -0.5691821
0.064307481 -0.45152533 -0.58077562
0.064307913 -0.43323126 -0.58078682
0.15576781 -0.41510037 -0.57983541
0.2473757 -0.32398254 -0.57694232
0.26606563 -0.30664316 -0.56896716
0.30235702 -0.25072315 -0.57667285
0.32114017 -0.21463752 -0.57004046
0.33889633 -0.15901852 -0.57807571
0.3577711 -0.12269928 -0.5714398
0.35726333 -0.10410453 -0.57743627
0.35701278 -0.085695684 -0.58039528
0.43115783 -0.049234346 -0.57203734
0.43115914 -0.030875051 -0.57202613
0.43115914 -0.012515686 -0.57202613
0.43115914 0.0058437232 -0.57202607
0.43115914 0.024203178 -0.57202613
0.35709241 0.078995533 -0.57945436
0.35776538 0.097664788 -0.57150739
0.33913666 0.17085311 -0.57495356
0.32071334 0.20741168 -0.57620114
0.30270708 0.24462801 -0.57098854
0.064307913 0.42649189 -0.58078694
0.045479923 0.44701725 -0.56918192
0.064308345 0.44478169 -0.58079803
0.045480445 0.4653962 -0.56919318
0.064308345 0.46307352 -0.58079803
0.082527116 0.46354878 -0.57842326
0.045479923 0.48377979 -0.56918192
0.026465893 -0.49277991 -0.55744034
0.026466504 -0.47430605 -0.55745167
0.1373339 -0.43649587 -0.56234848
0.21108794 -0.38131663 -0.56155264
0.22977675 -0.36405826 -0.55347395
0.28488064 -0.28918591 -0.5609498
0.30382305 -0.27161235 -0.55286705
0.32216746 -0.23438182 -0.55521297
0.34002918 -0.17835096 -0.5633595
0.35902423 -0.14186066 -0.55664116
0.37800425 -0.04955506 -0.55120492
0.41394317 -0.049397897 -0.56141615
0.37772486 -0.031012136 -0.55422944
0.41394317 -0.030956836 -0.56141627
0.37744617 -0.012515642 -0.55724633
0.41394317 -0.012515686 -0.56141615
0.37716818 0.0059343372 -0.56025565
0.41394317 0.0059253741 -0.56141627
0.37688982 0.024337932 -0.56326866
0.41394317 0.024366479 -0.56141615
0.37718815 0.0428394 -0.56003928
0.37793326 0.061539441 -0.5519731
0.35844186 0.11645866 -0.56351858
0.35912287 0.1353789 -0.55547589
0.3402769 0.19044432 -0.56014162
0.3221904 0.22787258 -0.55488139
0.28462118 0.28200635 -0.56576437
0.26664919 0.32012841 -0.55633271
0.24819709 0.33871567 -0.55560166
0.22973412 0.35731587 -0.55485845
0.21125945 0.37592584 -0.55412632
0.1927737 0.39454898 -0.55338228
0.1742764 0.41318181 -0.55264926
0.11889875 0.4483476 -0.56226885
0.02646713 0.46774399 -0.55746311
0.02646713 0.48621553 -0.55746305
0.0072646439 -0.51371384 -0.5455941
0.0072660744 -0.4951463 -0.54561704
0.0072667748 -0.47658139 -0.54562861
0.11862676 -0.45820841 -0.54460257
0.19284931 -0.40187135 -0.54847169
0.24859205 -0.34668297 -0.54534048
0.26753458 -0.32918814 -0.53716344
0.32320756 -0.25437313 -0.54020023
0.34117699 -0.19792491 -0.54844868
0.36029297 -0.16126129 -0.54165787
0.37884665 -0.10546519 -0.54208565
0.37856513 -0.086781442 -0.54513305
0.37828434 -0.06814488 -0.54817271
0.39657331 -0.049562722 -0.55071151
0.39657331 -0.03103916 -0.55071151
0.39657331 -0.012515686 -0.55071163
0.39657447 0.0060078762 -0.55070007
0.39657447 0.024531528 -0.55070007
0.37868446 0.080366261 -0.54384106
0.35980949 0.15442747 -0.54736757
0.36049974 0.17360431 -0.5392158
0.34193951 0.21089038 -0.53854364
0.30402511 0.26546669 -0.54958642
0.28578013 0.3032285 -0.54425651
0.15576781 0.43293837 -0.54589373
0.0072667748 0.48867527 -0.54562873
0.0072667748 0.50723791 -0.54562873
0.026069909 0.50627601 -0.55009168
-0.031709537 -0.51870453 -0.52158266
-0.012125507 -0.5161956 -0.53365368
-0.031707734 -0.49995217 -0.52160609
-0.012124702 -0.49753839 -0.53366536
0.099640287 -0.48024502 -0.52659166
0.17444676 -0.42345253 -0.53051877
0.28660664 -0.31157586 -0.52891898
0.34233832 -0.21774322 -0.53336269
0.36157864 -0.18090636 -0.5264746
0.37951809 -0.12439078 -0.53481698
0.81013507 -0.049908105 -0.52827638
0.81013823 -0.031212008 -0.52826452
0.81013823 -0.012515597 -0.52826464
0.81013507 0.0061805006 -0.52827621
0.81013507 0.024876732 -0.52827621
0.39926273 0.043675408 -0.52383745
0.37943971 0.099320263 -0.53566539
0.38020116 0.11840377 -0.52742255
0.36195904 0.19367564 -0.52198213
0.32369417 0.24870315 -0.53317636
0.30536771 0.28668413 -0.527785
-0.031707734 0.49366829 -0.52160597
-0.012123883 0.49115935 -0.53367698
0.062490173 0.49118355 -0.53356045
-0.031708643 0.51241839 -0.52159435
-0.012123883 0.50981408 -0.5336768
-0.031708643 0.53116608 -0.52159435
-0.051490679 -0.54008275 -0.50937873
-0.032544851 -0.53979111 -0.51073158
-0.051488668 -0.52123612 -0.50940251
0.15576781 -0.4453578 -0.51229602
0.23092271 -0.38829026 -0.51625758
0.24984068 -0.36999258 -0.51290005
0.30580837 -0.29384178 -0.52063
0.32514244 -0.2759873 -0.51227236
0.34351432 -0.23781148 -0.51808649
0.3628796 -0.20079914 -0.51111096
0.38092756 -0.14385888 -0.51955897
0.4007667 -0.087899998 -0.50880873
0.40045327 -0.068981491 -0.51194078
0.40009454 0.062661767 -0.51552552
0.40093324 0.081778705 -0.50714457
0.38096672 0.1376169 -0.519135
0.3817386 0.15696245 -0.51077908
0.34363326 0.23170936 -0.516541
0.32522538 0.26991361 -0.51107538
0.28748196 0.32617769 -0.51267499
0.26870066 0.34510508 -0.511917
0.24990818 0.36404577 -0.51114649
0.23110346 0.38299656 -0.51038748
0.21228737 0.40196106 -0.50961637
0.19345939 0.42093754 -0.50884432
0.099413902 0.475885 -0.5167889
-0.051488668 0.51504618 -0.50940251
-0.051488668 0.5338878 -0.50940257
-0.071469933 -0.54273701 -0.49706411
-0.071467713 -0.5237956 -0.49708813
0.06091617 -0.50574428 -0.49266678
0.13680619 -0.46759465 -0.49379772
0.21255954 -0.41005766 -0.4978314
0.26904374 -0.35234344 -0.50448906
0.28837878 -0.33457094 -0.49603212
0.34470612 -0.25813553 -0.50260431
0.36419713 -0.220945 -0.49555212
0.38235599 -0.16357446 -0.50409573
0.40194446 -0.12613571 -0.49704009
0.40108094 -0.10686695 -0.5056687
0.40177652 0.10102683 -0.49871802
0.38251472 0.17644006 -0.50237733
0.36384791 0.21448079 -0.49967569
0.34535813 0.25291082 -0.49413425
0.30673486 0.30828917 -0.50558531
0.13685226 0.46037295 -0.49978346
-0.071467713 0.51770043 -0.49708796
-0.071468815 0.53663963 -0.49707603
-0.091652468 -0.54542089 -0.4846127
-0.091650054 -0.52638346 -0.48463702
0.19391716 -0.4321585 -0.47911263
0.30784833 -0.3166768 -0.48750472
0.32745332 -0.29865828 -0.47891784
0.36553252 -0.24134994 -0.47978169
0.38380158 -0.18354103 -0.48844701
0.40351951 -0.14592043 -0.48130089
0.4220143 0.04453709 -0.4865253
0.42293781 0.063818552 -0.47795606
0.40262684 0.12040839 -0.4902212
0.40348184 0.13992369 -0.48167747
0.38434392 0.19701245 -0.48257577
0.36577171 0.23567078 -0.47695684
0.32678476 0.29151437 -0.48856771
0.1748161 0.44464326 -0.4825393
-0.091648832 0.52038169 -0.484649
-0.091650054 0.53941643 -0.48463702
-0.11203904 -0.54812944 -0.47204697
-0.11203642 -0.52899522 -0.47207141
0.25171363 -0.396299 -0.464239
0.27059364 -0.37613079 -0.47093278
0.29020023 -0.35819906 -0.46223009
0.34719419 -0.28051263 -0.47028333
0.36707413 -0.26224133 -0.46157604
0.38526571 -0.20376393 -0.47259748
0.40511489 -0.16596001 -0.46535921
0.42399609 -0.10831142 -0.46813685
0.42364722 -0.089052662 -0.47137368
0.42329931 -0.069843799 -0.4746021
0.84420377 -0.050762124 -0.4728055
0.84420377 -0.031638905 -0.47280538
0.84420377 -0.012515731 -0.47280538
0.84420377 0.0066074878 -0.47280532
0.84420377 0.025730707 -0.47280538
0.42386913 0.083234765 -0.46931481
0.40434402 0.15957549 -0.47306216
0.40521097 0.17936367 -0.46439898
0.34711498 0.27450505 -0.47131228
0.3283731 0.31351644 -0.46564215
0.30908647 0.33245128 -0.4673999
0.28996402 0.35173115 -0.46661353
0.27083004 0.37102503 -0.46581441
0.2516838 0.39033136 -0.46501458
0.23252486 0.40964809 -0.46422672
0.21335408 0.4289791 -0.46342599
0.079174615 0.50448841 -0.46954775
-0.11307178 0.52516341 -0.46246439
-0.11203642 0.54222167 -0.47207141
-0.1120377 0.56135345 -0.47205913
-0.15344028 -0.55362982 -0.44652808
-0.13263391 -0.55086565 -0.45935267
-0.15344028 -0.53430426 -0.4465282
-0.13263248 -0.53163618 -0.45936501
0.17498888 -0.45460039 -0.46009427
0.3099438 -0.34013969 -0.45347869
0.38674986 -0.22424927 -0.45653057
0.40673214 -0.18626019 -0.44919825
0.42508006 -0.12793529 -0.45807862
0.44547457 0.045425665 -0.4480511
0.42480558 0.10278627 -0.46062547
0.42574996 0.12247535 -0.45186269
0.38647091 0.21818745 -0.4595505
0.36773142 0.25725615 -0.45381391
0.34890467 0.29650325 -0.44806361
0.11719913 0.48887721 -0.45187533
-0.15343718 0.52859312 -0.44655299
-0.13309576 0.52669626 -0.45535284
-0.15343873 0.54792118 -0.44654047
-0.13263248 0.54505837 -0.45936513
-0.15343873 0.56724668 -0.44654059
-0.13263248 0.56428492 -0.45936513
-0.17446305 -0.55642527 -0.43355858
-0.17446138 -0.53699732 -0.43357122
0.020177603 -0.53550649 -0.44074404
-0.057198435 -0.51589042 -0.44197321
0.15576781 -0.4773871 -0.44079423
0.23311678 -0.41859773 -0.44500327
0.32982725 -0.32195473 -0.44465303
0.34985143 -0.30364108 -0.43576503
0.38825339 -0.24500126 -0.44025469
0.4083693 -0.20682448 -0.43283904
0.42683065 -0.14804709 -0.44183528
0.44723833 -0.090241216 -0.43277586
0.44685537 -0.070733219 -0.43609262
0.44649518 0.065011539 -0.43921232
0.42669964 0.14230245 -0.44305098
0.42765599 0.16226953 -0.43417656
0.40746522 0.20045906 -0.44187284
0.38863903 0.23976147 -0.43607998
0.15576781 0.47304267 -0.43394971
-0.17445974 0.53138864 -0.43358386
-0.17446138 0.55081648 -0.4335711
-0.19570242 -0.55924708 -0.42046714
-0.19570242 -0.53972089 -0.42046702
0.11673342 -0.50044554 -0.42162693
0.21423069 -0.44124338 -0.42546856
0.29207176 -0.38248345 -0.42749906
0.31209862 -0.36426005 -0.41848898
0.37001663 -0.28519604 -0.42682672
0.39032656 -0.26662102 -0.41781199
0.41002792 -0.22765884 -0.41626477
0.4286055 -0.16842288 -0.42536676
0.44896036 -0.12979269 -0.41786313
0.44762385 -0.10980102 -0.42943776
0.447523 0.08473599 -0.43031096
0.44855958 0.10460101 -0.42133379
0.42875886 0.18247789 -0.42394328
0.40984625 0.22201824 -0.41808021
0.36972803 0.27924824 -0.43023491
0.35097116 0.31932995 -0.42121911
0.33150646 0.33896157 -0.42041612
0.312031 0.35860944 -0.41958678
0.29254213 0.37826806 -0.41876996
0.27304128 0.39794144 -0.41793954
0.25352719 0.41762561 -0.41712165
0.19489244 0.45697981 -0.41576576
-0.19569887 0.53421038 -0.42049253
-0.19570063 0.55373907 -0.42047977
-0.21716331 -0.56209838 -0.40723884
-0.21716331 -0.54247046 -0.40723896
-0.07986407 -0.52305144 -0.40619481
0.19504853 -0.46424395 -0.40562737
0.27341008 -0.40465662 -0.40995467
0.33226776 -0.3459045 -0.40942752
0.43040234 -0.18906647 -0.40869415
0.45089853 -0.15024334 -0.40107799
0.87986517 -0.05165603 -0.41474152
0.87986517 -0.032085881 -0.41474152
0.87986517 -0.012515731 -0.4147414
0.87986517 0.0070545524 -0.41474152
0.87986517 0.026624613 -0.41474152
0.46967703 0.046342243 -0.40835941
0.44960207 0.12460693 -0.41230536
0.45065355 0.14475667 -0.40319955
0.39084828 0.26174483 -0.41216421
0.3717615 0.30165696 -0.40622056
-0.21716143 0.53706431 -0.40725183
-0.21716331 0.55669492 -0.40723908
-0.2388512 -0.5649823 -0.39385927
-0.23884918 -0.54524857 -0.39387226
0.25457615 -0.42751074 -0.38986886
0.35258242 -0.32741907 -0.40028811
0.37304336 -0.30880046 -0.39108288
0.41170985 -0.24876979 -0.39945865
0.43222302 -0.20998374 -0.39180028
0.47199798 -0.11133755 -0.38951612
0.47157371 -0.09146715 -0.39296043
0.47115219 -0.071650252 -0.39638269
0.47080046 0.066242538 -0.39923835
0.47193199 0.086285658 -0.3900516
0.45171106 0.16505021 -0.3940413
0.43135995 0.20402107 -0.39980853
0.41227412 0.2439906 -0.39382005
0.39309984 0.28414923 -0.38779032
0.23458511 0.44068372 -0.39731777
-0.23884718 0.5399453 -0.39388525
-0.23884918 0.55967903 -0.39387214
-0.26076579 -0.5678938 -0.38035131
-0.26076579 -0.54805893 -0.38035142
-0.26194972 -0.52968973 -0.37302792
0.31484616 -0.39032671 -0.37387466
0.33477768 -0.37053549 -0.37319994
0.39365095 -0.29004607 -0.38182414
0.41440916 -0.27115697 -0.3724854
0.4340694 -0.2311812 -0.37466788
0.45286095 -0.1709654 -0.38408291
0.47362345 -0.13171153 -0.37631881
0.4730733 0.10647379 -0.38078547
0.47422123 0.1268076 -0.37146556
0.4531855 0.18576273 -0.38127208
0.43401104 0.22597843 -0.37520957
0.37462041 0.3257111 -0.3724587
0.35478997 0.34572425 -0.37161124
0.33494651 0.36575052 -0.37076318
0.13595645 0.50257975 -0.38341343
-0.26076365 0.54285961 -0.38036442
-0.26076365 0.56269443 -0.38036442
-0.28291255 -0.55089617 -0.36670041
-0.28291255 -0.53095621 -0.36670053
-0.24280746 -0.53066355 -0.36816239
-0.22359307 -0.53164119 -0.36327827
-0.20430599 -0.53262222 -0.35837615
-0.10318257 -0.53041643 -0.36939704
0.07600569 -0.53096944 -0.36663401
0.23544282 -0.45072827 -0.36946344
0.35539141 -0.35187581 -0.36379838
0.43594062 -0.25266385 -0.35730493
0.45484966 -0.19196481 -0.36685991
0.4757576 -0.15251121 -0.35899162
0.49465764 0.047288403 -0.36739171
0.49589008 0.067513108 -0.35797453
0.47537911 0.14728996 -0.3620646
0.4560675 0.20770413 -0.35631335
0.41474873 0.26638672 -0.36909175
0.39539492 0.30698723 -0.36294508
0.31509 0.38578981 -0.36991441
0.29522124 0.4058446 -0.36905193
0.27533856 0.42591041 -0.36820209
0.17572483 0.4864099 -0.36449111
-0.28291255 0.52586484 -0.36670041
-0.26384503 0.52698654 -0.36130357
-0.084359303 0.52777034 -0.35753262
-0.063699692 0.52617729 -0.36519694
-0.28291035 0.54580188 -0.36671376
-0.30529529 -0.55376375 -0.35290408
-0.30529767 -0.53372025 -0.35289073
-0.18494587 -0.53360718 -0.35345507
-0.16551231 -0.53459591 -0.34851539
-0.14600484 -0.53558826 -0.343557
0.17586444 -0.49483487 -0.34635592
0.21600285 -0.4743177 -0.34873116
0.29607254 -0.41338634 -0.3532536
0.37615567 -0.33307984 -0.35432804
0.3970722 -0.31414616 -0.34478819
0.45686674 -0.21324837 -0.34939146
0.47792226 -0.17359293 -0.34141648
0.49715441 -0.11292352 -0.34831309
0.49668908 -0.092732474 -0.35186887
0.49622679 -0.072596729 -0.3554014
0.91722947 -0.052592643 -0.35391164
0.91723341 -0.032554232 -0.35389817
0.91723341 -0.012515686 -0.35389829
0.91723341 0.0075228587 -0.35389817
0.91723341 0.027561449 -0.35389817
0.49713147 0.08788538 -0.34848845
0.47654378 0.16792077 -0.35260844
0.43671507 0.24836394 -0.35011911
0.41727161 0.28921944 -0.34388173
0.21608236 0.47000057 -0.3452884
-0.30529529 0.52873236 -0.35290408
-0.24538644 0.5290426 -0.35141146
-0.22678865 0.53111714 -0.34143007
-0.1260487 0.53098756 -0.34205353
-0.10514279 0.52937567 -0.34980941
-0.30529529 0.54877853 -0.35290408
-0.32792026 -0.53651106 -0.33894634
-0.12642308 -0.5365845 -0.33857954
-0.32792026 -0.51635736 -0.33894658
-0.30964535 -0.5183996 -0.32833517
0.2769987 -0.43682373 -0.33225954
0.35828173 -0.37704071 -0.32625198
0.41814262 -0.29507327 -0.33517826
0.43936718 -0.2758579 -0.32551098
0.45891124 -0.2348209 -0.33168602
0.49910527 -0.13369367 -0.33340585
0.49838376 0.1084076 -0.3389194
0.49964345 0.12908018 -0.32929337
0.47844917 0.18916011 -0.33713841
0.45900589 0.23007476 -0.33086634
0.2570422 0.45334652 -0.32579923
-0.32955706 0.51325291 -0.33008671
-0.32791775 0.53163052 -0.33895993
-0.20804779 0.53320777 -0.33137167
-0.16823925 0.53424633 -0.32637537
-0.14708091 0.53261203 -0.33423781
-0.32791775 0.55178416 -0.33896005
-0.35078639 -0.53933203 -0.32485211
-0.3739028 -0.52181429 -0.31059134
-0.35078639 -0.51906979 -0.32485211
-0.29177654 -0.52108884 -0.31436133
-0.3739028 -0.50144249 -0.31059122
0.25761527 -0.46064448 -0.31091046
0.33877268 -0.39885926 -0.31553721
0.37935847 -0.35806498 -0.31650484
0.46098363 -0.25668833 -0.31373823
0.48011476 -0.19496086 -0.32361579
0.5014509 -0.15485579 -0.3154819
0.52211505 -0.073573582 -0.31310117
0.52045447 0.048265394 -0.32508552
0.52180243 0.068825305 -0.31535733
0.50091243 0.14990535 -0.31959641
0.48163009 0.21151459 -0.31131291
0.4394722 0.27118862 -0.3245362
0.41984415 0.31250131 -0.31817555
0.39919698 0.3323423 -0.32178652
0.37898585 0.35275024 -0.32090545
0.35876119 0.37317172 -0.32002366
0.33852297 0.39360696 -0.31914151
0.31827205 0.41405791 -0.3182447
-0.3739028 0.49678293 -0.31059122
-0.3739028 0.51715487 -0.31059122
-0.35078639 0.51430076 -0.32485211
-0.31112909 0.51528096 -0.31995475
-0.37390006 0.53752398 -0.31060505
-0.35078639 0.53456289 -0.32485211
-0.18916045 0.53531158 -0.32124972
-0.39726824 -0.52458602 -0.29618907
-0.27371675 -0.52380687 -0.30023801
-0.39726824 -0.50410324 -0.29618907
-0.35384631 -0.50174528 -0.30895245
0.400592 -0.33894801 -0.30668521
0.42198402 -0.3196882 -0.29679239
0.48233902 -0.21662268 -0.30555725
0.50382698 -0.17630824 -0.29732502
0.52313143 -0.11456121 -0.30576611
0.52262259 -0.094038978 -0.30943871
0.5231604 0.089537807 -0.30555713
0.5245285 0.11040451 -0.29568386
0.50219268 0.17088565 -0.30981374
0.46200395 0.25288898 -0.30490208
0.44228399 0.29446587 -0.29844618
0.29861718 0.43643939 -0.30603075
-0.39726824 0.49955454 -0.29618907
-0.39726824 0.52003759 -0.29618907
-0.29256082 0.51732731 -0.30973041
-0.27384794 0.51938957 -0.29942644
-0.25540632 -0.52648324 -0.2863307
-0.23561199 -0.52748901 -0.28110433
-0.029160693 -0.5262059 -0.28777182
0.13522215 -0.52615708 -0.28802586
-0.42088926 -0.5067932 -0.28162944
-0.33608174 -0.50436515 -0.29477131
-0.31812584 -0.50701344 -0.28043723
-0.42088926 -0.48619834 -0.28162944
-0.39870387 -0.48484334 -0.28928185
0.31976783 -0.42251575 -0.29395628
0.4435364 -0.30028424 -0.2868253
0.48459399 -0.23858362 -0.28724921
0.52545077 -0.13574332 -0.28902793
0.95643002 -0.033045486 -0.29008555
0.95643431 -0.012515642 -0.29007149
0.95643431 0.0080142003 -0.29007137
0.54710817 0.049274918 -0.28137386
0.52590877 0.13142794 -0.28572261
0.50459373 0.19267607 -0.29146612
0.48487431 0.23431411 -0.28497303
-0.42089236 0.48176444 -0.28161514
-0.39886516 0.48049149 -0.28850579
-0.42089236 0.50235951 -0.28161502
-0.35645652 0.4997085 -0.29538906
0.1968118 0.50053418 -0.29109991
-0.2549867 0.52146518 -0.28905606
-0.21573614 -0.5284934 -0.27588618
-0.19578259 -0.5295015 -0.27064741
-0.1757509 -0.53051364 -0.26538825
-0.29997563 -0.5096904 -0.26594794
-0.44477355 -0.48880705 -0.26689506
-0.38104868 -0.4873918 -0.27488852
0.23861568 -0.48889092 -0.26642156
-0.44477355 -0.46809882 -0.26689494
-0.4235 -0.46765471 -0.26951706
0.30045146 -0.44656658 -0.27199113
0.38272685 -0.38390321 -0.27672637
0.40421602 -0.36448398 -0.26745415
0.46524918 -0.28073287 -0.27679753
0.48712742 -0.26103544 -0.26667976
0.50623602 -0.19805765 -0.27891707
0.52801746 -0.15727946 -0.27050436
0.54941481 -0.095388733 -0.26560366
0.54886121 -0.074583024 -0.26938832
0.54857874 0.070181333 -0.27131927
0.52729744 0.15260863 -0.27570081
0.5286985 0.17394969 -0.26558924
0.4650619 0.27615875 -0.27841949
0.44535238 0.31843814 -0.26997495
0.42475802 0.33924067 -0.26907337
0.4041498 0.36005729 -0.26817071
0.38352901 0.38088998 -0.2672534
0.36289519 0.40173909 -0.26632106
0.34224612 0.42260042 -0.26540256
-0.44477355 0.46377563 -0.26689494
-0.38160568 0.4835214 -0.27210546
-0.44477355 0.48448405 -0.26689494
0.23848072 0.48376164 -0.27080476
-0.33898449 0.50285137 -0.27905917
-0.23597975 0.52355987 -0.2785902
-0.21682306 0.52567106 -0.26804197
-0.15564068 -0.53152978 -0.26010847
-0.13545133 -0.53254992 -0.25480771
-0.28162777 -0.5123964 -0.25130117
-0.36320192 -0.48996782 -0.26033902
-0.46891892 -0.47061929 -0.25201201
-0.40664321 -0.47077653 -0.25108349
-0.46891892 -0.44979641 -0.2520119
-0.44720387 -0.44915038 -0.25600839
0.36380488 -0.40778622 -0.25450385
0.42593962 -0.34503481 -0.25726581
0.50868046 -0.22011137 -0.26023829
0.53062004 -0.1791167 -0.25172198
0.54996991 -0.11625312 -0.26180828
0.55006051 0.091245539 -0.26118898
0.55155337 0.11246914 -0.25098205
0.50809288 0.21545935 -0.26472771
0.4881838 0.25757223 -0.25810325
0.46817982 0.29989639 -0.25141728
-0.46891892 0.44558799 -0.25201201
-0.46891892 0.46641079 -0.2520119
-0.42444879 0.46409076 -0.26511538
-0.36413276 0.48658884 -0.25550222
-0.32129169 0.50602728 -0.26255655
-0.197513 0.52779609 -0.25742459
-0.01032114 0.52727348 -0.26003635
-0.031655282 0.52892888 -0.25176537
-0.1151825 -0.53357404 -0.24948633
-0.094833717 -0.53460222 -0.24414396
-0.074404404 -0.53563434 -0.23878026
-0.052805483 -0.53394902 -0.24753809
-0.26307917 -0.51513207 -0.23649406
-0.34516048 -0.49257192 -0.24563098
0.28081375 -0.47101754 -0.24966073
-0.49333298 -0.45222908 -0.23696339
-0.43042517 -0.45216045 -0.23738849
-0.49333298 -0.43129045 -0.23696339
-0.47114718 -0.43045896 -0.24236333
0.44782847 -0.32543781 -0.24699974
0.4698844 -0.30569121 -0.23665535
0.51115924 -0.24247491 -0.24129665
0.55270082 -0.13786298 -0.24313712
0.57466221 0.050318412 -0.23618591
0.55305976 0.13385499 -0.2406826
0.53166401 0.19631559 -0.24418771
0.51166111 0.23870307 -0.23746169
-0.49333298 0.42719766 -0.23696339
-0.49333298 0.44813642 -0.23696339
-0.45027941 0.44724417 -0.24223185
-0.40719575 0.46704578 -0.24842548
0.28078961 0.46673447 -0.2501837
-0.3464424 0.48969439 -0.23869264
-0.30338192 0.50924546 -0.24583471
-0.17805164 0.5299409 -0.24670839
-0.15843518 0.53210276 -0.23590708
-0.053124055 0.53060311 -0.24339986
-0.24432637 -0.51789773 -0.221524
-0.32692116 -0.49520466 -0.23076141
-0.38955355 -0.47394148 -0.23239541
-0.51802021 -0.43363324 -0.22174633
-0.45444572 -0.43335271 -0.22356892
0.34456652 -0.43206844 -0.23190975
-0.51802021 -0.41257739 -0.22174644
-0.49533015 -0.4115757 -0.22859442
-0.5181883 -0.39161599 -0.22106409
0.49210751 -0.28579172 -0.2262466
0.5332613 -0.2012625 -0.23266017
0.55550659 -0.15978792 -0.22395384
0.57710916 -0.096784018 -0.22029245
0.57650673 -0.075626515 -0.22420549
0.57626301 0.071583338 -0.22578824
0.55457556 0.15540326 -0.23031938
0.49156231 0.28130445 -0.23067296
-0.51822484 0.38766748 -0.22091568
-0.49545693 0.40762925 -0.22806323
-0.51802021 0.40860185 -0.22174633
-0.51802021 0.42965773 -0.22174644
-0.47281104 0.42748952 -0.23515856
-0.43324113 0.45027706 -0.22432387
0.32375312 0.44944385 -0.22924328
-0.38972735 0.47003776 -0.23152721
-0.32853049 0.49283907 -0.22167206
-0.2843371 0.51141876 -0.23454177
-0.26505768 0.51351619 -0.22364295
-0.13866012 0.53427899 -0.225034
-0.096462414 0.53398317 -0.22651255
-0.074726015 0.5322879 -0.23498237
-0.22536604 -0.52069414 -0.20638824
-0.30848074 -0.49786648 -0.21572793
-0.37222624 -0.47715044 -0.21344745
-0.41341347 -0.45521227 -0.21851015
0.32500565 -0.45676503 -0.20890498
-0.54298902 -0.41483018 -0.20634317
-0.47871512 -0.41435489 -0.20959318
-0.54298902 -0.39365581 -0.20634305
0.4091664 -0.3926135 -0.21386516
-0.54298902 -0.37248138 -0.20634305
0.43001455 -0.37114596 -0.21654677
0.45225048 -0.35135314 -0.20596814
0.51450336 -0.26574081 -0.21574271
0.53594005 -0.22372252 -0.21332812
0.57789218 -0.1180468 -0.21520662
0.57787609 0.093011253 -0.21531081
0.55610508 0.17711771 -0.21986198
0.53550231 0.21954435 -0.21648729
0.51530617 0.26242542 -0.2096082
0.47236627 0.32518923 -0.21516192
0.45136088 0.34641874 -0.21422291
-0.54299283 0.36862651 -0.20632815
0.43034112 0.36766273 -0.2132833
-0.5429852 0.38979658 -0.20635808
0.40930837 0.38892344 -0.2123282
-0.54298139 0.41096872 -0.2063731
-0.47907466 0.41071254 -0.20803642
0.38826215 0.41020119 -0.21135736
-0.45630258 0.43070763 -0.21525121
0.36738658 0.43188372 -0.2079767
-0.41578037 0.45319024 -0.20712256
-0.37203968 0.47306713 -0.21441674
-0.24562334 0.5156306 -0.21265662
-0.11833452 0.53568906 -0.2179898
-0.20619474 -0.52352172 -0.19108391
0.19814512 -0.52104342 -0.20449758
-0.28983569 -0.50055766 -0.20052767
-0.3545835 -0.48033774 -0.1946274
-0.39616096 -0.45830432 -0.1993829
-0.4375146 -0.43628892 -0.20449746
-0.46186703 -0.417173 -0.19032562
0.39002126 -0.41713536 -0.19058347
-0.50216448 -0.394541 -0.19995534
-0.56824064 -0.37451997 -0.19076526
-0.5234772 -0.3733646 -0.19959366
-0.56824064 -0.3532255 -0.1907655
-0.54479545 -0.35218278 -0.1992321
-0.56823272 -0.33192766 -0.19079578
0.47465885 -0.33140668 -0.19530761
0.53865707 -0.24650359 -0.19371963
0.55835009 -0.182024 -0.20451248
0.58090699 -0.14005747 -0.19562495
0.57950163 0.11460457 -0.20475268
0.5811398 0.13636455 -0.1941129
0.55971414 0.20008773 -0.19518661
0.49501026 0.30552405 -0.2026794
-0.56824064 0.3281942 -0.19076526
-0.56824064 0.34948859 -0.19076526
-0.56823272 0.37077859 -0.19079578
-0.52498013 0.37040499 -0.19349241
-0.50196683 0.39061189 -0.20078361
-0.4395541 0.4339757 -0.19503558
-0.35412854 0.47613493 -0.19709003
-0.3103928 0.49602321 -0.20443738
0.26219529 0.49833623 -0.19191742
-0.22603001 0.51775908 -0.20159662
-0.2062801 0.51990771 -0.19043183
-0.18665789 -0.52615416 -0.17683446
-0.2709828 -0.50327897 -0.18515801
-0.33605182 -0.48295197 -0.17919147
0.30533183 -0.48257411 -0.18142247
-0.37866873 -0.4614425 -0.1799711
-0.4203456 -0.43926641 -0.18515801
-0.48589152 -0.3975113 -0.17851853
-0.50736779 -0.37617067 -0.17815125
-0.52884978 -0.35482442 -0.17778385
-0.55033743 -0.33347261 -0.17741644
-0.57183075 -0.31211513 -0.17704892
0.4972415 -0.31130517 -0.18456423
0.56123662 -0.2045798 -0.18477738
0.58396274 -0.16238391 -0.17577708
0.60509759 -0.076705724 -0.17747772
0.60316294 0.05139789 -0.18944538
0.60490215 0.073033653 -0.17868662
0.58279294 0.15829426 -0.18337524
0.53941977 0.24325228 -0.18821537
0.5190267 0.28663865 -0.18117809
-0.5718708 0.30850136 -0.17689574
-0.54712743 0.34958196 -0.19005251
-0.48546779 0.3936002 -0.18035316
-0.46245009 0.41384137 -0.18771386
-0.39809829 0.45614025 -0.18970335
-0.33598959 0.47924167 -0.17954314
-0.29202521 0.4992477 -0.18698406
-0.18636949 0.52207386 -0.17917621
-0.16590856 -0.5271979 -0.17118573
-0.14507474 -0.52824563 -0.16551399
-0.25191855 -0.5060308 -0.16961598
-0.31730926 -0.48559287 -0.16359758
-0.36092848 -0.46462491 -0.16028428
-0.4029336 -0.44228598 -0.16554499
0.37054837 -0.44207692 -0.16690314
-0.44478101 -0.42003098 -0.17078578
0.45680857 -0.37806511 -0.16367507
-0.59377581 -0.33374864 -0.1750257
-0.5937717 -0.31233153 -0.17504096
-0.59376758 -0.29091451 -0.17505634
0.51999855 -0.2910451 -0.17375195
-0.59624702 -0.27034932 -0.16585374
0.54293591 -0.27062774 -0.16283977
0.56416482 -0.22746152 -0.16475701
0.60683948 -0.11991366 -0.16670263
0.60575199 -0.098226987 -0.17342949
0.60665494 0.094838277 -0.16784394
0.58445662 0.1803942 -0.17256916
0.56391412 0.2237795 -0.16647124
-0.59685063 0.26702818 -0.1636132
-0.5937717 0.28730002 -0.17504096
-0.59377581 0.30871728 -0.1750257
-0.5937717 0.33013096 -0.17504096
-0.55161166 0.3304562 -0.17240024
-0.53128308 0.35248008 -0.16790581
-0.50860453 0.37324888 -0.17296898
-0.44557792 0.41701704 -0.16708839
-0.42255682 0.43729237 -0.17451942
-0.38019377 0.45913047 -0.17204678
-0.31761855 0.48238823 -0.16177166
0.30594316 0.48091748 -0.17007792
-0.27342314 0.50251341 -0.16930795
-0.16629441 0.5242548 -0.16784394
-0.12415431 -0.52929503 -0.15983462
-0.10314862 -0.5303486 -0.15413213
-0.082057089 -0.53140634 -0.14840651
-0.23263921 -0.50881356 -0.15389872
-0.29835767 -0.48826614 -0.14781225
-0.3852734 -0.44534865 -0.14565229
-0.42745185 -0.4229295 -0.15096807
-0.46936351 -0.40052828 -0.15674543
0.43687588 -0.40174225 -0.14798427
-0.4910059 -0.37902084 -0.15637255
-0.51265413 -0.35750768 -0.1559993
0.47958064 -0.35791606 -0.15268338
-0.53430802 -0.33598876 -0.15562618
-0.55596775 -0.31446412 -0.15525281
-0.61960316 -0.29251081 -0.15910566
-0.57734412 -0.29282323 -0.15598369
-0.61959887 -0.2709713 -0.15912116
-0.61959463 -0.24943206 -0.15913677
-0.59978288 -0.24997452 -0.15273023
-0.61959463 -0.22789422 -0.15913665
-0.62226945 -0.20702499 -0.14948463
0.58706516 -0.18503475 -0.15562606
0.61011589 -0.14232939 -0.14643538
0.6084215 0.11681386 -0.1569165
0.6102019 0.13896239 -0.14590263
-0.62286735 0.20377186 -0.14732742
-0.62022287 0.22459254 -0.15686977
-0.61959463 0.24593842 -0.15913677
-0.60169417 0.24718541 -0.14563644
-0.61959887 0.26747784 -0.15912116
0.54342109 0.26745614 -0.15933836
-0.61960316 0.28901753 -0.15910566
-0.57653111 0.28901908 -0.15909016
-0.55614954 0.31108305 -0.15453696
0.52282506 0.31135833 -0.15215349
-0.53569776 0.33321714 -0.14998448
0.50050521 0.33222175 -0.1580658
-0.51518315 0.35542512 -0.14540172
0.47907215 0.35389581 -0.15708745
-0.49198747 0.3761375 -0.15212214
0.45762402 0.37558523 -0.15610802
-0.46872234 0.39663303 -0.15961742
0.43616247 0.39729178 -0.15511274
-0.42845255 0.42024001 -0.14615345
0.4146871 0.41901636 -0.15410101
-0.40530509 0.44065854 -0.15369618
-0.36205643 0.4621565 -0.15417898
0.35038865 0.46322402 -0.14787483
-0.25457984 0.50581813 -0.15142059
-0.14605658 0.52645648 -0.15640366
-0.060879245 -0.53246856 -0.14265728
-0.039614469 -0.53353512 -0.13688445
-0.01826328 -0.53460902 -0.13107204
-0.21314327 -0.51163071 -0.13798726
-0.27919054 -0.49096993 -0.13184726
-0.34293485 -0.46785295 -0.14031637
0.35074252 -0.46745673 -0.14276707
-0.40987444 -0.42586967 -0.13086629
-0.45222753 -0.40336978 -0.13623798
-0.4743855 -0.38191593 -0.13424957
-0.49620253 -0.36023316 -0.1338706
-0.51802534 -0.33854458 -0.13349152
0.50253266 -0.33760777 -0.14160502
-0.53985399 -0.31685024 -0.13311231
0.52566677 -0.3171384 -0.1304388
-0.5616886 -0.29515004 -0.13273287
-0.58080339 -0.27248192 -0.14276719
0.56713563 -0.25067601 -0.14444566
-0.64572346 -0.22913492 -0.14301825
-0.60334784 -0.22940597 -0.13949847
0.59021294 -0.20801601 -0.13518119
-0.64572346 -0.20747304 -0.14301825
-0.64572346 -0.1858111 -0.14301825
-0.62594491 -0.18622959 -0.13622236
-0.64572346 -0.16414911 -0.14301813
-0.64578605 -0.14249736 -0.14279854
-0.64731789 -0.12104073 -0.1374203
-0.64885563 -0.099502034 -0.13202131
0.63265997 0.052515149 -0.14107084
-0.6487295 0.11794335 -0.13246405
-0.64598727 0.13916773 -0.14209187
-0.64572346 0.16077974 -0.14301825
0.61199892 0.16128662 -0.13478649
-0.64572346 0.18244171 -0.14301825
-0.62552553 0.18280753 -0.13773525
-0.64572346 0.20410356 -0.14301825
0.5887962 0.20399848 -0.14438295
-0.64572787 0.22576684 -0.14300251
-0.60500467 0.22658435 -0.13334918
-0.64572787 0.2474288 -0.14300251
0.56820232 0.24796918 -0.13715231
-0.58125556 0.26928738 -0.14103937
-0.56074601 0.29145983 -0.13644314
-0.54017341 0.31370682 -0.13181579
-0.47511965 0.37906954 -0.1309613
-0.45172149 0.39970914 -0.13858557
-0.38779628 0.44407806 -0.13254309
-0.34368485 0.46522158 -0.13608015
-0.29901338 0.48557788 -0.14375556
-0.23549317 0.50916564 -0.13330185
-0.125652 0.52867627 -0.14486885
-0.10507722 0.53091139 -0.13325453
0.0031769574 -0.53568435 -0.12525153
-0.19342284 -0.51447719 -0.12191021
0.26513386 -0.51559937 -0.11557198
-0.25980675 -0.49370724 -0.11568403
-0.32468247 -0.47112733 -0.12006116
-0.36735976 -0.4484553 -0.1254741
0.41750783 -0.4269374 -0.12356591
-0.4347356 -0.40618464 -0.11592388
0.54898512 -0.29650596 -0.11918366
-0.56510216 -0.27465031 -0.11929536
-0.58429128 -0.25194657 -0.1294409
-0.58781654 -0.23121694 -0.11597192
-0.606951 -0.20864341 -0.12612534
-0.67215037 -0.1650269 -0.12672877
-0.62926275 -0.16516054 -0.12424994
0.61344022 -0.16507319 -0.12587118
-0.67215502 -0.14324039 -0.12671292
-0.63077289 -0.1436058 -0.11880052
-0.67215502 -0.12145284 -0.12671292
0.63682663 -0.12184729 -0.1164676
-0.67215502 -0.09966547 -0.12671292
0.6353929 -0.099720277 -0.12493372
-0.67215502 -0.077878103 -0.12671292
-0.65039927 -0.077880614 -0.1266017
0.63468319 -0.077822357 -0.12912393
-0.67215502 -0.056090556 -0.12671292
-0.65194887 -0.056176107 -0.12116134
-0.67215037 -0.03430301 -0.12672889
-0.65350437 -0.034387931 -0.11570001
-0.67215037 -0.012515642 -0.12672889
-0.65322191 -0.012515642 -0.11669159
-0.67215502 0.0092718154 -0.12671292
-0.65263486 0.009333076 -0.1187526
-0.67215502 0.031059228 -0.12671292
-0.65204424 0.031149842 -0.12082648
-0.67215502 0.052846596 -0.12671292
-0.65145427 0.052934743 -0.12289751
-0.67215502 0.074634008 -0.1267128
-0.65086532 0.074687965 -0.12496543
0.6345464 0.074535012 -0.12993205
-0.67215502 0.09642151 -0.12671292
-0.6502772 0.096409187 -0.12703025
0.63644779 0.096729696 -0.11870468
-0.67215502 0.11820897 -0.12671292
-0.67215502 0.13999638 -0.1267128
-0.63090122 0.14044783 -0.11833739
-0.67215502 0.16178387 -0.12671292
-0.62820637 0.16170079 -0.12806177
0.61407536 0.18390185 -0.12194216
-0.60761487 0.20559371 -0.12366152
-0.58603722 0.24929783 -0.12277019
-0.56540227 0.27158174 -0.11811388
0.54750675 0.29217011 -0.12985277
-0.51952934 0.33602479 -0.12718904
-0.49864477 0.35831806 -0.12329543
-0.43446642 0.40283433 -0.11721909
-0.4110682 0.42351198 -0.12490189
0.39554805 0.44524664 -0.12531507
-0.32507443 0.46832657 -0.11774635
-0.28016442 0.4888064 -0.12552178
-0.2154934 0.51161778 -0.12002921
-0.084331781 0.53316522 -0.12154377
-0.019019991 0.53369617 -0.11878455
0.0033215731 0.53193521 -0.12793481
-0.17347611 -0.5173564 -0.10564888
-0.34918708 -0.4516069 -0.10500407
-0.39204341 -0.42885226 -0.11047447
-0.45750052 -0.38485712 -0.11177456
0.48519605 -0.38586766 -0.10405266
-0.47948891 -0.36300215 -0.11138952
-0.50148326 -0.34114119 -0.11100435
-0.52348357 -0.3192744 -0.11061895
-0.54548985 -0.29740161 -0.11023355
0.57248747 -0.2757071 -0.10785449
-0.56854433 -0.25395304 -0.10574543
0.59340692 -0.23133531 -0.11443532
-0.59137553 -0.21028897 -0.10237408
-0.61058414 -0.18768197 -0.11264062
0.61681616 -0.18815324 -0.10498786
-0.63228893 -0.12196802 -0.11333001
-0.63381082 -0.10024662 -0.10783851
-0.6353386 -0.078441195 -0.10232568
-0.63582677 0.075439274 -0.10056412
-0.63524461 0.097347192 -0.10266471
-0.63361913 0.11904883 -0.10852993
0.63836437 0.11910158 -0.10738778
-0.61289811 0.1631794 -0.10405254
-0.61024737 0.1844596 -0.11389101
-0.58952868 0.22860971 -0.10943031
0.59338224 0.22817227 -0.11459565
0.57258165 0.27267268 -0.10721076
-0.54470336 0.29394051 -0.11342609
-0.52393603 0.31637326 -0.10872304
-0.5030961 0.33887836 -0.10402036
-0.48165298 0.36114493 -0.10169554
-0.45799536 0.38204637 -0.10947835
-0.39341897 0.42683372 -0.10332656
-0.37001824 0.44754714 -0.11108458
-0.26106954 0.49207696 -0.10704994
-0.19511046 0.51380169 -0.10820842
0.28734568 0.51379585 -0.10824049
-0.063414767 0.53544074 -0.10971951
-0.041506544 0.53546864 -0.10957479
-0.15329929 -0.52026874 -0.089199543
-0.24019758 -0.49647343 -0.099350691
-0.30616564 -0.47444922 -0.099512577
0.39780149 -0.45257699 -0.098703265
-0.3739531 -0.43187806 -0.089786291
-0.41698992 -0.4090403 -0.095315218
-0.44034773 -0.38784781 -0.088922381
-0.46251047 -0.36581752 -0.088531256
0.50799042 -0.36473826 -0.097293854
-0.48467922 -0.34378135 -0.088139772
0.53151202 -0.34405479 -0.085772634
-0.506854 -0.32173923 -0.08774817
-0.52903485 -0.29969099 -0.087356567
-0.54913282 -0.27685344 -0.095444918
0.59664828 -0.25499994 -0.093382597
-0.57202363 -0.23305857 -0.092049122
-0.5949645 -0.18915859 -0.08866179
-0.61400795 -0.1664708 -0.099933386
-0.61550152 -0.14473328 -0.094389677
0.64038694 -0.14468455 -0.095445037
-0.617001 -0.12291122 -0.08882463
-0.63687223 -0.056551289 -0.096791267
-0.638412 -0.034576241 -0.091235518
-0.63815939 -0.012515642 -0.092146635
-0.63757384 0.0095215645 -0.094259858
-0.63698912 0.031526417 -0.096369624
-0.63640976 0.053499177 -0.098460436
0.66320652 0.053671978 -0.090975165
-0.6155628 0.1417504 -0.094162464
0.64029628 0.14165244 -0.095980525
-0.5947085 0.18613973 -0.089639544
-0.59210753 0.20744762 -0.099577308
0.61896831 0.20805588 -0.091674924
-0.57378417 0.23066834 -0.08511889
-0.57012355 0.25144491 -0.09952879
-0.54929274 0.27391514 -0.094795585
-0.52839673 0.29646176 -0.09003067
0.55170405 0.31743112 -0.099561095
-0.50742728 0.31908175 -0.085266113
0.52984107 0.33955321 -0.098541141
0.50796247 0.36169109 -0.097520709
-0.4406088 0.38506866 -0.087666512
0.48606825 0.38384476 -0.096499324
-0.41694772 0.4060072 -0.095526218
0.46416181 0.406019 -0.095444918
0.44223768 0.42820719 -0.094406009
-0.35162193 0.45075324 -0.09125185
-0.30622059 0.47147217 -0.099172592
-0.24172391 0.49539044 -0.088335276
0.33263192 0.49596861 -0.085069776
-0.1745588 0.51600689 -0.096272469
-0.1328883 -0.523215 -0.072559595
-0.22036169 -0.49927154 -0.082828522
0.37774754 -0.47867313 -0.073383689
-0.28737867 -0.4778195 -0.078664064
-0.33074969 -0.45480427 -0.084235907
-0.39898491 -0.41193771 -0.074405193
0.46594912 -0.41132015 -0.078861237
0.555224 -0.32320383 -0.074158072
-0.5328967 -0.2790955 -0.071173906
-0.55253118 -0.2559934 -0.081649423
-0.57553232 -0.21196121 -0.078237057
0.62024224 -0.21157616 -0.083794355
-0.59848905 -0.16780385 -0.075195432
0.64399761 -0.16786161 -0.074125171
-0.61850619 -0.1010042 -0.083237767
0.66608489 -0.10126645 -0.074718118
-0.62001735 -0.079011582 -0.077629328
0.66531646 -0.078978598 -0.079058051
-0.62153441 -0.056933016 -0.071998835
-0.62167662 0.031909619 -0.071470857
-0.62109905 0.054072976 -0.073614478
-0.62052232 0.07620313 -0.075755
0.66524965 0.076089881 -0.079435587
-0.61994654 0.098300606 -0.077892303
-0.61825049 0.12017321 -0.084186912
-0.59732342 0.16468233 -0.079648972
0.64224654 0.16438577 -0.084465027
-0.5763343 0.20933339 -0.075080276
-0.55394262 0.25362578 -0.07591939
0.59806651 0.25286359 -0.084170461
-0.53291643 0.27628735 -0.071091175
0.57705736 0.29790819 -0.076610208
-0.4863916 0.34177917 -0.080469012
-0.46440017 0.36401489 -0.07976377
-0.39915925 0.40922877 -0.073498964
-0.37549579 0.430204 -0.081436276
-0.33276623 0.45381221 -0.072328687
-0.28711843 0.4746592 -0.080354333
-0.15383424 0.51823068 -0.084235907
-0.13293286 0.52047026 -0.072114229
-0.11202966 -0.52579415 -0.057992339
-0.20029508 -0.50210214 -0.066114426
-0.26800621 -0.48089752 -0.059623718
-0.31204182 -0.45804873 -0.063163161
-0.35559797 -0.43494835 -0.068795204
-0.42291397 -0.39088458 -0.065716863
-0.44525361 -0.36867657 -0.065319061
-0.46759945 -0.34646249 -0.064921379
-0.48995137 -0.3242422 -0.064523578
-0.51230943 -0.3020159 -0.064125419
0.57912856 -0.3021836 -0.062449336
-0.53624505 -0.25806862 -0.057142615
-0.55596244 -0.23493144 -0.067720175
0.62371969 -0.23535001 -0.062283158
-0.57907927 -0.19066054 -0.064274669
-0.59996951 -0.14588109 -0.069538832
-0.60145152 -0.12387145 -0.06387651
0.6679163 -0.12385228 -0.064374208
-0.60293937 -0.10177532 -0.058192372
-0.62306172 -0.034768 -0.066329718
-0.62283427 -0.012515642 -0.067174077
-0.62225497 0.0097135473 -0.069323897
0.66730922 0.098688968 -0.067802787
-0.60261256 0.12131614 -0.059440613
0.66938561 0.12147156 -0.056075454
-0.59996092 0.14307559 -0.069571853
-0.57889813 0.18784782 -0.064987659
0.6449703 0.18761262 -0.068381786
-0.55777252 0.23276383 -0.060372233
0.62396681 0.23273143 -0.060754538
-0.51181954 0.29902506 -0.066246867
-0.49064803 0.32183731 -0.061402917
-0.46940899 0.34472811 -0.056525946
-0.44688034 0.36692944 -0.057492614
-0.42295378 0.38813767 -0.065518022
-0.35730135 0.43363133 -0.059174418
-0.26776302 0.47788838 -0.061286569
0.37866214 0.47785184 -0.061502457
-0.22212033 0.4987447 -0.069390059
-0.11185588 0.52273178 -0.059873223
-0.090233326 -0.52688169 -0.051849842
-0.068344444 -0.52797383 -0.045681357
-0.17999373 -0.50496596 -0.049204588
-0.24805595 -0.48364344 -0.042637706
-0.2930575 -0.46134102 -0.041778922
-0.3369692 -0.43806142 -0.04751122
0.44635922 -0.43722627 -0.053220749
-0.38071483 -0.41487762 -0.05318749
-0.40519577 -0.39397091 -0.042132616
-0.42771524 -0.37158215 -0.041728497
-0.45024091 -0.34918725 -0.041324139
-0.47277284 -0.32678604 -0.040919662
-0.49531102 -0.30437866 -0.040515065
-0.51638281 -0.28137597 -0.046487212
0.60322553 -0.28099033 -0.050661802
-0.53962213 -0.23683506 -0.042991161
-0.55942297 -0.2136631 -0.053671956
0.64766532 -0.19138747 -0.052468657
-0.5826565 -0.16915122 -0.050192833
-0.58416122 -0.14704826 -0.044269562
0.67177379 -0.14712599 -0.042587161
-0.604433 -0.079592243 -0.052485466
-0.60593253 -0.057321507 -0.04675591
-0.60743803 -0.034962896 -0.041003823
-0.6072396 -0.012515686 -0.041762233
-0.60666698 0.0099088475 -0.043950081
-0.60609514 0.032299682 -0.04613483
-0.60552424 0.054657035 -0.04831624
-0.60495406 0.076980963 -0.050494313
-0.60438484 0.099271551 -0.052669287
-0.58408862 0.14442351 -0.044555426
0.67147893 0.14443982 -0.044252872
-0.58148426 0.16621205 -0.054807425
-0.56281769 0.18958655 -0.039891362
-0.56028825 0.21125185 -0.050159335
-0.53749615 0.25584453 -0.051900029
-0.51626652 0.2786991 -0.046990991
0.60285211 0.27808908 -0.053087115
-0.4949612 0.30162928 -0.042082191
-0.40502411 0.39125448 -0.043024898
-0.38109487 0.41250059 -0.051130414
-0.31365991 0.45691201 -0.053153992
-0.24814932 0.48116064 -0.041964054
-0.2022561 0.50214374 -0.050192952
-0.090599298 0.52501243 -0.04752779
-0.046362415 -0.52907062 -0.039486527
-0.024286613 -0.53017211 -0.033265352
-0.0021155626 -0.53127545 -0.027034521
-0.15945347 -0.50786346 -0.03209579
-0.22787042 -0.48642182 -0.025451183
0.42641872 -0.46360055 -0.02710247
-0.31806666 -0.44122311 -0.025893927
-0.36217082 -0.41785902 -0.031671882
0.51594347 -0.39520225 -0.032723069
0.53754508 -0.37183541 -0.039672136
0.5616641 -0.35076261 -0.027680755
-0.51967895 -0.26017958 -0.032214522
0.62752223 -0.25962514 -0.03876102
-0.5430364 -0.21539432 -0.028683901
0.65138853 -0.21526965 -0.0304842
-0.56292158 -0.19218802 -0.0394696
-0.5664503 -0.1705009 -0.025144815
-0.58562493 -0.12484786 -0.038507819
-0.58709443 -0.1025596 -0.032723069
-0.58856982 -0.080182709 -0.026915312
0.69705397 -0.080176435 -0.027187586
0.69485962 0.054870844 -0.039064527
