ply
format ascii 1.0
comment PCL generated
element vertex 1354
property float x
property float y
property float z
element camera 0
property float view_px
property float view_py
property float view_pz
property float x_axisx
property float x_axisy
property float x_axisz
property float y_axisx
property float y_axisy
property float y_axisz
property float z_axisx
property float z_axisy
property float z_axisz
property float focal
property float scalex
property float scaley
property float centerx
property float centery
property int viewportx
property int viewporty
property float k1
property float k2
end_header
0.15231301 0.033186939 -0.47616053
-0.088466451 0.053248458 -0.47597176
-0.068306312 0.053295568 -0.47903538
-0.048226606 0.053320657 -0.48065865
-0.028172102 0.053345442 -0.48226821
-0.0081423055 0.053370327 -0.4838872
0.011862565 0.053370327 -0.4838872
0.031879898 0.053345442 -0.48226821
0.051922191 0.053320505 -0.48064691
0.071989223 0.053295568 -0.47903538
0.092126504 0.053248074 -0.47594821
-0.39227578 -0.14910302 -0.45764041
-0.37037897 -0.14803568 -0.46919435
0.37399107 -0.14803895 -0.46915883
0.39580277 -0.1491085 -0.45758057
-0.37032348 -0.12788546 -0.4695738
0.37394178 -0.12789056 -0.46951443
-0.34994251 -0.10762282 -0.47149283
0.35357663 -0.10762817 -0.47142196
-0.32966879 -0.087430753 -0.47281802
0.3333126 -0.087435521 -0.47274721
-0.30956414 -0.067333259 -0.47293639
0.3132056 -0.067336135 -0.47288913
-0.31152034 -0.048100017 -0.45705408
-0.28983039 -0.047410049 -0.46985823
0.29344779 -0.047412477 -0.46981096
0.31503958 -0.048102476 -0.45700634
-0.27004877 -0.027439147 -0.46678478
0.27364334 -0.027441829 -0.46672529
-0.25022173 -0.0074216425 -0.46369207
0.25379205 -0.0074238926 -0.46363264
-0.23048128 0.012598775 -0.45914698
-0.20955372 0.012864999 -0.46779412
0.21315286 0.012864001 -0.46775872
0.23401411 0.01259765 -0.45911103
-0.18994814 0.032836899 -0.46099806
-0.16916884 0.033036217 -0.46963292
0.17278154 0.033035502 -0.46959752
0.19349469 0.032836031 -0.46096224
-0.1495816 0.053018987 -0.46106958
-0.12913282 0.053095691 -0.46604794
-0.108761 0.053172238 -0.47101939
0.11238311 0.053171854 -0.47099555
0.13271628 0.05309546 -0.46603608
0.15312749 0.053018678 -0.46104574
-0.089048296 0.073197871 -0.46085483
-0.068766654 0.073222712 -0.46408492
-0.048571713 0.073235296 -0.46571505
-0.028401889 0.07324785 -0.46734315
-0.0082570538 0.073260464 -0.46898085
0.011862565 0.073260464 -0.46898085
0.03199479 0.07324785 -0.46734315
0.052152082 0.073235296 -0.46571505
0.072334766 0.07322266 -0.46407324
0.092592001 0.073197648 -0.46083087
-0.41525283 -0.15068591 -0.44050479
0.41865036 -0.15069267 -0.44043195
-0.39343587 -0.12953401 -0.45010561
0.39691016 -0.12954223 -0.45000917
-0.37266827 -0.10900464 -0.45354247
0.37616491 -0.10901018 -0.45347035
-0.35224363 -0.088672973 -0.45488596
0.35575005 -0.08867798 -0.45481402
-0.33183986 -0.068362288 -0.4562279
0.33535609 -0.068366759 -0.45615613
-0.33404031 -0.049050592 -0.43941337
-0.31352586 -0.028640643 -0.44077128
-0.29166728 -0.028031953 -0.45395035
0.29516357 -0.02803459 -0.45389038
0.31692263 -0.028643996 -0.44069856
-0.27176854 -0.0079167262 -0.45082736
0.27524036 -0.0079190508 -0.45076722
-0.25182244 0.012246184 -0.44769686
0.2552686 0.012244694 -0.44764864
-0.23192155 0.032434024 -0.44355553
-0.21086527 0.032636024 -0.45230567
0.21434519 0.032635178 -0.45226967
0.23533441 0.032433126 -0.44351923
-0.19114669 0.05277821 -0.44542855
-0.17024039 0.052912667 -0.45416629
0.17373407 0.052912179 -0.45413029
0.19457339 0.052777622 -0.44539231
-0.15052402 0.073081762 -0.44576663
-0.12995365 0.073120609 -0.45081532
-0.10946189 0.073159359 -0.45584464
0.11296719 0.073159054 -0.45582062
0.13342042 0.07312046 -0.45079136
0.15395147 0.073081583 -0.44575447
-0.11017098 0.093380041 -0.44049251
-0.069232702 0.093380064 -0.44894987
-0.048920806 0.093380012 -0.45059884
0.052384812 0.093380012 -0.45059884
0.072684295 0.093380094 -0.44893783
0.093062922 0.093380041 -0.44553715
0.11355811 0.093380064 -0.44046837
-0.089636952 0.093380116 -0.44556153
-0.028634146 0.093380116 -0.45225769
-0.0083731283 0.093380116 -0.45390248
0.011862565 0.093380116 -0.45390248
0.032110922 0.093380116 -0.45225769
-0.43863791 -0.17282474 -0.42251748
-0.41629976 -0.17167279 -0.43402869
-0.39516979 -0.17119098 -0.43884325
0.39854336 -0.17119098 -0.43884325
0.41964182 -0.17167649 -0.43399203
0.44189373 -0.17282969 -0.42246825
-0.41778362 -0.13167268 -0.42484963
0.42106453 -0.131681 -0.42475152
-0.3962132 -0.11065788 -0.43206614
0.39954883 -0.11066543 -0.43196851
-0.37513083 -0.089932598 -0.43670547
0.37849802 -0.08993759 -0.43663263
-0.3545742 -0.069480814 -0.43806612
0.35795131 -0.069485269 -0.43799341
0.33742723 -0.049054585 -0.43934053
-0.33626753 -0.029489473 -0.42239451
0.33952352 -0.029492795 -0.42232072
-0.31562141 -0.0089586228 -0.42375773
-0.29352808 -0.0084168911 -0.43783545
0.29689908 -0.0084186867 -0.43778694
0.31888589 -0.0089611337 -0.42369622
-0.27350941 0.011845171 -0.43467391
0.27685571 0.011843741 -0.43462533
-0.25344282 0.032155752 -0.43150496
0.25676441 0.032154575 -0.43145609
-0.23337905 0.05250654 -0.42777771
-0.21219243 0.052642733 -0.43663251
0.21555173 0.052642196 -0.4365961
0.23667049 0.052505977 -0.42774099
-0.19235955 0.072957814 -0.42967314
-0.17132472 0.073025897 -0.43851548
0.17469795 0.073025674 -0.43847895
0.19566414 0.072957635 -0.42964864
-0.17242204 0.093380094 -0.4226771
-0.15147676 0.093380041 -0.43029624
-0.13078408 0.093380041 -0.43540424
0.13413225 0.093380094 -0.43537992
0.15478578 0.093380041 -0.43027169
0.17567337 0.093380064 -0.42264026
-0.11088894 0.11383866 -0.42494774
-0.090232968 0.11379917 -0.4300763
-0.06970416 0.11377175 -0.43363875
-0.049273677 0.11375888 -0.43531913
-0.028869279 0.11374602 -0.43698508
-0.0084904563 0.11373308 -0.43866116
0.011862565 0.11373308 -0.43866116
0.032228485 0.11374602 -0.43698508
0.052620247 0.11375888 -0.43530685
0.073037609 0.11377175 -0.43363875
0.093539357 0.1137993 -0.4300642
0.11415596 0.11383873 -0.42493546
-0.0086092446 0.13432364 -0.42322975
0.011862565 0.13432364 -0.42322975
-0.43947175 -0.15280241 -0.41759372
0.44269764 -0.15281141 -0.41749513
-0.42075419 -0.11262792 -0.40647376
0.4238939 -0.11263572 -0.4063741
-0.39902696 -0.091520198 -0.41379011
0.40222213 -0.091527082 -0.41369122
-0.37762699 -0.070615567 -0.41963923
0.38086292 -0.070620142 -0.41956538
-0.35693654 -0.050041832 -0.42101759
0.36018252 -0.05004584 -0.4209438
-0.33852524 -0.0096751228 -0.40514255
0.34164697 -0.0096776038 -0.40508038
-0.31774256 0.010978699 -0.40653574
-0.29541183 0.01144027 -0.42152184
0.2986573 0.01143866 -0.42147255
0.320876 0.010976493 -0.40646118
-0.2752718 0.031851266 -0.41832113
0.27849227 0.031850167 -0.41827184
-0.25508326 0.052311391 -0.41511273
0.2582787 0.052310728 -0.41506332
-0.23485409 0.072820365 -0.41180998
-0.21353552 0.072889268 -0.42077154
0.21677275 0.072888963 -0.42073458
0.23802264 0.072820038 -0.41177279
-0.19358696 0.093380012 -0.41372836
0.19676885 0.093379989 -0.4137035
-0.17353258 0.1139795 -0.4066478
-0.15244073 0.11391792 -0.41464317
-0.13162431 0.11387818 -0.41981149
0.13485245 0.11387845 -0.41978705
0.15562928 0.1139182 -0.41461837
0.17665978 0.11397973 -0.40662283
-0.11161485 0.13453925 -0.40923142
-0.090835556 0.13445932 -0.41442072
-0.070180759 0.13440168 -0.4181608
-0.049630959 0.13437572 -0.41984856
-0.029106975 0.13434955 -0.4215464
0.03234743 0.13434981 -0.42153412
0.052858245 0.13437572 -0.41984856
0.073395342 0.13440193 -0.41814864
0.094021827 0.13445966 -0.41439599
0.11476138 0.13453959 -0.40920663
-0.029347651 0.15519542 -0.40591407
-0.0087293349 0.1551557 -0.40762961
0.011862565 0.15515599 -0.40761715
0.032467671 0.15519542 -0.40591407
-0.46428335 -0.19644785 -0.39332807
-0.44271529 -0.1958968 -0.39844155
0.4457778 -0.1958968 -0.39844155
0.46731499 -0.1964533 -0.39327782
-0.46273649 -0.1748715 -0.40206462
0.4658438 -0.17488155 -0.40196466
-0.44260091 -0.13385171 -0.39911699
0.44568482 -0.1338602 -0.39901686
-0.40187979 -0.072116844 -0.39526051
0.40493253 -0.072123028 -0.39516014
-0.38015372 -0.051047005 -0.40236384
0.38325679 -0.051050968 -0.40228909
-0.35932782 -0.030350089 -0.40376014
0.36244106 -0.030353621 -0.40368533
-0.31989139 0.031176154 -0.38908947
-0.29731894 0.031543735 -0.40500546
0.30043736 0.031542536 -0.40495574
0.32289064 0.031174541 -0.38901395
-0.29924989 0.051898438 -0.38828307
-0.27705607 0.052105963 -0.40176499
0.28014919 0.052105248 -0.40171516
0.30223966 0.051897619 -0.38823265
-0.25674412 0.072717935 -0.3985166
0.25981182 0.072717577 -0.39846653
-0.2363794 0.093380064 -0.39529806
0.21800752 0.093380064 -0.40469426
0.23942193 0.093380012 -0.39524782
-0.2148948 0.093380168 -0.40471923
-0.21627057 0.11411938 -0.38847214
-0.19482924 0.11404923 -0.39759058
0.19788693 0.11404946 -0.39756572
0.21925825 0.11411969 -0.38844699
-0.17465658 0.13482872 -0.39042401
-0.15341614 0.13469972 -0.39880437
-0.13247517 0.13461936 -0.40402174
0.13558118 0.13461961 -0.40400922
0.15648277 0.13470015 -0.39877939
0.1776589 0.13482921 -0.39039898
-0.13333549 0.15560783 -0.38805616
-0.11234941 0.15548597 -0.39332795
-0.091445297 0.15536478 -0.39857918
-0.070663348 0.15527445 -0.40248859
-0.049992427 0.15523504 -0.40419626
0.05309923 0.15523504 -0.40419626
0.073757283 0.15527481 -0.40247607
0.094509616 0.15536538 -0.39855433
0.11537351 0.15548655 -0.3933028
0.13631921 0.15560833 -0.38803077
-0.050357893 0.17634067 -0.38837117
-0.029591173 0.1762875 -0.39009696
-0.0088509396 0.17623411 -0.39183289
0.011862565 0.17623411 -0.39183289
0.032589436 0.1762875 -0.39009696
0.053343065 0.17634109 -0.38835865
-0.4879657 -0.19818643 -0.37719613
0.49088046 -0.19819602 -0.37710714
-0.46574855 -0.15580827 -0.38505238
0.46873152 -0.1558212 -0.38491344
-0.44578451 -0.11464129 -0.38031882
0.44873214 -0.11465307 -0.38016671
-0.42376623 -0.093317993 -0.38784194
0.42676267 -0.093325071 -0.38774097
-0.40477255 -0.05244226 -0.37647164
0.40768081 -0.052447654 -0.37636983
-0.38284841 -0.031265542 -0.38394022
0.38581333 -0.031270273 -0.38383895
-0.36175203 -0.010401867 -0.3862648
0.36473072 -0.010404736 -0.3861891
-0.34081075 0.010398038 -0.38767797
0.34379974 0.010395713 -0.38760215
-0.32207 0.051638532 -0.37140149
0.3249332 0.051637225 -0.37132478
-0.3012051 0.072508827 -0.37135023
-0.27886266 0.072613969 -0.38500196
0.28182679 0.072613634 -0.38495141
0.3040646 0.072508469 -0.37129927
-0.25842574 0.093380012 -0.38171273
0.26136416 0.093380116 -0.38166219
-0.23793542 0.11419657 -0.37845361
0.24084833 0.11419693 -0.37840283
-0.21766315 0.135112 -0.37202656
-0.19608665 0.13496983 -0.38125676
0.1990186 0.13497031 -0.38123137
0.22052427 0.13511236 -0.37200117
-0.1757943 0.15593237 -0.37400252
-0.154404 0.15573007 -0.38276368
0.15734647 0.15573032 -0.38275105
0.17867023 0.15593299 -0.37397712
-0.13420612 0.17684786 -0.37189907
-0.11309275 0.17668359 -0.3772341
-0.092062309 0.17651993 -0.38254845
-0.071151629 0.17639416 -0.38663077
0.074123219 0.17639416 -0.38663077
0.095003247 0.17652076 -0.38252306
0.11599296 0.17668444 -0.37720895
0.13706547 0.17684871 -0.37187362
-0.05072799 0.19769761 -0.37234557
-0.029837392 0.19762993 -0.37410438
-0.0089739896 0.19756283 -0.37584829
0.011862565 0.19756283 -0.37584829
0.032712542 0.19762993 -0.37410438
0.053589601 0.19769761 -0.37234557
-0.49161261 -0.2212919 -0.3574568
0.4943642 -0.22129497 -0.35743093
-0.48949414 -0.17818826 -0.36892301
0.49235436 -0.17820221 -0.36878258
-0.46945247 -0.13681415 -0.36413264
0.47227481 -0.1368261 -0.36399138
-0.44934207 -0.095294572 -0.3593123
0.45212421 -0.095303454 -0.35918355
-0.42682248 -0.07373815 -0.36893594
0.42967364 -0.073744334 -0.3688336
-0.40770799 -0.032491125 -0.35740507
0.41046971 -0.032495894 -0.35730207
-0.38561982 -0.011220567 -0.36499202
0.38843906 -0.011224583 -0.3648895
-0.36420634 0.009809196 -0.36855239
0.36704883 0.0098068416 -0.36847556
-0.3431263 0.030734912 -0.36998397
0.34597918 0.03073325 -0.36990732
-0.30318356 0.093380012 -0.35421634
-0.28069201 0.093380012 -0.36802787
0.28352553 0.093379959 -0.36797661
0.30591261 0.093380064 -0.35415184
-0.26012728 0.1143024 -0.36470997
0.26293609 0.11430276 -0.36464572
-0.23951106 0.13527569 -0.36139691
0.24229273 0.13527647 -0.36134529
-0.21907282 0.15636238 -0.3553791
-0.19735843 0.15614638 -0.36473548
0.20016412 0.1561473 -0.36469722
0.2218058 0.15636301 -0.35535336
-0.17694598 0.17729488 -0.35737932
-0.15540294 0.17701276 -0.3665427
0.15822124 0.17701361 -0.36651725
0.17969397 0.17729573 -0.35735369
-0.13508727 0.19834419 -0.35554707
-0.11384563 0.19813681 -0.36093378
-0.092687249 0.19792989 -0.36631233
-0.071645349 0.19776496 -0.37059718
0.074493796 0.1977654 -0.37058437
0.095502809 0.1979304 -0.36629951
0.11661988 0.1981374 -0.36092091
0.13782075 0.19834515 -0.3555212
-0.072145358 0.21939197 -0.35435867
-0.051102225 0.21930963 -0.35614097
-0.030086752 0.21922806 -0.35790801
-0.0090984087 0.21914586 -0.35968554
0.011862565 0.21914586 -0.35968554
0.032837223 0.21922806 -0.35790801
0.053839285 0.21931025 -0.35612798
0.074868515 0.21939197 -0.35435867
-0.51524192 -0.2228826 -0.34368062
0.51789737 -0.22289163 -0.34360254
-0.51473856 -0.2015166 -0.34629619
0.51742852 -0.20153338 -0.34614003
-0.4934057 -0.15925407 -0.3477515
0.49610329 -0.15926719 -0.34760857
-0.47321433 -0.11752299 -0.34288585
0.47587344 -0.11753396 -0.34274256
-0.45295319 -0.075643755 -0.33798981
0.45557147 -0.075651921 -0.33785892
-0.42991987 -0.053880773 -0.34977603
0.43262374 -0.053886376 -0.34967208
-0.41068313 -0.012256362 -0.33808148
0.41329628 -0.0122604 -0.33797669
-0.38843036 0.0091077611 -0.34577608
0.3911019 0.0091046393 -0.34567213
-0.36669493 0.030287072 -0.35059261
0.36939758 0.030285634 -0.35052776
-0.34547412 0.051340412 -0.35204327
0.34818903 0.051339187 -0.35196555
-0.32427582 0.072371379 -0.35349238
0.32700127 0.072370768 -0.35341477
-0.30519477 0.11451725 -0.33679914
-0.28254312 0.11440901 -0.35085166
0.28524578 0.11440947 -0.35078692
0.3077912 0.11451791 -0.33672047
-0.26185167 0.13548997 -0.34747863
0.2645267 0.13549069 -0.34742677
-0.2411067 0.15662244 -0.34412336
0.24375546 0.15662348 -0.34407127
-0.22049882 0.17787513 -0.338539
-0.19864689 0.17758387 -0.34799814
0.20132378 0.17758505 -0.34795928
0.22310321 0.17787632 -0.3384999
-0.17811188 0.19892137 -0.3405509
-0.15642194 0.19855779 -0.34999621
0.1591136 0.19855939 -0.34995723
0.18073034 0.19892244 -0.34052479
-0.13597982 0.22010213 -0.33898354
-0.11460705 0.21984962 -0.34444892
-0.093319252 0.21959814 -0.34989238
0.096008405 0.2195988 -0.3498795
0.1172549 0.21985087 -0.34442294
0.13858521 0.22010273 -0.33897042
-0.072651401 0.24127948 -0.33792436
-0.051481251 0.2411823 -0.33972824
-0.030339111 0.24108595 -0.34151685
-0.009224426 0.240989 -0.34331572
0.011862565 0.240989 -0.34331572
0.032963403 0.24108595 -0.34151685
0.054091778 0.2411823 -0.33972824
0.075248048 0.24127948 -0.33792436
-0.51952535 -0.18294159 -0.32142341
0.52203655 -0.18296418 -0.32119834
-0.49737871 -0.14002219 -0.32624686
0.49990883 -0.14003333 -0.32611489
-0.47703543 -0.097927861 -0.32130432
0.47952655 -0.097937025 -0.32117188
-0.4330613 -0.03374102 -0.33034337
0.43561581 -0.033745907 -0.3302381
-0.39128098 0.02972582 -0.32628644
0.39380267 0.029723421 -0.32618093
-0.36921483 0.051038127 -0.33240676
0.37177935 0.051036898 -0.33232784
-0.34785149 0.07222043 -0.33387673
0.3504267 0.072219759 -0.33379793
-0.32651258 0.093380064 -0.33533216
0.32909685 0.093380012 -0.33526659
-0.28441921 0.13570599 -0.33344364
0.28698662 0.13570681 -0.33339131
-0.26359808 0.15694794 -0.33002746
0.26613882 0.15694916 -0.32997501
-0.24272273 0.17824174 -0.32662928
0.24523689 0.17824343 -0.32657659
-0.22194365 0.19965562 -0.32147646
-0.19995131 0.19928706 -0.33105338
0.20249777 0.19928849 -0.33101392
0.2244167 0.1996571 -0.32143664
-0.17929229 0.22081664 -0.32351339
-0.15746395 0.22037494 -0.33307636
0.16002537 0.22037682 -0.33303678
0.18177961 0.22081786 -0.32348692
-0.13688256 0.24212515 -0.3222307
-0.11537772 0.24182707 -0.32776296
-0.093958914 0.24153012 -0.33327317
0.096520558 0.24153149 -0.33324671
0.11789715 0.2418285 -0.32773662
0.13935959 0.24212664 -0.32220435
-0.073163167 0.26343149 -0.3213042
-0.051864874 0.26331988 -0.32311678
-0.030594327 0.26320753 -0.3249402
-0.0093519632 0.26309633 -0.32674801
0.011862565 0.26309633 -0.32674801
0.033091009 0.26320753 -0.3249402
0.054347526 0.26331988 -0.32311678
0.07563217 0.26343235 -0.32129121
-0.54411811 -0.24876189 -0.30474973
-0.52087897 -0.24757448 -0.31438959
0.52329451 -0.24757448 -0.31438959
0.54647994 -0.24877518 -0.30464244
-0.54250044 -0.22644478 -0.31283188
0.54493469 -0.22646323 -0.31267202
-0.5018236 -0.12065587 -0.30218828
-0.45662129 -0.055683039 -0.31633079
0.45907319 -0.055690117 -0.31619775
-0.43624777 -0.013312891 -0.31063235
0.43865073 -0.013317004 -0.31052566
-0.41370067 0.0082674026 -0.31848145
0.41616321 0.0082642063 -0.31837547
-0.39417249 0.050639495 -0.306517
0.39654219 0.05063796 -0.30641007
-0.37177038 0.072067067 -0.31396365
0.37419131 0.07206656 -0.31389701
-0.35026246 0.093380012 -0.31545353
0.35269597 0.093380116 -0.31537378
-0.3287777 0.11467009 -0.31694186
0.33122203 0.11467071 -0.31686211
-0.30731753 0.13593741 -0.31841528
0.30977258 0.13593858 -0.31833553
-0.28631938 0.15727618 -0.31581247
0.28875113 0.15727746 -0.31575942
-0.26536691 0.17868151 -0.31235242
0.26777166 0.17868304 -0.31229901
-0.24435954 0.20013925 -0.30891025
0.24673735 0.20014136 -0.30885684
-0.22340654 0.22170863 -0.30420029
-0.20127198 0.22126073 -0.31389713
0.20368642 0.22126263 -0.3138572
0.22574668 0.22171053 -0.30416012
-0.18048745 0.24298561 -0.30626297
-0.15851893 0.24246383 -0.31594527
0.16094851 0.24246594 -0.31590545
0.18284199 0.24298704 -0.30623603
-0.13779639 0.26441884 -0.3052721
-0.11615786 0.264074 -0.31087244
-0.094606444 0.2637305 -0.31645036
0.097038582 0.26373202 -0.31642365
0.11854729 0.26407564 -0.31084573
0.14014289 0.26442057 -0.30524528
-0.073681593 0.2858544 -0.30446827
-0.05225287 0.28572631 -0.30631638
-0.030852847 0.28559947 -0.30814874
-0.0094809532 0.28547162 -0.30999172
0.011862565 0.28547162 -0.30999172
0.033220269 0.28559947 -0.30814874
0.054606393 0.28572732 -0.30630302
0.076020673 0.2858544 -0.30446827
-0.54729235 -0.20770341 -0.28889
0.54955846 -0.2077297 -0.28864622
0.52681911 -0.16409829 -0.29531217
-0.52450371 -0.16407585 -0.295555
0.50419027 -0.12067545 -0.30193317
-0.48091719 -0.078021593 -0.29938006
0.48323989 -0.078029878 -0.2992456
-0.46034771 -0.035404555 -0.29432714
0.46262839 -0.035410203 -0.29420567
-0.43969902 0.0073682666 -0.28928292
0.44194421 0.0073637366 -0.28913391
-0.4167617 0.029086389 -0.29859972
0.41907138 0.029083833 -0.29849207
-0.39710575 0.071855403 -0.28646219
0.39932132 0.071854532 -0.28635347
-0.37447822 0.093380064 -0.29442167
0.37675589 0.093380116 -0.2943002
-0.3527042 0.11482508 -0.29679513
0.35499421 0.11482585 -0.29671431
-0.33107331 0.13624704 -0.2983036
0.33337429 0.13624832 -0.2982229
-0.30946738 0.15764606 -0.29979706
0.31177926 0.15764785 -0.29971623
-0.28824407 0.17912474 -0.29795361
0.2905384 0.17912653 -0.29789972
-0.26715863 0.2006959 -0.29444873
0.2694256 0.200698 -0.29439473
-0.24601631 0.22231945 -0.29097533
0.24825725 0.22232255 -0.29090774
-0.22488789 0.24403948 -0.28670657
-0.20260923 0.24351034 -0.29652584
0.20488998 0.24351242 -0.29648519
0.22709337 0.24404162 -0.2866658
-0.15958716 0.26482978 -0.29859972
0.16188323 0.26483217 -0.29855931
-0.18169764 0.26543361 -0.28879523
0.18391775 0.26543522 -0.28876805
-0.13872151 0.28698811 -0.2881037
-0.11694826 0.28659627 -0.29376006
-0.095261917 0.28620404 -0.29942036
0.097562984 0.28620595 -0.29939342
0.11920543 0.28659716 -0.29374659
0.14093588 0.28698996 -0.28807664
-0.074205935 0.30855134 -0.28743923
-0.052645925 0.30840832 -0.28929639
-0.031114329 0.30826455 -0.29116476
-0.0096116234 0.30812195 -0.29301715
0.011862565 0.30812195 -0.29301715
0.033351116 0.30826563 -0.29115129
0.054868225 0.30840832 -0.28929639
0.076414257 0.30855241 -0.28742576
-0.55097538 -0.27462932 -0.27048874
0.5530529 -0.27462932 -0.27048874
-0.5295763 -0.14485306 -0.26919734
0.53169209 -0.14487511 -0.26893616
-0.50666994 -0.10106968 -0.27595639
0.508838 -0.10108864 -0.27568281
-0.48486111 -0.057796769 -0.27710485
0.48701268 -0.05780413 -0.27696812
-0.46413392 -0.014800996 -0.27197075
0.46624285 -0.014805779 -0.27184725
-0.41986707 0.050207153 -0.27842987
0.42202371 0.050205208 -0.27830696
-0.37728146 0.11499916 -0.2741909
0.37940183 0.11500002 -0.27408135
-0.35518089 0.13656157 -0.27786994
0.35732535 0.1365629 -0.27778804
-0.33340177 0.15811713 -0.2793988
0.33555737 0.15811896 -0.2793169
-0.3116464 0.17964906 -0.28092611
0.31381309 0.17965166 -0.28084445
-0.29019374 0.20125735 -0.27986276
0.29234889 0.20125934 -0.27980816
-0.26897365 0.22299677 -0.27631199
0.27110106 0.22299927 -0.27625728
-0.24769591 0.24478915 -0.27279341
0.24979694 0.24479279 -0.27272487
-0.22638799 0.26665327 -0.26899111
-0.20396338 0.2660408 -0.27893496
0.20610872 0.26604337 -0.27889395
0.22845715 0.26665577 -0.26894999
-0.18292221 0.28816482 -0.27112007
-0.16066885 0.28747788 -0.28103507
0.16282974 0.28748077 -0.2809943
0.18500711 0.28816769 -0.27107882
-0.1396589 0.30983928 -0.2707082
-0.11774783 0.30939737 -0.27644873
-0.095926046 0.30895731 -0.282166
0.098093867 0.30895835 -0.2821523
0.11987175 0.30939847 -0.27643502
0.14173873 0.30984029 -0.27069449
-0.074737191 0.33152944 -0.27018654
-0.053043831 0.33137015 -0.27206659
-0.031379245 0.33120996 -0.27395797
-0.0097437985 0.33104998 -0.27584696
0.011862565 0.33104998 -0.27584696
0.033483468 0.33120996 -0.27395797
0.055133495 0.33137015 -0.27206659
0.076812699 0.33153045 -0.2701726
-0.57602161 -0.27676922 -0.25413692
0.57799548 -0.27678388 -0.25402582
-0.57510203 -0.25445077 -0.25856125
0.57715428 -0.25449175 -0.2582289
-0.55409253 -0.18959743 -0.25491452
0.5561223 -0.18963504 -0.25453973
-0.48886865 -0.03724549 -0.25447023
0.49084875 -0.037252627 -0.2543174
-0.44332632 0.028353013 -0.26684523
0.44539696 0.028349943 -0.26670766
-0.42301986 0.071635902 -0.25795162
0.42501712 0.071635038 -0.25784087
-0.40008169 0.093380064 -0.26611543
0.40214086 0.093380064 -0.26600516
-0.38012567 0.13693427 -0.25366449
0.38208824 0.13693601 -0.25355327
-0.35768965 0.15859514 -0.25869966
0.35968664 0.15859705 -0.25861657
-0.33576035 0.18028581 -0.2602495
0.33776867 0.18028831 -0.26016641
-0.31385675 0.20195314 -0.26178372
0.31587622 0.20195636 -0.26170099
-0.29216895 0.22367927 -0.26153517
0.29418308 0.22368184 -0.26147997
-0.27081102 0.24558887 -0.25795162
0.27279845 0.24559271 -0.25788236
-0.2493975 0.26755339 -0.25437295
0.25135565 0.26755682 -0.2543174
-0.22792846 0.28957266 -0.25079918
-0.20533472 0.28885752 -0.26112056
0.20734298 0.28886047 -0.26107907
0.22985975 0.28957745 -0.25072944
-0.18416333 0.31118652 -0.2532059
-0.16176428 0.31041363 -0.26324761
0.16378827 0.31041679 -0.26320636
0.18611039 0.31118974 -0.25316417
-0.14060727 0.33297551 -0.25310874
-0.11855739 0.33248326 -0.25892103
-0.096597925 0.33199313 -0.26470995
0.098631799 0.33199543 -0.26468229
0.12054692 0.33248568 -0.25889349
0.14255227 0.33297786 -0.25308073
-0.075275034 0.35479286 -0.25271928
-0.053446356 0.35461572 -0.25463688
-0.031647447 0.35444018 -0.25653803
-0.009877719 0.35426345 -0.25845027
0.011862565 0.35426345 -0.25845027
0.033617571 0.35444018 -0.25653803
0.055402059 0.35461709 -0.25462306
0.077215776 0.35479286 -0.25271928
-0.53474569 -0.12526324 -0.24233639
0.53665829 -0.12528488 -0.24205589
-0.51160866 -0.081110395 -0.2492249
0.51357186 -0.081127502 -0.24894607
-0.46798131 0.0061356425 -0.24925268
0.46991566 0.0061318576 -0.24912727
-0.44701451 0.049677469 -0.24403012
0.44890779 0.049675524 -0.24390411
-0.4262169 0.093380064 -0.23718643
0.42805451 0.093380064 -0.23707378
-0.40310335 0.11522039 -0.24545634
0.40500367 0.11522126 -0.24534452
-0.36023289 0.18093191 -0.23926532
0.36208045 0.18093452 -0.23918116
-0.33815312 0.20276001 -0.24082267
0.34001201 0.20276314 -0.24073851
-0.31609592 0.22456345 -0.2423923
0.31796622 0.22456723 -0.24230814
-0.29416862 0.24639565 -0.24298036
0.2960414 0.24639949 -0.24291039
-0.27267402 0.26847947 -0.23933566
0.27451819 0.26848376 -0.23926532
-0.25112152 0.29061806 -0.23570943
0.25293612 0.29062203 -0.23565316
-0.2067236 0.31196615 -0.24307835
0.20859303 0.31196946 -0.24303639
-0.16287372 0.33364242 -0.2452327
0.16475905 0.333646 -0.24519074
-0.18542039 0.33450362 -0.235062
0.18722777 0.33450726 -0.23501992
-0.14156759 0.35640326 -0.23528731
-0.11937714 0.35585949 -0.24117327
-0.097278237 0.35531804 -0.24703479
0.099176064 0.35532057 -0.24700677
0.12123007 0.35586211 -0.24114513
0.14337541 0.35640576 -0.23525894
-0.075819179 0.3783457 -0.23504782
-0.053854223 0.37815273 -0.23697543
-0.031918779 0.37795883 -0.23891449
-0.01001331 0.37776643 -0.24083662
0.011862565 0.37776643 -0.24083662
0.033753239 0.37795883 -0.23891449
0.055673759 0.37815273 -0.23697543
0.07762453 0.37834856 -0.23501992
-0.58261687 -0.30293965 -0.22240543
0.58433282 -0.30294549 -0.22236288
-0.58270842 -0.2369372 -0.22196519
0.58449203 -0.23698315 -0.22156703
-0.5614875 -0.17124298 -0.21796703
0.56322926 -0.17127594 -0.2176106
-0.51664233 -0.060767196 -0.22197938
0.5183993 -0.060783289 -0.22168088
-0.49339163 -0.016457856 -0.22892451
0.4951947 -0.016468242 -0.22865582
-0.47189146 0.027413547 -0.2261647
0.4736484 0.027410634 -0.22603714
-0.45076305 0.071350217 -0.22084212
0.45247594 0.071349353 -0.2207284
-0.40616757 0.13738319 -0.22450626
0.40790683 0.13738503 -0.22439277
-0.38301179 0.15919241 -0.23283577
0.38481423 0.15919513 -0.232723
-0.36281329 0.20357886 -0.21954763
0.36450922 0.20358214 -0.21946228
-0.34057733 0.22554502 -0.22114086
0.34228483 0.22554895 -0.22105551
-0.31836769 0.24748746 -0.22271788
0.32008669 0.2474921 -0.22263277
-0.29619631 0.26941371 -0.22416568
0.29792294 0.2694172 -0.22410893
-0.27456173 0.29167381 -0.22047246
0.27625948 0.29167765 -0.22041547
-0.2528685 0.31398934 -0.21679807
-0.22951286 0.31281221 -0.23208833
0.23129909 0.31281662 -0.23203182
0.25453755 0.31399363 -0.21674109
-0.20813037 0.33537227 -0.22480404
0.20985915 0.33537585 -0.22476149
-0.18669365 0.35812163 -0.21668386
-0.1639974 0.35717008 -0.22698617
0.16574232 0.35717383 -0.22694361
0.1883596 0.35812557 -0.21664131
-0.14254008 0.38012779 -0.21723998
-0.12020727 0.37953141 -0.22320068
-0.097967148 0.3789373 -0.22913659
0.099727198 0.37894017 -0.22910821
0.12192184 0.3795341 -0.22317231
0.144209 0.38013059 -0.21721148
-0.076375425 0.4022131 -0.21698344
-0.054266904 0.40198424 -0.21910644
-0.032193735 0.40177405 -0.22105551
-0.01015049 0.40156287 -0.22301614
0.011862565 0.40156287 -0.22301614
0.033890717 0.40177405 -0.22105551
0.055949092 0.40198573 -0.21909189
0.07804139 0.40221453 -0.21696901
-0.5632754 -0.30479246 -0.20903385
0.5648247 -0.30475259 -0.20932078
-0.54018795 -0.10535809 -0.21405756
0.54190761 -0.10538683 -0.21364307
-0.49828017 0.0046595335 -0.20131397
0.49987891 0.0046498626 -0.20099699
-0.47586581 0.049041025 -0.20269716
0.47744477 0.04903888 -0.20255315
-0.42954698 0.11545053 -0.2155571
0.43122461 0.1154517 -0.21539986
-0.40927735 0.1598759 -0.20324445
0.41085324 0.15987852 -0.20312917
-0.3859407 0.18178079 -0.21169817
0.38758066 0.18178427 -0.21158373
-0.34303707 0.24864861 -0.20116985
0.34459099 0.24865332 -0.20108342
-0.32066953 0.2707305 -0.20278358
0.32223517 0.2707358 -0.20269704
-0.29832855 0.29278868 -0.20438111
0.29990584 0.2927947 -0.20429492
-0.27647465 0.31517792 -0.20135725
0.27802533 0.31518233 -0.20129955
-0.23111834 0.33636099 -0.21312869
0.23275867 0.33636573 -0.21307135
-0.20955536 0.3590816 -0.20629287
0.21114168 0.35908553 -0.20624983
-0.16513565 0.3810021 -0.20850337
0.16673832 0.38100648 -0.20846033
-0.12104858 0.40350595 -0.20498502
-0.098665342 0.40285817 -0.21099687
0.10028534 0.40285966 -0.21098256
0.12262242 0.40350765 -0.20497048
-0.05468512 0.42611849 -0.20099676
-0.032472167 0.42589059 -0.20297062
-0.010289516 0.42566139 -0.20495641
0.011862565 0.42566139 -0.20495641
0.034029931 0.42589059 -0.20297062
0.056227684 0.42611849 -0.20099676
-0.52177376 -0.040029116 -0.19420457
0.5233205 -0.040043689 -0.19388592
-0.45457098 0.093380012 -0.19728673
0.45610055 0.093380012 -0.19718564
-0.43318704 0.13788494 -0.19191396
0.43468305 0.13788745 -0.19175446
-0.38891339 0.20470673 -0.19024456
0.39038843 0.20471114 -0.19012833
-0.36553553 0.2265794 -0.19874609
0.36707503 0.2265847 -0.19863045
-0.32300535 0.29430073 -0.18255472
0.32441384 0.29430592 -0.18248177
-0.30050465 0.3164995 -0.18418932
0.30192661 0.31650624 -0.18410182
-0.2784133 0.33899796 -0.18198514
-0.25463882 0.33767304 -0.19763362
0.25616041 0.3376779 -0.19757569
0.27981493 0.33900297 -0.18192661
-0.23274529 0.36022496 -0.19391477
0.23423781 0.36023033 -0.19385684
-0.21099894 0.3831 -0.18754029
-0.18798347 0.38204652 -0.19806719
0.18950614 0.38205096 -0.1980238
0.21244092 0.38310435 -0.18749666
-0.16628872 0.40514478 -0.18977976
-0.14352576 0.40415677 -0.19894826
0.14505322 0.4041582 -0.19893384
0.16774729 0.40514961 -0.18973625
-0.12190005 0.42778662 -0.1865505
-0.099371925 0.42708349 -0.19263923
-0.076938316 0.42638335 -0.19870269
0.078463554 0.42638499 -0.19868815
0.10085104 0.42708692 -0.19261014
0.12333253 0.42779002 -0.18652117
-0.055108663 0.45055988 -0.18265688
-0.032753915 0.45031193 -0.18467069
-0.010430308 0.45006609 -0.18666685
0.011862565 0.45006609 -0.18666685
0.034170806 0.45031193 -0.18467069
0.056510046 0.45055988 -0.18265688
-0.59187251 -0.33147049 -0.17787433
0.59323418 -0.33146843 -0.17788899
-0.56907535 -0.15240145 -0.1800555
0.57052433 -0.15243119 -0.17970443
-0.5475238 -0.085623585 -0.17593932
0.54893041 -0.085642569 -0.17563105
-0.52700579 -0.018884227 -0.16588533
0.52832782 -0.01889497 -0.16560471
-0.50326687 0.026189312 -0.17314947
0.50465232 0.026181385 -0.17281127
-0.47990602 0.071026981 -0.17884088
0.48130408 0.071025707 -0.17867994
-0.45844212 0.1157755 -0.17334044
0.4597899 0.11577642 -0.1732229
-0.43688989 0.16069281 -0.16786325
0.43819684 0.16069588 -0.16773045
-0.41243377 0.18270558 -0.18166363
0.41384375 0.18270926 -0.18154681
-0.39193085 0.22797784 -0.168468
0.39323846 0.22798333 -0.16834998
-0.36836854 0.24994576 -0.17709768
0.36974162 0.24995214 -0.17698038
-0.34552965 0.27207613 -0.18093288
0.34692791 0.27208152 -0.18084514
-0.25643301 0.36167562 -0.17821121
0.25780514 0.36168098 -0.17815268
-0.23439419 0.3844108 -0.17444217
0.23573688 0.38441667 -0.17438352
-0.21246144 0.40743372 -0.16854155
-0.18929015 0.40628436 -0.17920685
0.19066766 0.40628892 -0.17916286
0.21375723 0.40743843 -0.16849744
-0.16745692 0.42960414 -0.17081034
-0.14452332 0.42849264 -0.1804359
0.14590895 0.42849612 -0.18040657
0.16876948 0.42960915 -0.17076635
-0.1227625 0.45238015 -0.16787815
-0.10008758 0.45162067 -0.17404568
-0.07750845 0.45086414 -0.18018723
0.078891501 0.45086771 -0.18015778
0.10142359 0.45162416 -0.17401636
0.12405126 0.45238388 -0.16784859
-0.033039499 0.47504762 -0.1661216
-0.010572787 0.47478107 -0.16815817
0.011862565 0.47478107 -0.16815817
0.034313597 0.47504762 -0.1661216
-0.48450324 0.093380064 -0.15169525
0.48571214 0.093380012 -0.15141201
-0.462378 0.13854583 -0.14899313
0.46354097 0.13854793 -0.1488589
-0.41563788 0.20588017 -0.15975714
0.4168815 0.20588529 -0.15962362
-0.37124446 0.27366567 -0.15512192
0.37244856 0.27367303 -0.15500283
-0.34805927 0.29583606 -0.16039491
0.34929785 0.29584122 -0.16032076
-0.32537252 0.31820345 -0.16205454
0.3266249 0.31821024 -0.16196573
-0.3027131 0.34054661 -0.16369748
0.30397746 0.34055403 -0.16360867
-0.28037819 0.36314082 -0.16235077
0.28162876 0.36314633 -0.16229153
-0.25825012 0.38600209 -0.15854025
0.25947216 0.38600963 -0.15846622
-0.23606551 0.40892491 -0.15470517
0.23725629 0.40893137 -0.15464568
-0.21394327 0.43208882 -0.14929187
-0.19061401 0.43084094 -0.16009831
0.19184449 0.43084627 -0.16005385
0.21509093 0.43209389 -0.14924729
-0.14553377 0.45314303 -0.16168427
0.14677507 0.45314676 -0.16165447
-0.16864052 0.45438629 -0.15159094
0.16980518 0.45439166 -0.15154624
-0.12363613 0.47729295 -0.14896333
-0.10081254 0.47647527 -0.15521109
-0.078085944 0.47566134 -0.1614325
-0.055537287 0.47531259 -0.16409695
0.056796025 0.47531453 -0.16408217
0.079324633 0.47566518 -0.16140282
0.10200356 0.47647932 -0.15518141
0.1247793 0.47729689 -0.14893341
-0.010717215 0.499816 -0.14939666
0.011862565 0.499816 -0.14939666
-0.62363374 -0.33784956 -0.13426089
0.62483823 -0.33797318 -0.13341534
-0.59902042 -0.2233741 -0.14348388
0.60041761 -0.22353423 -0.14199829
-0.5550369 -0.065351777 -0.13689971
0.55614179 -0.065368049 -0.13659847
-0.53311914 0.002549693 -0.13279605
0.53420627 0.0025377199 -0.13240314
-0.50835466 0.048143808 -0.14441359
0.50952256 0.048138287 -0.14405382
-0.44065487 0.18388352 -0.14340889
0.44177169 0.18388726 -0.14328909
-0.41889295 0.22940812 -0.13750219
0.41996342 0.22941369 -0.13738179
-0.39499411 0.25160202 -0.14636087
0.39613175 0.25160846 -0.14624119
-0.37416416 0.29774705 -0.13281107
0.37519673 0.29775539 -0.13269019
-0.3506231 0.31993368 -0.13957906
0.35170335 0.31994048 -0.13948894
-0.32777336 0.3424463 -0.14126241
0.32886583 0.34245402 -0.14117217
-0.30495137 0.3649348 -0.14292896
0.30605596 0.36494315 -0.14283895
-0.28236836 0.38761094 -0.14246356
0.28346729 0.38761857 -0.1423887
-0.26009342 0.41066211 -0.13858604
0.26116192 0.41067025 -0.13851082
-0.23775963 0.43377393 -0.13469839
0.23879647 0.43378091 -0.13463795
-0.19195543 0.45572308 -0.14073658
0.1930369 0.45572871 -0.14069152
-0.16983987 0.47949779 -0.13211596
-0.14655735 0.47811416 -0.14268875
0.14765245 0.47811809 -0.14265883
0.17085464 0.47950366 -0.13207066
-0.10154751 0.50165629 -0.13611627
-0.078670964 0.50078076 -0.14243364
-0.055971775 0.50038618 -0.14528275
-0.033328526 0.50009978 -0.14734876
0.034458227 0.50010204 -0.14733362
0.057085462 0.50038618 -0.14528275
0.079763398 0.50078511 -0.1424036
0.10259108 0.50165844 -0.13610089
-0.010863397 0.52517343 -0.13040698
0.011862565 0.52517343 -0.13040698
-0.60201532 -0.36134425 -0.12907481
0.60300124 -0.36134198 -0.12908995
-0.57923669 -0.13396582 -0.12928665
0.58052754 -0.13408598 -0.12772608
-0.51354665 0.070536174 -0.1150893
0.51448226 0.070533767 -0.11476827
-0.48943704 0.11616646 -0.12256253
0.49043 0.11616896 -0.12222791
-0.46638039 0.16170052 -0.12423515
0.46735546 0.161704 -0.12408316
-0.44448122 0.20746601 -0.11855614
0.44540706 0.20747061 -0.11843395
-0.39810416 0.2755875 -0.12391591
0.39906931 0.27559501 -0.12379432
-0.35322374 0.34437692 -0.11846447
0.35414156 0.34438464 -0.11837304
-0.33021042 0.36703846 -0.12015676
0.33114058 0.36704689 -0.12006545
-0.30722174 0.38967261 -0.12186241
0.3081643 0.38968182 -0.12177122
-0.28438735 0.41241848 -0.1222887
0.28533107 0.41242653 -0.12221253
-0.26196203 0.43566072 -0.11835766
0.26287365 0.43566781 -0.11829674
-0.23947577 0.45896292 -0.11443162
-0.21544483 0.45707187 -0.12978637
0.21644236 0.45707753 -0.12974095
0.24035786 0.45897248 -0.11435533
-0.19331475 0.48093706 -0.12111664
0.19424522 0.48094326 -0.12107086
-0.14759517 0.50341421 -0.12342942
-0.12452188 0.50253326 -0.12978637
0.12551685 0.5025354 -0.12977111
0.1485413 0.5034163 -0.12341416
-0.10229154 0.52716571 -0.11678541
-0.079264089 0.52623165 -0.12317097
-0.056411918 0.52578509 -0.12622428
-0.033621535 0.52547908 -0.12831712
0.034604616 0.52547908 -0.12831712
0.057378884 0.52578509 -0.12622428
0.080207914 0.52623391 -0.12315583
0.10318632 0.52716774 -0.11677027
-0.58463538 -0.34252223 -0.10231328
0.58505642 -0.34224734 -0.10419333
-0.56275767 -0.04452882 -0.096781731
0.56357235 -0.044547342 -0.09637928
-0.47045085 0.18524915 -0.099055409
0.47123489 0.18525451 -0.098885536
-0.4224934 0.25340587 -0.11288571
0.42338103 0.25341493 -0.11271739
-0.40126216 0.29994226 -0.10112512
0.40205207 0.29995096 -0.10100174
-0.37712672 0.32219717 -0.11017299
0.37798715 0.32220778 -0.11003494
-0.35595539 0.36924353 -0.096286297
0.3567062 0.36925504 -0.096162558
-0.33268091 0.39198446 -0.098761797
0.3334465 0.39199376 -0.098669052
-0.30952653 0.41476917 -0.10047674
0.31030461 0.41477928 -0.10038412
-0.28643426 0.4375686 -0.10183501
0.2872192 0.4375757 -0.10177314
-0.2638565 0.46100545 -0.097849369
0.26461029 0.46101323 -0.097787619
-0.21696648 0.48238945 -0.11001956
0.21781188 0.48239544 -0.10997355
-0.17105527 0.50494516 -0.11238039
0.17191732 0.50494945 -0.11234975
-0.19469231 0.50648975 -0.10123324
0.19546975 0.50649625 -0.10118675
-0.14866327 0.52909297 -0.10360813
-0.12541857 0.52810353 -0.11037242
0.12626469 0.52810818 -0.11034179
0.14945826 0.52909976 -0.10356176
-0.079943404 0.55240977 -0.10110962
-0.056907181 0.55184507 -0.10477865
-0.033948407 0.55148989 -0.1070863
-0.011025066 0.5511325 -0.10940576
0.011862565 0.55113024 -0.10942113
0.034767933 0.55148739 -0.10710168
0.057709064 0.55184507 -0.10477865
0.080717757 0.5524146 -0.10107887
-0.61238754 -0.39214775 -0.079171419
0.61298919 -0.39214528 -0.079186916
-0.54057473 0.024325363 -0.092441201
0.54132569 0.024319686 -0.092192888
-0.51884049 0.093380012 -0.085189342
0.51953918 0.093380012 -0.084908366
-0.49447 0.13941026 -0.092844844
0.49524274 0.13941619 -0.092456698
-0.44837523 0.23145142 -0.093263865
0.44910666 0.23145705 -0.093139529
-0.42620692 0.27783036 -0.087496281
0.42689735 0.27783993 -0.087340474
-0.38013715 0.34702697 -0.08716929
0.38081884 0.3470374 -0.087044477
-0.28856599 0.4631384 -0.080533266
0.28918993 0.46314982 -0.080439329
-0.241217 0.48450297 -0.093868852
0.24193968 0.48451105 -0.093806744
-0.21851702 0.50806326 -0.089877486
0.21920957 0.50807405 -0.089799643
-0.19621974 0.53266495 -0.079187036
-0.17232625 0.53082848 -0.091742516
0.17303027 0.53083533 -0.091695905
0.19682747 0.53267169 -0.079139948
-0.12652194 0.55466181 -0.086483598
-0.10317539 0.55353177 -0.093822241
0.10389389 0.55353659 -0.093791127
0.12718418 0.55466658 -0.086452484
-0.034349505 0.57860684 -0.081034064
-0.011224579 0.57821006 -0.083487988
0.011862565 0.57821006 -0.083487988
0.034968719 0.57860917 -0.081018329
-0.58963728 -0.36931208 -0.077322006
0.5901252 -0.36923003 -0.07785511
-0.49960762 0.16312599 -0.062508464
0.50014299 0.16313443 -0.062144041
-0.47512048 0.20932832 -0.070169806
0.47570205 0.20933993 -0.069870353
-0.45233384 0.25584882 -0.067551851
0.45286995 0.25585648 -0.067409873
-0.40446916 0.32467544 -0.077980399
0.40508118 0.32468516 -0.077854991
-0.38319451 0.37224385 -0.063806415
0.38369662 0.37225556 -0.063679934
-0.35881537 0.39455584 -0.073066354
0.3593877 0.39456853 -0.07294035
-0.33518916 0.41729513 -0.077039719
0.33578768 0.41730514 -0.076945424
-0.31186318 0.44022906 -0.078795433
0.31247446 0.44024 -0.078701258
-0.26577738 0.48670334 -0.077055335
0.26637116 0.48671147 -0.076992631
-0.24298252 0.51039928 -0.073018909
0.24354474 0.51040792 -0.072956085
-0.22040831 0.53469473 -0.065309048
0.22091073 0.53470397 -0.065245748
-0.15004085 0.55596119 -0.078043222
0.15063909 0.5559684 -0.077996254
-0.1739814 0.55799007 -0.064866304
0.17447944 0.55799973 -0.064803004
-0.10422969 0.58096755 -0.066430807
-0.08077158 0.57970935 -0.074213624
-0.057512302 0.57900405 -0.078576088
0.058112718 0.57900673 -0.078560472
0.081338897 0.57971436 -0.07418251
0.10473734 0.58097255 -0.066399336
-0.59512627 -0.39688018 -0.049897313
0.59545344 -0.39683628 -0.050168872
-0.5482136 0.046707034 -0.05109489
0.54865879 0.046702176 -0.050775409
-0.52563816 0.1167496 -0.046796203
0.52605605 0.11675246 -0.046428084
-0.42998448 0.30267602 -0.061668873
0.43047431 0.30268592 -0.06152606
-0.40772638 0.34979555 -0.054473758
0.40815768 0.34980637 -0.054346442
-0.36172017 0.42026505 -0.049482346
0.36211115 0.42027885 -0.049354434
-0.33773237 0.44297495 -0.055014968
0.3381615 0.44298601 -0.054919481
-0.31423578 0.46606398 -0.056780577
0.31467775 0.46607554 -0.056685209
-0.29076496 0.48912379 -0.058559895
0.29121986 0.48913631 -0.058464646
-0.2678487 0.51294696 -0.054633021
0.2682713 0.51295787 -0.05455339
-0.2452911 0.53755462 -0.045755625
0.24564359 0.53756398 -0.045691729
-0.19813949 0.56005132 -0.051477671
0.198534 0.56005853 -0.051429749
-0.15162897 0.58385456 -0.048571348
-0.12781021 0.58223486 -0.058591723
0.12825777 0.58223999 -0.058559895
0.15200038 0.58386242 -0.048523426
-0.058200438 0.60717541 -0.048779011
-0.034804802 0.60672116 -0.051461577
-0.011450384 0.60626489 -0.054155231
0.011862565 0.60626489 -0.054155231
0.035196248 0.60672116 -0.051461577
0.058571476 0.60717809 -0.048763275
-0.50485337 0.18732846 -0.031534076
0.50514364 0.18733832 -0.031210661
-0.48009703 0.23393995 -0.0393852
0.48045003 0.23395625 -0.039031386
-0.45636111 0.2806696 -0.041393995
0.4566986 0.2806794 -0.041233182
-0.43382543 0.32795262 -0.035408258
0.43411565 0.32796511 -0.035247087
-0.41119859 0.37542087 -0.029415131
0.41144362 0.37543729 -0.029237151
-0.38629997 0.39785734 -0.040076613
0.38661963 0.39787012 -0.039947867
-0.34031314 0.46903405 -0.032665014
0.34057036 0.46904612 -0.032568097
-0.31667295 0.49231601 -0.034166336
0.31694096 0.49232879 -0.034069419
-0.29343557 0.51610059 -0.031873345
0.29368523 0.516114 -0.031776309
-0.22273736 0.56257993 -0.035053492
0.2230081 0.56259245 -0.034972906
-0.17586109 0.58615458 -0.034343839
0.17612337 0.58616245 -0.03429544
-0.081714481 0.60805362 -0.043592572
0.082046092 0.60805905 -0.043560386
-0.1054312 0.60947269 -0.035214782
0.10569857 0.60947794 -0.035182595
-0.62483197 -0.4254081 -0.019297957
-0.60160309 -0.4257063 -0.017537236
0.60171145 -0.42568687 -0.017651439
0.62502801 -0.42545226 -0.019037127
-0.57809615 -0.024611734 -0.017080426
0.57855177 -0.024680175 -0.015300989
-0.4604589 0.30592483 -0.014778137
0.46059427 0.30593711 -0.01459825
-0.38945463 0.42387667 -0.015970588
0.38958898 0.42389074 -0.015839934
-0.36467084 0.44638011 -0.02552557
0.36487767 0.44639507 -0.025395751
-0.2705465 0.54052758 -0.025428057
0.27074441 0.54053962 -0.025347114
-0.24800007 0.56585765 -0.013764501
0.2481076 0.56587005 -0.013682723
-0.20033397 0.58850521 -0.019803047
0.20048471 0.58851326 -0.019754171
-0.15346669 0.61298621 -0.014467478
-0.12928353 0.61091566 -0.026693344
0.12948555 0.61092108 -0.026660919
0.15357636 0.61299729 -0.01440227
-0.058989432 0.63657862 -0.014614701
-0.035327103 0.63606125 -0.017537236
-0.011709938 0.63554764 -0.020438194
0.011862565 0.63554764 -0.020438194
0.035457522 0.63606411 -0.017520905
0.059097227 0.63657862 -0.014614701
-0.55740666 0.069660492 -0.0013359785
0.55770135 0.069647908 0.00029695034
-0.53321177 0.14077783 -0.0040205717
0.53328264 0.14078197 -0.0037572384
-0.51023847 0.21203935 0.00026404858
0.51030916 0.21205783 0.00074255466
-0.48517635 0.25905976 -0.0079649687
0.48528609 0.25907829 -0.0076202154
-0.43773609 0.35367405 -0.0086706877
0.43782091 0.35368782 -0.0085066557
-0.41491812 0.40161055 -0.002571702
0.41495696 0.40162882 -0.0023906231
-0.36773962 0.47298223 -0.00061023235
0.36775675 0.47300047 -0.000461936
-0.34334919 0.49595323 -0.0063718557
0.34340593 0.49596852 -0.006256938
-0.32003537 0.52010602 -0.002967
0.32006505 0.52012193 -0.0028517246
-0.29680535 0.54451007 0.0017994642
0.29679748 0.54452699 0.001914978
-0.22544594 0.59172797 0.00013208389
0.22544709 0.59174389 0.00023090839
-0.1780432 0.61562073 0.0010893345
0.17803277 0.61562932 0.0011389256
-0.1068279 0.63935608 0.0010727644
-0.08280091 0.63769495 -0.0083096027
0.082861304 0.6377036 -0.0082604885
0.10681595 0.6393621 0.0011057854
-0.58556259 -0.33676612 0.021716237
0.58533204 -0.33672205 0.021398306
-0.58438957 -0.3120715 0.015620828
0.58415997 -0.31199729 0.015054345
-0.46520069 0.33191168 0.016020894
0.46511903 0.33193597 0.016337872
-0.44171363 0.37984931 0.018523693
0.44159177 0.37986618 0.018707156
-0.39265966 0.45031142 0.008520484
0.39260572 0.45032671 0.0086532831
-0.27366722 0.56926298 0.0083547831
0.27360663 0.56927836 0.0084542036
-0.25117466 0.59554189 0.02372551
0.25099376 0.59555542 0.023809195
-0.20288756 0.61832476 0.017055035
0.20275566 0.61833602 0.017121434
-0.13100123 0.64102465 0.01049602
0.13091701 0.64103055 0.01052916
-0.035943817 0.66705668 0.022519708
-0.012015009 0.66644192 0.019191623
0.011862565 0.66643864 0.019175053
0.035765238 0.66704416 0.022452712
-0.61043233 -0.45711169 0.026576281
0.61021984 -0.45710859 0.026559472
-0.5883286 -0.43478814 0.036088586
0.58798677 -0.43473384 0.035767794
-0.58763391 -0.41019705 0.032478929
0.58732003 -0.41014519 0.032158852
-0.58694077 -0.38566267 0.028877378
0.58665478 -0.38561344 0.028558135
-0.58625251 -0.3611874 0.025301099
0.58599418 -0.36114088 0.024982452
-0.54098088 0.16549006 0.039859056
0.54074103 0.16549984 0.040282488
-0.49036163 0.28470364 0.024110913
0.49022299 0.28472432 0.024446011
-0.41870359 0.42826486 0.024747729
0.41853258 0.4282847 0.024932265
-0.39679185 0.47799593 0.040096402
0.39649937 0.47801685 0.04026556
-0.37215787 0.50140178 0.035261393
0.37190121 0.50142378 0.035430193
-0.34771472 0.5248729 0.031434536
0.34748799 0.52489853 0.031619906
-0.3239826 0.54916996 0.033658743
0.32373232 0.54918957 0.033793569
-0.15563768 0.64373797 0.02582109
0.15543729 0.64374977 0.025888205
-0.084097356 0.66913956 0.033793569
-0.059922483 0.66766047 0.025787592
0.059719261 0.66766047 0.025787592
0.083833277 0.66914588 0.033827305
-0.59026206 -0.46057466 0.046135306
0.58987087 -0.46054456 0.045965433
-0.51770788 0.23780841 0.044368625
0.51742208 0.23782554 0.044742227
-0.49565631 0.31088817 0.05686295
0.49526396 0.31091067 0.057188153
-0.47021687 0.35852379 0.048601985
0.46988288 0.35854971 0.048908353
-0.4457646 0.40649328 0.046220303
0.44543001 0.40651196 0.046407342
-0.42327458 0.4559944 0.057736039
0.42285684 0.45602217 0.05797565
-0.30083284 0.57444996 0.04204452
0.30051702 0.5744707 0.042180181
-0.27776456 0.60022753 0.052709937
0.27736714 0.60025233 0.052863598
-0.22868675 0.62258846 0.042230964
0.22836398 0.62260562 0.042332768
-0.18064374 0.64683551 0.043316483
0.18030922 0.64684761 0.043384314
-0.133082 0.67315823 0.055545807
-0.10849567 0.67109954 0.044402719
0.1081502 0.67110586 0.044436574
0.13265298 0.67317402 0.055631161
-0.25501648 0.62713796 0.069095135
0.25448784 0.6271556 0.069198728
-0.20620184 0.65065557 0.06489253
0.20570394 0.65067405 0.064995766
-0.15828428 0.67674059 0.074935555
0.1577059 0.6767534 0.075004816
-0.061019544 0.70073086 0.073291898
-0.036671255 0.7000528 0.069767952
-0.012377145 0.69937277 0.066234708
0.011862565 0.69937277 0.066234708
0.036129475 0.7000528 0.069767952
0.060450904 0.7007342 0.073309064
-0.59723055 -0.49134931 0.082344532
0.59658879 -0.49134615 0.082327247
-0.52539712 0.26432627 0.089771032
0.52476919 0.26434889 0.090190768
-0.47533962 0.38570142 0.081875324
0.47474793 0.38572869 0.082170844
-0.4502939 0.43391639 0.077187538
0.44974792 0.43395749 0.077569008
-0.40315089 0.50839353 0.088688135
0.40249577 0.50842786 0.088950157
-0.37753761 0.53145528 0.078939438
0.37694731 0.53148162 0.079130292
-0.35317606 0.55576211 0.078731179
0.35258773 0.55579275 0.078939438
-0.32899731 0.58032268 0.080189347
0.32839617 0.58035481 0.080397844
-0.3058418 0.60659492 0.092097044
0.3051427 0.60662013 0.092254519
-0.085620731 0.70265061 0.083266735
0.084976241 0.70266062 0.083319068
-0.5764327 -0.49491522 0.10164547
0.57562369 -0.49489245 0.10152221
-0.57509243 -0.46911851 0.094391108
0.57431769 -0.46907505 0.094145775
-0.57538074 -0.44492641 0.095951676
0.574597 -0.44488761 0.09572351
-0.57567257 -0.42071322 0.09753108
0.57487357 -0.42067346 0.09728539
-0.57596141 -0.39647341 0.099094748
0.57515037 -0.39643535 0.098848581
-0.57625383 -0.37221214 0.10067737
0.57543057 -0.37217611 0.1004312
-0.57654327 -0.34792435 0.10224414
0.57570791 -0.3478902 0.10199761
-0.57682651 -0.32360804 0.10377705
0.57596058 -0.32356194 0.10342455
-0.57612711 -0.29861304 0.099991322
0.57529664 -0.29857409 0.099674821
-0.50171173 0.33793914 0.094321132
0.50105381 0.3379755 0.094794273
-0.4299427 0.48609591 0.10585856
0.42916006 0.4861306 0.10614109
-0.23272496 0.65593129 0.094689131
0.23199983 0.65595293 0.094811916
-0.18380207 0.68037391 0.094601512
0.18307288 0.68038684 0.094671607
-0.13555031 0.70760041 0.10898602
-0.11042108 0.70479834 0.094426155
0.1096911 0.70480835 0.094478726
0.13471003 0.7076174 0.10907459
-0.55531019 0.19201878 0.12079108
