ply
format ascii 1.0
comment PCL generated
element vertex 1335
property float x
property float y
property float z
element camera 0
property float view_px
property float view_py
property float view_pz
property float x_axisx
property float x_axisy
property float x_axisz
property float y_axisx
property float y_axisy
property float y_axisz
property float z_axisx
property float z_axisy
property float z_axisz
property float focal
property float scalex
property float scaley
property float centerx
property float centery
property int viewportx
property int viewporty
property float k1
property float k2
end_header
0.17560485 0.30351821 -0.24213421
0.19646053 0.30351821 -0.24213421
0.21731625 0.30351821 -0.24213421
0.23817196 0.30351821 -0.24213421
0.25902766 0.30351821 -0.24213421
0.27995276 0.30357695 -0.24144101
-0.49331659 0.30422348 -0.23380482
0.30167723 0.30425537 -0.23342931
-0.096663497 -0.094570905 -0.21240795
-0.18100354 -0.073487788 -0.21238077
-0.15970847 -0.073303714 -0.21579587
-0.13846643 -0.073120102 -0.21920252
-0.11727725 -0.072937042 -0.22260094
-0.096140698 -0.072754338 -0.22599065
-0.075263843 -0.072934866 -0.22264135
-0.054335624 -0.073115811 -0.21928382
-0.033355832 -0.073297158 -0.21591806
-0.012324398 -0.073479742 -0.21253049
-0.24395862 -0.0522535 -0.21561921
-0.22259653 -0.052088648 -0.21918893
-0.2013026 -0.051931649 -0.22258735
-0.18006156 -0.051775083 -0.22597706
-0.012220887 -0.051775083 -0.22597706
0.0087591987 -0.051930383 -0.22261429
0.029791016 -0.052085444 -0.21925688
0.05087465 -0.052240908 -0.215891
-0.26471955 -0.031078681 -0.21860611
0.071864977 -0.031070851 -0.21880937
-0.28543517 -0.009950079 -0.22158635
0.09281224 -0.0099476874 -0.22166741
0.11423646 -0.010276303 -0.21099043
-0.32845759 0.010877281 -0.21351099
-0.3061057 0.011132397 -0.22456002
0.11371521 0.011131808 -0.22453296
0.13519852 0.010885842 -0.21387851
-0.34914216 0.031999424 -0.21650243
0.15611644 0.032003339 -0.21676052
-0.36978343 0.05307525 -0.21947372
0.17699118 0.053076372 -0.21962273
-0.39105758 0.074105442 -0.21780562
0.19811884 0.074105442 -0.21819913
-0.41316244 0.095201515 -0.21090865
0.21965285 0.095194817 -0.21178114
-0.41085911 0.11606728 -0.22586918
0.21857873 0.11606933 -0.22573435
-0.43294838 0.13720652 -0.21901286
0.24010229 0.137199 -0.21933818
-0.45514911 0.15845242 -0.21212184
0.26172712 0.15842821 -0.21291196
-0.45261768 0.17896378 -0.22706926
0.26043925 0.17897218 -0.22685361
-0.47480223 0.20025186 -0.2202189
0.28205213 0.20024067 -0.22046268
-0.49709862 0.22164731 -0.21333396
0.30376667 0.22160922 -0.21404171
-0.51622617 0.28409964 -0.22346592
0.32374418 0.28409547 -0.22352004
-0.51733899 0.30558872 -0.21768355
0.32436955 0.30555302 -0.21810412
-0.11854203 -0.11684641 -0.19521737
-0.097192064 -0.11660689 -0.19867539
-0.076097675 -0.11682253 -0.19556224
-0.2034106 -0.095630497 -0.19520354
-0.18195401 -0.09541747 -0.19866168
-0.16055124 -0.095205024 -0.20211124
-0.13920201 -0.094993114 -0.20555198
-0.11790617 -0.094781697 -0.20898426
-0.07567849 -0.094769984 -0.20917547
-0.054647371 -0.094978735 -0.2057848
-0.033564396 -0.095188856 -0.20237184
-0.012428829 -0.095398813 -0.19896436
0.0087591987 -0.095609099 -0.19554842
-0.24526352 -0.074074477 -0.20149338
-0.2237536 -0.073857248 -0.20552456
-0.20235185 -0.073672265 -0.20895696
0.0087591987 -0.073661998 -0.20914805
0.029894933 -0.073844671 -0.2057575
0.051083848 -0.074030846 -0.20230329
-0.26613009 -0.052766606 -0.20451105
0.072179049 -0.052734256 -0.20520973
0.093652189 -0.053234056 -0.19438934
-0.30936491 -0.03193596 -0.19633424
-0.28695092 -0.031505264 -0.20752227
0.093230121 -0.031483307 -0.20809627
0.11476292 -0.031898253 -0.19731247
-0.33020014 -0.010634325 -0.19936323
-0.30772769 -0.01029098 -0.21051311
0.13582894 -0.010607719 -0.20022953
-0.35098955 0.010620363 -0.20238566
0.15685037 0.010637723 -0.20314014
-0.37173527 0.031828243 -0.20538759
0.17782821 0.03183822 -0.2060312
-0.39325875 0.05294662 -0.20275617
0.19908994 0.052957527 -0.20418227
-0.41549116 0.074105442 -0.19578278
0.22073802 0.074105442 -0.19768441
-0.43537915 0.11640441 -0.20397675
0.24128939 0.11638367 -0.20531917
-0.45770851 0.1377147 -0.19700956
0.26302823 0.13767274 -0.19882679
-0.47746211 0.17980576 -0.20519614
0.28345391 0.17975718 -0.20645535
-0.5000968 0.20131937 -0.19710588
0.3052834 0.20118725 -0.19996822
-0.51954991 0.26429662 -0.20619535
0.32549044 0.26414424 -0.20839691
0.34803897 0.30736017 -0.19676137
-0.52108717 0.32843179 -0.1982075
-0.49905294 0.32801157 -0.20275617
-0.47789407 0.32801157 -0.20275617
-0.45673525 0.32801157 -0.20275617
-0.43557644 0.32801157 -0.20275617
-0.41441756 0.32801157 -0.20275617
-0.39325875 0.32801157 -0.20275617
-0.37209988 0.32801157 -0.20275617
-0.35094106 0.32801157 -0.20275617
-0.32978222 0.32801157 -0.20275617
-0.3086234 0.32801157 -0.20275617
-0.28746456 0.32801157 -0.20275617
-0.26630571 0.32801157 -0.20275617
-0.24514687 0.32801157 -0.20275617
-0.22398803 0.32801157 -0.20275617
-0.20282918 0.32801157 -0.20275617
-0.18167034 0.32801157 -0.20275617
-0.16051151 0.32801157 -0.20275617
-0.13935268 0.32801157 -0.20275617
-0.11819384 0.32801157 -0.20275617
-0.097034991 0.32801157 -0.20275617
-0.075876154 0.32801157 -0.20275617
-0.054717317 0.32801157 -0.20275617
-0.03355848 0.32801157 -0.20275617
-0.01239964 0.32801157 -0.20275617
0.0087591987 0.32801157 -0.20275617
0.029918037 0.32801157 -0.20275617
0.051076874 0.32801157 -0.20275617
0.072235718 0.32801157 -0.20275617
0.093394555 0.32801157 -0.20275617
0.11455339 0.32801157 -0.20275617
0.13571224 0.32801157 -0.20275617
0.15687108 0.32801157 -0.20275617
0.17802991 0.32801157 -0.20275617
0.19918874 0.32801157 -0.20275617
0.22034758 0.32801157 -0.20275617
0.24150643 0.32801157 -0.20275617
0.26266527 0.32801157 -0.20275617
0.28382412 0.32801157 -0.20275617
0.30498296 0.32801157 -0.20275617
0.32657009 0.32835418 -0.19904697
-0.055280529 -0.13936032 -0.17836833
-0.11918367 -0.13913271 -0.18132555
-0.097725421 -0.13886385 -0.18481851
-0.076520607 -0.13909404 -0.18182707
-0.20448107 -0.11781086 -0.18129766
-0.18291505 -0.11756876 -0.18479073
-0.16140333 -0.11732732 -0.18827498
-0.13994573 -0.11708659 -0.19175065
-0.054962538 -0.11705978 -0.19213772
-0.033774815 -0.11729766 -0.18870461
-0.012534302 -0.1175361 -0.18526316
0.0087591987 -0.1177761 -0.18179905
0.030105989 -0.11801578 -0.17834032
-0.24658194 -0.096122026 -0.18722093
-0.22492112 -0.095843881 -0.19173682
0.029999992 -0.095820874 -0.19211006
0.051295772 -0.096040845 -0.18853843
-0.29003119 -0.075289756 -0.17894065
-0.26755524 -0.074679315 -0.19026995
0.072496273 -0.074614406 -0.19147384
0.094078489 -0.075203329 -0.18054485
-0.31101918 -0.053805932 -0.18200803
-0.28848383 -0.053284362 -0.19329858
0.11529467 -0.053737059 -0.18349731
-0.33196077 -0.032369494 -0.18506849
0.13646567 -0.032316573 -0.18644369
-0.35285792 -0.010980941 -0.18810856
0.15759166 -0.010941669 -0.18938375
0.17952666 -0.011278309 -0.1784519
-0.37370729 0.010361046 -0.19115579
0.17867278 0.010387845 -0.19231725
-0.3954843 0.03155347 -0.18753994
0.20007204 0.031591471 -0.19000685
-0.41784582 0.052775189 -0.18048918
0.22183441 0.052797936 -0.18344188
-0.43783674 0.095372014 -0.18877411
0.24248873 0.095353574 -0.19115567
-0.46029624 0.11674682 -0.18172944
0.26434281 0.11670271 -0.18459606
0.28630105 0.13815352 -0.1780051
-0.48015139 0.15913343 -0.19000697
0.28487012 0.15906265 -0.19230354
-0.50334972 0.18079484 -0.17949891
0.30689067 0.180581 -0.18505478
-0.52291596 0.24424148 -0.18870461
0.32725778 0.2439713 -0.19309139
-0.54587477 0.28742623 -0.18025208
0.34940046 0.2870062 -0.18570793
-0.54307282 0.30757284 -0.19425142
-0.54509437 0.32973009 -0.18415105
0.34932178 0.32952738 -0.18634641
-0.14145502 -0.16194554 -0.16374111
-0.11983246 -0.16164598 -0.16727877
-0.098264165 -0.161346 -0.17082119
-0.076948211 -0.16158992 -0.16794014
-0.055601709 -0.1618845 -0.16446078
-0.22729293 -0.14048742 -0.16372728
-0.20556132 -0.14021511 -0.1672647
-0.1838848 -0.13994338 -0.17079329
-0.16226315 -0.13967259 -0.17431283
-0.14069618 -0.13940221 -0.17782354
-0.033987336 -0.13962732 -0.17490101
-0.012640936 -0.13989589 -0.1714108
0.0087591987 -0.14016412 -0.16792607
0.030213052 -0.14043313 -0.16443264
-0.24791414 -0.11839953 -0.17279947
-0.22610044 -0.11805242 -0.1778096
0.051509827 -0.11827236 -0.17463493
0.073140308 -0.11903788 -0.16358602
-0.29159477 -0.097525418 -0.16443264
-0.26899526 -0.09682034 -0.17588043
0.07281667 -0.096714526 -0.17760003
0.094509088 -0.097394392 -0.16656065
-0.31269073 -0.075904489 -0.16753209
0.11583177 -0.075796157 -0.16954303
-0.33373979 -0.05433175 -0.17062461
0.13710882 -0.054244205 -0.17251909
-0.37771529 -0.033248641 -0.16223049
-0.35474399 -0.032807283 -0.17369652
0.15834041 -0.032738224 -0.17548871
0.18039003 -0.033163831 -0.16443253
-0.37569988 -0.011329912 -0.17677557
-0.39773461 0.0099221841 -0.17215443
0.20106432 0.01000376 -0.17568469
-0.42022452 0.031206995 -0.16503882
0.2229422 0.031268816 -0.16905105
0.2449249 0.052635849 -0.16238594
0.2437005 0.074105389 -0.17684543
-0.44032171 0.074105494 -0.17340231
-0.4629105 0.095545009 -0.16629303
0.26567107 0.095514774 -0.17021751
0.28774545 0.11702643 -0.16357183
-0.48287061 0.13823098 -0.17464888
-0.50664455 0.16000608 -0.16166544
0.30856845 0.15976509 -0.16948676
0.33085063 0.20294198 -0.16197622
-0.52632523 0.22392914 -0.17098975
0.32904336 0.22357132 -0.17762792
-0.54944217 0.26732898 -0.16242814
0.35131526 0.26679325 -0.17016113
0.37370744 0.31024849 -0.16265416
-0.5708586 0.33171332 -0.16268253
0.37310594 0.33129132 -0.16725051
-0.52801365 0.35322738 -0.16221631
-0.50654274 0.35322738 -0.16221631
-0.48507184 0.35322738 -0.16221631
-0.4636009 0.35322738 -0.16221631
-0.44213 0.35322738 -0.16221631
-0.4206591 0.35322738 -0.16221631
-0.39918816 0.35322738 -0.16221631
-0.37771726 0.35322738 -0.16221631
-0.35624635 0.35322738 -0.16221631
-0.33477542 0.35322738 -0.16221631
-0.31330451 0.35322738 -0.16221631
-0.29183361 0.35322738 -0.16221631
-0.27036268 0.35322738 -0.16221631
-0.24889177 0.35322738 -0.16221631
-0.22742085 0.35322738 -0.16221631
-0.20594995 0.35322738 -0.16221631
-0.18447903 0.35322738 -0.16221631
-0.16300812 0.35322738 -0.16221631
-0.1415372 0.35322738 -0.16221631
-0.12006629 0.35322738 -0.16221631
-0.098595373 0.35322738 -0.16221631
-0.077124454 0.35322738 -0.16221631
-0.055653542 0.35322738 -0.16221631
-0.03418263 0.35322738 -0.16221631
-0.012711715 0.35322738 -0.16221631
0.0087591987 0.35322738 -0.16221631
0.030230112 0.35322738 -0.16221631
0.051701024 0.35322738 -0.16221631
0.073171943 0.35322738 -0.16221631
0.094642855 0.35322738 -0.16221631
0.11611377 0.35322738 -0.16221631
0.13758469 0.35322738 -0.16221631
0.15905561 0.35322738 -0.16221631
0.18052652 0.35322738 -0.16221631
0.20199743 0.35322738 -0.16221631
0.22346835 0.35322738 -0.16221631
0.24493925 0.35322738 -0.16221631
0.26641017 0.35322738 -0.16221631
0.28788108 0.35322738 -0.16221631
0.30935201 0.35322738 -0.16221631
0.33082291 0.35322738 -0.16221631
0.35234603 0.35326967 -0.16179252
-0.16401008 -0.1850484 -0.14594674
-0.14222085 -0.18471754 -0.14952934
-0.12048721 -0.18438742 -0.15310299
-0.098808944 -0.18405807 -0.15666771
-0.077379689 -0.18431124 -0.15392768
-0.055926464 -0.18463722 -0.15039861
-0.034419045 -0.18496397 -0.14686108
-0.22849637 -0.16315009 -0.14951515
-0.20665257 -0.16284743 -0.15308881
-0.18486542 -0.16254689 -0.15663922
-0.16313261 -0.16224582 -0.16019475
-0.034202218 -0.16218233 -0.16094434
-0.012748536 -0.16247968 -0.15743315
0.0087591987 -0.16277775 -0.15391326
0.030321304 -0.16307777 -0.15037012
0.051944256 -0.16341241 -0.14641821
-0.27192223 -0.14180335 -0.14663243
-0.24926031 -0.14091085 -0.15822673
0.051725835 -0.14072779 -0.16060483
0.07346724 -0.14158802 -0.14942956
-0.2931748 -0.11999494 -0.14977169
-0.27045178 -0.11919442 -0.16132605
0.09494406 -0.11981055 -0.15243459
-0.31437984 -0.098235413 -0.15290391
0.11637431 -0.098078758 -0.15544724
-0.33553925 -0.076525107 -0.15601504
0.13775848 -0.076393738 -0.15845358
0.15986072 -0.076996058 -0.14727521
-0.37974998 -0.05539763 -0.14754629
-0.35664982 -0.054862425 -0.15913332
0.15909672 -0.054755211 -0.16145337
0.18126132 -0.055271208 -0.15028477
0.20308009 -0.033850662 -0.14658964
-0.40000805 -0.011950813 -0.15661073
0.20206696 -0.011809029 -0.16121304
-0.42263213 0.0093967021 -0.14940095
0.22406049 0.009515062 -0.15452421
0.24616094 0.030941419 -0.14778912
-0.44283217 0.052601025 -0.15787256
-0.46555644 0.074105389 -0.15066946
0.26701188 0.074105442 -0.15570283
0.28920639 0.095678233 -0.14897323
-0.4856177 0.11709471 -0.15913332
0.31026521 0.13871387 -0.15374279
0.33267683 0.18207803 -0.14616108
-0.52977842 0.20335452 -0.15304625
0.35325351 0.2463526 -0.15442491
0.37577796 0.28999889 -0.14683235
-0.57270193 0.31099701 -0.15381384
-0.57369912 0.35454828 -0.14901614
-0.54979861 0.35338438 -0.16064727
0.37503555 0.35419911 -0.15250587
-0.16489741 -0.20808667 -0.1315378
-0.1429953 -0.20772436 -0.13515747
-0.12114932 -0.20736304 -0.13876796
-0.099358745 -0.20700127 -0.14238334
-0.077815533 -0.20726237 -0.13977313
-0.056254163 -0.2076191 -0.13620853
-0.03463807 -0.20797682 -0.13263488
-0.012967126 -0.20833677 -0.12903774
-0.22971216 -0.18604517 -0.13515747
-0.20775612 -0.18571293 -0.13875353
-0.18585508 -0.18538028 -0.14235461
-0.012857223 -0.18529165 -0.14331436
0.0087591987 -0.18562135 -0.13974428
0.030430544 -0.18595064 -0.13617969
0.052164905 -0.18632877 -0.13208652
-0.27340823 -0.16465165 -0.13178337
-0.25062197 -0.16366072 -0.14348614
0.073797509 -0.16436839 -0.1351285
-0.29477152 -0.14270221 -0.134956
0.095383465 -0.14245516 -0.1381644
-0.31608677 -0.12080216 -0.13812137
0.11692239 -0.1205883 -0.14120781
0.13907774 -0.12137237 -0.12989092
-0.36052397 -0.099674836 -0.12952936
-0.33735594 -0.0989521 -0.14126527
0.13841476 -0.098768562 -0.14424491
0.16063254 -0.099464163 -0.13295209
-0.38186216 -0.077802867 -0.132303
-0.35857573 -0.077150121 -0.14441657
0.18214148 -0.077604041 -0.13599265
0.2041039 -0.056124374 -0.13181221
-0.40230918 -0.034070417 -0.14087796
-0.42506689 -0.012659855 -0.13358676
0.22519161 -0.012467593 -0.13983035
0.24741118 0.0090184808 -0.13302433
-0.44537324 0.030854702 -0.14215398
-0.46823227 0.052423973 -0.13486934
0.2683681 0.052471366 -0.14102137
0.29068267 0.074105442 -0.13422096
-0.48839819 0.095721029 -0.14342892
0.31197974 0.1174227 -0.13783383
-0.50998205 0.13894814 -0.1436007
0.3345255 0.16097647 -0.13015091
-0.53327662 0.18251258 -0.13486946
0.35521203 0.22567847 -0.13852358
-0.55305576 0.24697164 -0.14437366
0.37787023 0.26951706 -0.13084447
-0.57647777 0.29085988 -0.13564706
0.39907089 0.33431333 -0.13453817
0.39988315 0.35658392 -0.12867594
-0.10047594 -0.2536 -0.11335778
-0.18786609 -0.23175612 -0.11332834
-0.16579302 -0.23136094 -0.11699498
-0.14377694 -0.23096684 -0.12065196
-0.12181757 -0.23057365 -0.12429976
-0.099914752 -0.2301816 -0.12793791
-0.078256257 -0.23044869 -0.12546015
-0.05658555 -0.23083669 -0.12185931
-0.034859553 -0.23122576 -0.11824894
-0.01307804 -0.23161587 -0.11462963
-0.25338623 -0.20988548 -0.11356235
-0.2309417 -0.20917737 -0.12063754
-0.2088699 -0.20881239 -0.1242851
-0.18685593 -0.20844981 -0.12790895
0.0087591987 -0.20869625 -0.12544572
0.030540895 -0.20905659 -0.12184477
0.052387826 -0.20948055 -0.11760759
-0.27491009 -0.18774313 -0.11677611
-0.25199679 -0.18665057 -0.12860358
0.074131161 -0.18738243 -0.12068117
-0.29638523 -0.16565092 -0.11998248
0.095827371 -0.16533208 -0.12374794
0.11803546 -0.16630241 -0.11228955
-0.31781355 -0.14360975 -0.12316704
0.11747607 -0.14332822 -0.12682283
0.13974755 -0.14420839 -0.11538935
-0.36249107 -0.12243889 -0.11449802
-0.33919191 -0.12161705 -0.12635911
0.16141225 -0.12216276 -0.11848211
-0.38408038 -0.10048997 -0.1162945
0.18303066 -0.10016602 -0.12155402
0.20513855 -0.078634024 -0.11687827
-0.40463632 -0.056440577 -0.1249671
-0.42752934 -0.034966677 -0.11759293
0.22633468 -0.034682274 -0.12498164
0.24867468 -0.013136573 -0.11810327
-0.44794303 0.0088622645 -0.12625754
-0.47093847 0.030496586 -0.11889017
0.26973858 0.030608933 -0.12618518
0.29217464 0.052304242 -0.11931264
-0.49121019 0.074105389 -0.12754679
0.31371546 0.095888004 -0.12172842
-0.513363 0.11761564 -0.12530077
0.33639541 0.13963267 -0.11395705
-0.53682041 0.16139817 -0.11645496
0.35719472 0.2047687 -0.12242603
-0.55671644 0.22634897 -0.12608373
0.3799884 0.24880154 -0.11465859
-0.58030301 0.27045944 -0.11724281
0.40194693 0.31438693 -0.11378181
-0.60278112 0.35803488 -0.11417639
-0.58027273 0.37952942 -0.11738873
-0.55784726 0.37920117 -0.12043369
-0.53605473 0.37920117 -0.12043369
-0.5142622 0.37920117 -0.12043369
-0.49246961 0.37920117 -0.12043369
-0.47067708 0.37920117 -0.12043369
-0.44888452 0.37920117 -0.12043369
-0.42709193 0.37920117 -0.12043369
-0.4052994 0.37920117 -0.12043369
-0.38350683 0.37920117 -0.12043369
-0.36171427 0.37920117 -0.12043369
-0.33992171 0.37920117 -0.12043369
-0.31812915 0.37920117 -0.12043369
-0.29633662 0.37920117 -0.12043369
-0.27454403 0.37920117 -0.12043369
-0.2527515 0.37920117 -0.12043369
-0.23095894 0.37920117 -0.12043369
-0.20916636 0.37920117 -0.12043369
-0.18737382 0.37920117 -0.12043369
-0.16558126 0.37920117 -0.12043369
-0.14378871 0.37920117 -0.12043369
-0.12199615 0.37920117 -0.12043369
-0.10020358 0.37920117 -0.12043369
-0.078411028 0.37920117 -0.12043369
-0.056618474 0.37920117 -0.12043369
-0.034825914 0.37920117 -0.12043369
-0.013033358 0.37920117 -0.12043369
0.0087591987 0.37920117 -0.12043369
0.030551756 0.37920117 -0.12043369
0.052344315 0.37920117 -0.12043369
0.074136876 0.37920117 -0.12043369
0.095929429 0.37920117 -0.12043369
0.11772198 0.37920117 -0.12043369
0.13951455 0.37920117 -0.12043369
0.16130711 0.37920117 -0.12043369
0.18309966 0.37920117 -0.12043369
0.20489222 0.37920117 -0.12043369
0.22668476 0.37920117 -0.12043369
0.24847734 0.37920117 -0.12043369
0.2702699 0.37920117 -0.12043369
0.29206243 0.37920117 -0.12043369
0.31385502 0.37920117 -0.12043369
0.33564755 0.37920117 -0.12043369
0.35744011 0.37920117 -0.12043369
0.37924984 0.37921536 -0.12030268
-0.10104353 -0.27726325 -0.098611355
-0.079150841 -0.27753475 -0.096407533
-0.18888673 -0.25530443 -0.098596573
-0.16669883 -0.25487834 -0.10228646
-0.14456747 -0.25445172 -0.10598147
-0.056919992 -0.25429058 -0.10737753
-0.035083078 -0.25471169 -0.10373032
-0.013190091 -0.2551339 -0.1000737
0.0087591987 -0.25555894 -0.096392751
-0.12249343 -0.25402617 -0.10966718
-0.078701034 -0.2538704 -0.11101556
-0.25479054 -0.23336926 -0.098359942
-0.23218271 -0.23254791 -0.10598159
-0.20999631 -0.23215225 -0.1096524
0.0087591987 -0.23200694 -0.1110009
0.030652488 -0.23240063 -0.1073482
0.052613042 -0.23287156 -0.10297906
-0.27642798 -0.21108168 -0.10160828
0.074468255 -0.21063381 -0.10608447
-0.2980178 -0.18884626 -0.10483444
0.11860063 -0.18951392 -0.097606063
0.096275859 -0.18844455 -0.10918307
-0.3429229 -0.16767603 -0.096066952
-0.31955707 -0.16665982 -0.10806775
0.14042425 -0.1672805 -0.10073793
-0.36447921 -0.14544655 -0.099305749
-0.34104747 -0.14452374 -0.11129391
0.16220005 -0.14509574 -0.10386288
-0.38632187 -0.12343509 -0.10011792
0.18392904 -0.1229606 -0.10696626
0.20618422 -0.10138346 -0.10178518
-0.40698999 -0.079065353 -0.10887492
-0.43001753 -0.057527587 -0.10143125
0.22748989 -0.057133034 -0.10997498
0.24995162 -0.035527423 -0.10302341
-0.45053971 -0.01338014 -0.1101948
0.27252352 -0.013816021 -0.096037507
-0.47367302 0.0083191767 -0.10274327
0.27112365 0.0085143298 -0.11119127
0.29368246 0.030271068 -0.10424566
-0.4940542 0.052244037 -0.11148441
0.31546959 0.074105494 -0.10545218
-0.5167883 0.09600319 -0.1067605
0.33828518 0.11804219 -0.097591162
-0.54041094 0.14000592 -0.097798347
0.35920024 0.18361823 -0.10614336
-0.56042522 0.20545568 -0.10755372
0.38213104 0.22784677 -0.098286033
-0.58417863 0.24979064 -0.098596454
0.40302372 0.3807556 -0.10601091
-0.12386565 -0.30166501 -0.079957724
-0.10161648 -0.30117184 -0.083726048
-0.079604842 -0.30144176 -0.081663609
-0.21228221 -0.27956083 -0.079957724
-0.18991908 -0.27910039 -0.083696008
-0.16761318 -0.27863929 -0.087439537
-0.14536545 -0.27817947 -0.091173172
-0.12317564 -0.27772084 -0.094897032
-0.057258219 -0.27798748 -0.092732072
-0.035308912 -0.27843943 -0.089061975
-0.013303299 -0.27889448 -0.08536756
0.0087591987 -0.27935255 -0.081648707
-0.25621003 -0.2571061 -0.082993865
-0.23343666 -0.25616163 -0.091173172
-0.21113333 -0.25573337 -0.094882131
0.030765116 -0.25598329 -0.09271729
0.052840605 -0.25650513 -0.088198781
-0.27796221 -0.23467147 -0.086277246
0.074808843 -0.2341263 -0.091336489
0.097186372 -0.23538965 -0.079613447
-0.29966629 -0.21228969 -0.089538097
0.096728526 -0.21179491 -0.094482064
0.11917167 -0.21296704 -0.082769871
-0.34482041 -0.19107929 -0.080661178
-0.32131928 -0.18995738 -0.092806339
0.14110801 -0.19059214 -0.085934401
-0.36648875 -0.16870202 -0.083949804
0.16299599 -0.16826661 -0.089091897
-0.38859114 -0.14664476 -0.08374083
0.18483672 -0.1459915 -0.092227459
0.20724006 -0.12437536 -0.086545467
-0.40936846 -0.10194834 -0.092613339
0.22983751 -0.10275725 -0.079478621
-0.43253666 -0.080348149 -0.08506918
0.22865742 -0.07982336 -0.094808102
0.25124222 -0.058158025 -0.087781906
-0.45316845 -0.035877272 -0.093933582
0.27393699 -0.036385298 -0.080736041
-0.47644147 -0.014112853 -0.086396456
0.2952064 0.0080022439 -0.089017391
-0.49693066 0.030132458 -0.095237851
0.31724563 0.0520707 -0.088972807
-0.5202589 0.074105442 -0.087975502
0.34019861 0.096201368 -0.081020355
0.36122715 0.1622224 -0.089686751
-0.56418288 0.18428668 -0.088779449
0.3842966 0.20664804 -0.081738353
-0.58810556 0.22884808 -0.079703331
0.40486574 0.2941646 -0.09271729
-0.60678023 0.33790803 -0.095622897
-0.60695583 0.3819629 -0.094808221
-0.12456223 -0.32585883 -0.064876556
-0.102196 -0.32533336 -0.0686692
-0.080064014 -0.32559907 -0.066751361
-0.057944514 -0.32611689 -0.06301415
-0.21344435 -0.30364054 -0.064861417
0.0087591987 -0.30339316 -0.06675148
-0.19096121 -0.30314419 -0.06865418
-0.16853802 -0.3026512 -0.072421908
-0.14617257 -0.30215743 -0.076194763
-0.057599589 -0.30192775 -0.077949882
-0.035537317 -0.30241501 -0.074226856
-0.013417795 -0.30290344 -0.070494056
-0.25764486 -0.28109998 -0.067461491
-0.234705 -0.28002426 -0.076194763
0.030878911 -0.27980989 -0.0779351
0.05307053 -0.2803852 -0.07326448
-0.27951458 -0.25851813 -0.070765257
0.075152978 -0.25786349 -0.076434851
0.097649001 -0.25923139 -0.064588904
-0.30133262 -0.23598641 -0.074076533
0.11974869 -0.23666516 -0.067778468
-0.34673664 -0.21473494 -0.065103412
-0.32310057 -0.21350637 -0.07738018
0.14179888 -0.21414724 -0.070976257
-0.36852208 -0.19221079 -0.068412542
0.16380024 -0.19167924 -0.074166775
-0.39088666 -0.17012265 -0.067174315
0.18575291 -0.16926092 -0.07735014
0.20830829 -0.14761579 -0.071126938
-0.41177645 -0.1250957 -0.076149702
0.23103032 -0.12593848 -0.06398356
-0.43508485 -0.10343213 -0.068518281
0.2525467 -0.081032053 -0.072376728
-0.4558275 -0.058633581 -0.077485204
0.27536711 -0.059198573 -0.065254569
-0.47924188 -0.036803909 -0.069860935
0.29674524 -0.014505647 -0.073640347
-0.49997032 0.0077493861 -0.078070045
0.31904069 0.029779527 -0.072316408
-0.52377558 0.051916443 -0.068940759
0.34213266 0.074105442 -0.064271092
-0.54404896 0.11833011 -0.078894377
0.36327949 0.140578 -0.073023796
-0.56799048 0.16283616 -0.069755197
0.38648936 0.18520255 -0.064982414
0.4078261 0.2736389 -0.07135272
-0.61330634 0.31848836 -0.065345526
0.42991057 0.38442743 -0.071940064
-0.61300981 0.40719587 -0.066721201
-0.58859462 0.40596867 -0.07735014
-0.56647038 0.40596867 -0.07735014
-0.54434615 0.40596867 -0.07735014
-0.52222192 0.40596867 -0.07735014
-0.50009775 0.40596867 -0.07735014
-0.47797352 0.40596867 -0.07735014
-0.45584932 0.40596867 -0.07735014
-0.43372506 0.40596867 -0.07735014
-0.41160086 0.40596867 -0.07735014
-0.38947666 0.40596867 -0.07735014
-0.36735246 0.40596867 -0.07735014
-0.34522822 0.40596867 -0.07735014
-0.32310402 0.40596867 -0.07735014
-0.30097979 0.40596867 -0.07735014
-0.27885559 0.40596867 -0.07735014
-0.25673136 0.40596867 -0.07735014
-0.23460716 0.40596867 -0.07735014
-0.21248293 0.40596867 -0.07735014
-0.19035873 0.40596867 -0.07735014
-0.16823451 0.40596867 -0.07735014
-0.1461103 0.40596867 -0.07735014
-0.12398608 0.40596867 -0.07735014
-0.10186186 0.40596867 -0.07735014
-0.079737656 0.40596867 -0.07735014
-0.05761344 0.40596867 -0.07735014
-0.035489231 0.40596867 -0.07735014
-0.013365017 0.40596867 -0.07735014
0.0087591987 0.40596867 -0.07735014
0.030883415 0.40596867 -0.07735014
0.053007625 0.40596867 -0.07735014
0.075131841 0.40596867 -0.07735014
0.097256057 0.40596867 -0.07735014
0.11938027 0.40596867 -0.07735014
0.14150448 0.40596867 -0.07735014
0.1636287 0.40596867 -0.07735014
0.18575291 0.40596867 -0.07735014
0.20787713 0.40596867 -0.07735014
0.23000133 0.40596867 -0.07735014
0.25212556 0.40596867 -0.07735014
0.27424976 0.40596867 -0.07735014
0.29637399 0.40596867 -0.07735014
0.31849819 0.40596867 -0.07735014
0.34062243 0.40596867 -0.07735014
0.36274663 0.40596867 -0.07735014
0.38487086 0.40596867 -0.07735014
0.40739036 0.40629804 -0.074497342
-0.12526615 -0.35030815 -0.049636006
-0.10278107 -0.34974754 -0.053468943
-0.080527522 -0.35000658 -0.051698685
-0.058293402 -0.35056099 -0.047907114
-0.21461757 -0.32797271 -0.049620867
-0.19201539 -0.32744378 -0.053438187
-0.16947168 -0.32691404 -0.057261109
-0.14698738 -0.32638571 -0.06107378
-0.035767868 -0.32663813 -0.059252262
-0.013533369 -0.32716081 -0.055480361
0.0087591987 -0.32768479 -0.051698804
0.031110182 -0.3282122 -0.047891974
-0.25909674 -0.30535713 -0.051744461
-0.23598541 -0.30413625 -0.06107378
0.030994006 -0.30388632 -0.06298399
0.053302869 -0.30451584 -0.058173537
-0.2810823 -0.28262252 -0.055099487
0.075500727 -0.28184932 -0.061377168
0.098116495 -0.28332373 -0.049406648
-0.30301705 -0.25994062 -0.058447003
0.12033176 -0.26061228 -0.052629709
-0.34867376 -0.23864838 -0.04937613
0.14249703 -0.23794955 -0.055860996
-0.32490113 -0.23731095 -0.061786652
-0.37057555 -0.21597406 -0.052721381
0.16461293 -0.21533722 -0.059085131
0.18761988 -0.21654326 -0.047034264
-0.39320883 -0.19387323 -0.050415635
0.18667965 -0.19277519 -0.062301993
0.20938809 -0.17110771 -0.055541277
-0.41421238 -0.14851125 -0.059495091
0.23223488 -0.14937027 -0.048335791
-0.43766266 -0.12678435 -0.051775098
0.25386402 -0.10415259 -0.056819797
-0.45851731 -0.081653297 -0.060846329
0.27681273 -0.082259044 -0.04960537
-0.4820748 -0.059758335 -0.053133249
0.29830223 -0.037257202 -0.058082223
-0.50336391 -0.014959477 -0.05890274
0.32085845 0.0072270334 -0.055449963
-0.5273394 0.029430561 -0.049651384
0.34409118 0.051750004 -0.047309995
-0.54773557 0.096365169 -0.059738159
0.36535403 0.11867976 -0.056180835
-0.57184905 0.14109859 -0.05047667
0.38870591 0.1635047 -0.04804492
-0.59366608 0.20797768 -0.052950263
0.41083315 0.25280502 -0.049651265
0.43187076 0.36360282 -0.058538198
0.43258098 0.4087016 -0.053682327
-0.14864381 -0.37561747 -0.030334234
-0.12597826 -0.37501946 -0.034218311
-0.10337292 -0.37442321 -0.038091779
-0.08099588 -0.37467003 -0.036487937
-0.058645599 -0.37525985 -0.03265667
-0.23858838 -0.35313138 -0.030334234
0.031227583 -0.35279381 -0.032641172
-0.21580325 -0.3525632 -0.034218311
-0.1930797 -0.35199893 -0.038076401
-0.17041522 -0.35143384 -0.041939855
-0.14781162 -0.35087246 -0.045777678
-0.036001064 -0.3511171 -0.044105649
-0.013650155 -0.35167223 -0.040309548
0.0087591987 -0.3522335 -0.036472559
-0.26056308 -0.329878 -0.03587079
-0.23728067 -0.32850522 -0.045777678
0.053537667 -0.32890069 -0.042923212
0.076207258 -0.33058289 -0.030783534
-0.28266716 -0.30699056 -0.039262772
0.075852133 -0.30608779 -0.046160817
0.098588936 -0.30767086 -0.034063697
-0.30471987 -0.28415629 -0.042646885
0.120921 -0.28481233 -0.037320852
-0.35063401 -0.26282567 -0.033460855
-0.32672313 -0.26137692 -0.046007633
0.14320254 -0.26200286 -0.040586591
-0.37265146 -0.23999742 -0.03685832
0.16543418 -0.23924449 -0.0438447
0.18859589 -0.24060878 -0.031186104
-0.395556 -0.21790001 -0.033476233
0.21047965 -0.19485509 -0.03978622
-0.41667444 -0.17219824 -0.042662144
0.23345378 -0.17305855 -0.032501817
-0.44026816 -0.15040819 -0.03485167
0.25519693 -0.12752549 -0.041078806
-0.46123844 -0.10494128 -0.0440135
0.27827412 -0.1055712 -0.033785462
-0.4849408 -0.082980946 -0.036210418
0.29987612 -0.060256198 -0.042354703
-0.50680315 -0.037973329 -0.039478302
0.32269761 -0.015591286 -0.038384557
-0.55147171 0.074105442 -0.040324926
0.36745486 0.096523926 -0.039124131
-0.57575959 0.11906844 -0.030938387
0.39095065 0.141551 -0.030891776
-0.61997569 0.29865366 -0.034403682
0.43507332 0.34335643 -0.036642313
-0.64320755 0.41132969 -0.03092289
-0.62081605 0.43386278 -0.030504584
-0.59782612 0.43356338 -0.032935023
-0.57536 0.43356338 -0.032935023
-0.55289388 0.43356338 -0.032935023
-0.53042775 0.43356338 -0.032935023
-0.50796157 0.43356338 -0.032935023
-0.48549548 0.43356338 -0.032935023
-0.46302935 0.43356338 -0.032935023
-0.44056323 0.43356338 -0.032935023
-0.41809711 0.43356338 -0.032935023
-0.39563102 0.43356338 -0.032935023
-0.37316489 0.43356338 -0.032935023
-0.35069877 0.43356338 -0.032935023
-0.32823265 0.43356338 -0.032935023
-0.30576652 0.43356338 -0.032935023
-0.2833004 0.43356338 -0.032935023
-0.26083428 0.43356338 -0.032935023
-0.23836814 0.43356338 -0.032935023
-0.21590202 0.43356338 -0.032935023
-0.19343591 0.43356338 -0.032935023
-0.17096977 0.43356338 -0.032935023
-0.14850366 0.43356338 -0.032935023
-0.12603754 0.43356338 -0.032935023
-0.10357141 0.43356338 -0.032935023
-0.081105292 0.43356338 -0.032935023
-0.058639169 0.43356338 -0.032935023
-0.036173046 0.43356338 -0.032935023
-0.013706924 0.43356338 -0.032935023
0.0087591987 0.43356338 -0.032935023
0.031225322 0.43356338 -0.032935023
0.053691447 0.43356338 -0.032935023
0.07615757 0.43356338 -0.032935023
0.098623693 0.43356338 -0.032935023
0.12108981 0.43356338 -0.032935023
0.14355594 0.43356338 -0.032935023
0.16602206 0.43356338 -0.032935023
0.18848817 0.43356338 -0.032935023
0.21095431 0.43356338 -0.032935023
0.23342042 0.43356338 -0.032935023
0.25588652 0.43356338 -0.032935023
0.27835268 0.43356338 -0.032935023
0.3008188 0.43356338 -0.032935023
0.32328492 0.43356338 -0.032935023
0.34575105 0.43356338 -0.032935023
0.36821717 0.43356338 -0.032935023
0.39068329 0.43356338 -0.032935023
0.41314942 0.43356338 -0.032935023
-0.14948572 -0.40062931 -0.014710069
-0.12669727 -0.39999223 -0.018651366
-0.1039705 -0.39935935 -0.022566438
-0.08146967 -0.39959621 -0.021101356
-0.059001878 -0.40022218 -0.017229319
-0.23991008 -0.37802052 -0.014725804
-0.21700279 -0.37741849 -0.018635869
-0.19415534 -0.37681574 -0.022550821
-0.17136979 -0.37621698 -0.026439905
-0.03623648 -0.37585124 -0.028815031
-0.013768291 -0.37644437 -0.02496326
0.0087591987 -0.37703896 -0.021101475
0.031346224 -0.37763497 -0.017229438
-0.26204556 -0.3546688 -0.019822359
0.053774945 -0.35354418 -0.027511597
0.07656616 -0.35533866 -0.015242577
-0.28426945 -0.33162647 -0.023251772
0.099066399 -0.33227694 -0.018557668
-0.33042389 -0.31030208 -0.013958216
-0.30644137 -0.30863822 -0.026672959
0.1215165 -0.30926934 -0.021849751
-0.35261393 -0.28726768 -0.017385602
-0.32856336 -0.2857053 -0.030070901
0.14391552 -0.28631136 -0.025149941
-0.37475023 -0.26428527 -0.020820737
0.16626413 -0.2634052 -0.028442621
0.18958162 -0.26493657 -0.015179873
-0.39793295 -0.24221066 -0.016322255
0.21158311 -0.21886244 -0.023858666
-0.41916758 -0.1961641 -0.025616407
0.23468602 -0.19700682 -0.016494274
-0.44290668 -0.17431085 -0.017713904
0.25654447 -0.15115389 -0.025165319
-0.46398896 -0.12850094 -0.026999116
0.27975151 -0.12913877 -0.017792106
-0.48783785 -0.10647528 -0.019104242
0.30146721 -0.083506569 -0.026455402
-0.51028877 -0.0612984 -0.019791126
0.32455689 -0.038679436 -0.021132708
-0.5309512 0.006641686 -0.030101895
0.34607282 0.029130306 -0.030148268
-0.55525827 0.051544778 -0.020649314
0.3695806 0.074105442 -0.021865249
-0.60014313 0.18686503 -0.021787286
0.41388369 0.23165382 -0.027635813
0.43832466 0.32280117 -0.014412642
0.43722096 0.43491533 -0.021958709
-0.15033585 -0.42590761 0.0010662079
-0.12742472 -0.42523557 -0.0029016733
-0.10457509 -0.4245654 -0.0068588257
-0.081947997 -0.42478418 -0.005567193
-0.059361577 -0.4254469 -0.0016540289
-0.03671506 -0.42611146 0.0022696257
-0.2412473 -0.40317971 0.0010663271
-0.21821399 -0.40253824 -0.0029016733
-0.1952436 -0.40190107 -0.0068430901
0.0087591987 -0.40210736 -0.0055673122
0.031466246 -0.40274251 -0.0016381741
-0.17233357 -0.401263 -0.010789871
-0.036474384 -0.40084717 -0.013362765
-0.013887558 -0.40147632 -0.0094702244
-0.26354447 -0.37973398 -0.0035961866
0.05401475 -0.37845001 -0.011935711
0.076928906 -0.38035923 0.00046479702
-0.28588948 -0.35653499 -0.007063508
0.099548966 -0.35714588 -0.0028859377
-0.33230504 -0.33517164 0.002333045
-0.30818364 -0.33339253 -0.010506988
0.12211834 -0.33398744 -0.0062131882
-0.35461584 -0.31198058 -0.001132369
0.14463611 -0.31087914 -0.0095487833
-0.3768743 -0.28884366 -0.0045899153
0.16710292 -0.28782311 -0.01287663
0.19057918 -0.28953463 0.0010188818
-0.40033796 -0.26680887 0.0010344982
0.21269876 -0.24313393 -0.007756114
-0.42169014 -0.22041258 -0.0083694458
0.23593189 -0.22121903 -0.00031042099
-0.4455764 -0.19849589 -0.00037372112
0.25790679 -0.17504208 -0.0090771914
-0.4667744 -0.15233906 -0.0097688437
0.2812452 -0.15296632 -0.0016223192
-0.49077171 -0.13024817 -0.0017802715
0.30307582 -0.10701251 -0.010381579
-0.51382196 -0.084940985 0.00016415119
0.32644004 -0.062043533 -0.0036592484
-0.53461194 -0.01645644 -0.010287285
0.34807622 0.0062419474 -0.01279819
-0.55909646 0.028676964 -0.00070571899
0.37172973 0.051419765 -0.0044163465
-0.57972318 0.096739419 -0.011135101
0.39322004 0.11933618 -0.013550758
0.4169831 0.21018007 -0.0052677393
-0.62678617 0.27838784 -0.0028067827
-0.15119515 -0.45145887 0.017012954
-0.036958061 -0.45164311 0.018053412
-0.12815928 -0.45074874 0.013002038
-0.10518558 -0.45004058 0.0090020895
-0.082431912 -0.45024347 0.010148406
-0.059725113 -0.45094103 0.014087677
-0.24259764 -0.4286083 0.017012954
-0.21943951 -0.42793167 0.013018131
-0.1963425 -0.42725432 0.0090180635
-0.17330873 -0.42658132 0.0050446987
-0.014008215 -0.42677766 0.0062038898
0.0087591987 -0.42744571 0.010148525
0.031587426 -0.42811555 0.014103651
-0.26506007 -0.40507841 0.012810588
0.054257125 -0.40362287 0.0038073063
0.077295177 -0.40564635 0.016324997
-0.28752747 -0.38172019 0.0093045235
0.10003672 -0.3822822 0.012954354
-0.33420902 -0.36032107 0.018822074
-0.3099435 -0.35841966 0.0058227777
0.12272665 -0.35897091 0.0095912218
-0.35664001 -0.3369686 0.015301704
0.1688076 -0.33744752 0.018757939
0.14536442 -0.33571023 0.0062197447
-0.37901992 -0.31367368 0.011805773
0.16795069 -0.31250244 0.0028560162
0.19158782 -0.31440541 0.017397046
-0.40276942 -0.2916978 0.018581867
0.21382673 -0.26767373 0.0085247755
-0.42424259 -0.24494857 0.0090817213
0.23719154 -0.24569982 0.0160532
-0.44827789 -0.22296864 0.017172813
0.25928417 -0.19919452 0.0071889162
-0.46959284 -0.17645991 0.0076658726
0.28275397 -0.17705649 0.014710546
-0.4937405 -0.15430346 0.015749335
0.30470222 -0.13077815 0.005870223
0.32834405 -0.085687056 0.014007926
-0.53832275 -0.039870039 0.0097982883
0.3501054 -0.016920201 0.0047749281
0.37390661 0.028462008 0.013257504
-0.58374411 0.074105442 0.0089544058
0.39551857 0.096855968 0.0040134192
-0.60676759 0.16529459 0.010084748
0.42013028 0.18837526 0.017445087
0.44162369 0.30192885 0.0081429482
-0.63109273 0.46258694 0.017172813
-0.60733086 0.46201396 0.012794614
-0.58451271 0.46201396 0.012794614
-0.56169456 0.46201396 0.012794614
-0.53887641 0.46201396 0.012794614
-0.51605827 0.46201396 0.012794614
-0.49324012 0.46201396 0.012794614
-0.47042194 0.46201396 0.012794614
-0.44760379 0.46201396 0.012794614
-0.42478567 0.46201396 0.012794614
-0.4019675 0.46201396 0.012794614
-0.37914935 0.46201396 0.012794614
-0.3563312 0.46201396 0.012794614
-0.33351305 0.46201396 0.012794614
-0.3106949 0.46201396 0.012794614
-0.28787675 0.46201396 0.012794614
-0.26505861 0.46201396 0.012794614
-0.24224046 0.46201396 0.012794614
-0.2194223 0.46201396 0.012794614
-0.19660415 0.46201396 0.012794614
-0.173786 0.46201396 0.012794614
-0.15096785 0.46201396 0.012794614
-0.1281497 0.46201396 0.012794614
-0.10533155 0.46201396 0.012794614
-0.082513399 0.46201396 0.012794614
-0.059695251 0.46201396 0.012794614
-0.036877103 0.46201396 0.012794614
-0.014058951 0.46201396 0.012794614
0.0087591987 0.46201396 0.012794614
0.031577349 0.46201396 0.012794614
0.054395497 0.46201396 0.012794614
0.077213652 0.46201396 0.012794614
0.1000318 0.46201396 0.012794614
0.12284995 0.46201396 0.012794614
0.1456681 0.46201396 0.012794614
0.16848625 0.46201396 0.012794614
0.1913044 0.46201396 0.012794614
0.21412255 0.46201396 0.012794614
0.2369407 0.46201396 0.012794614
0.25975886 0.46201396 0.012794614
0.28257701 0.46201396 0.012794614
0.30539516 0.46201396 0.012794614
0.3282133 0.46201396 0.012794614
0.35103145 0.46201396 0.012794614
0.3738496 0.46201396 0.012794614
0.39666775 0.46201396 0.012794614
0.4194859 0.46201396 0.012794614
-0.15206467 -0.47729063 0.033149004
-0.12890255 -0.47654158 0.029094577
-0.1058033 -0.47579461 0.025050998
-0.082920529 -0.47597289 0.026016712
-0.060092919 -0.47671151 0.030014396
-0.03720393 -0.4774521 0.034022808
-0.24396265 -0.45431298 0.033132911
-0.22067706 -0.45359796 0.029094458
-0.19745331 -0.45288199 0.025050998
-0.17429346 -0.45217097 0.021034598
-0.014130043 -0.45234716 0.022029638
0.0087591987 -0.453053 0.026016593
0.031709906 -0.45376086 0.030014277
-0.26659262 -0.43070632 0.029401064
0.054502115 -0.4290666 0.019719601
0.077665791 -0.43120956 0.032372832
-0.28918543 -0.40718982 0.025871754
0.10052973 -0.40768987 0.028965712
-0.31172305 -0.38372633 0.022334814
0.12334152 -0.38422379 0.025565863
-0.35868886 -0.36223918 0.031936407
0.14610058 -0.36080897 0.022158146
0.16967377 -0.36266264 0.03483212
-0.38118958 -0.33878157 0.028385043
0.19260772 -0.33955374 0.033957958
0.21496724 -0.29248667 0.024986744
-0.42682314 -0.26977536 0.026725054
0.23846525 -0.27045366 0.032599211
-0.45100915 -0.24773237 0.034913182
0.26067552 -0.2236138 0.02361989
-0.47244489 -0.20086834 0.025308609
0.28428108 -0.20141643 0.031241536
-0.49674475 -0.17864653 0.03348875
0.30644792 -0.15488592 0.023314714
-0.51740354 -0.10890765 0.020392895
0.33027276 -0.10961664 0.031904101
-0.54208761 -0.063606188 0.030175805
0.35215715 -0.040360548 0.02254343
-0.56299019 0.0054954961 0.019527078
0.37610775 0.0052275658 0.031128645
-0.58781707 0.051160254 0.029304266
0.39849919 0.074105442 0.026789546
-0.63374925 0.25767928 0.029497981
0.44497612 0.28073451 0.031064034
0.44389209 0.46343479 0.023652196
-0.15294279 -0.50340164 0.049445152
-0.1296532 -0.50261283 0.045346379
-0.10642713 -0.50182623 0.041258693
-0.083414406 -0.50197965 0.042055845
-0.06046433 -0.50275731 0.046096802
-0.037452199 -0.50353706 0.050148487
-0.24537164 -0.48036182 0.049772263
-0.22192813 -0.4795441 0.045346379
-0.19857731 -0.47879201 0.041274905
-0.17528887 -0.47803891 0.037198424
-0.01425318 -0.47819161 0.038025737
0.0087591987 -0.47893625 0.042055845
0.031833835 -0.47968578 0.046112895
-0.26814395 -0.45662564 0.046194553
0.05474975 -0.454786 0.035804152
0.078040428 -0.45705068 0.04859519
-0.29086038 -0.43294311 0.042609096
0.10102811 -0.43337357 0.045150518
-0.31352258 -0.40931723 0.03903234
0.12396307 -0.40975082 0.041714072
-0.36075878 -0.38779208 0.048742294
-0.33613253 -0.3857502 0.035480142
0.14684471 -0.38617963 0.038269162
0.17054938 -0.38815215 0.0510813
-0.38350105 -0.36430305 0.046047807
0.19363907 -0.36498427 0.050704837
-0.40523213 -0.3168864 0.036355257
0.21611939 -0.31757498 0.041616559
-0.42943704 -0.29490185 0.044596314
0.23975325 -0.29548502 0.049330831
0.26208377 -0.24830768 0.040250659
-0.47533119 -0.22556952 0.043162584
0.28582522 -0.22604945 0.047957897
-0.49983233 -0.20330819 0.051720023
0.30825016 -0.17930993 0.041323662
-0.5210346 -0.13320518 0.040901065
0.33222491 -0.1338369 0.050017715
-0.54590154 -0.087670669 0.050819516
0.35423559 -0.064085111 0.040543199
-0.5669347 -0.018005647 0.040023327
0.37833759 -0.018289179 0.049232483
0.40153685 0.051000856 0.050001264
-0.61354119 0.14324996 0.042674303
0.42332411 0.16623107 0.040494561
0.63290226 0.23592024 0.051539898
0.6554932 0.23578897 0.04910183
0.67829531 0.23571761 0.047778249
0.70156765 0.23576079 0.048578858
0.72516477 0.23587431 0.050688505
0.54044247 0.25903872 0.05157268
0.56293654 0.25883114 0.048202991
0.58557481 0.25868636 0.045852065
0.60823631 0.25855994 0.043797851
0.63092089 0.25844961 0.042007089
0.65405864 0.25847667 0.042446256
0.67727226 0.25852275 0.043195367
0.70117539 0.25874972 0.046880007
0.47112018 0.28216791 0.051752687
0.49369079 0.28193319 0.048366308
0.51625198 0.28171611 0.045232177
0.53888136 0.28154457 0.042755723
0.56155747 0.28140476 0.040738344
0.58441246 0.28134054 0.03981185
0.60731179 0.28129661 0.039178491
0.6303094 0.2812888 0.039064646
0.65395689 0.28149045 0.041974425
0.67770875 0.28171039 0.045150757
0.70225531 0.2821542 0.051556349
0.47075737 0.30510458 0.049396157
0.49329749 0.30483797 0.045933723
0.51589322 0.30462092 0.043113947
0.53870845 0.30451804 0.04177928
0.56150341 0.30441558 0.040445685
0.58451879 0.30440924 0.040364504
0.60770863 0.30447048 0.04116106
0.63124573 0.30465609 0.043569922
0.65535229 0.3050316 0.048448205
0.49417996 0.32837349 0.051392436
0.51681876 0.32813525 0.048578739
0.539814 0.3280881 0.048023224
0.56279773 0.32803974 0.047451615
0.58607441 0.32812405 0.048448086
-0.15383147 -0.52980274 0.065936804
-0.13041283 -0.52897346 0.06179285
-0.10705843 -0.52814627 0.057660222
-0.083914146 -0.52827132 0.058285117
-0.060840137 -0.52908885 0.062370062
-0.037703425 -0.52990866 0.066465974
-0.24681324 -0.50674099 0.06679678
-0.22319418 -0.50577807 0.06179297
-0.19971253 -0.50498265 0.057660222
-0.1762962 -0.50419271 0.053555369
-0.014377777 -0.50431895 0.054211378
0.0087591987 -0.50510299 0.058285117
0.031958979 -0.50588912 0.062370062
-0.26971135 -0.48283565 0.06316185
0.055000089 -0.48078531 0.052063942
0.078419156 -0.4831742 0.064994693
-0.29255432 -0.45898765 0.059535623
0.10153192 -0.45933771 0.06151247
-0.31534421 -0.43520004 0.055934906
0.12459139 -0.43555623 0.058038473
-0.36285219 -0.41363451 0.06573844
-0.33807772 -0.41146636 0.052326083
0.14759697 -0.41182673 0.054555774
0.17143455 -0.41392058 0.06750834
-0.38587031 -0.39016458 0.064152241
0.19468206 -0.39070165 0.067640662
-0.40772456 -0.34237838 0.054342628
0.21728562 -0.34294739 0.058449745
-0.4320825 -0.32033193 0.062683463
0.24105577 -0.32079875 0.06625092
-0.45377579 -0.27279589 0.052883267
0.26350787 -0.27327907 0.057068348
-0.47824964 -0.25056711 0.061215878
0.28738683 -0.25096011 0.064862609
0.31007272 -0.20403013 0.059535742
-0.52471602 -0.15784028 0.061693788
0.35633931 -0.08809863 0.058762193
-0.57093394 -0.041833259 0.060804009
0.38059264 -0.04209248 0.067541242
-0.59318656 0.027801976 0.056131721
0.42657021 0.14374058 0.063921213
0.72857881 0.1902054 0.064994812
0.75161159 0.19017616 0.064234972
0.7752623 0.19024223 0.065953493
0.63621783 0.21354073 0.067491651
0.65819669 0.21327052 0.061644435
0.6806336 0.2131139 0.058252215
0.70325512 0.21300463 0.055885553
0.7262091 0.21296668 0.055064678
0.75003654 0.21309502 0.057840943
0.7745741 0.21334445 0.063244462
-0.64086306 0.23651096 0.062501907
0.56574905 0.23656081 0.063426018
0.58796757 0.23628378 0.058285117
0.61046177 0.23610228 0.054916978
0.74964786 0.23617472 0.056263208
0.77535045 0.23671564 0.066300631
0.44839293 0.2592144 0.054424763
0.4726482 0.25966102 0.061677456
0.49529955 0.25945419 0.058318019
0.51789492 0.25924581 0.05493319
0.72557509 0.25909013 0.052407861
0.75083947 0.25962552 0.061100364
0.72805083 0.28293204 0.062782407
0.68022257 0.30564448 0.056411147
0.70581317 0.30645674 0.066962123
0.47160733 0.32867193 0.054916978
0.61008096 0.32851073 0.053014278
0.6341607 0.32889864 0.057594419
0.49661943 0.3528828 0.066482425
0.51941711 0.35264614 0.063921213
0.5429945 0.35283688 0.065986276
0.56660724 0.35302955 0.068071008
-0.64182806 0.49234015 0.066978812
-0.6171416 0.49137267 0.059996843
-0.59396011 0.49137267 0.059996843
-0.57077861 0.49137267 0.059996843
-0.54759711 0.49137267 0.059996843
-0.52441561 0.49137267 0.059996843
-0.50123405 0.49137267 0.059996843
-0.47805256 0.49137267 0.059996843
-0.45487103 0.49137267 0.059996843
-0.4316895 0.49137267 0.059996843
-0.40850803 0.49137267 0.059996843
-0.3853265 0.49137267 0.059996843
-0.36214501 0.49137267 0.059996843
-0.33896348 0.49137267 0.059996843
-0.31578195 0.49137267 0.059996843
-0.29260045 0.49137267 0.059996843
-0.26941895 0.49137267 0.059996843
-0.24623743 0.49137267 0.059996843
-0.22305591 0.49137267 0.059996843
-0.19987442 0.49137267 0.059996843
-0.17669292 0.49137267 0.059996843
-0.15351138 0.49137267 0.059996843
-0.13032988 0.49137267 0.059996843
-0.10714836 0.49137267 0.059996843
-0.083966851 0.49137267 0.059996843
-0.060785338 0.49137267 0.059996843
-0.037603825 0.49137267 0.059996843
-0.014422314 0.49137267 0.059996843
0.0087591987 0.49137267 0.059996843
0.031940714 0.49137267 0.059996843
0.055122226 0.49137267 0.059996843
0.078303739 0.49137267 0.059996843
0.10148525 0.49137267 0.059996843
0.12466676 0.49137267 0.059996843
0.14784828 0.49137267 0.059996843
0.17102978 0.49137267 0.059996843
0.19421132 0.49137267 0.059996843
0.21739282 0.49137267 0.059996843
0.24057432 0.49137267 0.059996843
0.26375583 0.49137267 0.059996843
0.28693736 0.49137267 0.059996843
0.31011885 0.49137267 0.059996843
0.33330035 0.49137267 0.059996843
0.35648188 0.49137267 0.059996843
0.37966341 0.49137267 0.059996843
0.40284491 0.49137267 0.059996843
0.42602643 0.49137267 0.059996843
-0.15472905 -0.55649209 0.082594037
-0.13118006 -0.55562133 0.078404188
-0.10769603 -0.55475289 0.074226022
-0.084418818 -0.55484617 0.074674726
-0.061219677 -0.55570447 0.078804255
-0.037957139 -0.55656517 0.082945108
-0.24826989 -0.53341782 0.083998799
-0.22447291 -0.53229809 0.078404069
-0.20086138 -0.53146505 0.074242473
-0.1773136 -0.53063112 0.070075512
-0.014503604 -0.53072739 0.070556521
0.0087591987 -0.5315516 0.074674726
0.032085493 -0.5323782 0.078804255
-0.27129653 -0.50934398 0.080322385
0.055253163 -0.50706911 0.068501592
0.078802057 -0.50958502 0.081574798
-0.29426751 -0.4853285 0.076654911
0.10204127 -0.485587 0.07805419
-0.31718475 -0.46137387 0.07301271
0.1252266 -0.46164459 0.074541688
-0.36496943 -0.43977135 0.0829283
-0.34004501 -0.43747413 0.069362879
0.14835747 -0.43775487 0.071020842
0.17232947 -0.43997258 0.084115744
-0.38826838 -0.41634038 0.082476974
-0.41024715 -0.36817899 0.072547674
0.21846503 -0.3686069 0.075473189
-0.43476003 -0.34607065 0.080990195
0.24237178 -0.34639725 0.083346367
-0.45657596 -0.29816276 0.071070671
0.26494804 -0.29853287 0.074076295
-0.48120618 -0.27586988 0.079504728
0.28896612 -0.27615315 0.08195889
-0.50337934 -0.22852191 0.072664022
0.31191924 -0.22905457 0.077987432
-0.52844906 -0.18282026 0.082777858
0.3341991 -0.15835159 0.068335891
-0.54976869 -0.11207052 0.071750879
0.35846692 -0.11240534 0.077187896
-0.57498914 -0.065994233 0.081875563
0.4046222 0.027533315 0.073577642
-0.62046206 0.1207144 0.075972438
0.80328715 0.14421079 0.084283352
0.73183048 0.16740498 0.078620791
0.7543062 0.16729875 0.075173616
0.77727091 0.1672585 0.073860168
0.80116421 0.16732961 0.076171994
0.82621849 0.16752946 0.082660794
0.66293567 0.1909226 0.083630681
0.6842553 0.19057031 0.074475288
0.7061457 0.19033657 0.06840229
0.8000201 0.1904673 0.071800709
0.82638067 0.19090852 0.083262801
0.61437637 0.21386324 0.074475288
0.8000983 0.21375354 0.072099566
0.45185879 0.23735259 0.078120947
0.47553933 0.23747844 0.080456018
0.49833116 0.23729602 0.07707119
0.52095121 0.23707563 0.072979689
0.5434134 0.23682618 0.06835258
0.80269194 0.23756222 0.082009077
0.77839977 0.26068506 0.078304052
0.75551283 0.28412986 0.080071926
0.65979254 0.3298685 0.069048047
0.47395909 0.35322526 0.070191741
0.59069967 0.35343686 0.072481513
0.45077422 0.49285653 0.070705891
-0.15563661 -0.58347785 0.099436045
-0.13195661 -0.58256841 0.095216632
