ply
format ascii 1.0
comment PCL generated
element vertex 1361
property float x
property float y
property float z
element camera 0
property float view_px
property float view_py
property float view_pz
property float x_axisx
property float x_axisy
property float x_axisz
property float y_axisx
property float y_axisy
property float y_axisz
property float z_axisx
property float z_axisy
property float z_axisz
property float focal
property float scalex
property float scaley
property float centerx
property float centery
property int viewportx
property int viewporty
property float k1
property float k2
end_header
0.23663333 0.021664288 -0.17093009
-0.11694703 0.040235601 -0.16873324
-0.098045364 0.040375385 -0.17781711
0.19878922 0.040374994 -0.17779344
0.2182828 0.040230207 -0.1683867
-0.098400593 0.05883858 -0.16628087
-0.079549551 0.058908731 -0.17538321
0.18045118 0.058907777 -0.17526442
0.19989254 0.05883532 -0.16584975
-0.061026424 0.077479437 -0.17228913
0.12456653 0.077479437 -0.17801875
0.1433177 0.077479392 -0.17512167
-0.042409763 0.077479526 -0.17515743
-0.023837265 0.077479482 -0.17803055
0.16211402 0.077479482 -0.17221779
-0.023837265 0.096118249 -0.16654432
-0.0052207373 0.096095987 -0.169438
0.013351526 0.096073851 -0.17231303
0.03187941 0.096051663 -0.17519307
0.050363529 0.096029617 -0.17805433
0.069025695 0.096051976 -0.17514551
0.087732419 0.096074417 -0.17224145
0.10648486 0.096096903 -0.16931868
0.12528202 0.096119381 -0.16640073
0.050721269 0.11475876 -0.16643655
0.46106175 -0.44471949 -0.16509491
-0.36114869 -0.42848778 -0.15346032
-0.34121481 -0.35191366 -0.16258717
0.44404608 -0.35297319 -0.1566028
-0.32273796 -0.27746516 -0.16102463
0.42496753 -0.27782437 -0.15856874
-0.30482116 -0.22223672 -0.15440392
0.40759858 -0.22264981 -0.15104979
-0.28543243 -0.18411568 -0.16049534
0.38767123 -0.18438968 -0.15795392
0.36785457 -0.14634451 -0.1648311
-0.26741111 -0.1286215 -0.15385967
-0.24768443 -0.10905984 -0.16457933
0.34940016 -0.10913928 -0.16354764
-0.2487876 -0.091233328 -0.15263712
0.35136729 -0.091362596 -0.15077084
-0.22957723 -0.072149634 -0.15812278
0.33174524 -0.072239563 -0.15666306
-0.21045229 -0.053151071 -0.16359568
0.31221786 -0.053208619 -0.16252697
-0.21137236 -0.035041556 -0.15164381
-0.19223766 -0.016076311 -0.15714586
0.29444984 -0.016134419 -0.15563667
-0.17318992 0.0028031394 -0.16261119
0.27500421 0.0027690902 -0.16150564
-0.15455063 0.021459442 -0.16205847
0.25632939 0.021446131 -0.16148156
-0.13599174 0.040094689 -0.15958059
0.23792788 0.040084466 -0.15891814
-0.11739443 0.058768079 -0.15710968
0.21948622 0.058762208 -0.15636122
-0.098759234 0.077479392 -0.15463358
0.18146467 0.077479392 -0.16329551
-0.079816505 0.077479526 -0.16382366
0.20100683 0.077479482 -0.15378708
-0.080086038 0.096229024 -0.15215254
-0.061204113 0.096162878 -0.16074789
-0.042498399 0.096140563 -0.16364366
0.14412458 0.09614183 -0.16347563
0.16301271 0.096164487 -0.16054344
0.18248826 0.096236333 -0.15120733
-0.042587884 0.1149807 -0.1520195
-0.023837265 0.11493556 -0.15494794
-0.0051316824 0.11489059 -0.15786952
0.013529211 0.11484588 -0.16077203
0.032145303 0.11480117 -0.16367954
0.06947349 0.11480382 -0.16351163
0.088271618 0.11484905 -0.16056758
0.10711481 0.11489433 -0.15762836
0.1260037 0.1149396 -0.15468192
0.14493841 0.11498514 -0.15172851
0.032413743 0.13373047 -0.15205586
0.051082093 0.13366896 -0.15471828
0.069925621 0.13373721 -0.15176487
-0.36161217 -0.56053984 -0.15011567
0.4640598 -0.56053984 -0.15011567
0.4652406 -0.43040907 -0.14421594
-0.36330715 -0.41286597 -0.13788319
-0.34323803 -0.33586267 -0.14712673
-0.32430899 -0.26055115 -0.14826977
0.42763728 -0.26112646 -0.14411831
-0.30630207 -0.20498532 -0.14157921
0.41017517 -0.20557213 -0.13649726
-0.28680766 -0.16670732 -0.14773482
0.39012182 -0.16713274 -0.14348406
0.37018049 -0.12891079 -0.15044326
-0.26869512 -0.11087278 -0.14102912
-0.2499017 -0.073230118 -0.14057678
0.35335526 -0.073397562 -0.13785863
-0.23059388 -0.054092929 -0.14611661
0.33362466 -0.054217055 -0.14381343
0.31398976 -0.035129629 -0.14973938
-0.21230152 -0.016752608 -0.13957345
0.31578043 -0.016858816 -0.13681626
-0.1930701 0.0022648871 -0.1451301
0.29613125 0.002192691 -0.14278835
-0.17392656 0.021196011 -0.15064937
0.27657905 0.02115139 -0.14871931
-0.17467052 0.039771196 -0.13856941
-0.15518044 0.039952818 -0.15037042
0.2577273 0.039937422 -0.1493752
-0.15581635 0.058625251 -0.13856924
-0.13653268 0.058696926 -0.14786863
0.23923537 0.058688492 -0.14678603
0.25913924 0.058614381 -0.13714749
-0.11784613 0.077479437 -0.14537376
0.22070289 0.077479482 -0.14420372
-0.099121347 0.096300438 -0.14287376
0.20213228 0.096310273 -0.14160365
-0.080358177 0.11516002 -0.14036876
-0.061383508 0.11502571 -0.14909595
0.16392948 0.11503285 -0.14863431
0.18352111 0.11518098 -0.13901031
-0.061564635 0.13407049 -0.13733137
-0.042678133 0.13400199 -0.14029533
-0.023837265 0.13393405 -0.14323997
-0.0050417706 0.13386589 -0.14618987
0.013708606 0.13379823 -0.14912015
0.08881548 0.13380584 -0.14879233
0.10775086 0.13387439 -0.14582443
0.12673238 0.1339431 -0.1428495
0.14576021 0.13401189 -0.13986713
0.16487136 0.134092 -0.13639897
0.013889726 0.15293342 -0.13735586
0.032684773 0.15284212 -0.14031982
0.051446434 0.15276305 -0.14288604
0.07038261 0.1528554 -0.13989162
0.089364663 0.15294741 -0.13690227
0.46949461 -0.4158524 -0.12296164
-0.36549342 -0.39704302 -0.12210524
0.44809255 -0.33781877 -0.13557667
-0.34528559 -0.31960377 -0.13148052
0.43082055 -0.2445699 -0.12688828
-0.32589656 -0.2434586 -0.13538003
-0.32749948 -0.22618282 -0.12236595
-0.30779859 -0.1875512 -0.1286186
0.4127827 -0.1882892 -0.12176991
-0.2881974 -0.14911498 -0.13483953
0.39260173 -0.14966914 -0.12884074
-0.28960192 -0.13133566 -0.12180722
0.37253615 -0.11126977 -0.13587135
-0.26999271 -0.09293589 -0.12806261
-0.25102687 -0.055047795 -0.12839627
0.35536441 -0.055241153 -0.12480879
-0.23162062 -0.035856918 -0.13399148
0.33552405 -0.036003046 -0.13082725
-0.23265655 -0.017438471 -0.12175751
-0.21323995 0.0017183274 -0.12738287
0.31759021 0.0016066879 -0.12375534
-0.19391087 0.020788234 -0.13299495
0.2978321 0.020714253 -0.12979126
0.27817211 0.039728228 -0.13578534
-0.17542186 0.058531351 -0.12636876
0.27978215 0.0585033 -0.12271345
-0.15645847 0.077479437 -0.12665331
-0.1370783 0.077479437 -0.13605547
0.24055466 0.077479437 -0.13454461
0.26056543 0.077479392 -0.12479639
-0.13762981 0.096444875 -0.12411487
-0.11830223 0.096372418 -0.13352412
0.22193179 0.096384771 -0.13192397
0.24188858 0.096459925 -0.12216735
-0.11876278 0.11544963 -0.12155879
-0.099486962 0.11530432 -0.1309998
0.20326795 0.11533029 -0.12930989
-0.080632955 0.13427511 -0.12847024
0.18456537 0.13431656 -0.12667811
-0.061747517 0.15329996 -0.12545276
-0.04276935 0.15320772 -0.12844563
-0.023837265 0.15311626 -0.13141894
-0.0049509909 0.15302457 -0.13439715
0.1083938 0.15304014 -0.13389307
0.12746896 0.15313265 -0.13088882
0.14659089 0.15322524 -0.12787735
0.16582271 0.15334345 -0.1240406
-0.004859332 0.17236908 -0.12249005
0.014072414 0.17225361 -0.12549007
0.032958426 0.17213887 -0.12847024
0.051814716 0.1720445 -0.13092589
0.070843622 0.17216042 -0.12791443
0.089919806 0.17227697 -0.12488317
0.10904239 0.17239356 -0.12185693
0.45220965 -0.32239997 -0.11418355
-0.34736124 -0.30313697 -0.11561966
-0.32913035 -0.20873278 -0.10912502
-0.30931112 -0.16993119 -0.11551988
0.39511153 -0.13199495 -0.11402118
-0.29102147 -0.11336641 -0.10863566
0.37491816 -0.093415678 -0.12113643
-0.27130291 -0.074807063 -0.11497056
-0.25216332 -0.036683522 -0.11609399
0.35739508 -0.036890194 -0.11161935
0.33744374 -0.017594479 -0.11770236
-0.23370394 0.001164332 -0.10938847
-0.21418777 0.020374235 -0.11507034
0.31941763 0.020270377 -0.11056709
-0.19476001 0.039496679 -0.12073886
0.29955119 0.039433744 -0.11665523
-0.19561766 0.058392748 -0.10835946
-0.17618075 0.077479482 -0.1140461
0.28140947 0.077479482 -0.10950148
-0.15710685 0.096517943 -0.1146208
0.26200458 0.096535601 -0.11233282
-0.13818672 0.11559589 -0.11205745
0.22317308 0.11548108 -0.11952007
0.24323604 0.11563277 -0.10966444
-0.11922735 0.1347135 -0.10948884
-0.099856168 0.13449362 -0.11900973
0.20441622 0.13454281 -0.11687958
0.22442573 0.13477083 -0.10700285
-0.080910429 0.153577 -0.11645555
0.1856202 0.15364584 -0.1142211
-0.06193218 0.17271671 -0.11345863
-0.042861462 0.17260036 -0.11648047
-0.023837265 0.1724849 -0.11948276
0.12821202 0.17251025 -0.11882305
0.14742889 0.17262724 -0.1157819
0.16678371 0.1727899 -0.11155677
-0.023837265 0.19204269 -0.1074301
-0.0047667772 0.19190243 -0.11046684
0.014257073 0.19176243 -0.11349607
0.033234745 0.19162343 -0.11650538
0.052186232 0.1915147 -0.11886048
0.071309641 0.1916557 -0.11580694
0.090479821 0.19179648 -0.11275816
0.10969736 0.19193771 -0.10970211
-0.36914825 -0.59395862 -0.095728517
0.47494525 -0.59395862 -0.095728517
-0.367708 -0.38101488 -0.10612273
0.4563992 -0.30670974 -0.092414021
-0.34946385 -0.28645614 -0.09955287
0.43480343 -0.22828102 -0.10533011
-0.33111972 -0.19139263 -0.092973351
0.41542175 -0.1707973 -0.10686457
-0.31083983 -0.15212262 -0.10228097
0.39765179 -0.11410643 -0.099021792
-0.29245624 -0.095204249 -0.09532249
0.37732899 -0.075345755 -0.10622346
-0.2726284 -0.056485027 -0.10172558
-0.25331119 -0.018134646 -0.10366786
0.3594476 -0.01834175 -0.098287821
0.33938405 0.0010118037 -0.10443628
-0.23476191 0.019954626 -0.09689486
-0.21514511 0.039217852 -0.10263395
0.32126647 0.03913461 -0.097224236
0.30128872 0.05835443 -0.10337806
-0.19648397 0.077479392 -0.095855355
-0.17694727 0.09661819 -0.10159945
0.28305429 0.096660249 -0.09614706
-0.15776159 0.11574355 -0.10246992
0.26345986 0.11578573 -0.099729896
-0.13874911 0.13493541 -0.09988153
0.24459723 0.13500112 -0.097034216
-0.11969697 0.15416723 -0.097287536
-0.10022859 0.1538707 -0.10691476
0.20557614 0.15395063 -0.10432291
0.22569244 0.15425774 -0.094345331
-0.10060509 0.1734392 -0.094688058
-0.081190333 0.17306787 -0.10433555
0.1866847 0.17317125 -0.10164976
-0.062118649 0.19232361 -0.10134697
-0.042954467 0.19218266 -0.10439849
0.12896241 0.19207928 -0.10663843
0.14827603 0.19222167 -0.10355449
0.16775353 0.19243389 -0.098958492
-0.023837265 0.21179163 -0.095271945
-0.0046733152 0.21162716 -0.098325849
0.014443539 0.21146227 -0.10138476
0.033513758 0.21129848 -0.10442364
0.052561413 0.2111771 -0.10667598
0.071779773 0.21134336 -0.10359228
0.091045395 0.2115092 -0.10051334
0.1103595 0.21167625 -0.097414255
0.12972103 0.211843 -0.09431994
0.052940708 0.23103538 -0.094358087
-0.36995149 -0.36477762 -0.089931846
-0.35159397 -0.26955703 -0.083275795
0.4388544 -0.21170276 -0.083403826
0.41809291 -0.15309276 -0.09177804
-0.31238499 -0.13412219 -0.088899374
0.40022305 -0.095999777 -0.083839178
-0.29390511 -0.076845035 -0.081878662
0.37976909 -0.05705604 -0.091128945
-0.27396813 -0.037965529 -0.088338137
-0.25447065 0.00060167909 -0.09111619
0.36177266 0.00035747141 -0.08318603
-0.25564191 0.019528277 -0.07843709
0.34134528 0.019819062 -0.091027141
-0.23583056 0.038935285 -0.08427453
-0.21611215 0.058251962 -0.090071917
0.32313535 0.058203209 -0.083736897
0.30304503 0.077479392 -0.089957237
-0.19735909 0.096759669 -0.083224535
-0.17772155 0.11595048 -0.089026809
0.28471693 0.11604869 -0.0826478
-0.15842214 0.13515869 -0.090212107
0.26493004 0.13523288 -0.086997628
-0.15908991 0.15476659 -0.077819586
-0.13931705 0.15446602 -0.087585211
0.24597099 0.15456757 -0.084287167
-0.12017125 0.17381343 -0.084965467
0.20674674 0.17355606 -0.091650724
0.2269721 0.17394462 -0.081558108
-0.10098529 0.19320139 -0.08234024
-0.081473276 0.19275144 -0.092083216
0.18776116 0.19289674 -0.088937521
0.20793056 0.19336337 -0.078835726
-0.081759036 0.21263029 -0.079709649
-0.062306959 0.21212335 -0.089115977
-0.043048389 0.21195729 -0.092197776
0.14913072 0.21201013 -0.091217995
0.16873425 0.21227953 -0.086218476
-0.043143235 0.23192722 -0.079876423
-0.023837265 0.23173608 -0.08298111
-0.0045789313 0.23154615 -0.086065173
0.014631841 0.23135582 -0.089154243
0.033795521 0.23116685 -0.092223167
0.072254598 0.23122643 -0.091256261
0.091617182 0.23141871 -0.088133931
0.11102755 0.23161064 -0.085016608
0.13048641 0.23180318 -0.081891537
0.14999394 0.23199606 -0.078758597
0.034080058 0.25123146 -0.079902053
0.053323399 0.25109097 -0.081929922
0.072734639 0.25130886 -0.078784227
-0.37222442 -0.34832701 -0.073528171
0.4606632 -0.29074088 -0.070257783
-0.35375044 -0.25243372 -0.066797137
-0.33313519 -0.17382514 -0.076609731
0.42079675 -0.13517162 -0.076506734
-0.3139469 -0.11592692 -0.075372815
0.40282801 -0.077671543 -0.068457365
-0.29537112 -0.058287472 -0.068275928
0.38223913 -0.038542397 -0.075849652
-0.27532238 -0.019245557 -0.074805617
0.36414009 0.019282851 -0.067809224
-0.25682509 0.038648196 -0.065628648
0.34332785 0.038830429 -0.07747221
-0.23691012 0.058109224 -0.071525455
0.34533018 0.058049642 -0.063782573
-0.217089 0.077479437 -0.077382207
0.32502457 0.077479482 -0.070102572
-0.21807584 0.096903324 -0.064562798
0.30482042 0.096812248 -0.076390743
-0.19824308 0.11623635 -0.070464969
-0.17850366 0.13547936 -0.076326489
0.28639773 0.13564844 -0.069001675
-0.17929302 0.15520734 -0.063509345
0.26641533 0.15488014 -0.074134707
-0.15976435 0.1745702 -0.065303683
-0.13989064 0.17419061 -0.075166583
0.24736029 0.17433578 -0.071396351
-0.12065025 0.1936551 -0.072520852
0.22826496 0.19383438 -0.068638921
-0.10136929 0.21316053 -0.069869399
0.18884867 0.212825 -0.076094508
0.20912658 0.213375 -0.065888405
-0.082047649 0.23270711 -0.067212462
-0.062497128 0.23211889 -0.076764226
0.16972508 0.23232934 -0.073347449
-0.062689185 0.25231314 -0.064289808
-0.043239027 0.25209528 -0.067433
-0.023837265 0.25187817 -0.070568442
-0.0044836141 0.25166237 -0.073683143
0.014822003 0.25144622 -0.07680285
0.09219408 0.25152642 -0.07564342
0.11170229 0.25174463 -0.072494984
0.13125949 0.25196326 -0.069338441
0.1508667 0.2521835 -0.066160917
0.015014052 0.27173609 -0.06432879
0.034367427 0.27149498 -0.067458987
0.053709913 0.27134752 -0.069377303
0.073219001 0.27159196 -0.066200137
-0.35593721 -0.23508522 -0.050087333
0.44297755 -0.19482923 -0.061086655
-0.33517727 -0.1560256 -0.060030103
0.42353386 -0.11702977 -0.061047435
-0.31552577 -0.097533703 -0.061699152
0.40546301 -0.059116155 -0.052898526
-0.2968531 -0.039527357 -0.05452466
0.38473955 -0.01980073 -0.060382485
-0.27669138 -0.00032187253 -0.061125636
0.36653674 0.038442045 -0.052242398
-0.25802046 0.05796418 -0.052688599
0.34735632 0.077479437 -0.04992938
-0.23800071 0.077479526 -0.058646202
0.32693449 0.096966773 -0.056318998
-0.2190728 0.11652653 -0.0516119
0.3066152 0.11635625 -0.062676191
-0.19913614 0.13591236 -0.05757463
0.30842969 0.13611481 -0.048810959
0.2880969 0.15546301 -0.05520606
-0.18009125 0.17513824 -0.050547481
0.26791447 0.17472994 -0.061151743
-0.14046995 0.19411215 -0.062624097
-0.16044554 0.19457227 -0.052662373
0.24876395 0.19430858 -0.058371782
-0.14105447 0.21423286 -0.049968958
-0.12113403 0.21369483 -0.059951782
0.22956994 0.21392952 -0.055598974
-0.10175714 0.23331921 -0.057273865
0.18994743 0.2329592 -0.063118815
0.210335 0.2335943 -0.052806735
0.17072614 0.25258654 -0.060343385
-0.082339145 0.25298512 -0.054590225
0.19105759 0.25330248 -0.050008535
-0.062883154 0.27270883 -0.051690698
-0.043335773 0.27246445 -0.054865479
-0.023837265 0.27222085 -0.058032036
-0.0043874495 0.27197772 -0.061190963
0.092776775 0.27183616 -0.063027859
0.11238453 0.27208209 -0.059834361
0.13204114 0.27232751 -0.056646109
0.15174739 0.27257353 -0.053449631
-0.0042902231 0.29249698 -0.048560858
0.015208021 0.29222864 -0.051730156
0.034657352 0.29195976 -0.05490458
0.054100733 0.29180902 -0.056685209
0.073708251 0.29207954 -0.053489089
0.093365967 0.29235205 -0.050271392
-0.37702832 -0.62890267 -0.038859248
-0.35741529 -0.62892097 -0.038792729
0.46670583 -0.62890267 -0.038859248
0.46500605 -0.2744877 -0.047691464
0.44717485 -0.17765218 -0.038368106
-0.33724815 -0.13799053 -0.043216825
0.42630255 -0.098662227 -0.045410037
-0.31712198 -0.078938991 -0.047876
0.40813074 -0.04033 -0.03714633
-0.29835135 -0.020561308 -0.040622592
0.38727093 -0.00082680583 -0.044723392
-0.27807537 0.01880914 -0.047296047
0.36896324 0.057839401 -0.036481977
-0.25922811 0.077479437 -0.039615154
-0.23910253 0.097049065 -0.045634389
0.34940487 0.097123742 -0.035923481
0.32886541 0.11666861 -0.042383552
-0.22008005 0.13635232 -0.038527369
-0.2000384 0.15579098 -0.04455173
0.31026423 0.15609151 -0.034792542
0.2898148 0.17549574 -0.041258335
-0.18089773 0.19527479 -0.037451863
0.26946872 0.19480185 -0.047691584
-0.1611336 0.21477582 -0.039893746
0.25018224 0.21448925 -0.045211911
-0.14164549 0.23455706 -0.037173033
-0.12162267 0.2339361 -0.04725647
0.2308898 0.23423459 -0.042410016
-0.12211624 0.25438154 -0.034433126
-0.10214888 0.25368053 -0.04455173
0.21155603 0.25402451 -0.03958869
-0.082633577 0.27346718 -0.041840911
0.1717366 0.27305335 -0.047217011
0.19217825 0.27385721 -0.036774278
-0.063079074 0.29330939 -0.038965225
-0.043433487 0.29303792 -0.042171836
-0.023837265 0.29276693 -0.04537034
0.11307295 0.29262418 -0.04705894
0.13282989 0.29289684 -0.043838263
0.15263699 0.29317033 -0.04060936
-0.0041920207 0.31322244 -0.035803795
0.015403938 0.31292659 -0.039005041
0.034950487 0.31263041 -0.042211413
0.0544951 0.31247658 -0.04387784
0.07420297 0.31277603 -0.040635705
0.093960539 0.31307504 -0.037398815
0.11376837 0.31337479 -0.034153461
-0.39936912 -0.29805237 -0.020268679
-0.37864062 -0.29703519 -0.027223229
-0.49787018 -0.27804518 -0.022017598
0.46943268 -0.25794408 -0.024690151
-0.35815313 -0.21750519 -0.033154368
-0.33934507 -0.11971292 -0.02619195
0.42921224 -0.080102965 -0.028976083
-0.31873572 -0.06013982 -0.033900499
-0.32036576 -0.041131943 -0.019783974
0.41082954 -0.021308541 -0.02121067
-0.29986617 -0.0013859794 -0.026566982
0.38983607 0.018383313 -0.028855681
-0.27947459 0.038150609 -0.033314228
0.37142003 0.077479482 -0.020524383
-0.26048914 0.097200416 -0.025964022
-0.24021575 0.11682092 -0.032487869
0.35147616 0.11698607 -0.021762013
0.33081773 0.13658853 -0.028293848
-0.22109774 0.15638366 -0.025307178
-0.20095 0.17587538 -0.031393886
0.3121191 0.17629012 -0.020618558
0.29155174 0.19575033 -0.027156234
-0.18171258 0.21562029 -0.024220467
0.27108887 0.21511161 -0.033660769
-0.16182862 0.23518381 -0.02699554
0.25161389 0.23488015 -0.031927586
0.27272698 0.23564702 -0.01947403
-0.14224251 0.25508735 -0.024247289
0.23222351 0.25475228 -0.029083014
-0.12261482 0.27503452 -0.021479726
-0.10254458 0.27424771 -0.031700969
0.21278863 0.27466762 -0.026245356
-0.082930982 0.29415637 -0.028962731
0.17275862 0.29373485 -0.033940434
0.19331175 0.2946285 -0.023388147
-0.063276976 0.31411776 -0.026111484
-0.043532185 0.31381851 -0.0293504
-0.023837265 0.31352007 -0.03258121
0.1336275 0.31367654 -0.03088665
0.15353659 0.3139779 -0.027624726
0.17379138 0.31463379 -0.020524383
-0.023837265 0.33448297 -0.019662619
-0.0040928256 0.33415714 -0.022917986
0.015601829 0.33383361 -0.026151538
0.035246577 0.3335095 -0.029390574
0.054893475 0.33335441 -0.030940056
0.074702218 0.33368212 -0.0276649
0.09456116 0.33400929 -0.02439487
0.11447161 0.33433875 -0.021103024
-0.44116792 -0.30010542 -0.0062320232
-0.42021051 -0.29907513 -0.013276219
-0.3603971 -0.19968742 -0.016007543
0.45144829 -0.1601633 -0.015237451
-0.34147024 -0.10118911 -0.0089374781
0.43333799 -0.061660856 -0.0056737661
-0.32201549 -0.021913253 -0.0054967403
0.41356459 -0.0020481423 -0.0050610304
-0.30139777 0.018002238 -0.012355328
0.39243123 0.037834857 -0.012802362
-0.28088927 0.057706274 -0.019177794
-0.28231972 0.077479348 -0.0048837662
-0.26180258 0.11714029 -0.011745691
-0.24134053 0.13679855 -0.019204736
0.35357055 0.13707006 -0.0074425936
-0.24247707 0.15698481 -0.0057826042
0.33279178 0.15673032 -0.014047503
-0.22212605 0.17662379 -0.011948824
-0.20187107 0.19616872 -0.018099427
0.31399474 0.19671428 -0.0062863827
0.29330802 0.21623041 -0.012897134
-0.18253592 0.23617806 -0.010851026
-0.16253072 0.25579956 -0.013966322
0.25306207 0.25548616 -0.018490314
0.27438343 0.25641176 -0.0051289797
-0.14284559 0.27582669 -0.011190057
0.23357123 0.27548605 -0.015615702
0.25452554 0.27631003 -0.0049110651
-0.12311797 0.29589701 -0.008407712
-0.1029443 0.29502371 -0.018719554
0.21403545 0.2955294 -0.012748241
-0.10334811 0.316012 -0.0056056976
-0.083231419 0.31505609 -0.015953422
0.19445723 0.31561893 -0.0098606348
-0.063476674 0.33513552 -0.013140678
-0.043631885 0.33480951 -0.016399145
0.13443245 0.33466768 -0.017816305
0.15444446 0.33499745 -0.014520884
0.17483401 0.3357521 -0.0069802999
0.035545666 0.35459986 -0.016439676
0.055296343 0.35444707 -0.017856598
-0.023837265 0.35565889 -0.0066127777
-0.0039926227 0.35530442 -0.0099014044
0.015801728 0.35495237 -0.013167858
0.075206578 0.35480213 -0.014561534
0.095168561 0.35515967 -0.011244297
0.11518134 0.35551667 -0.0079320669
0.47500205 -0.62089568 0.0042492151
0.47581401 -0.60204625 0.0084682703
-0.48342389 -0.30217913 0.0079454184
-0.46223804 -0.30113932 0.00083720684
-0.52254194 -0.28158793 0.0035495758
-0.56210506 -0.26142988 0.0019463301
-0.62306935 -0.22213656 0.0069550276
-0.36267316 -0.18163031 0.0013848543
0.4558 -0.14235426 0.0083168745
-0.34362426 -0.082414076 0.0085510015
-0.32368368 -0.002479583 0.0089502335
-0.30294648 0.037606746 0.0020147562
0.39505917 0.057532001 0.0034536123
-0.28376618 0.097474024 0.0095700026
0.3739078 0.097366683 -0.0043660402
-0.26313069 0.13730279 0.0026311874
0.35568842 0.15737957 0.0070375204
-0.24362557 0.1773832 0.0077803135
0.33478794 0.17709759 0.00035846233
-0.22316514 0.19707611 0.0015490055
-0.20280176 0.21667401 -0.0046659708
0.31589139 0.21736771 0.0082067251
-0.20374225 0.23739496 0.008908987
0.29508397 0.23694003 0.0015217066
-0.18336789 0.25695136 0.0026587248
-0.16323999 0.27662617 -0.00080370903
0.27605847 0.27740985 0.0093772411
-0.14345485 0.29677844 0.0020010471
0.23493183 0.29643804 -0.0020196438
0.25600454 0.29735523 0.0088125467
-0.12362678 0.31697434 0.004811883
0.21529549 0.31661209 0.00089204311
-0.10375606 0.33721551 0.007642746
-0.083534926 0.33616936 -0.0028113127
0.1956137 0.33683056 0.0037964582
-0.063678816 0.35637027 -1.0848045e-05
-0.043732598 0.35601416 -0.003316164
0.13524564 0.35587451 -0.0046113729
0.15536167 0.35623336 -0.0012820959
0.17588878 0.3570959 0.0067213774
-0.023837265 0.37705097 0.00657022
-0.0038913991 0.37666738 0.0032480955
0.016003661 0.37628627 -5.1856041e-05
0.035847798 0.37590471 -0.0033570528
0.055702936 0.37575513 -0.0046521425
0.075716645 0.3761411 -0.0013092756
0.095781595 0.37652659 0.0020284653
0.11589915 0.37691459 0.0053884983
0.13606809 0.37730205 0.0087436438
0.056113724 0.39728341 0.0086886883
-0.36519647 -0.66547877 0.020666361
-0.34512848 -0.6655066 0.020763755
0.45808673 -0.66548663 0.020694137
0.47662866 -0.58313555 0.012701154
-0.38499552 -0.32380757 0.018639326
-0.60469234 -0.24299237 0.014110684
-0.36498019 -0.16332737 0.019014001
0.43753958 -0.042879656 0.018056631
-0.32537067 0.017172765 0.023559809
0.41633427 0.017456025 0.011293292
-0.30451256 0.057431273 0.016546011
0.39772049 0.077479392 0.019916415
-0.28522891 0.11769359 0.024186611
0.3764292 0.11750609 0.012010932
-0.26447368 0.15769163 0.017169476
0.35783026 0.17791829 0.02168119
-0.24478619 0.19799697 0.021486402
0.33680654 0.19769414 0.014926553
-0.22421518 0.21774404 0.015189409
0.31780946 0.2382544 0.022863865
-0.20469269 0.25833488 0.022626996
0.29687992 0.25788289 0.016103148
-0.18420865 0.27794367 0.016310692
-0.16395582 0.29766572 0.01248014
0.2777524 0.2986452 0.024047256
-0.1440704 0.31794566 0.01532793
0.23630831 0.31761378 0.011734843
0.25749788 0.31862384 0.022668839
-0.12414086 0.33826885 0.018167734
0.21656765 0.33791807 0.014663935
-0.10416819 0.35863766 0.021027803
-0.083841547 0.35749939 0.01046586
0.19678365 0.35826978 0.017613173
-0.084151335 0.3790499 0.023880124
-0.063883677 0.3778275 0.013295174
-0.043834344 0.37743565 0.0099006891
0.15628934 0.37769043 0.012107611
0.17695478 0.37866756 0.020569205
-0.003789138 0.39824951 0.016532421
0.016207449 0.39783719 0.013184667
0.036153018 0.3974275 0.0098594427
0.076231465 0.39769933 0.012066245
0.096400991 0.39811477 0.015438676
0.11662364 0.3985329 0.018833518
-0.043937132 0.39907724 0.023253441
-0.023837265 0.39866289 0.019888639
0.13689826 0.39895055 0.022223592
0.036461372 0.41917172 0.023211718
0.056529205 0.41903707 0.022181869
0.46146557 -0.65047485 0.038982749
-0.3674165 -0.62988961 0.037630677
-0.4273515 -0.32603475 0.03310585
-0.40611389 -0.32491693 0.025845528
-0.50771511 -0.30559051 0.03126955
-0.54771042 -0.28520197 0.029631615
-0.58766174 -0.26484257 0.02802372
-0.36731705 -0.1447722 0.036870718
0.4602347 -0.12421718 0.032320619
-0.34580597 -0.063381836 0.026264191
-0.3270767 0.037047528 0.038334608
0.4191393 0.03720884 0.027855992
-0.30609629 0.077479392 0.031241536
0.40041584 0.097681999 0.036589503
-0.28670824 0.13814192 0.038968563
0.37898058 0.13790205 0.028582811
-0.26583183 0.17831057 0.031872034
0.36011571 0.19872776 0.037306905
-0.24595913 0.21882977 0.035338163
0.33884802 0.2185238 0.029659629
-0.22527634 0.23863073 0.028974175
0.31974933 0.25937819 0.037687063
-0.20565319 0.27949721 0.036491036
0.29869619 0.2790629 0.030849218
-0.1850583 0.29915833 0.03010726
-0.16467978 0.31892377 0.025915384
0.27946401 0.32012048 0.038869977
-0.1446923 0.33933207 0.028792381
0.23769948 0.33901629 0.025636315
0.25900874 0.3401221 0.03668797
-0.12466024 0.35978386 0.031661868
0.21785472 0.35945335 0.028596759
-0.10458462 0.38028201 0.034551501
0.19796614 0.37993851 0.031577826
-0.084464341 0.40082383 0.037433743
-0.064090654 0.3995066 0.026738882
0.15722567 0.39936912 0.025622606
0.17803222 0.40047058 0.034565568
-0.044040985 0.42094269 0.036744237
-0.023837265 0.42049775 0.033344388
-0.0036858208 0.42005405 0.02995348
0.016413551 0.41961142 0.026571155
0.076751649 0.41948181 0.025580645
0.097027466 0.41992947 0.02900219
0.11735567 0.42037666 0.032418609
0.13773705 0.42082492 0.035844088
0.036772914 0.44114053 0.036701798
0.056948606 0.44101587 0.035802126
0.46282047 -0.63222975 0.046316266
-0.36848828 -0.61182255 0.045820355
-0.47017547 -0.32828262 0.047705531
-0.44870517 -0.3271566 0.040392518
-0.34801763 -0.044088162 0.044220686
0.44181913 -0.023750208 0.042227507
-0.32880217 0.057148535 0.053277731
0.42198026 0.05721499 0.044631124
-0.30769804 0.097755238 0.046103716
0.40314585 0.11814451 0.053477168
0.38156474 0.15855986 0.045367122
-0.26720539 0.19916356 0.046741247
-0.24714458 0.23988472 0.049337864
0.34091273 0.23959051 0.044560432
-0.22634877 0.25973973 0.042905807
0.32170948 0.28074229 0.052665353
-0.20662397 0.30088544 0.050503016
0.30053142 0.30048287 0.045749664
-0.185917 0.32059902 0.044051051
-0.16541126 0.34040263 0.039489985
-0.16615039 0.36210561 0.053206563
-0.14532067 0.36094078 0.042397022
0.23910564 0.36064869 0.039687395
0.26053593 0.36185262 0.050858378
-0.12518504 0.38152272 0.045296431
0.21915567 0.38122067 0.042679667
-0.10500495 0.40215018 0.048202276
0.19916141 0.40184116 0.045692921
-0.084780291 0.42282325 0.051114321
-0.064299792 0.42141098 0.040322065
0.15817179 0.42127436 0.039278746
0.17912129 0.42250901 0.048713088
-0.0035814345 0.44208452 0.043513656
0.016621783 0.44161084 0.040096402
0.077277794 0.44149372 0.039250493
0.097659856 0.44197085 0.042693853
-0.044145808 0.4430331 0.050360799
-0.023837265 0.44255912 0.04693985
0.11809617 0.44245106 0.04616046
0.13858555 0.44293073 0.04962182
0.15912884 0.44341171 0.05309248
0.037087698 0.46333757 0.050332427
0.057372395 0.46322522 0.049565077
0.077808931 0.46373507 0.053049803
0.44593942 -0.67824817 0.065498829
-0.35085991 -0.65832156 0.06729722
0.46418291 -0.61388248 0.053690791
0.46555305 -0.59543216 0.061106801
-0.36956674 -0.59364247 0.054061413
-0.39158422 -0.35155866 0.06618917
-0.4925701 -0.33011428 0.059603214
-0.53300738 -0.30948982 0.057929516
-0.57339656 -0.28889334 0.056272388
-0.67707151 -0.20831046 0.064004421
-0.369688 -0.12596208 0.054988146
0.4647575 -0.10574356 0.056800842
-0.35025817 -0.024527147 0.062411547
0.44618136 -0.0042629614 0.066865444
0.4248555 0.077479437 0.061608553
-0.30931804 0.11826245 0.06113553
-0.28820294 0.15882275 0.053904533
0.38418224 0.17948434 0.062368393
-0.26859334 0.22025387 0.061766148
0.36258706 0.21984635 0.054203987
-0.24834277 0.26116589 0.063487649
0.34300107 0.26089865 0.059631824
-0.22743273 0.28107482 0.05698657
0.32369405 0.30235273 0.067829847
-0.20760517 0.32250327 0.064665318
0.30238941 0.32214946 0.060834646
-0.18678491 0.34226939 0.058144093
0.28119674 0.34184226 0.053876042
-0.14595495 0.38277367 0.056129575
0.24052554 0.38251346 0.053876042
0.26207969 0.38381907 0.065182686
-0.16689727 0.38403657 0.067066908
-0.12571532 0.40348917 0.059073687
0.22047067 0.40322343 0.056915045
-0.10543013 0.42424908 0.06201005
0.2003696 0.42398098 0.059960961
-0.085099868 0.44505498 0.064952612
-0.064510882 0.44354194 0.054032922
0.18022107 0.44478443 0.062999606
-0.064724408 0.46590737 0.067901969
-0.044251829 0.4653562 0.064133883
-0.023837265 0.46485054 0.060677052
-0.0034759603 0.46434417 0.057215095
0.01683218 0.46383929 0.053762078
0.098298892 0.46424398 0.056529522
0.11884369 0.46475631 0.060032725
0.1394421 0.46526799 0.063530684
0.16009504 0.46578103 0.067038178
0.037405763 0.48576638 0.064105153
0.057801094 0.48567119 0.063487649
0.017044779 0.48629981 0.067570686
0.078345686 0.4862113 0.066994905
0.44726422 -0.65989685 0.072981358
-0.35189161 -0.6401394 0.075673223
0.44859654 -0.64144146 0.080506325
0.4669309 -0.57687813 0.068564653
-0.43475229 -0.35398135 0.081175447
-0.41310748 -0.35276657 0.073661089
-0.63971299 -0.25098765 0.079024196
-0.6584484 -0.22959042 0.071507454
-0.37209192 -0.10689069 0.073357463
0.46936288 -0.086920604 0.081728339
-0.35253164 -0.004694134 0.080869913
-0.33071721 0.077479482 0.069862127
0.42777047 0.098007098 0.078820825
-0.31095666 0.13900505 0.07633996
0.40590894 0.13887176 0.070569158
-0.28971618 0.17974053 0.069025874
0.38683376 0.20068079 0.079590678
-0.26999852 0.24158695 0.076977849
0.36509052 0.24123855 0.071319818
-0.24955387 0.28267637 0.077790141
0.34511349 0.28245211 0.074876785
-0.22852719 0.30263835 0.071204305
-0.20859696 0.34435463 0.078980446
0.30426884 0.34406573 0.076093674
-0.18766215 0.36417291 0.072388887
0.28294942 0.3638137 0.069054842
-0.16765204 0.40619892 0.081073523
-0.14659655 0.40483758 0.070020795
0.24196231 0.40461731 0.068233371
0.26363873 0.40602344 0.079648733
-0.12625119 0.4256869 0.072995901
0.22179998 0.42546552 0.071305394
0.24341482 0.42696291 0.08274734
-0.10585977 0.44658077 0.07596302
0.20158973 0.44636005 0.074370146
-0.085422821 0.46752125 0.078937054
0.18133396 0.46730477 0.077456474
-0.064940192 0.48850879 0.081917405
-0.044358969 0.48791352 0.078051329
-0.023837265 0.48737562 0.074558258
-0.0033693817 0.48683703 0.071059942
0.098945364 0.48675478 0.070525885
0.11959912 0.48729771 0.074051738
0.14030775 0.4878419 0.077587128
0.16107246 0.48839003 0.08114624
0.017259613 0.50899673 0.081524611
0.037727173 0.5084306 0.078022242
0.058233906 0.50835299 0.077543497
0.078888685 0.50892842 0.08110249
-0.33224371 -0.70381695 0.083082318
-0.31169429 -0.70384669 0.083184361
0.42849466 -0.70382112 0.083096862
-0.3529298 -0.62184221 0.084102392
0.44993642 -0.62288165 0.08807385
-0.35397461 -0.60342884 0.092585206
0.4512839 -0.60421622 0.095684528
-0.47840562 -0.35642669 0.096302152
-0.45651728 -0.35520053 0.088717461
-0.51798028 -0.33430636 0.08683157
-0.55882281 -0.31347159 0.085152626
-0.60192251 -0.29414681 0.094185233
-0.62087131 -0.27250603 0.086583138
0.45062348 0.01559319 0.09195447
-0.33286399 0.098081164 0.088454127
-0.31261259 0.15998667 0.091705084
0.40871033 0.15986939 0.087898493
-0.29124686 0.20089921 0.08432126
0.38951999 0.22215445 0.09703815
-0.27141994 0.26316655 0.092365146
0.36762655 0.26290968 0.088658929
-0.25077811 0.30442032 0.092247725
0.34724832 0.30425397 0.090283632
-0.22963464 0.32443631 0.085590363
0.32570148 0.32421279 0.083169818
-0.20959951 0.36644283 0.093451023
0.30616999 0.36623585 0.09152925
-0.18854891 0.38631368 0.08678782
0.28472233 0.38603908 0.084408641
-0.14724495 0.42713454 0.084058762
-0.1684148 0.42859626 0.095228672
0.26521644 0.4284732 0.09428823
-0.12679271 0.44811919 0.087065339
0.2231425 0.44794914 0.085838437
-0.10629396 0.46914876 0.090064049
0.20282446 0.46898615 0.088951588
-0.085749201 0.49022567 0.093069434
0.18245904 0.49007207 0.092071891
-0.065158263 0.51134992 0.096081734
-0.044467233 0.51070881 0.092115641
-0.023837265 0.51013577 0.088571191
-0.0032616835 0.50956649 0.085050583
0.099598035 0.50950301 0.084656596
0.12036259 0.51007909 0.088220239
0.14118353 0.51065904 0.091807842
0.16205934 0.51123804 0.095390439
0.017476715 0.53193319 0.095625639
0.038051628 0.53133124 0.092071891
0.058671329 0.5312767 0.091749191
0.079436928 0.53188598 0.095346332
-0.33392322 -0.68739927 0.097627044
0.43138981 -0.68812984 0.10019207
-0.33491439 -0.66910571 0.10621083
0.43269044 -0.66956592 0.10787189
-0.35502607 -0.58489811 0.1011219
0.4526391 -0.58544427 0.1033386
-0.35483885 0.015416741 0.099601865
-0.33503935 0.11897307 0.10729313
0.43175244 0.11889669 0.10233319
-0.31428936 0.18121243 0.10726357
0.4115485 0.18114266 0.10545516
-0.29279524 0.22230302 0.099793673
-0.27285787 0.28499657 0.10793114
0.37019593 0.28486532 0.10622573
-0.25201571 0.32640138 0.10686302
0.34941009 0.32631099 0.10588479
-0.23075414 0.34647137 0.10013306
0.32773229 0.34632677 0.098687768
-0.21061301 0.38877243 0.10807955
0.30809337 0.38866439 0.10714483
-0.1894453 0.40869561 0.10134351
0.28651589 0.40852281 0.099941373
-0.16918491 0.45123047 0.10952008
-0.14790021 0.44966826 0.09824574
0.24488175 0.44955194 0.097406149
0.26681158 0.4511708 0.10908926
-0.12733944 0.47078779 0.1012696
0.22450115 0.47068188 0.10054624
-0.10673279 0.49195704 0.10431516
0.20407277 0.49186131 0.10369349
-0.086079054 0.51317203 0.10735261
0.18359539 0.51308805 0.10683346
-0.065378658 0.5344348 0.11039698
-0.044576652 0.533746 0.10632932
-0.023837265 0.53313935 0.1027472
-0.0031528454 0.53253675 0.099189043
0.10025768 0.53249431 0.098938465
0.12113504 0.5331068 0.10255492
0.14206778 0.53371823 0.10616648
0.16307122 0.53436679 0.1099956
0.017696124 0.55511343 0.10987663
0.03837987 0.55447745 0.10628498
0.059113894 0.5544486 0.1061219
0.079991058 0.55508977 0.10974288
0.41326261 -0.71346337 0.11605835
-0.31622851 -0.69526881 0.12525654
0.41471556 -0.69520879 0.12504601
-0.33591017 -0.65069073 0.11483467
0.43399853 -0.6508956 0.1155957
-0.33691236 -0.63215744 0.12351394
0.43531412 -0.63211817 0.12336373
-0.42035735 -0.38164908 0.12322879
-0.50262117 -0.35967115 0.11637187
-0.54392433 -0.3385902 0.11465573
-0.58517814 -0.31753823 0.1129564
-0.71191674 -0.19358218 0.12081444
-0.35717681 0.035812013 0.11858392
0.45515299 0.035828106 0.11753726
-0.33724555 0.14016107 0.1263994
-0.31598568 0.20268586 0.1230036
0.41442418 0.20269695 0.12324381
-0.29436165 0.24395597 0.11544657
0.39224157 0.24391088 0.11471534
-0.27431262 0.30708179 0.12367916
0.37279919 0.30711108 0.12402439
-0.25326687 0.34862357 0.12163877
0.35159716 0.34862649 0.12166882
-0.23188587 0.36874759 0.11483467
0.32978681 0.36869934 0.11438727
-0.21163762 0.41134673 0.12286854
0.31003925 0.411356 0.12294364
-0.19035152 0.43132228 0.11605835
0.28833038 0.43126938 0.11565542
-0.16996971 0.47412473 0.12408459
-0.14856248 0.47244275 0.11258411
0.24636641 0.47239259 0.11224174
0.26844221 0.47414449 0.12421966
-0.12789258 0.4937008 0.1156404
0.22587481 0.49366626 0.11541665
-0.1071763 0.51500934 0.1187185
0.20533367 0.51498759 0.11858392
-0.086412445 0.53636408 0.12178874
0.18474549 0.53636152 0.1217736
-0.065601423 0.55776739 0.12486577
-0.044687234 0.55702877 0.12069452
-0.023837265 0.55638766 0.11707401
-0.0030428469 0.55575109 0.11347795
0.1009251 0.55573517 0.11338854
0.121915 0.55637974 0.11702919
0.14296249 0.55702877 0.12069452
0.16410874 0.55778593 0.12497091
0.017917875 0.57854104 0.12427974
0.038711611 0.57787049 0.1206497
0.059560772 0.57786763 0.12063479
0.080551729 0.57854664 0.12430978
-0.29677698 -0.72034442 0.13958192
0.39589229 -0.72000676 0.13842773
-0.31727225 -0.67706764 0.13494134
0.41617572 -0.6768285 0.13407838
-0.33792102 -0.61350483 0.13224912
0.43663731 -0.61323249 0.13117695
-0.33893794 -0.59473538 0.14105606
0.43796811 -0.59423751 0.13903499
-0.46462205 -0.38429508 0.13885272
-0.44242728 -0.38296953 0.13102579
-0.77645934 -0.068863779 0.12799501
-0.35954991 0.056497462 0.137851
0.43611628 0.14020038 0.12810051
-0.31770197 0.22441185 0.13892865
-0.29594645 0.26586276 0.13128257
0.39499924 0.26595584 0.13262701
-0.27578443 0.32942653 0.13961208
-0.25453183 0.3710908 0.13657725
0.35381001 0.37120512 0.13763881
-0.23303007 0.39126861 0.12969816
0.33186549 0.3913348 0.13027132
-0.21267352 0.43417022 0.13782072
0.31200811 0.43431515 0.13892865
-0.19126768 0.45419785 0.13093531
0.29016623 0.4542836 0.13155437
-0.17077616 0.49730486 0.13905025
-0.14923185 0.49546134 0.12707663
0.24786758 0.4954868 0.12724221
0.27016661 0.49748489 0.14021981
-0.12845166 0.51685989 0.13016558
0.22726235 0.51690382 0.13043725
-0.10762458 0.53830957 0.13327694
0.20660987 0.53837371 0.13365495
-0.08674942 0.55980587 0.1363802
0.18590842 0.5598945 0.1368804
-0.065826587 0.58135134 0.13949049
-0.044799004 0.58056122 0.13521385
-0.023837265 0.57988513 0.13155437
-0.0029316768 0.57921362 0.12791967
0.10159905 0.57922471 0.12797999
0.12270421 0.57990742 0.13167512
0.14386596 0.58058912 0.13536525
0.16515784 0.58146638 0.14011347
0.018142007 0.6022203 0.13883758
0.039046902 0.60151422 0.13516831
0.060012486 0.60154045 0.13530457
0.081117913 0.60225534 0.13901973
-0.27662218 -0.7440716 0.14868093
-0.25555676 -0.7440716 0.14868093
0.35534009 -0.7440716 0.14868093
0.37640548 -0.7440716 0.14868093
-0.29775646 -0.7021367 0.14936924
0.39729673 -0.70161843 0.14754963
-0.31832346 -0.65873605 0.1446954
0.41764814 -0.65832949 0.14318669
-0.31938225 -0.64027268 0.15451968
0.41913041 -0.63970631 0.15235591
0.43930665 -0.57513249 0.14693856
-0.48694497 -0.38562834 0.14672494
-0.52869612 -0.364272 0.14483249
-0.57041693 -0.34296644 0.14308012
-0.65728986 -0.28147703 0.1551342
-0.67650384 -0.25938073 0.1471678
0.45977527 0.056452751 0.14364374
-0.33948323 0.16165167 0.14577842
0.44056451 0.16191611 0.15436614
0.41733813 0.22453792 0.14126897
-0.31943855 0.24639435 0.15504181
-0.2975499 0.28802767 0.14730513
0.39779368 0.28829488 0.15077746
0.37543711 0.32965261 0.14206004
-0.27727365 0.35203549 0.15573347
-0.25581083 0.39380711 0.15168142
0.35604915 0.39405149 0.15379786
-0.2341869 0.41403884 0.14472592
0.33396873 0.41423801 0.14634323
-0.21372093 0.45724681 0.15293872
0.31400031 0.45754674 0.15510333
-0.192194 0.47732669 0.14597666
0.29202381 0.47757015 0.14764142
-0.17159155 0.52074242 0.15418184
-0.14990845 0.51872861 0.14172518
0.24938551 0.51883924 0.14241016
-0.12901677 0.54026932 0.14484799
0.22866684 0.54040372 0.14564109
-0.10807724 0.56185925 0.14797771
0.20790036 0.56202173 0.14889503
-0.087090045 0.5835017 0.15112996
0.18708436 0.5836913 0.15215659
-0.066054195 0.60519099 0.15427387
-0.044911977 0.60434717 0.14988947
-0.023837265 0.60363537 0.14619052
-0.002819309 0.60292834 0.14251673
0.10228032 0.60296935 0.14272976
0.12350121 0.60368818 0.14646518
0.14477928 0.60440618 0.15019572
0.16621873 0.60541278 0.15542603
0.018368553 0.62615508 0.15355241
0.039385814 0.6254127 0.14984345
0.060469594 0.62547398 0.1501497
0.081690282 0.62622261 0.15389013
-0.27803418 -0.72747749 0.16396642
0.37822998 -0.72665501 0.16115475
-0.29874298 -0.68379796 0.15922713
0.39871296 -0.68311101 0.15674841
-0.29973665 -0.66532654 0.16915631
0.40013874 -0.66447854 0.16600895
-0.32044867 -0.62167591 0.16441464
0.42062271 -0.62095761 0.16158688
-0.63796699 -0.30370456 0.16316235
-0.36195704 0.077479437 0.15739465
0.46448484 0.077479437 0.17024338
-0.34175313 0.18345141 0.16543627
0.42028856 0.24667022 0.15952003
-0.2991724 0.31045526 0.16351795
0.40062568 0.31093413 0.16917193
0.37811261 0.35249785 0.16035259
-0.2571041 0.41677666 0.16695404
0.35831496 0.41717029 0.17015016
-0.23535661 0.4370622 0.15992081
0.33609703 0.43741372 0.16260612
-0.21478002 0.48058087 0.16822553
-0.19313063 0.50071299 0.16118562
0.2939035 0.5011338 0.16392004
0.27191141 0.52110243 0.15640986
-0.17241603 0.54444134 0.16948247
-0.1505924 0.54224825 0.15653288
0.25091892 0.5424515 0.1577332
-0.12958804 0.56393313 0.15968955
0.2300871 0.56416786 0.16101587
-0.1085353 0.58566755 0.16285336
0.20920537 0.58593619 0.16430652
-0.087434381 0.60745543 0.16604018
0.18827361 0.60775661 0.16760504
-0.066284277 0.62929058 0.16921842
-0.045026176 0.62839109 0.16472423
-0.023837265 0.62764275 0.16098511
-0.002705846 0.62689626 0.15725601
0.10296974 0.62697643 0.15765619
0.1243069 0.62772918 0.16141737
0.14570355 0.62848699 0.16520405
0.018597566 0.65034956 0.16842711
0.039728399 0.64957041 0.16467786
0.060931247 0.64966697 0.16514218
0.08226952 0.65045601 0.16893911
0.36027279 -0.7334196 0.18427968
-0.27895457 -0.70913237 0.17392993
0.37958881 -0.70813984 0.17044532
-0.27988166 -0.69065368 0.18396592
0.38095686 -0.6894989 0.17979872
-0.3007375 -0.64672118 0.17915773
0.40157419 -0.64572001 0.17533231
0.40301695 -0.62682998 0.18470335
-0.3215228 -0.60294473 0.17438173
0.42212251 -0.60207838 0.17086494
-0.32260475 -0.58407712 0.18442082
0.42363507 -0.58307481 0.1802212
-0.55532569 -0.36897081 0.1738987
-0.59897679 -0.34854978 0.17934525
-0.61852741 -0.32606027 0.17122221
-0.36439896 0.098764598 0.17722034
0.44509968 0.18405609 0.18114471
-0.32119572 0.26863843 0.17134666
0.42328122 0.26910162 0.17803252
-0.30081421 0.33315051 0.17992401
-0.27878061 0.37491336 0.17204654
0.38082194 0.37564942 0.1788764
-0.25841185 0.44000387 0.18239796
-0.23653939 0.4603433 0.1752857
0.33825079 0.4608669 0.1790638
0.31601629 0.48105562 0.17147124
-0.21585101 0.50417662 0.18368363
-0.19407772 0.52436066 0.17656481
0.29580569 0.52497965 0.18039334
0.27367708 0.54500198 0.17279339
-0.15128307 0.56602168 0.17148674
0.25247124 0.56633294 0.17324483
-0.13016553 0.5878551 0.17469347
0.23152342 0.58820093 0.17656469
-0.10899836 0.60973626 0.17789185
0.21052517 0.61012143 0.17989278
-0.087782487 0.63167137 0.18111348
0.16729052 0.62962627 0.17089593
0.1894751 0.63209158 0.183213
-0.066516891 0.6536544 0.18432689
-0.045141615 0.65269703 0.17972076
-0.023837265 0.65191132 0.17594075
-0.0025910288 0.65112782 0.17217112
0.10366602 0.65124428 0.17273128
0.12512229 0.65203774 0.17654908
0.14663705 0.6528303 0.18036211
0.01882907 0.6748082 0.18346393
0.04007471 0.6739912 0.17967379
0.061397973 0.67412603 0.18029952
0.082854539 0.67495352 0.18413854
-0.23788609 -0.75731093 0.19277966
0.33965355 -0.75641143 0.18978322
-0.25888121 -0.73449045 0.18794084
-0.2597746 -0.71612799 0.19849145
0.36158195 -0.71477103 0.19372737
-0.28081551 -0.6720404 0.19407523
0.38233194 -0.67072707 0.18920028
0.3837187 -0.65183127 0.19868159
-0.30174565 -0.62798023 0.18923163
-0.3027612 -0.60910255 0.19937968
0.40447196 -0.60781533 0.19415402
0.46928987 0.098919682 0.19738209
-0.36687443 0.12035906 0.19731867
-0.34405771 0.20556763 0.18539429
-0.32297397 0.29114854 0.18784654
0.4263145 0.29183739 0.19679606
0.40349358 0.33387795 0.18779945
-0.30247572 0.35611793 0.196527
-0.28030556 0.39806482 0.18855488
0.38356802 0.39911515 0.19765151
0.36087391 0.44081771 0.18861783
-0.25973433 0.46349296 0.19801581
-0.23773548 0.48388609 0.19082332
0.34043047 0.48460206 0.19571972
0.31805649 0.50484663 0.18803549
-0.21693406 0.52803862 0.19931614
-0.1950355 0.54827458 0.19211686
0.2977308 0.54911262 0.19706523
-0.1732498 0.56840611 0.18495464
0.27546397 0.56918871 0.18937361
-0.15198204 0.59005857 0.18662012
0.25404119 0.59048581 0.18893266
-0.13074937 0.61203992 0.18986201
0.23297611 0.61250734 0.19229031
-0.10946652 0.6340695 0.19309568
0.21185867 0.634579 0.19564056
-0.088134065 0.65615058 0.19633698
0.16837555 0.65411776 0.18655705
0.1906915 0.65670717 0.19901466
-0.0024749599 0.67562395 0.18724895
0.10436998 0.67577994 0.18797231
-0.045258325 0.67726916 0.19488144
-0.023837265 0.67644536 0.19105983
0.12594587 0.67661202 0.19183278
0.14758089 0.67744297 0.19568813
0.019062877 0.69953144 0.19864988
0.04042482 0.69867963 0.19483387
0.061870348 0.69885969 0.19564056
0.083446056 0.69972277 0.19950652
-0.21755482 -0.76196331 0.20827579
0.32009581 -0.7608574 0.20459259
-0.23870233 -0.73900783 0.20338297
0.34097794 -0.73798978 0.19990325
-0.23952357 -0.72055978 0.21405125
0.34231406 -0.71943808 0.21011317
-0.2606748 -0.69762528 0.2091223
0.36289778 -0.69599056 0.20322382
0.36422488 -0.67708588 0.21280146
-0.28175619 -0.65329087 0.20425844
0.38511497 -0.63280594 0.20822799
-0.30378416 -0.59008628 0.20960176
0.40593693 -0.58867061 0.20366943
0.40740952 -0.56939065 0.21323395
-0.71151131 -0.24486783 0.20381272
-0.77722627 -0.1162492 0.20843565
-0.79765582 -0.051490366 0.20448124
0.44972962 0.20663404 0.20848346
-0.34639409 0.22800592 0.20562816
-0.32477355 0.31392944 0.2045449
0.40640295 0.35713568 0.20669615
-0.30415729 0.37936252 0.21333003
-0.28184888 0.4214949 0.20526171
0.36349607 0.46481282 0.2075417
-0.26109222 0.48728356 0.21405149
-0.2389451 0.5076952 0.20653665
0.34263656 0.50862521 0.21257722
0.32012132 0.52892506 0.20479965
-0.19600408 0.57245904 0.20784485
0.29967922 0.57353806 0.21393907
-0.17409292 0.59264159 0.20060158
0.27727243 0.59366751 0.20615411
-0.15268873 0.61436051 0.20192015
0.25562906 0.61491472 0.20479965
-0.13133903 0.63648868 0.20518196
0.23444393 0.63708878 0.20818019
-0.10993984 0.65867198 0.20846748
0.21320881 0.6593197 0.21158469
-0.08848989 0.68090385 0.21174479
-0.066752061 0.67828649 0.19960165
0.16947296 0.67888898 0.20239711
-0.045376316 0.7021119 0.21020913
-0.023837265 0.70124936 0.20634544
-0.0023576152 0.70038933 0.20249248
0.1050825 0.70059168 0.20339894
0.1267786 0.70145953 0.20728636
0.14853622 0.70233333 0.21120059
0.019299503 0.72453105 0.2140193
0.04077879 0.72363997 0.21016109
0.062347505 0.72386521 0.2111367
-0.17499845 -0.78629875 0.21740592
-0.15340474 -0.7863037 0.21742213
0.25689223 -0.7863037 0.21742213
0.27848509 -0.78629875 0.21740592
-0.19699565 -0.76666766 0.22394574
0.30033025 -0.76535618 0.21957719
-0.21829653 -0.74357074 0.21898162
0.32135761 -0.74235839 0.21483707
0.32262671 -0.7237184 0.22514081
-0.24035114 -0.7019704 0.22480142
0.34365791 -0.70074576 0.22038221
-0.2615492 -0.6788767 0.21944845
0.36556113 -0.65805089 0.22244501
-0.28270379 -0.63440347 0.21451628
-0.28365839 -0.61537677 0.22485006
0.38652083 -0.61365002 0.21783996
0.38793406 -0.59435791 0.22750199
-0.8008548 -0.03043963 0.21602464
-0.80408043 -0.0092143193 0.22766387
-0.36938813 0.14227024 0.21772742
-0.34876484 0.25077415 0.22615933
0.43002847 0.31521851 0.21977031
-0.32659498 0.33698606 0.22144532
0.40935215 0.38071215 0.22585213
0.38634926 0.42289966 0.21666718
-0.28341088 0.4452087 0.22217095
0.36615202 0.4891347 0.22670925
-0.24016847 0.531775 0.22242868
-0.21802939 0.55217129 0.21512592
0.32221124 0.55329609 0.22176778
-0.19698372 0.59691882 0.2237519
-0.17494564 0.61715221 0.21642613
0.27910289 0.61844397 0.22313869
-0.15340325 0.63893199 0.21738994
0.25723362 0.63962114 0.22083318
-0.13193586 0.66121191 0.22068822
0.23593011 0.66195607 0.22426867
-0.11041844 0.68354774 0.22401023
0.19192189 0.68160504 0.21499753
0.21457447 0.68434572 0.22771263
-0.066989839 0.70319176 0.21504569
0.17058186 0.70394111 0.21840274
-0.088849679 0.70593262 0.22732413
-0.045495618 0.72722995 0.22570658
-0.023837265 0.72632784 0.22179997
-0.0022389758 0.72542822 0.21790433
0.084044784 0.72477162 0.21506178
0.10580224 0.72567695 0.21898174
0.12762152 0.72658849 0.22292876
0.14950126 0.72749889 0.22687101
0.041136671 0.74887681 0.22565818
0.062830508 0.74915469 0.2268225
-0.17620476 -0.77142519 0.23979211
0.28035143 -0.76990336 0.23472345
-0.19766237 -0.74818981 0.23477221
0.30152592 -0.74677402 0.22993195
0.30272859 -0.72804958 0.24034715
-0.21904509 -0.72504163 0.22978628
-0.2197983 -0.70636463 0.24065769
0.32390717 -0.7049455 0.23553681
-0.24118504 -0.68323797 0.23563468
0.3450138 -0.68191993 0.23074305
