ply
format ascii 1.0
comment PCL generated
element vertex 1350
property float x
property float y
property float z
element camera 0
property float view_px
property float view_py
property float view_pz
property float x_axisx
property float x_axisy
property float x_axisz
property float y_axisx
property float y_axisy
property float y_axisz
property float z_axisx
property float z_axisy
property float z_axisz
property float focal
property float scalex
property float scaley
property float centerx
property float centery
property int viewportx
property int viewporty
property float k1
property float k2
end_header
-0.37616444 -0.1081365 -0.12057149
0.38639948 -0.10824316 -0.11364734
-0.39722568 -0.088146731 -0.1139437
0.40752542 -0.088200569 -0.10694551
0.40528563 -0.068054944 -0.12149358
-0.41648233 -0.04800282 -0.11911023
0.42521173 -0.027997725 -0.12215912
-0.43786123 -0.0077177249 -0.11127543
0.44657716 0.012302503 -0.11426556
-0.45646611 0.052226149 -0.11978972
-0.47795731 0.092801228 -0.11197197
0.48662987 0.11270207 -0.11494768
-0.49642661 0.15240169 -0.12048173
0.50824153 0.15354247 -0.10701025
0.52616787 0.2529031 -0.11809647
-0.53745937 0.31340218 -0.11591244
-0.55667824 0.47318852 -0.11989224
0.547683 0.47501695 -0.11109471
0.5659005 0.47318852 -0.11989224
-0.056168459 -0.41247272 -0.092115879
-0.035855841 -0.41202432 -0.095541954
-0.015596034 -0.41157717 -0.098959088
0.0046111583 -0.41127914 -0.10123658
0.02482708 -0.41172558 -0.097825289
0.045095652 -0.41217321 -0.094405293
-0.13720864 -0.39221454 -0.092102766
-0.11679044 -0.39179248 -0.095528841
-0.09642531 -0.39137161 -0.098945975
-0.076113068 -0.39095181 -0.10235429
-0.055853505 -0.39053309 -0.10575366
0.065101869 -0.39067203 -0.10462594
0.085370198 -0.39109105 -0.10122371
0.10569126 -0.39151126 -0.097812295
0.12606525 -0.39193255 -0.094392061
-0.15698624 -0.37105 -0.099935651
-0.13647375 -0.37037975 -0.10574079
0.14575686 -0.37050998 -0.10461307
0.16643493 -0.3714745 -0.096260071
-0.19800368 -0.35171568 -0.091906309
-0.17698234 -0.35053378 -0.10287392
0.18645784 -0.35092759 -0.099219561
-0.21801373 -0.33115709 -0.094875813
-0.19693272 -0.33006191 -0.10581875
0.20643574 -0.33042675 -0.10217249
0.22755072 -0.33152902 -0.091159701
-0.23797987 -0.31064597 -0.097825408
0.22636871 -0.30997217 -0.10511875
0.2475435 -0.31098717 -0.094130754
-0.25790128 -0.29018086 -0.10076833
0.26748988 -0.29049078 -0.097108245
-0.27777809 -0.2697615 -0.10370493
0.28739259 -0.27004164 -0.10006583
-0.29795024 -0.24959175 -0.10369194
0.30799153 -0.25008309 -0.09659934
-0.31894797 -0.22983444 -0.09697783
0.32723466 -0.20920271 -0.10457397
-0.33813557 -0.18902439 -0.10488534
0.3482818 -0.18935043 -0.097825408
-0.35922661 -0.169121 -0.098177314
-0.38042602 -0.14911538 -0.091434836
0.36739734 -0.14867404 -0.10576665
-0.37828431 -0.12851211 -0.10607767
0.38854021 -0.12867525 -0.099011183
-0.39946651 -0.10846272 -0.099388838
0.40979245 -0.10857299 -0.092220664
-0.41913432 -0.068054855 -0.10270512
0.42788267 -0.047899172 -0.10563719
-0.4406541 -0.027576227 -0.09478426
0.44939455 -0.0074026436 -0.097629666
-0.45936689 0.032809816 -0.10340631
0.46807262 0.052848034 -0.10632384
-0.48100242 0.073582426 -0.09548974
0.48970172 0.093641877 -0.098320723
-0.49958041 0.13362172 -0.10409415
-0.51936406 0.21408556 -0.10601294
0.53122371 0.23576005 -0.092835903
-0.54257691 0.29673719 -0.091290712
0.5492999 0.33541816 -0.10331535
-0.56068534 0.39629567 -0.10130155
0.52850592 0.45583981 -0.10641456
-0.54172045 0.47827655 -0.09541142
-0.056486405 -0.43464029 -0.078348279
-0.036067251 -0.43416065 -0.081810236
-0.015701566 -0.43368393 -0.08525002
0.0046111583 -0.43336684 -0.087538242
0.024932804 -0.43384445 -0.084091306
0.045307655 -0.43432337 -0.080635428
0.065735929 -0.43480349 -0.077170372
-0.13795052 -0.41427618 -0.078335166
-0.11742467 -0.41382319 -0.081797123
-0.096952476 -0.41337126 -0.085250139
-0.0765341 -0.41292226 -0.088680983
0.065417096 -0.41262186 -0.090976238
0.085791595 -0.41307181 -0.087538362
0.1062199 -0.41352451 -0.084078193
0.12670127 -0.41397685 -0.080622315
0.14723635 -0.41443038 -0.077157021
-0.15784688 -0.39297098 -0.085960507
0.14649238 -0.39235479 -0.090963125
0.16730042 -0.39343339 -0.082206249
-0.19908608 -0.37360072 -0.077845573
-0.17794748 -0.3723194 -0.088943362
0.18742934 -0.37275183 -0.085197449
-0.21920168 -0.35290766 -0.080846786
0.20751271 -0.352117 -0.088181973
0.22874542 -0.35331666 -0.077051044
-0.23927292 -0.33226269 -0.083827853
0.24884385 -0.33264035 -0.080054045
-0.28079769 -0.31269115 -0.075686336
-0.25929892 -0.31166422 -0.086802244
0.26889542 -0.31200963 -0.083063364
-0.27927986 -0.29111215 -0.089770079
0.28890282 -0.2914269 -0.086052775
-0.29964414 -0.27089176 -0.089022279
0.3097038 -0.27145001 -0.081770658
-0.32076573 -0.25107941 -0.082219362
-0.34199491 -0.23116361 -0.075394511
0.32905158 -0.23027506 -0.089822531
-0.34005529 -0.20997633 -0.090215921
0.35022229 -0.21036537 -0.082997561
-0.36126974 -0.19001512 -0.083432555
0.37150478 -0.1903528 -0.076123714
-0.38259375 -0.16995087 -0.076614022
0.36943951 -0.16939607 -0.09102869
0.39070699 -0.14933828 -0.084196687
-0.40173456 -0.12900677 -0.084657669
0.41208518 -0.12917602 -0.077329159
-0.42181778 -0.08836098 -0.086105347
0.43058982 -0.068054855 -0.088891029
-0.44348246 -0.04768699 -0.078083754
0.4522458 -0.027360849 -0.080793738
-0.46230435 0.013147749 -0.086815476
0.47103608 0.033341773 -0.089586377
-0.48408869 0.054120094 -0.078784943
0.49281061 0.074336618 -0.081493616
-0.50277168 0.11460286 -0.087512016
0.51299983 0.13530056 -0.082285285
-0.52432972 0.19641547 -0.081203341
0.55461025 0.31898135 -0.077766061
-0.52392572 0.46048188 -0.083221555
0.0046111583 -0.47823781 -0.059734702
-0.077389076 -0.45755601 -0.060914874
-0.056808006 -0.45704293 -0.064422607
-0.03628109 -0.45653117 -0.067921162
-0.015808105 -0.45602089 -0.071410418
0.0046111583 -0.45568466 -0.073709369
0.025039539 -0.45619404 -0.070226073
0.045521684 -0.45670485 -0.066733837
0.066057816 -0.45721704 -0.063232183
0.086648144 -0.45773059 -0.059721231
-0.13870095 -0.43657184 -0.064409256
-0.1180662 -0.43608695 -0.067908049
-0.097485662 -0.43560344 -0.071397305
-0.076959141 -0.43512118 -0.074877381
0.086217828 -0.43528485 -0.073696256
0.10675357 -0.43576753 -0.070212841
0.12734336 -0.43625152 -0.066720366
0.14798741 -0.4367367 -0.063218713
-0.17991072 -0.41659629 -0.06060648
-0.15871672 -0.41512662 -0.071835995
0.1681744 -0.41562676 -0.068014503
-0.20018013 -0.3957209 -0.06363368
-0.17892386 -0.39433944 -0.074850678
0.18841125 -0.39481068 -0.071024656
0.20970155 -0.39619952 -0.059748173
-0.22040237 -0.37489158 -0.066666842
0.20860127 -0.37404001 -0.074041247
0.22995299 -0.37533921 -0.062790394
-0.24057981 -0.35411102 -0.069680333
0.25015819 -0.35452634 -0.06582582
-0.28233185 -0.33450198 -0.061450958
-0.26071152 -0.3333776 -0.072686791
0.27031606 -0.33375973 -0.068867803
0.29042923 -0.3130419 -0.071889043
-0.30135867 -0.29243284 -0.074174047
0.31143704 -0.29306048 -0.066760421
0.33274752 -0.27314013 -0.059815288
-0.32260239 -0.27256334 -0.067307591
-0.34395823 -0.25259161 -0.060392022
0.33088911 -0.25158632 -0.074903846
0.35218304 -0.23161809 -0.068014503
-0.36333409 -0.21114467 -0.068534493
0.37359175 -0.21154737 -0.061062336
-0.38478407 -0.19102181 -0.061638713
0.39289644 -0.17023522 -0.069227338
-0.40402612 -0.14978233 -0.069773436
0.41440189 -0.15001301 -0.062281728
-0.42453551 -0.10892598 -0.069294095
0.4333297 -0.088470072 -0.071942329
-0.44634697 -0.068054944 -0.061169505
0.45513615 -0.047576576 -0.06372714
-0.46527925 -0.0067648776 -0.070013046
0.47403532 0.013584144 -0.072646737
-0.48721194 0.034408271 -0.061879754
0.49596199 0.054782853 -0.064436078
-0.50600356 0.095341772 -0.070718646
0.53637856 0.2182814 -0.067080736
-0.54779196 0.27975446 -0.06619966
-0.50522363 0.42138642 -0.074771166
0.51527709 0.44261092 -0.070452452
0.53711134 0.48492604 -0.063419461
-0.56731462 0.50387073 -0.070545554
0.55657887 0.50435603 -0.068294406
0.57653689 0.50387073 -0.070545554
0.0046111583 -0.50103211 -0.045598269
-0.07782314 -0.48022634 -0.046818137
-0.057132699 -0.4796806 -0.050363183
-0.036496982 -0.47913623 -0.053898692
-0.015915869 -0.47859544 -0.057411432
0.025147399 -0.47877973 -0.056214452
0.045737978 -0.47932315 -0.052685261
0.066383421 -0.47986996 -0.049133062
0.087083437 -0.4804163 -0.045584679
-0.13945857 -0.45910132 -0.050349474
-0.11871387 -0.45858419 -0.053885221
-0.098023981 -0.45806843 -0.057411432
0.10729288 -0.45824546 -0.05620122
0.12799287 -0.45876366 -0.0526582
0.14874718 -0.45928127 -0.049119473
-0.18090825 -0.43909377 -0.046208382
-0.15959595 -0.43752098 -0.057559252
0.16905867 -0.43806177 -0.053655863
-0.20128597 -0.41808003 -0.049268126
0.18940379 -0.41710764 -0.056698799
0.21081378 -0.41859931 -0.045299768
-0.22161603 -0.39711267 -0.052334428
0.23117362 -0.39760029 -0.048375249
-0.26358262 -0.37750924 -0.043997169
-0.24190079 -0.37619489 -0.055380225
0.25148553 -0.37664783 -0.051457167
-0.28388259 -0.35654873 -0.04706192
-0.26213935 -0.35532475 -0.058419108
0.27175203 -0.35574502 -0.054518461
-0.30484474 -0.33625007 -0.043983459
0.29197216 -0.33489013 -0.057572722
-0.30309105 -0.31421667 -0.0591712
0.3131901 -0.31491801 -0.051578641
-0.32446155 -0.29429233 -0.052213073
0.33462557 -0.29493988 -0.044567227
-0.34594393 -0.2742638 -0.045218468
0.35416794 -0.25311437 -0.052846909
-0.36542371 -0.23251486 -0.053453803
0.37570447 -0.2329853 -0.04581511
-0.38699931 -0.21233252 -0.046492934
0.39511284 -0.19137129 -0.054073811
-0.40634575 -0.1707941 -0.054706931
0.41694748 -0.17113902 -0.045747399
-0.42728806 -0.12975477 -0.052266955
0.43610719 -0.10914968 -0.054760933
-0.44925061 -0.088684984 -0.044024348
0.45806402 -0.068054944 -0.046438694
-0.46829474 -0.026932679 -0.052981853
0.47707573 -0.0064290315 -0.05547452
-0.49037537 0.014442831 -0.044757366
0.49915186 0.034974389 -0.047170281
-0.5108484 0.076273829 -0.045544028
0.51799905 0.11676468 -0.056308746
-0.52939034 0.17840727 -0.055918455
0.5600279 0.30222291 -0.051700115
-0.5508393 0.50796783 -0.05153811
-0.016134741 -0.52446467 -0.028979063
0.0046111583 -0.52406746 -0.031324625
-0.099118337 -0.50371873 -0.028979063
-0.078262247 -0.50314027 -0.032557726
-0.057461157 -0.50256109 -0.036140323
-0.03671537 -0.5019834 -0.03971374
-0.016024671 -0.50140733 -0.043277502
0.025256511 -0.50160724 -0.042040706
0.045956779 -0.50218397 -0.038473606
0.066712186 -0.50276202 -0.034897208
0.087522954 -0.50334185 -0.031310916
-0.16138224 -0.48303843 -0.028553486
-0.14022498 -0.4818725 -0.036126733
-0.11936906 -0.48132229 -0.039700031
-0.098568514 -0.48077357 -0.043263793
0.10783844 -0.480964 -0.042027116
0.12864865 -0.48151326 -0.038460016
0.14951429 -0.48206389 -0.03488338
-0.18191664 -0.4618358 -0.031653643
-0.16048469 -0.46015751 -0.043127894
0.16995251 -0.46074069 -0.039141417
-0.20240279 -0.44068003 -0.034760356
0.19040614 -0.43964475 -0.042231083
0.21193707 -0.44124144 -0.030707836
-0.22284402 -0.41957653 -0.037832856
0.23240757 -0.42010391 -0.033803105
-0.26504156 -0.39993513 -0.029418349
-0.24323608 -0.39851791 -0.040925384
0.25282851 -0.39901143 -0.036918521
-0.28545165 -0.37883651 -0.03250289
0.27320364 -0.37796926 -0.040013313
-0.30661854 -0.35853595 -0.02862215
0.29353184 -0.35697556 -0.043100834
0.3149617 -0.33702534 -0.036235929
-0.32634199 -0.31626984 -0.036945939
0.33652696 -0.31699181 -0.029129982
-0.34795058 -0.29618311 -0.029884934
0.35617563 -0.27485755 -0.037505507
-0.36753532 -0.25412816 -0.038214684
0.37784153 -0.25467008 -0.030392528
-0.3892419 -0.23388775 -0.031160355
0.39735469 -0.21274994 -0.038746238
-0.40868977 -0.19204523 -0.039481997
0.41964543 -0.19256516 -0.028223753
-0.43007836 -0.15085295 -0.035006404
0.43891874 -0.13009888 -0.037368894
0.46102795 -0.088801131 -0.028937817
-0.47134671 -0.047361061 -0.035744429
0.4801558 -0.026703257 -0.038078189
0.50238591 0.014907509 -0.029665351
0.52309489 0.097859859 -0.02982986
-0.5345515 0.16005251 -0.030131817
0.54163527 0.20045714 -0.040816426
-0.55311024 0.26244658 -0.040612221
-0.5122931 0.44884926 -0.0380373
0.52307636 0.47114891 -0.029925942
-0.53212714 0.48932713 -0.042244554
-0.016245883 -0.54776686 -0.014541149
0.0046111583 -0.54735202 -0.016884327
0.02547814 -0.54799539 -0.013250113
-0.09967459 -0.52691209 -0.01452744
-0.078705639 -0.52629733 -0.018158197
-0.057792809 -0.525684 -0.021779537
0.046177708 -0.52528697 -0.024123788
0.067044467 -0.52589917 -0.020509005
0.08796718 -0.52651298 -0.016884327
0.1089466 -0.52713084 -0.013236165
-0.036935885 -0.5250724 -0.025390863
0.025366681 -0.52467638 -0.027729034
-0.16229048 -0.50617176 -0.013805509
-0.14099884 -0.5048849 -0.021765471
-0.1200306 -0.50430113 -0.025377154
0.1083893 -0.50392306 -0.027715445
0.12931144 -0.50450587 -0.024110079
0.15029037 -0.50509256 -0.020481348
-0.18293604 -0.48482651 -0.016939759
0.17085615 -0.48366743 -0.024468184
0.19244576 -0.48546505 -0.012791514
-0.20353284 -0.46352857 -0.020080686
0.19142038 -0.46242994 -0.027591705
0.21307375 -0.4641338 -0.015942097
-0.22408423 -0.44228375 -0.023186564
0.23365501 -0.44285393 -0.01907146
-0.26651791 -0.42260832 -0.01466608
-0.24458592 -0.42108405 -0.026312947
0.25418624 -0.42161959 -0.022221088
-0.28703639 -0.40136635 -0.017798424
0.27467108 -0.40043634 -0.025349617
-0.30841121 -0.38107735 -0.013097286
0.29517663 -0.37937504 -0.027839065
0.31675535 -0.35938942 -0.020702362
-0.3282423 -0.33849829 -0.021517277
0.33845037 -0.33929926 -0.013514042
-0.34998217 -0.31835604 -0.014360785
0.35820475 -0.29685077 -0.022000194
-0.36967307 -0.27599055 -0.022786617
0.3800014 -0.27660501 -0.014805079
-0.39150828 -0.2556904 -0.015664816
0.39962038 -0.2343746 -0.023255467
-0.41106069 -0.21354006 -0.024082422
-0.43290269 -0.17222488 -0.017535329
0.44176945 -0.15132317 -0.019735098
-0.45218959 -0.10958231 -0.026670456
-0.47443834 -0.068054944 -0.018282771
0.48327386 -0.04724355 -0.02046752
-0.49357975 -0.0057809763 -0.027413011
-0.51584727 0.056855105 -0.019569159
0.54699701 0.18227704 -0.014027596
-0.55852902 0.2448007 -0.014541149
0.56556487 0.28513831 -0.025060534
0.54600137 0.51498073 -0.019002199
-0.57836187 0.53573847 -0.019292593
0.5667637 0.53573847 -0.019292593
-0.016358333 -0.57132262 6.6161156e-05
0.0046111583 -0.57088512 -0.002302289
0.025590695 -0.57156384 0.0013712645
-0.10023629 -0.55035311 6.6280365e-05
-0.079154223 -0.5497058 -0.0035898685
-0.058128349 -0.54905778 -0.0072501898
-0.037158977 -0.54841143 -0.010900617
0.046401225 -0.54864067 -0.0096060038
0.067380644 -0.54928756 -0.0059521198
0.088416621 -0.54993629 -0.0022882223
0.10950938 -0.5505867 0.0013852119
-0.16320869 -0.52955961 0.0011045933
-0.14178178 -0.52814704 -0.0072362423
-0.12069989 -0.52752876 -0.010886669
0.12998201 -0.52774805 -0.0095920563
0.15107405 -0.52836674 -0.0059381723
-0.18396665 -0.50806981 -0.0020642281
0.17176972 -0.50684607 -0.0096338987
0.19348246 -0.50875461 0.0021717548
-0.20467529 -0.4866277 -0.0052397251
0.21422297 -0.48727846 -0.0010135174
-0.24733019 -0.4669621 0.0033947229
-0.22533685 -0.46523792 -0.0083937645
0.23491505 -0.46585238 -0.0041912794
-0.26800904 -0.44552898 0.00023448467
-0.24595055 -0.44389749 -0.011540413
0.25555888 -0.44447643 -0.0073618889
-0.28863853 -0.42414385 -0.0029321909
0.27615464 -0.42315024 -0.010524869
-0.31022623 -0.40388149 0.0026215315
0.29685971 -0.4020533 -0.012221813
0.31856987 -0.38201368 -0.0049880743
-0.33016631 -0.36098522 -0.0058962107
0.34039447 -0.36186528 0.0022702217
-0.35203543 -0.34078467 0.0013293028
0.36025923 -0.31910062 -0.0063010454
-0.37183362 -0.29810447 -0.0071943998
0.38218835 -0.29879647 0.00097823143
-0.393803 -0.27774656 2.4080276e-05
0.40191445 -0.25625116 -0.0075711012
-0.41348472 -0.23529328 -0.0083379745
0.42237896 -0.21427368 -0.010469079
-0.43576398 -0.19387636 0.0001642704
0.44465777 -0.17282782 -0.001868248
-0.45516685 -0.13075188 -0.0090905428
0.46403319 -0.10982057 -0.011192799
-0.47757289 -0.089019462 -0.00057888031
0.48643556 -0.068054944 -0.0026103258
-0.49682847 -0.026268274 -0.0098286867
0.50566 -0.0054237545 -0.011943817
0.52829283 0.078575984 -0.0028203726
-0.53981066 0.14133802 -0.0038557053
-0.51956135 0.4770844 -0.00027048588
-0.54058439 0.51907879 1.013279e-05
-0.56026196 0.53866071 -0.0062032938
-0.037612211 -0.59584707 0.01853776
-0.016471889 -0.59513104 0.014817595
0.0046111583 -0.59467578 0.012451768
0.025704579 -0.5953905 0.016165495
-0.12205961 -0.57473797 0.018551826
-0.10080463 -0.57405072 0.014831901
-0.079607233 -0.57336521 0.011121869
-0.058467187 -0.57268161 0.0074219704
0.067720138 -0.57292676 0.0087484121
0.088870496 -0.5736109 0.012451887
0.11007827 -0.57429707 0.016165495
-0.037384264 -0.57199991 0.0037320852
0.04662694 -0.57224429 0.0050547123
-0.1641371 -0.55320615 0.016179681
-0.1425724 -0.55165803 0.0074360371
-0.12137575 -0.55100471 0.0037461519
0.13065916 -0.55123889 0.0050688982
0.15186621 -0.55189288 0.008762598
-0.18500863 -0.53157002 0.012975693
0.17269339 -0.53028101 0.0053646564
0.19453067 -0.53230256 0.017301321
-0.20583035 -0.50998217 0.0097651482
0.21538489 -0.51067984 0.014080644
-0.24872512 -0.49028206 0.018495202
-0.22660567 -0.4884491 0.0065902472
0.23619017 -0.48910767 0.010867357
-0.26951531 -0.46870124 0.01528573
0.25694668 -0.46758616 0.0076618195
-0.29025841 -0.44717288 0.012097955
0.27765462 -0.44611502 0.0044636726
-0.31206247 -0.42695165 0.018523455
0.29856393 -0.42499757 0.0035915375
0.32040399 -0.40490061 0.010895729
-0.33211267 -0.38373351 0.0099064112
0.34236309 -0.38469738 0.018253446
-0.35411265 -0.36347443 0.0172019
0.36233774 -0.34161055 0.0095815659
-0.37402117 -0.32047641 0.0085929632
0.38439897 -0.3212468 0.01693213
-0.39612237 -0.30005842 0.015881419
0.40423527 -0.27838337 0.0082967281
-0.41622838 -0.2574327 0.0094826221
0.42514652 -0.23626903 0.0075067282
-0.43866295 -0.21581294 0.018096924
0.44758222 -0.19461809 0.016222358
-0.4581832 -0.15219934 0.0087202787
0.46707585 -0.13111825 0.0067734718
-0.48074624 -0.11025988 0.017343879
0.48963675 -0.089142941 0.015470147
-0.50011724 -0.047024604 0.0079722404
0.50943339 -0.025986414 0.0084803104
-0.52094406 0.037056081 0.0069144964
0.55246973 0.16373138 0.013315678
-0.56405705 0.22681002 0.012055635
0.51050472 0.43783867 0.014279127
0.53111488 0.50056916 0.011843204
0.55305713 0.54367322 0.01625073
-0.037842646 -0.61995441 0.033504963
0.047085993 -0.62022781 0.034871101
-0.016586794 -0.61920172 0.029744387
0.0046111583 -0.61872298 0.027352571
0.025819598 -0.61947435 0.03110671
-0.12275025 -0.59872741 0.033504844
-0.1013786 -0.59800369 0.029744267
-0.080065608 -0.59728473 0.026008129
-0.05881004 -0.59656489 0.022267818
0.04685533 -0.59610707 0.019889116
0.068063647 -0.5968256 0.02362287
0.089329764 -0.59754616 0.027366877
0.11065391 -0.59826869 0.031121135
0.13203634 -0.59899312 0.034885526
-0.16507579 -0.57711583 0.031422377
-0.1433724 -0.57542717 0.022282124
0.13134433 -0.57498759 0.019903302
0.15267466 -0.57570118 0.023765564
-0.18606222 -0.55533135 0.028182745
0.17362732 -0.55397636 0.020529628
0.19559057 -0.55611336 0.032599807
-0.20699935 -0.53359807 0.024950743
0.21655978 -0.53434187 0.029343009
-0.25013557 -0.51386178 0.033763647
-0.22788736 -0.51191568 0.021726251
0.23747952 -0.51262176 0.02609396
-0.27104113 -0.49213535 0.030532956
0.25834996 -0.49095291 0.022852421
0.2807048 -0.49281436 0.034943104
-0.29189622 -0.47045779 0.027295351
0.27917123 -0.46933502 0.01961875
-0.31391856 -0.45029056 0.034597754
0.30028817 -0.44821107 0.019590378
0.3222613 -0.42805845 0.026980639
-0.33408004 -0.40674615 0.025879622
0.34435493 -0.40779865 0.034425259
-0.35621607 -0.38643193 0.033275008
0.36443877 -0.36438352 0.025636554
-0.37623236 -0.34310853 0.024550796
0.38663766 -0.34396291 0.033088088
-0.39847097 -0.32263309 0.031939149
0.40658131 -0.30077451 0.024336696
-0.41900831 -0.27986467 0.027538538
0.42795318 -0.25855875 0.025736451
0.45054811 -0.21670057 0.034568906
-0.46124178 -0.17393064 0.026780367
0.47016156 -0.15270048 0.024993658
0.49288338 -0.1105134 0.033806801
-0.50344944 -0.0680549 0.02600801
-0.52614439 0.016866006 0.033936262
0.53359622 0.058901459 0.024736404
-0.54517621 0.12225613 0.022952437
-0.52585959 0.50485343 0.03245604
0.53507632 0.52606606 0.032427311
-0.54616004 0.54626673 0.027867794
-0.56860781 0.56885505 0.033950567
0.57783008 0.56885505 0.033950567
-0.038075387 -0.64432329 0.048622012
-0.016702846 -0.64353305 0.044819832
0.0046111583 -0.64303344 0.042416453
0.025935877 -0.64382225 0.04621172
0.047319189 -0.64461333 0.050017595
-0.12344914 -0.62298286 0.048636436
-0.10195942 -0.62222189 0.044834495
-0.080528557 -0.62146306 0.041042805
-0.059156306 -0.62070626 0.037261486
0.068410583 -0.6209833 0.038645864
0.089793608 -0.62174088 0.042430758
0.11123531 -0.62250054 0.046226263
0.13273594 -0.62326223 0.050032139
-0.16602501 -0.60129297 0.046835661
-0.14418036 -0.59945321 0.03727591
0.15350294 -0.59981114 0.039136291
-0.18712756 -0.57935822 0.04355979
0.17457168 -0.57793641 0.035864234
0.19666237 -0.58019149 0.048069835
-0.20818028 -0.55747521 0.040291429
0.21774785 -0.55826938 0.044776559
-0.25156316 -0.53770781 0.04921782
-0.22918333 -0.53564388 0.037030935
0.23878331 -0.53639919 0.041491032
-0.27258259 -0.51582944 0.045936108
0.2597689 -0.51458102 0.038213134
0.28225562 -0.51655746 0.050439596
-0.29362881 -0.49411196 0.043371558
0.30203119 -0.47169638 0.035763383
0.32414061 -0.45149022 0.043255687
-0.33607233 -0.43003118 0.042054892
-0.35834241 -0.40965831 0.049523234
0.36656657 -0.38742727 0.041895747
-0.3784695 -0.36600649 0.040695906
0.38890287 -0.36694843 0.049435973
-0.40084514 -0.34547234 0.048171401
0.40895718 -0.32343125 0.040580392
-0.42182517 -0.30259487 0.045834661
0.43079531 -0.28114694 0.044196963
-0.44160035 -0.23804025 0.036267519
-0.46433863 -0.19595034 0.045066357
0.47328624 -0.17457193 0.043443918
-0.48396155 -0.13178182 0.035504222
-0.5069598 -0.08937034 0.045008421
0.51456714 -0.046806693 0.0362674
-0.55064571 0.10279343 0.050279617
0.55806553 0.1448122 0.041273952
0.5167504 0.46542352 0.048084497
-0.52888399 0.52945954 0.048171401
0.53817058 0.55087399 0.048505783
0.55795276 0.57041615 0.040710568
-0.038310692 -0.66896081 0.063905478
-0.016820287 -0.66813546 0.060076237
0.0046111583 -0.66761476 0.057660699
0.026053552 -0.66844189 0.061498284
0.047555186 -0.66927129 0.065346122
-0.12415507 -0.64750296 0.063920259
-0.10254608 -0.64670402 0.060076237
-0.080997042 -0.64591032 0.056257486
-0.059506707 -0.64511567 0.052434325
0.068761677 -0.64540958 0.053848505
0.090263017 -0.64620501 0.057675242
0.11182369 -0.64700258 0.061512947
0.13344394 -0.64780235 0.065360785
-0.1669849 -0.6257422 0.062422395
-0.14499797 -0.62374592 0.052448869
0.15433975 -0.62418956 0.054665565
0.19774626 -0.60454136 0.063714623
-0.1882049 -0.60365504 0.059109569
0.17552665 -0.60216582 0.051371098
-0.20937447 -0.58162045 0.05580461
0.21894932 -0.58246648 0.060383916
-0.25300547 -0.56182009 0.064831376
-0.23049383 -0.55963808 0.052507281
0.24010177 -0.56044447 0.057061315
-0.2741414 -0.53978997 0.061512828
0.26120383 -0.53847474 0.053746343
0.28382394 -0.54056877 0.066111088
-0.29539436 -0.51806313 0.059753895
0.30379644 -0.49546242 0.052142978
-0.31579822 -0.47390676 0.050876021
0.32604057 -0.47519886 0.059710145
-0.3380864 -0.45358968 0.058406949
-0.3604959 -0.43316197 0.065978765
0.34636861 -0.43117219 0.050774336
0.36871964 -0.41074526 0.058348298
-0.3807351 -0.38917673 0.057046533
0.39119306 -0.39020652 0.065963984
-0.40324962 -0.36858392 0.064611077
0.41136128 -0.34635752 0.057017326
-0.42468199 -0.32563078 0.06439054
0.43367821 -0.30404174 0.062921524
-0.44457927 -0.26056516 0.054694891
0.45355165 -0.23907988 0.053148627
-0.46747696 -0.21826473 0.063597083
0.47645563 -0.19673978 0.062158227
-0.48721984 -0.15359074 0.053906798
0.49617112 -0.13217142 0.052376032
0.51980639 -0.068054855 0.064625621
-0.53144586 -0.0037280396 0.061483502
0.53900802 0.038824484 0.052857041
-0.50990611 0.44646233 0.060955763
0.51803905 0.48815858 0.055059791
0.51933968 0.5110147 0.062099576
-0.53193742 0.55434144 0.0640378
-0.55112952 0.57318425 0.052696705
-0.038548838 -0.69387478 0.079373479
-0.016938919 -0.69300723 0.075486779
0.0046111583 -0.69246519 0.073059201
0.026172418 -0.69333142 0.076939344
0.047793578 -0.6942001 0.080830097
-0.12486952 -0.67229807 0.079388261
-0.1031398 -0.67146033 0.075501442
-0.081470259 -0.67062479 0.07162559
-0.059860639 -0.66979164 0.067760229
0.069116317 -0.67010307 0.069204807
0.090737179 -0.67093706 0.073073983
0.11241803 -0.67177343 0.076954246
0.1341591 -0.67261201 0.080844879
-0.16795565 -0.65046793 0.078185558
-0.14582382 -0.6483041 0.067774892
0.1551868 -0.64884669 0.070385098
-0.18929438 -0.62822652 0.074835181
0.17649151 -0.62666601 0.067038417
0.19884144 -0.62916458 0.079522014
-0.21058214 -0.60603815 0.071492553
0.2201644 -0.60693812 0.076168299
-0.25446412 -0.58620554 0.080621839
-0.23181911 -0.58390278 0.068158031
0.24143517 -0.58476186 0.072807908
-0.27571785 -0.56402165 0.077265501
0.26265496 -0.56263882 0.069455504
0.28540859 -0.56485021 0.081945777
-0.29718095 -0.54229969 0.076331377
0.30558279 -0.51951236 0.068718195
-0.31770021 -0.49780345 0.067347646
0.32796499 -0.49919331 0.076375961
-0.34012625 -0.47743052 0.074968219
0.34840813 -0.45482641 0.067332983
0.37089658 -0.4343403 0.074983001
-0.38302562 -0.4126209 0.073577046
-0.4056806 -0.3919695 0.081231713
0.41379198 -0.36955661 0.073636174
0.436598 -0.3272469 0.081886172
-0.44759586 -0.28339148 0.073354959
0.45659831 -0.26176369 0.07199502
0.47966567 -0.21920869 0.081112623
-0.49052444 -0.17569308 0.072571397
0.49950609 -0.15412354 0.071211934
-0.51209033 -0.1111134 0.072778344
0.54453456 0.018332817 0.081573844
-0.55622512 0.082939431 0.078155994
0.56377393 0.12550139 0.069794774
-0.51122856 0.46927816 0.068113804
-0.51255786 0.49221152 0.075308919
0.52184033 0.53537935 0.075634837
0.54298985 0.57799959 0.073547363
-0.038789641 -0.71906686 0.095013976
-0.017058985 -0.71815926 0.091083765
0.0046111583 -0.71759588 0.088644147
0.026292723 -0.71850204 0.092567682
0.048034862 -0.71941048 0.096501827
-0.12559123 -0.69736648 0.095013976
-0.10373956 -0.69648916 0.091083765
-0.081949197 -0.6956175 0.087179542
-0.060218848 -0.69474494 0.083270907
0.069474891 -0.69507104 0.084731817
0.091216609 -0.69594443 0.088644147
0.11301957 -0.69682372 0.092582703
0.13488297 -0.69770205 0.096517086
-0.16893746 -0.67547512 0.094128013
-0.14665966 -0.6731382 0.083285928
0.1560435 -0.67378426 0.086283326
-0.19039524 -0.65307409 0.09072423
0.17746824 -0.65144753 0.082898617
0.19995014 -0.65407187 0.095524788
-0.21180351 -0.63073307 0.087358832
0.22139336 -0.63168859 0.092132807
-0.25593942 -0.61086857 0.096592188
-0.23315941 -0.60844254 0.083986163
0.24278377 -0.60935628 0.088733912
-0.27731222 -0.58852899 0.093197584
0.28701282 -0.58941185 0.097976446
0.26412261 -0.58707774 0.085343242
-0.29898733 -0.56682384 0.093092561
0.30738899 -0.54384857 0.085477471
-0.31962314 -0.52198303 0.084001184
0.3299126 -0.5234769 0.093242407
-0.34218866 -0.50155473 0.091712952
0.35047212 -0.47876477 0.084090471
-0.3626731 -0.45694405 0.082615733
0.37310165 -0.45822126 0.091832757
-0.38534561 -0.43634742 0.090319991
0.39351276 -0.41374528 0.08270514
0.41645786 -0.393197 0.091862917
-0.42757511 -0.34897596 0.08318162
-0.45065323 -0.30652678 0.092267752
0.45968419 -0.28475624 0.091083646
-0.47065753 -0.24087989 0.082377434
-0.49387109 -0.19809373 0.091473222
0.50288391 -0.17637511 0.09029007
0.52515441 -0.089744203 0.093572497
-0.53685433 -0.024737611 0.089586616
0.50377083 0.45280737 0.095299363
-0.5138886 0.5152573 0.082511425
-0.51569104 0.53896427 0.092267871
0.52480805 0.56051642 0.09169805
-0.53616977 0.58088219 0.086029649
-0.55845904 0.60329801 0.089317322
0.56768429 0.60330158 0.089332342
-0.03903291 -0.74453801 0.11081469
-0.017180281 -0.74358946 0.10684037
0.0046111583 -0.74300444 0.10438859
0.026414264 -0.7439512 0.108356
0.048278626 -0.74490064 0.11233461
-0.12632175 -0.72271949 0.11083007
-0.10434662 -0.72180158 0.10685563
-0.08243303 -0.72088635 0.1028924
-0.060580708 -0.71997356 0.098940134
0.069837831 -0.72032166 0.1004473
0.09170188 -0.72123539 0.10440373
0.11362728 -0.72215158 0.10837114
0.13561426 -0.72307044 0.11234987
-0.16993049 -0.70076841 0.11025274
0.15691 -0.69900727 0.10236382
-0.147504 -0.69824624 0.098955154
-0.19151074 -0.67821205 0.10682535
0.17845616 -0.67651236 0.098940015
0.20107158 -0.67926508 0.11171138
-0.21303883 -0.65570992 0.10340607
0.22263522 -0.6567198 0.10826504
-0.25743157 -0.63581413 0.11274529
-0.23451501 -0.63326222 0.099994898
0.24414779 -0.6342324 0.10484231
-0.27892485 -0.61331648 0.1093117
0.26560703 -0.61179626 0.10141265
-0.3008171 -0.59164631 0.11007071
0.30921862 -0.56848139 0.1024543
-0.32157096 -0.54645532 0.10086954
0.33188379 -0.54805475 0.11031353
-0.34427589 -0.52596915 0.10865927
0.35255921 -0.50299001 0.10103559
-0.36487842 -0.48101389 0.099467397
0.37533346 -0.4823916 0.10888708
-0.38769141 -0.46035749 0.1072495
0.39586049 -0.43756813 0.099648356
-0.40814069 -0.41563541 0.098051548
0.41929203 -0.41725981 0.11124027
-0.43050748 -0.37263799 0.10222781
0.43956015 -0.35077173 0.10112596
-0.45375225 -0.32997692 0.1114378
0.46281496 -0.30806649 0.11045039
-0.47388381 -0.26380283 0.10142767
0.4829222 -0.24198616 0.10034168
-0.49726334 -0.22079925 0.11063242
0.50631088 -0.1989332 0.10964561
-0.51732767 -0.1332972 0.10112596
0.55018538 -0.0025860295 0.1109364
-0.56192082 0.06268315 0.10661328
0.50443679 0.43177068 0.099060774
0.50504833 0.4758985 0.10251474
0.5063324 0.4991082 0.1097672
-0.51871943 0.56430286 0.10865951
0.52781284 0.58594716 0.10796201
-0.54116201 0.60870379 0.11196983
0.54789698 0.60561943 0.099045634
-0.039279159 -0.77029997 0.12680912
-0.017303059 -0.76930982 0.12278974
0.0046111583 -0.76870281 0.12032557
0.026537294 -0.76969129 0.12433791
0.048525374 -0.77068245 0.1283617
-0.12705979 -0.74835479 0.12680912
-0.10495993 -0.74739569 0.12278974
-0.082922772 -0.74644291 0.11879706
0.092192143 -0.74680758 0.12032557
0.11424183 -0.74776506 0.12433791
0.13635454 -0.74872899 0.12837708
-0.060946986 -0.745489 0.11480033
0.070204496 -0.74585277 0.11632454
-0.17093496 -0.72635293 0.12656343
-0.14835866 -0.72363985 0.11481559
0.15778647 -0.7245205 0.11862898
-0.19263801 -0.70363557 0.12309623
0.1794554 -0.70186526 0.11516607
0.20220596 -0.70474929 0.12808478
-0.21428834 -0.68097353 0.11963749
0.22389258 -0.6820429 0.12459862
-0.25894094 -0.6610471 0.12908459
-0.23588614 -0.65836638 0.11618733
0.24552625 -0.65939188 0.12112105
-0.28055602 -0.63838929 0.12561131
0.26710853 -0.63679934 0.11766708
-0.30266908 -0.61676961 0.12725472
0.28863549 -0.61425555 0.11419117
0.31107047 -0.59341377 0.11963761
0.33387727 -0.57292968 0.12757754
-0.32354054 -0.57122087 0.11792672
-0.34639031 -0.55068189 0.12582624
0.3546735 -0.52751166 0.11820149
-0.36710837 -0.50537205 0.11650741
0.37759042 -0.506854 0.12613344
-0.39006776 -0.48466039 0.1243993
0.39823461 -0.46167839 0.11678219
-0.41063276 -0.43958896 0.11508989
-0.43347985 -0.39662313 0.12153423
0.44256321 -0.37462127 0.12063134
-0.47715163 -0.28703797 0.12072325
0.48622116 -0.26507714 0.11982095
0.53061461 -0.11188845 0.12312686
-0.54237598 -0.04617545 0.11827791
-0.50012749 0.4366836 0.12680924
-0.49922332 0.45768541 0.12170267
-0.49964646 0.4800511 0.12409258
0.50763386 0.52245003 0.11711776
0.50894207 0.5459131 0.12450671
-0.52178329 0.5899381 0.12524295
-0.03952796 -0.79635036 0.14296949
-0.017427109 -0.79531771 0.13890445
0.0046111583 -0.79468858 0.13642776
0.026661599 -0.7957195 0.14048564
0.048774689 -0.79675329 0.14455497
-0.12780692 -0.7742846 0.14298487
-0.10558077 -0.7732833 0.13891995
-0.083417572 -0.77228475 0.1348666
-0.061317042 -0.77128905 0.13082433
0.070575669 -0.77167642 0.1323967
0.092688441 -0.77267319 0.13644326
0.11486395 -0.77367282 0.14050114
0.13710247 -0.77467531 0.14457059
-0.17195107 -0.75223351 0.14306259
-0.14922214 -0.74931663 0.13083994
0.15867311 -0.7503292 0.13508272
0.20335352 -0.73052943 0.14464843
-0.19377835 -0.72935325 0.13955522
0.1804662 -0.72751135 0.1315794
-0.21555229 -0.70652884 0.13605654
0.22516452 -0.7076596 0.14112175
-0.23727307 -0.68376029 0.13256621
0.24692194 -0.68484604 0.13760376
-0.28220606 -0.66375214 0.14209962
0.26862603 -0.66208833 0.13409412
-0.30454195 -0.64219642 0.14463282
0.29027691 -0.63938642 0.1305933
0.31294334 -0.61864817 0.13701558
-0.32553583 -0.59629011 0.13520646
0.33589694 -0.59811223 0.14506853
-0.34852859 -0.57569331 0.14318705
0.35681364 -0.5523333 0.1355772
-0.36936745 -0.53002852 0.13376999
0.37987706 -0.53161865 0.14360654
-0.3924709 -0.5092572 0.14174259
0.40063989 -0.48608524 0.13414049
-0.41315281 -0.46383125 0.13231957
0.42216319 -0.44165409 0.13087046
-0.43649554 -0.42094028 0.14112175
0.44560564 -0.39880079 0.14039266
-0.45689622 -0.35374993 0.13088596
0.46598908 -0.33169943 0.13008523
-0.48046437 -0.31059274 0.14028394
0.48956853 -0.28849006 0.13958633
-0.50070477 -0.2438169 0.13006973
0.51088852 -0.22213934 0.13549995
-0.52266937 -0.15593503 0.13003898
0.55595869 -0.023947101 0.14093554
-0.50097209 0.50347394 0.13157964
-0.50229645 0.5270105 0.13905954
0.51111847 0.57058489 0.13679898
0.51262677 0.59457421 0.14531744
-0.52440464 0.61525714 0.13943124
0.53194284 0.61308187 0.13031626
-0.039779846 -0.82270193 0.15932965
-0.017552692 -0.82162595 0.15521824
0.0046111583 -0.82097024 0.15271318
0.026787322 -0.82204443 0.15681744
0.049027093 -0.8231259 0.16094935
-0.12856184 -0.80050647 0.15932953
-0.1062087 -0.79946595 0.15523386
-0.08391849 -0.79842448 0.15113413
-0.061691664 -0.79738593 0.14704597
0.070950702 -0.79778993 0.14863622
0.093189903 -0.79882962 0.15272892
0.11549257 -0.79987228 0.15683317
0.13785897 -0.80091792 0.16094935
-0.17297898 -0.77841556 0.15975416
-0.15009627 -0.77528882 0.14706159
0.15957005 -0.77643836 0.15172791
-0.19493191 -0.75537002 0.15620589
0.18148877 -0.75345564 0.14818382
-0.21683089 -0.73238111 0.15266633
0.22645131 -0.73357534 0.15783763
-0.23867612 -0.7094487 0.14913559
0.24833395 -0.71059668 0.1542784
-0.28387532 -0.68941039 0.15877974
-0.26046777 -0.68657243 0.14561319
0.27016258 -0.68767482 0.15072787
0.29193744 -0.66480947 0.14718616
0.31484091 -0.64419591 0.15462291
-0.32755372 -0.62166309 0.15268183
-0.35069501 -0.60101426 0.16077626
0.35897818 -0.57745755 0.15315127
-0.37165213 -0.55498385 0.15122783
-0.39490569 -0.53415787 0.15931404
0.40307471 -0.51079226 0.15171242
-0.41594806 -0.48861414 0.15143096
0.42507669 -0.46639067 0.15079033
-0.43955061 -0.44559246 0.16096497
0.44869304 -0.42332041 0.16044581
-0.4600811 -0.37784976 0.15058744
0.46920493 -0.35566062 0.1499784
-0.48382562 -0.33447498 0.16013134
0.4929601 -0.31222939 0.15961266
-0.50419098 -0.26715136 0.14975977
-0.52812153 -0.17904086 0.15954959
0.53619349 -0.13450268 0.15332341
-0.54800838 -0.068054855 0.14754462
-0.50362772 0.55067074 0.14657855
-0.50413018 0.57340145 0.14941633
-0.50540453 0.59718287 0.15661371
0.51416898 0.61874038 0.15402782
-0.54790342 0.63916367 0.14699936
-0.52739078 0.64128095 0.15559447
0.53502506 0.63916367 0.14699936
-0.040034376 -0.84935182 0.17586195
-0.017679593 -0.84823132 0.17170298
0.0046111583 -0.84755713 0.16920102
0.026914608 -0.84867567 0.1733526
-0.12932616 -0.8270331 0.17587793
-0.10684321 -0.8259446 0.17171896
-0.084424652 -0.82485932 0.16757226
0.093697608 -0.82528979 0.16921687
0.11612901 -0.82637626 0.17336833
-0.062070206 -0.82377708 0.16343713
0.071330391 -0.82420629 0.16507721
-0.17401895 -0.80490404 0.17664087
-0.15097953 -0.80155385 0.16345298
0.1604775 -0.80285341 0.16856813
-0.19609898 -0.78169101 0.17305112
0.18252331 -0.77970338 0.16498232
-0.21812445 -0.75853533 0.16947007
0.20451449 -0.75661081 0.16140568
0.22775319 -0.75979519 0.17474961
-0.24009553 -0.7354368 0.16589785
0.24976246 -0.73664945 0.17114854
-0.28556409 -0.71536905 0.17565525
-0.26201242 -0.71239519 0.16233444
0.27171713 -0.71356106 0.16755641
0.29364419 -0.69058758 0.16424108
-0.30643949 -0.66793829 0.16224003
0.316762 -0.6700601 0.17244828
-0.32959828 -0.64735132 0.17038822
0.33794156 -0.62360549 0.16277552
0.36117148 -0.60289538 0.1709584
-0.37396482 -0.58024591 0.16890037
0.38219193 -0.55668885 0.16129553
0.40553746 -0.53580225 0.16948581
-0.41887137 -0.51382601 0.17141795
0.42802882 -0.49147254 0.17097414
-0.46331024 -0.40228438 0.17056239
0.47246853 -0.37995982 0.17016649
-0.50806773 -0.29095876 0.17165565
0.51627892 -0.2460264 0.16594529
0.56185549 -0.045765184 0.17157638
0.49507749 0.44470531 0.17211545
0.4941957 0.46603733 0.1669085
0.49331972 0.48729563 0.16173613
0.49415824 0.51050073 0.16668737
0.49454108 0.53322285 0.16894782
0.4945277 0.55547512 0.16886878
0.49451163 0.57772291 0.16877389
0.49547791 0.601309 0.1744796
-0.5066908 0.62109113 0.16387856
0.51703757 0.64488626 0.17022991
-0.13009857 -0.85386163 0.19260073
-0.10748503 -0.85272831 0.18839407
-0.084937125 -0.85160238 0.18421531
-0.062453464 -0.85047543 0.18003261
0.049282152 -0.84979743 0.1775161
0.071714088 -0.85092247 0.18169153
0.094210669 -0.8520506 0.18587887
0.11677218 -0.85318208 0.1900785
-0.15188411 -0.82817483 0.18023968
0.13862489 -0.82746613 0.17753208
0.16139479 -0.82957542 0.18559086
-0.1972798 -0.80832177 0.19009447
0.18356998 -0.80626011 0.1819787
-0.2194332 -0.78499681 0.18647122
0.2056891 -0.78299874 0.17835975
0.22907045 -0.78632474 0.19186139
0.25120783 -0.76300919 0.18821752
-0.2415316 -0.76172996 0.18285692
-0.26357517 -0.73852074 0.17925167
0.27328998 -0.73975194 0.18458295
0.29544005 -0.71682698 0.18218625
-0.30836049 -0.69399822 0.18006444
0.31870529 -0.69624323 0.19047987
-0.33166632 -0.67335439 0.18829775
0.34000975 -0.64941245 0.18068624
-0.35288623 -0.62664455 0.17856669
0.36339206 -0.62865013 0.18898749
-0.37630826 -0.60582358 0.18680751
0.38453555 -0.58207029 0.17920387
-0.39736828 -0.55936313 0.17708647
0.40803307 -0.56112611 0.18749642
-0.42183563 -0.53939092 0.19168448
0.43102509 -0.51691163 0.19145954
-0.44264829 -0.47058845 0.18108523
0.45182154 -0.44818372 0.18076611
-0.46658713 -0.42706305 0.19083309
0.47577572 -0.4046011 0.19062448
-0.48723111 -0.35868895 0.18023968
0.49640214 -0.33630455 0.17993701
-0.53369063 -0.2026304 0.18969333
0.54190081 -0.15760317 0.18421531
-0.55376101 -0.090389818 0.17743647
-0.4885605 0.49236733 0.18808949
-0.48762837 0.51368254 0.18258548
-0.4876067 0.53603065 0.18245769
-0.4875851 0.55837673 0.18233001
-0.48756349 0.58072078 0.18220222
-0.48824579 0.60402274 0.18623114
0.4967128 0.62536108 0.18177128
-0.50951707 0.64725375 0.17984128
0.16232382 -0.85661811 0.20283115
-0.15280709 -0.85514623 0.19736826
0.13939892 -0.85431683 0.19429016
-0.19847459 -0.83526772 0.20733976
-0.17507118 -0.83170474 0.19372678
0.18462908 -0.83313113 0.19917631
-0.22075744 -0.81177127 0.20367336
0.2068776 -0.80969852 0.19551408
-0.24298462 -0.78833365 0.20001638
0.25267038 -0.78968173 0.20548916
-0.26515633 -0.76495433 0.19636834
0.27488145 -0.76625329 0.20181143
-0.28727278 -0.74163336 0.19272947
0.29725832 -0.74339449 0.20035577
-0.3103036 -0.72037846 0.19809437
-0.33376196 -0.69968474 0.20644653
0.3421056 -0.6755448 0.19883692
-0.35510662 -0.65259635 0.19659412
0.36563849 -0.65472436 0.20722604
-0.37867877 -0.63171661 0.2049216
0.3869063 -0.60776573 0.19731987
-0.39986148 -0.58488107 0.19507933
0.41055995 -0.58676726 0.20573258
-0.44578955 -0.49593544 0.20148778
0.45499688 -0.47340214 0.20139086
-0.49068442 -0.38324302 0.20063066
0.4998903 -0.36071986 0.20053363
-0.51344991 -0.31582329 0.20205426
0.52178544 -0.27042741 0.19704556
-0.55963159 -0.11319438 0.20794082
-0.49194172 0.42849797 0.20805466
-0.49102968 0.45011503 0.20266938
-0.4900445 0.47156948 0.19685209
0.47783548 0.51784176 0.20336568
0.47780141 0.5403325 0.20315504
0.4777883 0.56284791 0.20307422
0.47776997 0.58535492 0.20296085
0.47798216 0.60818946 0.20427299
-0.48949885 0.62819093 0.19363046
-0.49134523 0.65333617 0.20453238
0.49888474 0.65088844 0.19459617
-0.51435125 0.67654335 0.20714474
0.52357066 0.67653912 0.20712876
-0.17613584 -0.85882312 0.21101511
-0.22209741 -0.83886409 0.22108018
0.20808023 -0.83671582 0.21287262
-0.24445488 -0.81525308 0.21737945
0.23040336 -0.81316918 0.2091763
0.25415033 -0.81667238 0.22296679
-0.26675627 -0.79170138 0.21368802
0.27649194 -0.79307044 0.21924508
-0.28900173 -0.76820868 0.21000588
0.29909784 -0.77029234 0.21873748
-0.312271 -0.74708819 0.2163496
0.32067469 -0.72275794 0.20875359
0.34422782 -0.70200598 0.2172159
-0.35735279 -0.67886901 0.2148304
-0.38108113 -0.65793723 0.22327888
0.38930899 -0.63378698 0.21567965
-0.40238801 -0.6107204 0.21331286
-0.42484167 -0.56531608 0.21223688
0.434064 -0.54271328 0.21223688
-0.44897768 -0.52164376 0.22219551
0.45821518 -0.49897873 0.22229397
-0.46990767 -0.45218921 0.21137357
0.47913262 -0.42959511 0.21138966
-0.49418932 -0.40814608 0.22132611
0.50343108 -0.38548583 0.22144103
-0.53937435 -0.22671737 0.22045732
0.54773504 -0.18120568 0.21579397
0.48068324 0.47602755 0.22098184
0.47925374 0.49699587 0.21213913
-0.47127283 0.52113479 0.21981835
-0.47085744 0.54326189 0.21724868
-0.47083363 0.56587154 0.21710145
-0.4708125 0.5884825 0.21697068
-0.47079134 0.61109161 0.21683991
-0.47195172 0.63544273 0.22401774
0.47918266 0.63250303 0.21169937
0.48042896 0.65700078 0.21940887
-0.49420878 0.68017489 0.22144103
0.50171506 0.67760092 0.21130836
-0.24594274 -0.84249425 0.23495018
0.23175219 -0.84033442 0.22669816
-0.26837528 -0.81876761 0.23121452
0.27812168 -0.82020885 0.23688781
-0.29075128 -0.79510087 0.2274884
0.30096233 -0.79753476 0.23736858
-0.31426492 -0.77413762 0.23485076
0.32266894 -0.74960726 0.22725773
-0.33588198 -0.72634161 0.22480667
0.34637499 -0.72879839 0.235811
-0.35962918 -0.70547551 0.23331261
0.36791524 -0.68113053 0.22571099
0.39174205 -0.66013741 0.23427165
-0.404944 -0.63688153 0.23175931
0.41311643 -0.61272854 0.22418213
-0.42789039 -0.59160948 0.2330811
0.43714416 -0.56888252 0.23329592
-0.4732753 -0.47767192 0.23220539
0.482535 -0.45494562 0.23243654
-0.51894337 -0.34121376 0.23308134
0.52741456 -0.29536074 0.22883916
-0.56562692 -0.13648351 0.2390933
0.48356283 0.43370396 0.2387948
0.48211873 0.45492953 0.2298615
-0.47417426 0.47912842 0.23776639
-0.47271779 0.50019395 0.22875679
0.46066114 0.54761261 0.23818111
0.46064836 0.57039714 0.23809791
0.46062791 0.59316927 0.23796546
0.46061006 0.61594331 0.23784924
-0.47317919 0.66000664 0.23161077
0.48317155 0.68396842 0.23637414
-0.29252174 -0.82231545 0.24518025
-0.31628227 -0.80152565 0.25356948
0.32468849 -0.77679759 0.24599719
-0.33802876 -0.75333482 0.24339831
0.34855139 -0.75593543 0.25465941
-0.36193234 -0.73241502 0.2520119
0.3702209 -0.70787191 0.24443054
-0.3835116 -0.68448514 0.24185109
0.3942039 -0.68681985 0.25308371
-0.40753466 -0.66337669 0.25045574
0.41591519 -0.63931054 0.24438047
-0.43098515 -0.61828178 0.25424004
0.44027126 -0.59543294 0.25467622
-0.45220876 -0.54771578 0.24318194
0.46148235 -0.52492607 0.24351466
-0.47669378 -0.50352132 0.25335181
0.48598924 -0.48066473 0.25380433
-0.49774137 -0.4334023 0.24230015
0.50702286 -0.41060841 0.24264944
-0.54517937 -0.2513184 0.25187802
0.55369741 -0.20532651 0.24806619
-0.47563967 0.45793396 0.24683106
0.46296847 0.50489169 0.25316751
0.46157974 0.52600431 0.24414742
-0.4537023 0.5506683 0.25288272
-0.45368168 0.57355505 0.25274873
-0.45365846 0.59643608 0.25259793
-0.45363784 0.61931866 0.25246406
0.46129018 0.63979751 0.24226677
-0.45366874 0.64227897 0.25266492
-0.45411012 0.66589904 0.25553179
0.46201858 0.66379702 0.24699795
-0.47518697 0.68591362 0.24403095
0.46316198 0.68855399 0.25442469
0.30285054 -0.8251242 0.25623679
0.32673207 -0.80433124 0.26495886
-0.34020469 -0.7806744 0.26224244
-0.36426482 -0.75969738 0.27094913
0.37255391 -0.7349512 0.26337242
-0.38597509 -0.71137345 0.26067567
-0.41015592 -0.69020563 0.26937318
0.41889769 -0.6664688 0.2659049
-0.45548615 -0.57416195 0.26446915
0.46479687 -0.5512498 0.26504338
-0.50134444 -0.45902056 0.26357472
-0.52455759 -0.36715025 0.26479018
0.5331766 -0.32084715 0.26138318
-0.47711405 0.43660957 0.2559514
0.465774 0.46228224 0.27139008
0.46436825 0.48365366 0.26225936
-0.45642897 0.50824523 0.27059317
-0.45501101 0.52945387 0.26138306
0.44267619 0.6005705 0.27111876
0.44215348 0.62280136 0.2675451
0.44176784 0.64520073 0.26490843
0.4421832 0.66890842 0.26774788
-0.45507324 0.69042444 0.26178753
-0.47934946 0.71550047 0.26977968
0.46553126 0.71550936 0.26981378
-0.34240651 -0.80835932 0.28131068
0.35075572 -0.78342032 0.27374923
0.37491903 -0.76238215 0.28257453
-0.38846785 -0.73860157 0.27972376
0.39669949 -0.71384746 0.2721535
-0.43412203 -0.64533538 0.27568722
0.44344142 -0.62236691 0.27635062
-0.45881358 -0.60099339 0.28608155
0.46815723 -0.5779556 0.28686953
-0.48015878 -0.52974057 0.27478588
0.48949105 -0.50675577 0.27546597
-0.50499952 -0.48500907 0.28515685
0.51248556 -0.4374181 0.27490497
-0.55111277 -0.27645141 0.2839936
0.55978894 -0.22998182 0.28103757
0.46718836 0.44077998 0.28057671
-0.45785573 0.48690534 0.27986026
0.44486469 0.53439736 0.28608155
0.44351608 0.55565208 0.27686119
0.4430908 0.57812554 0.27395332
-0.43540949 0.58039659 0.28448939
-0.43487713 0.60274291 0.28084981
-0.43434605 0.62503546 0.27721894
-0.43382123 0.64728218 0.2736305
-0.43423399 0.67105275 0.27645266
-0.43471992 0.69499373 0.27977479
0.44284242 0.69308364 0.2722553
-0.45683122 0.71639723 0.27320588
0.44451925 0.71914899 0.2837199
-0.36662927 -0.78733331 0.29014611
0.37731472 -0.79016799 0.3020252
-0.39099258 -0.76617926 0.29901636
0.39922726 -0.74122357 0.2914691
-0.41281313 -0.7173816 0.2885499
0.42192617 -0.69402736 0.28776097
-0.43730444 -0.67278147 0.29744518
0.44666058 -0.64969891 0.29836023
-0.48367405 -0.55634016 0.29653096
0.49304697 -0.53323191 0.29746246
-0.53029042 -0.39364719 0.29716921
0.53907013 -0.34690309 0.29466951
-0.46073323 0.44382387 0.29855025
-0.45929134 0.465433 0.28918469
0.44622156 0.51301134 0.29535878
-0.43804774 0.53768879 0.30252731
-0.43648061 0.55875975 0.29181302
0.42337328 0.5833528 0.29820478
0.42286909 0.60580504 0.29456627
-0.4145197 0.63049656 0.30086601
0.42236611 0.62820339 0.29093647
-0.41401464 0.65291178 0.29722095
0.42186913 0.65055597 0.28734934
-0.41407922 0.67628336 0.29768693
0.42206874 0.67409194 0.28878999
-0.41448852 0.70029444 0.30064118
0.42246616 0.69801259 0.29165816
-0.43641022 0.72114116 0.29133165
0.42388588 0.72390848 0.30190408
0.40178552 -0.76895082 0.31101787
-0.41563466 -0.74511766 0.30891275
0.42499918 -0.72199184 0.30993867
-0.46218678 -0.62821251 0.30799139
0.47156972 -0.60505724 0.30903423
-0.48724064 -0.58332825 0.31859362
-0.50928485 -0.51187414 0.31046081
0.51816249 -0.46489006 0.30842578
-0.55717242 -0.30213141 0.31679225
0.44896314 0.46984482 0.31410325
0.4475894 0.49149656 0.30471039
-0.43962604 0.51646769 0.31331813
0.42610633 0.54077142 0.31792879
0.4246138 0.56194896 0.3071574
-0.41696155 0.56430417 0.31848872
-0.41554314 0.58551842 0.30825198
-0.41503078 0.60803491 0.30455446
0.40274945 0.61112213 0.31838369
0.40226692 0.63369048 0.31469643
0.40179008 0.65621257 0.31105292
0.40166706 0.67934442 0.31011295
0.40205005 0.70344406 0.31303906
-0.41574073 0.72594297 0.30967796
-0.41871694 -0.77360183 0.33115709
0.42811537 -0.75036728 0.33242798
-0.44053587 -0.70063233 0.31953895
0.44992471 -0.6774314 0.3206774
-0.46560952 -0.65583074 0.33022225
0.47503006 -0.63255763 0.33151019
0.49665543 -0.56009918 0.31978405
-0.53614891 -0.42072451 0.33025753
0.54509342 -0.37354487 0.32868898
0.45034546 0.44805843 0.32355404
-0.44246754 0.4731456 0.33274591
-0.44106409 0.49490315 0.32315028
0.42760706 0.51943946 0.32875955
-0.41847262 0.54306608 0.32939374
0.40479082 0.56752449 0.33398294
0.40336636 0.5887183 0.32309747
-0.39486882 0.61341089 0.32863629
-0.39438072 0.63604844 0.32490647
-0.39389607 0.65863484 0.32120335
-0.39363706 0.68158877 0.31922376
0.38097674 0.68467623 0.33175719
-0.3940292 0.70577639 0.32222021
-0.3948181 0.73080361 0.32824874
0.40300146 0.72872579 0.32030952
-0.44381234 -0.72888964 0.3419404
0.4532401 -0.70558017 0.34334457
-0.49086264 -0.6107167 0.34099889
0.50031471 -0.58736336 0.3424201
-0.51493824 -0.54037255 0.34384263
0.5239768 -0.49299043 0.34275782
-0.4438799 0.45125049 0.34240234
0.42912099 0.49795818 0.33968508
