ply
format ascii 1.0
comment PCL generated
element vertex 1309
property float x
property float y
property float z
element camera 0
property float view_px
property float view_py
property float view_pz
property float x_axisx
property float x_axisy
property float x_axisz
property float y_axisx
property float y_axisy
property float y_axisz
property float z_axisx
property float z_axisy
property float z_axisz
property float focal
property float scalex
property float scaley
property float centerx
property float centery
property int viewportx
property int viewporty
property float k1
property float k2
end_header
-0.069745764 -0.50259 -0.052386403
-0.047333006 -0.50244445 -0.053331852
-0.024934586 -0.50229669 -0.05429101
-0.0025510509 -0.50215137 -0.055235267
0.019817945 -0.50200611 -0.056178808
0.042185839 -0.50212932 -0.055378199
0.064630926 -0.50290132 -0.050364375
0.087153614 -0.50367594 -0.045333147
-0.15986986 -0.48152998 -0.0432868
-0.13707158 -0.48061445 -0.049546242
-0.11461505 -0.48047587 -0.05049324
-0.0921731 -0.48033738 -0.05144012
-0.069745764 -0.4801991 -0.052386284
-0.047333006 -0.4800607 -0.053331852
-0.024934586 -0.47992045 -0.054291129
-0.0025510509 -0.47978237 -0.055235147
0.019817945 -0.47964427 -0.056179047
0.042185839 -0.47976139 -0.055378199
0.064630926 -0.4804948 -0.050364256
0.087153614 -0.48123074 -0.045333028
-0.15986986 -0.45906895 -0.043286681
-0.13707158 -0.45820168 -0.049546123
-0.11461505 -0.45807049 -0.05049336
-0.0921731 -0.45793924 -0.051440239
-0.069745764 -0.45780805 -0.052386284
-0.047333006 -0.45767707 -0.053331852
-0.024934586 -0.45754424 -0.05429101
-0.0025510509 -0.45741329 -0.055235267
0.019817945 -0.45728251 -0.056178808
0.042185839 -0.4573935 -0.055378318
0.064630926 -0.45808828 -0.050364375
0.087153614 -0.45878538 -0.045333028
-0.15986986 -0.43660796 -0.043286681
-0.13707158 -0.43578881 -0.049546242
-0.11461505 -0.43566498 -0.05049336
-0.0921731 -0.435541 -0.051440239
-0.069745764 -0.43541729 -0.052386284
-0.047333006 -0.4352935 -0.053331852
-0.024934586 -0.43516791 -0.05429101
-0.0025510509 -0.43504441 -0.055235147
0.019817945 -0.43492088 -0.056178927
0.042185839 -0.43502572 -0.055378199
0.064630926 -0.43568179 -0.050364137
0.087153614 -0.43634021 -0.045332909
-0.15986986 -0.41414711 -0.0432868
-0.13707158 -0.41337606 -0.049546123
-0.11461505 -0.41325945 -0.05049336
-0.0921731 -0.41314286 -0.051440001
-0.069745764 -0.41302624 -0.052386403
-0.047333006 -0.41290981 -0.053331733
-0.024934586 -0.41279167 -0.054291129
-0.0025510509 -0.41267535 -0.055235267
0.019817945 -0.41255918 -0.056178808
0.042185839 -0.41265777 -0.055378199
0.064630926 -0.41327524 -0.050364256
0.087153614 -0.41389495 -0.045333028
-0.15986986 -0.39168611 -0.043286681
-0.13707158 -0.39096332 -0.049546123
-0.11461505 -0.39085385 -0.050493479
-0.0921731 -0.3907446 -0.05144012
-0.069745764 -0.39063534 -0.052386284
-0.047333006 -0.39052618 -0.053331852
-0.024934586 -0.39041549 -0.05429101
-0.0025510509 -0.39030638 -0.055235147
0.019817945 -0.39019737 -0.056178927
0.042185839 -0.39028981 -0.055378199
0.064630926 -0.39086881 -0.050364137
0.087153614 -0.39144984 -0.045332909
-0.15986986 -0.36922511 -0.043286681
-0.13707158 -0.36855051 -0.049546003
-0.11461505 -0.36844838 -0.050493598
-0.0921731 -0.36834639 -0.051440239
-0.069745764 -0.36824444 -0.052386284
-0.047333006 -0.36814249 -0.053331852
-0.024934586 -0.36803916 -0.05429101
-0.0025510509 -0.36793733 -0.055235147
0.019817945 -0.36783567 -0.056178927
0.042185839 -0.36792189 -0.055378318
0.064630926 -0.36846235 -0.050364375
0.087153614 -0.36900452 -0.045332909
0.31170243 -0.36910862 -0.044367909
-0.15986986 -0.34676418 -0.043286681
-0.13707158 -0.34613767 -0.049546123
-0.11461505 -0.34604281 -0.050493598
-0.0921731 -0.34594816 -0.051440239
-0.069745764 -0.34585351 -0.052386284
-0.047333006 -0.34575883 -0.053331852
-0.024934586 -0.34566283 -0.05429101
-0.0025510509 -0.34556833 -0.055235386
0.019817945 -0.34547395 -0.056178808
0.042185839 -0.34555408 -0.055378199
0.064630926 -0.34605592 -0.050364256
0.087153614 -0.34655932 -0.045333028
0.31170243 -0.34665596 -0.04436779
-0.15986986 -0.32430315 -0.043286681
-0.13707158 -0.32372493 -0.049546123
-0.11461505 -0.32363734 -0.050493598
-0.0921731 -0.32354999 -0.051440001
-0.069745764 -0.32346252 -0.052386403
-0.047333006 -0.32337528 -0.053331852
-0.024934586 -0.32328659 -0.05429101
-0.0025510509 -0.32319942 -0.055235147
0.019817945 -0.32311216 -0.056178927
0.042185839 -0.32318619 -0.055378199
0.064630926 -0.32364935 -0.050364375
0.087153614 -0.32411414 -0.045332909
0.31170389 -0.3242045 -0.044353366
0.334093 -0.32415009 -0.044944048
0.3565329 -0.32414338 -0.04501617
0.37898058 -0.32414338 -0.04501617
-0.15986986 -0.30184209 -0.04328692
-0.13707158 -0.30131218 -0.049546003
-0.11461505 -0.30123195 -0.050493479
-0.0921731 -0.30115175 -0.05144012
0.064630926 -0.30124289 -0.050364137
0.087153614 -0.30166885 -0.045333028
-0.069745764 -0.30107167 -0.052386284
-0.047333006 -0.30099154 -0.053331852
-0.024934586 -0.30091038 -0.05429101
-0.0025510509 -0.30083036 -0.055235267
0.019817945 -0.30075052 -0.056178927
0.042185839 -0.30081832 -0.055378199
-0.15986986 -0.27938113 -0.0432868
-0.13707158 -0.27889928 -0.049546123
-0.11461505 -0.27882639 -0.050493479
-0.0921731 -0.27875355 -0.051440239
-0.069745764 -0.27868065 -0.052386403
-0.047333006 -0.27860788 -0.053331852
-0.024934586 -0.27853411 -0.05429101
-0.0025510509 -0.2784614 -0.055235267
0.019817945 -0.27838883 -0.056178808
0.042185839 -0.27845034 -0.055378318
0.064630926 -0.27883637 -0.050364256
0.087153614 -0.27922374 -0.045332909
-0.15986986 -0.25692013 -0.043286681
-0.13707158 -0.25648654 -0.049546242
-0.11461505 -0.25642091 -0.050493598
-0.0921731 -0.25635532 -0.051440239
-0.069745764 -0.25628978 -0.052386284
-0.047333006 -0.25622427 -0.053331852
-0.024934586 -0.25615779 -0.05429101
-0.0025510509 -0.25609234 -0.055235386
0.019817945 -0.25602698 -0.056178927
0.042185839 -0.25608253 -0.055378199
0.064630926 -0.25642991 -0.050364137
0.087153614 -0.25677848 -0.045332909
-0.15986986 -0.23445924 -0.04328692
-0.13707158 -0.2340738 -0.049546003
-0.11461505 -0.23401542 -0.050493598
-0.0921731 -0.23395716 -0.051440001
-0.069745764 -0.23389885 -0.052386284
-0.047333006 -0.23384069 -0.053331852
-0.024934586 -0.23378156 -0.05429101
-0.0025510509 -0.23372346 -0.055235267
0.019817945 -0.2336653 -0.056178927
0.042185839 -0.23371463 -0.055378199
0.064630926 -0.23402339 -0.050364256
0.087153614 -0.23433325 -0.045333028
-0.15986986 -0.2119983 -0.0432868
-0.13707158 -0.21166104 -0.049546003
-0.11461505 -0.21160989 -0.050493598
-0.0921731 -0.21155892 -0.05144012
-0.069745764 -0.21150798 -0.052386284
-0.047333006 -0.21145698 -0.053331852
-0.024934586 -0.21140534 -0.05429101
-0.0025510509 -0.21135439 -0.055235386
0.019817945 -0.21130359 -0.056178808
0.042185839 -0.21134666 -0.055378199
0.064630926 -0.21161693 -0.050364137
0.087153614 -0.21188799 -0.045332909
-0.15986986 -0.1895373 -0.043286681
-0.13707158 -0.18924819 -0.049546242
-0.11461505 -0.18920438 -0.050493479
-0.0921731 -0.1891607 -0.051440239
-0.069745764 -0.18911695 -0.052386403
-0.047333006 -0.18907332 -0.053331852
-0.024934586 -0.18902901 -0.05429101
-0.0025510509 -0.18898541 -0.055235147
0.019817945 -0.18894179 -0.056178927
0.042185839 -0.18897887 -0.055378318
0.064630926 -0.18921036 -0.050364256
0.087153614 -0.18944271 -0.045332909
-0.15986986 -0.16707629 -0.043286681
-0.13707158 -0.1668354 -0.049546123
-0.11461505 -0.16679884 -0.050493479
-0.0921731 -0.16676249 -0.051440239
-0.069745764 -0.16672614 -0.052386284
-0.047333006 -0.16668968 -0.053331852
-0.024934586 -0.16665274 -0.05429101
-0.0025510509 -0.16661635 -0.055235267
0.019817945 -0.16658007 -0.056178927
0.042185839 -0.166611 -0.055378199
0.064630926 -0.16680394 -0.050364256
0.087153614 -0.16699758 -0.045332909
-0.15986986 -0.14461535 -0.043286681
-0.13707158 -0.14442265 -0.049546003
-0.11461505 -0.14439334 -0.050493479
-0.0921731 -0.1443643 -0.05144012
-0.069745764 -0.14433514 -0.052386284
-0.047333006 -0.14430609 -0.053331733
-0.024934586 -0.14427651 -0.054291129
-0.0025510509 -0.14424747 -0.055235267
0.019817945 -0.14421842 -0.056178927
0.042185839 -0.14424306 -0.055378199
0.064630926 -0.14439738 -0.050364256
0.087153614 -0.14455228 -0.045332909
-0.15986986 -0.12215436 -0.043286681
-0.13707158 -0.12200978 -0.049546242
-0.11461505 -0.12198792 -0.050493479
-0.0921731 -0.12196605 -0.05144012
-0.069745764 -0.12194419 -0.052386284
-0.047333006 -0.12192233 -0.053331852
-0.024934586 -0.12190031 -0.05429101
-0.0025510509 -0.12187839 -0.055235267
0.019817945 -0.12185663 -0.056179047
0.042185839 -0.12187514 -0.055378199
0.064630926 -0.12199096 -0.050364137
0.087153614 -0.12210706 -0.045333028
-0.15986986 -0.099693343 -0.043286681
-0.13707158 -0.099597067 -0.049546123
-0.11461505 -0.099582389 -0.050493479
-0.0921731 -0.09956786 -0.051440239
-0.069745764 -0.099553287 -0.052386403
-0.047333006 -0.099538654 -0.053331852
-0.024934586 -0.099523924 -0.05429101
-0.0025510509 -0.099509448 -0.055235147
0.019817945 -0.099494927 -0.056178927
0.042185839 -0.099507198 -0.055378199
0.064630926 -0.099584386 -0.050364256
0.087153614 -0.099661887 -0.045332909
-0.15986986 -0.077232495 -0.043286681
-0.13707158 -0.077184252 -0.049546003
-0.11461505 -0.077176914 -0.050493479
-0.0921731 -0.077169627 -0.051440239
-0.069745764 -0.077162385 -0.052386284
-0.047333006 -0.07715515 -0.053331852
-0.024934586 -0.077147603 -0.05429101
-0.0025510509 -0.077140369 -0.055235267
0.019817945 -0.077133238 -0.056178808
0.042185839 -0.077139266 -0.055378318
0.064630926 -0.077178016 -0.050364137
0.087153614 -0.07721661 -0.045333028
-0.15986986 -0.054771487 -0.043286681
-0.0921731 -0.054771487 -0.05144012
-0.047333006 -0.054771487 -0.053331852
0.064630926 -0.054771487 -0.050364256
0.087153614 -0.054771487 -0.045332909
-0.13707158 -0.054771382 -0.049546242
-0.11461505 -0.054771435 -0.050493479
-0.069745764 -0.054771382 -0.052386284
-0.024934586 -0.054771382 -0.05429101
-0.0025510509 -0.054771382 -0.055235147
0.019817945 -0.054771435 -0.056178808
0.042185839 -0.054771435 -0.055378199
-0.15986986 -0.032310478 -0.043286681
-0.13707158 -0.032358669 -0.049546123
-0.11461505 -0.032365851 -0.050493479
-0.0921731 -0.032373194 -0.05144012
-0.069745764 -0.032380588 -0.052386284
-0.047333006 -0.032387666 -0.053331852
-0.024934586 -0.032395214 -0.05429101
-0.0025510509 -0.0324024 -0.055235267
0.019817945 -0.032409634 -0.056178927
0.042185839 -0.032403603 -0.055378199
0.064630926 -0.032365013 -0.050364137
0.087153614 -0.03232621 -0.045333028
-0.15986986 -0.009849526 -0.043286681
-0.13707158 -0.009945903 -0.049546123
-0.11461505 -0.0099603757 -0.05049336
-0.0921731 -0.0099750571 -0.051440239
-0.069745764 -0.0099895298 -0.052386403
-0.047333006 -0.010004103 -0.053331852
-0.024934586 -0.010018893 -0.05429101
-0.0025510509 -0.010033522 -0.055235147
0.019817945 -0.010047942 -0.056178808
0.042185839 -0.010035619 -0.055378318
0.064630926 -0.0099584348 -0.050364256
0.087153614 -0.0098809861 -0.045333028
-0.15986986 0.012611534 -0.0432868
-0.13707158 0.012466867 -0.049546003
-0.11461505 0.012445103 -0.05049336
-0.0921731 0.012423236 -0.051440239
-0.069745764 0.012401324 -0.052386284
-0.047333006 0.012379508 -0.053331852
-0.024934586 0.012357328 -0.05429101
-0.0025510509 0.012335565 -0.055235267
0.019817945 0.012313697 -0.056178808
0.042185839 0.012332264 -0.055378318
0.064630926 0.012447987 -0.050364137
0.087153614 0.012564186 -0.045332909
-0.15986986 0.035072539 -0.0432868
-0.13707158 0.034879733 -0.049546242
-0.11461505 0.034850579 -0.050493479
-0.0921731 0.034821372 -0.05144012
-0.069745764 0.034792271 -0.052386403
-0.047333006 0.034763116 -0.053331852
-0.024934586 0.034733649 -0.054291129
-0.0025510509 0.034704547 -0.055235147
0.019817945 0.034675498 -0.056179047
0.042185839 0.034700144 -0.055378199
0.064630926 0.034854513 -0.050364256
0.087153614 0.035009567 -0.045333028
-0.15986986 0.057533491 -0.0432868
-0.13707158 0.057292502 -0.049546123
-0.11461505 0.057256062 -0.050493479
-0.0921731 0.057219673 -0.05144012
-0.069745764 0.057183173 -0.052386284
-0.047333006 0.057146888 -0.053331852
-0.024934586 0.057109814 -0.05429101
-0.0025510509 0.05707353 -0.055235267
0.019817945 0.057037245 -0.056178927
0.042185839 0.057068076 -0.055378199
0.064630926 0.057261039 -0.050364375
0.087153614 0.057454687 -0.045332909
-0.15986986 0.079994395 -0.0432868
-0.13707158 0.079705268 -0.049546003
-0.11461505 0.079661533 -0.050493479
-0.0921731 0.079617798 -0.051440239
-0.069745764 0.079574183 -0.052386284
-0.047333006 0.079530492 -0.053331852
-0.024934586 0.079486132 -0.05429101
-0.0025510509 0.079442456 -0.055235147
0.019817945 0.079398945 -0.056178808
0.042185839 0.079435959 -0.055378199
0.064630926 0.079667509 -0.050364256
0.087153614 0.079899952 -0.045332909
-0.15986986 0.10245539 -0.0432868
-0.13707158 0.10211809 -0.049546242
-0.11461505 0.10206707 -0.05049336
-0.0921731 0.10201609 -0.051440239
-0.069745764 0.10196513 -0.052386284
-0.047333006 0.10191406 -0.053331852
-0.024934586 0.10186242 -0.05429101
-0.0025510509 0.10181154 -0.055235147
0.019817945 0.10176073 -0.056178927
0.042185839 0.10180384 -0.055378318
0.064630926 0.10207409 -0.050364375
0.087153614 0.10234508 -0.045332909
-0.15986986 0.12491636 -0.043286681
-0.13707158 0.1245309 -0.049546123
-0.11461505 0.12447259 -0.05049336
-0.0921731 0.12441418 -0.05144012
-0.069745764 0.12435597 -0.052386403
-0.047333006 0.12429772 -0.053331733
-0.024934586 0.12423873 -0.05429101
-0.0025510509 0.12418053 -0.055235147
0.019817945 0.12412243 -0.056178808
0.042185839 0.12417163 -0.055378199
0.064630926 0.12448052 -0.050364256
0.087153614 0.12479036 -0.045332909
-0.15986986 0.14737736 -0.043286681
-0.13707158 0.14694361 -0.049546123
-0.11461505 0.14687806 -0.050493479
-0.0921731 0.14681247 -0.05144012
-0.069745764 0.14674693 -0.052386284
-0.047333006 0.1466815 -0.053331852
-0.024934586 0.14661497 -0.05429101
-0.0025510509 0.14654951 -0.055235267
0.019817945 0.14648408 -0.056178808
0.042185839 0.1465396 -0.055378199
0.064630926 0.14688709 -0.050364375
0.087153614 0.14723565 -0.045333028
-0.15986986 0.16983837 -0.043286681
-0.13707158 0.16935648 -0.049546242
-0.11461505 0.1692836 -0.05049336
-0.0921731 0.16921066 -0.051440239
-0.069745764 0.16913788 -0.052386284
-0.047333006 0.16906506 -0.053331852
-0.024934586 0.16899128 -0.05429101
-0.0025510509 0.16891845 -0.055235147
0.019817945 0.16884588 -0.056179047
0.042185839 0.16890754 -0.055378199
0.064630926 0.16929351 -0.050364137
0.087153614 0.16968074 -0.045332909
-0.069745764 0.19152874 -0.052386284
-0.047333006 0.19144872 -0.053331852
-0.024934586 0.19136745 -0.05429101
-0.0025510509 0.19128753 -0.055235147
0.019817945 0.19120762 -0.056178927
0.042185839 0.19127542 -0.055378318
-0.15986986 0.19229926 -0.043286681
-0.13707158 0.19176926 -0.049546242
-0.11461505 0.19168903 -0.050493479
-0.0921731 0.19160891 -0.051440239
0.064630926 0.19170004 -0.050364375
0.087153614 0.19212602 -0.045333028
-0.15986986 0.21476023 -0.043286681
-0.13707158 0.21418212 -0.049546003
-0.11461505 0.2140945 -0.05049336
-0.0921731 0.21400703 -0.05144012
-0.069745764 0.21391977 -0.052386403
-0.047333006 0.21383224 -0.053331852
-0.024934586 0.21374367 -0.05429101
-0.0025510509 0.21365647 -0.055235147
0.019817945 0.21356933 -0.056178808
0.042185839 0.2136433 -0.055378199
0.064630926 0.21410652 -0.050364137
0.087153614 0.21457125 -0.045332909
-0.15986986 0.23722126 -0.043286681
-0.13707158 0.23659487 -0.049546003
-0.11461505 0.23650013 -0.05049336
-0.0921731 0.23640521 -0.05144012
-0.069745764 0.23631065 -0.052386284
-0.047333006 0.23621602 -0.053331852
-0.024934586 0.23611994 -0.05429101
-0.0025510509 0.23602544 -0.055235267
0.019817945 0.23593102 -0.056178808
0.042185839 0.23601122 -0.055378199
0.064630926 0.23651306 -0.050364375
0.087153614 0.23701648 -0.045332909
-0.15986986 0.25968215 -0.043286681
-0.13707158 0.25900772 -0.049546123
-0.11461505 0.25890553 -0.05049336
-0.0921731 0.25880349 -0.05144012
-0.069745764 0.25870159 -0.052386403
-0.047333006 0.25859973 -0.053331852
-0.024934586 0.25849628 -0.05429101
-0.0025510509 0.25839463 -0.055235267
0.019817945 0.25829285 -0.056178927
0.042185839 0.25837916 -0.055378199
0.064630926 0.25891942 -0.050364256
0.087153614 0.25946179 -0.045333028
-0.15986986 0.28214327 -0.043286562
-0.13707158 0.2814205 -0.049546123
-0.11461505 0.28131098 -0.050493479
-0.0921731 0.28120175 -0.051440239
-0.069745764 0.28109241 -0.052386284
-0.047333006 0.28098336 -0.053331852
-0.024934586 0.28087255 -0.05429101
-0.0025510509 0.28076351 -0.055235147
0.019817945 0.28065461 -0.056178808
0.042185839 0.28074712 -0.055378199
0.064630926 0.28132609 -0.050364375
0.087153614 0.28190687 -0.045332909
-0.15986986 0.30460423 -0.0432868
-0.13707158 0.30383322 -0.049546003
-0.11461505 0.3037166 -0.05049336
-0.0921731 0.30359992 -0.05144012
-0.069745764 0.30348352 -0.052386284
-0.047333006 0.30336681 -0.053331852
-0.024934586 0.30324879 -0.05429101
-0.0025510509 0.30313247 -0.055235386
0.019817945 0.30301628 -0.056178808
0.042185839 0.30311492 -0.055378199
0.064630926 0.30373242 -0.050364256
0.087153614 0.30435219 -0.045332909
-0.15986986 0.32706511 -0.04328692
-0.13707158 0.32624611 -0.049546242
-0.11461505 0.32612196 -0.05049336
-0.0921731 0.32599819 -0.05144012
-0.069745764 0.32587433 -0.052386284
-0.047333006 0.32575062 -0.053331852
-0.024934586 0.32562509 -0.05429101
-0.0025510509 0.32550153 -0.055235147
0.019817945 0.32537809 -0.056178808
0.042185839 0.3254827 -0.055378199
0.064630926 0.32613909 -0.050364375
0.087153614 0.32679728 -0.045332909
0.31170389 0.32692567 -0.044353366
0.3332369 0.3258087 -0.052887797
0.35562396 0.3258087 -0.052887797
0.37801281 0.32581052 -0.052873492
0.40041122 0.32582197 -0.052787542
0.42280897 0.32583126 -0.052716017
-0.15986986 0.34952623 -0.043286681
-0.13707158 0.34865889 -0.049546123
-0.11461505 0.34852758 -0.05049336
-0.0921731 0.34839645 -0.05144012
-0.069745764 0.34826517 -0.052386284
-0.047333006 0.34813428 -0.053331852
-0.024934586 0.34800142 -0.05429101
-0.0025510509 0.3478705 -0.055235386
0.019817945 0.34773985 -0.056178808
0.042185839 0.34785059 -0.055378199
0.064630926 0.34854543 -0.050364137
0.087153614 0.34924266 -0.045332909
0.31170532 0.34938037 -0.044338942
-0.15986986 0.3719871 -0.0432868
-0.13707158 0.37107161 -0.049546003
-0.11461505 0.37093303 -0.05049336
-0.0921731 0.37079471 -0.05144012
-0.069745764 0.37065625 -0.052386284
-0.047333006 0.37051791 -0.053331852
-0.024934586 0.37037772 -0.05429101
-0.0025510509 0.37023953 -0.055235147
0.019817945 0.37010133 -0.056178808
0.042185839 0.37021858 -0.055378318
0.064630926 0.37095207 -0.050364256
0.087153614 0.3716878 -0.045333147
0.31170678 0.37183529 -0.044324636
-0.15986986 0.39444813 -0.043286681
-0.13707158 0.39348441 -0.049546003
-0.11461505 0.39333859 -0.05049336
-0.0921731 0.39319268 -0.05144012
-0.069745764 0.39304706 -0.052386284
-0.047333006 0.39290157 -0.053331733
-0.024934586 0.39275378 -0.05429101
-0.0025510509 0.39260855 -0.055235267
0.019817945 0.39246321 -0.056179047
0.042185839 0.39258638 -0.055378199
0.064630926 0.39335847 -0.050364137
0.087153614 0.39413306 -0.045332909
0.31170821 0.39429051 -0.044310212
-0.15986986 0.41690904 -0.043286681
-0.13707158 0.41589725 -0.049546123
-0.11461505 0.41574404 -0.05049336
-0.0921731 0.41559091 -0.05144012
-0.069745764 0.41543797 -0.052386284
-0.047333006 0.41528532 -0.053331852
-0.024934586 0.41513011 -0.05429101
-0.0025510509 0.41497737 -0.055235147
0.019817945 0.4148249 -0.056178927
0.042185839 0.4149543 -0.055378199
0.064630926 0.4157649 -0.050364375
0.087153614 0.41657838 -0.045332909
-0.069745764 0.43782902 -0.052386045
-0.047333006 0.43766883 -0.053331852
-0.024934586 0.43750638 -0.05429101
-0.0025510509 0.43734658 -0.055235267
0.019817945 0.4371866 -0.056178808
0.042185839 0.43732229 -0.055378199
-0.15986986 0.4393701 -0.043286681
-0.13707158 0.43831 -0.049546003
-0.11461505 0.43814945 -0.05049336
-0.0921731 0.43798921 -0.05144012
0.064630926 0.43817142 -0.050364256
0.087153614 0.43902344 -0.045332909
-0.15986986 0.46183097 -0.043286681
-0.13707158 0.4607228 -0.049546003
-0.11461505 0.46055496 -0.05049336
-0.0921731 0.46038741 -0.05144012
-0.069745764 0.46021992 -0.052386284
-0.047333006 0.46005243 -0.053331852
-0.024934586 0.45988268 -0.05429101
-0.0025510509 0.45971543 -0.055235147
0.019817945 0.45954841 -0.056179047
0.042185839 0.45969021 -0.055378199
0.064630926 0.46057785 -0.050364375
0.087153614 0.46146882 -0.045332909
-0.15986986 0.48429191 -0.043286681
-0.13707158 0.48313558 -0.049546123
-0.11461505 0.48296046 -0.05049336
-0.0921731 0.48278552 -0.05144012
-0.069745764 0.4826107 -0.052386284
-0.047333006 0.48243612 -0.053331852
-0.024934586 0.48225892 -0.05429101
-0.0025510509 0.48208457 -0.055235147
0.019817945 0.48191011 -0.056178927
0.042185839 0.48205811 -0.055378199
0.064630926 0.48298442 -0.050364137
0.087153614 0.48391384 -0.045332909
-0.15986986 0.50675297 -0.043286681
-0.13707158 0.50554842 -0.049546003
-0.11461505 0.50536609 -0.05049336
-0.0921731 0.50518382 -0.05144012
-0.069745764 0.50500178 -0.052386284
-0.047333006 0.50481993 -0.053331852
-0.024934586 0.50463521 -0.05429101
-0.0025510509 0.50445354 -0.055235147
0.019817945 0.50427181 -0.056178808
0.042185839 0.504426 -0.055378199
0.064630926 0.50539088 -0.050364375
0.087153614 0.50635922 -0.045332909
-0.15986986 0.52921385 -0.043286681
-0.13707158 0.52796119 -0.049546003
-0.11461505 0.52777153 -0.05049336
-0.0921731 0.52758211 -0.05144012
-0.069745764 0.52739263 -0.052386165
-0.047333006 0.52720356 -0.053331852
-0.024934586 0.52701151 -0.05429101
-0.0025510509 0.52682245 -0.055235267
0.019817945 0.52663362 -0.056179047
0.042185839 0.5267939 -0.055378199
0.064630926 0.5277974 -0.050364137
0.087153614 0.52880442 -0.045333028
-0.15986986 0.55167496 -0.043286562
-0.13707158 0.55037397 -0.049546123
-0.11461505 0.5501771 -0.05049336
-0.0921731 0.54998016 -0.051440239
-0.069745764 0.54978353 -0.052386284
-0.047333006 0.54958701 -0.053331852
-0.024934586 0.54938787 -0.05429101
-0.0025510509 0.54919147 -0.055235147
0.019817945 0.54899532 -0.056178808
0.042185839 0.54916179 -0.055378199
0.064630926 0.55020386 -0.050364375
0.087153614 0.55124962 -0.045332909
-0.15986986 0.57413584 -0.043286681
-0.13707158 0.57278675 -0.049546123
-0.11461505 0.57258248 -0.05049336
-0.0921731 0.57237828 -0.05144012
-0.069745764 0.57217461 -0.052386165
-0.047333006 0.5719707 -0.053331852
-0.024934586 0.57176387 -0.05429101
-0.0025510509 0.5715605 -0.055235147
0.019817945 0.57135713 -0.056178808
0.042185839 0.57152981 -0.055378199
0.064630926 0.5726105 -0.050364137
0.087153614 0.57369477 -0.045333028
-0.13707158 0.59519958 -0.049546003
-0.11461505 0.59498787 -0.05049336
-0.0921731 0.59477657 -0.05144012
-0.069745764 0.59456545 -0.052386284
-0.047333006 0.59435445 -0.053331852
-0.024934586 0.59414023 -0.05429101
-0.0025510509 0.59392929 -0.055235147
0.019817945 0.59371883 -0.056178808
0.042185839 0.59389764 -0.055378199
0.064630926 0.5950169 -0.050364375
0.087153614 0.59614009 -0.045332909
-0.15986986 0.59659696 -0.043286681
-0.15986986 0.61905795 -0.0432868
-0.13707158 0.6176123 -0.049546003
-0.11461505 0.61739343 -0.05049336
-0.0921731 0.61717486 -0.05144012
-0.069745764 0.61695623 -0.052386284
-0.047333006 0.61673808 -0.053331852
-0.024934586 0.61651653 -0.05429101
-0.0025510509 0.6162985 -0.055235147
0.019817945 0.61608064 -0.056178808
0.042185839 0.61626542 -0.055378199
0.064630926 0.61742342 -0.050364137
0.087153614 0.61858517 -0.045333028
-0.2059029 -0.61907357 -0.028853059
0.1324334 -0.61784858 -0.03521812
0.15519129 -0.61882704 -0.030134082
0.17802843 -0.61980885 -0.02503252
-0.18282959 -0.61768126 -0.036087871
0.10975431 -0.61687356 -0.040284276
-0.2059029 -0.59650147 -0.028853178
-0.18282959 -0.59516484 -0.036087751
0.10975431 -0.5943895 -0.040284276
0.1324334 -0.59532559 -0.035218
0.15519129 -0.59626484 -0.030134082
0.17802843 -0.59720731 -0.025032401
-0.2059029 -0.57392949 -0.028853178
-0.18282959 -0.57264847 -0.036087871
0.10975431 -0.57190549 -0.040284276
0.1324334 -0.57280248 -0.035218
0.15519129 -0.57370257 -0.030134082
0.17802843 -0.57460582 -0.02503264
-0.2059029 -0.55135733 -0.028853297
-0.18282959 -0.55013198 -0.036087871
0.10975431 -0.54942137 -0.040284276
0.1324334 -0.55027938 -0.035218
0.15519129 -0.55114043 -0.030134082
0.17802843 -0.55200434 -0.02503252
-0.2059029 -0.52878529 -0.028853059
-0.18282959 -0.52761573 -0.036087632
0.10975431 -0.52693737 -0.040284276
0.1324334 -0.52775627 -0.035218
0.15519129 -0.52857822 -0.030134201
0.17802843 -0.52940285 -0.02503252
-0.2059029 -0.50621313 -0.028853178
-0.18282959 -0.50509936 -0.036087751
0.10975431 -0.50445324 -0.040284276
0.1324334 -0.50523329 -0.035218
0.15519129 -0.5060159 -0.030134082
0.17802843 -0.50680149 -0.02503252
-0.2059029 -0.48364097 -0.028853297
-0.18282959 -0.48258293 -0.036087513
0.10975431 -0.48196906 -0.040284276
0.1324334 -0.48271012 -0.035218
0.15519129 -0.4834536 -0.030134201
0.17802843 -0.48419982 -0.02503264
-0.2059029 -0.46106899 -0.028853059
-0.18282959 -0.46006656 -0.036087632
0.10975431 -0.45948505 -0.040284276
0.1324334 -0.46018702 -0.035218
0.15519129 -0.46089154 -0.030134082
0.17802843 -0.46159834 -0.02503264
-0.2059029 -0.43849689 -0.028853178
-0.18282959 -0.43755025 -0.036087632
0.10975431 -0.43700096 -0.040284395
0.1324334 -0.43766394 -0.03521812
0.15519129 -0.43832931 -0.030134082
0.17802843 -0.43899688 -0.02503252
-0.2059029 -0.41592482 -0.028853059
-0.18282959 -0.41503379 -0.036087632
0.10975431 -0.41451681 -0.040284276
0.1324334 -0.4151409 -0.035218
0.15519129 -0.41576704 -0.030134082
0.17802843 -0.41639537 -0.025032759
-0.2059029 -0.39335275 -0.028853178
-0.18282959 -0.39251742 -0.036087632
0.10975431 -0.39203277 -0.040284276
0.1324334 -0.39261779 -0.035218
0.15519129 -0.39320481 -0.030134082
0.17802843 -0.39379388 -0.02503264
-0.2059029 -0.37078071 -0.028853059
-0.18282959 -0.37000096 -0.036087632
0.10975431 -0.36954871 -0.040284395
0.1324334 -0.37009472 -0.035218
0.15519129 -0.37064257 -0.030134082
0.17802843 -0.3711924 -0.02503252
-0.2059029 -0.34820849 -0.028853059
-0.18282959 -0.34748462 -0.036087632
0.10975431 -0.34706458 -0.040284276
0.1324334 -0.34757158 -0.035218
0.15519129 -0.34808031 -0.030134082
0.17802843 -0.34859085 -0.025032759
-0.2059029 -0.32563639 -0.028853178
-0.18282959 -0.32496825 -0.036087751
0.10975431 -0.32458049 -0.040284276
0.1324334 -0.32504857 -0.035218
0.15519129 -0.32551807 -0.030134201
0.17802843 -0.32598937 -0.02503264
-0.2059029 -0.30306441 -0.028853059
-0.18282959 -0.30245179 -0.036087751
0.10975431 -0.30209643 -0.040284395
0.1324334 -0.30252543 -0.035217881
0.15519129 -0.30295596 -0.030133963
0.17802843 -0.30338788 -0.02503252
-0.2059029 -0.28049225 -0.028853178
-0.18282959 -0.27993542 -0.036087632
0.10975431 -0.27961233 -0.040284276
0.1324334 -0.28000236 -0.035218
0.15519129 -0.28039372 -0.030134082
0.17802843 -0.28078648 -0.02503252
-0.2059029 -0.25792024 -0.028853178
-0.18282959 -0.25741896 -0.036087632
0.10975431 -0.25712824 -0.040284276
0.1324334 -0.25747916 -0.035218
0.15519129 -0.25783145 -0.030134082
0.17802843 -0.25818485 -0.02503264
-0.2059029 -0.23534814 -0.028853178
-0.18282959 -0.23490262 -0.036087751
0.10975431 -0.23464409 -0.040284157
0.1324334 -0.23495609 -0.035218
0.15519129 -0.23526928 -0.030134082
0.17802843 -0.23558338 -0.02503252
-0.2059029 -0.21277615 -0.028853059
-0.18282959 -0.21238627 -0.036087751
0.10975431 -0.21216007 -0.040284276
0.1324334 -0.21243311 -0.035218
0.15519129 -0.21270704 -0.030134082
0.17802843 -0.21298195 -0.02503252
-0.2059029 -0.19020401 -0.028853178
-0.18282959 -0.18986981 -0.036087632
0.10975431 -0.18967599 -0.040284276
0.1324334 -0.18990998 -0.035218
0.15519129 -0.1901447 -0.030134082
0.17802843 -0.19038038 -0.02503264
-0.2059029 -0.1676318 -0.028853178
-0.18282959 -0.16735344 -0.036087632
0.10975431 -0.16719185 -0.040284276
0.1324334 -0.16738689 -0.035218
0.15519129 -0.16758247 -0.030134082
0.17802843 -0.16777889 -0.02503252
-0.2059029 -0.14505975 -0.028853059
-0.18282959 -0.14483705 -0.036087751
0.10975431 -0.1447078 -0.040284276
0.1324334 -0.1448638 -0.035218
0.15519129 -0.14502043 -0.030134082
0.17802843 -0.14517751 -0.02503252
-0.2059029 -0.12248763 -0.028853178
-0.18282959 -0.12232062 -0.036087632
0.10975431 -0.12222372 -0.040284276
0.1324334 -0.12234075 -0.035218
0.15519129 -0.12245816 -0.030134082
0.17802843 -0.12257592 -0.02503264
-0.2059029 -0.099915668 -0.028853059
-0.18282959 -0.099804245 -0.036087751
0.10975431 -0.099739596 -0.040284276
0.1324334 -0.099817619 -0.035218
0.15519129 -0.099895902 -0.030134082
0.17802843 -0.099974394 -0.02503264
-0.2059029 -0.077343501 -0.028853178
-0.18282959 -0.077287816 -0.036087632
0.10975431 -0.077255517 -0.040284276
0.1324334 -0.077294573 -0.035218
0.15519129 -0.077333696 -0.030134082
0.17802843 -0.077372916 -0.02503252
0.17802843 -0.054771487 -0.02503252
-0.2059029 -0.054771382 -0.028853178
-0.18282959 -0.054771435 -0.036087751
0.10975431 -0.054771435 -0.040284276
0.1324334 -0.054771382 -0.035218
0.15519129 -0.054771435 -0.030134082
-0.2059029 -0.03219942 -0.028853059
-0.18282959 -0.032255054 -0.036087751
0.10975431 -0.032287303 -0.040284276
0.1324334 -0.032248396 -0.035218
0.15519129 -0.032209225 -0.030134082
0.17802843 -0.032169901 -0.02503264
-0.2059029 -0.0096272528 -0.028853178
-0.18282959 -0.0097386241 -0.036087751
0.10975431 -0.0098032244 -0.040284276
0.1324334 -0.009725254 -0.035218
0.15519129 -0.0096469149 -0.030134082
0.17802843 -0.0095684193 -0.02503252
-0.2059029 0.012944814 -0.028853059
-0.18282959 0.012777749 -0.036087751
0.10975431 0.012680802 -0.040284276
0.1324334 0.012797836 -0.035218
0.15519129 0.012915287 -0.030134082
0.17802843 0.013033006 -0.02503252
-0.2059029 0.035516929 -0.028853178
-0.18282959 0.035294186 -0.036087751
0.10975431 0.035164934 -0.040284276
0.1324334 0.035320979 -0.035218
0.15519129 0.035477448 -0.030134082
0.17802843 0.035634596 -0.02503264
-0.2059029 0.05808894 -0.02885294
-0.18282959 0.057810564 -0.036087632
0.10975431 0.057649013 -0.040284276
0.1324334 0.057844069 -0.035218
0.15519129 0.058039654 -0.030134082
0.17802843 0.058236126 -0.02503252
-0.2059029 0.080661103 -0.028853059
-0.18282959 0.08032693 -0.036087751
0.10975431 0.080133036 -0.040284276
0.1324334 0.080367044 -0.035218
0.15519129 0.080601856 -0.030134082
0.17802843 0.080837443 -0.02503252
-0.2059029 0.10323317 -0.028853178
-0.18282959 0.10284337 -0.036087632
0.10975431 0.10261722 -0.040284157
0.1324334 0.10289019 -0.035218
0.15519129 0.10316411 -0.030134082
0.17802843 0.10343908 -0.02503264
-0.2059029 0.12580518 -0.028853059
-0.18282959 0.1253597 -0.036087751
0.10975431 0.1251013 -0.040284276
0.1324334 0.12541327 -0.035218
0.15519129 0.12572631 -0.030134082
0.17802843 0.12604056 -0.02503252
-0.2059029 0.14837736 -0.028853178
-0.18282959 0.14787602 -0.036087751
0.10975431 0.14758532 -0.040284276
0.1324334 0.14793636 -0.035218
0.15519129 0.1482887 -0.030134082
0.17802843 0.14864193 -0.02503252
-0.2059029 0.17094941 -0.028853059
-0.18282959 0.1703925 -0.036087751
0.10975431 0.17006946 -0.040284157
0.1324334 0.1704594 -0.035218
0.15519129 0.17085084 -0.030134082
0.17802843 0.17124347 -0.02503252
-0.2059029 0.19352153 -0.028853178
-0.18282959 0.19290888 -0.036087751
0.10975431 0.19255348 -0.040284276
0.1324334 0.19298255 -0.035218
0.15519129 0.19341299 -0.030134082
0.17802843 0.19384506 -0.02503264
-0.2059029 0.21609358 -0.02885294
-0.18282959 0.21542521 -0.036087751
0.10975431 0.21503754 -0.040284276
0.1324334 0.21550559 -0.035218
0.15519129 0.21597524 -0.030134082
0.17802843 0.21644653 -0.02503252
-0.2059029 0.23866566 -0.028853059
-0.18282959 0.23794158 -0.036087751
0.10975431 0.2375216 -0.040284276
0.1324334 0.23802884 -0.035218
0.15519129 0.23853745 -0.030134082
0.17802843 0.23904796 -0.02503252
-0.2059029 0.26123783 -0.028853178
-0.18282959 0.26045814 -0.036087751
0.10975431 0.26000592 -0.040284157
0.1324334 0.26055181 -0.035217881
0.15519129 0.2610997 -0.030134082
0.17802843 0.26164952 -0.02503264
-0.2059029 0.28380984 -0.028853059
-0.18282959 0.28297451 -0.036087751
0.10975431 0.28248996 -0.040284276
0.1324334 0.28307483 -0.035218
0.15519129 0.2836619 -0.030134082
0.17802843 0.28425106 -0.02503252
-0.2059029 0.30638191 -0.028853178
-0.18282959 0.30549088 -0.036087751
0.10975431 0.30497402 -0.040284276
0.1324334 0.30559805 -0.035218
0.15519129 0.30622414 -0.030134201
0.17802843 0.30685246 -0.02503252
-0.2059029 0.32895395 -0.028853059
-0.18282959 0.32800722 -0.036087751
0.10975431 0.32745805 -0.040284157
0.1324334 0.32812113 -0.035218
0.15519129 0.3287864 -0.030134201
0.17802843 0.32945397 -0.025032759
-0.2059029 0.35152608 -0.028853178
-0.18282959 0.35052359 -0.036087751
0.10975431 0.34994215 -0.040284276
0.1324334 0.35064408 -0.035218
0.15519129 0.35134849 -0.030134082
0.17802843 0.35205558 -0.02503252
-0.2059029 0.37409821 -0.028853178
-0.18282959 0.37304014 -0.036087751
0.10975431 0.37242618 -0.040284276
0.1324334 0.37316734 -0.035218
0.15519129 0.37391075 -0.030134082
0.17802843 0.37465701 -0.02503252
-0.2059029 0.39667019 -0.028853178
-0.18282959 0.39555651 -0.036087751
0.10975431 0.3949104 -0.040284157
0.1324334 0.39569038 -0.035218
0.15519129 0.39647314 -0.030134082
0.17802843 0.39725861 -0.025032401
-0.2059029 0.41924229 -0.028853178
-0.18282959 0.41807288 -0.036087751
0.10975431 0.41739449 -0.040284157
0.1324334 0.41821343 -0.035218
0.15519129 0.41903535 -0.030134082
0.17802843 0.41986004 -0.02503252
-0.2059029 0.44181451 -0.02885294
-0.18282959 0.44058922 -0.036087751
0.10975431 0.43987849 -0.040284157
0.1324334 0.44073662 -0.035218
0.15519129 0.44159761 -0.030134082
0.17802843 0.44246146 -0.02503252
-0.2059029 0.46438664 -0.028853059
-0.18282959 0.46310562 -0.036087751
0.10975431 0.46236259 -0.040284276
0.1324334 0.46325958 -0.035218
0.15519129 0.46415979 -0.030134082
0.17802843 0.46506298 -0.025032401
-0.2059029 0.48695862 -0.02885294
-0.18282959 0.48562217 -0.036087751
0.10975431 0.48484665 -0.040284276
0.1324334 0.48578262 -0.035218
0.15519129 0.48672205 -0.030134082
0.17802843 0.48766452 -0.02503252
-0.18282959 0.50813848 -0.036087751
0.10975431 0.50733072 -0.040284276
-0.2059029 0.50953078 -0.028853059
0.1324334 0.50830585 -0.035218
0.15519129 0.50928414 -0.030134082
0.17802843 0.51026595 -0.02503252
-0.2059029 0.53210288 -0.028853178
-0.18282959 0.53065485 -0.036087751
0.10975431 0.52981496 -0.040284157
0.1324334 0.53082889 -0.035218
0.15519129 0.53184634 -0.030134082
0.17802843 0.53286761 -0.02503252
-0.2059029 0.55467492 -0.028853059
-0.18282959 0.55317116 -0.036087751
0.10975431 0.55229908 -0.040284157
0.1324334 0.55335188 -0.035218
0.15519129 0.55440861 -0.030134082
0.17802843 0.55546898 -0.02503252
-0.2059029 0.57724702 -0.028853178
-0.18282959 0.57568759 -0.036087751
0.10975431 0.57478309 -0.040284157
0.1324334 0.57587516 -0.035218
0.15519129 0.57697088 -0.030134082
0.17802843 0.57807046 -0.02503264
-0.2059029 0.59981912 -0.02885294
-0.18282959 0.59820414 -0.036087751
0.10975431 0.59726709 -0.040284157
0.1324334 0.59839815 -0.035218
0.15519129 0.59953302 -0.030134082
0.17802843 0.60067207 -0.02503252
-0.2059029 0.62239116 -0.028853059
-0.18282959 0.62072045 -0.036087751
0.10975431 0.61975121 -0.040284276
0.1324334 0.62092119 -0.035218
0.15519129 0.62209523 -0.030134082
0.17802843 0.62327343 -0.02503252
-0.27581134 -0.62328923 -0.0069476366
-0.25239232 -0.62187612 -0.014290571
-0.22909065 -0.62047267 -0.021582723
0.20094429 -0.62079126 -0.019927859
0.22430021 -0.62277776 -0.0096060038
-0.27581134 -0.60054857 -0.0069476366
-0.25239232 -0.59919196 -0.01429069
-0.22909065 -0.5978446 -0.021582723
0.20094429 -0.59815049 -0.019927859
0.22430021 -0.60005748 -0.0096060038
-0.27581134 -0.57780778 -0.0069476366
-0.25239232 -0.57650781 -0.014290571
-0.22909065 -0.57521671 -0.021582484
0.20094429 -0.57550961 -0.019927859
0.22430021 -0.57733721 -0.0096060038
-0.27581134 -0.55506706 -0.0069476366
-0.25239232 -0.55382359 -0.01429069
-0.22909065 -0.55258864 -0.021582484
0.20094429 -0.5528689 -0.019927979
0.22430021 -0.55461699 -0.0096060038
-0.27581134 -0.5323264 -0.0069476366
-0.25239232 -0.53113937 -0.014290571
-0.22909065 -0.52996063 -0.021582603
0.20094429 -0.53022808 -0.01992774
0.22430021 -0.53189671 -0.0096060038
-0.27581134 -0.50958568 -0.0069476366
-0.25239232 -0.50845522 -0.01429069
-0.22909065 -0.50733256 -0.021582723
0.20094429 -0.50758731 -0.019927859
0.22430021 -0.50917649 -0.0096058846
-0.27581134 -0.48684508 -0.0069476366
-0.25239232 -0.48577103 -0.014290452
-0.22909065 -0.48470449 -0.021582723
0.20094429 -0.48494646 -0.019927859
0.22430021 -0.48645619 -0.0096058846
-0.27581134 -0.46410426 -0.0069476366
-0.25239232 -0.46308678 -0.014290571
-0.22909065 -0.46207643 -0.021582723
0.20094429 -0.46230569 -0.019927859
0.22430021 -0.46373597 -0.0096058846
-0.27581134 -0.44136354 -0.0069476366
-0.25239232 -0.44040251 -0.014290571
-0.22909065 -0.43944836 -0.021582723
0.20094429 -0.4396649 -0.019927979
0.22430021 -0.44101566 -0.0096060038
-0.27581134 -0.41862291 -0.0069476366
-0.25239232 -0.41771844 -0.014290571
-0.22909065 -0.41682029 -0.021582484
0.20094429 -0.41702417 -0.019927859
0.22430021 -0.41829538 -0.0096060038
-0.27581134 -0.39588222 -0.0069476366
-0.25239232 -0.39503428 -0.01429069
-0.22909065 -0.39419228 -0.021582603
0.20094429 -0.39438337 -0.019927859
0.22430021 -0.39557517 -0.0096060038
-0.27581134 -0.37314141 -0.0069477558
-0.25239232 -0.3723501 -0.014290571
-0.22909065 -0.37156421 -0.021582603
0.20094429 -0.37174252 -0.019927859
0.22430021 -0.37285489 -0.0096060038
0.29215461 -0.37249759 -0.012922049
-0.27581134 -0.35040072 -0.0069477558
-0.25239232 -0.34966585 -0.01429069
-0.22909065 -0.34893614 -0.021582603
0.20094429 -0.34910175 -0.019927859
0.22430021 -0.35013473 -0.0096060038
0.29215461 -0.34980285 -0.012922049
-0.27581134 -0.32766002 -0.0069476366
-0.25239232 -0.32698172 -0.014290452
-0.22909065 -0.32630804 -0.021582603
0.20094429 -0.32646084 -0.019927979
0.22430021 -0.32741445 -0.0096060038
0.29215461 -0.32710811 -0.012922049
-0.27581134 -0.3049193 -0.0069476366
-0.25239232 -0.30429754 -0.014290571
-0.22909065 -0.30368003 -0.021582603
0.20094429 -0.30382019 -0.019927859
0.22430021 -0.30469424 -0.0096060038
-0.27581134 -0.28217849 -0.0069476366
-0.25239232 -0.2816132 -0.014290571
-0.22909065 -0.28105199 -0.021582723
0.20094429 -0.2811794 -0.019927859
0.22430021 -0.28197396 -0.0096060038
-0.27581134 -0.25943786 -0.0069476366
-0.25239232 -0.25892913 -0.014290571
-0.22909065 -0.25842392 -0.021582723
0.20094429 -0.25853854 -0.019927859
0.22430021 -0.25925374 -0.0096060038
-0.27581134 -0.23669717 -0.0069476366
-0.25239232 -0.23624498 -0.014290571
-0.22909065 -0.23579596 -0.021582603
0.20094429 -0.23589778 -0.019927859
0.22430021 -0.23653346 -0.0096060038
-0.27581134 -0.21395648 -0.0069476366
-0.25239232 -0.21356079 -0.014290571
-0.22909065 -0.21316785 -0.021582484
0.20094429 -0.21325691 -0.019927859
0.22430021 -0.21381317 -0.0096060038
-0.27581134 -0.19121565 -0.0069476366
-0.25239232 -0.19087657 -0.01429069
-0.22909065 -0.19053978 -0.021582484
0.20094429 -0.19061625 -0.019927859
0.22430021 -0.19109294 -0.0096060038
-0.27581134 -0.16847497 -0.0069476366
-0.25239232 -0.1681924 -0.014290452
-0.22909065 -0.16791171 -0.021582603
0.20094429 -0.16797537 -0.01992774
0.22430021 -0.16837266 -0.0096060038
-0.27581134 -0.14573433 -0.0069476366
-0.25239232 -0.14550823 -0.014290571
-0.22909065 -0.14528364 -0.021582603
0.20094429 -0.14533462 -0.019927859
0.22430021 -0.14565243 -0.0096060038
-0.27581134 -0.12299357 -0.0069476366
-0.25239232 -0.12282395 -0.014290571
-0.22909065 -0.12265559 -0.021582603
0.20094429 -0.12269375 -0.019927859
0.22430021 -0.12293212 -0.0096060038
-0.27581134 -0.10025288 -0.0069476366
-0.25239232 -0.10013989 -0.014290571
-0.22909065 -0.10002752 -0.021582723
0.20094429 -0.100053 -0.019927859
0.22430021 -0.10021193 -0.0096060038
-0.27581134 -0.077512182 -0.0069476366
-0.25239232 -0.07745561 -0.01429069
-0.22909065 -0.077399448 -0.021582723
0.20094429 -0.077412292 -0.019927859
0.22430021 -0.077491626 -0.0096060038
-0.27581134 -0.054771487 -0.0069476366
-0.25239232 -0.054771487 -0.014290571
-0.22909065 -0.054771487 -0.021582484
0.20094429 -0.054771435 -0.019927859
0.22430021 -0.054771382 -0.0096060038
-0.27581134 -0.032030791 -0.0069476366
-0.25239232 -0.032087263 -0.014290571
-0.22909065 -0.032143421 -0.021582603
0.20094429 -0.032130681 -0.019927859
0.22430021 -0.032051135 -0.0096060038
-0.27581134 -0.0092900433 -0.0069476366
-0.25239232 -0.0094030909 -0.014290452
-0.22909065 -0.0095153041 -0.021582484
0.20094429 -0.0094898194 -0.019927859
0.22430021 -0.0093308352 -0.0096060038
-0.27581134 0.013450656 -0.0069476366
-0.25239232 0.013281133 -0.014290571
-0.22909065 0.013112765 -0.021582603
0.20094429 0.013150934 -0.019927979
0.22430021 0.013389308 -0.0096058846
-0.27581134 0.036191348 -0.0069476366
-0.25239232 0.035965409 -0.014290571
-0.22909065 0.035740826 -0.021582603
0.20094429 0.035791691 -0.01992774
0.22430021 0.036109556 -0.0096058846
-0.27581134 0.058932099 -0.0069476366
-0.25239232 0.058649477 -0.014290571
-0.22909065 0.058368895 -0.021582603
0.20094429 0.058432493 -0.019927859
0.22430021 0.058829796 -0.0096058846
-0.27581134 0.081672892 -0.0069476366
-0.25239232 0.081333742 -0.014290571
-0.22909065 0.08099696 -0.021582723
0.20094429 0.081073254 -0.019927859
0.22430021 0.081550092 -0.0096058846
-0.27581134 0.1044136 -0.0069476366
-0.25239232 0.10401787 -0.014290571
-0.22909065 0.10362487 -0.021582484
0.20094429 0.10371415 -0.019927859
0.22430021 0.10427029 -0.0096058846
-0.27581134 0.12715423 -0.0069476366
-0.25239232 0.12670204 -0.014290571
-0.22909065 0.12625293 -0.021582603
0.20094429 0.1263549 -0.019927979
0.22430021 0.12699059 -0.0096058846
-0.27581134 0.14989504 -0.0069477558
-0.25239232 0.14938621 -0.014290452
-0.22909065 0.14888099 -0.021582603
0.20094429 0.14899573 -0.019927859
0.22430021 0.14971074 -0.0096060038
-0.27581134 0.17263573 -0.0069476366
-0.25239232 0.17207038 -0.014290571
-0.22909065 0.17150906 -0.021582603
0.20094429 0.17163648 -0.019927859
0.22430021 0.17243102 -0.0096060038
-0.27581134 0.19537632 -0.0069476366
-0.25239232 0.1947547 -0.01429069
-0.22909065 0.19413717 -0.021582484
0.20094429 0.19427733 -0.019927859
0.22430021 0.19515122 -0.0096060038
-0.27581134 0.21811701 -0.0069476366
-0.25239232 0.21743889 -0.014290571
-0.22909065 0.21676524 -0.021582723
0.20094429 0.21691819 -0.019927859
0.22430021 0.21787153 -0.0096060038
-0.27581134 0.24085788 -0.0069477558
-0.25239232 0.24012293 -0.01429069
-0.22909065 0.23939331 -0.021582723
0.20094429 0.23955889 -0.019927979
0.22430021 0.24059181 -0.0096060038
-0.27581134 0.26359853 -0.0069476366
-0.25239232 0.26280713 -0.014290571
-0.22909065 0.26202139 -0.021582723
0.20094429 0.26219967 -0.019927859
0.22430021 0.26331204 -0.0096060038
-0.27581134 0.28633922 -0.0069476366
-0.25239232 0.28549144 -0.014290571
-0.22909065 0.28464937 -0.021582484
0.20094429 0.28484052 -0.019927859
0.22430021 0.28603229 -0.0096060038
-0.27581134 0.30907992 -0.0069476366
-0.25239232 0.30817547 -0.014290571
-0.22909065 0.30727741 -0.021582484
0.20094429 0.30748117 -0.019927859
0.22430021 0.3087526 -0.0096060038
-0.27581134 0.33182073 -0.0069477558
-0.25239232 0.33085975 -0.014290571
-0.22909065 0.32990548 -0.021582484
0.20094429 0.33012202 -0.019927859
0.22430021 0.33147281 -0.0096060038
0.29215461 0.33103892 -0.012922168
-0.27581134 0.35456139 -0.0069476366
-0.25239232 0.35354406 -0.014290571
-0.22909065 0.35253352 -0.021582603
0.20094429 0.35276291 -0.019927859
0.22430021 0.35419309 -0.0096060038
0.29215598 0.35373554 -0.012907505
-0.27581134 0.37730211 -0.0069476366
-0.25239232 0.37622818 -0.014290452
-0.22909065 0.37516159 -0.021582723
0.20094429 0.37540364 -0.01992774
0.22430021 0.37691337 -0.0096060038
0.29215732 0.37643263 -0.012892723
-0.27581134 0.40004283 -0.0069476366
-0.25239232 0.39891231 -0.014290571
-0.22909065 0.39778963 -0.021582723
0.20094429 0.39804435 -0.019927859
0.22430021 0.39963362 -0.0096060038
0.29215869 0.39912972 -0.012877941
-0.27581134 0.42278355 -0.0069476366
-0.25239232 0.4215965 -0.014290571
-0.22909065 0.4204177 -0.021582723
0.20094429 0.4206852 -0.019927859
0.22430021 0.42235386 -0.0096060038
-0.27581134 0.44552428 -0.0069476366
-0.25239232 0.44428077 -0.014290571
-0.22909065 0.44304559 -0.021582484
0.20094429 0.44332612 -0.019927859
0.22430021 0.44507411 -0.0096060038
-0.27581134 0.46826494 -0.0069476366
-0.25239232 0.46696478 -0.014290571
-0.22909065 0.46567369 -0.021582484
0.20094429 0.46596682 -0.019927979
0.22430021 0.46779442 -0.0096060038
-0.25239232 0.48964912 -0.014290571
-0.22909065 0.48830175 -0.021582603
0.20094429 0.48860753 -0.019927859
0.22430021 0.49051458 -0.0096060038
-0.27581134 0.4910056 -0.0069476366
-0.27581134 0.51374644 -0.0069476366
-0.25239232 0.51233333 -0.014290571
-0.22909065 0.51092994 -0.021582484
0.20094429 0.51124847 -0.019927859
0.22430021 0.51323491 -0.0096060038
-0.27581134 0.5364871 -0.0069476366
-0.25239232 0.53501743 -0.014290452
-0.22909065 0.53355807 -0.021582484
0.20094429 0.53388923 -0.019927859
0.22430021 0.53595513 -0.0096060038
-0.27581134 0.55922782 -0.0069476366
-0.25239232 0.55770159 -0.014290571
-0.22909065 0.5561862 -0.021582484
0.20094429 0.55652994 -0.019927979
0.22430021 0.55867541 -0.0096060038
-0.27581134 0.58196849 -0.0069476366
-0.25239232 0.58038586 -0.014290571
-0.22909065 0.57881421 -0.021582603
0.20094429 0.57917076 -0.019927979
0.22430021 0.58139569 -0.0096060038
-0.27581134 0.60470927 -0.0069476366
-0.25239232 0.60307008 -0.014290571
-0.22909065 0.60144228 -0.021582723
0.20094429 0.60181159 -0.01992774
0.22430021 0.60411596 -0.0096060038
-0.27581134 0.62745011 -0.0069476366
-0.25239232 0.62575412 -0.014290571
-0.22909065 0.62407017 -0.021582484
0.20094429 0.62445229 -0.019927859
0.22430021 0.62683624 -0.0096060038
-0.29934737 -0.62470949 0.00043201447
0.24797401 -0.62516153 0.0027810335
-0.29934737 -0.6019119 0.00043189526
0.24797401 -0.60234594 0.0027810335
-0.29934737 -0.57911444 0.00043201447
0.24797401 -0.57953036 0.0027809143
-0.29934737 -0.55631691 0.00043189526
0.24797401 -0.55671465 0.0027809143
-0.29934737 -0.53351939 0.00043189526
0.24797401 -0.53389913 0.0027810335
-0.29934737 -0.51072198 0.00043201447
0.24797401 -0.51108354 0.0027809143
-0.29934737 -0.48792431 0.00043189526
0.24797401 -0.48826787 0.0027809143
-0.29934737 -0.46512678 0.00043189526
0.24797401 -0.46545231 0.0027810335
-0.29934737 -0.44232935 0.00043213367
0.24797401 -0.44263664 0.0027810335
-0.29934737 -0.41953179 0.00043189526
0.24797401 -0.4198212 0.0027811527
-0.29934737 -0.39673427 0.00043213367
0.24797401 -0.39700556 0.0027811527
-0.29934737 -0.37393683 0.00043201447
0.24797401 -0.37418994 0.0027811527
-0.29934737 -0.35113922 0.00043201447
0.24797401 -0.35137439 0.0027811527
-0.29934737 -0.32834175 0.00043213367
0.24797401 -0.32855874 0.0027811527
-0.29934737 -0.30554414 0.00043201447
0.24797401 -0.30574316 0.0027811527
-0.29934737 -0.2827467 0.00043189526
0.24797401 -0.28292751 0.0027811527
-0.29934737 -0.25994918 0.00043201447
0.24797401 -0.26011196 0.0027811527
-0.29934737 -0.23715162 0.00043201447
0.24797401 -0.23729631 0.0027811527
-0.29934737 -0.21435404 0.00043201447
0.24797401 -0.2144807 0.0027811527
-0.29934737 -0.19155666 0.00043201447
0.24797401 -0.19166514 0.0027810335
-0.29934737 -0.16875906 0.00043201447
0.24797401 -0.16884947 0.0027811527
-0.29934737 -0.14596148 0.00043189526
0.24797401 -0.14603394 0.0027811527
-0.29934737 -0.12316398 0.00043213367
0.24797401 -0.12321827 0.0027811527
-0.29934737 -0.1003665 0.00043189526
0.24797401 -0.10040268 0.0027810335
-0.29934737 -0.077568918 0.00043189526
0.24797401 -0.077587008 0.0027811527
-0.29934737 -0.054771487 0.00043201447
0.24797401 -0.054771435 0.0027811527
-0.29934737 -0.031973846 0.00043201447
0.24797401 -0.031955861 0.0027811527
-0.29934737 -0.0091763623 0.00043189526
0.24797401 -0.0091402344 0.0027811527
-0.29934737 0.013621118 0.00043213367
0.24797401 0.013675343 0.0027811527
-0.29934737 0.036418658 0.00043201447
0.24797401 0.036491018 0.0027811527
-0.29934737 0.059216302 0.00043189526
0.24797401 0.059306543 0.0027811527
-0.29934737 0.082013622 0.00043201447
