ply
format ascii 1.0
comment PCL generated
element vertex 1353
property float x
property float y
property float z
element camera 0
property float view_px
property float view_py
property float view_pz
property float x_axisx
property float x_axisy
property float x_axisz
property float y_axisx
property float y_axisy
property float y_axisz
property float z_axisx
property float z_axisy
property float z_axisz
property float focal
property float scalex
property float scaley
property float centerx
property float centery
property int viewportx
property int viewporty
property float k1
property float k2
end_header
0.040483195 0.26593143 -0.36163408
0.05622755 0.26626626 -0.35891563
0.072013706 0.26660085 -0.35619873
0.087854154 0.26696873 -0.35321188
-0.16375989 0.28270495 -0.3531304
-0.14776674 0.28220049 -0.35698479
-0.13190533 0.28184995 -0.35966349
-0.11608604 0.28150147 -0.36232615
-0.10030764 0.28115281 -0.36499077
0.040443573 0.28136751 -0.36334974
0.056172922 0.28171563 -0.36068976
0.071943499 0.28206468 -0.35802281
0.087774672 0.28246912 -0.35493279
-0.16381992 0.2985391 -0.35235041
-0.1480878 0.2985391 -0.35235041
-0.13235569 0.2985391 -0.35235041
-0.11662358 0.2985391 -0.35235041
-0.10089147 0.2985391 -0.35235041
-0.085159346 0.2985391 -0.35235041
-0.069427229 0.2985391 -0.35235041
-0.053695116 0.2985391 -0.35235041
-0.037962995 0.2985391 -0.35235041
-0.022230877 0.2985391 -0.35235041
-0.0064987601 0.2985391 -0.35235041
0.0092333574 0.2985391 -0.35235041
0.024965474 0.2985391 -0.35235041
0.040697593 0.2985391 -0.35235041
0.056429707 0.2985391 -0.35235041
0.072161824 0.2985391 -0.35235041
0.087893948 0.2985391 -0.35235041
-0.10151996 0.17372963 -0.33874327
-0.085630409 0.17362422 -0.34011197
-0.06977243 0.17354515 -0.34113973
-0.053930517 0.17346686 -0.34215736
-0.038104281 0.1733885 -0.34317386
-0.02230617 0.17343506 -0.34256959
-0.0064987601 0.17351337 -0.34155238
0.0093243197 0.17359179 -0.34053427
0.025163231 0.17367092 -0.33950591
-0.13320784 0.18958601 -0.33851331
-0.11720149 0.18932249 -0.34162581
-0.10124602 0.18906435 -0.34467405
-0.085402787 0.18894987 -0.346026
-0.069591358 0.18886562 -0.34702033
-0.053795051 0.18878071 -0.348023
-0.038014341 0.18869665 -0.34901553
-0.022261105 0.18874671 -0.34842372
-0.0064987601 0.18883094 -0.34743071
0.0092789531 0.18891582 -0.34642744
0.025071988 0.18900001 -0.34543234
0.040916495 0.18921691 -0.34287184
0.056816168 0.18947707 -0.33979982
-0.1488874 0.20521252 -0.34080958
-0.13287856 0.20493069 -0.34386015
-0.11692014 0.2046548 -0.34684706
-0.10100852 0.20438051 -0.34981626
-0.085204422 0.20425457 -0.35117948
0.0092394371 0.2042193 -0.35156077
0.024992594 0.20430912 -0.35058892
0.040796898 0.20454364 -0.34805042
0.056653701 0.20481832 -0.34507614
0.072558038 0.2050973 -0.34205651
0.088510133 0.20537876 -0.33900964
-0.16463141 0.22093339 -0.34180903
-0.14856395 0.22056627 -0.34547806
-0.13259807 0.22027241 -0.34841472
-0.11667886 0.21998119 -0.3513248
0.056515306 0.22015674 -0.34957069
0.072380669 0.2204475 -0.34666473
0.088293277 0.22074376 -0.34370464
0.10435683 0.22123563 -0.33878917
-0.18053862 0.2368663 -0.34069949
-0.16433071 0.23632567 -0.34571546
-0.14829302 0.23592986 -0.34938872
0.072232075 0.23580731 -0.35052538
0.088111073 0.23611733 -0.34764946
0.10414423 0.23664697 -0.34273452
-0.19651145 0.25287682 -0.33906484
-0.18026015 0.25230834 -0.3439883
-0.16408646 0.25174248 -0.34888816
0.087964393 0.25151891 -0.35082525
0.10396982 0.2520794 -0.34597117
0.12005197 0.25264364 -0.34108478
-0.19626386 0.26838109 -0.34174496
-0.18004201 0.26778749 -0.34656423
-0.16389607 0.26719671 -0.35136104
0.10383422 0.26755065 -0.34848762
0.11989062 0.26813975 -0.3437047
0.13602157 0.2687304 -0.33890855
-0.21235411 0.28455642 -0.33898216
-0.19608028 0.28393486 -0.34373224
-0.17988223 0.28331733 -0.3484512
0.10373519 0.28307202 -0.35032535
0.11977128 0.28368482 -0.34564233
0.13588099 0.28430054 -0.34093803
-0.21224472 0.30024001 -0.34007525
-0.19595952 0.29955214 -0.34503955
-0.1797805 0.29891297 -0.34965253
0.10367301 0.29865986 -0.35147923
0.11969429 0.2992954 -0.34689277
0.13578762 0.29993373 -0.34228557
-0.086185187 0.14285927 -0.32569849
-0.070214093 0.14279166 -0.32679647
-0.05425971 0.14272352 -0.32790267
-0.038322385 0.14265548 -0.32900763
-0.022415502 0.14269495 -0.32836717
-0.0064987601 0.14276302 -0.32726139
0.0094349422 0.14283058 -0.32616389
0.025385702 0.14289884 -0.3250559
-0.13401824 0.15882045 -0.32535398
-0.11790095 0.15859231 -0.32864559
-0.1018348 0.15836503 -0.33192682
-0.085890278 0.15826577 -0.33336025
-0.069978699 0.15819089 -0.33444089
-0.054083999 0.15811664 -0.33551121
-0.038206216 0.15804452 -0.33655274
-0.02235717 0.15808661 -0.33594453
-0.0064987601 0.15816012 -0.33488399
0.0093760602 0.15823436 -0.33381301
0.025267528 0.15830924 -0.33273154
0.041213106 0.15849657 -0.33002794
0.057217717 0.15872303 -0.32675934
-0.16589525 0.17475753 -0.32539129
-0.14969541 0.1744684 -0.3291468
-0.13358667 0.1742209 -0.33236164
-0.11752849 0.17397493 -0.3355574
0.041054767 0.17387272 -0.33688438
0.05700393 0.17411771 -0.33370209
0.073002473 0.17436339 -0.3305099
0.089050613 0.17460994 -0.32730782
-0.18175924 0.19062148 -0.32628489
-0.16540995 0.19016333 -0.3316955
-0.14926341 0.18985112 -0.3353821
0.072764911 0.18974105 -0.33668178
0.088761672 0.19000514 -0.33356357
0.10490642 0.19042629 -0.32858986
-0.19766365 0.20652579 -0.32659185
-0.1812854 0.2060373 -0.33188057
-0.16498995 0.20555042 -0.33715153
0.10461054 0.20583402 -0.33408082
0.12080602 0.20631818 -0.32884055
-0.21362105 0.22248329 -0.32632208
-0.1972093 0.22196414 -0.33151037
-0.18087962 0.22144748 -0.3366726
0.1205089 0.22174841 -0.33366519
0.136741 0.22226277 -0.32852495
-0.21319361 0.23795544 -0.33059347
-0.19682607 0.23740956 -0.33565879
0.12025734 0.23718418 -0.3377499
0.13645017 0.237726 -0.33272237
0.15276594 0.23833151 -0.32710338
-0.22943628 0.25422257 -0.32741016
-0.2128409 0.25344813 -0.33411777
0.13621098 0.25321054 -0.33617508
0.15250656 0.25386897 -0.33047289
-0.22914514 0.26981407 -0.33011144
-0.21256125 0.26897636 -0.3369121
0.15230563 0.26944798 -0.33308297
0.16878222 0.27031508 -0.32604289
-0.24562792 0.28637406 -0.32509321
-0.22893554 0.28546283 -0.3320564
0.15216202 0.28508428 -0.33494848
0.16861136 0.28598574 -0.32806051
-0.24546883 0.3021251 -0.32647091
-0.22880198 0.30117947 -0.33329558
0.15207256 0.30078933 -0.33611047
0.16850053 0.30172342 -0.32936949
-0.038600557 0.11166641 -0.31093985
-0.11879706 0.12765932 -0.31201589
-0.1025935 0.12747148 -0.31550032
-0.086516954 0.12738651 -0.31707877
-0.070478357 0.12732533 -0.31821406
-0.054457273 0.12726419 -0.31934816
-0.038453657 0.12720311 -0.32048088
-0.022481181 0.12723795 -0.31983507
-0.0064987601 0.12729849 -0.31871092
0.0095010512 0.12735966 -0.31757617
0.025518207 0.12742038 -0.31644958
0.04159316 0.1275755 -0.31357121
-0.15074255 0.14357769 -0.31403273
-0.1345059 0.14336814 -0.3174355
-0.11832225 0.14315921 -0.32082707
-0.10219175 0.14295162 -0.32419842
0.041391913 0.14306942 -0.32228541
0.05745919 0.14327687 -0.31891716
0.073578738 0.14348495 -0.31553799
0.089750826 0.14369372 -0.31214786
-0.18292998 0.1597138 -0.31245911
-0.16644993 0.15931712 -0.31818599
-0.15018697 0.15904921 -0.32205182
0.073273398 0.15895092 -0.32347101
0.089379765 0.15917872 -0.32018149
0.10563913 0.15953822 -0.31499255
-0.19880468 0.17561588 -0.31423974
-0.18230538 0.17518522 -0.31983513
0.10524867 0.17500022 -0.32223868
0.12155349 0.17542632 -0.3167032
0.13794689 0.1758561 -0.31111908
-0.2147153 0.19154423 -0.31538755
-0.19819443 0.19108206 -0.3208459
0.12115394 0.1908834 -0.32319093
0.13748524 0.19134146 -0.31778264
0.15391505 0.19181623 -0.31217617
-0.21412697 0.20701776 -0.32126659
0.13708532 0.20680636 -0.32355493
0.1534683 0.20732149 -0.31797969
-0.23082118 0.20763735 -0.31455988
-0.24714559 0.22392149 -0.31194973
-0.2302708 0.22314931 -0.31966662
0.1530858 0.22282089 -0.32294828
0.16968527 0.22357847 -0.31537819
-0.24662708 0.23948075 -0.31644028
-0.22981153 0.23867382 -0.32392806
0.16931818 0.23912798 -0.31971353
0.18599518 0.23993722 -0.31220436
-0.26310277 0.25592729 -0.31264764
-0.24620372 0.25506598 -0.32010657
0.16901739 0.25470111 -0.32326561
0.18564644 0.25554246 -0.31597978
-0.26272127 0.27158353 -0.31574488
-0.24587126 0.27069163 -0.32298565
0.18537164 0.27118817 -0.31895465
0.20209017 0.27208576 -0.31166667
-0.26243562 0.28729397 -0.31806409
0.18517014 0.28689191 -0.3211357
0.20189108 0.28787082 -0.31365597
-0.26224634 0.30307701 -0.319601
0.18503721 0.30266491 -0.32257479
-0.27940726 0.30432296 -0.31060922
0.20177335 0.30373779 -0.31483269
-0.27933806 0.32029897 -0.31113797
-0.26228324 0.31910506 -0.31930131
-0.2462967 0.31910506 -0.31930131
-0.23031019 0.31910506 -0.31930131
-0.21432365 0.31910506 -0.31930131
-0.19833711 0.31910506 -0.31930131
-0.18235058 0.31910506 -0.31930131
-0.16636406 0.31910506 -0.31930131
-0.15037751 0.31910506 -0.31930131
-0.13439099 0.31910506 -0.31930131
-0.11840448 0.31910506 -0.31930131
-0.10241794 0.31910506 -0.31930131
-0.086431414 0.31910506 -0.31930131
-0.070444882 0.31910506 -0.31930131
-0.05445835 0.31910506 -0.31930131
-0.038471822 0.31910506 -0.31930131
-0.02248529 0.31910506 -0.31930131
-0.0064987601 0.31910506 -0.31930131
0.0094877705 0.31910506 -0.31930131
0.025474301 0.31910506 -0.31930131
0.041460827 0.31910506 -0.31930131
0.057447359 0.31910506 -0.31930131
0.073433891 0.31910506 -0.31930131
0.089420415 0.31910506 -0.31930131
0.10540695 0.31910506 -0.31930131
0.12139348 0.31910506 -0.31930131
0.13738 0.31910506 -0.31930131
0.15336655 0.31910506 -0.31930131
0.16935307 0.31910506 -0.31930131
0.1853396 0.31910506 -0.31930131
0.20172723 0.31969121 -0.31529349
-0.087294459 0.096156687 -0.29687881
-0.071098208 0.096110262 -0.29808408
-0.054920539 0.096064031 -0.29928803
-0.038761433 0.096017644 -0.3004905
-0.022635089 0.096042611 -0.29984176
-0.0064987601 0.096088953 -0.29863852
0.0096561052 0.096135303 -0.29743367
-0.1356688 0.11223856 -0.29855239
-0.11932772 0.11207152 -0.30216795
-0.10304333 0.11190554 -0.3057614
-0.086887591 0.1118276 -0.30744934
-0.070773967 0.11177377 -0.30861408
-0.054678295 0.11172008 -0.30977762
-0.022554602 0.11169602 -0.31029737
-0.0064987601 0.11174978 -0.3091346
0.0095749963 0.11180355 -0.30797046
0.025666697 0.11185735 -0.3068049
0.041818492 0.11199543 -0.30381405
0.058034807 0.11216129 -0.30022335
-0.16779009 0.12826489 -0.30077654
-0.15136822 0.1280372 -0.30500191
-0.13505499 0.12784764 -0.30851942
0.057730719 0.12776262 -0.31009907
0.073922537 0.12795076 -0.30660564
0.090169132 0.12814017 -0.30309111
0.1065817 0.12844145 -0.29750067
-0.20029178 0.1445563 -0.29814142
-0.18363544 0.1441877 -0.30412775
-0.16707899 0.14382517 -0.31001395
0.10607982 0.1440222 -0.30681425
0.12252433 0.14438406 -0.30093873
-0.21616508 0.16051461 -0.30090064
-0.19949849 0.1601108 -0.30672896
0.12200911 0.15993232 -0.30930477
0.13846816 0.16032785 -0.30359536
0.15503886 0.16074491 -0.29757732
-0.23222443 0.17659365 -0.30153924
-0.21539411 0.17604975 -0.30860472
0.15443808 0.17629781 -0.30538177
0.17124206 0.17694351 -0.29699373
-0.24849193 0.19282264 -0.30029023
-0.23146503 0.19212018 -0.3085857
0.17064278 0.19250247 -0.30407065
-0.26484826 0.20912315 -0.29847604
-0.24776596 0.20837468 -0.30657721
0.1701251 0.20804158 -0.31018406
0.18692145 0.20878124 -0.30217743
-0.26416266 0.22471294 -0.30404228
0.1864187 0.22435488 -0.30761993
0.20328118 0.22514094 -0.29976535
-0.28074518 0.241211 -0.30038548
-0.26358208 0.24030887 -0.30875611
0.20280278 0.24076264 -0.30454588
-0.28024676 0.25690329 -0.30419433
0.20240512 0.25640398 -0.30851954
0.21953955 0.25754485 -0.29863834
-0.29734468 0.2738907 -0.29701275
-0.27985799 0.27264026 -0.30716509
0.21920946 0.27331322 -0.30170125
-0.29701355 0.28973615 -0.29940259
-0.27957919 0.28844145 -0.30929536
0.21896946 0.2891438 -0.30392814
-0.29679805 0.30566025 -0.3009578
0.21881691 0.30505252 -0.30534375
-0.29669374 0.32167786 -0.30171061
0.21874632 0.32105073 -0.30599868
-0.10407647 0.080412813 -0.28339314
-0.087737471 0.080351904 -0.2853688
-0.071451314 0.080313556 -0.28661644
-0.055184621 0.080275446 -0.28785276
-0.038936842 0.080237113 -0.28909743
-0.02272285 0.080257349 -0.28844154
-0.0064987601 0.080295376 -0.2872057
0.0097444393 0.080333814 -0.28595895
0.026006708 0.080371961 -0.28472036
-0.15282704 0.096654497 -0.28394538
-0.13633902 0.09651114 -0.2876693
-0.11990903 0.09636835 -0.29138017
-0.10353722 0.096226305 -0.29506826
0.025829392 0.096181408 -0.29623735
0.04206568 0.096301802 -0.29311061
0.058367305 0.096443526 -0.28942519
0.074726172 0.096585944 -0.28572685
-0.18533707 0.1129091 -0.2840327
-0.1685853 0.11261292 -0.29044652
-0.15206574 0.11240563 -0.29493403
0.07430651 0.11232729 -0.29662991
0.090634555 0.11249432 -0.29301453
0.10714217 0.1127675 -0.28709942
-0.20119494 0.12893376 -0.28836435
-0.18444076 0.1285968 -0.29461747
0.12311713 0.12877493 -0.29131281
0.13975036 0.12911031 -0.28508812
-0.23407982 0.14540723 -0.28432328
-0.21705142 0.14493184 -0.29204381
0.13907155 0.14475682 -0.29488611
0.15572877 0.14514296 -0.28861511
-0.25029424 0.16163823 -0.28468162
-0.23308933 0.1610263 -0.29351389
0.17192946 0.16134772 -0.28887564
-0.26658186 0.17791295 -0.28440082
-0.24933092 0.17724913 -0.29302412
0.18818319 0.1775959 -0.28851879
-0.26565352 0.19352981 -0.29193801
0.18750821 0.19320065 -0.29582542
-0.2829791 0.19426002 -0.28331554
0.20450424 0.19390194 -0.28754377
-0.28210008 0.20990312 -0.29003233
0.20384628 0.20952557 -0.29411864
0.22110215 0.21044742 -0.28413916
-0.29904932 0.2266475 -0.28471076
-0.28135949 0.2255486 -0.29569125
0.22048159 0.22612838 -0.28989738
-0.298356 0.24236101 -0.28971428
0.21996255 0.24182224 -0.2947135
0.23736271 0.24296498 -0.28411025
-0.31551045 0.25931767 -0.28328639
-0.2977896 0.25810331 -0.2938019
0.23687817 0.25873795 -0.28830636
-0.31499934 0.27515095 -0.28678066
0.23649438 0.27455369 -0.29163033
-0.3146154 0.29104429 -0.289406
0.23620926 0.29043001 -0.29409939
0.25361657 0.29173356 -0.28413934
-0.31435198 0.30701146 -0.29120696
0.23601769 0.30638075 -0.29575831
0.25344962 0.30780292 -0.28549474
-0.31420705 0.3230693 -0.29219764
0.23591927 0.32242388 -0.29661083
0.25339481 0.32398465 -0.28593963
-0.31524691 0.34035906 -0.28508824
-0.29899701 0.34035906 -0.28508824
-0.28274712 0.34035906 -0.28508824
-0.26649719 0.34035906 -0.28508824
-0.2502473 0.34035906 -0.28508824
-0.23399739 0.34035906 -0.28508824
-0.21774749 0.34035906 -0.28508824
-0.20149758 0.34035906 -0.28508824
-0.18524769 0.34035906 -0.28508824
-0.16899778 0.34035906 -0.28508824
-0.15274787 0.34035906 -0.28508824
-0.13649797 0.34035906 -0.28508824
-0.12024808 0.34035906 -0.28508824
-0.10399818 0.34035906 -0.28508824
-0.087748274 0.34035906 -0.28508824
-0.071498372 0.34035906 -0.28508824
-0.055248469 0.34035906 -0.28508824
-0.038998567 0.34035906 -0.28508824
-0.022748662 0.34035906 -0.28508824
-0.0064987601 0.34035906 -0.28508824
0.0097511429 0.34035906 -0.28508824
0.026001045 0.34035906 -0.28508824
0.042250946 0.34035906 -0.28508824
0.058500849 0.34035906 -0.28508824
0.074750751 0.34035906 -0.28508824
0.091000654 0.34035906 -0.28508824
0.10725056 0.34035906 -0.28508824
0.12350046 0.34035906 -0.28508824
0.13975036 0.34035906 -0.28508824
0.15600027 0.34035906 -0.28508824
0.17225018 0.34035906 -0.28508824
0.18850008 0.34035906 -0.28508824
0.20474999 0.34035906 -0.28508824
0.22099988 0.34035906 -0.28508824
0.23724979 0.34035906 -0.28508824
0.25349969 0.34035906 -0.28508824
-0.10466706 0.064445101 -0.27060652
-0.088221915 0.064394854 -0.27278256
-0.071837813 0.064365305 -0.27406466
-0.05547348 0.064335644 -0.27534503
-0.039128732 0.064305939 -0.2766338
-0.02281878 0.064321063 -0.27598
-0.0064987601 0.064350568 -0.27470011
0.0098409727 0.064380169 -0.27341884
0.026200606 0.064410061 -0.27212638
-0.15366897 0.080769956 -0.27179307
-0.13707455 0.080648884 -0.27572602
-0.1205451 0.080530308 -0.27957618
0.042335808 0.080473758 -0.2814135
0.058731146 0.080590948 -0.27760899
0.075188227 0.08071059 -0.27372241
0.091706716 0.080831334 -0.26980162
-0.18631956 0.09709765 -0.27243006
-0.16946106 0.09684214 -0.27907008
0.091143921 0.096729897 -0.28198642
0.10775768 0.096972734 -0.27567714
-0.21914862 0.11350707 -0.27108729
-0.20219119 0.11320716 -0.27757978
0.12377044 0.11306284 -0.28070414
0.1404992 0.1133596 -0.27427977
-0.23520124 0.12971216 -0.27391791
-0.21804915 0.12927267 -0.28207368
0.15650852 0.1294661 -0.27848589
-0.25138927 0.14596918 -0.27519852
0.17271198 0.1456961 -0.27963465
0.18983966 0.14625318 -0.27058685
-0.26764068 0.16225334 -0.27580416
0.18895984 0.16195488 -0.28011107
0.20613247 0.1625672 -0.27127343
-0.2840068 0.17860098 -0.27546233
0.2052646 0.1782558 -0.27994585
-0.30087861 0.19525978 -0.27150887
0.22183222 0.19476387 -0.27736533
-0.2998808 0.21094903 -0.27870989
0.23867072 0.21149649 -0.27278256
-0.31694937 0.22777461 -0.27344829
0.23795706 0.22722271 -0.27896309
-0.3161613 0.24353343 -0.27883649
0.25496471 0.24414143 -0.27319378
-0.33354825 0.2606481 -0.2717638
0.25440529 0.25995851 -0.27773577
0.25395826 0.27581793 -0.28136492
-0.33302394 0.27658117 -0.27516919
-0.33264831 0.29258814 -0.27760899
0.27163321 0.29349291 -0.27069479
-0.33241436 0.30868497 -0.27912843
0.27141252 0.30961993 -0.27238107
-0.33231398 0.32488549 -0.27978045
0.27131 0.32585317 -0.27316451
-0.33234993 0.34121221 -0.2795468
0.2713241 0.34221134 -0.27305681
-0.10532542 0.048303209 -0.25635254
-0.088758737 0.048264995 -0.25883573
-0.072264917 0.048244022 -0.260194
-0.055791818 0.048223022 -0.26156062
-0.039339785 0.048202008 -0.26292527
-0.022924447 0.048212331 -0.26225311
-0.0064987601 0.048233349 -0.26088738
0.0099478904 0.048254285 -0.25952989
0.026415622 0.048275381 -0.25816071
-0.1545949 0.064726338 -0.25842869
-0.13788843 0.06463211 -0.26251012
-0.12124564 0.064538248 -0.26657581
0.04263166 0.064491369 -0.26860291
0.059132807 0.06458462 -0.26456463
0.075697109 0.064678565 -0.26050115
0.092330657 0.064775735 -0.25629282
-0.18740351 0.081144527 -0.25962913
-0.17042893 0.080933027 -0.26649708
0.10843578 0.081037842 -0.26309329
0.12527625 0.081248425 -0.256253
-0.22035582 0.097613618 -0.25902414
-0.20328414 0.097354867 -0.26574826
0.12448663 0.097226821 -0.26907474
0.14132011 0.097482629 -0.26243103
-0.23644133 0.11390776 -0.26241118
0.15737382 0.11368454 -0.26724535
0.1745749 0.1141284 -0.25763446
-0.25262514 0.13021992 -0.26449555
0.17359617 0.12996691 -0.2691927
0.19083907 0.13047467 -0.25976783
-0.28658053 0.14716421 -0.25579536
-0.26885742 0.14654028 -0.26592559
0.2071352 0.14682804 -0.26125377
-0.28519809 0.16290766 -0.26635915
0.22369772 0.16334437 -0.26005524
-0.30203649 0.17954855 -0.2631526
0.22269817 0.1790731 -0.2693302
0.24048755 0.18001853 -0.25704837
-0.31900543 0.19628586 -0.25939101
0.23951259 0.1957693 -0.26549196
-0.3178955 0.21203256 -0.26697958
0.25644875 0.21257159 -0.26114476
-0.33507496 0.2289355 -0.26184738
0.2556428 0.22835098 -0.26768827
-0.33422872 0.24477199 -0.26734388
0.27303594 0.24556597 -0.25997597
0.27243802 0.26148167 -0.26454502
-0.3522571 0.26233128 -0.25718749
-0.35163975 0.27832553 -0.26100612
0.27197516 0.27745405 -0.26808172
-0.351181 0.29438952 -0.26384407
0.28988621 0.29528013 -0.25703841
-0.35087639 0.31054184 -0.26572853
0.28960004 0.31145975 -0.25910348
-0.35072026 0.32679951 -0.26669407
0.2894448 0.32774588 -0.26022369
-0.35070437 0.34317583 -0.26679248
0.28941461 0.34415361 -0.26044172
-0.089351438 0.031931516 -0.24343681
-0.072737232 0.031920601 -0.24485505
-0.056144673 0.0319096 -0.24628139
-0.039574105 0.031898621 -0.24770582
-0.02304168 0.031903937 -0.24702406
-0.0064987601 0.031914711 -0.24560863
0.010066044 0.031925794 -0.24418139
0.026652696 0.031936709 -0.24276221
-0.15561475 0.048497841 -0.24370849
-0.13878593 0.048432808 -0.24793643
-0.12202311 0.048367914 -0.25214773
0.042961694 0.04833461 -0.25431192
0.059577622 0.048399176 -0.25011909
0.076258339 0.04846384 -0.24591994
-0.18860009 0.065025039 -0.24549812
-0.1714959 0.064860046 -0.25263673
0.10918343 0.064939007 -0.24921858
0.1261474 0.065103337 -0.24210745
-0.22168429 0.08157184 -0.24574918
-0.20448887 0.081357725 -0.25270665
0.14222439 0.08146017 -0.24937868
-0.23781028 0.097972274 -0.24970889
0.15832573 0.097773187 -0.25487971
0.17565703 0.098159082 -0.24485505
-0.27174142 0.11482691 -0.24251044
-0.25399908 0.11436116 -0.25259691
0.19194682 0.11458384 -0.24777609
-0.2881307 0.13132711 -0.24395007
-0.27022651 0.13074182 -0.25480992
0.20825349 0.13099679 -0.2500791
-0.30489954 0.14798355 -0.24249041
0.22484297 0.14755625 -0.24942893
-0.30337059 0.16379693 -0.25352454
0.24160799 0.16422497 -0.24734491
-0.32028404 0.18051106 -0.25064909
0.25847989 0.18097261 -0.24465394
-0.33733711 0.19732213 -0.24715441
0.25739223 0.19678599 -0.25348461
-0.33611092 0.21312828 -0.25511867
0.27467054 0.21383338 -0.24748528
-0.35402015 0.23049322 -0.24628139
0.27377588 0.22968858 -0.25432187
-0.35304275 0.24639031 -0.25232738
0.29155627 0.24718146 -0.24498564
-0.37125516 0.26405862 -0.24222839
0.29084355 0.26314625 -0.25012916
-0.37052628 0.2801083 -0.24653238
0.29029435 0.2791771 -0.25409275
-0.36997136 0.29622614 -0.24980903
0.30852553 0.29722476 -0.24217808
-0.36957526 0.31242362 -0.25214773
0.3082737 0.31356645 -0.2438997
-0.36943161 0.32880306 -0.25299591
0.30817518 0.33003485 -0.24457353
-0.36952624 0.34538597 -0.25243711
0.30822223 0.34664619 -0.24425173
-0.36996457 0.36230558 -0.24984908
-0.35344341 0.36230558 -0.24984908
-0.33692223 0.36230558 -0.24984908
-0.32040104 0.36230558 -0.24984908
-0.30387989 0.36230558 -0.24984908
-0.2873587 0.36230558 -0.24984908
-0.27083755 0.36230558 -0.24984908
-0.25431636 0.36230558 -0.24984908
-0.23779519 0.36230558 -0.24984908
-0.22127402 0.36230558 -0.24984908
-0.20475285 0.36230558 -0.24984908
-0.18823166 0.36230558 -0.24984908
-0.17171049 0.36230558 -0.24984908
-0.15518932 0.36230558 -0.24984908
-0.13866815 0.36230558 -0.24984908
-0.12214698 0.36230558 -0.24984908
-0.10562581 0.36230558 -0.24984908
-0.08910463 0.36230558 -0.24984908
-0.072583459 0.36230558 -0.24984908
-0.056062285 0.36230558 -0.24984908
-0.03954111 0.36230558 -0.24984908
-0.023019936 0.36230558 -0.24984908
-0.0064987601 0.36230558 -0.24984908
0.010022417 0.36230558 -0.24984908
0.026543589 0.36230558 -0.24984908
0.043064762 0.36230558 -0.24984908
0.059585936 0.36230558 -0.24984908
0.076107107 0.36230558 -0.24984908
0.092628285 0.36230558 -0.24984908
0.10914946 0.36230558 -0.24984908
0.12567064 0.36230558 -0.24984908
0.14219181 0.36230558 -0.24984908
0.15871298 0.36230558 -0.24984908
0.17523415 0.36230558 -0.24984908
0.19175534 0.36230558 -0.24984908
0.20827651 0.36230558 -0.24984908
0.22479768 0.36230558 -0.24984908
0.24131885 0.36230558 -0.24984908
0.25784004 0.36230558 -0.24984908
0.27436119 0.36230558 -0.24984908
0.29088238 0.36230558 -0.24984908
0.30841798 0.36342677 -0.24291337
-0.05653533 0.01536096 -0.22936553
-0.023171417 0.01536096 -0.23017079
-0.039833728 0.015361001 -0.23084307
-0.0064987601 0.015361001 -0.22869229
-0.13977405 0.032020368 -0.23189133
-0.12287777 0.031986594 -0.23628742
-0.10605045 0.031952944 -0.24065542
0.043324195 0.031968646 -0.23861516
0.060065672 0.032002091 -0.23426926
0.07687512 0.032035742 -0.22989559
-0.18992127 0.048710566 -0.22989565
-0.17267339 0.048595913 -0.23734057
0.093025893 0.048535846 -0.2412405
0.11000923 0.048648987 -0.23389357
-0.22318926 0.065366484 -0.23071069
-0.20581955 0.065191209 -0.23830175
0.14322551 0.065269105 -0.23492885
-0.23934306 0.081887953 -0.23548663
0.15938112 0.081712991 -0.24116993
0.17686771 0.082039714 -0.23055792
-0.27341446 0.098772049 -0.2289269
-0.25552487 0.09836968 -0.23938322
0.19316736 0.098555252 -0.23456359
-0.28985661 0.11536957 -0.23076153
0.20948474 0.11504567 -0.23777568
-0.30661082 0.1320713 -0.23014027
0.22612612 0.13167344 -0.23752278
-0.32346117 0.14881882 -0.22892684
0.24288951 0.14836802 -0.23624671
-0.32176197 0.16469617 -0.24054432
0.25975022 0.16512601 -0.23434031
-0.33878884 0.18150598 -0.23772508
0.27701378 0.18213306 -0.22957975
-0.35662952 0.19876279 -0.23014021
0.27574405 0.19798864 -0.23928207
-0.35521373 0.21462671 -0.23889822
0.29346231 0.2153351 -0.23122996
-0.37331277 0.23211469 -0.23007911
0.29242077 0.23124734 -0.23874658
-0.37218243 0.24806875 -0.23675323
0.31037715 0.24884851 -0.22951853
0.30955911 0.26488036 -0.23511136
-0.39019012 0.28227663 -0.2289269
0.30892396 0.28098017 -0.23945397
-0.38963282 0.29854709 -0.23207444
-0.38927478 0.31492475 -0.23409665
-0.3890987 0.33142194 -0.23509115
-0.3891131 0.34806913 -0.23500997
-0.38930175 0.36487675 -0.2339443
-0.1238289 0.01536096 -0.21863663
-0.073259741 0.015360919 -0.22788596
0.010196676 0.01536096 -0.22721183
-0.10685481 0.015361042 -0.22324038
-0.090007015 0.015361001 -0.22640449
0.026914934 0.015361001 -0.22572941
0.043726433 0.015361001 -0.22119784
0.060611144 0.015361042 -0.21655446
-0.17398727 0.032109793 -0.22027272
-0.15673855 0.032054309 -0.22748768
0.093791969 0.032076102 -0.2246545
0.11093245 0.032136902 -0.21676081
-0.20730561 0.048828736 -0.22221434
0.12711382 0.048764132 -0.2264145
0.1443443 0.04888165 -0.21878082
-0.24105696 0.065623492 -0.21958363
0.16057286 0.065482423 -0.2256884
0.17821437 0.065737329 -0.21465433
-0.25721967 0.082219914 -0.22470582
0.19452737 0.08236967 -0.21984088
-0.29177526 0.099265806 -0.21610034
0.21084599 0.09895511 -0.22417307
-0.3085219 0.11603536 -0.21634817
0.22754717 0.11566639 -0.2243371
-0.3253659 0.13283834 -0.21590424
0.24432743 0.13241325 -0.2237941
0.26119065 0.1492057 -0.2226454
-0.34051603 0.16566874 -0.22650659
0.27849436 0.16623969 -0.21826577
-0.35828951 0.1828803 -0.21987164
0.29469019 0.1994209 -0.22236842
-0.37466207 0.21617731 -0.22211176
0.31254816 0.21686432 -0.21467495
0.31136891 0.23284936 -0.22273785
-0.39197922 0.25000125 -0.21882194
-0.39096469 0.2660996 -0.22455209
0.32922876 0.26715666 -0.21539819
0.3285147 0.28337172 -0.22003621
0.32799456 0.29968029 -0.22341478
0.32765236 0.31609696 -0.2256372
-0.40940425 0.31754008 -0.2152226
-0.40911433 0.33409837 -0.21679169
0.32746658 0.33262801 -0.22684395
-0.40902668 0.3508009 -0.21726608
0.32744142 0.34930113 -0.22700751
-0.40939853 0.36789826 -0.21525353
0.32757679 0.36614031 -0.22612822
-0.10776623 -0.0015168795 -0.20350748
-0.090744689 -0.0014882172 -0.20723915
-0.073845871 -0.0014757859 -0.20885092
-0.056971926 -0.0014633974 -0.21046031
-0.040122956 -0.0014511282 -0.21205705
-0.023316203 -0.001456487 -0.21136266
-0.0064987601 -0.0014688754 -0.20975459
0.010343378 -0.0014811838 -0.20815456
0.027214037 -0.0014954535 -0.20630223
0.044183731 -0.0015332354 -0.20139623
-0.17547584 0.01536096 -0.20093584
-0.15800887 0.015360919 -0.20915222
0.077570103 0.01536096 -0.21183938
-0.14088206 0.015361001 -0.21389955
0.094668008 0.015361042 -0.20568758
-0.20896426 0.032233115 -0.20425898
-0.19141164 0.032171208 -0.21229517
0.12819739 0.032197993 -0.20881969
0.14558861 0.03225949 -0.20082068
-0.24295956 0.04914109 -0.20192957
-0.22490577 0.048962038 -0.2135582
0.16189381 0.049039483 -0.2085287
-0.25910801 0.065882809 -0.20835209
0.19603619 0.065994725 -0.20350742
-0.27527556 0.08255519 -0.21381694
0.21243343 0.082724713 -0.20831043
0.22914784 0.099520445 -0.20948452
-0.32748175 0.11672403 -0.20143801
0.245933 0.11633362 -0.20988953
0.26279503 0.13317703 -0.20961964
-0.3424809 0.14975379 -0.21374428
0.28017044 0.15026411 -0.20545828
-0.36022234 0.16695675 -0.20791531
-0.37815443 0.18429537 -0.20149046
0.29613048 0.18348838 -0.21197414
-0.37625089 0.20023701 -0.21273011
0.31396788 0.20089433 -0.20496821
-0.39484054 0.21797405 -0.20266134
-0.39324486 0.23395662 -0.21167362
0.33130884 0.23493591 -0.20188773
0.33015522 0.25101879 -0.20938075
-0.41158792 0.26854175 -0.20340306
-0.41062173 0.28477633 -0.20863271
-0.40990105 0.30110422 -0.21253347
0.34787831 0.30223763 -0.2038728
0.34740984 0.31871122 -0.20677078
0.3472887 0.33545443 -0.20752013
0.3473863 0.35239434 -0.20691663
0.34768271 0.36954242 -0.20508313
-0.40999672 0.38523412 -0.21201551
-0.392946 0.38500619 -0.21336156
-0.37614393 0.38500619 -0.21336156
-0.35934192 0.38500619 -0.21336156
-0.34253985 0.38500619 -0.21336156
-0.32573777 0.38500619 -0.21336156
-0.30893573 0.38500619 -0.21336156
-0.29213369 0.38500619 -0.21336156
-0.27533162 0.38500619 -0.21336156
-0.25852957 0.38500619 -0.21336156
-0.24172752 0.38500619 -0.21336156
-0.22492547 0.38500619 -0.21336156
-0.2081234 0.38500619 -0.21336156
-0.19132134 0.38500619 -0.21336156
-0.1745193 0.38500619 -0.21336156
-0.15771724 0.38500619 -0.21336156
-0.14091519 0.38500619 -0.21336156
-0.12411314 0.38500619 -0.21336156
-0.10731108 0.38500619 -0.21336156
-0.090509035 0.38500619 -0.21336156
-0.073706977 0.38500619 -0.21336156
-0.056904923 0.38500619 -0.21336156
-0.040102869 0.38500619 -0.21336156
-0.023300814 0.38500619 -0.21336156
-0.0064987601 0.38500619 -0.21336156
0.010303294 0.38500619 -0.21336156
0.027105348 0.38500619 -0.21336156
0.0439074 0.38500619 -0.21336156
0.060709454 0.38500619 -0.21336156
0.077511512 0.38500619 -0.21336156
0.094313562 0.38500619 -0.21336156
0.11111562 0.38500619 -0.21336156
0.12791768 0.38500619 -0.21336156
0.14471973 0.38500619 -0.21336156
0.16152179 0.38500619 -0.21336156
0.17832384 0.38500619 -0.21336156
0.19512589 0.38500619 -0.21336156
0.21192797 0.38500619 -0.21336156
0.22873001 0.38500619 -0.21336156
0.24553207 0.38500619 -0.21336156
0.26233411 0.38500619 -0.21336156
0.27913618 0.38500619 -0.21336156
0.29593822 0.38500619 -0.21336156
0.31274027 0.38500619 -0.21336156
0.32954234 0.38500619 -0.21336156
0.34814346 0.38689092 -0.20223284
-0.074511811 -0.018645577 -0.18722385
-0.05746967 -0.018619612 -0.1889075
-0.040453482 -0.01859377 -0.19058853
-0.023481408 -0.018604279 -0.18990165
-0.0064987601 -0.018630203 -0.18821955
-0.15947528 -0.0016363999 -0.18798649
-0.14213246 -0.001593261 -0.19359553
-0.12491088 -0.0015550712 -0.19855738
0.061229318 -0.0015710974 -0.19647861
0.07835146 -0.0016090861 -0.19153899
-0.1930808 0.01536096 -0.19258362
0.11197387 0.01536096 -0.19743454
0.12940998 0.015361001 -0.18912959
-0.22682975 0.03230954 -0.19433278
0.16338146 0.032349039 -0.18920368
-0.26123238 0.049325421 -0.18995452
0.17970987 0.049217105 -0.19699353
-0.27736577 0.066148594 -0.19684637
0.21424395 0.066301599 -0.19021881
-0.29396814 0.083000876 -0.19934386
0.23096134 0.083206676 -0.19265747
-0.31067926 0.099855497 -0.20077878
0.2477366 0.10010611 -0.19426972
0.2645832 0.11701666 -0.19510114
-0.3446964 0.13373016 -0.19935423
0.28205556 0.13417754 -0.19105333
-0.36241466 0.15094799 -0.19435394
-0.38033199 0.16829281 -0.18863237
0.29780945 0.16751502 -0.19985729
0.31562823 0.18490148 -0.19361663
-0.39675558 0.20200555 -0.19184512
0.33272508 0.21889527 -0.19268912
-0.41434032 0.23627517 -0.18850541
-0.41281286 0.25237763 -0.19677293
0.35052353 0.25337586 -0.18750989
0.34942225 0.26959026 -0.19432229
0.34854272 0.28586879 -0.199763
-0.43113214 0.30411172 -0.18955272
-0.4306666 0.32076195 -0.19197172
-0.43045551 0.3375681 -0.19306868
-0.43048796 0.35455245 -0.19289994
-0.43075594 0.37173703 -0.1915074
-0.43124408 0.38913679 -0.18897092
-0.12613693 -0.018821362 -0.17580473
-0.10879713 -0.018738478 -0.18118817
-0.091579981 -0.018671501 -0.18553746
0.010509808 -0.018656127 -0.18653476
0.02755302 -0.018690802 -0.18428445
0.044699926 -0.018771477 -0.17904431
0.061931908 -0.018854357 -0.17366123
-0.1771594 -0.0017050533 -0.17906576
0.095649712 -0.0016637137 -0.18443322
0.11315845 -0.001732857 -0.17545146
-0.210834 0.015361001 -0.18401885
0.1470315 0.015361042 -0.17999411
-0.24513064 0.032406077 -0.18178457
0.18142705 0.032445088 -0.17671448
-0.27986252 0.049531419 -0.17657536
0.19774814 0.049402129 -0.18497491
-0.29644594 0.066528089 -0.18040997
0.23300049 0.066682279 -0.17373639
-0.31310913 0.083496623 -0.18324262
0.24975875 0.083696246 -0.17675734
-0.32986328 0.10045694 -0.18515539
0.2667188 0.10074145 -0.17776239
-0.34719825 0.11757083 -0.1831044
0.28422913 0.11797081 -0.17444414
-0.36492926 0.13483785 -0.17879874
-0.38279843 0.15219718 -0.17406887
0.29971719 0.15145689 -0.18608922
0.31756297 0.16886395 -0.18038869
-0.39903712 0.18602979 -0.17895895
0.33441705 0.20286474 -0.18169951
-0.41618687 0.2202051 -0.17851043
0.35187823 0.23721343 -0.17912978
-0.43296349 0.27123979 -0.18003678
-0.43188646 0.28760907 -0.18563306
0.36982995 0.2890546 -0.17389733
0.36909029 0.30558896 -0.17826468
0.36859882 0.32225895 -0.18116683
0.36834636 0.33909085 -0.18265748
0.36831573 0.35610142 -0.18283856
0.36849782 0.37331218 -0.18176341
0.36885887 0.39071867 -0.17963135
-0.43382326 0.40849948 -0.17556924
-0.41673028 0.40849948 -0.17556924
-0.39963731 0.40849948 -0.17556924
-0.38254434 0.40849948 -0.17556924
-0.36545134 0.40849948 -0.17556924
-0.34835836 0.40849948 -0.17556924
-0.33126539 0.40849948 -0.17556924
-0.31417242 0.40849948 -0.17556924
-0.29707941 0.40849948 -0.17556924
-0.27998644 0.40849948 -0.17556924
-0.26289347 0.40849948 -0.17556924
-0.24580048 0.40849948 -0.17556924
-0.22870751 0.40849948 -0.17556924
-0.21161452 0.40849948 -0.17556924
-0.19452155 0.40849948 -0.17556924
-0.17742854 0.40849948 -0.17556924
-0.16033559 0.40849948 -0.17556924
-0.1432426 0.40849948 -0.17556924
-0.12614962 0.40849948 -0.17556924
-0.10905664 0.40849948 -0.17556924
-0.091963664 0.40849948 -0.17556924
-0.074870683 0.40849948 -0.17556924
-0.057777703 0.40849948 -0.17556924
-0.040684722 0.40849948 -0.17556924
-0.02359174 0.40849948 -0.17556924
-0.0064987601 0.40849948 -0.17556924
0.010594221 0.40849948 -0.17556924
0.027687201 0.40849948 -0.17556924
0.04478018 0.40849948 -0.17556924
0.06187316 0.40849948 -0.17556924
0.078966141 0.40849948 -0.17556924
0.096059121 0.40849948 -0.17556924
0.1131521 0.40849948 -0.17556924
0.13024509 0.40849948 -0.17556924
0.14733808 0.40849948 -0.17556924
0.16443104 0.40849948 -0.17556924
0.18152404 0.40849948 -0.17556924
0.19861701 0.40849948 -0.17556924
0.21571 0.40849948 -0.17556924
0.23280297 0.40849948 -0.17556924
0.24989596 0.40849948 -0.17556924
0.26698893 0.40849948 -0.17556924
0.28408191 0.40849948 -0.17556924
0.30117491 0.40849948 -0.17556924
0.31826788 0.40849948 -0.17556924
0.33536085 0.40849948 -0.17556924
0.35245383 0.40849948 -0.17556924
0.36986449 0.40883166 -0.17369342
-0.10970023 -0.036239799 -0.16163504
-0.092358314 -0.036154747 -0.16531599
-0.075145155 -0.036123835 -0.16665554
-0.057952661 -0.036092963 -0.16799325
-0.040780954 -0.036062378 -0.1693188
-0.023643836 -0.036074236 -0.16880178
-0.0064987601 -0.036104906 -0.16747558
0.010666829 -0.036135774 -0.16613722
0.027863206 -0.036182024 -0.16413724
0.045137815 -0.036275618 -0.16008312
-0.16118534 -0.019013826 -0.16330391
-0.1435619 -0.018904816 -0.17038447
0.079248197 -0.018937815 -0.16824138
0.096795462 -0.019070458 -0.15962696
-0.21299291 -0.0018467745 -0.16064781
-0.19499885 -0.001775342 -0.16993254
0.13081132 -0.0018027788 -0.1663748
-0.22905743 0.015361042 -0.17207247
0.16509813 0.015361042 -0.16690379
-0.26365003 0.032504417 -0.16901731
0.19967903 0.032542404 -0.16407228
0.21629456 0.049636874 -0.16972792
-0.31587496 0.066923693 -0.16328222
-0.33260703 0.084015347 -0.16639626
-0.3501201 0.10126626 -0.16412646
-0.36777055 0.11858149 -0.16122282
0.30186945 0.13528199 -0.17055666
0.31986555 0.15277755 -0.16464567
-0.40167478 0.16999507 -0.16406143
0.33643594 0.18682832 -0.16858625
-0.41847289 0.20418248 -0.16613716
0.35358793 0.22112477 -0.16855395
-0.4363234 0.23886979 -0.16257811
-0.43444249 0.25500944 -0.17235184
0.37219888 0.25635028 -0.15990943
0.37086269 0.2726528 -0.16779912
-0.4538658 0.30787015 -0.16083229
-0.45313287 0.32456923 -0.16449428
-0.45271114 0.34143928 -0.16660136
-0.45262685 0.35853645 -0.16702241
-0.45319352 0.37615284 -0.16419137
-0.45404616 0.39405495 -0.15993118
-0.1102582 -0.053811979 -0.14955473
-0.092818387 -0.053694729 -0.15336293
-0.075512774 -0.053653102 -0.15471673
-0.058228038 -0.053611416 -0.15606898
-0.040964156 -0.053569753 -0.1574195
-0.023735397 -0.053585555 -0.15690786
-0.0064987601 -0.053627204 -0.15555656
0.010758692 -0.053668763 -0.15420383
0.028047936 -0.053732406 -0.15213877
0.045415919 -0.053858597 -0.14804089
-0.16225801 -0.036558736 -0.14782143
-0.1446041 -0.036428504 -0.15346122
-0.12712 -0.036333885 -0.157561
0.062475294 -0.036369581 -0.1560145
0.079875983 -0.036463913 -0.15193087
-0.19703212 -0.019281447 -0.14592046
-0.17911361 -0.019161969 -0.15367973
0.11450905 -0.019212753 -0.15038741
-0.23163496 -0.0019571772 -0.14631629
0.14873591 -0.0018873373 -0.15539306
-0.24761815 0.01536096 -0.15870321
0.18339053 0.01536096 -0.15352678
-0.28277674 0.032628354 -0.15291494
-0.29928091 0.049805991 -0.15874672
0.23535879 0.049912058 -0.15185434
0.25208852 0.067078374 -0.15658104
0.26922709 0.084292449 -0.15739775
0.28670657 0.10159783 -0.15551305
0.30431548 0.11896569 -0.15290397
-0.38562176 0.13599098 -0.15739769
0.32256898 0.1365965 -0.14616239
-0.40478748 0.15389615 -0.14648104
0.33878478 0.17073853 -0.15333021
-0.42112583 0.18812223 -0.15177768
0.35559916 0.20503134 -0.15611243
-0.43869054 0.22281303 -0.15027791
0.37392098 0.24015436 -0.14974099
-0.4563469 0.27488878 -0.14843607
-0.45491952 0.29131219 -0.15556747
0.3911798 0.30929729 -0.14992732
0.39055604 0.32609949 -0.15345025
0.39040717 0.34323975 -0.15429109
0.39053863 0.3606109 -0.15354854
0.39094904 0.37824818 -0.15123063
0.39159152 0.39614296 -0.14760178
-0.45515972 0.41225344 -0.15436757
-0.041336834 -0.089153245 -0.13321316
-0.023921564 -0.089175873 -0.13272375
-0.12843381 -0.071735516 -0.13317978
-0.11082172 -0.071574807 -0.13735408
-0.093283415 -0.071423635 -0.14128107
-0.075884342 -0.071371056 -0.14264941
-0.058506388 -0.071318388 -0.14401627
-0.041149493 -0.071265861 -0.14538145
-0.023827937 -0.071284942 -0.1448862
-0.0064987601 -0.071337461 -0.14352041
0.010851458 -0.071390107 -0.14215302
0.028234666 -0.07147254 -0.14001042
0.045697037 -0.071632028 -0.13586819
-0.1631169 -0.05424704 -0.13542426
-0.14535286 -0.05406611 -0.14130306
-0.12777336 -0.053938862 -0.14543641
0.06284745 -0.05398519 -0.14392817
0.080342889 -0.054112393 -0.13980025
0.09803088 -0.054325465 -0.13287932
-0.19808368 -0.036889449 -0.13350224
-0.18011397 -0.036723599 -0.1406846
0.097461566 -0.036619209 -0.14520538
0.11517017 -0.036782809 -0.13811839
-0.2151058 -0.019406855 -0.13777506
0.13223033 -0.019321274 -0.14333308
0.15021636 -0.01946459 -0.13402468
0.16709436 -0.0019983528 -0.14097178
-0.26645675 0.01536096 -0.14471012
0.20208271 0.015361001 -0.13805193
-0.30259618 0.032778416 -0.13341331
0.21868697 0.032682981 -0.14582145
-0.31907967 0.050092217 -0.14015412
0.25481763 0.050203189 -0.13294619
-0.33603996 0.067393839 -0.14292514
0.27212229 0.067602374 -0.1338914
-0.35345724 0.084752701 -0.14245099
0.28957248 0.085024737 -0.13361347
-0.37104967 0.10215883 -0.14093858
0.30716109 0.10248873 -0.13236761
-0.38926417 0.1197515 -0.13589031
0.34149203 0.15455724 -0.13574612
-0.42419228 0.17199595 -0.13518
0.35793611 0.18890136 -0.1416564
-0.44164106 0.20682365 -0.13494682
0.37611827 0.22406121 -0.13676661
-0.45827016 0.25862262 -0.13882691
0.3935551 0.27626568 -0.1365115
0.39220104 0.29271737 -0.14415944
0.39245275 0.41431242 -0.14273763
-0.45874023 0.43281463 -0.13647825
-0.44134632 0.43281463 -0.13647825
-0.4239524 0.43281463 -0.13647825
-0.40655851 0.43281463 -0.13647825
-0.3891646 0.43281463 -0.13647825
-0.37177071 0.43281463 -0.13647825
-0.35437679 0.43281463 -0.13647825
-0.33698291 0.43281463 -0.13647825
-0.31958902 0.43281463 -0.13647825
-0.3021951 0.43281463 -0.13647825
-0.28480121 0.43281463 -0.13647825
-0.2674073 0.43281463 -0.13647825
-0.25001341 0.43281463 -0.13647825
-0.23261949 0.43281463 -0.13647825
-0.21522558 0.43281463 -0.13647825
-0.19783168 0.43281463 -0.13647825
-0.18043777 0.43281463 -0.13647825
-0.16304389 0.43281463 -0.13647825
-0.14564998 0.43281463 -0.13647825
-0.12825608 0.43281463 -0.13647825
-0.11086217 0.43281463 -0.13647825
-0.093468271 0.43281463 -0.13647825
-0.076074377 0.43281463 -0.13647825
-0.058680467 0.43281463 -0.13647825
-0.041286569 0.43281463 -0.13647825
-0.023892663 0.43281463 -0.13647825
-0.0064987601 0.43281463 -0.13647825
0.010895144 0.43281463 -0.13647825
0.028289048 0.43281463 -0.13647825
0.045682944 0.43281463 -0.13647825
0.063076854 0.43281463 -0.13647825
0.080470748 0.43281463 -0.13647825
0.09786465 0.43281463 -0.13647825
0.11525856 0.43281463 -0.13647825
0.13265248 0.43281463 -0.13647825
0.15004638 0.43281463 -0.13647825
0.16744027 0.43281463 -0.13647825
0.18483417 0.43281463 -0.13647825
0.20222807 0.43281463 -0.13647825
0.21962199 0.43281463 -0.13647825
0.23701589 0.43281463 -0.13647825
0.25440979 0.43281463 -0.13647825
0.27180371 0.43281463 -0.13647825
0.28919759 0.43281463 -0.13647825
0.30659151 0.43281463 -0.13647825
0.3239854 0.43281463 -0.13647825
0.34137928 0.43281463 -0.13647825
0.3587732 0.43281463 -0.13647825
0.37616709 0.43281463 -0.13647825
0.39377317 0.433036 -0.13527995
-0.059072159 -0.1073103 -0.11951751
-0.041526217 -0.10723509 -0.12091255
-0.024016123 -0.10726056 -0.1204403
-0.0064987601 -0.10733572 -0.11904466
-0.12910151 -0.089727081 -0.12078893
-0.11139192 -0.089532204 -0.12500888
-0.093753487 -0.089344703 -0.1290682
-0.076259941 -0.089280814 -0.13045156
-0.058787741 -0.08921703 -0.1318332
-0.0064987601 -0.08923915 -0.13135421
0.010945227 -0.089302957 -0.1299721
0.028423423 -0.089405552 -0.12775034
0.045981213 -0.089599021 -0.12356293
0.063603953 -0.089793138 -0.11936003
-0.16398533 -0.072131574 -0.12288976
-0.14611045 -0.071896382 -0.12900132
0.063223653 -0.071792051 -0.13171071
0.080814861 -0.071952686 -0.12753785
0.098606981 -0.072227173 -0.12040651
-0.19914691 -0.054692898 -0.12094635
-0.1810744 -0.054469358 -0.12820834
0.11583918 -0.054546434 -0.12570322
0.13376008 -0.054768424 -0.11849272
-0.21628611 -0.03708588 -0.12499768
0.13299136 -0.036947798 -0.13097548
0.15109442 -0.037170071 -0.121351
-0.23355334 -0.019570492 -0.12714666
0.1684414 -0.019627042 -0.12347317
-0.25055122 -0.0020712977 -0.13148797
0.18569635 -0.0021113297 -0.12629652
-0.28623456 0.01536096 -0.1248408
0.23809148 0.032831695 -0.12649798
0.32574815 0.12028101 -0.12442619
-0.4083969 0.13767782 -0.12609506
0.36077768 0.17276509 -0.12407863
0.37876898 0.20799483 -0.12111497
-0.46068627 0.24245481 -0.12675524
0.39530233 0.25993556 -0.12664318
-0.47891647 0.31280911 -0.1230917
-0.47804111 0.32972258 -0.12730306
-0.47760466 0.34687993 -0.12940305
-0.47753975 0.36428022 -0.12971544
-0.47783443 0.38195536 -0.12829775
-0.47861111 0.40004513 -0.12456077
-0.077023476 -0.12568848 -0.10565531
-0.059359688 -0.12560157 -0.10706723
-0.041717667 -0.1255147 -0.10847753
-0.024111712 -0.12554266 -0.10802281
-0.0064987601 -0.12562956 -0.10661197
0.011135928 -0.12571654 -0.1051994
-0.12977596 -0.10791622 -0.10827303
-0.11196838 -0.10768694 -0.1125282
-0.094228677 -0.1074609 -0.11672246
-0.07663963 -0.10738554 -0.11812091
0.011040103 -0.10741103 -0.11764747
0.02861424 -0.1075345 -0.11535615
0.046268508 -0.10776258 -0.11112291
0.063988432 -0.10799164 -0.10687369
-0.16486342 -0.090215482 -0.11021519
-0.14687635 -0.089922264 -0.11656433
0.081294179 -0.089990571 -0.11508495
0.099188939 -0.090326741 -0.1078068
-0.20022199 -0.072695032 -0.1082502
-0.1820455 -0.072412439 -0.11559343
0.11651497 -0.072505996 -0.11316234
0.13453805 -0.072786987 -0.10586029
-0.21747985 -0.054966036 -0.11207497
0.15198238 -0.05507509 -0.1085344
-0.23484412 -0.037334077 -0.11424845
0.16942617 -0.037416551 -0.1106804
-0.25217536 -0.019735646 -0.11641777
0.1868373 -0.019791052 -0.11282259
-0.26962337 -0.0021806369 -0.11728656
0.20446037 -0.0022189477 -0.11231291
0.22151776 0.01536096 -0.1175347
-0.32303166 0.032946184 -0.111633
-0.34014499 0.050481606 -0.11485893
0.2755987 0.050623123 -0.10566658
-0.35743752 0.06800174 -0.11659825
0.29294974 0.068204835 -0.1078068
-0.374906 0.085533768 -0.11708343
0.31085616 0.085884273 -0.10570079
-0.3935855 0.10333522 -0.11037409
0.34465212 0.13826376 -0.11522055
-0.42780051 0.15579484 -0.11564988
-0.4452135 0.19084685 -0.11638391
-0.46369708 0.22637561 -0.1117124
0.3975009 0.24370858 -0.1142258
-0.48237249 0.27973533 -0.10646391
-0.48030129 0.2961328 -0.11642897
0.41622052 0.31478718 -0.10797721
0.41528979 0.33170247 -0.11301506
0.41478002 0.34887335 -0.11577415
0.41461527 0.36628941 -0.11666608
0.41516644 0.38431802 -0.11368275
0.41635081 0.40297312 -0.10727209
-0.48048434 0.41912645 -0.11554831
-0.48267323 0.43862712 -0.10501695
-0.095199637 -0.14430062 -0.09149605
-0.07741154 -0.14419277 -0.093052387
-0.05965038 -0.14409387 -0.094479978
-0.041911222 -0.14399512 -0.09590584
-0.02420844 -0.14402612 -0.095457554
-0.0064987601 -0.144125 -0.094031036
0.011232806 -0.14422314 -0.092614472
-0.14843366 -0.12657392 -0.091276884
-0.13045847 -0.12630725 -0.095607102
-0.11255122 -0.12604229 -0.099909425
-0.094710387 -0.12577765 -0.10420716
0.028807158 -0.12586266 -0.10282594
0.046558958 -0.12612633 -0.098545849
0.064377144 -0.12639081 -0.094249904
-0.16575138 -0.10850222 -0.097398758
-0.1476507 -0.10814698 -0.10399044
0.081781425 -0.10823125 -0.10242611
0.099777907 -0.10862853 -0.095055044
-0.20130815 -0.090898722 -0.095423102
-0.18302746 -0.090556197 -0.10283738
0.11719888 -0.090665556 -0.10047036
0.13532397 -0.091006123 -0.093098462
-0.21868621 -0.073050477 -0.099015772
0.1528804 -0.073183 -0.09557265
-0.23614851 -0.055300552 -0.10121417
0.17042212 -0.055407356 -0.097743154
-0.25357741 -0.037584484 -0.10340828
0.18793076 -0.03766524 -0.099909365
-0.27117187 -0.019928806 -0.10387629
0.2056866 -0.020003267 -0.09903878
-0.28901222 -0.002296106 -0.1022889
0.22352478 -0.0023332359 -0.097479165
-0.30657214 0.01536096 -0.10303146
0.24137607 0.015361042 -0.096020818
0.25838929 0.033020154 -0.1020146
0.32954016 0.10379228 -0.098500073
-0.41270903 0.12132885 -0.1017403
0.36452755 0.15670435 -0.10088247
-0.44947541 0.17483258 -0.094238341
0.38192242 0.19191609 -0.10249466
-0.46735343 0.21033788 -0.09344393
0.40044361 0.22767879 -0.097605348
-0.48522469 0.26358926 -0.092741251
0.41763282 0.29811537 -0.10033303
0.41783172 0.42201099 -0.099256456
-0.48515284 0.45855927 -0.093086958
-0.46686071 0.45801684 -0.09590584
-0.4491545 0.45801684 -0.09590584
-0.43144825 0.45801684 -0.09590584
-0.41374204 0.45801684 -0.09590584
-0.39603582 0.45801684 -0.09590584
-0.37832955 0.45801684 -0.09590584
-0.36062333 0.45801684 -0.09590584
-0.34291711 0.45801684 -0.09590584
-0.32521087 0.45801684 -0.09590584
-0.30750465 0.45801684 -0.09590584
-0.28979844 0.45801684 -0.09590584
-0.27209219 0.45801684 -0.09590584
-0.25438598 0.45801684 -0.09590584
-0.23667973 0.45801684 -0.09590584
-0.2189735 0.45801684 -0.09590584
-0.20126729 0.45801684 -0.09590584
-0.18356104 0.45801684 -0.09590584
-0.16585481 0.45801684 -0.09590584
-0.14814858 0.45801684 -0.09590584
-0.13044237 0.45801684 -0.09590584
-0.11273614 0.45801684 -0.09590584
-0.095029905 0.45801684 -0.09590584
-0.077323683 0.45801684 -0.09590584
-0.059617449 0.45801684 -0.09590584
-0.041911222 0.45801684 -0.09590584
-0.02420499 0.45801684 -0.09590584
-0.0064987601 0.45801684 -0.09590584
0.011207471 0.45801684 -0.09590584
0.028913701 0.45801684 -0.09590584
0.046619926 0.45801684 -0.09590584
0.06432616 0.45801684 -0.09590584
0.082032382 0.45801684 -0.09590584
0.099738613 0.45801684 -0.09590584
0.11744485 0.45801684 -0.09590584
0.13515107 0.45801684 -0.09590584
0.1528573 0.45801684 -0.09590584
0.17056353 0.45801684 -0.09590584
0.18826978 0.45801684 -0.09590584
0.20597599 0.45801684 -0.09590584
0.22368222 0.45801684 -0.09590584
0.24138847 0.45801684 -0.09590584
0.25909469 0.45801684 -0.09590584
0.27680093 0.45801684 -0.09590584
0.29450715 0.45801684 -0.09590584
0.31221336 0.45801684 -0.09590584
0.32991961 0.45801684 -0.09590584
0.34762582 0.45801684 -0.09590584
0.36533204 0.45801684 -0.09590584
0.38303831 0.45801684 -0.09590584
0.40074453 0.45801684 -0.09590584
-0.095694348 -0.16303016 -0.078643262
0.02919942 -0.16312993 -0.077347696
-0.077803902 -0.16290189 -0.080310047
-0.059944279 -0.16279078 -0.081753612
-0.042106915 -0.16267984 -0.08319515
-0.024306146 -0.16271287 -0.082765281
-0.0064987601 -0.16282392 -0.081322968
0.011330845 -0.16293503 -0.079879105
-0.14922464 -0.14520559 -0.078433216
-0.13114858 -0.14490309 -0.082800031
-0.11314053 -0.14460169 -0.087150455
