ply
format ascii 1.0
comment PCL generated
element vertex 1359
property float x
property float y
property float z
element camera 0
property float view_px
property float view_py
property float view_pz
property float x_axisx
property float x_axisy
property float x_axisz
property float y_axisx
property float y_axisy
property float y_axisz
property float z_axisx
property float z_axisy
property float z_axisz
property float focal
property float scalex
property float scaley
property float centerx
property float centery
property int viewportx
property int viewporty
property float k1
property float k2
end_header
0.55115443 0.3163957 -0.20781326
0.48822659 0.3352581 -0.21750391
0.45059323 0.33688909 -0.2057333
0.46937865 0.33602753 -0.21194994
0.54935294 0.33564711 -0.21469605
-0.31741321 0.3562741 -0.21144879
0.41013408 0.35709819 -0.20581472
0.42795426 0.35546938 -0.21695077
0.32951242 0.37754509 -0.20434463
0.34843171 0.37645119 -0.21144891
-0.25706232 0.39726007 -0.20754147
0.26896805 0.39793545 -0.20336354
0.086784974 0.41811699 -0.20370436
0.12708537 0.41782427 -0.20543385
0.14632078 0.41627148 -0.2146014
-0.055166088 0.49715355 -0.21324933
-0.075091913 0.7623626 -0.20296824
-0.25759366 -0.5344851 -0.19603717
0.250278 -0.53511363 -0.19277096
0.31081754 -0.51433116 -0.19526947
-0.31814823 -0.49304324 -0.20083964
0.37266392 -0.49489549 -0.19037807
0.39161831 -0.49367043 -0.19729757
0.43221104 -0.47340056 -0.19720185
0.47295547 -0.45323336 -0.19646204
0.4919427 -0.45234919 -0.2019316
0.57354766 -0.45271125 -0.19969189
0.51506966 -0.43389663 -0.19025409
0.53390259 -0.43298304 -0.19618809
0.55345184 -0.43254471 -0.19903553
0.57354403 -0.43244156 -0.19970548
0.55579346 -0.41358054 -0.19008887
0.57548273 -0.4132264 -0.19251001
-0.48142195 -0.3320348 -0.19164383
-0.50191927 -0.29149678 -0.19043303
-0.52243745 -0.2509228 -0.18920743
-0.5420785 -0.18959481 -0.19380116
-0.54102647 -0.16891359 -0.2006346
-0.56290931 -0.067766383 -0.19059813
-0.54090452 0.033671714 -0.20142663
-0.5419454 0.054134142 -0.19466591
-0.54299164 0.074702054 -0.18787026
-0.52201068 0.11519006 -0.19212508
-0.50152302 0.15576088 -0.19329309
-0.48105162 0.19629459 -0.19447386
0.55611795 0.27817518 -0.18884921
0.57579386 0.27788588 -0.19135511
0.51565015 0.29864347 -0.18789804
0.53428572 0.29780829 -0.19467962
0.55372757 0.2974014 -0.19798207
0.57354033 0.29718739 -0.19971919
-0.37971437 0.31842712 -0.19228995
0.47344315 0.31815749 -0.19435024
0.49240869 0.31742087 -0.19997883
0.57354766 0.31745848 -0.19969189
0.43278724 0.33844155 -0.1945287
0.39216149 0.35874084 -0.19458354
0.31181151 0.3798458 -0.1894002
0.10771351 0.41938528 -0.19621539
-0.11553338 0.45976654 -0.1973387
-0.095248699 0.7640323 -0.19740725
-0.054659717 0.76421303 -0.19680452
-0.034130983 0.76607639 -0.19059813
-0.11546431 0.78710121 -0.18836665
-0.11550012 0.80598783 -0.19301832
-0.11553591 0.82480371 -0.19766736
-0.11546771 0.84801954 -0.18880773
0.21219768 -0.53888047 -0.17319775
0.2315404 -0.53731263 -0.18134451
0.29300457 -0.51717532 -0.17987454
0.35379905 -0.49630854 -0.18239748
0.39599007 -0.47708356 -0.17545497
0.4141764 -0.47523558 -0.1863662
-0.38028967 -0.45491454 -0.18606246
0.43691945 -0.45664504 -0.17535746
0.45493841 -0.45488101 -0.1862694
-0.4011898 -0.4353537 -0.18079019
0.47785187 -0.43620515 -0.17526007
0.49604625 -0.43474624 -0.18473589
-0.42217189 -0.41571271 -0.17551064
0.51851302 -0.41560084 -0.17627609
0.53691363 -0.41442207 -0.18433499
0.59801751 -0.41439387 -0.18452847
0.55831438 -0.39457354 -0.18045735
0.57790893 -0.39415127 -0.18350482
0.5980137 -0.3940075 -0.1845423
0.58034801 -0.37494373 -0.17445219
0.60013103 -0.37462315 -0.17690194
-0.54313821 -0.21038471 -0.18691826
-0.56514812 -0.10886808 -0.17674911
-0.56402469 -0.088263407 -0.18369865
-0.56386143 -0.047474124 -0.18470824
-0.56496608 -0.02709106 -0.17787504
-0.46339011 0.23906036 -0.17298853
0.58075368 0.23906459 -0.17294669
0.60052818 0.23881204 -0.1754688
-0.44235587 0.2590099 -0.17784727
0.55880117 0.25892895 -0.17859745
0.57826704 0.25854343 -0.18217587
0.59800982 0.25828683 -0.18455601
-0.4213984 0.27888677 -0.18268824
0.51898628 0.27984887 -0.17435467
0.53736007 0.27889943 -0.18257749
0.5980137 0.27867264 -0.1845423
-0.40051854 0.29869279 -0.18749785
0.49664724 0.29934317 -0.18221748
0.4556421 0.31962743 -0.18311739
-0.36018991 0.34006104 -0.18284047
0.41483438 0.34001133 -0.18320048
0.35511255 0.36156315 -0.17528784
0.37351304 0.36000136 -0.18596566
-0.29923782 0.38145566 -0.17894471
0.29418319 0.3824349 -0.17258394
0.25116229 0.40062514 -0.18672514
-0.11535377 0.77105761 -0.17400646
-0.013505988 0.76794422 -0.18437636
0.19273742 -0.54046071 -0.16498661
-0.30033886 -0.52065027 -0.16106617
0.27498245 -0.52005303 -0.16429889
0.33615077 -0.49906099 -0.16685164
-0.3616198 -0.47869241 -0.16595459
0.37811279 -0.47935119 -0.16206491
0.41875422 -0.45842588 -0.16434109
0.45985568 -0.43790138 -0.16424274
0.50061524 -0.41716388 -0.16558981
-0.44323772 -0.39599347 -0.17021024
0.52148414 -0.39682418 -0.16421473
0.53995198 -0.39569351 -0.17237473
-0.46438259 -0.37618983 -0.16493046
0.5430178 -0.37679499 -0.16030598
0.56145394 -0.37572771 -0.16846192
0.62276685 -0.37563065 -0.1692034
-0.48561335 -0.35630924 -0.15961587
0.58301932 -0.35570297 -0.16453767
0.60265625 -0.35530242 -0.16778994
0.62277085 -0.35512996 -0.16918945
0.60519487 -0.33584696 -0.15862942
0.62507248 -0.33556074 -0.16110849
-0.50511891 -0.31432432 -0.16734171
-0.52581799 -0.27340618 -0.16609466
-0.54653859 -0.23245086 -0.16483235
-0.56740826 -0.15040226 -0.16276777
-0.56627524 -0.12958062 -0.1697768
-0.56607646 -0.0066026878 -0.17100656
-0.56719255 0.01399203 -0.16410244
-0.54592377 0.095940247 -0.16882575
-0.52524668 0.13687845 -0.17000043
-0.50458401 0.17777835 -0.17120218
0.62539732 0.19921643 -0.15996802
-0.48450148 0.21903764 -0.16811204
0.58362114 0.21957414 -0.16230392
0.60309887 0.21921493 -0.16619289
0.62290233 0.21898061 -0.16872787
0.54360133 0.24055938 -0.15800881
0.56201118 0.23972632 -0.16633308
0.62276685 0.23943903 -0.16920328
0.54046631 0.25981775 -0.17034984
0.5221523 0.26077133 -0.16150236
0.50125176 0.281169 -0.1629225
0.46077538 0.30206439 -0.16012299
0.47869229 0.30064839 -0.17162097
0.41961634 0.3226274 -0.16019332
0.43770379 0.32111919 -0.17171872
0.39672667 0.34159443 -0.17177451
0.33766639 0.36404905 -0.15829086
0.21400456 0.40504405 -0.15939033
0.2331297 0.40334916 -0.16987467
-0.17682722 0.44450197 -0.16897953
-0.13581912 0.79646194 -0.15796661
-0.13581912 0.81555307 -0.1627115
-0.13581912 0.83457208 -0.16745389
-0.011837617 -0.54368061 -0.14825535
0.15345113 -0.54364514 -0.14843988
0.17315502 -0.54204798 -0.15673888
0.25674945 -0.52296722 -0.14852512
0.31829655 -0.50184846 -0.15110803
0.36109847 -0.48259887 -0.14288819
0.40070707 -0.46043912 -0.15188766
0.44170964 -0.43961164 -0.15313387
0.48298454 -0.41900015 -0.15303469
0.50417948 -0.39870319 -0.1506542
0.52516711 -0.37824017 -0.1492635
0.54617661 -0.35775569 -0.14787149
0.56462204 -0.35671055 -0.15635753
-0.5083769 -0.33755589 -0.14382923
0.56782275 -0.33752137 -0.14412856
0.58629405 -0.33656824 -0.15238321
0.64780843 -0.33641776 -0.15368581
0.60724396 -0.3160601 -0.1512357
0.62667519 -0.31560245 -0.1554817
0.64781255 -0.31579754 -0.15367174
-0.52925813 -0.29628623 -0.14257419
0.60923326 -0.29613784 -0.14405715
0.6282441 -0.29554573 -0.14997327
0.64780843 -0.29517427 -0.15368581
0.62981957 -0.27540639 -0.14444208
0.64934713 -0.27503842 -0.1484257
0.65096706 -0.25484502 -0.14288807
-0.56968778 -0.19237444 -0.14866698
-0.56854498 -0.17133312 -0.15573609
-0.59090698 -0.068462729 -0.14536798
-0.56831902 0.034694623 -0.15713418
-0.56944913 0.055505048 -0.1501435
-0.57058746 0.07642515 -0.14310205
-0.54939067 0.11765887 -0.14630723
0.63016468 0.13852713 -0.14323044
0.64968389 0.13827795 -0.14727449
-0.52853739 0.15893334 -0.14750195
0.60967189 0.15928169 -0.14247429
0.62857163 0.15884185 -0.14882338
0.64804858 0.15856183 -0.15286469
0.60765666 0.17942995 -0.14974618
0.6269812 0.17907114 -0.15440726
0.64780843 0.17912664 -0.15368581
0.6056875 0.19948034 -0.15685189
-0.50769866 0.20016862 -0.14872396
0.58696634 0.20006998 -0.14988816
0.64780843 0.19974838 -0.15368581
0.54699349 0.22120449 -0.1446557
0.56525093 0.22034544 -0.15395463
0.52594793 0.2417518 -0.14609385
0.50492489 0.26227716 -0.14753032
0.48392105 0.28277904 -0.14897954
0.44270611 0.30349469 -0.14851081
-0.40503424 0.3249594 -0.1423744
0.40196919 0.32453969 -0.14558148
0.37921387 0.34373254 -0.15634346
-0.34234452 0.36530718 -0.14968944
0.2763291 0.38505712 -0.15555227
-0.2806083 0.40727633 -0.14558148
0.19460408 0.40658927 -0.1498313
-0.13581912 0.77791518 -0.15116465
0.0098561049 -0.5473597 -0.12913823
0.11367443 -0.54686922 -0.13168657
0.13362466 -0.54525226 -0.14008927
0.23829769 -0.52591348 -0.13257813
0.30022794 -0.50466651 -0.13519168
-0.40625793 -0.46395385 -0.1301465
0.38379031 -0.46356308 -0.13256359
0.42347419 -0.4413825 -0.14163208
0.44657755 -0.42228892 -0.13054967
0.46485549 -0.42063659 -0.14184642
0.48669469 -0.40059951 -0.13696933
0.50778383 -0.38003474 -0.13555014
0.52889168 -0.3594465 -0.13414395
0.55002511 -0.33883858 -0.13272166
0.57117718 -0.31820723 -0.13131249
0.58924073 -0.31711519 -0.14144647
0.59119284 -0.29712424 -0.13420129
0.61123717 -0.27610984 -0.13682628
-0.55016106 -0.25497919 -0.14130366
0.61324793 -0.25597277 -0.12957036
0.63140559 -0.25518492 -0.1388737
0.67314786 -0.25526121 -0.13797212
0.63330519 -0.23496257 -0.13220406
0.65259361 -0.23456813 -0.13732767
0.67314357 -0.23451737 -0.1379863
-0.57108605 -0.21363401 -0.14001787
0.65423119 -0.21420829 -0.13172948
0.67381036 -0.21392864 -0.13576543
0.65541947 -0.19366768 -0.12766731
0.67480606 -0.19337319 -0.13244867
0.67536753 -0.17268871 -0.1305784
0.67592978 -0.15197554 -0.12870574
-0.5933336 -0.11027555 -0.13103902
-0.59211826 -0.089313701 -0.1382153
-0.59184206 -0.047819372 -0.13984621
-0.59303892 -0.027091149 -0.13277936
0.67606401 0.014543932 -0.12825882
0.67550159 0.035318233 -0.1301322
0.65555447 0.056211401 -0.12720561
0.67493993 0.056063663 -0.13200307
0.65462679 0.076914936 -0.13037694
0.67419797 0.076757237 -0.13447416
0.63380516 0.097712845 -0.13044894
0.65297091 0.097454697 -0.13603783
0.67313921 0.097364038 -0.13800073
0.61374336 0.11865717 -0.1277827
0.63176847 0.11812806 -0.13759959
0.65132606 0.11790934 -0.14166081
0.67314357 0.11810739 -0.13798618
0.61170208 0.13902475 -0.13514853
0.59165341 0.15997313 -0.13249183
0.57179528 0.18103079 -0.12895083
0.58967572 0.1801931 -0.1398319
0.55095381 0.2018332 -0.12906599
0.56852478 0.20078494 -0.14144659
0.52978414 0.22251011 -0.13052082
0.50863725 0.24316473 -0.13197422
-0.46900773 0.264449 -0.12737882
0.48751307 0.26379722 -0.13342583
-0.44760472 0.28469455 -0.1323911
0.46600181 0.28419557 -0.1367116
-0.4262808 0.30486509 -0.13738489
0.42490524 0.30519003 -0.13474679
0.36237204 0.34655216 -0.13599479
0.3199957 0.36656711 -0.14107525
0.25824481 0.38771299 -0.13830125
0.15538384 0.40971339 -0.1305064
0.17506434 0.40814561 -0.1402036
-0.23946512 0.4289512 -0.13973188
-0.15661003 0.8253361 -0.13171518
-0.15657279 0.84456265 -0.13655376
-0.28198367 -0.54910731 -0.12005758
0.073398039 -0.55013406 -0.11472273
0.09359929 -0.5484966 -0.12323117
0.21962531 -0.52889496 -0.11644042
-0.34423435 -0.50644618 -0.12514043
0.28194356 -0.50751817 -0.11908531
0.34383804 -0.48589364 -0.12343383
0.36662787 -0.46673223 -0.11295927
-0.42752099 -0.44380811 -0.12587726
0.40665704 -0.44438052 -0.12215972
-0.44899201 -0.42377678 -0.12037683
-0.47055048 -0.4036639 -0.11485386
0.46903384 -0.40251711 -0.12312984
0.49022192 -0.38184771 -0.12169611
0.51142907 -0.36115471 -0.12027514
0.53265834 -0.34043989 -0.11885309
-0.53275949 -0.31957355 -0.11863506
0.55391365 -0.31970507 -0.11741459
0.5735538 -0.29832199 -0.12223208
-0.55384797 -0.27790838 -0.11735642
0.5758816 -0.2782796 -0.11333823
0.59315157 -0.27702391 -0.12693155
0.59512085 -0.25681508 -0.11962223
-0.57496339 -0.23620744 -0.11603296
0.61526954 -0.23572688 -0.12227547
0.61730611 -0.21537243 -0.11492658
0.63538301 -0.21468079 -0.12490904
0.63712037 -0.1942132 -0.11880946
0.63781178 -0.17345366 -0.11638212
0.6559642 -0.17294599 -0.12580502
-0.59578627 -0.15253668 -0.11655664
0.63850433 -0.15265702 -0.11395061
0.65651399 -0.15219638 -0.12392557
0.69877744 -0.15228055 -0.12210178
-0.59455788 -0.13134988 -0.12381005
0.6570645 -0.13141793 -0.12204373
0.67649281 -0.13123362 -0.12683058
0.69877744 -0.13141572 -0.12210166
0.65770489 -0.11061999 -0.11985457
0.67705232 -0.11046252 -0.12496686
0.69877744 -0.11055076 -0.12210166
0.65841442 -0.089793757 -0.11742914
0.67761689 -0.089663088 -0.12308633
0.69877744 -0.089685827 -0.12210166
0.65912515 -0.068930358 -0.11499929
0.67818224 -0.068834782 -0.1212033
0.69877744 -0.068820909 -0.12210166
0.65860152 -0.047996927 -0.11678934
0.6777603 -0.047952063 -0.12260854
0.69877744 -0.047956072 -0.12210178
0.67719555 -0.027091149 -0.12448978
0.65789175 -0.02709106 -0.11921597
0.69877744 -0.027091105 -0.12210178
-0.59424204 -0.0062537007 -0.12567508
0.65720439 -0.0062220804 -0.12156558
0.67663151 -0.0062590595 -0.12636828
0.69877744 -0.0062262248 -0.12210155
-0.59545398 0.014693879 -0.11851883
0.63869119 0.014774367 -0.1132946
0.6566537 0.014617935 -0.12344813
0.69877744 0.0146387 -0.12210166
0.63799822 0.035650823 -0.11572731
0.65610373 0.035429079 -0.12532818
0.6373024 0.056489576 -0.11817026
0.61785543 0.077585891 -0.1129446
0.63591045 0.077196628 -0.12305737
-0.57397062 0.09809494 -0.12217414
0.61579174 0.098177448 -0.12039125
0.59568435 0.11920962 -0.11753082
-0.55291897 0.13974877 -0.12339044
0.593638 0.13964194 -0.125126
0.57415324 0.16084276 -0.11994159
-0.53188205 0.18136303 -0.12463439
0.55495661 0.18223482 -0.11330926
0.53367221 0.20304663 -0.11473727
-0.51205719 0.22373433 -0.11726928
0.51239628 0.22383101 -0.11622202
-0.49049228 0.24412955 -0.12233341
0.49114358 0.24459271 -0.11770523
0.4699173 0.26533335 -0.11917233
0.44802713 0.28568357 -0.12382448
0.40827382 0.30773535 -0.11408162
0.38523 0.32722223 -0.12508261
-0.38641906 0.34880877 -0.11970937
0.3452695 0.34941301 -0.11534882
0.30209601 0.36911774 -0.12363636
-0.32405305 0.3912065 -0.11561084
0.23992606 0.39040354 -0.12082624
0.13556109 0.41129228 -0.12073946
-0.15668494 0.78667533 -0.12198579
-0.15664741 0.80604053 -0.12685931
0.031861037 -0.55109155 -0.10974693
0.053068504 -0.55177897 -0.1061753
0.20072834 -0.53191239 -0.1001085
0.26343948 -0.51040423 -0.10278523
0.32602787 -0.48893812 -0.10545695
0.38959461 -0.44742221 -0.10240316
0.42970061 -0.42504951 -0.11167514
0.45226759 -0.40514687 -0.10415113
-0.49219304 -0.38346499 -0.10933757
0.4727959 -0.38386548 -0.10627782
-0.51392168 -0.36318231 -0.10381353
0.49378598 -0.3628805 -0.10626328
0.51511574 -0.3420597 -0.10482609
0.53647166 -0.32121837 -0.10337293
0.55661625 -0.29986861 -0.10677612
0.55890518 -0.27971819 -0.097765684
0.57822853 -0.25810653 -0.10437119
0.59745878 -0.23659907 -0.11094522
0.59987903 -0.21627066 -0.10196221
-0.59825796 -0.19525068 -0.10196209
0.61921996 -0.19487761 -0.1080209
-0.59701884 -0.17383647 -0.10927892
0.61990201 -0.17403696 -0.10555947
0.62058127 -0.1531578 -0.10310853
0.6213882 -0.13225888 -0.10019684
0.63919818 -0.13182318 -0.11151457
0.62220907 -0.11131647 -0.097234607
0.63989317 -0.11095195 -0.10907423
0.64058954 -0.090043157 -0.10662961
-0.61988258 -0.069183588 -0.098547101
0.64129126 -0.069097012 -0.10416591
0.64078987 -0.048080571 -0.10592604
0.64008904 -0.027091149 -0.10838664
0.62162894 -0.0060508307 -0.099328041
0.63938951 -0.006139474 -0.11084294
0.62080115 0.014943365 -0.10231495
-0.59667236 0.035752576 -0.11132479
0.62009311 0.035901573 -0.1048702
-0.59789968 0.056923512 -0.1040777
0.61941063 0.056823339 -0.10733271
0.60059273 0.078110486 -0.099313259
0.59812838 0.098728448 -0.10845983
-0.57774007 0.12021595 -0.098856449
0.57891291 0.12005956 -0.10175645
0.57652324 0.14051889 -0.11088657
-0.55650574 0.16221786 -0.10009384
0.55726814 0.16193265 -0.10420978
0.537606 0.18335424 -0.098768115
-0.5352841 0.20417809 -0.10137403
0.51620293 0.2042716 -0.10027027
0.49482679 0.22516729 -0.10175645
0.47407132 0.24630795 -0.10056472
0.45351362 0.26757529 -0.098370075
0.43150562 0.28808925 -0.10299098
0.3682335 0.32994619 -0.10426855
0.28396279 0.37170169 -0.10597014
0.22136806 0.39312914 -0.10312319
0.095482484 0.41448471 -0.10099149
0.11559449 0.41288278 -0.11090124
-0.17788982 0.83535826 -0.099961162
-0.32631046 -0.53506804 -0.083027601
0.18160279 -0.53496611 -0.083579063
0.2447138 -0.5133276 -0.08627367
-0.38932651 -0.49185479 -0.08823514
0.30769885 -0.49172896 -0.088977575
0.34921443 -0.46994779 -0.093068004
0.37228173 -0.45050853 -0.082356572
0.41273743 -0.42795941 -0.091779828
0.43582225 -0.40818545 -0.082222462
0.45652515 -0.38672879 -0.084398389
0.4771986 -0.36530778 -0.086556077
-0.53632379 -0.34327894 -0.094266057
0.49783963 -0.3439205 -0.088710427
0.51884472 -0.3227458 -0.089200139
-0.55760336 -0.30125093 -0.092964292
0.53948802 -0.30143464 -0.091127992
0.54172957 -0.28117183 -0.082028508
-0.57890797 -0.25918528 -0.09163177
0.56120557 -0.2594327 -0.088710427
0.58058715 -0.23779882 -0.095359802
-0.60023338 -0.21707875 -0.090297818
0.58296525 -0.21735756 -0.086273551
0.60231131 -0.19580664 -0.092934608
0.60316956 -0.17488885 -0.089749098
0.60397381 -0.15391275 -0.086764216
0.60477978 -0.132891 -0.083772898
-0.62250894 -0.1117328 -0.083713174
-0.62119091 -0.090400472 -0.091157675
0.6230318 -0.090328768 -0.094265938
0.62386042 -0.069295563 -0.09127605
-0.62078714 -0.048176691 -0.093437791
0.62328178 -0.048177324 -0.093363881
0.62245446 -0.027091149 -0.09634912
-0.622082 -0.027091105 -0.086124778
0.60504079 -0.0059236772 -0.082804084
0.60422623 0.015197132 -0.085827351
0.60341746 0.036272001 -0.088829041
0.60261047 0.057300877 -0.091824293
-0.59913105 0.078207016 -0.096806765
0.58372903 0.078724861 -0.083355546
0.58131486 0.099461868 -0.092579365
0.56194174 0.12091875 -0.085812449
0.55959892 0.14149512 -0.095034719
0.54018962 0.16303632 -0.088279724
0.52005458 0.18448107 -0.084130406
0.4993276 0.20579611 -0.082267046
-0.45303637 0.31127402 -0.085351229
0.39138842 0.31032169 -0.093082666
-0.43148816 0.33193552 -0.089066625
0.35097629 0.33271417 -0.083117008
0.3279056 0.35232005 -0.094369411
-0.36847913 0.3747763 -0.084949374
0.2655915 0.37431958 -0.088071823
0.20256613 0.39589047 -0.085187435
0.075223491 0.4160983 -0.091009378
-0.17804293 0.79627329 -0.090016007
-0.17796613 0.81584901 -0.095005155
-0.17802879 0.85931176 -0.09093523
0.16168953 -0.53710592 -0.071997166
0.22575827 -0.51628399 -0.069575787
0.28914464 -0.49455127 -0.072312713
0.33154434 -0.47321084 -0.072883606
-0.45496577 -0.45262009 -0.068642139
0.3955273 -0.43091443 -0.071576476
-0.5614292 -0.32501826 -0.068114996
0.50245333 -0.32495162 -0.068732619
0.52257723 -0.30319282 -0.073559165
-0.58292419 -0.28257972 -0.066788316
0.54398596 -0.26077411 -0.072868586
0.56352121 -0.23901244 -0.079594851
0.5658561 -0.21845713 -0.070403576
0.58535534 -0.1967793 -0.077141643
0.58638734 -0.17578064 -0.073198795
-0.62516135 -0.15474562 -0.068732619
0.58717805 -0.15467893 -0.070177794
-0.62383157 -0.1331808 -0.076243281
0.5879705 -0.13353087 -0.067150116
0.60558754 -0.11182329 -0.080774903
0.60640103 -0.090709999 -0.077755451
0.60721231 -0.069550142 -0.074744344
0.60666722 -0.048305016 -0.076767445
0.60585314 -0.027091149 -0.079789042
-0.6233837 -0.0058926865 -0.078772664
-0.62469512 0.015419822 -0.071365952
0.58744991 0.015454143 -0.069139242
0.58665466 0.036656614 -0.072177649
0.58586115 0.057812463 -0.075209141
0.56667107 0.079346851 -0.067195415
-0.60301483 0.10032587 -0.073874116
0.56429654 0.10020263 -0.076542735
0.54476744 0.12178716 -0.069696188
-0.58157492 0.1427206 -0.075134277
0.54247266 0.14248182 -0.079012036
0.52351707 0.16432916 -0.069620967
-0.56015241 0.18507554 -0.076407909
0.4786526 0.22717299 -0.080043077
-0.51864702 0.24939574 -0.069711328
0.4579441 0.24858467 -0.077815294
-0.49669456 0.27010038 -0.074939251
0.43720204 0.27003095 -0.075583935
-0.4748233 0.2907252 -0.080162525
0.41473097 0.29053387 -0.081819773
0.37423736 0.31294656 -0.07177186
0.310269 0.35527021 -0.073078632
0.24697743 0.37697193 -0.06993711
0.1835155 0.39868838 -0.067014337
-0.30529267 0.417777 -0.080625534
0.013165519 0.41986275 -0.067723155
0.034258023 0.41936147 -0.070824623
0.054815903 0.41772395 -0.080954075
-0.178294 0.77993149 -0.073709249
-0.15702841 0.77886182 -0.077366352
-0.13581912 0.78183258 -0.067210555
-0.19967595 0.84561896 -0.067451715
0.1208256 -0.54038054 -0.054273009
0.14132296 -0.53873801 -0.063163519
0.20657076 -0.51927668 -0.052673817
0.27036363 -0.49740797 -0.05544436
0.31361198 -0.47652224 -0.052399516
0.35471004 -0.45363826 -0.062028646
-0.47694874 -0.43218255 -0.062906265
-0.49902308 -0.41165996 -0.057146549
0.41895878 -0.41116813 -0.060696125
0.43999428 -0.38964027 -0.062149882
0.46084481 -0.36804199 -0.064357519
0.48166555 -0.34647971 -0.066546798
0.52529633 -0.28300679 -0.062165022
-0.60444492 -0.2401029 -0.065429926
0.54646987 -0.2403065 -0.062785268
-0.62783736 -0.19822793 -0.053618312
0.56820279 -0.19776314 -0.06116581
-0.62649572 -0.17642753 -0.06119597
0.56940138 -0.17668328 -0.056447625
0.57017815 -0.15545423 -0.053389907
0.58876866 -0.11233677 -0.064100742
0.58956456 -0.091095477 -0.061059713
0.59036225 -0.069807649 -0.058012009
0.58985013 -0.048434332 -0.059968829
0.58904958 -0.027091105 -0.063027263
0.58825082 -0.0057949461 -0.06607914
0.57046849 0.015714217 -0.052247047
-0.62601352 0.036847319 -0.063919306
0.56968719 0.03704587 -0.055322647
-0.62734181 0.058391076 -0.056417227
0.56890756 0.058330361 -0.058391571
0.54749238 0.10102989 -0.058634162
0.52629465 0.14377701 -0.05798161
0.50413084 0.18622564 -0.061468601
-0.56386286 0.20833293 -0.052308083
0.48330331 0.20774837 -0.059210777
-0.540685 0.22861369 -0.064448237
0.46244168 0.22930638 -0.056949139
0.44154608 0.25089946 -0.054683805
0.42061937 0.2725296 -0.052399635
0.39769113 0.293015 -0.060332417
0.33344674 0.33552349 -0.061650276
-0.41392708 0.35798144 -0.0535115
0.29188454 0.35784212 -0.054516435
-0.11445313 0.78481656 -0.057009816
-0.19991148 0.80610949 -0.057252884
-0.19979349 0.82590061 -0.062361717
0.10019752 -0.54203653 -0.045309782
-0.37186432 -0.52064013 -0.044972777
0.25135171 -0.50029987 -0.038368464
-0.43566835 -0.47686493 -0.050279498
0.33687919 -0.45681691 -0.04138267
0.37806153 -0.43391326 -0.051073074
0.40159839 -0.41403174 -0.040030122
-0.52118522 -0.39104795 -0.05139327
0.42319053 -0.39259738 -0.039553404
-0.54343939 -0.3703503 -0.04561615
0.44422764 -0.37082255 -0.041782141
-0.56578386 -0.3495647 -0.039830327
0.4652313 -0.34908241 -0.044007063
0.48619801 -0.32737529 -0.046243787
-0.58701628 -0.30640376 -0.041474819
0.50676775 -0.30554545 -0.050050497
0.50944424 -0.28519642 -0.038460851
-0.60873616 -0.26354963 -0.040091753
0.52803797 -0.26265335 -0.050676107
0.53080249 -0.24213029 -0.039091945
-0.63047749 -0.22065303 -0.038707137
0.54929864 -0.21978056 -0.051301718
0.55215102 -0.1990836 -0.039722562
0.57103425 -0.1341901 -0.050019979
0.5719896 -0.11288606 -0.046259284
-0.65130001 -0.09152621 -0.042411447
0.57294756 -0.091524452 -0.042488337
-0.64988303 -0.069929801 -0.050081015
0.57391196 -0.07010515 -0.03869164
-0.65074754 -0.048546396 -0.045401692
0.57332593 -0.048580311 -0.040998578
-0.65214652 -0.02709106 -0.037829518
0.5723592 -0.027091105 -0.044804096
0.5713951 -0.0056603141 -0.048599482
-0.62875581 0.080068976 -0.048431396
0.55038625 0.080128431 -0.046886683
-0.60710639 0.12286389 -0.049714565
0.52909577 0.12305094 -0.046243787
-0.58547699 0.16561939 -0.050996661
0.50779891 0.16599424 -0.045585513
0.48802489 0.18802756 -0.038060546
0.38038594 0.29553699 -0.038491607
0.35682005 0.3156144 -0.050111532
0.31564391 0.33837894 -0.039830327
0.22811578 0.37965962 -0.051561117
-0.35008177 0.40143424 -0.049180031
0.16421117 0.4015235 -0.048599362
-0.20004258 0.78640598 -0.051576138
-0.092928693 0.78782719 -0.046718359
0.058537304 -0.54537487 -0.027240038
0.079434723 -0.54370028 -0.036304116
0.18714888 -0.52230877 -0.035548329
0.29541135 -0.47988319 -0.031609178
0.3603344 -0.43695706 -0.030262709
0.46967936 -0.32984027 -0.023370743
0.49068654 -0.30793855 -0.026137829
0.51214319 -0.26467738 -0.026774287
0.53359008 -0.22143573 -0.027410507
0.553765 -0.17793766 -0.033170581
0.5547027 -0.15656394 -0.029364228
-0.65415168 -0.13507707 -0.026976109
0.55564672 -0.13513266 -0.025531769
-0.65272194 -0.11324163 -0.034715056
0.55658948 -0.11364228 -0.021704674
-0.65355307 -0.0055188369 -0.030216217
0.55604112 -0.0054704621 -0.023930788
-0.65497023 0.016171575 -0.022545695
0.55509222 0.016090859 -0.027783036
0.55414587 0.03759313 -0.031624556
0.55320209 0.059036624 -0.035455823
0.53477329 0.081068948 -0.022452235
-0.63311577 0.10263847 -0.023806214
0.53192431 0.10214946 -0.034390926
0.51329595 0.12436903 -0.021782517
-0.61127293 0.14580125 -0.025112391
0.51053399 0.14526972 -0.033742428
-0.58944541 0.18892147 -0.026448369
0.46700794 0.20973381 -0.035764337
0.44595969 0.23147725 -0.033448815
0.42487341 0.25325507 -0.031144857
0.40375245 0.27506903 -0.028837323
-0.50311768 0.29699579 -0.025858045
-0.48084736 0.31793702 -0.031253219
0.33912462 0.31832254 -0.028124213
0.27321732 0.36041713 -0.035933852
0.2090015 0.38238338 -0.032938957
0.14460306 0.40432757 -0.030386448
-0.071244396 0.79085547 -0.036365628
-0.22230884 0.81618363 -0.023697376
-0.2221477 0.83619481 -0.028930306
-0.22210716 0.85736126 -0.030247211
-0.048892722 -0.54864943 -0.0095158815
0.016332567 -0.54875398 -0.008949995
0.037503988 -0.54706037 -0.018116951
0.16748454 -0.5253756 -0.018226147
0.23210658 -0.50323021 -0.021065831
0.27693653 -0.48329479 -0.010505438
-0.48359632 -0.46181273 -0.0089342594
0.31878066 -0.46004331 -0.020426512
0.34233993 -0.4400467 -0.0091385841
0.38397712 -0.41693839 -0.019053698
0.40611035 -0.39560318 -0.01658535
0.42733407 -0.37364703 -0.018850803
0.4485237 -0.35172606 -0.021112561
-0.59118402 -0.33066776 -0.015693665
-0.61310399 -0.28742826 -0.014300704
0.49331856 -0.28742403 -0.014347672
-0.63504839 -0.24414738 -0.012890458
0.51486474 -0.24398568 -0.014989614
0.53640109 -0.20056729 -0.015631199
-0.65703517 -0.17911245 -0.01136899
0.53813058 -0.17927328 -0.0083838701
-0.65559232 -0.15703444 -0.01917851
0.55753487 -0.092093065 -0.017866969
0.55848664 -0.070485264 -0.014003038
0.55794686 -0.048771247 -0.016194344
0.55699271 -0.02709106 -0.020067811
-0.65639806 0.037981305 -0.014817357
0.53854364 0.038169805 -0.006652832
-0.65783083 0.059910845 -0.0070621967
0.53761303 0.059803467 -0.010552645
0.51607805 0.10328838 -0.0097357035
0.49449903 0.14678982 -0.0090600252
0.49180835 0.16768993 -0.021112561
0.47164446 0.18986018 -0.014253616
0.45043802 0.21175437 -0.011902332
-0.5704487 0.23368661 -0.0095313787
0.42919302 0.23368378 -0.0095629692
-0.54791892 0.25487196 -0.014989614
0.40791273 0.25564948 -0.0072194338
-0.52547395 0.27597386 -0.020442247
0.36280304 0.29809725 -0.016319394
-0.46042883 0.34079984 -0.021330595
0.29755598 0.34127778 -0.017679334
0.25429857 0.36302659 -0.017101407
-0.3959077 0.3847158 -0.016991854
0.18962948 0.3851437 -0.014065742
0.10324709 0.40757474 -0.009295702
0.12400262 0.40594503 -0.019880652
-0.22247106 0.79610234 -0.01842916
-0.35384512 -0.55035353 -0.00029265881
-0.0049772263 -0.55045873 0.00027680397
0.1475751 -0.52848089 -0.00068807602
-0.41869837 -0.5058099 -0.005833745
0.21261965 -0.50619447 -0.0035631657
0.30040824 -0.4633185 0.00084662437
-0.50611585 -0.44095227 -0.0029474497
-0.52873111 -0.42000312 0.0030645132
0.36608911 -0.41988888 0.0022403002
0.38874984 -0.39866087 0.0067794323
0.41016364 -0.37652019 0.0044763088
0.4315396 -0.35441345 0.0021611452
0.4528839 -0.33234462 -0.00013446808
0.47419375 -0.31031141 -0.0024265051
0.49597281 -0.26673639 -0.0024580956
0.5176093 -0.22311968 -0.003105402
-0.65848601 -0.20131341 -0.0035157204
0.53905511 -0.15771197 -0.0045096874
0.53998595 -0.13609192 -0.00060904026
0.54091561 -0.11441173 0.0032864809
-0.68249613 -0.09269236 0.0080834627
0.54184777 -0.092671722 0.0071928501
-0.68096936 -0.070703179 0.0001500845
-0.68177444 -0.048929345 0.0043334961
0.54134727 -0.027091194 0.0050953627
0.54040891 -0.005277276 0.001163125
0.53947687 0.016476285 -0.0027422905
-0.65961099 0.082032129 0.0025732517
0.51888406 0.082026139 0.0024147034
-0.63755071 0.12560989 0.00124228
0.49721277 0.12570965 0.0030962229
-0.61551112 0.16914651 -8.7141991e-05
0.4755311 0.16941433 0.0037783384
-0.59348458 0.21263841 -0.0014628172
0.38659716 0.2776517 -0.0048722029
0.34494156 0.30070019 0.0062232018
0.32114989 0.32107574 -0.0057706833
0.27918118 0.34422502 0.0048414469
0.23512547 0.36567378 0.0020028353
0.16999455 0.38794175 0.005063653
0.082334787 0.40921667 0.0013691187
-0.24504806 0.84674031 0.0053178072
-0.02642674 -0.55217463 0.0095640421
0.12741597 -0.53162497 0.017069817
0.19288857 -0.50919574 0.014158726
0.25818115 -0.48675808 0.010918498
0.28175581 -0.46664378 0.022444129
0.32407218 -0.4431833 0.012306333
0.34792835 -0.42288449 0.023859143
-0.5514403 -0.39896274 0.0090863705
-0.57424128 -0.37782893 0.01510191
-0.5971415 -0.3566072 0.021158934
0.43580836 -0.33489054 0.023489237
-0.61755598 -0.31175384 0.011987209
0.45730966 -0.31267166 0.021158934
0.47691214 -0.28969026 0.010185361
-0.63970464 -0.26807988 0.013407826
0.47951978 -0.2688314 0.022283435
0.4986496 -0.24587339 0.0095322132
-0.66188139 -0.2243645 0.014861941
0.50134909 -0.22483294 0.021624565
0.52037704 -0.20207673 0.0088793039
0.5222168 -0.18063289 0.016845822
0.52312756 -0.15888046 0.020789623
-0.68403149 -0.11480513 0.016061544
0.54278636 -0.070872128 0.011125922
0.54228824 -0.048965558 0.0090385675
-0.68328428 -0.02709106 0.01217854
-0.68480551 -0.0051316544 0.020083308
0.5235765 0.016868513 0.022733331
0.5226571 0.038756523 0.018752217
0.52171808 0.060580444 0.014686108
0.49995005 0.10444732 0.015357614
0.47817522 0.14833573 0.01604557
0.4549858 0.19172552 0.0099782944
0.43357968 0.21380839 0.012354255
0.41213775 0.2359281 0.01473403
0.39065987 0.25808504 0.017117858
0.368936 0.28015113 0.018319368
0.3028838 0.32387114 0.016925812
-0.44281286 0.36761504 0.016013503
0.21568833 0.36835483 0.021351457
0.061263889 0.41087121 0.012115002
-0.37741524 0.41217449 0.020580888
0.040032595 0.41253817 0.022942424
-0.22352177 0.78415847 0.015693545
-0.24546158 0.80619174 0.016061544
-0.24525443 0.82650441 0.010679483
0.10700239 -0.53480881 0.035052061
0.17291047 -0.51223767 0.032120228
-0.46686822 -0.49055985 0.034436107
0.23868181 -0.48970991 0.029178143
0.30552483 -0.44636786 0.034079552
0.37109601 -0.40176749 0.030519128
0.39270312 -0.37943926 0.028177381
0.41427493 -0.35714757 0.025839329
-0.62209183 -0.33653739 0.03876996
0.46021754 -0.29199636 0.035149455
0.48214972 -0.24779421 0.034484744
0.50407165 -0.20361277 0.033820271
-0.68713135 -0.15940601 0.032168746
-0.68557858 -0.13704298 0.024100423
0.52404457 -0.13706844 0.024760246
0.52496046 -0.11519514 0.028726101
0.52587885 -0.093260914 0.032702923
0.5267998 -0.071265712 0.036690712
0.5263502 -0.049163476 0.034743905
0.52542305 -0.027091194 0.030729413
0.52449846 -0.0050804894 0.02672565
-0.68633837 0.016950399 0.028048158
-0.68787664 0.039155733 0.036041498
0.50271469 0.083001032 0.027741671
-0.66432649 0.10503584 0.028096676
0.48084235 0.12707435 0.028419495
-0.64206553 0.14899457 0.026741743
0.45896304 0.17116962 0.02911365
-0.6198228 0.19291048 0.025372148
0.43803501 0.19362201 0.034614444
0.41642892 0.21589802 0.03703177
-0.55541605 0.28208548 0.036268711
-0.53255099 0.30351871 0.030632377
0.3267892 0.30334345 0.02911365
-0.50977349 0.32486603 0.025001884
0.26050776 0.34721762 0.027709484
0.15009122 0.39077786 0.024454474
0.018638164 0.41421545 0.033836484
-0.24579147 0.78670418 0.024631619
-0.20186093 0.78742456 0.027161002
-0.18002498 0.79071724 0.038721323
-0.401182 -0.5357033 0.040103674
0.085828841 -0.53688139 0.046757817
0.15267701 -0.51531541 0.050293446
0.21888609 -0.49264172 0.047314048
0.26281679 -0.47001988 0.044373274
0.3294884 -0.42592612 0.045810223
0.37494844 -0.38240764 0.052277565
0.39671648 -0.35992584 0.049900055
0.41844863 -0.33748111 0.047526598
0.4401418 -0.31507164 0.045140624
-0.64445144 -0.29246446 0.040217638
0.46277648 -0.27096343 0.047461152
-0.66683662 -0.24834841 0.041682959
0.48480219 -0.22657657 0.046790719
-0.69026011 -0.20451225 0.04842627
-0.68869287 -0.18189581 0.040282845
0.50601614 -0.18201694 0.042530417
0.50691247 -0.16007015 0.046545625
0.50781506 -0.13806255 0.050588489
-0.71319544 -0.071504653 0.052212
0.50829846 -0.0048801843 0.052753568
0.50739086 0.017268125 0.048688412
0.50648588 0.039354142 0.044634461
-0.68942356 0.061485607 0.044079661
0.5054999 0.061366651 0.040217638
0.48625028 0.08399272 0.053509116
0.4835363 0.10562792 0.040917397
-0.6691277 0.12845726 0.054083824
0.46156198 0.14991072 0.04161799
-0.64666522 0.17280501 0.052720785
-0.62456012 0.21727929 0.053344727
-0.60141993 0.23896651 0.047624588
0.39478934 0.23821326 0.039469242
-0.57837135 0.26056781 0.041927338
0.37311012 0.26056442 0.041894794
0.3509028 0.28264102 0.041422248
0.3083443 0.30603144 0.052392602
0.28432447 0.32671392 0.040006042
-0.49083483 0.35011309 0.049834728
0.24153088 0.35025886 0.050949097
0.19598405 0.37107271 0.040966272
0.12991403 0.39365298 0.044112325
-0.0029193759 0.41590789 0.044830322
-0.15801176 0.79403669 0.050375462
-0.26902342 0.81653625 0.051424742
-0.26876789 0.83707589 0.045891881
0.042687044 -0.54029638 0.066045403
0.064329952 -0.5385831 0.056369543
0.13218524 -0.51843232 0.068698645
0.19883786 -0.49561092 0.065681219
0.24358456 -0.4734484 0.066642046
-0.53657389 -0.45010996 0.059664488
0.28668892 -0.44959918 0.056172132
-0.5597592 -0.42871854 0.065962672
0.31076026 -0.42901257 0.068084717
0.35314727 -0.4049288 0.05467546
-0.64928555 -0.31731123 0.067520738
0.44322711 -0.29434314 0.060555577
-0.67188609 -0.27278838 0.069014072
0.46535754 -0.24974914 0.059879065
0.48747754 -0.20517591 0.059202909
0.48952079 -0.18342604 0.068682075
-0.71650183 -0.11642691 0.068731904
0.50871646 -0.11599258 0.054626226
-0.71484226 -0.093901426 0.060440183
0.50962037 -0.093860745 0.058675408
0.51052684 -0.071666673 0.062735796
-0.71393204 -0.049326211 0.055892467
0.51012123 -0.049364991 0.060918808
-0.71555996 -0.027091105 0.06402564
0.5092085 -0.027091105 0.056830525
0.48899174 0.062167641 0.066227674
-0.69161469 0.084067985 0.055464625
0.46682173 0.10682897 0.066923857
0.46418029 0.12846434 0.054215312
0.44464439 0.15151305 0.067636609
0.44209957 0.17295761 0.054922223
0.42078781 0.19555162 0.059681058
0.39898103 0.21802564 0.062157512
0.37713397 0.24053667 0.064621449
0.35524964 0.26308578 0.067089677
0.33257216 0.28516975 0.064886212
0.26545966 0.32960114 0.063446999
0.17600702 0.37382826 0.060852885
-0.4247275 0.39515951 0.054412603
0.10945724 0.39656806 0.06404233
-0.024642922 0.41761369 0.055908918
-0.26922905 0.4620786 0.055875897
-0.26927921 0.7959128 0.056962132
-0.13581912 0.79738307 0.062124491
-0.26941469 0.86354595 0.059895635
0.020898685 -0.54202092 0.075786471
-0.44988871 -0.52062899 0.081669211
0.17853229 -0.49861822 0.084283948
-0.51643258 -0.47487164 0.075886607
0.26756281 -0.45288312 0.078624606
-0.58303797 -0.40722713 0.072238326
0.33489037 -0.40814167 0.079226375
-0.60641509 -0.38564044 0.078524351
0.35689491 -0.38542852 0.076804161
0.37885988 -0.36275136 0.07436955
0.40079123 -0.34011385 0.071955442
0.42268616 -0.31751394 0.069545388
0.44573522 -0.27313337 0.073086977
-0.69450986 -0.22821979 0.070508838
0.46796089 -0.22835119 0.072404623
0.49040204 -0.16128133 0.072770715
-0.71816766 -0.13908122 0.07705462
0.49128586 -0.13907416 0.076871037
0.4921757 -0.11680469 0.080999613
0.49269563 -0.02709106 0.083412051
-0.71720034 -0.0047302824 0.072221518
0.49180073 -0.0046761446 0.079259634
-0.71885335 0.017757643 0.080480695
0.49090827 0.017675128 0.075119376
0.49001837 0.039962891 0.070990801
0.46948653 0.085002482 0.079744697
-0.69671249 0.10752334 0.081953883
0.44721174 0.12987863 0.080464125
-0.67402005 0.15230921 0.080564499
0.42492598 0.17477709 0.081183553
-0.65134329 0.19704986 0.079142809
0.28959435 0.3087616 0.076036692
0.22224514 0.35335213 0.074586034
0.1557516 0.37662217 0.081016302
0.088715017 0.39952382 0.08425045
-0.29287016 0.84790766 0.081970811
-0.023120373 -0.54550534 0.095466137
-0.0010358542 -0.54376036 0.085610032
0.11143006 -0.52158952 0.087340355
0.22405435 -0.47693303 0.089275122
0.29174244 -0.43214944 0.090723395
-0.62989646 -0.36396205 0.084854484
0.36070043 -0.36562714 0.099274635
-0.65421844 -0.34263861 0.095381737
0.38283169 -0.34279171 0.096802235
0.40492886 -0.31999627 0.094350815
-0.67703253 -0.29769784 0.096869946
0.42593294 -0.29673213 0.086416125
0.428388 -0.27534223 0.09917295
-0.69987959 -0.25271532 0.098410487
0.44826519 -0.25173894 0.085727453
0.45081729 -0.2301576 0.098478317
0.47058696 -0.20676698 0.085039139
-0.72152799 -0.18478195 0.093844175
0.47272253 -0.18486118 0.095313907
-0.71984637 -0.16186662 0.085441947
0.47358799 -0.16251487 0.099478006
0.49306452 -0.094471559 0.085123062
0.49395579 -0.072075069 0.089258313
0.49359322 -0.049570113 0.087575793
-0.72051245 0.040373448 0.088770032
0.47324646 0.040582802 0.097834706
-0.72218442 0.063118935 0.097123742
0.47217846 0.062982634 0.092696309
0.44980526 0.10805294 0.093421936
0.4274177 0.15314473 0.094131231
0.40323949 0.19751664 0.085206985
0.38122195 0.22018927 0.087710261
0.35916662 0.2429011 0.090218067
0.33707333 0.26565179 0.092730165
-0.58658814 0.2884472 0.095297098
0.31394237 0.28774184 0.088753343
-0.56319106 0.31030771 0.089426637
-0.54000849 0.33218834 0.084451795
0.24628668 0.33253774 0.087289929
0.20258977 0.35643891 0.098173499
-0.47318107 0.37774321 0.089106679
-0.33831096 0.44538984 0.090184331
-0.29348269 0.80627346 0.093337536
-0.29317582 0.82713103 0.087643147
-0.045354567 -0.54726225 0.10538912
0.090406477 -0.52478749 0.10622346
0.15796603 -0.5016672 0.10314429
0.20421486 -0.48046964 0.11224699
0.24813695 -0.45621851 0.10142887
0.27242547 -0.43533573 0.11371839
0.31612402 -0.41124272 0.10292327
0.33852899 -0.38849917 0.1017344
0.4083268 -0.29916415 0.11274314
0.43086463 -0.25376457 0.11204195
-0.72321939 -0.20782961 0.1022948
0.45339173 -0.20838679 0.111341
0.47445601 -0.14010499 0.10365415
0.47532994 -0.11763166 0.10785913
0.47620291 -0.095093593 0.112059
-0.74662828 -0.072336227 0.10622323
-0.74728024 -0.049737807 0.1093601
0.47587615 -0.027091149 0.11048675
0.47499704 -0.0044682287 0.10625744
0.4741205 0.018089559 0.10204005
-0.72483855 0.086181819 0.11038446
0.45241857 0.086031556 0.10647881
-0.70190799 0.13141376 0.10895073
0.42993504 0.13132006 0.10721135
-0.67899978 0.1766018 0.1075182
0.40743709 0.17662995 0.1079272
0.38537562 0.19951533 0.11117029
-0.65735292 0.22233807 0.11308527
0.36314654 0.2223918 0.11371839
-0.63366836 0.24446289 0.10712612
-0.61007941 0.26649851 0.10119128
0.29500061 0.29035494 0.11299968
0.2705369 0.3115389 0.1000886
0.22679324 0.33552125 0.11151206
0.13521184 0.37945518 0.10146296
0.067681342 0.40252101 0.10474253
-0.29411924 0.78702378 0.10515094
-0.27125627 0.78553182 0.099766254
-0.24915127 0.78890043 0.11192238
-0.067739986 -0.54903114 0.11537957
0.069109201 -0.52802694 0.12535203
-0.50002992 -0.50511777 0.12448978
0.13713048 -0.50475287 0.12223279
-0.56841278 -0.45968482 0.12512779
0.22840442 -0.45960656 0.12459326
0.29691839 -0.41427732 0.12611139
0.31984824 -0.39162499 0.12711287
0.34222424 -0.36855063 0.12459314
0.36456519 -0.34551758 0.12209511
-0.68228191 -0.3230918 0.12528312
0.38686836 -0.32252315 0.11960101
-0.70535016 -0.27768472 0.1268363
0.41072649 -0.2775912 0.12573171
-0.72844261 -0.23223004 0.12839162
0.43336308 -0.23199676 0.12502432
0.45561302 -0.1863229 0.12243938
0.45646197 -0.16377136 0.12668109
-0.75019199 -0.11810933 0.12336946
-0.74840677 -0.095156342 0.11477995
0.47707838 -0.072490945 0.11627102
0.47675419 -0.04977902 0.11471152
-0.74903399 -0.02709106 0.11779785
-0.75080496 -0.0043138247 0.12631857
0.45701551 0.018511515 0.12944639
0.45616144 0.041214343 0.12517965
0.45505875 0.06381312 0.11966991
0.43247157 0.10929872 0.12039185
0.40987659 0.15480739 0.12113118
0.3408789 0.24530773 0.11627102
0.31857532 0.26826534 0.11884522
0.25115937 0.31436056 0.12452412
-0.52281791 0.35990766 0.12467945
0.18225886 0.35914636 0.11886227
0.11438178 0.38232842 0.12219834
-0.45504707 0.40614691 0.12953305
0.046211973 0.40523264 0.12328339
-0.40907919 0.42834234 0.12559366
-0.22686279 0.79230201 0.12419665
-0.31794152 0.83799028 0.12476563
0.047533914 -0.53131193 0.14474881
0.11602221 -0.50787914 0.14157116
0.18406092 -0.48406258 0.13558328
-0.59219229 -0.43782705 0.13169718
0.25280219 -0.4385725 0.13707781
-0.616072 -0.4158673 0.13826096
0.39040023 -0.30164039 0.13954926
0.41314739 -0.25582728 0.13883531
0.43588704 -0.21003708 0.13813901
-0.75379759 -0.16441965 0.14071667
-0.75198776 -0.14119641 0.13200903
0.45731342 -0.14115506 0.13093495
0.45817077 -0.11847417 0.1352185
0.45902711 -0.095727205 0.13949704
0.4598859 -0.072914615 0.14378798
0.45960289 -0.04999207 0.14237368
0.45873785 -0.027091194 0.13805211
0.45787543 -0.0042568017 0.13374305
-0.75258261 0.018595025 0.13487124
-0.75437421 0.041637238 0.14349091
0.435031 0.087078929 0.13369107
-0.73034483 0.11010705 0.13789535
0.41233486 0.13278717 0.1344372
-0.70719731 0.15574984 0.13643479
0.38959658 0.17850645 0.13501012
-0.6840694 0.20134656 0.13495803
0.36719102 0.20154984 0.13759971
0.34474903 0.22463511 0.14021134
0.32226497 0.24775936 0.14280999
0.27574182 0.2930119 0.13765192
0.20697369 0.33855444 0.13613927
0.16163884 0.36189249 0.13984537
0.093255177 0.38524255 0.14322913
0.024088144 0.40694287 0.13497543
-0.31866229 0.79570317 0.13646948
-0.20438731 0.79572719 0.13655639
-0.31830117 0.81688845 0.13060594
-0.31882083 0.86504221 0.13904417
0.16345082 -0.4875063 0.15795135
0.2083578 -0.46304861 0.14812624
0.27740693 -0.41736028 0.14966869
-0.64005774 -0.39381018 0.14485383
0.30083895 -0.39480323 0.15291643
-0.66415024 -0.37165481 0.15147591
0.32342625 -0.37152514 0.15035272
-0.68834674 -0.34939894 0.15811014
0.3459776 -0.34828895 0.14781094
0.36849052 -0.32509238 0.14527333
-0.71092784 -0.30314335 0.1558193
0.39274204 -0.27988118 0.15277576
-0.73424959 -0.25725663 0.1574049
0.41558993 -0.23386943 0.1520555
-0.75759971 -0.21132237 0.15900981
-0.75561446 -0.1877788 0.14945829
0.43818355 -0.18781188 0.15007222
0.43901521 -0.16505137 0.15439343
0.43984932 -0.14222482 0.15872753
0.43959135 0.018941622 0.15738726
0.43875468 0.041857678 0.15303957
-0.75617254 0.064813137 0.15214348
0.43761694 0.064658701 0.14712811
0.41481543 0.11056747 0.14786339
0.39200568 0.15650025 0.14861679
0.29974157 0.27092409 0.1454134
-0.61907279 0.29507789 0.15682328
-0.59511852 0.31738344 0.15070379
0.23145838 0.31723157 0.14938819
-0.020688824 0.41040403 0.15863943
0.0017885566 0.40866661 0.14676034
-0.18172315 0.79918104 0.14901996
-0.43635619 -0.55881053 0.17061341
-0.48307383 -0.53639799 0.17478049
0.025672853 -0.53463733 0.16438413
0.094635844 -0.51104653 0.16116428
-0.55166906 -0.48914665 0.16860509
0.18799148 -0.46654838 0.17205465
0.23286529 -0.44186094 0.16081083
0.25758225 -0.42049253 0.17360413
0.32706636 -0.35111102 0.17399609
0.34979033 -0.32770646 0.17139614
0.37214434 -0.30416214 0.16684794
0.39510483 -0.25792769 0.16612089
0.41805744 -0.21171662 0.16541159
0.44068921 -0.1193324 0.1630919
-0.78325242 -0.096458912 0.17118263
0.44152814 -0.096372843 0.16745114
-0.78134072 -0.073199771 0.16231346
0.44236612 -0.073345982 0.1718055
-0.78188634 -0.050164942 0.16484463
0.44212645 -0.050208859 0.17056
-0.78377819 -0.027091105 0.17362189
0.44127893 -0.027091105 0.16615617
0.44043392 -0.0040409584 0.16176534
-0.75934684 0.088377044 0.16741562
0.41732174 0.088146508 0.16142941
-0.735955 0.13448381 0.16592574
0.39440566 0.13428167 0.16217196
-0.7125898 0.18054633 0.16445494
0.37130153 0.18036732 0.16187131
0.34867972 0.20362268 0.16452575
0.326015 0.22691764 0.16716743
-0.66727728 0.25019145 0.16913807
0.30331033 0.25025377 0.16981328
-0.64312553 0.27268076 0.16296792
0.28056556 0.27363116 0.17246401
0.25616026 0.29571527 0.16273808
0.21142118 0.32014915 0.1746558
-0.57368094 0.34163463 0.16114652
0.18681972 0.34163904 0.16118193
0.14072357 0.36467779 0.161129
-0.50514662 0.38840237 0.16603208
0.071825683 0.38819838 0.16456127
-0.043346182 0.4121553 0.17061341
-0.3206982 0.78175497 0.16952896
-0.34417689 0.80634004 0.17485189
-0.34376132 0.82778245 0.16885388
-0.34334743 0.84913939 0.16287959
-0.01960928 -0.53841442 0.18668675
0.0031478703 -0.53663671 0.17619014
0.072967038 -0.5142588 0.18103528
0.1422617 -0.4905591 0.17777956
0.21260713 -0.44520271 0.18492627
0.28149533 -0.39803731 0.17917395
0.30430043 -0.37455392 0.17658281
-0.71661937 -0.32910722 0.1853931
-0.74017507 -0.2827802 0.18701041
0.37442577 -0.2822136 0.18031919
-0.76375604 -0.23640342 0.18862927
0.39748883 -0.23577678 0.17958546
0.420425 -0.18932904 0.17822635
0.42123854 -0.16635557 0.18262994
-0.78711385 -0.1433937 0.18909729
0.42205453 -0.14331484 0.18704629
-0.78517544 -0.11985633 0.18010449
-0.78568119 -0.0038817804 0.18245065
0.42183536 0.019380063 0.18586016
0.42101675 0.042513449 0.18142939
0.41984773 0.065519899 0.17510164
0.39927495 0.089233652 0.18967354
0.39683074 0.11186104 0.17586875
0.37379903 0.15822455 0.17661846
0.35267222 0.1822622 0.18922341
-0.69153214 0.2276106 0.17535138
0.23624285 0.29846323 0.18823338
0.16632466 0.34477818 0.18666887
0.11950658 0.36750317 0.18271959
0.050085634 0.39119461 0.18618357
-0.34498811 0.78634387 0.18656111
-0.29828948 0.78526068 0.1825403
-0.042525776 -0.54020452 0.19725692
0.051007554 -0.51751113 0.20115364
0.12078817 -0.49364987 0.19785428
0.16729371 -0.47010219 0.19635212
-0.62613058 -0.44735813 0.20048237
0.23743455 -0.42367315 0.19790864
0.28483278 -0.37763438 0.20326018
0.30781728 -0.35398105 0.20062745
0.33076191 -0.33036882 0.19799924
0.35354996 -0.30673054 0.19465268
0.37672776 -0.26006705 0.19391191
0.39989752 -0.21342741 0.19318962
-0.78905994 -0.16707128 0.19812596
0.42287618 -0.12020707 0.19149375
0.42369694 -0.097030729 0.1959362
0.42451674 -0.073785812 0.20037353
0.42431575 -0.050430059 0.19928563
0.42348653 -0.027091149 0.19479716
0.42265975 -0.0038211979 0.19032216
-0.78759539 0.019464381 0.19133139
-0.78952479 0.042948823 0.20028293
0.4017449 0.066398218 0.20362365
-0.76528978 0.11279133 0.19600856
0.37850183 0.11317821 0.20438731
0.37614119 0.13580535 0.19044816
-0.74167573 0.15932639 0.19450796
0.35525012 0.1599829 0.20516968
-0.71807814 0.20581254 0.19297314
0.32982695 0.20573191 0.19192648
0.30693811 0.22924204 0.19461644
0.28400844 0.25279403 0.1973114
0.26104039 0.27638963 0.2000289
0.19104348 0.32311875 0.20037353
-0.55650878 0.37022692 0.20353293
0.097981349 0.37036973 0.20462394
-0.27568561 0.78879666 0.195665
-0.088843808 -0.54381955 0.21860242
-0.065603286 -0.54200721 0.20790136
-0.5353424 -0.52061987 0.22038412
0.099026352 -0.49678212 0.21819866
-0.60486954 -0.47268912 0.21403861
0.19201989 -0.44859836 0.20943308
-0.65064573 -0.42491168 0.2073729
-0.67526603 -0.40235847 0.21425807
0.26181078 -0.40133107 0.20591593
-0.7462154 -0.3088125 0.21718979
0.35576838 -0.28458932 0.20837557
-0.77003545 -0.26198602 0.2188412
0.37905067 -0.23771968 0.20762801
-0.79101765 -0.19089074 0.20720875
0.40232801 -0.19087507 0.20691729
0.40312266 -0.16768461 0.21140528
0.40391958 -0.14442566 0.21590638
0.40454322 -0.0035971589 0.2194289
0.40373796 0.019826837 0.2148807
0.40293831 0.043181513 0.21036422
-0.79146177 0.066572085 0.20926905
0.38088441 0.090341508 0.21845567
0.35752553 0.13735715 0.21924508
0.33369952 0.1841923 0.21707964
0.31062627 0.20788015 0.21983278
0.21598561 0.30125993 0.21418488
-0.62841088 0.32476005 0.21458757
0.14547594 0.34796897 0.21257496
0.028030604 0.39423668 0.20813847
-0.4869867 0.41772115 0.20866704
-0.2528834 0.79235893 0.20888615
-0.37036264 0.81726563 0.21427643
-0.36988875 0.83896643 0.20812011
0.028752878 -0.52080715 0.22154248
0.14625846 -0.47371396 0.22104585
0.17109363 -0.45204723 0.23432302
0.21696053 -0.42690814 0.222628
0.24177124 -0.40468153 0.23311806
-0.70000148 -0.37970516 0.22119308
0.26501924 -0.38077202 0.23043323
