ply
format ascii 1.0
comment PCL generated
element vertex 1335
property float x
property float y
property float z
element camera 0
property float view_px
property float view_py
property float view_pz
property float x_axisx
property float x_axisy
property float x_axisz
property float y_axisx
property float y_axisy
property float y_axisz
property float z_axisx
property float z_axisy
property float z_axisz
property float focal
property float scalex
property float scaley
property float centerx
property float centery
property int viewportx
property int viewporty
property float k1
property float k2
end_header
0.18740603 0.15334411 -0.43559742
0.045232974 0.1709578 -0.43755138
0.045232974 0.18872201 -0.43755144
0.045232974 0.20648603 -0.43755138
0.15186246 0.20677736 -0.43464029
0.045232974 0.2242502 -0.43755144
0.13404974 0.224197 -0.43804461
0.045232974 0.24201432 -0.43755144
0.11628942 0.24156544 -0.44143879
0.045232974 0.25977841 -0.43755126
0.09858121 0.25888407 -0.44481272
0.045232974 0.27754253 -0.43755144
0.045232974 0.29530659 -0.43755138
0.063064873 0.29489991 -0.44048655
0.027036935 -0.45285931 -0.42632943
0.027036935 -0.43500885 -0.42632943
0.062793434 -0.43458325 -0.42873281
0.027036935 -0.41715831 -0.42632955
0.027036935 -0.39930782 -0.42632943
0.027036935 -0.38145736 -0.42632937
0.027037345 -0.36360532 -0.42633998
0.027037345 -0.34575492 -0.42633998
0.15195309 -0.34542036 -0.42875391
0.027037345 -0.32790437 -0.42634004
0.16987129 -0.32807788 -0.42501444
0.027037345 -0.31005403 -0.42634004
0.027037345 -0.29220363 -0.42634004
0.22317454 -0.22040346 -0.43104655
0.24142191 -0.185332 -0.42300731
0.24115103 -0.16714634 -0.42803448
0.25944018 -0.078128912 -0.42069876
0.25937659 -0.060219154 -0.42173129
0.25968391 -0.04237169 -0.41674083
0.24110086 0.0290433 -0.42896545
0.2413681 0.047026172 -0.42400599
0.24174002 0.065160222 -0.41710418
0.22377856 0.10095657 -0.41796917
0.20583084 0.13672714 -0.41882277
0.027036935 0.17190811 -0.42632943
0.18789595 0.17247057 -0.4196865
0.027036935 0.18975857 -0.42632937
0.16972759 0.18930528 -0.43123657
0.027036935 0.20760916 -0.42632943
0.027037345 0.22545847 -0.42633998
0.027036935 0.24331006 -0.42632937
0.027036935 0.26116058 -0.42632943
0.027036935 0.27901104 -0.42632937
0.027036935 0.29686162 -0.42632943
0.027036935 0.31471205 -0.42632943
0.044643804 0.31586936 -0.41841727
-0.0098913014 -0.47509283 -0.40355486
0.0086625591 -0.47289261 -0.41498709
-0.0098913014 -0.45706698 -0.40355486
0.0086630508 -0.45495287 -0.41499776
0.044142194 -0.45733067 -0.40212739
-0.0098907202 -0.43903926 -0.40356565
0.0086630508 -0.43701509 -0.41499776
-0.0098907202 -0.42101359 -0.40356547
0.0086635351 -0.41907564 -0.41500837
0.098276988 -0.42072082 -0.40529352
-0.0098913014 -0.40298951 -0.40355474
0.11628942 -0.40328148 -0.40174854
0.0086630508 -0.40113968 -0.41499764
-0.0098907202 -0.38496214 -0.40356547
0.0086630508 -0.38320196 -0.41499776
-0.0098907202 -0.36693627 -0.40356559
0.0086635351 -0.36526269 -0.41500849
-0.0098907202 -0.3489106 -0.40356547
0.0086635351 -0.34732497 -0.41500849
0.0086635351 -0.32938743 -0.41500849
0.18800476 -0.3113088 -0.41615295
0.20596737 -0.27554563 -0.41527587
0.22394347 -0.2397555 -0.41439831
0.24193315 -0.20393839 -0.41351992
0.26037955 -0.132515 -0.40544456
0.26006529 -0.11430731 -0.41054791
0.25975174 -0.096178561 -0.4156397
0.25999323 -0.024447376 -0.41171825
0.26030385 -0.0064455569 -0.40667403
0.26061517 0.011634039 -0.40161854
0.22452475 0.1198664 -0.40181339
0.20645222 0.15587817 -0.40267897
0.0086630508 0.19080535 -0.41499776
-0.0098913014 0.20988825 -0.40355474
0.0086630508 0.20874313 -0.41499776
-0.0098907202 0.22791287 -0.40356559
0.0086635351 0.22667974 -0.41500849
0.15235154 0.22798744 -0.40287364
-0.0098907202 0.24593863 -0.40356559
0.0086630508 0.24461856 -0.41499764
0.13429356 0.24561456 -0.40637219
0.0086630508 0.26255625 -0.41499764
-0.0098913014 0.26396573 -0.40355474
0.11628942 0.26318905 -0.40986001
-0.0098907202 0.28199014 -0.40356565
0.0086630508 0.28049406 -0.41499764
0.098338827 0.28071263 -0.41332704
-0.0098907202 0.30001581 -0.40356559
0.0086630508 0.29843178 -0.41499782
-0.0098907202 0.31804159 -0.40356565
0.0086630508 0.31636938 -0.41499764
-0.0098913014 0.33606893 -0.40355474
0.0086630508 0.3343071 -0.41499776
-0.0098913014 0.35409477 -0.40355474
-0.028628781 -0.49543151 -0.39199883
-0.010139883 -0.49404192 -0.39894176
-0.028628781 -0.47731683 -0.39199883
-0.028628111 -0.45919999 -0.39200985
-0.028628111 -0.44108522 -0.39200985
-0.028628111 -0.42297053 -0.39200985
-0.028628111 -0.40485582 -0.39200985
-0.028628111 -0.38674119 -0.39200985
0.1343586 -0.38583097 -0.39792138
-0.028628111 -0.36862648 -0.39200985
0.15248707 -0.36832497 -0.39407086
0.17067486 -0.35075995 -0.39021844
0.20661736 -0.29543126 -0.39838821
0.22472408 -0.25938922 -0.39749771
0.24284455 -0.22331974 -0.39660662
0.26133206 -0.18762039 -0.38997799
0.26101297 -0.1691709 -0.39515972
0.2606959 -0.15080309 -0.40030801
0.27962619 -0.078892969 -0.38761407
0.27952456 -0.060721807 -0.38908112
0.26092854 0.029792199 -0.39653051
0.26124325 0.048029557 -0.39142036
0.24261123 0.083828501 -0.40093648
0.18862975 0.19257359 -0.3958562
0.17046338 0.21030654 -0.39937568
-0.028628781 0.22915941 -0.39199883
-0.028628111 0.24727294 -0.39200974
-0.028628111 0.26538762 -0.39200974
-0.028628111 0.28350234 -0.39200974
-0.028628111 0.30161709 -0.39200974
0.08016108 0.30070767 -0.39857274
-0.028628111 0.31973171 -0.39200985
-0.028628111 0.33784649 -0.39200968
0.025866114 0.33724579 -0.39591062
-0.028628111 0.35596117 -0.39200974
-0.047552094 -0.49776742 -0.3803283
-0.047551334 -0.47956055 -0.38033938
0.025057554 -0.4806067 -0.37490362
-0.047551334 -0.4613561 -0.38033944
-0.047550589 -0.44314966 -0.38035035
0.079846561 -0.4435403 -0.37814379
-0.047550589 -0.42494521 -0.38035029
-0.047551334 -0.40674251 -0.38033944
-0.047551334 -0.38853794 -0.38033944
0.18892235 -0.33313724 -0.38635355
0.20727645 -0.31560585 -0.38126487
0.2255161 -0.27930966 -0.38035035
0.24376926 -0.24298418 -0.37944615
0.26203638 -0.20663108 -0.37854123
0.28071418 -0.13406383 -0.3719101
0.28034967 -0.11559197 -0.37717164
0.27998751 -0.097202085 -0.38239884
0.27988008 -0.042624123 -0.3839494
0.28023794 -0.024447354 -0.37878412
0.28059658 -0.0061909817 -0.3736074
0.26172161 0.066447742 -0.38365257
0.24349464 0.10275789 -0.38454264
0.22528139 0.13904049 -0.38543189
0.20708227 0.17529686 -0.38630968
-0.047551334 0.2486206 -0.38033938
-0.047551334 0.26682514 -0.38033944
0.13454415 0.26762828 -0.37381792
-0.047550589 0.28502816 -0.38035029
0.11628942 0.28541377 -0.37740362
-0.047551334 0.30323407 -0.38033926
-0.047551334 0.3214387 -0.38033926
0.06156845 0.3221187 -0.37568969
-0.047551334 0.33964315 -0.38033926
-0.047551334 0.35784766 -0.38033926
0.0067221075 0.35903826 -0.37297535
-0.047551334 0.37605229 -0.38033926
-0.085965618 -0.52089155 -0.35665905
-0.066663221 -0.5184195 -0.36855268
-0.085966557 -0.50250697 -0.35664767
-0.066664085 -0.50012654 -0.36854142
-0.085966557 -0.48412007 -0.35664779
-0.066663221 -0.48182902 -0.36855257
-0.085965618 -0.46573108 -0.35665894
-0.066663221 -0.4635337 -0.36855268
-0.085965618 -0.44734424 -0.35665905
-0.066662356 -0.44523641 -0.36856383
-0.08596465 -0.42895553 -0.35667032
-0.066662356 -0.42694134 -0.36856371
-0.085965618 -0.41057059 -0.35665894
-0.066663221 -0.40864787 -0.36855268
0.13463281 -0.40965843 -0.36230171
0.15303712 -0.39192435 -0.35834455
0.22631922 -0.29952183 -0.36296189
0.24470758 -0.26293823 -0.36203319
0.26310959 -0.22632515 -0.3611148
0.28144735 -0.17125447 -0.36132771
0.28108037 -0.15261805 -0.36662501
0.28095758 0.012145599 -0.36839676
0.28132018 0.030562861 -0.36316311
0.28168359 0.049061142 -0.35791779
0.26274553 0.085394725 -0.36702633
0.24439047 0.12195379 -0.36791784
0.22604918 0.15848559 -0.36880869
0.20811892 0.1959433 -0.35937709
0.18964125 0.21394613 -0.36300659
0.17121999 0.23189524 -0.36661386
0.15285426 0.24978885 -0.37022126
-0.085965618 0.26974177 -0.35665905
-0.066663221 0.2682769 -0.36855268
-0.08596465 0.28812712 -0.35667014
-0.066661507 0.28656924 -0.3685748
-0.085965618 0.30651537 -0.35665894
-0.066662356 0.30486584 -0.36856371
-0.066662356 0.32316092 -0.36856365
-0.085965618 0.32490224 -0.35665894
-0.085965618 0.34328914 -0.35665894
-0.066663221 0.34145784 -0.36855257
-0.085965618 0.3616758 -0.35665894
-0.066663221 0.35975322 -0.36855268
-0.085965618 0.38006273 -0.35665894
-0.066663221 0.37804833 -0.36855257
-0.10551567 -0.5419926 -0.34406644
-0.10546321 -0.52339089 -0.34463441
-0.10546426 -0.50491375 -0.34462303
-0.10546426 -0.48643419 -0.34462303
-0.10546321 -0.4679527 -0.34463441
0.060983412 -0.46689555 -0.35035658
-0.10546216 -0.44947124 -0.34464586
-0.10546216 -0.43099201 -0.34464574
0.11628942 -0.4294627 -0.35367543
0.17150265 -0.37413114 -0.35437423
0.19003007 -0.35628024 -0.35037929
0.20861909 -0.3383683 -0.34638226
0.22727023 -0.32039621 -0.34237206
0.2456592 -0.28318697 -0.34437317
0.26419801 -0.24631025 -0.34344119
0.2827512 -0.20940492 -0.34250861
0.28181601 -0.18997395 -0.35600662
0.30122328 -0.11691435 -0.3428157
0.30080825 -0.098254919 -0.34820688
0.300396 -0.079679385 -0.35356271
0.30024597 -0.061238714 -0.35551149
0.30065238 -0.042883702 -0.35023212
0.30106145 -0.024447354 -0.34491837
0.28228581 0.067772821 -0.3492257
0.26378536 0.10461161 -0.35014182
0.24529903 0.14142209 -0.35105729
0.22682735 0.17820556 -0.35196078
-0.10546111 0.28969929 -0.34465712
-0.10546321 0.30818152 -0.34463441
0.097890645 0.30673066 -0.35510623
-0.10546321 0.32666102 -0.34463441
-0.10546321 0.34514025 -0.34463429
0.042609289 0.34395334 -0.35234439
-0.10546321 0.36361977 -0.34463441
-0.10546321 0.38209909 -0.34463441
-0.10546216 0.40057644 -0.34464574
-0.086232558 0.39900765 -0.35350639
-0.12515584 -0.54448336 -0.33251107
-0.12515697 -0.52591306 -0.33249962
-0.12515812 -0.50734252 -0.33248812
-0.12515812 -0.48876956 -0.33248818
-0.12515812 -0.47019675 -0.33248818
-0.12515697 -0.45162174 -0.33249974
-0.12515584 -0.43304703 -0.33251119
0.24662566 -0.30373931 -0.32643795
0.30247873 -0.17339879 -0.32650715
0.30205804 -0.1544854 -0.33197176
0.30164015 -0.13565783 -0.33740014
0.30147231 -0.0059290398 -0.33958077
0.30188417 0.012671554 -0.33423078
0.30229872 0.031355426 -0.32884562
0.28347164 0.087007448 -0.33210939
0.26483932 0.12410261 -0.3330273
0.24622117 0.16116938 -0.33394432
0.19068144 0.23592463 -0.32922518
0.17199776 0.25409439 -0.33293557
0.15337119 0.27220675 -0.33664572
-0.12515584 0.29128873 -0.33251107
0.13484943 0.29107276 -0.33416212
-0.12515697 0.30986312 -0.33249962
-0.12515697 0.32843578 -0.33249962
0.079126149 0.32860377 -0.33135164
-0.12515812 0.34701031 -0.33248818
-0.12515812 0.36558321 -0.33248812
-0.031871647 0.38299555 -0.3393411
-0.12515812 0.3841562 -0.33248818
-0.12515697 0.40272704 -0.33249956
-0.14505087 -0.54712808 -0.32024139
-0.14505212 -0.52846318 -0.32022983
-0.14505334 -0.50979829 -0.32021821
-0.14505334 -0.49113095 -0.32021832
0.041672125 -0.49080548 -0.32190937
-0.14505212 -0.47246146 -0.32022995
-0.14505212 -0.45379412 -0.32022995
0.097661257 -0.45289519 -0.32530731
-0.14505087 -0.43512493 -0.32024145
0.15360466 -0.41625744 -0.32148093
0.17235631 -0.39822653 -0.31741017
0.19117174 -0.38013837 -0.31330228
0.26530337 -0.2665951 -0.32549202
0.28399572 -0.22942165 -0.3245455
0.3029004 -0.19239728 -0.32102931
0.32224149 -0.099339031 -0.31299919
0.32177454 -0.080488779 -0.31851339
0.32156739 -0.061770618 -0.32095987
0.32202744 -0.043150824 -0.31552672
0.30271512 0.050122976 -0.32343626
0.30345845 0.069137186 -0.31378013
0.28467619 0.10652012 -0.31472361
0.26590848 0.14387411 -0.31566632
0.24715596 0.18120004 -0.31659663
0.22822285 0.19941942 -0.32174718
0.20942315 0.21770033 -0.32549202
-0.14505212 0.31156316 -0.32022995
-0.14505212 0.33023041 -0.32023001
-0.14505212 0.34889761 -0.32022983
-0.14505212 0.36756489 -0.32022995
0.02313704 0.36679253 -0.32500726
-0.14505334 0.3862341 -0.32021815
-0.14505087 0.40489733 -0.32024157
-0.16514929 -0.54979968 -0.30784655
-0.16514929 -0.53103709 -0.30784655
-0.052551091 -0.53096896 -0.30817419
-0.16515063 -0.51227689 -0.3078348
-0.165152 -0.49351645 -0.30782306
-0.16515063 -0.47475153 -0.30783468
0.078585848 -0.47689024 -0.29625833
-0.16514929 -0.4559868 -0.30784655
-0.16514929 -0.43722418 -0.30784655
0.13511458 -0.43860099 -0.29971683
0.21005097 -0.36198896 -0.30918062
0.22899431 -0.34377789 -0.30504489
0.24800271 -0.32550627 -0.30088317
0.2664254 -0.28718528 -0.30727261
0.28525898 -0.24974012 -0.30631161
0.30410743 -0.21226536 -0.30534983
0.32365707 -0.15640858 -0.29628187
0.32318273 -0.1372983 -0.3018837
0.32271153 -0.11827558 -0.30744833
0.32248959 -0.024447398 -0.3100692
0.3229548 -0.005659664 -0.30457526
0.32342213 0.013213148 -0.29905647
0.30481547 0.088668212 -0.29615188
0.28589737 0.12631524 -0.29709727
0.26699314 0.16393228 -0.29805368
0.17279786 0.27693093 -0.2982896
-0.16515063 0.31328067 -0.30783468
0.11628942 0.31298071 -0.30999899
-0.16515063 0.33204341 -0.30783468
-0.16515063 0.35080606 -0.3078348
0.059985183 0.35091415 -0.30713212
-0.16515063 0.36956877 -0.30783468
-0.16515063 0.38833135 -0.3078348
-0.16514929 0.40709206 -0.30784643
-0.20596732 -0.55522311 -0.28268433
-0.18545274 -0.55249625 -0.29533583
-0.20596732 -0.53626692 -0.28268421
-0.1854542 -0.53363979 -0.29532415
-0.20596887 -0.517313 -0.28267252
-0.18545569 -0.5147832 -0.29531235
-0.20597045 -0.49835894 -0.28266042
-0.18545713 -0.49592635 -0.29530048
-0.20597045 -0.47940239 -0.28266048
-0.18545569 -0.47706506 -0.29531223
-0.20596887 -0.46044394 -0.28267229
-0.1854542 -0.45820388 -0.29532403
-0.18560435 -0.43955132 -0.29410511
0.26756299 -0.30808529 -0.28880048
0.2865406 -0.27036569 -0.28781301
0.30553257 -0.23261486 -0.28683668
0.32461032 -0.19489172 -0.2850247
0.32413259 -0.17560607 -0.29066622
0.34378797 -0.081322096 -0.28243321
0.34351331 -0.062318064 -0.28540635
0.32389152 0.032171309 -0.29351276
0.3243621 0.051215351 -0.28795576
0.24897049 0.20300579 -0.28292328
0.22983806 0.22157469 -0.28677696
0.21076496 0.24008414 -0.29063064
0.19175157 0.25853559 -0.29447222
0.15411624 0.29708064 -0.28825337
-0.20596887 0.31676722 -0.28267241
-0.18545569 0.31501579 -0.29531217
-0.20596887 0.3357237 -0.28267229
-0.1854542 0.33387321 -0.29532403
0.097353548 0.33533415 -0.28533471
-0.18545569 0.35273406 -0.29531235
-0.20596887 0.35467994 -0.28267241
-0.20596887 0.37363639 -0.28267241
-0.18545569 0.37159303 -0.29531235
-0.20597045 0.39259475 -0.28266031
-0.18545569 0.39045218 -0.29531235
-0.20596887 0.41154912 -0.28267241
-0.1854542 0.40930918 -0.29532415
-0.22669484 -0.55797857 -0.26990134
-0.22669484 -0.53892386 -0.26990134
-0.22669651 -0.51987153 -0.26988935
0.0020209849 -0.51961064 -0.27119291
-0.22669818 -0.50081903 -0.2698772
-0.22669651 -0.48176196 -0.26988935
-0.22669651 -0.46270713 -0.26988935
0.11628942 -0.46267942 -0.27004629
-0.20755328 -0.44353792 -0.27056539
0.17336853 -0.42400116 -0.27357918
0.19235006 -0.40475065 -0.2750352
0.21152845 -0.38635567 -0.27079487
0.23077334 -0.36789909 -0.26652753
0.28784263 -0.29130796 -0.26901948
0.30698043 -0.25327653 -0.26802814
0.32613355 -0.21521476 -0.2670359
0.34484076 -0.11967713 -0.27103603
0.34431368 -0.1004554 -0.27674186
0.34403008 -0.043425746 -0.27981263
0.34455025 -0.024447354 -0.27418113
0.34507287 -0.0053820852 -0.26852393
0.32526594 0.070541978 -0.27728218
0.30619323 0.10848524 -0.27825415
0.28713641 0.14639957 -0.27921331
0.26816225 0.18437776 -0.27906948
-0.22669651 0.31853861 -0.26988918
-0.22669651 0.33759338 -0.26988918
-0.22669651 0.35664818 -0.26988918
-0.22669651 0.37570298 -0.26988918
-0.22669651 0.39475775 -0.26988918
-0.22669484 0.41381028 -0.26990145
-0.24763872 -0.56076247 -0.25698507
-0.24763872 -0.54160851 -0.25698507
-0.24763872 -0.52245432 -0.25698507
-0.24764226 -0.50330484 -0.25696063
-0.24764048 -0.48414835 -0.25697279
-0.24763872 -0.46499199 -0.25698495
-0.24763872 -0.44583786 -0.25698513
-0.22863685 -0.44602385 -0.25588638
0.25008476 -0.34937885 -0.26224542
0.26946297 -0.33079448 -0.25794864
0.346439 -0.17788039 -0.25373483
0.34590453 -0.15838952 -0.25952053
0.34537143 -0.13898842 -0.26529169
0.34559673 0.013770422 -0.26285279
0.34612411 0.03301134 -0.25714368
0.34665394 0.052340761 -0.25140816
0.326805 0.090379238 -0.25910646
0.30759221 0.12859491 -0.2600807
0.28839368 0.16677955 -0.26106614
0.23150057 0.24437854 -0.25078279
0.21214601 0.26312226 -0.25474983
0.19285293 0.28180674 -0.25870442
-0.24764048 0.32032824 -0.25697279
0.13539603 0.31947142 -0.26315647
-0.24763872 0.33948067 -0.25698507
-0.24764048 0.35863674 -0.25697267
0.078030169 0.35814506 -0.26016581
-0.24764048 0.3777909 -0.25697279
-0.24764048 0.39694512 -0.25697279
-0.24763872 0.41609728 -0.25698507
-0.074945956 0.41539395 -0.26095682
-0.26880229 -0.54432118 -0.2439332
-0.26880229 -0.52506661 -0.24393326
-0.26880419 -0.50581443 -0.24392074
-0.26880419 -0.48655975 -0.2439208
0.097001843 -0.4873493 -0.23964691
-0.26880229 -0.46730283 -0.2439332
-0.26880229 -0.4480482 -0.2439332
0.15480866 -0.44815898 -0.24327952
0.28916305 -0.31257012 -0.24996084
0.30845064 -0.274257 -0.24892956
0.32775208 -0.23591009 -0.24792212
0.34706911 -0.19753219 -0.24691373
0.36705273 -0.10160533 -0.23939937
0.36646706 -0.082180701 -0.24525183
0.36611378 -0.062881872 -0.24878222
0.3666904 -0.043708958 -0.2430203
0.36726964 -0.02444749 -0.23723173
0.34773925 0.071989983 -0.23965919
0.32836694 0.11051098 -0.24066108
0.30901104 0.14900209 -0.24164981
0.28993338 0.18778409 -0.23884243
0.27039447 0.20671016 -0.24282289
0.25091687 0.22557506 -0.24680299
0.17413102 0.30332169 -0.24056214
-0.26880229 0.32213518 -0.24393308
-0.26880229 0.34138978 -0.24393308
0.11628942 0.34232646 -0.23752934
-0.26880229 0.36064437 -0.24393308
-0.26880229 0.37989894 -0.24393308
-0.018405676 0.39888006 -0.24554735
-0.26880419 0.3991555 -0.2439208
-0.26880229 0.41840807 -0.24393308
-0.29018903 -0.54706258 -0.23074365
-0.29018903 -0.5277065 -0.23074365
-0.29019105 -0.5083527 -0.23073137
0.058275118 -0.50789988 -0.2330842
-0.29019105 -0.48899654 -0.23073125
-0.29018903 -0.46963808 -0.23074365
-0.29018903 -0.45028198 -0.23074365
0.21305466 -0.41150838 -0.23114228
0.23260945 -0.39279413 -0.22677457
0.25223434 -0.37402004 -0.22235405
0.30994272 -0.29556206 -0.22954667
0.32939577 -0.25692704 -0.2285111
0.34886366 -0.21825929 -0.22748697
0.36882883 -0.16043018 -0.22165143
0.36823487 -0.14072986 -0.22758687
0.3676424 -0.12112159 -0.23350704
0.36785287 -0.0050962605 -0.23140395
0.36843878 0.014344865 -0.22554898
0.34947002 0.092142902 -0.22092307
0.32995325 0.13094449 -0.2219274
0.31045103 0.16971432 -0.22294343
-0.29019105 0.3046082 -0.23073113
-0.27203381 0.3056275 -0.22294343
-0.29018903 0.32396269 -0.23074365
-0.29018903 0.34331876 -0.23074365
-0.29018903 0.36267501 -0.23074365
-0.29018903 0.38203114 -0.23074365
0.03884422 0.38213998 -0.23007059
-0.29018903 0.40138718 -0.23074365
-0.29018903 0.42074329 -0.23074365
-0.31180257 -0.54983312 -0.21741426
-0.31180257 -0.53037429 -0.21741438
-0.31180257 -0.51091552 -0.21741438
-0.31180257 -0.49145684 -0.21741438
-0.31180257 -0.4719981 -0.21741426
0.13578828 -0.47292089 -0.21220231
-0.31180257 -0.45253935 -0.21741426
-0.31237924 -0.43363103 -0.2140094
-0.29429132 -0.43502811 -0.20536757
0.1941705 -0.43332312 -0.21591473
0.27192822 -0.35517985 -0.2179178
0.29169148 -0.33627328 -0.21346617
0.31152451 -0.31730005 -0.2089988
0.33106413 -0.27827212 -0.20880854
0.35068521 -0.23931018 -0.20776844
0.37032235 -0.20031632 -0.20672739
0.36942565 -0.18022354 -0.21568763
0.38984144 -0.083065704 -0.2069304
0.38939738 -0.063462809 -0.21105099
0.3900373 -0.044000819 -0.20511353
0.36902624 0.033876479 -0.21967924
0.36961764 0.053499788 -0.21376932
0.27269173 0.22970641 -0.20552015
0.25292051 0.2488147 -0.20961988
0.23321247 0.26786014 -0.21371889
0.21357773 0.28687528 -0.2175529
-0.31180257 0.30635104 -0.21741426
-0.25411844 0.30697024 -0.21268284
-0.31180257 0.32580966 -0.21741426
0.1552521 0.32621679 -0.21447647
-0.31180048 0.34526655 -0.2174269
-0.31180257 0.36472711 -0.21741426
0.096783951 0.36566198 -0.2113421
-0.31180257 0.38418588 -0.21741438
-0.31180257 0.40364468 -0.21741426
-0.35572207 -0.53579313 -0.19034004
-0.33364421 -0.53306806 -0.20395565
-0.35572207 -0.51612598 -0.19034004
-0.33364648 -0.51350814 -0.20394289
-0.35572445 -0.49646127 -0.19032705
-0.33364648 -0.49394566 -0.20394301
-0.35572207 -0.47679168 -0.19033992
-0.33364421 -0.47438103 -0.20395565
-0.35572445 -0.45712677 -0.19032705
-0.33364648 -0.45482081 -0.20394289
-0.35572445 -0.43745959 -0.19032705
-0.33364874 -0.43526053 -0.20393014
-0.27607745 -0.43643263 -0.19667947
-0.35572207 -0.41779029 -0.19034004
0.39114642 -0.12261063 -0.19482207
0.39049166 -0.10279085 -0.2008971
0.39068019 -0.024447309 -0.19914782
0.39132613 -0.0048018731 -0.19315445
0.37090963 0.073483542 -0.20085883
0.35122687 0.11259943 -0.20190465
0.3315624 0.15168504 -0.20292413
0.31242555 0.19130234 -0.19729388
0.29252785 0.21053718 -0.20139456
-0.35572445 0.29022858 -0.19032705
-0.33494151 0.2894524 -0.19662833
-0.33364648 0.30811399 -0.20394289
-0.35572445 0.30989584 -0.19032705
-0.2360567 0.30832404 -0.20233798
-0.2178451 0.30968723 -0.19192135
0.1949382 0.30980986 -0.19098306
-0.35572207 0.32956123 -0.19034004
-0.33364648 0.3276763 -0.20394301
-0.35572207 0.34922835 -0.19034004
-0.33364421 0.34723687 -0.20395565
-0.33364421 0.36679929 -0.20395553
-0.35572207 0.36889556 -0.19033992
-0.35572207 0.38856262 -0.19033992
-0.33364421 0.38636163 -0.20395565
-0.35572207 0.40822977 -0.19033992
-0.33364648 0.40592605 -0.20394289
-0.37803781 -0.51877457 -0.17657769
-0.37804025 -0.49900395 -0.17656457
0.11628942 -0.49830341 -0.18035638
-0.37803781 -0.47922838 -0.17657769
-0.37804025 -0.45945755 -0.17656457
0.17543352 -0.45817077 -0.18416262
-0.37804025 -0.43968439 -0.17656457
-0.25774044 -0.43784881 -0.18791902
-0.23927511 -0.4392727 -0.179111
-0.37803781 -0.41990915 -0.17657757
-0.33721733 -0.41880107 -0.18377471
0.2345084 -0.41851053 -0.18566132
0.25445482 -0.39946774 -0.18114698
0.27447414 -0.38036299 -0.17657757
0.33275881 -0.29995385 -0.18879533
0.35253668 -0.26069468 -0.18772566
0.37232977 -0.22140153 -0.18666816
0.39312667 -0.18264006 -0.17644751
0.39246392 -0.16253465 -0.1825974
0.39180291 -0.14252459 -0.18873072
0.39197654 0.014936524 -0.18711948
0.39262998 0.034768514 -0.18105638
0.39328653 0.054694682 -0.17496407
0.37284207 0.093961485 -0.18154848
0.35301042 0.13336657 -0.1825974
0.33319601 0.17274041 -0.18363237
-0.37803525 0.27214745 -0.17659056
-0.37804025 0.29192367 -0.17656457
-0.3182829 0.29160514 -0.17914987
-0.37803781 0.3116951 -0.17657757
-0.19948526 0.31106326 -0.18140602
-0.16029577 0.31140599 -0.1787864
-0.37803781 0.33146819 -0.17657757
-0.37803781 0.35124126 -0.17657757
0.1359759 0.34959567 -0.18782866
-0.37803781 0.37101436 -0.17657757
-0.37803781 0.39078748 -0.17657757
-0.17970149 0.44913808 -0.18182063
-0.15913107 0.44770196 -0.18959355
-0.13943626 0.44766161 -0.18981242
-0.12033115 0.44879386 -0.18368411
-0.18023933 0.46976721 -0.17716265
-0.15938379 0.46782622 -0.18724847
-0.13958962 0.46762767 -0.18827987
-0.12039927 0.46865407 -0.1829468
-0.15966205 0.48803392 -0.18466663
-0.13974448 0.48762038 -0.18673265
-0.12046742 0.48852572 -0.18220901
-0.16001903 0.50843316 -0.18135428
-0.1398982 0.50763458 -0.1851964
-0.12053441 0.50840616 -0.18148386
-0.16037552 0.52888262 -0.17804623
-0.14010908 0.52779561 -0.18308914
-0.12060265 0.5283007 -0.18074512
-0.14034496 0.54804462 -0.18073225
-0.12069489 0.54826474 -0.17974663
-0.14081801 0.5688774 -0.17600536
-0.12110302 0.56903362 -0.17532861
-0.40059519 -0.5015716 -0.1626662
-0.40059519 -0.48169142 -0.16266608
-0.40059519 -0.46181127 -0.16266632
-0.40059781 -0.44193318 -0.16265309
-0.22068392 -0.44070861 -0.17022884
-0.20196192 -0.44215226 -0.16129839
-0.12127872 -0.44019157 -0.17342687
-0.40059519 -0.42205101 -0.16266608
-0.32021242 -0.42126721 -0.16775656
-0.40058994 -0.40216693 -0.16269243
-0.3792395 -0.40104932 -0.1703335
0.2945658 -0.36119166 -0.17197895
0.31472957 -0.3419517 -0.16736364
0.33496583 -0.32264248 -0.16273201
0.3544164 -0.28241825 -0.167377
0.37436914 -0.24282253 -0.16628933
0.39433736 -0.20319244 -0.16521394
0.41466218 -0.10401346 -0.16119313
0.4139421 -0.08397793 -0.16742921
0.41339415 -0.064061359 -0.17217469
0.414101 -0.04430142 -0.1660533
0.41481119 -0.024447398 -0.15990269
0.39480615 0.075022839 -0.160864
0.37480545 0.1147536 -0.16192997
0.3548224 0.15445231 -0.16298163
0.29519919 0.23397774 -0.16283715
0.27505851 0.25339842 -0.16708851
-0.40059257 0.27375379 -0.1626792
-0.36052901 0.27356413 -0.16432142
0.25498474 0.27275684 -0.17131317
-0.40059781 0.29363719 -0.16265309
-0.30139416 0.29378775 -0.16142988
0.23536804 0.29309556 -0.16704941
-0.40059519 0.31351569 -0.1626662
-0.18097059 0.31244719 -0.17082989
-0.40059519 0.33339581 -0.1626662
0.17590265 0.33323199 -0.16384876
-0.40059257 0.35327408 -0.16267943
-0.40059257 0.37315407 -0.16267943
-0.10195152 0.45171469 -0.16787446
-0.10182519 0.4712677 -0.16936612
-0.18077765 0.49046889 -0.17250085
-0.10172006 0.49084768 -0.17060781
-0.18132095 0.51125121 -0.1677959
-0.10170346 0.51062596 -0.17080379
-0.18209551 0.53253788 -0.16108787
-0.10168798 0.53040421 -0.17098665
-0.16073437 0.54938757 -0.17471659
-0.10167471 0.55018532 -0.17114341
-0.16141675 0.57063723 -0.16838491
-0.10192712 0.57068872 -0.16816247
-0.14167885 0.59070784 -0.1674031
-0.12166469 0.5902673 -0.16924834
-0.10228461 0.5915339 -0.16394055
-0.12233709 0.61188996 -0.1619693
-0.42339826 -0.50416982 -0.14860332
-0.42339826 -0.4841814 -0.14860332
0.15622011 -0.48365021 -0.1516031
-0.42339826 -0.4641929 -0.14860332
-0.42339826 -0.44420451 -0.14860332
-0.18311112 -0.44360822 -0.15229237
-0.14367066 -0.44438291 -0.14750004
0.21596682 -0.44309244 -0.15548205
-0.42339826 -0.42421603 -0.14860332
-0.30299133 -0.42376238 -0.15155005
-0.42339551 -0.40422565 -0.14861667
-0.36240649 -0.40341493 -0.15415943
-0.42339277 -0.38423556 -0.14862978
-0.40256542 -0.38365459 -0.15282249
0.35632631 -0.30449039 -0.14670146
0.37643999 -0.26458639 -0.1455965
0.41611135 -0.14437616 -0.14864326
0.41538423 -0.12414569 -0.15493989
0.41552633 -0.0044982489 -0.15370941
0.41624486 0.0155467 -0.14748657
0.33567715 0.19494043 -0.15433145
0.31540641 0.21449295 -0.15857148
-0.42350602 0.23545414 -0.14808488
-0.42339277 0.25538781 -0.1486299
-0.40132505 0.25426808 -0.15901983
-0.42339551 0.27537766 -0.14861667
-0.34383547 0.2756342 -0.14639544
-0.42339826 0.2953676 -0.14860332
-0.42339826 0.31535596 -0.14860332
-0.42339551 0.33534262 -0.14861667
-0.42339551 0.35533085 -0.14861655
-0.42339551 0.37531924 -0.14861655
-0.20333578 0.45499048 -0.15014386
-0.083800748 0.51579601 -0.14592946
-0.083509028 0.53498822 -0.14971912
-0.18292148 0.5540269 -0.15393448
-0.083303794 0.55437303 -0.15238523
-0.083260968 0.57420367 -0.15294147
-0.16294701 0.59386182 -0.15418601
-0.083350718 0.59443694 -0.1517756
-0.14273567 0.61315268 -0.15684271
-0.10265556 0.6124835 -0.15956008
-0.083517209 0.61493385 -0.14961278
-0.14391847 0.63608027 -0.14502358
-0.12309031 0.63384688 -0.15381539
-0.10317677 0.63395107 -0.15340495
-0.083766937 0.63573843 -0.14636874
-0.10370044 0.65552133 -0.14722037
-0.12393571 0.65619045 -0.14466381
-0.44645107 -0.48669857 -0.13438642
-0.44645107 -0.46660063 -0.13438654
-0.44645107 -0.44650283 -0.13438642
-0.16412704 -0.44507203 -0.14323688
-0.44645107 -0.42640492 -0.13438642
-0.28555232 -0.42628911 -0.13513851
-0.44644821 -0.40630504 -0.13439977
-0.3453607 -0.40581051 -0.13778114
0.27710718 -0.40638953 -0.13382208
-0.44644821 -0.38620734 -0.13439977
-0.38635921 -0.38635442 -0.13333797
-0.44644821 -0.36610952 -0.13439977
-0.42466354 -0.36504734 -0.14251602
-0.44693512 -0.34628999 -0.13214099
0.39657074 -0.22464845 -0.14449048
0.41757309 -0.18513201 -0.1359843
0.41684043 -0.1647045 -0.1423291
0.43814033 -0.064678699 -0.13207352
0.41696537 0.035687812 -0.14124703
0.41769087 0.055926345 -0.13496387
0.39695489 0.095837846 -0.14092624
0.37679905 0.13586628 -0.14200866
0.35666117 0.1758624 -0.14307654
-0.44644821 0.21672592 -0.13439977
-0.44644535 0.23682237 -0.13441324
-0.44644535 0.25691995 -0.13441336
-0.38538301 0.25648916 -0.13841057
-0.44644821 0.27701929 -0.13439989
-0.44645107 0.29711863 -0.13438642
-0.28427267 0.29600218 -0.14345026
-0.44645107 0.31721649 -0.1343863
0.21658577 0.31656021 -0.13940132
-0.44644821 0.33731258 -0.13439977
-0.44644821 0.35741031 -0.13439977
0.15645891 0.35716286 -0.13609147
-0.0038299188 0.41599017 -0.14451706
-0.084223986 0.49688742 -0.14043152
-0.16501136 0.6185258 -0.1350311
-0.064843118 0.61957943 -0.13075387
-0.064803928 0.63956153 -0.13131964
-0.14536534 0.65988046 -0.13056517
-0.084098473 0.65687144 -0.14206195
-0.064901948 0.66005343 -0.12990499
-0.12492853 0.67910492 -0.13391614
-0.10435236 0.6775946 -0.13952172
-0.084460005 0.67817563 -0.13736546
-0.46975774 -0.46903485 -0.120013
0.19705665 -0.46866706 -0.12218451
-0.46975774 -0.44882637 -0.120013
-0.46975774 -0.42861784 -0.120013
-0.2678932 -0.42885005 -0.11850441
0.25741827 -0.42767271 -0.1261518
-0.4697547 -0.40840739 -0.12002659
-0.32810032 -0.40823859 -0.12118065
-0.4697547 -0.38819891 -0.12002659
0.2975359 -0.38694039 -0.12910938
-0.4697547 -0.36799052 -0.12002671
-0.40855646 -0.36761582 -0.12288952
0.31804162 -0.36742622 -0.12433875
-0.4697547 -0.34778216 -0.12002647
0.33862227 -0.34784064 -0.11955106
-0.4697547 -0.32757372 -0.12002659
0.35927826 -0.32818344 -0.1147455
0.37854427 -0.28670216 -0.12456918
0.39883888 -0.24645051 -0.12344503
0.41914928 -0.20616326 -0.12233365
0.43959737 -0.10527436 -0.12024379
0.43880641 -0.084919304 -0.12666535
0.43891799 -0.044611715 -0.1257596
0.43969941 -0.024447398 -0.11941504
0.41946745 0.076611936 -0.11957812
0.39913702 0.11697635 -0.12067831
0.37882501 0.157308 -0.12176394
-0.4697547 0.19784527 -0.12002659
-0.46975166 0.21805245 -0.12004006
-0.43015498 0.21841681 -0.11609519
0.33906731 0.21858294 -0.1142956
-0.46975166 0.23826078 -0.12004006
-0.4076736 0.23753414 -0.1273005
0.31847614 0.2383953 -0.11869478
-0.46975166 0.25846905 -0.12004006
-0.36918741 0.25874737 -0.11745691
0.29795277 0.25813994 -0.12309277
-0.32691067 0.27773455 -0.12820518
0.27749801 0.27781868 -0.12747598
-0.4697547 0.27867895 -0.12002647
-0.46975774 0.29888904 -0.120013
-0.26691115 0.29824772 -0.12521851
0.25804687 0.29956961 -0.11448658
-0.4697547 0.31909576 -0.12002659
-0.4697547 0.33930421 -0.12002659
0.055834021 0.39874038 -0.12738144
-0.065540254 0.58165151 -0.1206919
-0.065038428 0.60012621 -0.12793517
-0.065162912 0.6812005 -0.12613821
-0.10546505 0.70129442 -0.12638164
-0.085370079 0.70152682 -0.12554324
-0.06574364 0.70368487 -0.11775613
-0.49332243 -0.45117575 -0.10548043
-0.49332243 -0.43085527 -0.10548043
-0.2500056 -0.43144181 -0.10167062
-0.49331927 -0.41053283 -0.10549402
-0.31061655 -0.4106957 -0.1043812
-0.49331927 -0.39021257 -0.10549402
-0.36990505 -0.38909325 -0.11357236
-0.49331927 -0.36989233 -0.10549402
-0.39220458 -0.37022334 -0.10296464
-0.49331927 -0.34957206 -0.10549402
-0.43093199 -0.34872675 -0.1123569
-0.49331927 -0.3292518 -0.10549402
-0.45277637 -0.32930398 -0.10504091
-0.49331927 -0.30893144 -0.10549414
-0.47262824 -0.30875245 -0.10715473
0.38068289 -0.30917889 -0.10319853
-0.49331605 -0.28860971 -0.10550797
0.40114546 -0.26860973 -0.10204244
0.42162275 -0.228003 -0.10091269
0.44199699 -0.16694446 -0.10076118
0.4411943 -0.14628677 -0.10727835
0.44039387 -0.1257301 -0.11377704
0.44048464 -0.0041852072 -0.11303985
0.44127542 0.016175894 -0.10661983
0.44207001 0.036636442 -0.10016835
0.40135342 0.13844627 -0.10011315
-0.49331927 0.1584353 -0.10549414
-0.49331927 0.17875549 -0.10549414
-0.47215086 0.17846313 -0.10929298
0.38088131 0.17908488 -0.10121596
-0.49331927 0.19907585 -0.10549402
-0.45233548 0.19894093 -0.10708642
0.35972634 0.19870315 -0.10989535
-0.49331605 0.21939477 -0.10550773
-0.49331605 0.23971501 -0.10550785
-0.39158565 0.23964772 -0.10618067
-0.49331927 0.26003662 -0.10549402
-0.49331927 0.28035694 -0.10549402
-0.30974507 0.27986291 -0.10977209
-0.49332243 0.300679 -0.10548043
-0.24930458 0.30052501 -0.10672963
-0.49331927 0.32099763 -0.10549402
0.19739631 0.34053352 -0.11115408
0.11628942 0.38120282 -0.11040163
-0.046627194 0.64758366 -0.099740863
-0.046170622 0.66600776 -0.10715485
-0.14745308 0.68562847 -0.10970354
-0.046169773 0.68631154 -0.10716844
-0.12688728 0.70508271 -0.11271203
-0.04639563 0.70763534 -0.1035012
-0.1073187 0.72768891 -0.10449123
-0.086533576 0.72599757 -0.11042905
-0.066472426 0.72690684 -0.1072371
0.17765385 -0.49490795 -0.08801949
0.2388296 -0.45333797 -0.092104554
-0.51714611 -0.43311551 -0.090799809
-0.23144414 -0.43354571 -0.088005543
-0.51714611 -0.41268218 -0.090799928
-0.29290748 -0.4131844 -0.08736527
0.30061147 -0.41357177 -0.084717155
-0.51714611 -0.39224875 -0.090799809
-0.3532024 -0.39187571 -0.093491316
-0.51714611 -0.37181532 -0.090799809
-0.51714611 -0.35138184 -0.090799928
-0.4146874 -0.35120237 -0.092257142
-0.51714611 -0.33094841 -0.090799928
-0.51714283 -0.3105135 -0.090813756
-0.45702469 -0.31110451 -0.085330844
-0.51714283 -0.29008034 -0.090813637
-0.47702122 -0.29041427 -0.087476611
-0.51714283 -0.26964697 -0.090813756
-0.49698544 -0.26975739 -0.089618921
-0.51714283 -0.24921368 -0.090813756
0.44280368 -0.1877045 -0.094211817
0.46446973 -0.085891008 -0.084591746
0.46366823 -0.065315507 -0.090716481
0.46452087 -0.044931605 -0.084200978
0.4428668 0.057196945 -0.093699098
-0.51865429 0.098444968 -0.084480166
0.42184412 0.097774498 -0.098995686
-0.51714611 0.11858648 -0.090799928
-0.51714611 0.1390198 -0.090799928
-0.49664217 0.13900112 -0.091105342
-0.51714611 0.1594533 -0.090799809
-0.47670746 0.15958622 -0.088882089
-0.51714611 0.17988667 -0.090799809
-0.45674229 0.18020682 -0.086641073
-0.51714283 0.20031883 -0.090813756
-0.43674344 0.20086236 -0.084396362
-0.51714283 0.22075221 -0.090813756
-0.4141798 0.22038464 -0.0947932
-0.51714283 0.24118555 -0.090813756
-0.37523866 0.24179697 -0.084703326
-0.51714611 0.26162022 -0.090799809
-0.35272682 0.26104078 -0.09617722
-0.51714611 0.28205374 -0.090799689
-0.29233593 0.28202161 -0.091077685
-0.23053052 0.30197135 -0.094987154
0.2391257 0.32358873 -0.085693359
-0.046781108 0.72975385 -0.097241759
-0.087999731 0.75185144 -0.091382861
-0.067369089 0.75099969 -0.094294786
-0.047316507 0.75268066 -0.088548303
-0.21216242 -0.43501225 -0.078480601
-0.27497077 -0.41570756 -0.070114613
-0.5412398 -0.39430755 -0.075941205
-0.33624047 -0.39469913 -0.073115349
0.32146829 -0.39376941 -0.079825401
-0.5412398 -0.37375978 -0.075941205
-0.37560499 -0.37287253 -0.082720757
0.34240192 -0.37389401 -0.074915528
-0.5412398 -0.35321197 -0.075941086
-0.39819026 -0.35371435 -0.07186234
0.36341804 -0.3539522 -0.069931269
-0.5412398 -0.33266419 -0.075941205
-0.43699592 -0.33182815 -0.083181858
-0.54123634 -0.31211498 -0.075955153
-0.54123634 -0.29156715 -0.075955272
0.40348703 -0.29113084 -0.080315351
-0.54123634 -0.27101955 -0.075955272
-0.54123634 -0.25047189 -0.075955033
-0.50106663 -0.25081125 -0.071946979
0.424137 -0.25020233 -0.079139113
-0.54123634 -0.22992419 -0.075955272
-0.51882082 -0.2293217 -0.083782196
-0.54123288 -0.20937553 -0.0759691
-0.52150071 -0.20961224 -0.072552562
0.44480169 -0.20923552 -0.077989817
-0.54123288 -0.18882801 -0.0759691
-0.54192543 -0.16843189 -0.073157668
0.4662112 -0.12736551 -0.071284652
0.4653374 -0.10657632 -0.077961802
0.4653796 -0.02444749 -0.077639222
0.4662407 -0.0038619824 -0.071059227
-0.54180759 0.037249193 -0.073636055
-0.54123634 0.057743311 -0.075955153
-0.54123634 0.078291014 -0.075955153
-0.52138984 0.078404166 -0.073017001
0.44492954 0.078252621 -0.076951861
-0.54123634 0.098838709 -0.075955272
-0.54123634 0.11938627 -0.075955272
-0.50096256 0.11957802 -0.072397351
0.42425835 0.1192715 -0.078088045
-0.5412398 0.13993493 -0.075941205
-0.5412398 0.16048263 -0.075941086
0.40360475 0.16025533 -0.079223275
-0.54123634 0.18102933 -0.075955153
-0.54123634 0.20157713 -0.075955272
-0.54123634 0.22212487 -0.075955033
-0.39794368 0.22238456 -0.073143601
-0.5412398 0.24267393 -0.075940967
0.34256271 0.24296644 -0.073016882
-0.5412398 0.26322165 -0.075941205
-0.33588558 0.26330039 -0.075210571
0.32164198 0.26304612 -0.077569127
-0.27468008 0.28421268 -0.072101712
0.3007924 0.28305766 -0.082105756
-0.21152489 0.30336693 -0.083656549
-0.19235446 0.30477268 -0.072242618
0.17778815 0.36504459 -0.082203627
-0.027462661 0.69431293 -0.077470899
-0.027244553 0.71372736 -0.081518531
-0.027298823 0.73451906 -0.080511451
-0.027563259 0.75646716 -0.075603962
-0.068527877 0.77642763 -0.077569127
-0.048078179 0.77684462 -0.076179862
0.21975231 -0.47968411 -0.057132125
-0.19274031 -0.43648705 -0.068901062
-0.1731797 -0.43797481 -0.059238195
0.28157261 -0.43765542 -0.061312675
-0.3185243 -0.39714488 -0.055464745
-0.35874647 -0.37556085 -0.062178493
-0.56560469 -0.35506281 -0.060915112
-0.56560111 -0.33439764 -0.060929179
-0.42095476 -0.33439603 -0.060943604
0.38451135 -0.33393419 -0.064942241
-0.56560111 -0.31373426 -0.060929179
-0.44116092 -0.31349576 -0.063143015
0.40586895 -0.31402689 -0.058213949
-0.56560111 -0.29307088 -0.060929298
-0.46133697 -0.292631 -0.065324545
-0.56560111 -0.2724075 -0.060929298
-0.48148024 -0.2718004 -0.067502737
0.42669129 -0.27276886 -0.05701828
-0.56559747 -0.25174305 -0.060943604
-0.56559747 -0.23107986 -0.060943484
-0.50368321 -0.23110494 -0.060616732
0.44752866 -0.23147185 -0.055849671
-0.56559747 -0.21041654 -0.060943604
-0.56559747 -0.18975334 -0.060943484
-0.52420324 -0.1897358 -0.061227322
-0.56559747 -0.16909006 -0.060943604
0.46796823 -0.16925628 -0.057858229
-0.56559747 -0.14842688 -0.060943484
-0.543221 -0.14810567 -0.067898273
0.46708751 -0.14825852 -0.064588189
-0.56559747 -0.12776367 -0.060943484
-0.54412711 -0.12763751 -0.064219952
-0.56559747 -0.1071003 -0.060943484
-0.5450322 -0.10711265 -0.060545802
-0.56559747 -0.086437114 -0.060943484
-0.54594332 -0.086531699 -0.056847215
-0.56559747 -0.06577383 -0.060943484
-0.56559747 -0.045110635 -0.060943484
-0.54593277 -0.045141771 -0.056889892
-0.5450182 -0.024447398 -0.060602665
-0.56559747 -0.024447309 -0.060943604
-0.56559747 -0.0037841164 -0.060943484
-0.54410267 -0.003810117 -0.064319134
-0.56559747 0.016879076 -0.060943484
-0.5431897 0.016770029 -0.06802547
0.46710604 0.016825138 -0.064446688
-0.56559747 0.037542358 -0.060943604
0.46797758 0.037615225 -0.057787061
-0.56559747 0.058205552 -0.060943484
-0.52414906 0.058189824 -0.061454654
-0.56559747 0.078868881 -0.060943604
-0.56559747 0.099531986 -0.060943484
-0.50363398 0.099537343 -0.060829759
0.44754797 0.099774502 -0.05569303
-0.56560111 0.12019603 -0.060929298
-0.56560111 0.1408594 -0.060929179
-0.48133826 0.14041537 -0.068138361
0.42671102 0.14111085 -0.056847215
-0.56560111 0.16152269 -0.060929298
-0.46122104 0.16118094 -0.065862179
-0.56560111 0.18218616 -0.060929179
-0.4410696 0.18198189 -0.063582301
0.4058935 0.18241271 -0.057986379
-0.56560111 0.20284943 -0.060929418
-0.42084968 0.20280379 -0.06146884
0.38461483 0.20259723 -0.063908339
-0.56560111 0.22351275 -0.060929179
0.36355364 0.22281678 -0.068463445
-0.35862088 0.24398011 -0.062887669
-0.31843674 0.26537001 -0.056006551
-0.17302044 0.30619243 -0.060716391
0.28166974 0.30631328 -0.059735775
0.21978742 0.3481454 -0.056220293
-0.028514907 0.6788879 -0.057943583
-0.11051783 0.75906855 -0.066710949
-0.0079746917 0.76255858 -0.054780126
-0.090056941 0.78030348 -0.064658999
-0.027996764 0.77943277 -0.067559242
-0.049343362 0.8037166 -0.05563581
-0.15347593 -0.43947098 -0.049519777
-0.13363035 -0.44098037 -0.039716244
-0.25679767 -0.41826159 -0.052652717
-0.34162825 -0.37829289 -0.041302204
-0.38144004 -0.35626706 -0.051137209
-0.40431845 -0.33681211 -0.040019274
-0.59024173 -0.31537199 -0.045733213
-0.42503017 -0.31592718 -0.040581584
-0.59024173 -0.29459164 -0.045733213
-0.44538909 -0.29488519 -0.042800069
-0.59024173 -0.27381137 -0.045733213
-0.46571457 -0.27387768 -0.045014977
-0.59023798 -0.25302982 -0.045747519
-0.48570269 -0.25278929 -0.048588514
-0.59023798 -0.23224957 -0.045747638
-0.59023798 -0.21146935 -0.045747757
-0.50632203 -0.2112308 -0.049190402
-0.59023798 -0.19068913 -0.045747519
0.46885341 -0.19035983 -0.051094294
-0.59023798 -0.16990891 -0.045747638
-0.52692878 -0.16969019 -0.049806237
-0.59023422 -0.14912802 -0.045761943
-0.52832603 -0.14921166 -0.043951154
-0.59023422 -0.12834786 -0.045762062
-0.52921963 -0.12856181 -0.040206671
-0.59023422 -0.10756782 -0.045761943
-0.59023422 -0.08678773 -0.045761943
0.4909693 -0.086893991 -0.041158199
-0.59023422 -0.066007517 -0.045762062
-0.54685336 -0.065893829 -0.0531528
0.4900251 -0.065973587 -0.047972083
-0.59023422 -0.045227483 -0.045762062
0.4909513 -0.045261953 -0.04128778
-0.59023422 -0.024447398 -0.045761943
-0.59023422 -0.0036673173 -0.045761943
-0.52923679 -0.0036239233 -0.040134668
-0.59023422 0.017112857 -0.045762062
-0.52833635 0.017141378 -0.043908
-0.59023422 0.037892938 -0.045761943
-0.52693564 0.037800156 -0.049777389
-0.59023422 0.058672972 -0.045761943
0.46885341 0.058508813 -0.051094413
-0.59023798 0.07945364 -0.045747638
-0.50633198 0.07932283 -0.049147248
-0.59023798 0.10023386 -0.045747638
-0.59023798 0.12101416 -0.045747638
-0.48571551 0.12086424 -0.048531175
-0.59024173 0.14179514 -0.045733213
-0.46576726 0.14185454 -0.044770598
-0.59024173 0.16257559 -0.045733213
-0.44546092 0.1628027 -0.0424546
-0.59024173 0.18335581 -0.045733213
-0.4251197 0.18378687 -0.040134668
-0.40446281 0.20468362 -0.03926909
-0.38144273 0.22441876 -0.051122904
-0.34172827 0.24619943 -0.040711284
-0.25676799 0.28643376 -0.052867055
-0.1535175 0.30762273 -0.049104333
-0.0085266903 0.72444922 -0.042828798
-0.0080327094 0.74220556 -0.053524137
-0.0082474351 0.78504223 -0.048875093
-0.07050097 0.80573207 -0.049089909
-0.028990448 0.80572343 -0.049118638
0.26284024 -0.46409985 -0.025532961
-0.11363868 -0.44249853 -0.029855728
-0.23838581 -0.42084917 -0.034961581
0.32531941 -0.42160445 -0.029797554
-0.30053693 -0.39959112 -0.037810564
0.34631971 -0.40086058 -0.028648973
0.36770135 -0.38061431 -0.023563266
-0.3644256 -0.35885784 -0.03010273
0.42928666 -0.2957117 -0.034541488
-0.61515903 -0.2543312 -0.030378819
-0.47007102 -0.25480324 -0.024803638
0.45030302 -0.25408179 -0.033324361
-0.61515903 -0.23343261 -0.030378819
-0.48827976 -0.23291954 -0.037044644
-0.61515903 -0.21253414 -0.030378819
-0.49087572 -0.21287791 -0.025416255
0.47133452 -0.21241249 -0.032135367
-0.61515903 -0.19163561 -0.030378699
-0.50898349 -0.19118679 -0.037666202
-0.6151551 -0.17073637 -0.030393243
-0.51166767 -0.17097069 -0.026043057
-0.6151551 -0.14983788 -0.030393243
-0.6151551 -0.12893946 -0.030393243
0.49287397 -0.12905428 -0.027412176
-0.61515117 -0.10804065 -0.030407786
-0.53011221 -0.107854 -0.036466241
0.49192023 -0.10792091 -0.034295321
-0.61515117 -0.087142274 -0.030407906
-0.53101075 -0.087089285 -0.032701135
-0.61515117 -0.066243954 -0.030407786
-0.53191179 -0.066266753 -0.028925419
-0.61515117 -0.045345679 -0.030407786
-0.53104186 -0.045329005 -0.032570481
-0.61515117 -0.024447398 -0.030407786
-0.53013635 -0.024447398 -0.036364913
0.49188811 -0.024447398 -0.034526944
-0.61515117 -0.0035490748 -0.030407786
0.49282962 -0.0035285279 -0.027732372
-0.6151551 0.017349472 -0.030393243
-0.6151551 0.038247794 -0.030393243
-0.51179224 0.038360722 -0.025503516
-0.6151551 0.0591463 -0.030393362
-0.50905019 0.058931313 -0.037377119
-0.6151551 0.080044717 -0.030393243
-0.49099946 0.080257498 -0.024861813
0.471232 0.079947561 -0.032918453
-0.6151551 0.10094309 -0.030393243
-0.48834753 0.10064986 -0.036741138
-0.61515903 0.12184231 -0.030378699
-0.47019678 0.1221741 -0.02421999
0.45020843 0.1216421 -0.034092426
0.42920309 0.16330095 -0.035265446
-0.36466497 0.22648543 -0.028750896
0.36750054 0.2476981 -0.025736809
-0.30073279 0.26746821 -0.036538601
0.34616828 0.26812562 -0.030436873
-0.23859625 0.28868693 -0.033353567
0.32505238 0.28869697 -0.033266544
-0.13384645 0.30906698 -0.037377
0.26261437 0.33091319 -0.029724836
0.011593983 0.77123791 -0.025109887
0.011611953 0.79203683 -0.025576353
-0.0088346004 0.80971271 -0.036162496
-0.093501866 -0.44402999 -0.019908428
-0.21973221 -0.42347306 -0.017021656
-0.282314 -0.40207171 -0.019908309
-0.32423913 -0.3810657 -0.020113468
-0.34714586 -0.36149114 -0.0087224245
0.38916761 -0.36029741 -0.018414497
-0.38741529 -0.33926287 -0.018795371
0.41071838 -0.33990705 -0.013216615
-0.40862578 -0.3184 -0.017637491
-0.42917085 -0.29717752 -0.019893765
-0.44968188 -0.27599022 -0.022146344
0.4531225 -0.27707216 -0.010433316
-0.47260022 -0.23476517 -0.01306951
0.47433472 -0.23506221 -0.0092093945
-0.64036143 -0.19259211 -0.01484859
-0.49349409 -0.19266355 -0.013687253
-0.64036143 -0.17157389 -0.01484859
0.49479812 -0.17164518 -0.013525486
-0.64036143 -0.15055583 -0.01484859
-0.5131622 -0.15033774 -0.019571662
0.49383467 -0.15029579 -0.020479321
-0.64035732 -0.12953725 -0.014863133
-0.51404262 -0.12950273 -0.015759349
-0.64035732 -0.1085192 -0.014863253
-0.51492548 -0.10860936 -0.011936307
-0.64035732 -0.08750128 -0.014863372
-0.64035732 -0.066483319 -0.014863372
-0.64035732 -0.045465358 -0.014863253
-0.64035732 -0.024447398 -0.014863372
-0.51498675 -0.024447354 -0.011671066
-0.64035732 -0.0034293924 -0.014863253
-0.51409686 -0.0034345295 -0.015524387
-0.64035732 0.017588569 -0.014863253
-0.51321292 0.017519308 -0.019351959
0.49377787 0.017495742 -0.020888805
-0.64035732 0.038606532 -0.014863253
0.49473089 0.038626179 -0.014010668
-0.64035732 0.059624448 -0.014863253
-0.4936747 0.059685595 -0.01287818
-0.472781 0.10178208 -0.012230635
0.47410703 0.10184115 -0.010949373
-0.44992197 0.14331898 -0.020991325
0.45291203 0.14386387 -0.01214242
-0.42942291 0.16445312 -0.0186342
-0.40888834 0.18562375 -0.016273141
0.43193942 0.18598595 -0.011568069
-0.38780534 0.20659602 -0.016684055
0.41038585 0.20662843 -0.016302347
0.38890827 0.22720072 -0.021005869
-0.32455403 0.24845567 -0.018165231
-0.28277063 0.26959682 -0.016786814
-0.22016098 0.29097492 -0.013540268
0.074280396 0.41664734 -0.016610622
0.011127159 0.75375348 -0.012981176
0.011331759 0.81521392 -0.018297076
-0.030540809 0.83555824 -0.020347476
-0.0097756237 0.83699709 -0.015788674
-0.20082827 -0.42612982 0.0011428595
-0.26384646 -0.40458331 -0.0017828941
-0.30657762 -0.38388443 0.0014252663
-0.37024218 -0.34175056 0.0027492046
-0.39194071 -0.32091501 0.0056993961
0.4323498 -0.31943715 -0.0080137253
-0.41267526 -0.29950908 0.0034041405
-0.4333753 -0.27813882 0.0011129379
-0.45404083 -0.25680414 -0.0011744499
-0.47515136 -0.21455336 -0.0012338161
0.49576664 -0.19310397 -0.0065363646
-0.49613518 -0.17227401 -0.0018569231
-0.49772215 -0.15148424 0.0052518845
-0.51580751 -0.087657012 -0.0081171989
0.51835054 -0.087930761 0.0037318468
-0.51669532 -0.066646397 -0.0042726994
0.51731843 -0.066661 -0.0033246279
-0.51587909 -0.045519702 -0.0078070164
0.51824814 -0.045603111 0.0030319691
-0.49781203 0.017904451 0.0056544542
-0.49637693 0.038931921 -0.0007737875
0.49568677 0.059863046 -0.0071127415
-0.47538817 0.081209369 -0.00013518333
-0.45439267 0.12350728 0.00051856041
-0.43379807 0.14481026 0.0032256842
-0.41309977 0.1661327 0.0056097507
-0.37086481 0.20853947 0.0062662363
-0.34760618 0.22858655 -0.0060039759
-0.30709106 0.25074989 0.0047599077
-0.26454657 0.27175847 0.0032701492
-0.20145263 0.29329458 0.006549716
0.30629674 0.31334338 -0.0026577711
0.2431317 0.35607937 0.0010386705
0.13744113 0.3985869 0.0025111437
0.031658277 0.80070633 0.0033000708
0.03161332 0.82231355 0.0047600269
-0.052698225 0.84161437 -0.0011595488
0.010781705 0.84071583 -0.0040060282
0.24360168 -0.49125898 0.011214018
0.30695429 -0.44814706 0.0068331957
-0.18167092 -0.42882219 0.019550443
-0.24513356 -0.40713063 0.016600728
-0.32958931 -0.3641645 0.012982249
0.45598811 -0.30045259 0.012832403
0.47738415 -0.2580969 0.014092207
-0.4566437 -0.23664495 0.011348844
0.49879766 -0.21570157 0.01533854
-0.47772467 -0.19416571 0.010704994
-0.4985888 -0.13046092 0.0091341734
0.52042854 -0.13079979 0.01793921
-0.4994579 -0.10937807 0.01302731
0.51938576 -0.1093098 0.010809898
-0.50032949 -0.088235557 0.016931534
-0.5012002 -0.067032889 0.020831704
