ply
format ascii 1.0
comment PCL generated
element vertex 1355
property float x
property float y
property float z
element camera 0
property float view_px
property float view_py
property float view_pz
property float x_axisx
property float x_axisy
property float x_axisz
property float y_axisx
property float y_axisy
property float y_axisz
property float z_axisx
property float z_axisy
property float z_axisz
property float focal
property float scalex
property float scaley
property float centerx
property float centery
property int viewportx
property int viewporty
property float k1
property float k2
end_header
0.16902706 -0.0068043582 -0.4830364
-0.099710673 0.015523627 -0.47944367
-0.077193588 0.015576679 -0.48289073
-0.054729756 0.015629675 -0.48632979
-0.032318998 0.015682444 -0.48976058
-0.0099611245 0.015735239 -0.49318337
0.012344051 0.015738074 -0.49336755
0.034674153 0.015685335 -0.48994523
0.057057071 0.01563251 -0.48651481
0.079493001 0.015579514 -0.48307633
0.10198212 0.015526433 -0.4796294
-0.010066587 0.037934836 -0.47948337
0.012344051 0.037936337 -0.47966933
-0.39348993 -0.18766424 -0.46185601
0.39553681 -0.18760265 -0.46258152
-0.3692196 -0.18654865 -0.47503006
0.37138903 -0.18649793 -0.47562909
-0.36918476 -0.16408317 -0.47529626
0.37128577 -0.16399309 -0.47646713
-0.37113535 -0.14267306 -0.46039093
0.37312013 -0.14259113 -0.46157396
-0.34773162 -0.11969234 -0.46726048
0.34977907 -0.11961989 -0.46843779
-0.32545733 -0.097295165 -0.46526456
-0.3017371 -0.096695095 -0.47640073
0.30393097 -0.096662879 -0.47699904
0.3275604 -0.097262621 -0.46586764
-0.30326116 -0.074913904 -0.46225905
-0.27960256 -0.074399143 -0.47340465
0.28177783 -0.074371442 -0.47400439
0.30534694 -0.07488659 -0.46284997
-0.25742123 -0.052056666 -0.47041583
0.25957915 -0.052034039 -0.47100353
-0.23519552 -0.029668938 -0.4674077
-0.21183592 -0.029326465 -0.47852755
0.21406554 -0.029308405 -0.47911179
0.23733369 -0.029650364 -0.46800983
-0.21292295 -0.0072346441 -0.46440661
-0.1896252 -0.0069775544 -0.47553575
0.19183537 -0.0069636591 -0.47613466
0.21504347 -0.00722095 -0.46499646
-0.19060555 0.015245691 -0.46138597
-0.16758341 0.015363678 -0.46905291
-0.1449054 0.015417099 -0.47252464
-0.12228121 0.015470374 -0.47598827
0.12452461 0.015473213 -0.47617447
0.14712067 0.01541996 -0.47271132
0.16977048 0.015366483 -0.46923995
0.19270727 0.015254796 -0.46197712
-0.12292154 0.03780134 -0.46212494
-0.100243 0.03782811 -0.46561313
-0.07761845 0.037854873 -0.46909308
-0.055047642 0.037881613 -0.47256482
-0.032530423 0.037908293 -0.4760282
0.034779854 0.037909713 -0.47621429
0.057268973 0.037883058 -0.47275138
0.079811603 0.037856266 -0.46928024
0.10240792 0.037829582 -0.46580076
0.12505813 0.03780273 -0.46231282
-0.032743856 0.060345504 -0.46216512
0.012344051 0.060345422 -0.46584082
0.034886558 0.060345449 -0.46235311
-0.010173051 0.060345534 -0.4656533
-0.39537138 -0.21146476 -0.44827807
-0.37214467 -0.21105835 -0.45267832
0.37423748 -0.21107456 -0.45250249
0.3973625 -0.21143225 -0.44863045
-0.41831395 -0.18898286 -0.44628334
0.42021927 -0.18891154 -0.44712496
-0.39464739 -0.16576087 -0.45350277
0.39657289 -0.16567142 -0.45466423
-0.37310597 -0.12104271 -0.44533253
0.37497503 -0.12096992 -0.44651425
-0.34957764 -0.097995281 -0.45227265
0.35150832 -0.097931117 -0.45346224
-0.32710281 -0.075433224 -0.4510144
0.32909551 -0.075405091 -0.45162356
-0.30480009 -0.05292033 -0.44797957
-0.28102067 -0.052487154 -0.459234
0.28308633 -0.052463759 -0.45983946
0.30677536 -0.052897278 -0.44857633
-0.28245264 -0.030361105 -0.44492495
-0.25873294 -0.030013416 -0.45621622
0.26078108 -0.029995184 -0.4568094
0.28440887 -0.030342761 -0.44552267
-0.26005748 -0.0077548437 -0.44187748
-0.23640043 -0.0074938647 -0.45317852
0.23842962 -0.0074801706 -0.45377302
0.26199475 -0.0077409483 -0.44247663
-0.21402057 0.015072584 -0.45014811
0.21603093 0.01508183 -0.45074379
-0.19159544 0.037685566 -0.4470979
-0.16844127 0.037747324 -0.45512342
-0.14565422 0.037774317 -0.45862818
0.14776243 0.037775822 -0.45881653
0.17052101 0.037748884 -0.45531225
0.19358681 0.037690192 -0.44769466
-0.10078043 0.060345504 -0.45165038
-0.055368561 0.060345478 -0.45866859
0.057482891 0.060345478 -0.45885706
0.080133244 0.060345422 -0.45535266
0.10283738 0.060345449 -0.45185339
0.14840971 0.060345478 -0.44480252
-0.14640948 0.060345564 -0.44461238
-0.12356798 0.060345534 -0.44812882
-0.07804735 0.060345534 -0.45516384
0.12559626 0.060345564 -0.44833231
-0.055692237 0.083024219 -0.44465303
-0.032959126 0.082997054 -0.44818294
-0.010280428 0.082969971 -0.4517045
0.012344051 0.082968555 -0.45189393
0.034994178 0.082995631 -0.44837296
0.057698648 0.083022743 -0.44484329
0.080457658 0.083050072 -0.4413054
-0.44383907 -0.21336442 -0.42771435
-0.41928929 -0.21226507 -0.43961513
0.42118996 -0.21221846 -0.44011962
0.44561347 -0.21329829 -0.42842925
-0.44436044 -0.190842 -0.42432797
0.44604206 -0.19074282 -0.42549896
-0.4204956 -0.16746488 -0.43136728
0.42224124 -0.16737519 -0.43253267
-0.3967438 -0.14419842 -0.43837321
0.39855126 -0.14411715 -0.4395467
-0.39886191 -0.12241271 -0.423087
0.40055189 -0.12234057 -0.42425907
-0.37509519 -0.099188223 -0.43013239
0.37684739 -0.099124759 -0.43131232
-0.35144097 -0.07607387 -0.43714416
0.35325694 -0.076019719 -0.43831873
0.35502207 -0.053880569 -0.42303193
-0.32876441 -0.053357247 -0.43662488
0.33064714 -0.053334136 -0.43722618
-0.30635411 -0.030711066 -0.43356037
0.30821779 -0.030692603 -0.43416274
0.33221257 -0.031045478 -0.42270088
-0.28389865 -0.008018259 -0.43047559
0.28574309 -0.0080043115 -0.43107915
-0.26139504 0.014722347 -0.42739797
-0.23761711 0.014898006 -0.43880999
0.23953524 0.014907248 -0.43941045
0.2632215 0.014731418 -0.42798924
-0.23884575 0.037509967 -0.42430031
-0.21512894 0.03759829 -0.43575001
0.21702902 0.037602827 -0.43633783
0.24065176 0.037514701 -0.42490661
-0.16930649 0.060345478 -0.44107366
0.17127872 0.060345478 -0.44125068
-0.19259505 0.060345534 -0.43266976
0.19447501 0.06034559 -0.4332726
-0.17018087 0.083161116 -0.42687523
-0.14717273 0.083133608 -0.43044794
-0.12422001 0.08310625 -0.43401206
-0.10132249 0.083078884 -0.43756771
-0.078479961 0.083051577 -0.44111466
0.10327138 0.083077267 -0.4377588
0.12614006 0.083104685 -0.43420374
0.14906386 0.083132073 -0.4306401
0.17204298 0.08315964 -0.427068
-0.10187028 0.10603125 -0.42333531
-0.078917146 0.10597612 -0.42691672
-0.056019332 0.10592112 -0.4304893
-0.033176668 0.10586631 -0.4340533
-0.010388939 0.10581158 -0.43760872
0.012344051 0.10580854 -0.43779981
0.035102934 0.10586318 -0.43424475
0.057916686 0.10591808 -0.43068123
0.080785498 0.10597315 -0.42710912
0.10370958 0.10602824 -0.42352831
-0.010498496 0.12887311 -0.42337656
0.012344051 0.12886865 -0.4235698
-0.44689509 -0.23815987 -0.40786481
0.44860089 -0.23814598 -0.40800428
-0.46901155 -0.21471483 -0.41309512
0.4706476 -0.2146365 -0.41394198
-0.4467364 -0.16919476 -0.40889561
0.4482995 -0.16910475 -0.41006482
-0.42274207 -0.14574793 -0.41600847
0.42436776 -0.14566632 -0.4171859
-0.40100208 -0.10040022 -0.40764177
0.40257156 -0.10033637 -0.40882611
-0.37710682 -0.077107742 -0.41476059
0.37874091 -0.077053338 -0.41593885
-0.35332534 -0.053926248 -0.4218452
-0.35522932 -0.0315479 -0.40638685
-0.33044231 -0.031064194 -0.42209375
0.35680723 -0.031511407 -0.40757203
-0.33213681 -0.0085506551 -0.40741885
-0.30792344 -0.0082832687 -0.41899884
0.30967581 -0.008269567 -0.41959333
0.33379346 -0.0085365288 -0.40803194
-0.30950975 0.014366321 -0.40427923
-0.28535894 0.014544986 -0.41588342
0.28709051 0.01455443 -0.41649342
0.31114686 0.014375765 -0.40489376
-0.26274577 0.037421331 -0.41277575
0.26445919 0.03742601 -0.41337276
0.21803597 0.060345478 -0.42180371
-0.24008654 0.060345534 -0.40964746
-0.21624821 0.060345534 -0.42121005
0.24178034 0.060345534 -0.41024578
-0.21737857 0.083317801 -0.40652657
-0.1936045 0.083228707 -0.4180994
0.19537278 0.0832242 -0.41869438
0.21905284 0.083313033 -0.40712595
-0.19462396 0.10633838 -0.40338504
-0.17106374 0.10619746 -0.4125396
-0.14794338 0.10614188 -0.41614676
-0.12487896 0.10608651 -0.41974545
0.12668911 0.10608362 -0.41993904
0.1497243 0.10613889 -0.41634083
0.17281537 0.10619451 -0.41273403
0.19627859 0.10632925 -0.40398598
-0.12554429 0.12928964 -0.40534043
-0.10242338 0.12920588 -0.40896511
-0.079358548 0.12912251 -0.41258121
-0.056349594 0.12903912 -0.41618848
-0.033396315 0.12895605 -0.41978705
0.03521274 0.12895159 -0.41998041
0.058136828 0.12903467 -0.41638243
0.081116512 0.12911804 -0.41277575
0.10415199 0.12920149 -0.40916014
0.12724347 0.12928519 -0.40553594
-0.033617873 0.15226924 -0.40539622
-0.010609007 0.15215771 -0.4090209
0.012344051 0.15215175 -0.40921569
0.035323508 0.15226336 -0.40559161
-0.49643898 -0.24029914 -0.38648999
-0.47082087 -0.23875669 -0.40190279
-0.42472741 -0.23870334 -0.40243435
0.42690459 -0.23905924 -0.39887774
0.47243008 -0.23871046 -0.40236425
0.49784067 -0.24020004 -0.38747919
-0.49581969 -0.21683484 -0.39014661
0.49704957 -0.21662909 -0.39237297
-0.47084349 -0.19275272 -0.40176296
0.47234395 -0.19265443 -0.40292382
-0.47337642 -0.17095001 -0.38609421
0.4747566 -0.17086075 -0.38725317
-0.44913721 -0.14732112 -0.39330184
0.45057845 -0.14723925 -0.39448345
-0.42501196 -0.12380429 -0.40048909
0.42651841 -0.12373197 -0.40166497
-0.42730564 -0.10163075 -0.38480699
0.42868966 -0.10156666 -0.38599539
-0.40316463 -0.07815741 -0.39203501
0.40461418 -0.078102797 -0.39321756
-0.37913945 -0.054796714 -0.3992281
0.38065249 -0.054750916 -0.400419
0.38258582 -0.032214951 -0.38472223
-0.35715318 -0.0089352019 -0.39076698
0.35861108 -0.0089078955 -0.39195037
-0.33384815 0.01418661 -0.39259815
0.33539158 0.014195796 -0.39320338
-0.31111041 0.037241474 -0.38942719
-0.28683367 0.037331842 -0.40114713
0.28845254 0.037336435 -0.40174878
0.31263253 0.037246436 -0.39004779
-0.26410994 0.060345478 -0.39800835
0.26570916 0.060345422 -0.39861131
0.28982684 0.060345478 -0.3868717
-0.2883231 0.060345534 -0.38626397
-0.24133964 0.083407626 -0.39484894
0.24291906 0.083402976 -0.39545321
-0.21852122 0.10651849 -0.39168286
0.22008082 0.10650919 -0.39228845
-0.19565354 0.12967804 -0.38852417
-0.17195517 0.12945779 -0.39806449
-0.14872149 0.12937362 -0.40170693
0.15039118 0.12936907 -0.40190279
0.17359526 0.12945311 -0.39826083
0.19719341 0.12966399 -0.38913095
-0.14950643 0.15283145 -0.38714004
-0.12621547 0.1527185 -0.3908093
-0.10298133 0.15260574 -0.39446938
-0.079803824 0.15249331 -0.39812052
-0.056682747 0.15238126 -0.40176272
0.058358897 0.15237521 -0.4019587
0.081450433 0.15248732 -0.39831698
0.1045983 0.15259975 -0.39466619
0.12780271 0.15271236 -0.39100647
0.15106454 0.1528258 -0.38732374
-0.057019461 0.17595135 -0.38718259
-0.033841804 0.17581017 -0.39085138
-0.0107207 0.17566931 -0.39451158
0.012344051 0.17566165 -0.39470828
0.035435461 0.1758026 -0.39104891
0.058583349 0.17594378 -0.38738036
-0.49883687 -0.19524503 -0.37233078
0.49992996 -0.19505662 -0.37455523
-0.47593608 -0.14891736 -0.37026048
0.47719249 -0.14883624 -0.37143159
-0.45156324 -0.12521738 -0.37754416
0.45288348 -0.12514484 -0.37872386
-0.42962351 -0.079223156 -0.36895967
0.43088576 -0.079168439 -0.37014616
-0.40534994 -0.055680644 -0.37626386
0.40667832 -0.055635225 -0.37744451
-0.38119343 -0.032251608 -0.38353276
-0.3832691 -0.0094686113 -0.36767197
0.38453957 -0.0094411932 -0.36885953
-0.3590973 0.013915312 -0.37498248
0.36043224 0.013933711 -0.37617862
-0.33557656 0.037150741 -0.37762952
0.33700413 0.037155449 -0.3782407
0.31413451 0.060345422 -0.37503934
-0.31272703 0.060345534 -0.37442696
-0.28982741 0.083589442 -0.37123168
-0.2654877 0.083498195 -0.38309383
0.26697281 0.083493546 -0.38368869
0.29121488 0.083584793 -0.37184572
-0.26688054 0.10688286 -0.36801541
-0.24260528 0.10670002 -0.37990284
0.24406916 0.10669056 -0.38051319
0.26824787 0.10687339 -0.36863065
-0.21967421 0.12995102 -0.37670505
0.22111809 0.12993695 -0.37731671
0.24523188 0.13021189 -0.36540902
-0.1966944 0.15325154 -0.37350047
-0.17285444 0.15294471 -0.38346207
0.17438281 0.15293902 -0.38364625
0.19811827 0.15323254 -0.37411332
-0.17376341 0.17666273 -0.36870229
-0.15029983 0.17651972 -0.3724165
-0.12689386 0.1763771 -0.37612164
-0.10354528 0.1762348 -0.37981749
-0.080253884 0.17609291 -0.38350439
0.081787914 0.17608525 -0.38370287
0.10504939 0.1762272 -0.38001645
0.12836798 0.17636938 -0.37632084
0.15174386 0.17651196 -0.37261617
0.17517728 0.17665498 -0.36890244
-0.080708355 0.19992411 -0.36874509
-0.057359476 0.1997526 -0.37245917
-0.034067925 0.19958144 -0.3761642
-0.010833377 0.19941007 -0.37987435
0.012344051 0.19940154 -0.38005888
0.035548508 0.19957221 -0.37636352
0.058809996 0.19974342 -0.37265909
0.082128733 0.19991487 -0.36894548
0.10550493 0.20008682 -0.36522257
0.012344051 0.22337471 -0.36526561
-0.52612996 -0.26742133 -0.34941387
-0.50060463 -0.26607645 -0.36189306
-0.47826159 -0.26672491 -0.35587537
0.47995868 -0.26698476 -0.35346448
0.50194675 -0.26605624 -0.36207974
0.52728105 -0.26734179 -0.35015237
-0.5240019 -0.24280652 -0.36143315
0.52512491 -0.24266142 -0.36288404
0.52766877 -0.22074074 -0.34786296
-0.50189257 -0.17339842 -0.35428786
0.50284243 -0.17322509 -0.35653889
-0.4785229 -0.12665151 -0.35425889
0.47965637 -0.12657934 -0.3554281
-0.45401275 -0.10287941 -0.36163425
0.45521286 -0.10281666 -0.36279786
0.45756489 -0.080250576 -0.34671688
-0.43196592 -0.056578193 -0.35294437
0.43310517 -0.056532595 -0.35412896
-0.40755832 -0.032966096 -0.36032605
0.4087624 -0.032929409 -0.36151934
-0.38536677 0.013555996 -0.35164309
0.38651231 0.013574429 -0.35284305
-0.36106202 0.037007604 -0.35903108
0.36227435 0.037016906 -0.36022544
0.3386344 0.060345363 -0.36311364
-0.33732235 0.060345534 -0.36251068
-0.33908573 0.083774142 -0.34723926
-0.3143599 0.083681539 -0.35927594
0.31565011 0.083676659 -0.35989463
0.34027955 0.083769493 -0.34784853
-0.29134685 0.10706722 -0.35604858
0.29261819 0.10705781 -0.35665405
-0.26828611 0.13050303 -0.35279977
-0.24388357 0.13022572 -0.36480677
0.26953581 0.13048868 -0.35342121
-0.24517472 0.15398869 -0.34955871
-0.22083877 0.15361872 -0.3615768
0.22216579 0.15359955 -0.36219454
0.24640523 0.15396991 -0.3501668
-0.22201511 0.1775251 -0.34629607
-0.19774474 0.17706153 -0.35834002
0.19905153 0.17703763 -0.35895908
0.22322504 0.17750151 -0.34690559
-0.17468135 0.20061456 -0.35379684
-0.15110105 0.20044139 -0.35754776
-0.12757893 0.20026846 -0.36128926
-0.10411477 0.20009618 -0.36502194
0.12893878 0.20025907 -0.36149061
0.15243053 0.20043196 -0.35774934
0.17598037 0.20060517 -0.35399902
-0.1282701 0.2243953 -0.34632492
-0.10468988 0.22419292 -0.35007989
-0.08116731 0.2239904 -0.35383999
-0.057702851 0.22378826 -0.35759079
-0.034296054 0.22358583 -0.36134684
-0.01094727 0.22338471 -0.36507916
0.035662666 0.22357586 -0.36153388
0.059038881 0.2237774 -0.35779274
0.082472906 0.22397949 -0.35404229
0.10596496 0.22418208 -0.35028279
0.12951525 0.22438513 -0.34651375
-0.034526661 0.24782839 -0.34636867
-0.011062291 0.24759626 -0.35013807
0.012344051 0.24758373 -0.3503406
0.035777844 0.24781583 -0.34657192
-0.55361247 -0.26979578 -0.32738125
0.55449539 -0.26965964 -0.32864463
-0.52681053 -0.22095254 -0.34557021
-0.53005958 -0.19906491 -0.32721937
0.53077692 -0.19887093 -0.32951069
-0.50498259 -0.15128812 -0.33604252
0.50578994 -0.15113138 -0.33830571
-0.48113722 -0.10414825 -0.33808684
0.4821443 -0.1040846 -0.33926857
-0.45649049 -0.080304846 -0.34554112
-0.45899466 -0.057489205 -0.32927573
0.45994419 -0.05744395 -0.3304497
-0.43433332 -0.033691924 -0.33675826
0.43534622 -0.033654947 -0.33795559
-0.40979022 -0.010010194 -0.34421873
0.41087052 -0.0099827461 -0.34541035
-0.41204599 0.013191041 -0.32793939
0.41299927 0.013209585 -0.32914364
-0.38748679 0.036826018 -0.3354429
0.38850784 0.03683532 -0.33664155
-0.36304763 0.060345422 -0.34291005
0.3641344 0.060345478 -0.34411716
0.366016 0.08392363 -0.32782185
-0.34086698 0.10744026 -0.3318131
-0.31600925 0.10725316 -0.34397185
0.31718099 0.10724353 -0.34459674
0.34194142 0.10743085 -0.33242846
-0.31767535 0.13106395 -0.32851219
-0.29288167 0.13078216 -0.34071159
0.29403439 0.13076815 -0.34132349
0.31872892 0.13104971 -0.32912898
-0.26970589 0.15436213 -0.33743
0.27083796 0.15434325 -0.33804309
-0.24647899 0.17799239 -0.33415604
0.24759044 0.1779687 -0.33477044
-0.22320335 0.20167392 -0.33086038
-0.1988057 0.20111199 -0.34302652
0.1999951 0.20108375 -0.34363723
0.22429404 0.20164551 -0.33147597
-0.19987744 0.22540662 -0.32755744
-0.17560749 0.22480305 -0.33875823
-0.15190943 0.22459903 -0.34254634
0.15312399 0.22458875 -0.34273541
0.17679141 0.22479287 -0.33894789
0.20094736 0.22537343 -0.32817447
-0.15272661 0.24899758 -0.32738113
-0.12896881 0.24876258 -0.33119738
-0.10527013 0.24852823 -0.33500445
-0.081630364 0.24829435 -0.33880198
-0.05804928 0.24806102 -0.34258997
0.059269801 0.24804851 -0.3427937
0.082820147 0.24828176 -0.33900619
0.1064291 0.24851552 -0.33520901
0.13009687 0.24875002 -0.3314029
0.15382436 0.2489859 -0.32757211
-0.058399495 0.27257612 -0.32742524
-0.034759559 0.27231175 -0.33124137
-0.011178335 0.27204701 -0.33506274
0.012344051 0.27203393 -0.33525312
0.035894275 0.27229756 -0.33144677
0.05950325 0.27256185 -0.32763088
-0.55693638 -0.29545477 -0.30938995
-0.53199226 -0.29465637 -0.31630385
0.53305614 -0.29468557 -0.31605208
0.55777019 -0.29536724 -0.31014812
-0.55528188 -0.2471185 -0.31834543
0.55590564 -0.24688491 -0.32067919
-0.53334802 -0.17691194 -0.3086462
0.53392017 -0.17673455 -0.3109504
-0.50810993 -0.12891054 -0.31757641
0.50877547 -0.1287712 -0.31983769
-0.48377955 -0.081404164 -0.3217417
0.48466113 -0.081349641 -0.3229214
-0.46152577 -0.034428414 -0.31283593
0.46234685 -0.034391891 -0.31402242
-0.43672392 -0.010559995 -0.32041371
0.43761331 -0.010532659 -0.32159448
-0.41432592 0.036641542 -0.31148517
0.41515285 0.036650844 -0.31268764
0.39052296 0.060345478 -0.32028079
-0.38962951 0.06034559 -0.3190695
-0.36505443 0.083932877 -0.32661664
-0.36708286 0.10777388 -0.310148
0.36791611 0.10775511 -0.3113662
-0.34266642 0.13134755 -0.31622982
0.34362176 0.13133349 -0.3168366
-0.31935841 0.15511768 -0.3128953
-0.2944321 0.15473811 -0.32521904
0.29546496 0.15471917 -0.32583725
0.32029116 0.15509844 -0.3135184
-0.29599833 0.17893872 -0.30956841
-0.27114016 0.17846388 -0.32190394
0.27215216 0.17844006 -0.32252347
0.29691148 0.17891529 -0.3101778
-0.24779655 0.20224039 -0.31859672
0.24878888 0.20221238 -0.31920254
-0.22440369 0.22606887 -0.31526721
0.22537495 0.22603627 -0.31587446
-0.20096008 0.2499492 -0.31193066
-0.17654374 0.24923331 -0.32355511
0.17761055 0.24922159 -0.32374668
0.20190933 0.24991089 -0.312554
-0.17748939 0.27390814 -0.30819988
-0.15355198 0.27364045 -0.31206429
-0.12967451 0.27337334 -0.31591892
-0.10585675 0.27310693 -0.31976378
-0.082098484 0.27284116 -0.32359922
0.083171189 0.27282694 -0.32380569
0.10689832 0.2730926 -0.31997061
0.13068487 0.27335906 -0.31612623
0.15453105 0.27362591 -0.31227207
0.17843789 0.27389473 -0.30839324
-0.082571283 0.29763392 -0.30824447
-0.058752868 0.29733518 -0.31212342
-0.034994554 0.29703856 -0.31597805
-0.011295652 0.29674259 -0.31982303
0.012344051 0.29672772 -0.32001495
0.036011871 0.29702374 -0.31617069
0.059739027 0.29732034 -0.31231654
0.083525747 0.29761782 -0.30845284
-0.58422923 -0.29759845 -0.29082513
0.58483762 -0.29746285 -0.29199851
-0.5842669 -0.27375668 -0.29062939
0.58465153 -0.27350056 -0.29300582
-0.55873328 -0.22519314 -0.29966402
0.55921346 -0.22497767 -0.30199671
-0.53667659 -0.15448864 -0.28984654
0.53710431 -0.15432918 -0.29214883
-0.51127529 -0.1062607 -0.2988857
0.51179492 -0.10613804 -0.30115974
-0.48645028 -0.058415074 -0.3052206
0.48720273 -0.058369201 -0.30641305
0.4897719 -0.035139982 -0.28972602
-0.46408421 -0.011118669 -0.29621863
0.46477547 -0.01109105 -0.29741764
-0.43914247 0.012820557 -0.30387807
0.43990275 0.01283893 -0.30507147
-0.41662845 0.060345534 -0.29486799
0.41732767 0.060345534 -0.29606855
-0.39179534 0.084118374 -0.30251956
0.39256161 0.084109128 -0.30372906
-0.36913133 0.13187212 -0.29351664
0.36983851 0.13184433 -0.29471803
0.34531775 0.15548089 -0.30110002
-0.344486 0.15550023 -0.30047202
-0.32105875 0.17941791 -0.29711795
0.32187089 0.17939432 -0.29773259
-0.29758063 0.20338763 -0.29375684
-0.27258903 0.20281209 -0.30621934
0.27348101 0.20278385 -0.30683017
0.29837152 0.20335923 -0.2943728
-0.27405283 0.22741029 -0.29037344
-0.24912758 0.22673663 -0.3028779
0.24999838 0.22670357 -0.30349016
0.27482226 0.227377 -0.29099047
-0.22561637 0.2507138 -0.29951441
0.22646591 0.25067604 -0.30012798
-0.20205386 0.27474335 -0.29614353
0.2028821 0.27470082 -0.29675841
-0.17844363 0.29883006 -0.29270506
-0.15438564 0.29853082 -0.29659343
-0.13038728 0.29823112 -0.30048692
-0.10644925 0.29793221 -0.30437052
0.10737225 0.29791597 -0.30457926
0.13127877 0.29821497 -0.30069625
0.15524551 0.29851454 -0.29680324
0.17927273 0.29881507 -0.29290044
-0.083048388 0.32267478 -0.29275024
-0.059110139 0.32234418 -0.29665327
-0.035232134 0.32201454 -0.30054665
-0.011414146 0.3216857 -0.30443037
0.012344051 0.32166931 -0.3046242
0.036130533 0.32199669 -0.30075598
0.059976947 0.32232639 -0.2968632
0.083883524 0.32265681 -0.29296052
0.012344051 0.34686053 -0.28909326
-0.58792746 -0.25179574 -0.27160835
0.58816588 -0.25155792 -0.2739836
-0.56222689 -0.20299956 -0.28075433
0.56255919 -0.20280084 -0.28310025
-0.54004872 -0.1317911 -0.27080059
0.54032505 -0.1316476 -0.27313137
-0.51448196 -0.083334342 -0.2799511
0.51485378 -0.083228767 -0.28223789
-0.48915005 -0.035177153 -0.28852069
0.49245337 -0.011670854 -0.2723093
-0.46667039 0.01244406 -0.2794205
0.46723264 0.012462433 -0.28061795
-0.44158715 0.036454342 -0.28716362
0.44221911 0.036463588 -0.28835499
-0.44405848 0.060345534 -0.27026713
0.44455853 0.060345534 -0.27147138
-0.41895807 0.084306702 -0.27805555
0.41952816 0.084297404 -0.27925384
-0.39398465 0.1081489 -0.28579032
0.39462051 0.10813007 -0.28701282
0.39670372 0.13241296 -0.27009928
-0.3712039 0.15623246 -0.27668941
0.37178004 0.15619515 -0.27790391
-0.34633651 0.17990567 -0.28444588
0.34703118 0.17987663 -0.28520131
-0.32277662 0.20396869 -0.28117824
0.32346544 0.20393993 -0.28179908
-0.29918081 0.22808962 -0.2777673
0.29984799 0.22805604 -0.27838933
-0.27553174 0.25226265 -0.27436399
-0.25047356 0.25148556 -0.28698266
0.25122154 0.2514475 -0.28760099
0.27617738 0.25222421 -0.27498746
-0.25183219 0.27648979 -0.27093792
-0.22684266 0.27561352 -0.28358412
0.22756808 0.2755695 -0.28421903
0.25245619 0.2764464 -0.27156281
-0.2031589 0.29979318 -0.28019357
0.20386395 0.29974541 -0.28081489
-0.17942432 0.32402703 -0.27678049
-0.1552269 0.32367128 -0.28098142
-0.13110654 0.32333812 -0.28491426
-0.10704711 0.32300609 -0.28883731
0.10785095 0.32298952 -0.28903306
0.13187864 0.32332158 -0.28511059
0.15596721 0.32365459 -0.28117836
0.18011682 0.3239885 -0.2772361
-0.10765162 0.34833512 -0.27313137
-0.083530784 0.34796998 -0.27708423
-0.059471022 0.34760579 -0.28102684
-0.035472117 0.34724253 -0.28495955
-0.011533719 0.3468788 -0.2888974
0.036250506 0.34722298 -0.28517115
0.060217503 0.34758618 -0.28123891
0.084245265 0.34795034 -0.27729666
0.10833403 0.34831539 -0.27334452
-0.011654615 0.37232816 -0.27319229
0.012344051 0.37230828 -0.27339017
-0.5895564 -0.32487082 -0.26314425
-0.56520027 -0.32468399 -0.26466024
0.56598669 -0.32479718 -0.26374161
0.5900411 -0.32478586 -0.26383364
-0.5916332 -0.2295635 -0.25235271
0.59172082 -0.22934291 -0.25474203
-0.56576633 -0.18053393 -0.26159632
0.56594872 -0.18035212 -0.26395607
-0.54345983 -0.10881221 -0.25153482
0.54358816 -0.10868675 -0.25386369
-0.51772553 -0.060124818 -0.26079857
0.51794785 -0.06003638 -0.26309836
-0.49214274 -0.011724044 -0.27000785
0.49541906 0.012038074 -0.25304675
-0.46928483 0.036264084 -0.26243949
0.46971443 0.036273383 -0.26364982
-0.44655687 0.084498271 -0.25318551
0.44692576 0.084488913 -0.25438762
-0.42131314 0.1085296 -0.2610594
0.42175063 0.10851105 -0.26227081
-0.3961958 0.13244075 -0.26889384
-0.39843318 0.15699901 -0.25179744
0.39880785 0.15696135 -0.25301576
-0.37329912 0.18085895 -0.25967813
0.37374455 0.18081234 -0.26089072
-0.34829098 0.20459959 -0.26751959
0.3488051 0.2045431 -0.26874125
-0.32451227 0.22877364 -0.26507342
0.32507646 0.22873984 -0.26570058
0.35064948 0.2294981 -0.25162756
-0.300796 0.25304711 -0.26162708
0.30133837 0.25300834 -0.26225543
-0.27702597 0.27737299 -0.25818813
0.2775479 0.27733046 -0.25880265
-0.25320494 0.30175364 -0.25472641
-0.22808048 0.30077007 -0.26750433
0.22868274 0.30072188 -0.26813066
0.25370362 0.30170503 -0.25535774
-0.2293312 0.32618827 -0.25125706
-0.20427644 0.32510394 -0.26406324
0.20485601 0.32504955 -0.26470613
0.22980793 0.32613474 -0.25188994
-0.18041989 0.34949142 -0.26061463
-0.15607753 0.34906819 -0.26519585
-0.13183381 0.34870118 -0.2691685
0.13248463 0.34868291 -0.26936698
0.1566962 0.34904984 -0.26539469
0.18097778 0.3494319 -0.26125884
-0.13256848 0.37432259 -0.25326264
-0.10826229 0.37392199 -0.25726581
-0.084018081 0.3735224 -0.26125884
-0.059835214 0.37312222 -0.265257
-0.035714291 0.37272465 -0.26922977
0.036371693 0.37270486 -0.26942801
0.060460497 0.37310249 -0.26545596
0.084610686 0.37350088 -0.26147342
0.10882251 0.37390047 -0.2574811
0.13309619 0.37430099 -0.25347853
-0.035959173 0.39846799 -0.25332427
-0.011776745 0.39803672 -0.25732732
0.012344051 0.39801523 -0.25752723
0.036494121 0.3984465 -0.25352466
-0.61980361 -0.32866842 -0.23231101
0.61976373 -0.32840315 -0.23446572
0.61971867 -0.30407923 -0.23469973
-0.595388 -0.20705655 -0.23284233
0.59531993 -0.20685181 -0.23526108
-0.56934685 -0.15778869 -0.24221635
0.56937754 -0.15762413 -0.24459004
-0.54691327 -0.085547775 -0.2320298
0.54688919 -0.085439548 -0.23437202
-0.52100939 -0.036627848 -0.24140882
0.52108026 -0.036556672 -0.24372149
-0.49525881 0.012002461 -0.2507323
0.49842155 0.036041666 -0.23354483
-0.47192794 0.060345422 -0.2452718
0.47222576 0.060345478 -0.24648011
-0.44908273 0.10891674 -0.23591602
0.44931683 0.10889798 -0.23713124
-0.42369404 0.13301851 -0.2438767
0.42399958 0.1329906 -0.24508595
-0.40069517 0.18182762 -0.23451257
0.40093705 0.18178083 -0.23572886
-0.37541738 0.20575601 -0.2424804
0.37572885 0.20569941 -0.24370599
-0.35026687 0.22956395 -0.25040793
-0.35226452 0.25480342 -0.23310769
-0.32626599 0.25383696 -0.24880075
0.32670581 0.2537989 -0.24941909
0.35251251 0.25472748 -0.23434079
-0.3280381 0.27916259 -0.23235798
-0.30242807 0.27826476 -0.24531841
0.30284429 0.27822083 -0.24595356
0.32835066 0.27911943 -0.23298275
-0.27853581 0.30274534 -0.24184358
0.27893135 0.30269757 -0.24246466
-0.25459203 0.32728165 -0.23834574
0.25496531 0.3272289 -0.23896825
-0.23059499 0.35187235 -0.23484004
-0.20540456 0.35067698 -0.24778008
0.20585933 0.35061833 -0.24841428
0.23094489 0.35181338 -0.23547959
-0.18142489 0.37521991 -0.24429536
-0.15693682 0.37472424 -0.24924922
0.15743195 0.37470266 -0.24946547
0.18185678 0.37515494 -0.24494648
0.2068722 0.37645376 -0.23196745
-0.1578041 0.40064177 -0.23315442
-0.13330996 0.40020487 -0.23720932
-0.10887861 0.39976883 -0.2412535
-0.084509864 0.39933422 -0.24528742
-0.060203467 0.39890069 -0.24931109
0.060705971 0.39887899 -0.24951184
0.084979847 0.39931253 -0.24548864
0.10931596 0.39974719 -0.24145532
0.13371459 0.40018299 -0.23741162
0.15817595 0.40062007 -0.23335743
-0.060575504 0.42494321 -0.23320138
-0.036206562 0.42447507 -0.23725569
-0.011900004 0.42400631 -0.2413156
0.012344051 0.4239831 -0.24151742
0.036617681 0.42444992 -0.23747396
0.060953721 0.424918 -0.2334199
-0.59813863 -0.35478273 -0.21854973
0.59845978 -0.35481983 -0.21826613
-0.62064904 -0.30484289 -0.22808719
-0.59918678 -0.18426685 -0.21310329
0.59896696 -0.18408075 -0.2155211
-0.57297194 -0.13475978 -0.22259486
0.57284915 -0.13461278 -0.2249825
0.55023152 -0.061901677 -0.21463645
-0.52433413 -0.012837935 -0.2217772
0.52425426 -0.012784515 -0.22408748
-0.49841362 0.036023691 -0.23121703
0.50146407 0.060345422 -0.21378326
-0.47460023 0.084692731 -0.22791481
0.47476247 0.084683374 -0.22913635
-0.45163658 0.13360561 -0.21845531
0.45173439 0.13357721 -0.219684
-0.42610127 0.15777782 -0.22650421
0.42627129 0.15774021 -0.22772682
-0.40298223 0.20693114 -0.21703601
0.40308788 0.20687443 -0.21826601
-0.37755901 0.23092805 -0.22509217
0.3777369 0.2308621 -0.22631598
-0.35428432 0.28032258 -0.21561587
0.35439786 0.28023717 -0.2168467
-0.3298288 0.30475461 -0.21574211
-0.30407724 0.30374649 -0.2288388
0.30436742 0.30369833 -0.22946513
0.33001441 0.30470738 -0.21635771
-0.28006151 0.32838401 -0.22532773
0.28032935 0.32833079 -0.22595525
-0.25599369 0.3530775 -0.22179294
0.25623903 0.35301954 -0.22242177
-0.23187207 0.37782648 -0.21825016
-0.2065445 0.37651771 -0.23132646
0.23209487 0.37776336 -0.21888065
-0.20769645 0.40263072 -0.21469975
-0.18244042 0.40121832 -0.22780514
0.18274584 0.40114912 -0.22844732
0.20789574 0.40256089 -0.21534741
-0.15868115 0.42682803 -0.21687853
-0.13405977 0.42635497 -0.2209748
-0.10950187 0.42588329 -0.22506106
-0.085007191 0.42541268 -0.22913647
0.085352421 0.42538732 -0.22935557
0.10981451 0.42585972 -0.22526503
0.13433938 0.42633152 -0.22117937
0.1589276 0.42680436 -0.21708345
-0.060951013 0.45125243 -0.21694136
-0.036456253 0.45074788 -0.22103786
-0.012024648 0.45024481 -0.22512364
0.012344051 0.45021948 -0.22532785
0.036742628 0.45072281 -0.22124231
0.061204266 0.45122722 -0.21714664
0.085729212 0.45173299 -0.21304023
-0.62533313 -0.35659733 -0.2046839
0.62527806 -0.35644951 -0.20581234
-0.62652856 -0.28366283 -0.19871104
0.62536371 -0.28294548 -0.20536721
-0.57664257 -0.11144227 -0.20272744
0.57636708 -0.11131364 -0.20511305
-0.55040991 -0.061992299 -0.21228087
0.55361861 -0.038068045 -0.1946367
-0.52770323 0.011250321 -0.20188355
0.52746552 0.011286389 -0.2042228
-0.5016104 0.060345422 -0.21144199
-0.47730216 0.1093102 -0.2103653
0.47732735 0.10929109 -0.21160018
-0.45421886 0.15856925 -0.20080006
0.45418108 0.15853153 -0.20202672
-0.42853519 0.18281199 -0.20893896
0.4285703 0.18276498 -0.21015906
-0.40529478 0.23231438 -0.19936514
0.40526468 0.23224825 -0.20059299
-0.37972441 0.25637984 -0.20751119
0.37976539 0.25630349 -0.20874846
-0.35632476 0.30612472 -0.197945
0.35630253 0.30603018 -0.19917381
-0.33163849 0.33061749 -0.19895041
-0.30574378 0.32949677 -0.21218586
0.30590513 0.32944313 -0.2128185
0.33169419 0.33056486 -0.19957256
-0.30742794 0.35551962 -0.19535649
-0.28160328 0.35429284 -0.2086376
0.28174341 0.35423574 -0.20925581
0.30745918 0.35546061 -0.19599593
-0.25741014 0.37914589 -0.20506537
0.25752622 0.37908235 -0.20570099
-0.23316264 0.40405485 -0.20148528
0.23325594 0.40398616 -0.20212245
-0.20886058 0.42901996 -0.19789684
-0.18346664 0.42749053 -0.21114135
0.18364343 0.42741564 -0.21179032
0.20893106 0.42894605 -0.19853544
-0.18450375 0.45404115 -0.19430065
-0.1595673 0.45328563 -0.20043349
-0.13481738 0.45277601 -0.20457268
-0.11013156 0.4522675 -0.20870101
-0.085509166 0.45175838 -0.21283436
0.11031771 0.4522402 -0.2089231
0.13497061 0.4527505 -0.20477939
0.15968706 0.45326009 -0.20064068
0.18455052 0.45396018 -0.19495654
-0.086016819 0.47837922 -0.19634771
-0.061330777 0.47783616 -0.20049739
-0.036708776 0.47729439 -0.20463622
-0.012150584 0.47675434 -0.20876431
0.012344051 0.47672734 -0.20897055
0.036868874 0.47726747 -0.20484293
0.061457407 0.47780898 -0.20070457
0.086109906 0.4783521 -0.19655538
0.6311177 -0.26141682 -0.17546856
-0.60429943 -0.16164616 -0.18653727
0.60309154 -0.16118483 -0.1931963
-0.5803594 -0.087830395 -0.18260884
0.57992667 -0.0877195 -0.18500876
-0.55395341 -0.038141031 -0.19226718
-0.53111219 0.035643052 -0.18175435
0.53072 0.035660915 -0.18409109
-0.5048449 0.084973499 -0.19143379
0.50454235 0.084955469 -0.19378865
-0.48003426 0.13420232 -0.19261968
0.47992313 0.13417374 -0.19385254
0.48254573 0.15933529 -0.1759218
-0.45683002 0.18381235 -0.18294752
0.45665291 0.18376465 -0.18418789
-0.43099627 0.20812568 -0.19117749
0.43089288 0.20806858 -0.1924113
-0.40763316 0.25798196 -0.18149638
0.40746385 0.25790533 -0.18273795
-0.38191405 0.28211564 -0.18973362
0.38181841 0.28203017 -0.19096887
-0.35838994 0.3322171 -0.18006003
0.35823026 0.33211333 -0.18128657
-0.33346739 0.35675541 -0.18198001
0.33339179 0.35669717 -0.18260908
-0.30913007 0.38181975 -0.17834771
-0.28316137 0.38047647 -0.19177043
0.28317115 0.3804138 -0.19239533
0.30903122 0.38175663 -0.17897809
-0.25884163 0.40549102 -0.18816042
0.25882828 0.40542343 -0.18878663
0.28461406 0.40687075 -0.1753552
-0.23446694 0.43056187 -0.18454218
0.23442931 0.43048754 -0.18518591
-0.21003708 0.45568967 -0.18091547
0.20997642 0.45561019 -0.18156099
-0.11076717 0.47892365 -0.19218707
0.11082661 0.47889638 -0.19239545
-0.18555191 0.48087439 -0.17728078
-0.16046181 0.48001692 -0.18383324
-0.1355821 0.47946948 -0.1880157
0.13560779 0.47944227 -0.18822455
0.16045444 0.47999159 -0.1840266
0.18546815 0.48078981 -0.17792749
-0.11141005 0.50586027 -0.17548466
-0.086529791 0.50527769 -0.17968869
-0.061714489 0.50469679 -0.18388164
-0.036963921 0.50411725 -0.18806386
-0.012277702 0.50353694 -0.19225132
0.012344051 0.50351042 -0.19244337
0.036996432 0.50408822 -0.18827271
0.061713189 0.50466776 -0.18409097
0.08649458 0.50524873 -0.17989862
0.11134085 0.50583112 -0.1756953
-0.012406271 0.53060162 -0.17554939
0.012344051 0.53057086 -0.17575991
-0.63323838 -0.38659626 -0.165187
-0.61010313 -0.38781652 -0.1563803
0.63298982 -0.38651943 -0.16574109
0.65947276 -0.36277714 -0.15746129
-0.63251835 -0.26208574 -0.16878414
-0.61010313 -0.13883755 -0.15638041
0.60865182 -0.13842387 -0.1631
-0.58412355 -0.063918561 -0.16223502
0.5835343 -0.063826293 -0.16463292
-0.55753893 -0.013987046 -0.17201626
0.55704594 -0.013932038 -0.1743995
-0.5345645 0.060345478 -0.16136968
0.53401321 0.06034559 -0.16371989
-0.50812036 0.10991354 -0.17117226
0.50765979 0.10987702 -0.17354071
-0.48279455 0.15937322 -0.1746912
-0.48558843 0.1848287 -0.15654421
0.4851979 0.18478078 -0.15778875
-0.4594706 0.2093396 -0.16489375
0.45915258 0.20928171 -0.16614807
-0.433485 0.23372349 -0.17321658
0.43324155 0.23365629 -0.17446434
0.43561885 0.25953355 -0.1562984
-0.40999794 0.28393829 -0.16342616
0.40968975 0.2838524 -0.16466534
-0.38412824 0.30814058 -0.17175651
0.38389266 0.30804464 -0.1730057
-0.36047837 0.3586033 -0.16197383
0.36017799 0.3584888 -0.16321409
-0.33531764 0.38317421 -0.16481233
0.33510917 0.38311064 -0.16544759
-0.31085041 0.40840101 -0.16115725
-0.28473759 0.40694085 -0.17470729
0.31061858 0.40833235 -0.1617943
-0.28632921 0.43368709 -0.15747774
-0.26028976 0.43211895 -0.17105865
0.26014301 0.43204394 -0.17170787
0.28607383 0.43361339 -0.1581161
-0.23578641 0.45735413 -0.16740155
0.23561636 0.45727417 -0.16805232
-0.21122618 0.48264489 -0.16375256
0.21103296 0.48255941 -0.16440475
-0.18661128 0.50799507 -0.16007876
-0.16136657 0.50702989 -0.16704357
-0.13635556 0.50644422 -0.17126966
0.13625228 0.50641507 -0.17148054
0.16122909 0.50700068 -0.16725516
0.18639474 0.50790435 -0.16073251
-0.11205968 0.53307968 -0.15860701
-0.087047622 0.5324558 -0.1628716
-0.062101852 0.53183615 -0.16710865
-0.037221484 0.53121811 -0.17133462
0.037125196 0.53118718 -0.17154562
0.061971392 0.53180528 -0.16732025
0.086883277 0.53242725 -0.16306734
0.11186048 0.53304845 -0.15881968
-0.01253619 0.55795044 -0.15867257
0.012344051 0.55791754 -0.15888512
-0.6637724 -0.39039883 -0.13774395
0.61025679 -0.38808903 -0.15441322
0.66276968 -0.38994914 -0.14098895
-0.66105521 -0.3636466 -0.15081692
-0.63862497 -0.24010167 -0.13827419
0.63698077 -0.2394802 -0.14500308
-0.58793885 -0.039701682 -0.14158416
0.58718514 -0.039626885 -0.14401281
-0.56117016 0.010474645 -0.15150714
0.56051964 0.010511335 -0.15388823
-0.5380609 0.085363887 -0.1407243
0.53735113 0.085345909 -0.14307165
-0.51143754 0.13517149 -0.15065241
0.51081944 0.13511682 -0.15301824
-0.48841405 0.21057293 -0.13819122
0.48788261 0.2105156 -0.13943338
-0.46214107 0.23515576 -0.14663577
0.46168277 0.23508827 -0.14788783
-0.43600184 0.25961035 -0.15505278
0.43802097 0.28570384 -0.13794267
-0.41238946 0.31018871 -0.14515173
0.41193891 0.3100923 -0.14640486
-0.38636544 0.33445832 -0.15359294
0.38599217 0.33435413 -0.15482306
-0.36259043 0.38528869 -0.14368272
0.36214951 0.38516495 -0.14492047
-0.33718601 0.40987569 -0.14747596
0.3368434 0.40980622 -0.14811838
-0.31258926 0.43526855 -0.14378166
0.31222457 0.43519598 -0.14440918
-0.26175204 0.45903075 -0.15378964
0.26147184 0.45894998 -0.15444601
-0.28793797 0.46072149 -0.14006245
0.28754795 0.46064216 -0.14070773
-0.2371188 0.48443228 -0.15009332
0.23681504 0.48434621 -0.15075099
0.26281625 0.48614827 -0.13698125
-0.21242921 0.50989199 -0.14638829
0.21210188 0.50980055 -0.14704776
-0.18768308 0.53540987 -0.14267492
-0.16228083 0.53432721 -0.15007699
-0.13713717 0.53370267 -0.15434766
0.13690352 0.5336715 -0.1545608
0.16201264 0.5342961 -0.15029049
0.18733127 0.53531092 -0.14335227
-0.13792625 0.56124663 -0.1372633
-0.11271553 0.56058377 -0.14156771
-0.087571412 0.55992275 -0.14586091
-0.062493663 0.55926365 -0.15014243
-0.037482008 0.55860597 -0.15441322
0.03725544 0.55857313 -0.15462625
0.062232565 0.5592308 -0.15035641
0.087275699 0.55988991 -0.14607525
0.11238509 0.56055075 -0.14178252
0.13756165 0.561216 -0.13746214
-0.037745286 0.58628362 -0.13731289
-0.012667354 0.58558506 -0.14163387
0.012344051 0.58555299 -0.14183223
0.037387058 0.58624882 -0.13752818
-0.66746438 -0.34250391 -0.11998081
0.66563916 -0.34168223 -0.12665212
-0.61601704 -0.11559559 -0.12565064
0.61432093 -0.11523113 -0.13241529
-0.59180015 -0.015172567 -0.12068415
0.59088296 -0.015116137 -0.12312734
-0.56484795 0.035250224 -0.13073504
0.56403512 0.035268657 -0.13313007
-0.54160517 0.11070453 -0.1197964
0.5407294 0.11066783 -0.12217402
-0.51479995 0.16075382 -0.12985265
0.51401705 0.16068016 -0.13224912
-0.49138027 0.23664898 -0.11892474
0.49059549 0.23654339 -0.12088525
-0.46483946 0.26126486 -0.12818635
0.46423948 0.26118791 -0.12943625
-0.43854725 0.28579116 -0.13668275
-0.44112176 0.31227085 -0.11810303
0.44045055 0.31217286 -0.11937749
-0.41480607 0.33673674 -0.12668538
0.41421568 0.33663216 -0.12791979
-0.38863009 0.36107612 -0.13520622
0.38811362 0.36096123 -0.13645053
0.39026129 0.38787368 -0.1178515
-0.3647266 0.41227803 -0.12518322
0.36414173 0.41214302 -0.12643504
-0.33907452 0.43686533 -0.12995255
0.33859631 0.43679038 -0.13060188
-0.31434691 0.46242675 -0.12621808
0.31384638 0.46234861 -0.12685227
-0.28956416 0.48804888 -0.12245846
-0.26323014 0.48623288 -0.13633454
0.28903943 0.48796564 -0.12309396
-0.26472422 0.51372999 -0.11869013
-0.23846556 0.51180291 -0.13259804
0.23802665 0.5117107 -0.13326311
0.26417401 0.51363933 -0.119344
-0.21364407 0.53743148 -0.1288532
0.21318133 0.53733391 -0.12951958
-0.18876544 0.56311923 -0.12509942
-0.16320476 0.56191337 -0.13293052
0.16280448 0.56188041 -0.13314676
0.18827885 0.56301641 -0.12576723
-0.13872451 0.5890854 -0.11998081
-0.11337896 0.58838218 -0.12433112
-0.088100761 0.5876807 -0.12866974
-0.062889621 0.58698124 -0.13299727
0.062496506 0.58694631 -0.13321316
0.087672651 0.58764571 -0.12888658
0.11291577 0.58834714 -0.1245482
0.13822676 0.58905292 -0.12018156
-0.0380111 0.61425209 -0.12004769
-0.012800036 0.61351538 -0.12439787
0.012344051 0.61347854 -0.12461495
0.037520081 0.61421806 -0.12024879
-0.64350581 -0.4189294 -0.11388767
0.64291072 -0.41888514 -0.11419034
-0.64484483 -0.21769598 -0.10719764
0.64295602 -0.21712372 -0.11395502
0.62009573 -0.091592461 -0.10115826
-0.59571141 0.0096742436 -0.09951365
0.59463173 0.0097117834 -0.10195458
-0.56857324 0.060345422 -0.10969472
0.56759602 0.060345478 -0.11210406
0.54415143 0.13631794 -0.10100603
-0.51820314 0.18666627 -0.10880113
0.51725858 0.18657406 -0.11119461
0.49362707 0.26299089 -0.10015821
-0.46757123 0.2876738 -0.10950923
0.46682549 0.28758612 -0.11077368
-0.44372344 0.33905339 -0.099327207
0.44291022 0.33894712 -0.100582
-0.41725251 0.36359 -0.1079911
0.41651648 0.36347476 -0.10923958
-0.39092061 0.3879981 -0.11660957
0.39243165 0.4150939 -0.099055529
-0.36688721 0.4395768 -0.1064713
0.3661586 0.43943259 -0.10772097
-0.3409836 0.46414852 -0.11223865
0.34037 0.46406969 -0.11287832
-0.31612369 0.48988023 -0.10846353
0.31548586 0.48979628 -0.10910475
-0.29120803 0.51567358 -0.1046629
0.29054573 0.51558453 -0.10530531
-0.26623461 0.54152679 -0.10085332
-0.23982696 0.53947031 -0.11491299
0.23925255 0.53937447 -0.1155684
0.26554781 0.54143256 -0.10149741
-0.21487215 0.5652703 -0.11112726
0.2142725 0.56516671 -0.11180079
-0.1898596 0.59112996 -0.10733271
-0.16413765 0.58979052 -0.11561894
0.16360475 0.58975798 -0.11582041
0.18923585 0.59102082 -0.10800791
-0.13953127 0.61722165 -0.10251379
-0.11404948 0.61647689 -0.10691059
-0.088635221 0.6157316 -0.11131239
-0.063289404 0.61499083 -0.11568606
0.062763251 0.61495662 -0.1158874
0.088073835 0.61569738 -0.11151481
0.11345211 0.6164397 -0.10713005
0.13889834 0.6171844 -0.10273385
-0.03828001 0.64252222 -0.10258138
-0.012934133 0.64174384 -0.10697818
0.012344051 0.64170492 -0.10719764
0.037654389 0.64248329 -0.10280144
-0.6219855 -0.42174503 -0.094637632
0.62169367 -0.42205626 -0.092509389
0.64904672 -0.19433555 -0.082306862
-0.62204444 -0.09190771 -0.094331503
0.59842628 0.034863692 -0.080523133
-0.57234687 0.085766926 -0.08838141
0.57120603 0.085748322 -0.090787649
-0.54519248 0.13637316 -0.098614335
-0.52165055 0.21291544 -0.087475896
0.52053964 0.21280412 -0.089883566
-0.49464327 0.26314038 -0.097731352
-0.47033447 0.31438676 -0.09061718
0.46944359 0.3142896 -0.091878772
-0.44635752 0.36614648 -0.08031714
0.4453961 0.3660292 -0.08158648
-0.41972718 0.39075282 -0.089081287
0.41884381 0.39062649 -0.09034431
-0.39323741 0.41522926 -0.09779942
0.39462906 0.4426305 -0.080025196
-0.36907274 0.46719009 -0.087543964
0.36819685 0.46703452 -0.088808179
-0.34291351 0.49172971 -0.094331264
0.34216139 0.4916451 -0.094977975
-0.31791991 0.51763409 -0.09051466
0.31714481 0.51754671 -0.091145754
-0.2928699 0.54360098 -0.086672306
0.29206854 0.54350591 -0.087321877
-0.26776156 0.56962836 -0.082821012
-0.24120323 0.56743997 -0.097034931
0.24049069 0.56733799 -0.097697258
0.26693541 0.5695281 -0.083472133
-0.21611366 0.59341341 -0.093207717
0.21537668 0.59330624 -0.093871832
-0.19096571 0.61944735 -0.089371681
-0.1650814 0.61796826 -0.098104954
0.1644128 0.61793083 -0.09832561
0.19020422 0.61933464 -0.090037107
-0.16603528 0.64644897 -0.080402851
-0.1403459 0.64565688 -0.08487606
-0.11472653 0.6448701 -0.089320421
-0.08917594 0.64408547 -0.093752623
-0.063693851 0.64330262 -0.098173022
0.06303259 0.64326358 -0.09839344
0.088479325 0.64404929 -0.093956828
0.11399421 0.6448338 -0.089525342
0.13957778 0.64562041 -0.085081577
0.16523032 0.64640945 -0.080626011
-0.06410265 0.67191911 -0.080471396
-0.038551547 0.67109257 -0.084944606
-0.013069538 0.67027164 -0.089388609
0.012344051 0.67023367 -0.08959341
0.037790269 0.67105466 -0.085150003
0.06330508 0.67187792 -0.080694556
-0.67725646 -0.42492905 -0.072868705
0.67536676 -0.42417106 -0.078050137
-0.65118474 -0.19485781 -0.075521708
-0.62819195 -0.067761838 -0.062388062
0.62598878 -0.06749706 -0.06926167
-0.59967375 0.034844864 -0.078067183
-0.57616985 0.11152057 -0.066788912
0.57486045 0.11148326 -0.069209576
-0.54882652 0.16237651 -0.077156186
0.54762083 0.16230296 -0.079544544
-0.52514303 0.23950784 -0.065871477
0.52386361 0.23937739 -0.06829381
-0.49794877 0.28997722 -0.07626164
0.49676767 0.28980932 -0.07868576
-0.47312969 0.34140918 -0.071506262
0.47208968 0.3413012 -0.072782516
-0.44902223 0.39355451 -0.061086178
0.44791308 0.39342767 -0.062353253
-0.42223048 0.41823035 -0.069952369
0.42120016 0.41809464 -0.071212888
-0.39558104 0.44277528 -0.07877183
0.39685005 0.47048533 -0.060791016
-0.37128362 0.49512348 -0.068397284
0.37026063 0.49495852 -0.069658756
-0.34486461 0.51961392 -0.076227188
0.34397414 0.51952559 -0.076863527
-0.31973585 0.54569316 -0.072368741
0.31882045 0.5455997 -0.073006749
-0.29455009 0.5718357 -0.068483829
0.29360956 0.57173735 -0.069123268
-0.26930535 0.59803987 -0.064589977
-0.24259458 0.59571666 -0.078960538
0.24174361 0.59561104 -0.079613209
0.26833829 0.59793341 -0.065248251
-0.21736881 0.62186575 -0.075091243
0.21649191 0.62175208 -0.07576251
0.24300915 0.62419343 -0.061346769
-0.19208398 0.64807624 -0.071212769
0.19118235 0.64795691 -0.071885586
-0.16699855 0.67523444 -0.062526584
-0.14117014 0.67440218 -0.067031026
-0.11541153 0.67357236 -0.071523309
-0.089722455 0.67274451 -0.076003551
0.088888764 0.67270327 -0.076227188
0.11454214 0.67353392 -0.071730614
0.14026454 0.67436379 -0.067238688
0.16605666 0.67519593 -0.062734842
-0.064515457 0.70084155 -0.062596202
-0.038826279 0.69997454 -0.067100286
-0.013206532 0.69911003 -0.07159245
0.012344051 0.69907027 -0.071799397
0.03792762 0.69993472 -0.067307949
0.06358052 0.70080131 -0.062804222
-0.63193327 -0.45507634 -0.04294765
-0.65459561 -0.45268494 -0.058479786
0.65357196 -0.45263684 -0.05879271
-0.65764809 -0.17157492 -0.043228388
0.65525615 -0.17110287 -0.050041556
-0.60501301 0.060345478 -0.049167395
0.60278213 0.060345534 -0.055921435
-0.5800432 0.13761336 -0.044912338
0.5785659 0.13755755 -0.047330141
-0.55250835 0.18872114 -0.055416226
0.55113298 0.18862852 -0.05781877
-0.52868438 0.26645148 -0.04396534
0.52723408 0.26630148 -0.046401978
-0.50130033 0.31716758 -0.054492593
0.49994698 0.31697866 -0.056948781
-0.47595745 0.36874646 -0.052172542
0.474769 0.36862865 -0.053446412
0.45045722 0.42114449 -0.042912483
-0.42476296 0.44602823 -0.050600648
0.4235819 0.44588095 -0.051875591
-0.39795187 0.47064143 -0.059522867
-0.37351826 0.52338034 -0.049044847
0.37234658 0.52320576 -0.050303578
-0.34683728 0.54780596 -0.057923079
0.3458052 0.54771167 -0.05856657
-0.32157364 0.57406497 -0.054004312
0.3205162 0.57396573 -0.054649353
-0.29624891 0.60038322 -0.050093889
0.29516619 0.60027862 -0.05074048
-0.27086771 0.62676907 -0.046139121
-0.24400131 0.62430531 -0.060686707
0.26975808 0.62665617 -0.046804905
-0.245425 0.65321434 -0.042192817
-0.21863784 0.65063232 -0.056774497
0.21762054 0.65051526 -0.05743587
0.24428874 0.65309292 -0.042877316
-0.19321468 0.67702156 -0.052853107
0.19217126 0.67689574 -0.053533435
-0.16797324 0.70433563 -0.044438958
-0.1420033 0.7034595 -0.048992395
-0.11610396 0.70258564 -0.053533554
-0.090274379 0.7017107 -0.05807972
0.089303046 0.70167035 -0.058288455
0.11509547 0.70254189 -0.053760171
0.14095877 0.70341897 -0.049202204
0.16689199 0.70429534 -0.044649482
-0.064953417 0.73025686 -0.04363203
-0.039114762 0.7293101 -0.048362613
-0.013349043 0.7283659 -0.053080082
0.012344051 0.72832042 -0.053306818
0.038071841 0.72926813 -0.048572659
0.063872457 0.73021477 -0.043842554
0.63123965 -0.45540088 -0.04084003
-0.63445634 -0.043142494 -0.029837251
0.63199717 -0.042929944 -0.036740065
0.60858363 0.086268865 -0.023154616
-0.58397096 0.16405235 -0.022728205
0.58231747 0.16397709 -0.025178194
-0.55623871 0.21541357 -0.033389091
0.55469435 0.21530275 -0.035788417
0.5306465 0.2935816 -0.024237633
-0.50469351 0.34471616 -0.032453179
0.50316828 0.34450695 -0.034924388
-0.47881836 0.39640403 -0.032612205
0.47747725 0.39627495 -0.033901095
-0.45171806 0.42128271 -0.041630626
0.45303124 0.44918725 -0.023243308
-0.42732516 0.4741517 -0.031022072
0.42599148 0.47399288 -0.032311916
-0.40035045 0.49883339 -0.040048957
0.399097 0.49866536 -0.041331887
-0.37578112 0.55197066 -0.029447794
0.37445888 0.55178708 -0.030703664
-0.34893236 0.57645476 -0.038483262
0.34768826 0.57625967 -0.03974998
-0.32343012 0.60274994 -0.035453439
0.32222921 0.6026445 -0.036105514
-0.29796824 0.62925142 -0.031481385
0.29674163 0.6291405 -0.032135367
-0.27244598 0.6558156 -0.027500391
0.27119228 0.65569657 -0.028173447
-0.2468632 0.6824429 -0.02350986
-0.21992093 0.67971885 -0.03825438
0.21876062 0.67959505 -0.038923144
0.24558383 0.68231833 -0.024184465
-0.19436227 0.7063027 -0.034218669
0.19317403 0.70616668 -0.034924388
-0.16906945 0.7341671 -0.024095654
-0.14291421 0.73313129 -0.029271007
-0.11685079 0.73215866 -0.034130454
-0.090865329 0.73120648 -0.038887978
0.089746207 0.73116404 -0.039098978
0.11569341 0.73211622 -0.034342289
0.14171706 0.73308522 -0.029501081
0.16783068 0.73412091 -0.024326324
-0.039469253 0.75982505 -0.025337696
