ply
format ascii 1.0
comment PCL generated
element vertex 1360
property float x
property float y
property float z
element camera 0
property float view_px
property float view_py
property float view_pz
property float x_axisx
property float x_axisy
property float x_axisz
property float y_axisx
property float y_axisy
property float y_axisz
property float z_axisx
property float z_axisy
property float z_axisz
property float focal
property float scalex
property float scaley
property float centerx
property float centery
property int viewportx
property int viewporty
property float k1
property float k2
end_header
-0.099436909 0.21789186 -0.13080841
-0.08418908 0.21759845 -0.13334882
0.097435765 0.21772513 -0.13225263
0.11273131 0.21801874 -0.12970924
-0.1147643 0.21827187 -0.1275171
0.12829266 0.21869017 -0.12389469
-0.084580243 0.23398073 -0.12318617
-0.069292694 0.23366541 -0.12574637
-0.05404494 0.23335198 -0.1282903
-0.038836304 0.23303832 -0.13083726
-0.023667008 0.23272666 -0.13336796
0.03687964 0.23286161 -0.13227195
0.052096728 0.23317492 -0.12972867
0.067353226 0.23348895 -0.12717867
0.08264973 0.23380508 -0.12461245
-0.023745162 0.24918555 -0.12321532
-0.0085366732 0.24885182 -0.12576574
0.006641157 0.24866445 -0.12719804
0.021858346 0.24899898 -0.12464154
-0.38949037 -0.34459794 -0.11936271
0.41777247 -0.34431586 -0.12102818
-0.41963264 -0.32910004 -0.12096971
0.41919094 -0.28432649 -0.1144473
-0.40536752 -0.2535623 -0.11616999
0.38909045 -0.14699884 -0.11219168
-0.3752436 -0.13159436 -0.11399657
0.37260845 -0.11607936 -0.11836791
-0.35891742 -0.10076236 -0.11990845
0.3585999 -0.070548132 -0.11167097
-0.3447727 -0.055209137 -0.11347693
0.34221017 -0.039858367 -0.11784089
-0.32853305 -0.024596635 -0.11939192
0.32809672 0.0059428206 -0.1111306
-0.31428581 0.021216154 -0.11295712
-0.2981827 0.036374886 -0.11853379
0.31279841 0.036546294 -0.11111087
0.29670277 0.05168917 -0.11626774
-0.28376257 0.067092963 -0.11258423
0.28068903 0.066753328 -0.12140763
-0.26781243 0.082150407 -0.11762601
0.26630625 0.097524673 -0.11534816
-0.2532956 0.11302079 -0.11166126
0.25036523 0.11247754 -0.1204831
-0.23741433 0.12796786 -0.11671752
-0.22161472 0.14283988 -0.12173831
0.23588273 0.1434034 -0.11441791
-0.2065731 0.15821064 -0.11995715
-0.22279818 0.15898959 -0.11075693
0.22039969 0.15852796 -0.11620915
-0.19154404 0.17364867 -0.11774325
0.20537888 0.17399751 -0.11396718
-0.17648131 0.18912137 -0.11552435
0.17425629 0.18866697 -0.12006432
0.19032407 0.18950199 -0.11172009
-0.16138406 0.20462769 -0.11331028
-0.14552888 0.20374022 -0.12154382
0.15921265 0.20414047 -0.11783099
-0.14625373 0.22016974 -0.11108142
-0.13044365 0.21921682 -0.11933345
0.14413577 0.21965002 -0.115583
-0.11532465 0.23472811 -0.11711812
-0.09990707 0.23429564 -0.12062895
0.097985581 0.23412076 -0.12204945
0.11336131 0.2344373 -0.1194796
0.12902394 0.23519354 -0.11333972
-0.10038212 0.25087005 -0.11034399
-0.084975086 0.25053188 -0.11292768
-0.069607757 0.25019345 -0.11551452
-0.054280628 0.24985708 -0.11808485
-0.038993169 0.24952148 -0.12064862
0.037115272 0.2493356 -0.122069
0.052411713 0.24967198 -0.11949915
0.06774798 0.25000912 -0.11692262
0.08312422 0.25034714 -0.11433959
0.098540589 0.2506862 -0.11174965
-0.023824129 0.26581547 -0.11295712
-0.0085366732 0.26545841 -0.11553413
0.006720107 0.26526332 -0.11694223
0.022016656 0.26562127 -0.11435908
0.037353132 0.26598021 -0.11176926
-0.039151516 0.26617494 -0.11036354
-0.42203957 -0.34628704 -0.10938925
-0.4228701 -0.31627241 -0.10539347
0.40565297 -0.20878339 -0.1060853
-0.39151016 -0.17786705 -0.10886735
-0.37754306 -0.11698551 -0.1015504
0.37509397 -0.10143004 -0.10545284
-0.36110795 -0.086004689 -0.10753655
0.36100224 -0.055551056 -0.098668277
-0.34688333 -0.040117495 -0.10101426
0.34449807 -0.024708098 -0.1049189
-0.33053568 -0.0093587544 -0.10700363
-0.31620556 0.0367916 -0.10048789
-0.29979554 0.0519589 -0.10750693
0.31463295 0.052197427 -0.099762321
0.29843938 0.067385323 -0.10498804
-0.28529972 0.082895689 -0.10149091
0.28233168 0.08249443 -0.11017668
-0.2692568 0.097996652 -0.10658902
0.28399312 0.098415434 -0.098817527
0.26787204 0.11348958 -0.10404807
-0.25466201 0.12908678 -0.10056734
0.25183505 0.12848516 -0.10925144
-0.23868994 0.14407681 -0.10567027
0.23727341 0.15963565 -0.10312706
-0.22399488 0.17531978 -0.099653006
-0.2076218 0.17441227 -0.10947788
0.22162688 0.17477204 -0.10558134
-0.20868164 0.19078626 -0.098887146
-0.19251424 0.18995033 -0.1072405
0.20652686 0.19034313 -0.10331529
-0.17737266 0.20552343 -0.10499799
0.17523512 0.20504174 -0.10946804
0.19139247 0.20594956 -0.10104412
-0.16219619 0.22113055 -0.10276031
0.16011195 0.22061667 -0.10721081
0.17622359 0.22159165 -0.098767757
-0.14698631 0.23677397 -0.1005078
-0.1310894 0.23574671 -0.10884768
0.1449544 0.23622704 -0.10494858
-0.11589044 0.2513575 -0.10661858
0.11399786 0.2510272 -0.10914308
0.1297624 0.25187284 -0.10268116
-0.10086213 0.26761761 -0.099951267
-0.085374072 0.2672559 -0.10256213
-0.069926403 0.26689506 -0.1051662
-0.054518763 0.26653382 -0.10777318
0.052729685 0.26633993 -0.10917264
0.068146862 0.266702 -0.10655946
0.083604135 0.26706371 -0.10394907
0.099101961 0.26742634 -0.10133195
0.1146405 0.26778993 -0.098708153
-0.039311521 0.28300229 -0.099971116
-0.023903999 0.28262055 -0.10258198
-0.0085366732 0.28223822 -0.10519576
0.0067998813 0.28203583 -0.10657907
0.022176623 0.2824176 -0.10396892
0.037593711 0.28280041 -0.1013518
0.0530513 0.28318411 -0.098727822
-0.41011333 -0.36459959 -0.092458367
0.40942195 -0.36539757 -0.08795166
0.4246029 -0.36515188 -0.089339018
-0.42670867 -0.30362791 -0.08692503
0.42360911 -0.27173296 -0.093949437
-0.40902391 -0.24040902 -0.097901702
-0.39505199 -0.16396482 -0.090463459
0.39200044 -0.1326009 -0.097652555
-0.37987342 -0.10219283 -0.088937044
0.37761211 -0.08658845 -0.092368305
-0.36332777 -0.071061529 -0.094998896
-0.34901893 -0.024835199 -0.088404238
0.34681597 -0.0093587544 -0.091827214
-0.33256361 0.0060711699 -0.094459355
0.33030003 0.021444611 -0.09812063
-0.31814957 0.052563872 -0.087861061
-0.30142495 0.067717142 -0.096366465
0.31648859 0.068028286 -0.088283598
0.30019739 0.083261527 -0.093569398
-0.28685412 0.098875917 -0.090272844
-0.27071735 0.11402045 -0.095428348
0.28567216 0.1145187 -0.087337911
0.26945436 0.12963679 -0.092628658
-0.25604376 0.1453332 -0.089348972
0.25332168 0.1446756 -0.097891629
-0.2399787 0.1603654 -0.094509304
0.25482538 0.16105202 -0.086401343
0.23868123 0.17605466 -0.091696918
-0.22520502 0.19183326 -0.088424385
0.2228673 0.19119136 -0.094839036
-0.20975286 0.20733562 -0.088182986
-0.19349478 0.20642576 -0.096625865
0.20768721 0.20686521 -0.092548549
-0.17827351 0.22210068 -0.094359338
0.1924724 0.2225748 -0.090252757
-0.163017 0.23780985 -0.092097759
0.16102009 0.23726934 -0.096486092
0.17722273 0.23832047 -0.087951601
-0.1477267 0.25355583 -0.089820981
-0.13174205 0.25245267 -0.098250151
0.14578189 0.2529828 -0.094199419
-0.13240167 0.26933765 -0.087539196
-0.11646277 0.26816559 -0.095997334
0.13050951 0.26873368 -0.091897488
-0.10134719 0.28454131 -0.089449465
-0.085777223 0.28415534 -0.092087865
-0.07024809 0.28377053 -0.094719052
-0.054759398 0.28338516 -0.097353578
0.068549559 0.28356889 -0.096097171
0.084089093 0.28395629 -0.093449295
0.09966924 0.284343 -0.090804577
0.11529053 0.28473085 -0.088152885
-0.05500279 0.30041534 -0.086814284
-0.039473202 0.3000066 -0.089469612
-0.02398463 0.29960036 -0.092107832
-0.0085366732 0.29919368 -0.094749093
0.0068804193 0.2989831 -0.09611702
0.022338122 0.29938924 -0.093479455
0.037836596 0.2997964 -0.090834618
0.05337631 0.30020624 -0.088172913
-0.39788437 -0.36755863 -0.075746
-0.41274828 -0.22701111 -0.07929337
0.40994951 -0.19535254 -0.085413456
0.39616904 -0.11831793 -0.076824725
-0.38223147 -0.087211773 -0.076173604
0.38016155 -0.071550466 -0.079120874
-0.36557573 -0.055928998 -0.082302451
0.36343804 -0.040356625 -0.085483968
-0.35118335 -0.0093587181 -0.07562387
0.34916636 0.0061935205 -0.078552365
-0.33461553 0.021696456 -0.081766188
0.33253238 0.037150729 -0.08493942
-0.32011834 0.068536684 -0.075073838
-0.30307415 0.083653137 -0.085090578
0.31836402 0.084041469 -0.076682389
0.3019757 0.09932059 -0.08201915
-0.2884261 0.11503659 -0.078927994
-0.27219304 0.13022402 -0.084151983
0.28737056 0.13080783 -0.075725675
0.27105492 0.14596994 -0.081077635
-0.25744236 0.16176389 -0.077993751
-0.24128197 0.1768375 -0.083222568
0.2563464 0.17761762 -0.074778199
0.24010526 0.19266286 -0.080135226
-0.22642992 0.20853449 -0.077058733
0.2241223 0.2077896 -0.083970249
-0.21083559 0.2240631 -0.07736367
-0.19448581 0.22307776 -0.085897326
0.20886126 0.22356755 -0.081654787
-0.19548754 0.2399091 -0.075053394
-0.17918405 0.23885565 -0.083606482
0.19356509 0.23938189 -0.07933408
0.16193892 0.2541036 -0.085635245
-0.16384661 0.25466821 -0.081320703
0.17823367 0.25523263 -0.07700789
-0.14847505 0.27051809 -0.079019487
0.1466191 0.26992166 -0.083323717
0.16286691 0.2711198 -0.074676216
-0.13306838 0.2864041 -0.076712847
-0.11704125 0.28515378 -0.085262179
0.13126405 0.28577614 -0.081006706
-0.10183737 0.30164358 -0.078836679
-0.086184628 0.30123317 -0.081502914
-0.070573159 0.30082366 -0.084162116
0.068956889 0.30061546 -0.085514247
0.08457873 0.30102605 -0.082848549
0.10024198 0.30143744 -0.080175757
0.11594746 0.30185169 -0.077485681
-0.11762596 0.30232492 -0.074411273
-0.055248525 0.31762421 -0.076173604
-0.039636593 0.31719053 -0.078856945
-0.024066109 0.31675944 -0.08152318
-0.0085366732 0.31632957 -0.084182322
0.006961884 0.31611094 -0.085534513
0.02250148 0.31654197 -0.082868695
0.038082283 0.31697401 -0.080195904
0.053704452 0.31740725 -0.077516139
0.069368549 0.31784323 -0.074819028
0.0070442148 0.33342087 -0.074839354
-0.429528 -0.36798099 -0.073360622
0.39786789 -0.35323945 -0.068336904
0.42811736 -0.25887525 -0.073033929
0.41433188 -0.18163849 -0.064328849
-0.39865798 -0.14980243 -0.071726263
-0.38462162 -0.072039507 -0.063236654
0.38274291 -0.056312259 -0.065707743
-0.36785236 -0.040603578 -0.06944406
0.36590049 -0.024960261 -0.072155535
-0.35337549 0.0063158004 -0.062679946
0.35154253 0.021952476 -0.065131664
-0.33669531 0.037521064 -0.068900764
0.33479431 0.053065091 -0.071583152
-0.30474207 0.099769652 -0.073687136
0.32032445 0.1002617 -0.064555347
0.30377299 0.1155652 -0.070345283
-0.29001451 0.1313802 -0.067464709
-0.27368546 0.14661115 -0.072747946
0.2890887 0.14728621 -0.063978672
0.27267402 0.16249225 -0.069392741
-0.25885558 0.17838044 -0.066519797
-0.24260002 0.19349611 -0.0718081
0.25788516 0.19437559 -0.063020229
0.2415458 0.20946342 -0.068439424
-0.22766763 0.22542448 -0.06557405
0.22538984 0.22456779 -0.0729931
-0.21193004 0.24097161 -0.06642729
0.21004701 0.24045116 -0.070652306
-0.19650012 0.2569229 -0.064091921
-0.18010351 0.25579008 -0.072747886
0.1946687 0.25637135 -0.068306208
-0.16468519 0.27170861 -0.07042712
0.17925474 0.27232838 -0.065954506
-0.14923151 0.28766379 -0.068100929
0.14746466 0.2870439 -0.072339475
0.16380504 0.28832248 -0.063597381
-0.13374232 0.30365539 -0.065769434
0.13202751 0.30300608 -0.069986999
-0.11821701 0.31968233 -0.063442826
-0.10233276 0.31892762 -0.068111181
-0.086596362 0.31849205 -0.070805788
-0.07090167 0.31805757 -0.073493361
0.08507403 0.31827876 -0.072124839
0.10082138 0.31871539 -0.069423616
0.11661076 0.31915337 -0.066714942
-0.071234003 0.33547658 -0.06270051
-0.055496875 0.33501607 -0.065419853
-0.039801877 0.33455861 -0.068121493
-0.024148453 0.33410051 -0.070826292
-0.0085366732 0.33364528 -0.073513687
0.022666581 0.33387703 -0.072145224
0.038330592 0.33433461 -0.06944406
0.054036409 0.33479324 -0.066735506
0.069784209 0.33525321 -0.064019918
-0.0085366732 0.35114542 -0.062731504
0.0071274238 0.35091558 -0.064030051
-0.41729921 -0.38667801 -0.05655551
0.4165436 -0.38720781 -0.053687632
0.43291396 -0.38774499 -0.050780416
0.40142149 -0.37201393 -0.050582051
0.43271837 -0.24574539 -0.051687837
-0.41654259 -0.21336168 -0.060335815
-0.40233389 -0.13537383 -0.052625716
0.4004212 -0.10373364 -0.055579662
0.38535681 -0.040870234 -0.052125692
-0.37015635 -0.025081329 -0.056430995
0.36839578 -0.0093587181 -0.058649361
0.3539505 0.037922248 -0.051531434
-0.33880177 0.053548962 -0.055870473
0.33708298 0.069191203 -0.058069348
-0.32211068 0.084713526 -0.062133133
-0.30642745 0.11606895 -0.062163949
0.32252601 0.11676038 -0.050936818
-0.30813214 0.13255486 -0.050509036
0.30559123 0.13199891 -0.058535457
-0.29162106 0.14791049 -0.055870473
-0.27519485 0.16318482 -0.061214149
0.29082695 0.16395706 -0.0520944
0.27431196 0.17920698 -0.057571888
-0.26028496 0.19518675 -0.054914713
-0.24393307 0.21034451 -0.060263515
0.25944188 0.21132956 -0.051124752
0.24300313 0.22645988 -0.056607425
0.22667125 0.24152972 -0.061895788
-0.22891951 0.24250741 -0.053958118
-0.21303639 0.25806394 -0.05537194
0.21124578 0.25751996 -0.059529305
-0.19752277 0.27412036 -0.053021431
-0.18103383 0.2729094 -0.061761498
0.19578543 0.27354878 -0.057146847
-0.16553289 0.28893414 -0.05941534
0.18028799 0.28961372 -0.054769278
-0.18197431 0.29021546 -0.050655186
-0.14999618 0.30499583 -0.057063878
0.1483195 0.30435362 -0.061234891
0.16475439 0.30571595 -0.052386105
-0.13442361 0.32109451 -0.054706872
0.13279864 0.32042366 -0.058856547
-0.11881448 0.33722878 -0.052354872
-0.10283344 0.33639607 -0.057271302
-0.087012492 0.33593494 -0.059994638
0.085574158 0.33571428 -0.061296821
0.10140698 0.33617857 -0.058556199
0.1172818 0.33664215 -0.055818439
-0.071569577 0.35308048 -0.051802456
-0.055747878 0.35259387 -0.054550946
-0.03996877 0.35211042 -0.057281613
-0.024231754 0.35162827 -0.060005009
0.022833284 0.35139585 -0.061317384
0.038581315 0.35187924 -0.058587253
0.054371931 0.35236573 -0.055839419
0.070204727 0.35285178 -0.053094268
0.086080134 0.35333911 -0.050342023
-0.0085366732 0.36883298 -0.051833689
0.0072114477 0.3685962 -0.053115189
0.023001943 0.36910462 -0.050362885
-0.40433052 -0.38932082 -0.042250931
-0.42040884 -0.19945356 -0.041019082
0.41880703 -0.16763413 -0.042797863
-0.38803083 -0.056795452 -0.044783711
-0.37249199 -0.0093586827 -0.043239594
0.37092453 0.0064521814 -0.044961989
-0.35559586 0.022192106 -0.049569249
-0.34093547 0.069783859 -0.042671621
0.33940235 0.085533783 -0.044374228
-0.32413027 0.10109905 -0.049015343
-0.30985799 0.14923143 -0.038709342
0.30743077 0.14862508 -0.046587467
-0.29324603 0.16463029 -0.04414314
-0.27672151 0.17994823 -0.049548447
0.29258558 0.18082377 -0.040070534
0.27596912 0.19611764 -0.045612514
-0.26173073 0.21218617 -0.043176472
-0.24528138 0.227386 -0.048586667
0.26101688 0.22848275 -0.039089441
0.24447754 0.24365555 -0.044636548
-0.23018576 0.25978661 -0.042208791
0.22802706 0.25874689 -0.05015409
-0.21415381 0.27534199 -0.044206142
0.21245888 0.27477843 -0.048272848
-0.19855759 0.29150769 -0.041819334
0.1969135 0.29091451 -0.045874655
-0.18292509 0.30771109 -0.039427102
-0.16638982 0.30634758 -0.048283458
0.18133169 0.30708864 -0.0434708
-0.15076922 0.32251731 -0.045906126
0.14918454 0.32185584 -0.049997568
0.16571337 0.32330048 -0.041061163
0.13357903 0.3380352 -0.047592759
-0.13511233 0.33872434 -0.043523252
0.15005839 0.33955044 -0.038646042
-0.11941852 0.35496745 -0.041145444
-0.10333949 0.35405216 -0.046314955
-0.087433472 0.35356659 -0.049057186
0.10199831 0.35382769 -0.047582269
0.11795945 0.35431764 -0.044815183
-0.071908757 0.37087381 -0.04078728
-0.056001823 0.37036252 -0.043554842
-0.040137451 0.36985067 -0.046325386
-0.024315871 0.36934206 -0.049078107
0.038834982 0.3696146 -0.04760325
0.054710738 0.3701258 -0.044836044
0.070629388 0.3706384 -0.042061448
0.086591594 0.37115443 -0.039268792
-0.0085366732 0.38671273 -0.040808439
0.0072964588 0.38646963 -0.042072058
0.023172423 0.387005 -0.039289951
-0.43898475 -0.39197919 -0.027861834
-0.40608174 -0.1206713 -0.033151269
0.40476155 -0.088839106 -0.033894062
0.38800785 -0.025220457 -0.038350403
-0.37485796 0.006568321 -0.029876471
0.37348747 0.022476651 -0.031089842
-0.35784322 0.038273986 -0.036299169
0.35638908 0.05410663 -0.037758768
-0.34309521 0.086229436 -0.029311955
0.34175482 0.10209764 -0.030483246
-0.32617608 0.11769707 -0.03572762
0.32475549 0.13348085 -0.037145555
-0.31160229 0.16610029 -0.026783645
0.30929196 0.16544716 -0.034498572
-0.29488981 0.18154342 -0.032280326
-0.27826712 0.19690566 -0.037737489
0.29436502 0.19788982 -0.02790457
0.2776458 0.21322763 -0.033512056
-0.26319322 0.22938177 -0.031302452
-0.24664646 0.24462505 -0.036764801
0.26261052 0.24583866 -0.026911736
0.24596936 0.26105401 -0.032524705
-0.23146665 0.27726561 -0.030323565
0.2294181 0.27618697 -0.038107395
-0.21528454 0.29281133 -0.032907009
0.21368432 0.29222694 -0.036902308
-0.19960378 0.30908641 -0.030493975
0.19805406 0.30847329 -0.034477293
-0.18388633 0.32539976 -0.028075218
-0.16725618 0.32395232 -0.037029207
0.18238701 0.3247577 -0.032046735
-0.15155074 0.34023118 -0.034625709
0.16668302 0.3410807 -0.029610276
-0.13580801 0.35654643 -0.032227218
0.13436733 0.35584038 -0.036214471
0.15094277 0.35744405 -0.027157366
-0.1200292 0.37290141 -0.029812634
-0.103851 0.37189859 -0.035240412
-0.087858595 0.37138644 -0.038012326
0.10259662 0.37166974 -0.036479056
0.11864508 0.37218663 -0.03368187
-0.088288307 0.38939959 -0.02684772
-0.07225161 0.38885957 -0.029652834
-0.056258272 0.38832119 -0.032450438
-0.040307954 0.38778231 -0.035250962
-0.024400894 0.38724685 -0.038033426
0.039091393 0.38754195 -0.036500335
0.055053547 0.38808027 -0.033703148
0.071059063 0.38861993 -0.030898392
0.087108105 0.38916117 -0.028085947
-0.024486836 0.4053455 -0.026869059
-0.0085366732 0.40478402 -0.029674113
0.007382392 0.40453708 -0.030908942
0.023344591 0.40509772 -0.028107226
-0.42486113 -0.40967074 -0.018773973
0.42394572 -0.40980542 -0.018074274
0.40707594 -0.39300114 -0.022330761
-0.42434901 -0.18527929 -0.021332681
0.42337564 -0.15332945 -0.02081722
-0.39165655 -0.041285343 -0.025158763
0.39069483 -0.0093586827 -0.024388313
-0.37725487 0.022703789 -0.016338587
0.37608528 0.038719013 -0.017028868
-0.3601217 0.054565899 -0.022845566
0.35886249 0.070510685 -0.023788631
-0.34528491 0.10289069 -0.015766561
0.34413755 0.11888642 -0.016414225
-0.32824689 0.1345109 -0.022277117
0.32701695 0.1504287 -0.023156464
-0.31336686 0.18316565 -0.014719009
0.31117526 0.18246843 -0.022266448
-0.29655263 0.1986528 -0.020279884
-0.27982929 0.21405877 -0.025800407
0.29616556 0.21515869 -0.015593946
0.27934235 0.23054056 -0.021268249
-0.26467273 0.2467774 -0.019290566
-0.24802613 0.26206264 -0.024816453
0.2642231 0.26340112 -0.01458925
0.24747884 0.27865878 -0.020269096
-0.23276243 0.29494759 -0.018300295
0.23082437 0.29383197 -0.025928795
-0.21642779 0.31047383 -0.021483004
0.21492457 0.30987161 -0.025394142
-0.20066155 0.32685989 -0.019043148
0.19920845 0.3262296 -0.022942066
-0.18485825 0.34328449 -0.01659745
-0.16813208 0.34175122 -0.025650859
0.18345511 0.34262627 -0.02048409
-0.1523409 0.35814103 -0.023220718
0.16766444 0.35906178 -0.018020391
0.13516517 0.37384617 -0.024698675
-0.136512 0.3745673 -0.020795643
0.15183626 0.37553629 -0.015550673
-0.12064666 0.3910341 -0.018354237
-0.10436855 0.38994083 -0.024034858
0.10320086 0.38970402 -0.025265813
0.11935007 0.39028737 -0.022234261
-0.088722721 0.40760878 -0.015561342
-0.072598189 0.40704107 -0.018397272
-0.056517504 0.40647516 -0.021225274
-0.040480472 0.40591064 -0.024045765
0.039350349 0.40566221 -0.025287092
0.055399761 0.40622813 -0.022459447
0.071493417 0.40679777 -0.019613266
0.087630764 0.4073669 -0.016770005
-0.024573799 0.4236438 -0.015572369
-0.0085366732 0.42305216 -0.018418789
0.0074691819 0.42279932 -0.019634843
0.023518804 0.4233903 -0.016791642
-0.41094765 -0.41176969 -0.0078672767
0.44223398 -0.41183245 -0.0075410008
-0.40990165 -0.10568633 -0.013302445
0.40919718 -0.07362543 -0.01173234
-0.39535424 -0.025476083 -0.0051445365
0.3948921 0.006778392 -0.0025786757
-0.37968147 0.039051469 -0.0026332736
0.37871659 0.055183508 -0.0027863979
-0.36243007 0.071071595 -0.0092151761
0.36137164 0.087139085 -0.009616971
-0.33034661 0.15154624 -0.0086392164
0.32930931 0.16760817 -0.0089762211
0.31308094 0.1996927 -0.0098885298
-0.2982364 0.21596323 -0.008128345
-0.28140965 0.23141158 -0.013724446
0.2979877 0.23263423 -0.0031359196
0.28105915 0.24805976 -0.0088782907
-0.26617083 0.26437756 -0.0071274042
-0.24942189 0.27970353 -0.01272893
0.24900636 0.29647371 -0.0078672767
-0.23407453 0.3128382 -0.0061256289
0.23224859 0.31168827 -0.013594627
-0.21758378 0.32833269 -0.0099318624
0.21617758 0.32771266 -0.01376754
-0.20173112 0.34483114 -0.0074647069
0.20037472 0.34418374 -0.011287928
-0.18584098 0.36136845 -0.0049917698
-0.16901772 0.35974768 -0.014146149
0.18453424 0.36069387 -0.0088022351
-0.16991323 0.37794504 -0.0025131106
-0.15313984 0.37624976 -0.011689007
0.16865598 0.37724334 -0.0063107014
-0.13722384 0.39278868 -0.0092368126
0.13597123 0.39205211 -0.013064384
0.15274064 0.39383459 -0.0038024187
-0.12127098 0.40936875 -0.0067681074
-0.10489126 0.40817788 -0.012717962
0.10381229 0.40793747 -0.013919055
0.12006826 0.40860745 -0.010572076
-0.089161888 0.42601746 -0.0041516423
-0.072948568 0.42542154 -0.0070185065
-0.056779567 0.42482731 -0.0098776221
-0.040654704 0.42423475 -0.01272881
0.039612383 0.4239828 -0.013940632
0.055750102 0.42457706 -0.011081874
0.07193213 0.42517281 -0.0082152486
0.088158652 0.42577031 -0.005340755
0.10443046 0.4263716 -0.0024474859
-0.02466163 0.44214016 -0.00416255
-0.0085366732 0.4415198 -0.0070402622
0.0075570038 0.44126427 -0.0082261562
0.023694936 0.44188389 -0.005351603
0.039877307 0.44250503 -0.0024693012
0.41179428 -0.41352308 0.0012435913
-0.42836532 -0.17083125 -0.0012660623
0.42804068 -0.13871501 0.0016277432
-0.41379568 -0.090410531 0.0069314241
-0.3647671 0.087795004 0.0045843124
0.36391333 0.10399559 0.0047383904
-0.34750348 0.11977143 -0.00204283
0.34655473 0.13590586 -0.0021412373
-0.33247405 0.16880682 0.0051788688
0.33163142 0.18502301 0.0053881407
-0.31530252 0.20053366 -0.0014849305
0.3150095 0.21712355 0.0026378036
-0.29993847 0.23347609 0.004155159
-0.28300852 0.24896769 -0.0015067458
0.29983172 0.25031993 0.0094717145
0.28279653 0.2657893 0.0036603212
-0.2676852 0.28218347 0.0051678419
0.26585498 0.28117365 -0.0021194816
-0.25083402 0.29755124 -0.00049954653
0.25055221 0.31450242 0.004683435
-0.2354009 0.33093756 0.0061815977
0.23368986 0.32975841 -0.0011126995
-0.21875265 0.34639141 0.0017484426
0.21744475 0.34575489 -0.0020099878
-0.20281266 0.36300355 0.0042432547
0.20155416 0.36234045 0.00049781799
-0.18683474 0.37965533 0.0067439079
0.18562554 0.37896568 0.0030115247
-0.17081879 0.39634657 0.0092505813
-0.15394771 0.39456093 -2.8431416e-05
0.16965874 0.3956309 0.005531311
-0.13794364 0.4112139 0.0024511814
0.13678712 0.41046551 -0.001287818
0.15365446 0.41233814 0.0080683231
-0.12190229 0.42790869 0.0049476027
-0.1054197 0.42661497 -0.0012769103
0.12079524 0.42713654 0.0012325644
-0.089605883 0.44462895 0.0073837638
-0.073302791 0.44400409 0.0044853091
-0.05704451 0.4433811 0.0015947819
-0.040830847 0.44275981 -0.001287818
0.056104295 0.44312811 0.00042110682
0.072376087 0.44375288 0.0033193231
0.088692889 0.44437915 0.0062257648
0.10505486 0.44500738 0.0091400146
-0.02475043 0.46084028 0.0073727965
-0.0085366732 0.46019319 0.0044742227
0.0076457961 0.45993301 0.0033082962
0.023873009 0.46058166 0.0062146783
0.040144902 0.46122983 0.0091179013
-0.41632286 -0.4334563 0.020062983
-0.39995566 -0.41708684 0.019761443
-0.40006709 -0.40088913 0.020364583
0.41373125 -0.05808194 0.01092124
-0.39912194 -0.0093586827 0.015248656
0.39929682 0.023268025 0.020308673
-0.38214216 0.055616215 0.011264563
0.38138828 0.071875609 0.011674583
-0.3671371 0.10474141 0.01857841
0.36649218 0.12108616 0.019303679
-0.34974968 0.13687538 0.011851788
0.34900528 0.1531603 0.012328625
-0.33462811 0.18629612 0.019169867
0.33398744 0.20267999 0.01996243
-0.31733748 0.21817875 0.012428463
0.31696132 0.23476486 0.015315473
-0.30166063 0.25119603 0.016583741
-0.28462625 0.2667309 0.01085484
0.2845549 0.28373289 0.01635015
-0.26921752 0.30019975 0.017608523
0.26750654 0.29916024 0.01050055
-0.2522628 0.31560957 0.01187408
0.25211674 0.33274895 0.017385721
-0.23674293 0.34925127 0.01863426
0.2351485 0.34804621 0.011519492
-0.2199347 0.36465314 0.013560057
0.21872744 0.36400378 0.0098919272
-0.20390637 0.38138074 0.016082942
0.20274812 0.38070551 0.012428403
0.18673031 0.39744744 0.014970899
-0.1878397 0.39814824 0.018612087
-0.17173459 0.41495577 0.021147072
-0.15476467 0.41307768 0.011763275
0.17067386 0.41422975 0.017519414
-0.13867153 0.42984653 0.014270842
0.13761152 0.42908585 0.010611296
0.15457954 0.43105504 0.020085335
-0.10595398 0.4452554 0.010290325
-0.12254073 0.44665748 0.016795337
0.12152981 0.44587401 0.013160527
-0.090054803 0.46344653 0.019047081
-0.07366094 0.46279222 0.0161165
-0.057312377 0.46213973 0.013193786
-0.041008938 0.46148905 0.010279357
0.056462079 0.46188223 0.012040317
0.07282456 0.46253645 0.014970899
0.089233056 0.463195 0.017920613
0.10568681 0.46385282 0.020867586
-0.024840213 0.47974747 0.019035935
-0.0085366732 0.47907075 0.016105294
0.007735488 0.4788062 0.014959574
0.024052892 0.47948486 0.017898321
0.040415727 0.48016539 0.020845175
0.4162865 -0.43418187 0.023688018
0.4328146 -0.43436363 0.024596214
-0.40074947 -0.38522929 0.024057984
-0.4014363 -0.36951673 0.027775645
-0.40212345 -0.35374713 0.031494796
0.43283328 -0.12378795 0.024685979
-0.417766 -0.074835412 0.027561843
-0.38463572 0.072401963 0.025348008
0.38409707 0.088799804 0.026336312
-0.36953881 0.12191478 0.032760143
-0.35202762 0.15420851 0.025943279
0.35148799 0.17065358 0.026988208
-0.3368127 0.20402072 0.033359349
-0.31939802 0.23605819 0.026516199
0.31893685 0.2526201 0.028146923
-0.30340484 0.26912785 0.029171586
0.30169806 0.26821971 0.022232175
-0.2862646 0.28470618 0.023374438
0.28633463 0.30189428 0.029194176
-0.27076805 0.31843051 0.030197203
0.26917806 0.31736448 0.023273468
-0.25370851 0.33388186 0.024394393
0.25369886 0.35121515 0.030231178
-0.23810098 0.36778262 0.031235278
0.23662482 0.36655554 0.024304748
-0.22113012 0.3831214 0.025505245
0.22002359 0.38245884 0.021918774
-0.20501247 0.39996591 0.028056979
0.20395458 0.39927834 0.024484217
-0.18885607 0.41685075 0.030614495
0.18784666 0.4161385 0.02705574
-0.17266077 0.43377638 0.033178508
-0.15559085 0.43180391 0.023688018
0.17169966 0.43303958 0.029633582
-0.13940766 0.44868976 0.026224017
0.13844611 0.44792101 0.022657514
0.15551433 0.44998404 0.032228947
-0.12318638 0.46561852 0.028777361
-0.10649417 0.46410248 0.021985829
0.12227278 0.46482551 0.025224566
-0.074023061 0.4817892 0.027876914
-0.057583477 0.48110926 0.024932921
-0.041189171 0.48042876 0.021985829
0.056824185 0.48084766 0.023800254
0.073278457 0.48153204 0.02676338
-0.090508722 0.48247361 0.030840278
0.089778736 0.48221841 0.029734969
0.10632583 0.48290908 0.032726228
-0.024930995 0.49886528 0.030829012
-0.0085366732 0.49815813 0.027865469
0.0078262677 0.49789241 0.026752293
0.024234954 0.49860159 0.029723704
0.040689591 0.49931267 0.032703519
-0.40279832 -0.43647549 0.035147727
0.4039306 -0.43832466 0.044386864
0.40236855 -0.42026395 0.036270022
0.40305063 -0.40448254 0.039814234
0.40373501 -0.38864863 0.043370306
0.41838977 -0.042199206 0.034196734
-0.40296379 0.007075754 0.036043227
0.40381414 0.040123422 0.04378134
-0.38804302 0.089642905 0.0445925
0.3868438 0.10596064 0.04120332
0.36910698 0.13841496 0.034072161
-0.35433623 0.17177439 0.040224016
0.35400733 0.18839261 0.041864395
0.3363764 0.22058336 0.03474009
-0.32148787 0.25417918 0.040804744
0.32115239 0.27087694 0.042537272
-0.30516833 0.2872729 0.041898549
0.30358717 0.28633755 0.035147846
-0.28792104 0.30289432 0.036031961
0.28813609 0.32027757 0.042195022
-0.27233711 0.3368794 0.042936563
0.27086997 0.33579063 0.036201894
-0.25517282 0.35237429 0.03707552
0.25530171 0.36990893 0.043244779
0.23811914 0.38529056 0.03724581
-0.23947525 0.38653591 0.043986976
-0.22239253 0.40190265 0.038120151
0.22133461 0.40112576 0.034083486
-0.20613012 0.41876045 0.040155649
0.20517491 0.41806448 0.036678433
-0.18988304 0.43576422 0.042742491
0.18897584 0.43504441 0.039279699
-0.17359662 0.45280915 0.04533577
-0.1564264 0.45074269 0.035748482
0.17273825 0.45206833 0.041898668
-0.14015216 0.46774748 0.038313448
0.13928948 0.46697006 0.034830689
0.15646081 0.46913391 0.044524014
-0.1238394 0.4847959 0.04089582
-0.10704039 0.48315981 0.033811867
0.12302498 0.48399752 0.03743881
-0.090967722 0.50171375 0.042765439
-0.074389242 0.50099874 0.039768815
-0.057857353 0.50028825 0.036791921
-0.041371245 0.49957708 0.033811867
0.057190359 0.50002563 0.035691798
0.073737457 0.50074089 0.038688302
0.09033107 0.50145799 0.041693449
0.10697141 0.50217706 0.044706881
-0.0085366732 0.51745903 0.039757371
0.0079180645 0.51719284 0.038677037
-0.025022883 0.51819998 0.042765498
0.024419066 0.51793319 0.041682005
0.040966526 0.51867545 0.044695377
0.40442383 -0.37276393 0.046949565
0.40511277 -0.35682425 0.05052948
-0.42181486 -0.058952104 0.048600435
-0.40688404 0.023836866 0.057262361
0.38962922 0.12336325 0.056279838
-0.37197101 0.13931894 0.047121406
0.37175646 0.15598615 0.049036503
-0.35667422 0.18957703 0.054686487
0.35656223 0.20638151 0.056950212
-0.33902681 0.22198434 0.04774034
0.33879697 0.23873667 0.049713731
-0.32360435 0.27254391 0.055275083
-0.30695307 0.30563647 0.054778814
0.3054994 0.30467737 0.048221886
-0.28959736 0.32130092 0.048841357
0.2899597 0.3388871 0.055355847
-0.27392507 0.35555035 0.055829167
0.27258262 0.35444266 0.049288988
-0.25665337 0.37108681 0.049897611
0.2569243 0.38883272 0.056418538
-0.24086609 0.40551528 0.056892335
0.23963177 0.40425533 0.050345659
-0.22367693 0.4209218 0.050954819
0.22266197 0.42001021 0.04640013
-0.20726159 0.43777236 0.052404463
0.20641048 0.43707004 0.049024999
-0.19092277 0.45489687 0.055021048
0.19011916 0.45417154 0.051656365
-0.15727073 0.46989542 0.047935307
0.17378789 0.47131506 0.054294229
-0.1409052 0.48702326 0.050540984
0.14014341 0.48624161 0.047155857
0.15741737 0.48850349 0.056950212
-0.12449989 0.50419271 0.053153098
-0.10759272 0.50243086 0.045770466
0.12378516 0.50338835 0.049782634
-0.091431893 0.52117074 0.054824948
-0.074759893 0.52042705 0.051805973
-0.058134299 0.51968259 0.048784018
-0.04155536 0.51894021 0.045770466
0.057560295 0.51941699 0.047705948
0.074201614 0.5201664 0.050747812
0.090889648 0.52091491 0.053786933
0.10762493 0.52166569 0.056834698
-0.025115717 0.53774965 0.054824948
-0.0085366732 0.53697979 0.05179441
0.0080108093 0.53670812 0.050724924
0.024605077 0.53748018 0.053763926
0.041246336 0.53825432 0.056811452
-0.40763116 -0.45833999 0.061306059
0.40802622 -0.45924655 0.065668046
0.42392957 -0.45845824 0.061875165
-0.39207399 -0.44292259 0.067359447
0.42314988 -0.025962025 0.057979643
0.40842587 0.057355337 0.067744732
-0.39182407 0.107294 0.06594795
-0.37443817 0.1569601 0.061689317
0.37444547 0.17380665 0.064223826
-0.35904592 0.20762309 0.069357514
-0.3412692 0.24019074 0.062304914
0.34125373 0.25714824 0.064910829
0.32347471 0.28945148 0.057620943
-0.30875939 0.32422209 0.067814887
0.30743349 0.32324153 0.061445534
-0.29129392 0.3399297 0.061805546
0.29180586 0.35772663 0.068679452
0.27431637 0.37332487 0.062537372
-0.27553374 0.37444952 0.068889916
-0.25815183 0.39002559 0.062874436
0.24116307 0.42345417 0.063607037
-0.22497688 0.44017091 0.063944519
0.22400352 0.43911159 0.058847964
-0.20840614 0.45700344 0.064794302
0.20765926 0.45629403 0.061503589
-0.19197448 0.47425011 0.067441225
-0.17454413 0.472063 0.057644129
0.19127472 0.47351876 0.064165592
-0.15812556 0.48927096 0.060273647
0.17485073 0.49078885 0.066845953
0.14100643 0.50573409 0.059612691
-0.14166689 0.50652087 0.062909305
-0.125168 0.52381307 0.065551519
-0.1081513 0.52191931 0.05786401
0.12455489 0.52300751 0.062281668
-0.091901325 0.54084802 0.067021012
-0.075134382 0.5400722 0.063967824
-0.05841437 0.53929597 0.060911536
-0.041741554 0.53852177 0.05786401
0.057934776 0.53903079 0.05986762
0.074670605 0.53980935 0.062932491
0.091454029 0.54059017 0.066006184
0.10828524 0.54137325 0.069088638
-0.025209602 0.55752093 0.067021012
-0.0085366732 0.55671865 0.063956141
0.0081046941 0.5564478 0.062920988
0.024793383 0.55725223 0.065994442
0.041529592 0.55805898 0.069076896
-0.39438617 -0.46231252 0.080418825
-0.39275724 -0.42698979 0.071218669
-0.39344296 -0.41100004 0.075091541
-0.39413324 -0.39495531 0.078990221
-0.42594466 -0.042751376 0.070059478
-0.41087648 0.040933751 0.078872263
0.39356139 0.14142814 0.077563405
-0.37693903 0.17484248 0.076456249
0.37717277 0.19188096 0.079627573
0.35915136 0.22462457 0.072238326
-0.34354401 0.25864711 0.077080309
0.34374544 0.27582192 0.080324352
-0.32575133 0.29116052 0.069954157
0.32583174 0.30829123 0.072930455
-0.31058937 0.34303606 0.081021547
0.30939332 0.34203756 0.074844658
-0.29301265 0.35878664 0.074938774
0.27607167 0.39244136 0.075950265
-0.25966847 0.40919432 0.076009035
0.25856698 0.40799066 0.069755256
-0.24227506 0.42472687 0.069965899
0.24271339 0.44289151 0.077033222
-0.22629261 0.45965409 0.077092171
0.22536072 0.4584361 0.071441233
-0.20956391 0.47645709 0.077327728
0.20892264 0.47574282 0.074127972
-0.17550255 0.49153909 0.070094526
0.19244489 0.49309513 0.076833069
-0.19303839 0.49382779 0.080005467
-0.15899026 0.5088703 0.072754502
0.15838601 0.50810152 0.06953305
0.17592505 0.51048791 0.079533041
-0.1424374 0.52624422 0.075420797
0.14188036 0.52545732 0.072226703
-0.10871622 0.54162866 0.070094645
-0.12584385 0.54366082 0.078093827
0.12533294 0.54285342 0.07491523
-0.092376098 0.56074941 0.079355955
-0.075513124 0.55994111 0.076267958
-0.058697626 0.5591321 0.073176861
-0.041929852 0.55832535 0.070094526
0.058313526 0.55886805 0.072167993
0.075145401 0.55967939 0.075267911
0.092025407 0.56049299 0.07837677
-0.025304556 0.57751733 0.079356015
-0.0085366732 0.57668209 0.076256156
0.0081996499 0.57641256 0.075256228
0.024983838 0.57725024 0.078365028
0.39539409 -0.46378079 0.087483287
0.39490256 -0.4464179 0.084822774
0.3955875 -0.43032137 0.088530242
0.39627698 -0.41417232 0.092262149
-0.39482388 -0.37885076 0.082890868
-0.39551911 -0.36269045 0.086817503
-0.39621472 -0.34647 0.090746343
-0.43015781 -0.026223507 0.091951728
0.42801735 -0.0093587181 0.082299054
0.41314423 0.074977472 0.092262208
-0.39568332 0.12530099 0.087744832
-0.37947229 0.19296975 0.091414511
-0.36145014 0.225917 0.084229946
0.36177954 0.24312963 0.087756753
-0.34585014 0.2773577 0.092059135
-0.32792604 0.3100307 0.084822774
0.32822251 0.32740042 0.088458836
0.31137756 0.36106831 0.088411212
-0.29475081 0.3778722 0.088220894
0.29367501 0.37680072 0.082168818
-0.27716053 0.3935771 0.082097888
0.27784887 0.41179645 0.089530587
-0.26120365 0.42859742 0.089304268
0.26023009 0.4273873 0.083258152
-0.24369992 0.44417045 0.083187044
0.24428171 0.46256894 0.090615213
-0.22762443 0.47937548 0.090400577
0.22675176 0.47802442 0.0843485
-0.21073519 0.49613765 0.090007126
0.21020207 0.49542305 0.086912632
-0.19411471 0.51363391 0.092716157
-0.17647214 0.5112412 0.082689524
0.19362773 0.51289934 0.089637876
-0.15986501 0.52869761 0.085380435
0.15936509 0.52792692 0.082251668
0.17701305 0.53042221 0.092381597
-0.14321688 0.54619718 0.088078082
0.14276372 0.54540932 0.084977031
-0.12652758 0.56373996 0.090782225
-0.10928757 0.56156301 0.082464755
0.10895375 0.56130904 0.08149457
0.12612084 0.56293565 0.087709248
-0.092856772 0.58088195 0.09184432
-0.075896204 0.58003718 0.088708818
-0.058984116 0.57919472 0.085582256
-0.042120304 0.57835478 0.082464755
0.041816093 0.57809025 0.081482768
0.058696263 0.57892936 0.084597528
0.075625636 0.57977748 0.087745011
0.092602797 0.58062148 0.090877712
-0.025400601 0.59774262 0.091832221
-0.0085366732 0.59687376 0.088696897
0.0082956059 0.59660333 0.087721229
0.025176298 0.59747469 0.090865731
-0.39814386 -0.48366308 0.10164207
0.39836413 -0.48407626 0.10355896
-0.38144323 -0.46701682 0.10305232
0.39696664 -0.39796606 0.09599489
0.39765862 -0.38170436 0.099740446
0.39835522 -0.36538911 0.1035108
-0.41495204 0.058377162 0.10093158
0.39813238 0.16008671 0.10230476
0.37994128 0.21021581 0.095264196
-0.36388564 0.244462 0.099295557
0.36444551 0.26190105 0.10349876
0.34627101 0.2947621 0.095946968
-0.33013257 0.32916331 0.099908769
0.33064583 0.34678298 0.10419875
-0.31244013 0.36207882 0.094378233
0.31338677 0.3803381 0.10214812
-0.29651034 0.39719239 0.10166615
0.2955659 0.39611131 0.095815182
-0.27880728 0.4129391 0.095467687
0.27964684 0.43139252 0.10326952
-0.26275912 0.44824162 0.10277504
0.26191407 0.44702688 0.096930206
-0.24514227 0.46385252 0.096570313
0.24587113 0.48249635 0.10437995
-0.22897267 0.49933967 0.10387284
0.22822671 0.49799135 0.098034263
-0.2119202 0.51604873 0.10283536
0.2114954 0.51533312 0.099836648
-0.17745303 0.53117365 0.095431864
0.19482459 0.53293794 0.10259408
-0.16075002 0.54875678 0.098154366
0.16035666 0.54798919 0.09513247
0.17811292 0.55059004 0.1053707
0.14365838 0.56560022 0.097890079
-0.14400548 0.56638384 0.10088342
-0.12721932 0.58405447 0.1036194
-0.10986547 0.5817259 0.094976723
0.10962995 0.58147442 0.094043195
0.12691733 0.58325255 0.10064274
-0.09334252 0.60124338 0.10446435
-0.076283693 0.60036439 0.10129291
-0.059273902 0.59948802 0.098130286
-0.042312942 0.5986141 0.094976723
0.042105611 0.5983488 0.094019353
0.059083767 0.59922528 0.097181976
0.076110959 0.60010415 0.1003539
0.093187414 0.60098571 0.103535
-0.025497749 0.61820114 0.10445231
-0.0085366732 0.61729771 0.10128075
0.0083927615 0.61703032 0.10034186
0.025371168 0.61793637 0.10352284
-0.38304543 -0.48600623 0.11251289
0.38379812 -0.48698363 0.11704761
0.38265091 -0.4685789 0.11056799
0.38378516 -0.45285299 0.11697441
-0.38237908 -0.45117247 0.10857826
-0.38349721 -0.43545023 0.11518031
0.39905193 -0.34901586 0.10728198
0.43299344 0.0076232804 0.10716099
0.41797063 0.093003042 0.11734074
-0.39961892 0.14367355 0.10997325
-0.38204271 0.21134935 0.106592
0.38274771 0.22881439 0.1111148
-0.36635694 0.26326632 0.11458296
-0.34818637 0.29632613 0.10723358
0.34883493 0.31397757 0.11180741
-0.33236977 0.34856221 0.11520475
-0.31431371 0.38135633 0.10789961
0.31542137 0.39985141 0.11605877
-0.29829326 0.41675386 0.11529011
0.29748228 0.41566762 0.10964555
-0.28047583 0.43254238 0.10901481
0.28146911 0.45123863 0.11719424
-0.26433244 0.46812671 0.11640042
0.26361924 0.46691412 0.11077458
-0.24660243 0.48377752 0.11011893
0.22972025 0.51821023 0.11189252
-0.21311918 0.53619474 0.11581463
-0.19520366 0.53367257 0.10557622
0.21280536 0.53548318 0.11292654
-0.17844544 0.55134016 0.10832375
0.19603683 0.55321848 0.11571699
-0.16164541 0.56905216 0.1110782
0.16135906 0.56828672 0.10815412
-0.14480338 0.58680826 0.11383969
0.14456283 0.58602822 0.11094469
-0.12791923 0.60460871 0.11660784
-0.11045005 0.60212147 0.10763305
0.11031333 0.60186988 0.10672516
0.12772405 0.60381454 0.11374229
-0.093833901 0.62184072 0.11723095
-0.076675661 0.62092698 0.11402231
-0.059567031 0.62001562 0.11082321
-0.042507797 0.61910707 0.10763329
0.042398762 0.61884499 0.10671312
0.059475757 0.61975628 0.10991257
0.076602377 0.62067026 0.11312133
0.093778826 0.6215868 0.11633939
-0.025596119 0.63890016 0.11723095
-0.0085366732 0.63796169 0.11402243
0.0084910421 0.63769442 0.11310917
0.025568303 0.63863587 0.11632723
0.3849282 -0.43703789 0.12343019
-0.38462201 -0.41963357 0.12182182
-0.38575354 -0.40372178 0.12850338
-0.41911095 0.07617756 0.12344235
0.40280625 0.17917345 0.12760288
-0.38464898 0.22998549 0.12198144
0.38559493 0.24768369 0.12719601
0.36715016 0.28094479 0.11946911
-0.35055712 0.31556073 0.12263197
0.35143426 0.33347073 0.12788659
0.33310616 0.3664484 0.12017924
-0.31643507 0.40117243 0.12320906
-0.30009675 0.43655667 0.1290713
0.29942298 0.43547198 0.12365133
-0.28216362 0.4523868 0.1227178
0.26534608 0.48705369 0.12479478
-0.24808072 0.50394988 0.12383574
0.24748063 0.50267595 0.11831886
-0.23033881 0.51955408 0.11752409
0.23123276 0.53868574 0.12592691
-0.21433124 0.55657631 0.12893552
-0.19630548 0.55394775 0.11858791
0.21412979 0.55587155 0.12616104
-0.1794496 0.57174528 0.12136811
0.17922696 0.57100165 0.11852676
0.19726247 0.57373881 0.12898487
-0.16255142 0.58958745 0.12415522
0.16237438 0.58882999 0.12134355
-0.14561073 0.60747451 0.12694949
0.14547808 0.60670018 0.12415534
-0.11104197 0.62275726 0.12044877
0.11100532 0.6225062 0.11956686
0.12853968 0.62461936 0.12698644
-0.077072196 0.6417287 0.12690026
-0.059863571 0.64078194 0.1236636
-0.042704917 0.63983798 0.12043649
0.042695325 0.63958001 0.1195547
0.059872329 0.64052683 0.12279159
0.077099532 0.64147639 0.12603778
0.094377153 0.64242882 0.12929362
-0.0085366732 0.65886253 0.12690026
0.0085903788 0.65859634 0.12601322
0.025767554 0.65957379 0.12926894
-0.36905879 -0.49005494 0.13129634
0.3701027 -0.49126339 0.13690287
-0.36925292 -0.47313672 0.13249701
0.37068275 -0.47476438 0.14032787
-0.37034348 -0.45731005 0.13924319
0.38607571 -0.42112812 0.12991136
0.38723212 -0.40512756 0.13644284
-0.38689193 -0.38771397 0.13522536
-0.40363756 0.1624243 0.13267058
-0.3688629 0.28233403 0.13008434
0.36989433 0.30026668 0.13567239
-0.35296118 0.33506581 0.13824672
-0.33463654 0.36823058 0.13070244
0.33560246 0.38640127 0.13639313
-0.31859982 0.42128459 0.13883203
0.31748179 0.41961294 0.13014609
0.30138844 0.455529 0.1378358
-0.28387249 0.47247893 0.13659209
0.28331459 0.47133747 0.13129622
-0.26592541 0.48825949 0.13019568
0.26709497 0.50745064 0.13899392
-0.24957748 0.52437449 0.13772398
0.24911064 0.5231123 0.13243514
-0.23172075 0.54001749 0.13133329
0.23276462 0.55942285 0.14014071
-0.19741932 0.57446039 0.1317417
0.21547017 0.5765053 0.13955468
-0.18046473 0.59238952 0.13455504
0.18035331 0.59165496 0.13182849
-0.16346733 0.61036396 0.13737553
0.16340095 0.6096167 0.13467926
-0.12862743 0.62540662 0.12975079
-0.14642695 0.62838393 0.14020306
0.14640521 0.62762457 0.13753718
-0.11164024 0.64363056 0.13340157
-0.094331004 0.6426782 0.13014609
0.11170543 0.64338404 0.132559
0.12936591 0.64567858 0.14040273
-0.04290434 0.66081071 0.13338917
-0.02569554 0.65983713 0.13014621
0.042995077 0.66055417 0.13253421
-0.077473365 0.66277397 0.13992876
-0.060163576 0.66179097 0.1366542
0.06027317 0.66153717 0.13580912
0.077602051 0.66252327 0.13909358
-0.0085366732 0.68000823 0.13992876
0.0086909747 0.67974722 0.13908106
-0.37168401 -0.51084799 0.14753562
0.37235895 -0.51144844 0.15022534
0.3888852 -0.51045591 0.14577943
0.37179714 -0.4588441 0.1469081
-0.37144065 -0.44138718 0.14603013
-0.3725445 -0.42536768 0.15285832
0.38839316 -0.38903069 0.14300019
-0.38803723 -0.37160933 0.1419881
0.38956323 -0.37284121 0.14960879
-0.38918948 -0.35540673 0.14879161
-0.42335358 0.094345585 0.14640623
0.4229064 0.11144536 0.14298779
-0.38805839 0.24940605 0.14211291
0.38848618 0.26683101 0.14352554
-0.37140214 0.30166888 0.14579195
0.37268102 0.31987473 0.15212709
0.35407367 0.35325161 0.14421362
-0.33693707 0.38817862 0.14643127
0.33813357 0.40664557 0.15283316
0.3196474 0.43973529 0.14495236
-0.30192286 0.45660752 0.14302534
0.30337918 0.47584379 0.15220267
-0.28560281 0.49282375 0.15064067
0.2851837 0.49169376 0.14557892
-0.26753971 0.50864732 0.14417619
-0.25109443 0.54505897 0.15179938
0.25076154 0.54381084 0.14673239
-0.23312002 0.56073743 0.14531571
-0.2155589 0.57720417 0.14222544
-0.19854751 0.59522128 0.14506525
0.19850405 0.59450996 0.14242536
0.21682802 0.59739232 0.1531232
-0.18149297 0.61328393 0.1479122
0.18149434 0.61256081 0.14530319
-0.16439509 0.63139254 0.15076643
0.16444091 0.63065827 0.14818853
-0.12934342 0.64644927 0.14303786
0.14734268 0.64879847 0.15106863
-0.11224553 0.66474885 0.14650661
-0.094833948 0.66375995 0.14321285
0.094981946 0.66351217 0.14238781
0.11241309 0.66450423 0.14569169
0.025969341 0.68076152 0.14237529
-0.35668319 -0.51417112 0.16242188
-0.35583723 -0.49557945 0.15692717
0.35729912 -0.49713969 0.16416591
-0.35689875 -0.47964752 0.163822
0.3729181 -0.44283006 0.15352696
0.37404788 -0.42672366 0.16019791
-0.37365299 -0.40924808 0.15971559
0.39074022 -0.35655606 0.1562565
-0.3899658 -0.3387748 0.15337557
0.39192194 -0.34017229 0.16293079
-0.40773964 0.18156442 0.15583903
0.40759113 0.19870526 0.15350193
0.39212933 0.28678566 0.16410238
-0.37397951 0.32128009 0.16173524
-0.35539731 0.35484502 0.15406996
0.35675415 0.37332696 0.16079479
-0.33926842 0.40840781 0.16237086
-0.32079524 0.44168156 0.15467614
0.32207048 0.46045145 0.16151911
-0.30377361 0.47691399 0.15716773
-0.28735659 0.51342875 0.16487962
0.28707689 0.51231223 0.16004568
-0.26917297 0.52928966 0.15832061
0.26886633 0.52810955 0.15337569
0.25243375 0.56477624 0.16121405
-0.23453695 0.58171892 0.15947455
0.23431478 0.58042336 0.15452451
-0.21680129 0.59807974 0.15567464
-0.19968928 0.61623156 0.15854877
0.1997595 0.61552972 0.15601605
-0.18253358 0.63442981 0.16143018
0.18264815 0.63371754 0.15892905
-0.16533403 0.65267456 0.16431886
-0.14725371 0.64954722 0.15362805
0.16549253 0.65195221 0.16184968
-0.13006867 0.66774821 0.15649694
0.13020138 0.66698909 0.15396899
0.35771975 -0.51514137 0.1667679
0.35838565 -0.481116 0.17088717
-0.35796678 -0.46361783 0.17075902
0.37518215 -0.41051927 0.16689557
-0.37477037 -0.3930321 0.16662747
0.3763254 -0.39422077 0.17364615
-0.37589461 -0.37671667 0.1735819
-0.42768717 0.11289355 0.16986245
0.42795277 0.13031791 0.16920954
-0.39201343 0.26953354 0.16546625
0.37550688 0.33977169 0.16881293
-0.35787013 0.37490809 0.17013139
0.34070414 0.42719236 0.16952962
-0.32302022 0.46236664 0.17073351
-0.30564621 0.49747524 0.17147702
0.30539566 0.49642107 0.16675526
0.28899467 0.53319842 0.17470008
-0.27082694 0.55019385 0.17264444
0.27065906 0.54903263 0.16793054
-0.25262922 0.56600219 0.16604036
0.25412765 0.58601373 0.17588371
-0.23597187 0.60296685 0.17381305
0.23588638 0.60169894 0.16910714
-0.21805871 0.61920732 0.16928643
0.21820116 0.61853069 0.16684455
-0.20084484 0.63749605 0.17219526
0.20103148 0.63680971 0.16978568
-0.18358679 0.65583169 0.17511159
0.18381715 0.65513623 0.17273432
-0.34160104 -0.5177201 0.17831928
0.34257057 -0.51846427 0.18165225
-0.34232336 -0.50125486 0.18325776
0.34344921 -0.50213897 0.18735939
0.3594808 -0.46499938 0.17766148
-0.35904136 -0.44748965 0.17773885
0.36058038 -0.44878373 0.18446332
-0.36012262 -0.43126181 0.18476158
0.37747326 -0.3778227 0.18042392
-0.37702575 -0.36030069 0.18057901
0.37862799 -0.36132663 0.18724221
-0.3781639 -0.34378335 0.18761939
-0.41192552 0.201105 0.17948085
0.41248628 0.2186954 0.17999738
-0.37659371 0.3411718 0.17790657
0.37837496 0.35996601 0.18574816
-0.3603785 0.39525944 0.18642348
0.35947242 0.39369899 0.17760986
-0.34163499 0.42892858 0.1785515
0.34331316 0.44804609 0.18647546
0.3245315 0.48147857 0.17834502
-0.32527891 0.48335159 0.18703431
0.30743834 0.51726627 0.18149704
-0.30754271 0.51829898 0.18596894
-0.28913116 0.53429306 0.17928714
-0.27250206 0.57136512 0.18715125
0.27247667 0.57023126 0.18268794
-0.25418353 0.58721226 0.18046266
-0.23742643 0.62448984 0.18834788
0.23747846 0.62325162 0.18387991
-0.21933137 0.64059156 0.18306357
0.21959245 0.6399318 0.18074709
-0.34342802 -0.53813452 0.19081014
-0.32714146 -0.54036671 0.20047587
0.34422767 -0.53850532 0.19241565
-0.32640871 -0.52148598 0.19518775
0.32756844 -0.52236128 0.19910878
-0.34350049 -0.48535988 0.19130582
0.34467062 -0.48618853 0.19529253
-0.34468597 -0.46935245 0.19941109
0.36168653 -0.43247089 0.19130594
-0.36121055 -0.41493368 0.19182795
0.36280146 -0.41606244 0.19820279
-0.36230522 -0.39850414 0.19893807
0.37979186 -0.34473339 0.19411463
0.38096052 -0.32803828 0.20101529
0.43311357 0.14963543 0.19602579
-0.39604953 0.29008296 0.18929845
0.39686733 0.30791399 0.19086248
-0.37924352 0.36134818 0.19429785
0.36223152 0.41437635 0.19467729
-0.34403381 0.44974273 0.19495207
0.32702938 0.50282109 0.19542342
-0.30946356 0.53939033 0.20064694
0.30950779 0.53838444 0.19643205
-0.29092842 0.55542469 0.19387931
0.29093748 0.55435729 0.18954593
0.27431813 0.59170765 0.19763857
-0.25575918 0.60869753 0.19508296
0.2558437 0.60752887 0.19074506
0.23909143 0.64508694 0.19884616
0.32808802 -0.54087138 0.20266134
-0.3275356 -0.50557929 0.20332032
