# .PCD v0.7 - Point Cloud Data file format
VERSION 0.7
FIELDS x y z normal_x normal_y normal_z curvature
SIZE 4 4 4 4 4 4 4
TYPE F F F F F F F
COUNT 1 1 1 1 1 1 1
WIDTH 637
HEIGHT 1
VIEWPOINT 0 0 0 1 0 0 0
POINTS 637
DATA ascii
-0.28181818 -0.060226928 0.12174082 1 1.4823027e-05 1.0410886e-06 0
0.28181818 -0.064705491 0.12617061 -1 2.6518936e-05 -5.718381e-05 0
-0.28181815 -0.053465404 0.12564893 1 2.3229077e-05 -4.6394631e-05 0
0.28181818 -0.054362275 0.12281249 -1 2.3821769e-05 -5.4075917e-05 0
-0.28181818 -0.044907514 0.125874 1 1.9444475e-05 -4.0434599e-05 0
0.28181818 -0.04759771 0.12551387 -1 1.0762426e-05 -2.8650426e-05 0
-0.28181818 -0.036823329 0.12293857 1 3.1090098e-05 -3.5707046e-05 0
0.28181818 -0.038964905 0.12482324 -1 6.8891e-06 -3.1982188e-05 0
-0.28181818 -0.02876376 0.12158726 1 9.143122e-06 -1.5202466e-05 0
0.28181818 -0.026210956 0.12404881 -1 9.3787094e-06 -3.810988e-05 0
-0.28181818 -0.017395489 0.12401283 1 -2.0754023e-06 -3.531306e-05 0
0.28181815 -0.014655503 0.12690653 -1 9.2175478e-06 -4.1984487e-05 0
0.28181818 -0.0043093022 0.12643698 -1 5.5581409e-06 -3.3909771e-05 1.8219771e-05
-0.28181818 0.0053097778 0.12391069 1 -3.6214722e-06 -3.9589322e-05 0
0.28181818 0.0024488666 0.12536584 -1 1.2423748e-06 -5.5499273e-05 0
-0.28181818 0.011397447 0.12387196 1 -1.946866e-06 -3.0446568e-05 0
0.28181818 0.017535986 0.12094001 -1 -7.9743813e-06 -4.6347479e-05 0
-0.28181818 0.024453126 0.12396882 1 -8.6367436e-06 -4.2535274e-05 0
0.28181818 0.026447944 0.12821111 -1 -1.9999114e-05 -4.2514417e-05 0
-0.28181818 0.036524881 0.12768002 1 -5.2673977e-06 -1.8695409e-05 0
0.28181818 0.036019422 0.12409636 -1 -3.6017873e-06 -1.502499e-05 0
-0.28181818 0.042608064 0.12399352 1 -2.071577e-05 -1.8777493e-05 0
0.28181818 0.048797648 0.12518807 -1 -1.7428937e-06 -5.2328705e-05 0
-0.28181815 0.057661429 0.12149548 1 -3.7432142e-06 -5.7119756e-05 0
0.28181818 0.059249111 0.12463458 -1 -3.7261423e-05 -3.1914282e-05 0
-0.28181815 0.066332519 0.12529366 1 -1.3852074e-05 -2.2367796e-05 0
0.28181818 0.066112518 0.12632474 -1 -2.3675519e-05 -3.3418306e-05 0
0.28181818 0.075377569 0.12529884 -1 -1.0871509e-05 1.7044258e-05 0
-0.28181818 0.085965529 0.12259161 1 -6.022161e-06 -1.9459463e-05 0
0.28181818 0.083680265 0.12482908 -1 -2.7256357e-05 -5.6025114e-05 0
-0.28181818 0.094799303 0.12088939 1 -2.5608306e-05 -4.669125e-05 0
0.28181818 0.093931288 0.12749732 -1 -5.1441941e-05 -1.9079434e-05 0
-0.28181818 0.10054795 0.12574612 1 -4.4562177e-05 -1.4725075e-05 0
0.28181815 0.10820284 0.12420736 -1 -4.0937284e-05 -8.6618376e-05 0
-0.28181818 0.11264479 0.1262268 1 -1.6048249e-05 -9.9056467e-07 1.839459e-05
0.28181818 0.11720438 0.12613428 -1 -4.0571511e-05 -5.2756146e-05 0
-0.28181818 0.12501748 0.12462989 1 -4.6084922e-05 -3.7057736e-05 0
0.28181818 0.12468836 0.12538798 -1 -5.4722957e-05 -0.00010786437 0
0.28181818 0.13835494 0.12346242 -1 -5.3195417e-05 -3.0726667e-05 0
-0.28181821 0.14716257 0.12369271 1 -3.6197434e-05 -1.4991047e-05 0
0.28181818 0.1495809 0.12440293 -1 -6.9595284e-05 -6.874471e-05 0
-0.28181818 0.15396398 0.12443493 1 -2.8135411e-05 -4.4532098e-05 0
0.28181818 0.15558694 0.12386336 -1 -2.2798584e-05 -3.6469348e-05 0
-0.28181818 0.16439971 0.12186439 1 -0.00012682001 -2.3429293e-05 0
-0.28181818 0.17693375 0.12605414 0.96725422 -0.24782592 0.054785438 0.041149072
0.28181818 0.173859 0.12569787 -0.98465532 -0.17104585 0.034600418 0.039289702
-0.28181815 0.18351665 0.12312301 0.85531771 -0.51466835 0.059565749 0.075705051
0.28181818 0.18406038 0.12574555 -0.8719576 -0.47623408 0.1135387 0.087550893
-0.2811957 0.19393939 0.12790251 0.62917608 -0.77589893 0.04602614 0.074632116
-0.27021211 0.19393939 0.12180671 0.35803372 -0.93350905 0.019305849 0.046734404
-0.26572981 0.19393939 0.12596884 0.26631716 -0.96358621 -0.024019578 0.04555618
-0.25461593 0.19393939 0.12351099 0.049764015 -0.99875844 0.0022666818 0.0074113533
-0.24556115 0.19393939 0.12619987 -2.948703e-05 -1 1.589772e-05 3.0334433e-05
-0.23190181 0.19393939 0.12507039 -5.6793371e-05 -1 3.344446e-06 2.8163962e-05
-0.22345509 0.19393939 0.12484325 -4.8467318e-05 -1 5.997204e-06 2.5997439e-05
-0.21391386 0.19393939 0.12058114 -1.7206186e-05 -1 1.0254598e-05 2.4439756e-05
-0.20222981 0.19393939 0.12385026 -2.6025295e-05 -1 -2.6364849e-05 2.5305621e-05
-0.18845905 0.19393939 0.12447912 1.6494745e-05 -1 1.1343266e-05 9.2989285e-06
-0.17345828 0.19393939 0.12342916 -1.393761e-05 -1 -9.7894899e-06 1.6364034e-05
-0.16016647 0.19393939 0.12909704 1.6695891e-05 -1 -1.3443699e-06 8.3256846e-06
-0.15366331 0.19393939 0.12528931 0 -1 0 1.700067e-05
-0.13566898 0.19393939 0.12365544 -9.3508024e-06 -1 8.2617462e-06 3.4435641e-05
-0.12579283 0.19393939 0.1249444 -1.2457896e-05 -1 2.3499721e-05 3.0271864e-05
-0.11614921 0.19393939 0.12594922 -1.1181671e-05 -1 -7.5073985e-06 1.7823399e-05
-0.097638667 0.19393939 0.12472967 -1.7907962e-05 -1 1.4552577e-05 2.2894026e-05
-0.084261626 0.19393939 0.12384563 5.406302e-07 -1 -1.5925914e-05 1.7276947e-05
-0.07896971 0.19393939 0.12422587 1.1196907e-05 -1 7.4405648e-06 3.261957e-05
-0.062734485 0.19393939 0.12577485 1.350099e-05 -1 1.1160978e-06 1.8953091e-05
-0.054140158 0.19393937 0.12428268 -1.0146037e-05 -1 9.4447942e-06 3.5278172e-05
-0.046949793 0.19393939 0.1255808 2.9157461e-06 -1 -9.6422045e-06 1.8062883e-05
-0.032325149 0.19393939 0.12863028 -8.365897e-06 -1 1.9636471e-05 3.5425001e-05
-0.026901709 0.19393939 0.12760252 5.8322998e-06 -1 -9.432928e-06 1.7952156e-05
-0.017375648 0.19393939 0.12345549 1.1184911e-06 -1 -2.4880188e-07 1.7916589e-05
-0.0045873597 0.19393939 0.12685373 1.9763684e-06 -1 -1.9658357e-05 1.6363585e-05
0.008318156 0.19393939 0.12183626 4.547685e-07 -1 -1.9923435e-08 1.5413656e-05
0.01776699 0.19393939 0.12536371 2.7883885e-07 -1 1.034351e-05 0
0.023354338 0.19393939 0.12378385 -8.182534e-07 -1 8.7366079e-06 8.5730853e-06
0.035543419 0.19393939 0.12508474 -3.7577622e-06 -1 8.4545682e-06 1.7296323e-05
0.056637395 0.19393939 0.12534113 4.3949763e-06 -1 -7.3098577e-06 2.2054752e-05
0.067074046 0.19393939 0.12033354 1.5340382e-05 -1 1.3695722e-05 1.6229089e-05
0.084674016 0.19393939 0.12699583 1.4637314e-05 -1 4.6896017e-07 2.2381349e-05
0.096996084 0.19393939 0.1209989 3.2659139e-07 -1 6.7015271e-06 3.1033498e-05
0.1128047 0.19393939 0.12579817 -1.5382926e-05 -1 -9.8612936e-06 1.695038e-05
0.1210907 0.19393939 0.12345236 6.8657982e-06 -1 3.6300578e-05 3.4999932e-05
0.131521 0.19393939 0.12265378 -7.4578866e-06 -1 1.8423092e-05 3.4101631e-05
0.14744088 0.19393939 0.12467735 -8.9153691e-06 -1 1.812311e-05 2.6072652e-05
0.15623046 0.19393939 0.12472383 -6.3881765e-07 -1 1.785313e-05 2.3407067e-05
0.16037807 0.19393939 0.12246931 -2.2964086e-05 -1 1.4453293e-07 2.289136e-05
0.17736143 0.19393939 0.12542516 -9.5754604e-07 -1 7.4133141e-06 3.0940802e-05
0.18451664 0.19393939 0.12515391 -1.882031e-05 -1 2.7100205e-05 1.6767681e-05
0.19587266 0.19393939 0.12558557 1.5623977e-05 -1 5.6697922e-06 1.6209344e-05
0.20823686 0.19393939 0.12428319 -2.5862677e-05 -1 -3.9975268e-05 9.3574445e-06
0.21685435 0.19393939 0.12256691 1.6878692e-05 -1 -1.4885801e-05 8.6596438e-06
0.22671188 0.19393939 0.12786993 2.8748134e-05 -1 -3.879096e-05 8.1469907e-06
0.24250734 0.19393939 0.12238604 2.4270084e-05 -1 1.5739472e-05 1.4156281e-05
0.25514048 0.19393939 0.12127155 -0.096393935 -0.99520034 -0.016866857 0.012855961
0.26263967 0.19393939 0.12320441 -0.18786977 -0.98202193 -0.018381201 0.035294313
0.27516103 0.19393939 0.1238139 -0.42464536 -0.90434253 0.042904031 0.059639778
-0.02121212 -0.19053945 0.13656653 0.0054701772 0.99982035 -0.01814986 0.0085788975
-0.017835414 -0.19297461 0.13570163 -0.0069994475 0.99986899 -0.014590577 0.011083981
-0.28181818 -0.18496089 0.13504857 0.73239005 0.68050164 0.022858879 0.091569789
-0.27155027 -0.18787879 0.13467413 0.54875505 0.83507997 -0.038848788 0.090569623
-0.26024288 -0.18787879 0.13769305 0.1570836 0.98758453 0.0012498143 0.02989913
-0.25869125 -0.18787879 0.13787647 0.1217877 0.99239814 0.017711785 0.021291345
-0.23213266 -0.18787879 0.1376853 1.2828676e-05 1 -5.9797076e-06 1.5737822e-05
-0.22765476 -0.18787879 0.13864864 6.7293688e-05 1 -3.9904168e-07 0
-0.21475151 -0.18787879 0.13827783 3.8804919e-05 1 -2.8182818e-05 9.3131584e-06
-0.20672289 -0.18787879 0.13763236 7.6299293e-05 1 -3.345541e-05 0
-0.18938839 -0.18787879 0.13620086 2.5527988e-05 1 -6.3058775e-05 0
-0.16817552 -0.18787879 0.13101311 1.019194e-06 1 -1.5568865e-05 1.5502868e-05
-0.15677351 -0.18787879 0.1351946 3.5661618e-05 1 -4.1202482e-05 0
-0.14280893 -0.18787879 0.13290787 1.3000593e-05 1 -1.8086856e-05 8.1636426e-06
-0.12042242 -0.18787879 0.13336468 -3.7793186e-06 1 -2.8271195e-05 1.8402749e-05
-0.11638113 -0.18787879 0.13554054 -0 1 -0 9.8711298e-06
-0.1027324 -0.18787879 0.13577648 -6.9408825e-06 1 -8.1904182e-06 4.3307926e-05
-0.099703908 -0.18787879 0.13031131 6.9974294e-07 1 -4.6792429e-05 2.8518451e-05
-0.085888781 -0.18787879 0.13654721 7.5467792e-06 1 -7.9544479e-06 8.7486451e-06
-0.078482941 -0.18787879 0.13245599 -1.4938864e-06 1 -1.6337806e-05 2.3665065e-05
-0.064327605 -0.18787879 0.1365639 1.1154369e-05 1 -1.6328711e-05 0
-0.05602587 -0.18787879 0.13542123 5.0562535e-06 1 3.3286022e-07 7.8524927e-06
-0.034917783 -0.18787879 0.13193776 0.050594781 0.99866819 0.010104389 0.0051135747
-0.024436712 -0.18798424 0.13472499 0.028395163 0.99959671 -0.00017252029 0.0092267366
-0.016962528 -0.18787879 0.13270062 0.0046230759 0.99974459 -0.022123374 0.010156385
-0.0060912538 -0.18873182 0.13772982 -0.04617897 0.99890584 -0.0073871152 0.006856034
0.0069000395 -0.18787879 0.13016009 -0.045679834 0.99893016 -0.007205951 0.003417535
0.018135544 -0.18787879 0.1352856 -0.02606597 0.9996593 0.0013557412 0.00060636748
0.02551702 -0.18787879 0.13386562 3.7136801e-06 1 7.817981e-06 2.5363928e-05
0.034414701 -0.18787879 0.13527755 1.8432602e-06 1 2.2952385e-05 3.864578e-05
0.045637984 -0.18787879 0.1354012 3.8608564e-06 1 -7.0066822e-06 4.065545e-05
0.054120045 -0.18787879 0.13265304 8.8423994e-06 1 4.7548667e-05 3.736488e-05
0.064989395 -0.18787879 0.13334674 4.5579688e-07 1 7.2268986e-06 2.5672591e-05
0.079196334 -0.18787879 0.13522674 -7.7401628e-06 1 -1.7579003e-05 8.8816896e-06
0.083446801 -0.18787879 0.13296463 3.6028741e-06 1 -1.7146569e-05 2.4757313e-05
0.10457685 -0.18787879 0.13083193 -7.7573595e-06 1 7.9846961e-07 2.3631772e-05
0.11835901 -0.18787879 0.13555057 -1.2679456e-05 1 -3.1609939e-05 0
0.12826701 -0.18787879 0.13390824 9.3480885e-06 1 -1.1199235e-05 2.6129383e-05
0.13605571 -0.18787879 0.13590747 -9.5120436e-07 1 -1.7575663e-05 2.5831117e-05
0.14554812 -0.18787879 0.13662511 1.6731235e-06 1 8.0970176e-06 4.1622981e-05
0.15250103 -0.18787879 0.13574946 2.3360684e-07 1 8.2106626e-06 2.565515e-05
0.16560744 -0.18787879 0.13384242 2.5277612e-05 1 -4.7717822e-06 3.8427381e-05
0.17543714 -0.18787879 0.13424957 1.5595831e-05 1 1.0514748e-05 2.6432441e-05
0.1858573 -0.18787879 0.13401216 -3.750058e-05 1 1.9533871e-05 2.6999116e-05
0.19212335 -0.18787879 0.13111445 1.6352302e-05 1 8.1978442e-06 4.1871157e-05
0.205384 -0.18787879 0.13761187 2.0932694e-05 1 4.2069725e-05 4.2018331e-05
0.21814528 -0.18787879 0.13359603 4.6545287e-05 1 2.0007765e-05 2.3718605e-05
0.23328881 -0.18787879 0.1341501 -1.585493e-05 1 -8.4119929e-06 0
0.25867864 -0.18787879 0.13332129 -0.10185294 0.99469739 0.014253166 0.017808964
0.2743862 -0.18787879 0.13477856 -0.60329759 0.79297167 -0.085016787 0.083265953
0.28126028 -0.18573098 0.13569276 -0.67636144 0.72274464 -0.14204045 0.076341979
-0.28181818 -0.17310646 0.1321272 0.95992792 0.27961865 -0.01875554 0.062664628
0.28181818 -0.17559549 0.13467276 -0.93732888 0.34372166 -0.057185162 0.060567394
-0.28181818 -0.16230507 0.13823253 0.99770051 0.067653522 0.0040786043 0.0085069602
0.28181818 -0.16390021 0.13565448 -0.99622095 0.086407341 0.0088098207 0.0080333725
-0.28181818 -0.15450297 0.13332301 1 5.0193503e-05 -7.1969967e-05 0
0.28181818 -0.15123671 0.13371974 -1 6.4469059e-06 -3.3630771e-05 1.6892793e-05
-0.28181818 -0.14768656 0.13304293 1 9.2434035e-05 -8.6445216e-05 0
0.28181818 -0.1459652 0.13535357 -1 5.369266e-05 -3.2202515e-05 0
-0.28181818 -0.13558958 0.13728394 1 1.7666913e-06 -3.0756106e-05 0
-0.28181818 -0.1229647 0.13439524 1 1.5972042e-05 -1.9840369e-05 0
0.28181818 -0.11805834 0.1395403 -1 3.5380781e-05 3.8471055e-05 0
-0.28181818 -0.10373887 0.13531856 1 3.175396e-05 -3.3419186e-05 0
0.28181818 -0.10770418 0.13421458 -1 0 0 0
-0.28181821 -0.09689039 0.13298421 1 2.2059216e-05 -6.5609391e-05 0
0.28181821 -0.094891749 0.1373432 -1 1.8400453e-05 -5.554466e-05 0
-0.28181818 -0.085369207 0.13251799 1 3.424575e-05 -8.4418483e-05 0
0.28181818 -0.086441115 0.13284767 -1 2.6476469e-05 -6.2204701e-05 0
-0.28181818 -0.075672679 0.13640402 1 3.646726e-05 -2.8982338e-05 0
0.28181818 -0.071962304 0.13775596 -1 2.0127492e-05 -5.1550302e-05 0
-0.28181821 -0.067296349 0.13690068 1 1.1333796e-05 -6.5209017e-05 0
0.28181818 -0.066218302 0.13573632 -1 2.3998382e-05 -1.8530396e-05 0
0.28181818 -0.054070808 0.13109112 -1 8.9713549e-06 -6.8171088e-05 0
-0.28181818 -0.045294281 0.13517159 1 9.1982647e-06 -1.8212146e-05 0
0.28181818 -0.04319318 0.13636757 -1 1.0634423e-05 -6.3306034e-05 0
-0.28181818 -0.037058633 0.13549276 1 2.1425711e-05 -5.3453128e-05 0
0.28181818 -0.032321658 0.13837805 -1 2.2181754e-05 -3.9898434e-05 0
-0.28181818 -0.026101237 0.13685636 1 9.3854223e-06 -4.5241421e-05 0
-0.28181818 -0.018703388 0.1382845 1 1.3271004e-05 -6.3470165e-05 0
0.28181818 -0.016976872 0.13437648 -1 4.418664e-06 -3.7510246e-05 0
0.28181818 -0.0053706923 0.13331488 -1 2.2133938e-06 -2.1599122e-05 0
-0.28181818 0.004151775 0.13501573 1 -0 -0 1.6211765e-05
0.28181818 0.0055433726 0.13376507 -1 5.8012001e-06 -3.6695379e-05 0
0.28181818 0.015851645 0.13337515 -1 -8.1118669e-06 -3.3976568e-05 0
-0.28181818 0.024416218 0.13569994 1 -3.2955604e-06 -3.3049186e-05 1.7269469e-05
0.28181818 0.025280492 0.13586368 -1 -1.1887448e-05 -6.6967768e-05 0
0.28181818 0.031007729 0.13608903 -1 -3.1325767e-06 -3.941925e-05 0
-0.28181818 0.040971827 0.13467513 1 -4.8306761e-06 -4.8861068e-07 1.7737326e-05
0.28181818 0.043811888 0.13844031 -1 -1.4678432e-05 -9.1048358e-05 0
-0.28181815 0.050585195 0.13924369 1 -6.7982587e-06 -2.9804791e-05 0
0.28181818 0.055922564 0.13129757 -1 -2.0704787e-05 -3.2939821e-05 0
-0.28181818 0.066091605 0.13186035 1 2.9855487e-06 -1.6493164e-05 0
-0.28181821 0.076779202 0.13364904 1 9.2398996e-06 -1.7414297e-05 1.8457815e-05
0.28181818 0.074649014 0.13779151 -1 -1.3331754e-05 -3.2612632e-05 0
-0.28181818 0.0848772 0.13441098 1 9.6374988e-06 -3.4084518e-05 1.7574439e-05
0.28181821 0.083864413 0.13139011 -1 -3.8427239e-05 -3.9266841e-05 0
-0.28181821 0.09451288 0.13723579 1 -2.2611173e-05 -2.8013683e-05 0
0.28181818 0.098198026 0.13627857 -1 -1.0736154e-05 -6.2662526e-05 0
-0.28181818 0.10185957 0.13576119 1 -1.2277467e-05 -1.9928444e-05 0
0.28181818 0.10824082 0.13078661 -1 -1.9729781e-05 -3.0577048e-05 0
-0.28181818 0.11402327 0.13172799 1 -4.6932935e-05 -5.7147132e-05 0
0.28181818 0.11189832 0.13472596 -1 -6.0848608e-05 -1.7993054e-05 0
-0.28181818 0.12725997 0.13377453 1 -2.952564e-05 -1.4970649e-05 0
0.28181818 0.12835096 0.13793141 -1 -6.8838766e-05 -6.2110586e-05 0
-0.28181815 0.13340181 0.13740359 1 -7.5757918e-05 -1.0760407e-05 0
0.28181818 0.13766581 0.13603467 -1 -8.9298737e-05 -0.00010967213 0
-0.28181818 0.14536564 0.13537925 1 -3.5963738e-05 -3.3711152e-05 0
0.28181818 0.14829011 0.13047715 -1 -7.4497213e-05 -3.1656949e-05 0
-0.28181818 0.15427665 0.13373379 1 -6.6494598e-05 -3.6799796e-05 0
0.28181818 0.15118518 0.13655353 -1 -4.4280245e-05 -6.246769e-05 0
-0.28181818 0.1660666 0.1347082 0.99999201 -0.0037277865 0.001459933 1.0014031e-05
0.28181818 0.1634118 0.13426678 -1 -5.6204921e-05 -6.9201138e-05 0
-0.28181818 0.17644742 0.13907209 0.95119172 -0.30224037 0.062329609 0.070314787
-0.28181818 0.18333286 0.13512509 0.9016853 -0.42186663 0.094827853 0.08730375
0.28181818 0.18324131 0.13470367 -0.87138188 -0.49019846 0.019975686 0.086873986
-0.28170484 0.19279146 0.13428399 0.67572045 -0.73657072 0.02941601 0.1063226
-0.27053866 0.19393939 0.13080955 0.3404851 -0.94022888 -0.0063002519 0.065105081
-0.26013678 0.19393939 0.13394529 0.18279326 -0.98308504 -0.011414061 0.039121378
-0.25754648 0.19393939 0.13544489 0.10241587 -0.99473292 -0.0041651078 0.021172943
-0.24238889 0.19393939 0.13390887 -1.2529803e-06 -1 -2.5595462e-05 2.5013609e-05
-0.23669839 0.19393939 0.13866568 -1.8828217e-05 -1 -1.7425979e-05 2.4691923e-05
-0.22384122 0.19393939 0.1358294 -5.7347275e-05 -1 -3.0958101e-06 3.2460906e-05
-0.21856928 0.19393939 0.13096304 -3.4867673e-05 -1 1.5234984e-05 2.6102151e-05
-0.20546627 0.19393939 0.1353651 1.8816703e-05 -1 1.118832e-05 2.3711369e-05
-0.19316004 0.19393939 0.13593198 1.3307894e-07 -1 -7.651005e-06 1.7334778e-05
-0.18555081 0.19393939 0.13710882 0 -1 0 1.6518185e-05
-0.174942 0.19393939 0.13297325 1.5470043e-05 -1 -7.6783035e-06 1.6424628e-05
-0.16864914 0.19393939 0.13217354 -1.3078776e-05 -1 2.0033025e-05 2.9946657e-05
-0.15570524 0.19393939 0.1368292 2.6063368e-05 -1 -2.9481471e-05 8.0628333e-06
-0.14749558 0.19393939 0.13747518 9.2559821e-06 -1 -7.826207e-07 3.280543e-05
-0.13136876 0.19393939 0.13531369 -5.7318489e-06 -1 -1.7792267e-05 2.3741743e-05
-0.12780231 0.19393939 0.13399728 8.717514e-06 -1 -1.9217792e-07 1.7844706e-05
-0.11599376 0.19393939 0.13720869 3.0939285e-05 -1 5.8895776e-06 0
-0.10466214 0.19393939 0.13431804 6.9041939e-06 -1 2.9840632e-05 3.0257119e-05
-0.09620443 0.19393939 0.13431729 -1.0158352e-07 -1 -9.6894128e-06 9.5761698e-06
-0.075626232 0.19393939 0.13519625 -1.2231549e-06 -1 -9.9393783e-06 1.7084792e-05
-0.067482673 0.19393939 0.13460219 -1.3478752e-05 -1 -2.2208915e-06 1.7731703e-05
-0.053407639 0.19393939 0.1320049 4.0514524e-06 -1 1.7317406e-07 3.3199874e-05
-0.034670074 0.19393939 0.1346404 -8.5165257e-06 -1 2.7270497e-05 3.4007568e-05
-0.023880219 0.19393939 0.13151564 1.2695556e-06 -1 9.2716355e-06 3.2794389e-05
-0.013700061 0.19393939 0.13347858 -2.2604238e-06 -1 8.6279097e-06 1.7826407e-05
-0.00544006 0.19393939 0.1371294 1.6408176e-06 -1 -9.4442139e-06 8.8863717e-06
0.0043865689 0.19393939 0.13420331 -1.9880417e-06 -1 2.5837531e-05 3.2113876e-05
0.01116455 0.19393939 0.13186775 -1.3273062e-06 -1 -2.2876571e-05 8.864502e-06
0.027281128 0.19393939 0.13494855 0 -1 0 9.6567892e-06
0.032742716 0.19393939 0.13739134 -2.7835497e-06 -1 -9.0674121e-06 1.7172732e-05
0.047581989 0.19393939 0.13563724 -3.1510879e-06 -1 -8.7244962e-06 1.5893169e-05
0.051713657 0.19393939 0.13845062 -1.0967409e-05 -1 -1.5138025e-05 1.7000391e-05
0.063725173 0.19393939 0.13589591 1.8255814e-05 -1 -8.3297737e-06 1.7212365e-05
0.082892857 0.19393939 0.13889062 -1.8561605e-06 -1 -3.0873809e-05 1.6087937e-05
0.093798459 0.19393939 0.13412558 0 -1 0 1.5621827e-05
0.10793778 0.19393939 0.13241464 -1.3542196e-06 -1 -8.4849298e-06 1.5764168e-05
0.11300856 0.19393937 0.13263838 7.9109359e-06 -1 9.2358496e-06 1.6112763e-05
0.12832603 0.19393939 0.1335054 1.8157538e-05 -1 6.0461271e-06 3.4946013e-05
0.13323015 0.19393939 0.13227884 2.4732632e-05 -1 3.2272586e-05 3.2994081e-05
0.14012422 0.19393939 0.13130534 2.7230741e-05 -1 1.5163635e-05 2.3766806e-05
0.15444392 0.19393939 0.13807063 8.1186263e-06 -1 3.2158114e-05 2.2889428e-05
0.16494597 0.19393939 0.13637443 -5.2775948e-07 -1 -9.1671645e-06 1.6756943e-05
0.17964688 0.19393939 0.13390547 -1.7904928e-06 -1 1.6695712e-05 1.6771939e-05
0.18364707 0.19393939 0.13618779 8.8599717e-07 -1 -9.335552e-06 3.251417e-05
0.19590062 0.19393939 0.13743007 -2.0378797e-05 -1 -2.6135216e-05 9.6068234e-06
0.20306471 0.19393939 0.13722913 -1.6432316e-05 -1 -1.1831359e-06 1.7993014e-05
0.21715061 0.19393939 0.13833392 -5.4852419e-05 -1 -1.4768868e-05 8.3086143e-06
0.22124684 0.19393939 0.13746142 -3.306094e-05 -1 -1.1013728e-05 8.1477747e-06
0.24879606 0.19393939 0.13395339 -9.9178396e-07 -1 -1.0305454e-05 0
0.25381348 0.19393939 0.13401295 -0.05235729 -0.99855584 -0.012038004 0.0085844835
0.26731259 0.19393939 0.13287307 -0.26485509 -0.96387291 -0.028295547 0.041496295
0.27445415 0.19393939 0.1336562 -0.3490749 -0.93685639 -0.021138858 0.054920793
0.28181818 0.19327885 0.13505369 -0.68547547 -0.72704816 -0.03904292 0.092747301
-0.02111173 -0.19300304 0.14398041 0.0092360433 0.99995357 0.002732411 0.0096129663
-0.0082143713 -0.19022575 0.14334679 -0.047507014 0.99886811 0.0023754456 0.0078452844
-0.28181818 -0.18411921 0.1461737 0.7861346 0.61579961 -0.05275562 0.10005716
-0.27529398 -0.18787879 0.14491779 0.52925229 0.84763116 -0.037595015 0.094601795
-0.26701385 -0.18787879 0.14566 0.40582356 0.911282 -0.069802798 0.077516109
-0.25806805 -0.18787879 0.14466876 0.10884979 0.9940576 0.0010695759 0.021734681
-0.23650138 -0.18787879 0.14288618 5.2483279e-05 1 -6.0625465e-05 0
-0.22504327 -0.18787879 0.14477351 4.5788423e-05 1 -5.6672707e-06 0
-0.21694942 -0.18787879 0.14525625 1.9932035e-05 1 -1.4161763e-05 0
-0.20312801 -0.18787879 0.14630115 4.8258713e-05 1 -3.9290222e-05 0
-0.19347011 -0.18787879 0.14657509 4.2225722e-05 1 -2.4701219e-05 7.3997553e-06
-0.1844482 -0.18787879 0.14532943 3.0441633e-05 1 -3.8822764e-05 0
-0.1731002 -0.18787879 0.14964512 8.10235e-05 1 -5.7970556e-05 0
-0.16614172 -0.18787879 0.14733717 -6.2595832e-06 1 6.5088107e-06 7.9544552e-06
-0.15452345 -0.18787879 0.14503723 6.1730774e-05 1 -7.2711198e-05 0
-0.14473331 -0.18787879 0.14690961 2.3164041e-05 1 -1.11661e-05 8.928072e-06
-0.13460185 -0.18787879 0.14558412 2.6653559e-05 1 -1.5301892e-05 1.7031371e-05
-0.12564623 -0.18787879 0.14525513 -3.5265402e-06 1 -1.2400735e-05 2.4968394e-05
-0.11499874 -0.18787879 0.14544664 -1.7549285e-06 1 -1.900059e-05 1.7290893e-05
-0.10487133 -0.18787879 0.14673935 1.203235e-05 1 -2.75e-05 1.7791193e-05
-0.098452367 -0.18787879 0.14404389 9.7649827e-06 1 -8.9667365e-06 1.8735695e-05
-0.063173257 -0.18787879 0.14279197 -2.7876472e-06 1 -6.9559974e-06 0
-0.054448437 -0.18787879 0.14864869 -0 1 -0 1.5584694e-05
-0.041508045 -0.18787879 0.14497596 0.044800583 0.99896461 -0.007909406 0.0047444766
-0.025913058 -0.18787879 0.14870834 0.041734837 0.9991287 8.8594898e-05 0.0073949667
-0.015970215 -0.18787879 0.1439269 -0.010914465 0.99992681 -0.0052161152 0.009241513
-0.0050272346 -0.18790849 0.14682691 -0.051884044 0.99865162 -0.0017113331 0.0073605715
0.0048398394 -0.18787879 0.14673533 -0.057858311 0.99821782 -0.014614254 0.0045318617
0.014512558 -0.18787879 0.14643657 -0.019249668 0.99980587 -0.0042096521 0.00060564751
0.023487983 -0.18787879 0.14600398 -0.00016933479 1 1.8022496e-05 9.1327938e-06
0.031157514 -0.18787879 0.14869583 2.2603667e-06 1 -1.6326221e-05 2.5679466e-05
0.047975026 -0.18787879 0.14228922 -4.6998071e-06 1 7.9452275e-06 2.5069447e-05
0.056804694 -0.18787879 0.14816971 -2.5344561e-06 1 2.4972753e-05 2.5013274e-05
0.062817678 -0.18787879 0.14403892 4.825813e-06 1 2.2139253e-05 3.8774324e-05
0.075294957 -0.18787879 0.14750561 -1.4324919e-05 1 -4.0906962e-06 8.4405137e-06
0.085036233 -0.18787879 0.14403032 -1.588586e-05 1 8.6237933e-06 8.2969418e-06
0.094518878 -0.18787879 0.14441901 -8.8562028e-06 1 -7.651096e-06 8.5472921e-06
0.10557885 -0.18787879 0.14411747 -7.5247021e-06 1 -2.2974025e-05 2.4638277e-05
0.11329673 -0.18787879 0.14272538 8.2623346e-06 1 3.6602015e-07 4.0018971e-05
0.12269957 -0.18787879 0.14535579 6.410489e-09 1 7.8909197e-06 4.2104995e-05
0.13126731 -0.18787879 0.14014298 -2.288442e-05 1 -5.7928714e-06 2.6270696e-05
0.14345509 -0.18787879 0.14915739 8.046065e-06 1 6.9158737e-06 4.2611311e-05
0.1537144 -0.18787879 0.14923012 3.1358431e-05 1 -9.0547137e-06 3.91865e-05
0.16396028 -0.18787879 0.14525712 3.2136679e-05 1 -6.2913182e-06 2.5936572e-05
0.17989977 -0.18787879 0.14063416 -1.6068063e-05 1 2.4698415e-05 4.1649306e-05
0.18585904 -0.18787879 0.14434643 -1.9700992e-05 1 -6.6078628e-06 2.8000492e-05
0.19279033 -0.18787879 0.14554699 -3.336705e-05 1 1.839586e-05 4.158443e-05
0.20415021 -0.18787879 0.14605892 1.0360667e-06 1 2.1748689e-05 4.3395627e-05
0.21246934 -0.18787879 0.1472519 6.7052097e-05 1 -2.8636596e-06 3.9112405e-05
0.22302884 -0.18787879 0.14307818 -0 1 -0 8.2734632e-06
0.23636229 -0.18787879 0.14183046 -5.0677754e-05 1 -1.1016472e-05 0
0.2449504 -0.18787879 0.14416079 -9.0080983e-05 1 -1.1427687e-05 0
0.25258827 -0.18787879 0.14399204 -0.0088525582 0.99995804 0.002332188 0.00034175022
0.26010388 -0.18787879 0.14902912 -0.18623745 0.98215199 0.026328368 0.037044067
0.27528018 -0.18787879 0.14590387 -0.71094835 0.70298982 0.018915696 0.080736153
-0.28181818 -0.178179 0.14379713 0.88895357 0.45284444 -0.068508826 0.090587281
0.28181818 -0.17308232 0.14792219 -0.97036266 0.23953432 -0.031932183 0.045029551
-0.28181815 -0.16336939 0.14576462 0.99426174 0.10268829 0.029977839 0.021685205
0.28181818 -0.16443951 0.14998004 -0.98893529 0.14816806 -0.0072926707 0.022013986
-0.28181818 -0.15551297 0.14814155 1 7.8498604e-05 -5.5207205e-05 0
0.28181818 -0.15341897 0.14706552 -1 5.1756328e-05 -4.3542063e-06 0
-0.28181818 -0.1462753 0.14343548 1 6.8547743e-05 -5.6528057e-05 0
-0.28181818 -0.13721851 0.14226881 1 2.1121559e-05 -2.1314516e-05 0
-0.28181818 -0.12520306 0.14363261 1 5.3746828e-07 -6.7817273e-05 0
0.28181818 -0.12263986 0.1449943 -1 1.6783093e-05 1.5956144e-06 0
-0.28181818 -0.11508933 0.14568631 1 3.2397797e-06 -5.272045e-05 0
0.28181818 -0.11727633 0.14441217 -1 8.7525672e-07 -1.670157e-05 0
-0.28181818 -0.10575729 0.14341779 1 3.5709014e-05 -4.2085452e-05 0
0.28181818 -0.10749052 0.14632699 -1 5.7453553e-06 -1.7696424e-05 0
-0.28181821 -0.093257114 0.146496 1 1.0841734e-05 -6.6756547e-05 0
0.28181821 -0.096547276 0.14652811 -1 2.1619989e-07 2.0295405e-05 1.7737666e-05
-0.28181818 -0.086990379 0.14545821 1 3.9683106e-05 -5.5810939e-05 0
-0.28181818 -0.076609671 0.1458765 1 -9.3556146e-06 -6.4454012e-05 0
0.28181818 -0.071763292 0.14384285 -1 1.5545338e-05 -5.4914948e-05 0
-0.28181818 -0.063062139 0.1474476 1 2.6558704e-05 -1.2200604e-05 0
0.28181818 -0.064730011 0.14581315 -1 1.9775967e-05 -3.4418859e-05 0
0.28181818 -0.057498533 0.14637282 -1 1.0987884e-05 -3.513632e-05 0
-0.28181818 -0.044317592 0.14725612 1 1.1196329e-05 -4.5259665e-05 0
0.28181818 -0.043800697 0.14503109 -1 2.3081757e-05 -6.2616506e-05 0
-0.28181818 -0.030407967 0.14225939 1 1.9399995e-05 -6.7092975e-07 1.9880539e-05
0.28181818 -0.037482206 0.14368975 -1 1.4481216e-05 -4.2148909e-05 0
-0.28181815 -0.029535886 0.14202754 1 2.0294568e-05 -1.6836237e-05 1.9880539e-05
-0.28181818 -0.016437078 0.14423919 1 1.847012e-05 -9.0514768e-05 0
-0.28181818 -0.004217959 0.14854576 1 3.5729338e-06 -3.2455551e-05 0
0.28181818 -0.0032126296 0.14463377 -1 3.9207683e-07 -4.7131769e-05 0
-0.28181818 0.0067058029 0.14568064 1 -1.128531e-06 -3.8254679e-05 0
0.28181818 0.0063815033 0.14659566 -1 4.3243836e-07 -4.4741028e-05 0
-0.28181818 0.013218176 0.14635488 1 -7.749195e-06 -3.5597921e-05 0
0.28181818 0.019171594 0.14352751 -1 -5.7720608e-06 -7.6668017e-05 0
-0.28181818 0.024598399 0.14474218 1 -8.3982659e-06 -5.2786836e-05 0
0.28181818 0.025285145 0.14483422 -1 -6.6161483e-06 -6.2009152e-05 0
-0.28181818 0.037198909 0.14179285 1 -1.5043678e-05 -3.8287959e-05 0
0.28181818 0.035451978 0.14644471 -1 -3.073183e-05 -9.2435024e-05 0
0.28181818 0.044590548 0.14329022 -1 -2.4470066e-05 -1.7756853e-05 0
0.28181815 0.056648519 0.14331703 -1 -2.8691002e-05 -4.1537693e-05 0
0.28181818 0.063729666 0.14531103 -1 -1.5095235e-05 -1.398773e-06 0
-0.28181818 0.074716851 0.14223236 1 -0 -0 0
0.28181821 0.07264258 0.14711811 -1 -1.4756912e-05 -4.9479866e-05 0
0.28181818 0.080398358 0.14715558 -1 -2.574945e-05 -1.3971384e-05 0
-0.28181821 0.090860009 0.14385659 1 -1.2438911e-05 -3.6597125e-05 0
0.28181818 0.094818033 0.14601159 -1 -2.2831391e-05 -3.2490898e-05 0
0.28181818 0.10090399 0.14830516 -1 -2.8148343e-05 -3.3492688e-05 0
-0.28181818 0.11752588 0.14276962 1 -6.9239017e-05 -4.5811765e-05 0
0.28181821 0.11891188 0.14151445 -1 -4.9637201e-05 -5.3687865e-05 0
-0.28181818 0.12999964 0.14661597 1 -3.6421778e-05 -4.5557943e-05 0
0.28181818 0.1265516 0.14503777 -1 -0.00011197422 -6.5881271e-05 0
-0.28181821 0.13662693 0.14457943 1 -7.19909e-05 -1.6323032e-05 0
0.28181818 0.13298285 0.14385697 -1 -0.00011133949 -5.8135458e-05 0
-0.28181818 0.14543685 0.14613642 1 -4.8261809e-05 -2.9696372e-05 0
0.28181818 0.14202882 0.14358844 -1 -0.00012642051 -5.5597393e-05 0
-0.28181818 0.15696067 0.14707476 1 -7.9377642e-05 -3.0268406e-05 0
0.28181818 0.15012787 0.14571428 -1 -6.8983325e-05 -6.0062157e-05 0
-0.28181818 0.16613485 0.14589764 0.99927449 -0.037413523 -0.0071217045 0.0042392942
-0.28181818 0.17184776 0.14489147 0.99352807 -0.11345604 -0.005439878 0.026131768
0.28181815 0.17643552 0.14462371 -0.98279113 -0.18469547 -0.0030254731 0.041548476
-0.28181818 0.18158497 0.14683473 0.91594166 -0.39833072 0.0488212 0.077890038
0.28181818 0.18443647 0.14890735 -0.88750041 -0.45847425 0.046307795 0.073710322
-0.28170359 0.19262064 0.14498597 0.75144184 -0.6523568 0.098821461 0.089566633
-0.27532768 0.19393939 0.14796117 0.5714063 -0.81815803 0.064126663 0.092670597
-0.26410186 0.19393939 0.14665116 0.21878988 -0.97566533 0.01442394 0.056058377
-0.25375047 0.19393939 0.14323704 0.0094315158 -0.99995518 0.00081118685 0.00020449738
-0.24887916 0.19393939 0.14586267 -3.0534411e-05 -1 3.0521842e-05 3.3629516e-05
-0.22772248 0.19393939 0.14250489 -6.0538878e-07 -1 -8.6030113e-06 1.7950924e-05
-0.2152622 0.19393939 0.14677347 -3.4428416e-05 -1 -1.5011885e-05 3.2921846e-05
-0.20324299 0.19393939 0.1438635 1.9934336e-05 -1 -2.3493344e-06 2.5336634e-05
-0.19557279 0.19393939 0.14378569 -3.512585e-05 -1 1.8236811e-05 2.2802926e-05
-0.18735446 0.19393939 0.14579147 1.7901557e-05 -1 -6.9011903e-06 1.6822176e-05
-0.15782431 0.19393939 0.14696506 7.2428825e-06 -1 -1.0005319e-06 2.2359613e-05
-0.14469583 0.19393939 0.14614217 1.0565122e-05 -1 4.593492e-07 1.8700415e-05
-0.13226174 0.19393939 0.14312534 0 -1 0 1.8198823e-05
-0.12701984 0.19393939 0.14731304 -8.2632023e-06 -1 -3.2951913e-05 9.4216548e-06
-0.11193749 0.19393939 0.14849429 -1.5354446e-05 -1 -1.4738553e-05 1.6215594e-05
-0.10473623 0.19393939 0.14622344 0 -1 0 8.5926022e-06
-0.090259448 0.19393939 0.14424245 2.50347e-05 -1 2.1245673e-06 9.4219968e-06
-0.080954753 0.19393939 0.14423823 8.7444705e-06 -1 1.0663423e-07 8.789475e-06
-0.077126816 0.19393939 0.14598328 -1.2848907e-05 -1 -7.9143192e-06 1.5351075e-05
-0.064079836 0.19393939 0.14411847 -4.8383909e-06 -1 8.5561851e-06 1.6935928e-05
-0.054308545 0.19393939 0.14323825 -1.2103941e-06 -1 2.3572136e-05 1.7332051e-05
-0.048506081 0.19393939 0.14247216 5.1217103e-06 -1 1.900222e-05 1.7433205e-05
-0.037135273 0.19393939 0.14608593 4.8358406e-06 -1 -4.7925463e-05 0
-0.023680275 0.19393939 0.14537646 2.0754699e-06 -1 2.2614589e-07 8.9094083e-06
-0.015725758 0.19393939 0.14583968 4.303412e-06 -1 -1.5979636e-05 9.3229755e-06
-0.0039508641 0.19393939 0.1491648 7.6016033e-07 -1 -8.0198224e-06 1.6380804e-05
0.0030432418 0.19393939 0.14370251 2.4187361e-07 -1 -4.1857735e-09 1.6545209e-05
0.019470185 0.19393937 0.14306679 3.8652765e-06 -1 1.5713002e-05 3.2318669e-05
0.025218822 0.19393939 0.14572097 -1.7331915e-06 -1 1.3587833e-05 3.1749409e-05
0.037268162 0.19393939 0.14557742 0 -1 0 3.3216777e-05
0.045783788 0.19393939 0.14390539 -1.0862798e-06 -1 -4.4257256e-05 1.7876375e-05
0.058646537 0.19393939 0.14410463 -1.0258146e-06 -1 1.0066846e-05 1.6970351e-05
0.067345642 0.19393939 0.14708282 0 -1 0 1.7714736e-05
0.076016381 0.19393939 0.14202471 -4.1432004e-06 -1 -8.037794e-06 1.7028193e-05
0.085319906 0.19393939 0.14607064 -1.0845493e-05 -1 -1.8105855e-05 1.7302196e-05
0.091926269 0.19393939 0.14554065 5.632869e-06 -1 -1.7484652e-05 1.6468779e-05
0.11694112 0.19393939 0.14077318 0 -1 0 1.5856502e-05
0.12603284 0.19393939 0.14260432 -9.7733391e-06 -1 2.6254142e-05 1.758265e-05
0.13802855 0.19393939 0.14337167 -1.5305726e-05 -1 -1.6538515e-05 1.7427523e-05
0.14494599 0.19393939 0.14251964 2.9005974e-05 -1 6.209707e-06 1.8602022e-05
0.15593639 0.19393939 0.14448613 3.0701631e-06 -1 3.3989614e-05 2.3669667e-05
0.16571549 0.19393939 0.14744554 1.3192893e-05 -1 2.4406278e-05 2.2904851e-05
0.17362028 0.19393939 0.14573878 -1.5385993e-05 -1 -7.8125122e-06 1.662154e-05
0.18756735 0.19393939 0.14708601 -1.8431827e-05 -1 -1.6455848e-05 9.2000519e-06
0.19306913 0.19393939 0.1459534 -1.5319456e-05 -1 -1.1827476e-06 3.2908083e-05
0.20488271 0.19393939 0.14438762 -1.8872664e-05 -1 3.2658156e-06 1.7265269e-05
0.21618912 0.19393939 0.14382014 -3.7987989e-05 -1 -2.1598773e-05 8.564909e-06
0.24438681 0.19393939 0.14380065 2.7654574e-05 -1 -5.7769976e-06 1.4746298e-05
0.25733829 0.19393939 0.14639227 -0.12286755 -0.99232364 -0.014048772 0.018018676
0.26311004 0.19393939 0.14333631 -0.21423523 -0.97678179 -0.00078981119 0.032937538
0.28181818 0.19168229 0.14480627 -0.74412507 -0.66782272 0.017046884 0.072929263
-0.01862712 -0.1932008 0.15440075 0.015295681 0.99986851 0.0053925142 0.0098001519
-0.28100055 -0.18787879 0.15250656 0.65877706 0.74980843 0.061644074 0.087636851
-0.26468289 -0.18787879 0.15344763 0.28568316 0.95832217 -0.0019425995 0.048207875
-0.25474519 -0.18787879 0.1569726 0.018927552 0.99980402 0.005794086 0.0010958517
-0.24979876 -0.18787879 0.15321946 5.70087e-05 1 -6.9825956e-07 1.5148641e-05
-0.22357987 -0.18787879 0.1563203 4.5376717e-05 1 -1.5776208e-05 0
-0.21778965 -0.18787879 0.15312129 5.6770117e-05 1 -1.013881e-05 0
-0.20444547 -0.18787879 0.15670834 2.0610016e-06 1 -1.6158816e-05 8.3138139e-06
-0.17278096 -0.18787879 0.15771483 -9.6421024e-07 1 -7.517835e-06 8.2029819e-06
-0.16232091 -0.18787879 0.15186968 7.6797132e-06 1 -2.7683949e-05 2.3257191e-05
-0.152988 -0.18787879 0.15520975 -1.6585412e-06 1 -2.5569612e-05 1.7707587e-05
-0.14325559 -0.18787879 0.15399808 1.1999563e-05 1 -2.4762161e-05 8.9012074e-06
-0.1351521 -0.18787879 0.15085196 5.6704071e-06 1 -1.8733404e-05 0
-0.1265316 -0.18787879 0.15620574 2.416081e-05 1 -1.3848721e-05 1.5305028e-05
-0.11932819 -0.18787879 0.15107292 -7.1496011e-06 1 1.2014546e-07 2.3365115e-05
-0.10708629 -0.18787879 0.15256028 1.8907875e-05 1 -2.9442353e-05 1.748742e-05
-0.095444284 -0.18787879 0.15258951 1.2450025e-05 1 -7.4518025e-06 8.6482069e-06
-0.085646152 -0.18787879 0.15215918 9.9596054e-06 1 6.6911648e-06 8.4499643e-06
-0.078446083 -0.18787879 0.15304367 3.6731747e-06 1 3.2527943e-05 2.1949329e-05
-0.063787259 -0.18787879 0.15458168 1.7569764e-05 1 -2.6879641e-05 0
-0.051583331 -0.18787879 0.15276283 1.8935655e-08 1 -8.5707852e-06 8.5610618e-06
-0.042991214 -0.18787879 0.15885124 0.054800007 0.99847448 -0.0067629782 0.0050454461
-0.022514466 -0.18787879 0.1507839 0.020479554 0.99978995 -0.00081601692 0.0086999983
-0.01707888 -0.18787879 0.15677126 0.014722642 0.99984866 0.0092697991 0.010377697
-0.0053058546 -0.18787879 0.15679327 -0.051903423 0.9986406 0.0047939448 0.0074439086
0.014863158 -0.18787879 0.15285014 -0.011749674 0.9999243 -0.0036455572 0.00038902095
0.024773398 -0.18787879 0.15726002 -3.2756882e-06 1 -1.9071405e-05 8.9480091e-06
0.034913279 -0.18787879 0.15424404 -5.7687689e-06 1 -1.6855365e-05 1.8470117e-05
0.043407131 -0.18787879 0.15341517 9.1169557e-07 1 2.4942063e-05 4.0855946e-05
0.056545708 -0.18787879 0.15946473 -4.8895404e-06 1 4.2749102e-07 1.7986247e-05
0.065942936 -0.18787879 0.15417355 -9.5328005e-06 1 2.1736056e-05 2.3775639e-05
0.085887395 -0.18787879 0.15244387 1.1121468e-06 1 -2.4178318e-05 2.2932965e-05
0.092232727 -0.18787879 0.1544279 -4.5818578e-07 1 -8.7716453e-06 8.4411049e-06
0.10653803 -0.18787879 0.15808807 7.8663652e-06 1 -1.0788936e-05 9.1303218e-06
0.11615808 -0.18787879 0.15393335 9.3322624e-06 1 8.85597e-06 2.5725103e-05
0.1284398 -0.18787879 0.15579361 8.5183628e-06 1 1.0941923e-05 2.7904567e-05
0.1346911 -0.18787879 0.15258837 -9.5178411e-06 1 -8.7160532e-07 2.9310324e-05
0.14657402 -0.18787879 0.157056 -1.3652278e-05 1 1.0933195e-05 2.8397593e-05
0.15549098 -0.18787879 0.15468174 1.9784342e-05 1 1.2796677e-06 4.0556784e-05
0.16596174 -0.18787879 0.15515864 -1.4047444e-06 1 -1.0609968e-05 2.5892505e-05
0.17656817 -0.18787879 0.15358859 1.6500413e-05 1 4.5561297e-05 2.5286317e-05
0.18463537 -0.18787879 0.15372641 1.5063519e-05 1 2.5122461e-05 3.9223145e-05
0.19472688 -0.18787879 0.15597464 -1.5347138e-06 1 7.6503602e-06 2.5920828e-05
0.20175225 -0.18787879 0.15795265 -0 1 -0 3.9762679e-05
0.21352015 -0.18787879 0.15742165 -1.9172536e-05 1 -7.1189397e-06 9.6884469e-06
0.22586279 -0.18787879 0.15543306 1.4614228e-05 1 2.2247288e-05 2.3122231e-05
0.24421775 -0.18787879 0.15183213 -9.1358968e-05 1 -2.7426079e-06 0
0.26494524 -0.18787879 0.15332833 -0.44285074 0.89569354 -0.040203381 0.083394706
0.27692369 -0.18787879 0.15376098 -0.68839717 0.72527587 0.0091796378 0.077211022
0.28181818 -0.18224601 0.15615854 -0.85279489 0.5211342 0.034061026 0.069272071
-0.28181818 -0.17298959 0.15046059 0.934282 0.35412762 0.041361276 0.069303684
0.28181818 -0.17098409 0.15353692 -0.96292585 0.26974139 -0.0036434478 0.045214918
-0.28181818 -0.16662163 0.15284146 0.98084021 0.19468002 -0.0072219511 0.033682812
0.28181818 -0.16615281 0.15530148 -0.98649693 0.16275504 -0.018291974 0.025300851
-0.28181818 -0.15238911 0.15219568 1 4.5440745e-05 -5.2577147e-05 0
0.28181818 -0.15422429 0.15538834 -1 3.9261897e-05 -3.868468e-05 0
0.28181818 -0.14401019 0.15431215 -1 4.9718474e-05 -5.7165511e-05 0
-0.28181818 -0.13455319 0.15473473 1 2.3496701e-05 -5.1137322e-06 0
0.28181818 -0.13429478 0.15070625 -1 2.0928001e-05 -1.3602142e-06 1.7592292e-05
-0.28181818 -0.12460866 0.155412 1 1.7594824e-05 -6.4445405e-05 0
0.28181815 -0.12363946 0.15949945 -1 2.0461977e-05 -1.1761053e-05 1.9370042e-05
-0.28181818 -0.11550073 0.1556229 1 4.7672485e-05 -3.3082317e-05 0
0.28181818 -0.11365095 0.15581371 -1 3.8702852e-05 -2.7286203e-05 0
-0.28181818 -0.10284214 0.15467277 1 -1.4942345e-05 -3.371992e-05 0
0.28181815 -0.10039517 0.15404496 -1 3.9080005e-05 -4.3238273e-05 0
-0.28181818 -0.095151015 0.15558738 1 7.018105e-06 -4.4642755e-05 0
-0.28181821 -0.083548024 0.15242022 1 2.3919396e-05 -3.3247863e-05 0
0.28181821 -0.08472456 0.15201411 -1 1.6742006e-05 -2.0631574e-05 0
-0.28181818 -0.071676023 0.15210919 1 5.3580286e-05 -0.00010883075 0
0.28181818 -0.075524695 0.15473264 -1 1.7715507e-05 1.4548751e-05 0
-0.28181818 -0.062236726 0.15572511 1 1.9491439e-05 -4.7762129e-05 0
0.28181818 -0.061840374 0.15082932 -1 1.5495401e-05 -4.5571986e-05 0
0.28181818 -0.057207331 0.15176651 -1 1.9906069e-05 -3.4610748e-05 0
-0.28181818 -0.044158757 0.15728632 1 5.4045186e-06 -8.6561551e-05 0
0.28181818 -0.042377677 0.15875876 -1 2.669883e-05 -8.5962885e-05 0
-0.28181821 -0.031837448 0.15155682 1 1.649913e-06 -4.2939075e-05 0
0.28181818 -0.036476057 0.15981492 -1 2.2825399e-05 -4.4690696e-05 0
-0.28181818 -0.021039875 0.15752748 1 9.2393484e-06 -6.9333968e-05 0
0.28181818 -0.023992447 0.15888022 -1 1.1722199e-05 -7.0049653e-05 0
-0.28181818 -0.015695564 0.15498321 1 8.9669611e-06 -5.3347027e-05 0
-0.28181818 -0.00083586061 0.15453251 1 -1.1007673e-06 -5.6619559e-05 0
0.28181818 -0.0034121044 0.15508859 -1 -6.3004927e-06 -4.2190677e-05 0
-0.28181818 0.0074173338 0.15461242 1 -5.1186594e-06 -6.5227061e-05 0
-0.28181818 0.014000355 0.15514004 1 -1.0905545e-05 -0.00010251138 0
0.28181818 0.016721135 0.15505445 -1 -2.0504604e-05 -4.9920363e-05 0
-0.28181818 0.020824833 0.1532667 1 -4.7956341e-06 -3.8986331e-05 0
0.28181818 0.024852794 0.15265861 -1 -9.5645491e-06 -7.2408562e-05 0
-0.28181818 0.032474235 0.15371989 1 -3.8488997e-06 -1.9532832e-05 1.8542556e-05
0.28181818 0.035379395 0.15504377 -1 1.188012e-06 -7.5404037e-05 0
-0.28181818 0.042423654 0.15871702 1 3.1675879e-06 -3.9433278e-05 0
0.28181818 0.048836526 0.15554169 -1 -1.0311799e-05 -6.4436594e-05 0
-0.28181818 0.05735508 0.15688333 1 -2.010406e-05 -3.3252934e-05 0
0.28181818 0.053553306 0.15324421 -1 -8.184461e-06 -3.1693322e-05 0
-0.28181818 0.065304168 0.15515746 1 -3.1832235e-05 -6.3826868e-05 0
0.28181818 0.069699563 0.15768984 -1 -2.0245918e-05 -6.8146925e-05 0
-0.28181815 0.076425947 0.15758874 1 -6.2915649e-05 -7.1037328e-05 0
-0.28181818 0.083585322 0.15447576 1 -2.791822e-05 -1.6731459e-05 0
0.28181815 0.087125182 0.15386875 -1 -5.3925601e-06 -3.282155e-05 1.8385799e-05
-0.28181818 0.092700467 0.15304136 1 -3.7388676e-05 -6.9329115e-05 0
0.28181815 0.091469958 0.15898246 -1 -2.1243004e-06 -3.0346444e-05 0
-0.28181818 0.10233819 0.15531792 1 -8.2399902e-06 -3.2311715e-07 1.6367983e-05
0.28181818 0.10279215 0.15547389 -1 -3.4461187e-05 -3.2980304e-05 0
-0.28181818 0.11754413 0.15560667 1 -1.0536186e-05 -4.2207783e-05 0
0.28181818 0.11624007 0.15572335 -1 -4.6441033e-05 -8.1527833e-05 0
0.28181818 0.12507428 0.15394267 -1 -6.5582295e-05 -6.0274928e-05 0
-0.28181818 0.13709515 0.15902518 1 -3.3332468e-05 -4.9248938e-05 0
0.28181818 0.13386464 0.15762407 -1 -9.1359048e-05 -3.2572454e-05 0
-0.28181818 0.14353223 0.15480718 1 -1.7584684e-05 1.4877788e-06 0
0.28181818 0.14304087 0.15489075 -1 -6.5380547e-05 -6.1376937e-05 0
-0.28181821 0.15440696 0.15673338 1 -1.6721713e-05 3.7374659e-07 0
0.28181818 0.15227836 0.15442026 -1 -4.3206041e-05 -5.052378e-05 0
-0.28181818 0.16944288 0.15549773 0.99883586 -0.04679719 0.011700226 0.0049148672
0.28181818 0.16758877 0.15443698 -0.99907118 -0.042077411 -0.0092859752 0.0055456995
-0.28181815 0.17704761 0.15520385 0.97781616 -0.20944983 -0.0024957098 0.050477482
0.28181818 0.17348945 0.156321 -0.99397522 -0.10217988 -0.039654613 0.02271625
-0.28181818 0.18598211 0.1525932 0.92973179 -0.36810312 0.0099481642 0.067434505
0.28181818 0.1840637 0.15362561 -0.92232215 -0.38474259 0.035984907 0.078960948
-0.28120768 0.19393939 0.15324531 0.70641953 -0.70175737 0.092238933 0.095173709
-0.2753365 0.19393939 0.15491918 0.56624162 -0.82162613 0.065581724 0.10247312
-0.26111454 0.19393939 0.15104552 0.17097478 -0.98489058 0.027535664 0.032091759
-0.24350762 0.19393939 0.15075691 1.6032614e-06 -1 -2.616655e-05 1.7726688e-05
-0.23811251 0.19393939 0.15080157 -3.3161956e-05 -1 -1.3672233e-05 2.5038182e-05
-0.22406167 0.19393939 0.1524685 -6.553092e-05 -1 2.5280508e-05 3.257169e-05
-0.21985011 0.19393939 0.15182638 -6.4631655e-05 -1 1.8171948e-05 3.2882472e-05
-0.2059257 0.19393939 0.15409768 1.7871769e-05 -1 -2.1612284e-05 1.9179706e-05
-0.19910084 0.19393939 0.15589094 3.6425681e-05 -1 -7.8130433e-06 2.0048345e-05
-0.18598008 0.19393939 0.15449804 -4.8245562e-07 -1 -8.2246661e-06 1.676492e-05
-0.17784667 0.19393939 0.15535925 0 -1 0 3.0876981e-05
-0.16317147 0.19393939 0.15574071 -1.6544967e-05 -1 2.1882731e-06 2.3468092e-05
-0.15454741 0.19393939 0.15696274 2.6305988e-05 -1 1.0674309e-05 2.4928957e-05
-0.144201 0.19393939 0.15643135 -7.6127894e-06 -1 -2.0759217e-05 1.0663905e-05
-0.13798665 0.19393939 0.15906842 -4.7259246e-06 -1 2.9212204e-05 2.3423154e-05
-0.12627329 0.19393939 0.15320535 -1.7544409e-05 -1 -1.1652656e-06 3.1989424e-05
-0.11046467 0.19393939 0.15018027 -1.7172533e-05 -1 9.187439e-06 1.6215528e-05
-0.095697463 0.19393939 0.15231253 7.7585601e-06 -1 -3.3576835e-05 0
-0.087478377 0.19393939 0.1556052 1.9764786e-05 -1 -1.9788386e-05 8.3503392e-06
-0.068445191 0.19393939 0.1566755 -1.1956459e-05 -1 -7.8001756e-07 1.6599977e-05
-0.051119924 0.19393939 0.15471107 6.8642148e-06 -1 -1.6463042e-05 0
-0.042908549 0.19393939 0.15912841 -9.6798908e-07 -1 -3.135057e-05 8.2491788e-06
-0.034357142 0.19393939 0.15659623 4.381533e-06 -1 -2.6996113e-05 7.8034509e-06
-0.0039241463 0.19393939 0.15526959 9.4581685e-07 -1 -2.7620943e-05 0
0.016347773 0.19393937 0.15891314 1.0270412e-06 -1 8.0805758e-06 1.7794151e-05
0.02354677 0.19393939 0.15448456 -3.404831e-06 -1 2.7199276e-05 3.4697714e-05
0.031261459 0.19393939 0.15477493 -4.8917118e-06 -1 -9.2962036e-06 3.4028559e-05
0.056891549 0.19393939 0.15323012 7.5791604e-06 -1 1.5875459e-05 3.2304655e-05
0.067971058 0.19393939 0.15573898 -2.2162567e-07 -1 -9.972282e-06 1.8912351e-05
0.072442457 0.19393939 0.15064007 0 -1 0 3.3986471e-05
0.086936682 0.19393939 0.15163088 1.7383471e-06 -1 -2.1168989e-05 9.0257463e-06
0.094249591 0.19393939 0.15531644 -9.4964407e-06 -1 2.6835929e-05 1.6317821e-05
0.10472258 0.19393939 0.15569372 -7.7073591e-06 -1 -2.3355322e-05 0
0.11528163 0.19393939 0.15512198 -8.3374835e-06 -1 -1.4443755e-05 2.1459604e-05
0.13481708 0.19393939 0.15500097 -3.3001259e-05 -1 -1.5479171e-05 9.4186698e-06
0.14322801 0.19393939 0.15543227 6.8635818e-06 -1 1.6450678e-05 3.2911059e-05
0.15170567 0.19393939 0.15719265 1.8039875e-05 -1 -2.1370208e-06 2.4841716e-05
0.1729361 0.19393939 0.15415281 2.2807446e-05 -1 3.2847915e-05 2.3738465e-05
0.18538949 0.19393939 0.15882161 2.6042195e-05 -1 2.1444663e-05 1.7665488e-05
0.19374715 0.19393939 0.15706389 -1.5177635e-05 -1 1.9174124e-05 1.6422753e-05
0.20207359 0.19393939 0.15491514 1.4983806e-05 -1 5.9212834e-07 1.673009e-05
0.21649601 0.19393939 0.15402021 -1.5885735e-05 -1 -2.9122108e-05 0
0.22340156 0.19393939 0.15748976 -2.5774392e-05 -1 -1.1047317e-05 7.4379186e-06
0.23448698 0.19393939 0.15432538 0 -1 0 0
0.24779244 0.19393939 0.15822887 -6.0106689e-05 -1 -2.0987751e-05 9.0298936e-06
0.25108042 0.19393939 0.15394153 -8.413937e-05 -1 -4.8021138e-05 0
0.27384058 0.19393939 0.15301542 -0.41051754 -0.91066653 -0.046494447 0.084478997
0.28181818 0.19238052 0.15029956 -0.66509396 -0.74638402 -0.023682781 0.085488699
-0.020950945 -0.19326895 0.16668747 0.0093718776 0.99964494 0.024942003 0.013566139
-0.01470864 -0.19208124 0.16622691 -0.011558166 0.99981952 0.015078322 0.011132648
-0.28181818 -0.1866463 0.16193467 0.67898113 0.73410815 0.0083583463 0.085351244
-0.27351046 -0.18787879 0.16181171 0.48133785 0.87645578 -0.011798895 0.074946448
-0.26970017 -0.18787879 0.16965966 0.38845071 0.92122239 0.021335194 0.089872673
-0.25538617 -0.18787879 0.16687009 0.062792905 0.99782014 -0.020296019 0.010042809
-0.24313208 -0.18787879 0.1623943 3.9141451e-05 1 -1.9045419e-05 7.7817431e-06
-0.23140693 -0.18787879 0.16186023 3.2182023e-05 1 -2.150179e-05 8.2631932e-06
-0.21407978 -0.18787879 0.16240552 -1.7832015e-05 1 -6.4332407e-06 2.3486355e-05
-0.19026245 -0.18787879 0.16282299 4.8102633e-05 1 -2.0257576e-05 0
-0.18343545 -0.18787879 0.16672535 -0 1 -0 8.6090104e-06
-0.1746451 -0.18787879 0.16467278 1.6876942e-05 1 -3.2834218e-05 0
-0.15373436 -0.18787879 0.16647223 -0 1 -0 4.0696224e-05
-0.14287877 -0.18787879 0.16677718 4.9548362e-05 1 -3.8309186e-05 0
-0.13704921 -0.18787879 0.16556872 -3.2339269e-06 1 -1.8245568e-05 8.6569507e-06
-0.10167901 -0.18787879 0.16765386 1.2590502e-05 1 -5.1062529e-05 0
-0.095397264 -0.18787879 0.16449647 -0 1 -0 0
-0.088258713 -0.18787879 0.1606335 1.9206242e-05 1 -2.0298546e-06 0
-0.071971923 -0.18787879 0.16792804 -4.0209065e-06 1 -1.6816828e-05 1.5615104e-05
-0.066025779 -0.18787879 0.16333009 9.1482234e-06 1 1.1069105e-05 0
-0.05390371 -0.18787879 0.16287193 1.5788721e-05 1 -5.1638064e-05 0
-0.04530149 -0.18787879 0.16600667 0.048415426 0.99881738 0.0044506388 0.0047306009
-0.033489369 -0.18787879 0.16180077 0.063408308 0.99783713 0.017329043 0.0091705751
-0.026600072 -0.18787879 0.16526265 0.038198072 0.99905992 0.020497039 0.01006085
-0.015245988 -0.18787879 0.16525066 -0.012317624 0.99980181 0.015640305 0.011137294
-0.002450167 -0.18787879 0.16146909 -0.054527819 0.99844962 0.011180473 0.0077436832
0.0035893386 -0.18787879 0.16335246 -0.048790261 0.99878722 0.0065958491 0.0053793741
0.022506442 -0.18787879 0.1644305 -0.00037046187 0.99999994 0.00016991446 0
0.03573554 -0.18787879 0.16177617 -5.148896e-06 1 -1.6973672e-05 9.1766515e-06
0.044107176 -0.18787879 0.16017826 -6.373527e-06 1 -1.7051836e-05 2.6626913e-05
0.051292282 -0.18787879 0.16655636 4.0856016e-06 1 -9.0267048e-07 2.5805999e-05
0.065558113 -0.18787879 0.16654068 1.7374671e-06 1 3.133162e-05 2.3826797e-05
0.071963973 -0.18787879 0.16617619 -9.425552e-06 1 -1.7382681e-05 9.0477715e-06
0.082705513 -0.18787879 0.1664466 -1.9589748e-05 1 -1.9652476e-05 1.6521009e-05
0.094868019 -0.18787879 0.165565 -1.7497643e-05 1 -1.3160412e-06 8.4424082e-06
0.10432462 -0.18787879 0.16527972 -1.7188735e-05 1 -1.6737067e-05 1.6434335e-05
0.11254628 -0.18787879 0.16516459 -8.064987e-06 1 6.3759126e-07 2.4385399e-05
