# .PCD v0.7 - Point Cloud Data file format
VERSION 0.7
FIELDS x y z normal_x normal_y normal_z curvature
SIZE 4 4 4 4 4 4 4
TYPE F F F F F F F
COUNT 1 1 1 1 1 1 1
WIDTH 678
HEIGHT 1
VIEWPOINT 0 0 0 1 0 0 0
POINTS 678
DATA ascii
0.15909092 -0.094883844 0.25097331 -1 1.6656948e-06 -5.8765421e-05 0
-0.15909092 -0.086138137 0.25357834 1 1.0725805e-05 -1.6069296e-05 0
0.15909092 -0.085841648 0.25413257 -1 2.3644994e-05 -4.2041116e-05 0
-0.15909092 -0.07670892 0.25271696 1 6.7499564e-06 -5.1075476e-05 0
0.15909092 -0.077030346 0.25072375 -1 6.8922241e-06 -4.7950329e-05 0
-0.15909091 -0.06711407 0.25664178 1 1.2214289e-05 -3.6913916e-05 0
0.15909094 -0.064519309 0.25216055 -1 0 0 0
-0.15909092 -0.054679956 0.2546916 1 5.9618337e-06 -3.1827996e-05 0
0.15909094 -0.054910839 0.25335717 -1 7.6676324e-06 -3.131964e-05 0
-0.15909091 -0.044501662 0.25379705 1 6.5276522e-06 -1.5945463e-05 0
0.15909092 -0.049329903 0.25065878 -1 3.0838959e-07 -5.4515516e-05 0
-0.15909092 -0.03184206 0.25709867 1 6.2164668e-06 -5.6713114e-05 0
0.15909092 -0.034977235 0.25481802 -1 3.1237798e-06 -3.7533537e-05 0
-0.15909092 -0.026225815 0.25208291 1 9.5004052e-06 -3.2267082e-05 0
0.15909092 -0.02738932 0.25780502 -1 5.0403878e-06 -3.2797521e-05 0
-0.15909092 -0.015322294 0.2540715 1 2.3420509e-06 -1.7939959e-05 0
0.15909092 -0.014495502 0.25365871 -1 -4.9368111e-07 -1.7222483e-05 0
-0.15909092 -0.0068472191 0.25484028 1 -0 -0 0
0.15909092 -0.0025474497 0.25552821 -1 -1.6346819e-06 -1.5881767e-05 0
-0.15909092 0.0049942033 0.25325656 1 -2.4393837e-06 -6.4138709e-05 0
0.15909092 0.006824784 0.25563604 -1 -7.5476428e-06 -7.3929419e-05 0
-0.15909092 0.014430504 0.25154898 1 1.2246553e-06 -6.3472035e-05 0
0.15909092 0.014688247 0.25435802 -1 -5.8472317e-08 -3.1894386e-05 0
-0.15909092 0.023272067 0.2550689 1 6.21354e-06 -6.5097607e-05 0
0.15909092 0.0247468 0.25613487 -1 -4.0937875e-06 -5.6982812e-05 0
-0.15909094 0.036478989 0.25216141 1 -1.9001812e-06 -3.2697822e-05 0
0.15909092 0.036691692 0.25205898 -1 -6.1051128e-06 -4.2777967e-05 0
-0.15909092 0.047782924 0.2593241 1 -3.1164766e-06 -7.0294438e-05 0
0.15909092 0.045853179 0.25175694 -1 -2.5206148e-06 -5.5093614e-07 0
-0.15909092 0.057139009 0.25351632 1 -9.8437331e-06 -6.8553411e-05 0
-0.15909092 0.063776508 0.25213712 1 -1.2196136e-05 -8.6527776e-05 0
0.15909092 0.063919686 0.25262865 -1 4.6004611e-06 -3.3673492e-05 0
-0.15909091 0.074853294 0.25425792 1 -1.8579694e-05 -7.2748466e-05 0
0.15909092 0.076329947 0.25513291 -1 -3.3357794e-06 -7.7788573e-05 0
-0.15909092 0.085368797 0.25649536 1 -3.0414756e-06 -3.6690726e-05 0
0.15909092 0.080493063 0.25525331 -1 7.4091208e-06 -1.824776e-05 0
-0.15909094 0.095387436 0.25454244 1 1.9869844e-06 -2.936089e-05 0
0.15909092 0.093554638 0.25452793 -1 -1.5915675e-05 -2.1340182e-05 0
-0.15909092 0.10352298 0.25505176 1 -6.8666259e-06 -5.0905761e-05 0
0.15909092 0.10493053 0.25405172 -1 -1.8891349e-05 -9.1569047e-05 0
-0.15909094 0.11485519 0.25699741 1 -3.8354836e-05 -1.9061023e-05 0
0.15909091 0.1151887 0.2550059 -1 -5.1486404e-06 -3.4287132e-05 0
-0.15909092 0.12171129 0.25619638 1 -1.2026759e-05 -5.3485088e-05 0
0.15909094 0.12490942 0.2551384 -1 -1.8076698e-05 -1.8510296e-05 0
-0.15909091 0.13114801 0.25269127 0.99977779 -0.020950615 -0.0023479571 0.00057709706
0.15909092 0.13569248 0.25425881 -0.98740274 -0.15685883 -0.020763658 0.02357764
-0.15909092 0.14871009 0.25185239 0.91675979 -0.39712003 -0.042980358 0.066604145
0.15909092 0.14405394 0.25661638 -0.90782613 -0.41918087 -0.011800514 0.071538001
-0.1566754 0.15767917 0.25519365 0.66960162 -0.74188596 0.035196479 0.085537232
-0.14461277 0.15909091 0.25069535 0.29903731 -0.95411426 0.01558053 0.055353425
-0.12989561 0.15909089 0.25249201 0.012879021 -0.99991709 -4.9683695e-05 0.00016926961
-0.11635218 0.15909089 0.25507835 2.7701233e-05 -1 -7.9770922e-05 0
-0.10828644 0.15909091 0.25261605 1.6355481e-05 -1 -8.9967858e-07 0
-0.094524562 0.15909089 0.25424641 -6.4443943e-06 -1 -4.9444541e-05 0
-0.086444631 0.15909091 0.25328577 9.1378715e-06 -1 -5.9377122e-05 0
-0.072558589 0.15909091 0.25294128 2.4161314e-05 -1 -3.532277e-05 0
-0.064595796 0.15909091 0.25635371 7.4588056e-06 -1 1.7386505e-05 0
-0.055961657 0.15909091 0.25632572 7.517845e-06 -1 -4.8777296e-05 0
-0.045906566 0.15909091 0.2506907 1.2662678e-05 -1 -2.9908391e-05 0
-0.03652408 0.15909091 0.25366515 7.4003706e-06 -1 -6.1058308e-05 0
-0.027324637 0.15909091 0.25529274 1.4218315e-06 -1 -6.9877678e-05 0
-0.015362914 0.15909091 0.25747943 7.8833973e-06 -1 -4.911748e-05 0
-0.0050446517 0.15909089 0.25504556 7.3532347e-06 -1 -5.1506628e-05 0
0.0051040724 0.15909091 0.25691813 -6.5137004e-07 -1 -7.6941586e-05 0
0.017703097 0.15909091 0.25556421 -8.6107104e-07 -1 -1.7480135e-05 0
0.022835432 0.15909091 0.25532758 3.1334596e-07 -1 -1.9022238e-05 0
0.033595525 0.15909091 0.25593209 -2.7849323e-06 -1 -3.5830744e-05 0
0.044116978 0.15909091 0.25619268 -2.3801888e-06 -1 -4.9150647e-05 0
0.057013065 0.15909091 0.25541517 -1.3271405e-05 -1 -0.00012087689 0
0.064741552 0.15909091 0.25501043 -1.1710995e-05 -1 -1.8839162e-05 0
0.073169261 0.15909091 0.25235716 -6.8465943e-06 -1 -5.1998191e-05 0
0.085865207 0.15909091 0.25563049 -6.167636e-06 -1 -3.177725e-05 0
0.095075838 0.15909091 0.25692177 -1.3395676e-05 -1 -7.368387e-05 0
0.10401163 0.15909091 0.2535013 -4.0312367e-05 -1 -5.8193691e-05 0
0.11445628 0.15909091 0.25284359 -2.0772706e-05 -1 -5.2771877e-05 0
0.12456634 0.15909091 0.25465992 -1.7025661e-05 -1 -7.0673093e-05 0
0.13348299 0.15909091 0.25298542 -0.085734613 -0.99629134 -0.007292225 0.015507353
0.14299199 0.15909091 0.25471699 -0.27771413 -0.95881695 0.059538465 0.049174335
0.15590423 0.15771753 0.25411686 -0.6740551 -0.73846245 -0.017972365 0.077948891
-0.15495868 -0.15794882 0.26379958 0.58392394 0.81092376 0.037889279 0.083210155
-0.14639364 -0.15909091 0.26197946 0.43224573 0.90149343 0.021754146 0.067694962
-0.12725687 -0.15909091 0.26558101 0.0058232695 0.99998283 0.00054844841 8.4030886e-05
-0.11600273 -0.15909091 0.26567435 2.1260846e-06 1 3.4558831e-05 0
-0.10229363 -0.15909091 0.26289964 3.1025829e-05 1 -8.7418011e-05 0
-0.098390236 -0.15909091 0.26636839 2.9050356e-05 1 -5.1787221e-05 0
-0.081914619 -0.15909091 0.26658344 3.0550193e-05 1 -3.7635535e-05 0
-0.073849596 -0.15909089 0.26322776 2.4806435e-05 1 -1.6594515e-05 0
-0.065823048 -0.15909091 0.26577437 1.3811518e-05 1 -8.0493694e-05 0
-0.05184108 -0.15909091 0.26903898 -5.9923464e-06 1 -4.8999435e-05 0
-0.047196757 -0.15909091 0.2677097 2.8435443e-06 1 -3.4173809e-05 0
-0.03289102 -0.15909091 0.26447928 4.2100169e-06 1 -1.8310893e-05 0
-0.025173347 -0.15909091 0.26576114 2.7259725e-06 1 -5.2586955e-05 0
-0.015652327 -0.15909091 0.26367468 3.0374902e-06 1 3.4816019e-08 0
-0.0022721067 -0.15909091 0.26344746 -1.6150744e-06 1 -6.734232e-05 0
0.0053515662 -0.15909091 0.26494861 -8.5497169e-07 1 -7.0155533e-05 0
0.013961885 -0.15909091 0.26194784 -4.8271522e-06 1 -9.4024821e-05 0
0.024186106 -0.15909089 0.26523757 -4.1396793e-06 1 -5.1809857e-05 0
0.036164675 -0.15909091 0.26500827 -2.2654212e-06 1 -5.0004561e-05 0
0.04931929 -0.15909091 0.26278335 -1.1995764e-06 1 -6.4265005e-05 0
0.053226519 -0.15909091 0.26419166 -1.9308396e-05 1 -7.791019e-05 0
0.066260442 -0.15909091 0.26904088 -4.511408e-06 1 -3.2211658e-05 0
0.086757146 -0.15909091 0.26486331 9.9599956e-06 1 -6.3670152e-05 0
0.093562804 -0.15909091 0.26525509 -1.2434444e-05 1 -1.7982704e-05 0
0.10537932 -0.15909091 0.26604182 -1.2188776e-05 1 -4.9318896e-05 0
0.11385572 -0.15909091 0.26408684 -1.900361e-05 1 -3.2460484e-05 0
0.12653382 -0.15909091 0.26663387 -0.0023738395 0.9999972 0.00033046425 0
0.13233884 -0.15909091 0.261994 -0.04592457 0.99888581 0.010862717 0.0036902744
0.14378354 -0.15909091 0.26600757 -0.25800154 0.96614385 0.0011721675 0.036918465
0.15518363 -0.1586775 0.26407048 -0.59371752 0.80255866 -0.058302507 0.079835713
-0.15909094 -0.14666565 0.26522532 0.91895306 0.39035004 0.056143723 0.068689257
0.15909092 -0.14253081 0.26441699 -0.96767908 0.25125897 -0.021589765 0.035446528
-0.15909092 -0.13270588 0.26089203 0.99740815 0.070891589 -0.012301224 0.010399625
0.15909091 -0.13250308 0.26437977 -0.99978304 0.020547161 0.0034270366 0.0013265025
-0.15909094 -0.12657262 0.26465973 1 2.1787318e-05 -1.5381102e-05 0
0.15909091 -0.12486865 0.26558292 -1 6.7967094e-06 -4.1595751e-05 0
-0.15909092 -0.1171024 0.26499432 1 4.1080963e-05 1.6318318e-05 0
0.15909092 -0.11348028 0.26487622 -1 1.3774642e-05 -1.8132638e-05 0
-0.15909092 -0.10582592 0.26444232 1 1.4958696e-05 -3.7457323e-07 0
0.15909094 -0.10433457 0.26724949 -1 1.1516985e-06 -8.1585669e-05 0
-0.15909092 -0.096464694 0.26246983 1 7.5147664e-06 -6.066306e-05 0
0.15909092 -0.098052129 0.26461369 -1 5.7450266e-06 -6.6326495e-05 0
-0.15909092 -0.082806006 0.26561692 1 3.4422019e-06 -5.7247191e-05 0
0.15909092 -0.08434695 0.26518983 -1 1.693125e-05 -2.9244293e-05 0
-0.15909092 -0.076064132 0.26520267 1 -5.5901883e-06 -8.3128252e-05 0
0.15909092 -0.07678657 0.26274347 -1 1.7395947e-05 -4.7304093e-05 0
-0.15909094 -0.063389488 0.26609352 1 2.4692345e-05 -4.8881415e-05 0
0.15909092 -0.063211635 0.26421899 -1 3.6527065e-06 -8.2678402e-05 0
-0.15909092 -0.054134075 0.26736763 1 3.7724567e-06 6.3970155e-08 0
0.15909092 -0.052089259 0.26559162 -1 -1.3850449e-06 -9.4004645e-05 0
0.15909092 -0.047014795 0.26729491 -1 5.2139289e-06 -3.633101e-05 0
-0.15909092 -0.036449898 0.26585266 1 9.7050324e-06 -1.6403679e-05 0
0.15909092 -0.035765722 0.26364034 -1 9.3041708e-06 -1.7924056e-05 0
-0.15909094 -0.026373636 0.26541093 1 2.2688027e-06 1.4623078e-07 0
0.15909092 -0.02719482 0.26303732 -1 8.0028049e-06 -3.2776501e-05 0
-0.15909092 -0.014958042 0.26359221 1 1.1643725e-06 3.2909167e-08 0
0.15909091 -0.014386719 0.26637009 -1 3.4582665e-06 5.2954613e-07 0
-0.15909092 -0.0055178315 0.26440427 1 -6.2617805e-06 -5.5927569e-05 0
0.15909092 -0.0078888023 0.26553121 -1 1.1740583e-06 -1.8087705e-05 0
-0.15909092 0.0078035034 0.26436925 1 -1.7991947e-07 2.8774759e-05 0
0.15909092 0.0048880875 0.2654168 -1 2.8330824e-06 -1.7066322e-05 0
-0.15909094 0.014274402 0.2663371 1 2.9569951e-06 -7.7812823e-05 0
0.15909092 0.01371513 0.26530653 -1 -6.5633299e-06 -7.8201287e-05 0
-0.15909092 0.027043425 0.26684487 1 -3.4175903e-06 -4.0767121e-05 0
0.15909092 0.026509687 0.26712859 -1 -9.2686814e-06 -8.753092e-05 0
-0.15909092 0.038000427 0.26611882 1 -9.3091803e-06 -5.8066973e-05 0
0.15909092 0.033853319 0.26937908 -1 5.7832949e-07 -1.5344291e-05 0
-0.15909092 0.046497025 0.26589608 1 -2.3076598e-06 5.2534226e-08 0
0.15909092 0.04008463 0.26325166 -1 -3.7220641e-06 1.4966722e-05 0
-0.15909092 0.051886681 0.26627839 1 -5.340903e-06 -3.3787739e-05 0
0.15909092 0.052303214 0.26552415 -1 3.8731037e-06 -3.3967841e-05 0
-0.15909092 0.065023288 0.26291382 1 -2.0691341e-05 -8.4227497e-05 0
0.15909092 0.064403988 0.2655215 -1 1.1770927e-05 -7.3001931e-05 0
-0.15909092 0.078770839 0.26614279 1 -9.8164546e-06 -6.6618784e-05 0
0.15909091 0.075381294 0.26490492 -1 -1.158653e-05 -4.859221e-05 0
-0.15909094 0.087712094 0.26212078 1 -1.0290939e-05 -2.8740606e-05 0
0.15909092 0.085016429 0.26895317 -1 -6.131267e-07 -2.9618626e-05 0
-0.15909092 0.092250504 0.26881719 1 -1.7803857e-05 -9.5183772e-05 0
0.15909092 0.097090364 0.26907185 -1 -6.3833854e-06 -1.9126617e-05 0
-0.15909092 0.10527455 0.26437983 1 -2.2541688e-05 -8.9788577e-05 0
0.15909092 0.10161291 0.26325712 -1 -1.5811185e-05 -4.8497532e-05 0
-0.15909092 0.11013445 0.26787677 1 -8.508986e-06 -2.1209044e-05 0
0.15909092 0.11695618 0.26507169 -1 -1.0306345e-05 -6.3992855e-05 0
-0.15909092 0.12401183 0.26497185 1 -1.0687684e-05 -2.8157783e-05 0
0.15909092 0.12392735 0.26472804 -1 -7.7369878e-06 -1.7074861e-05 0
-0.15909092 0.1342939 0.26555175 0.99617255 -0.086144172 -0.01481292 0.012091823
0.15909092 0.13591757 0.26687723 -0.98625481 -0.16001794 -0.041179705 0.020539835
-0.15909092 0.14488864 0.26666194 0.93250555 -0.36003041 -0.028489288 0.050817423
0.15909092 0.14651199 0.26703149 -0.91952294 -0.39117265 -0.038229197 0.06663841
-0.15642683 0.15751888 0.26685548 0.69077671 -0.72216177 -0.036192972 0.072296813
-0.1420407 0.15909091 0.261765 0.15466741 -0.98790777 -0.010781805 0.019779123
-0.13708957 0.15909091 0.2670607 0.14130202 -0.98992187 0.0094011836 0.0185061
-0.12359061 0.15909091 0.26477188 2.6041771e-05 -1 -1.541599e-05 0
-0.11619236 0.15909091 0.26664624 3.2164411e-05 -1 -2.2155124e-05 0
-0.10560092 0.15909091 0.2626209 2.1577485e-05 -1 -1.5864469e-05 0
-0.094374783 0.15909091 0.2655597 2.6528038e-05 -1 1.6210732e-05 0
-0.08331994 0.15909091 0.26587158 1.3542706e-05 -1 -5.1181942e-05 0
-0.066345967 0.15909091 0.2670868 5.7502084e-06 -1 -5.135575e-05 0
-0.053340267 0.15909089 0.26223317 1.3992723e-05 -1 -4.5722765e-05 0
-0.047596127 0.15909091 0.26253629 1.6915561e-05 -1 -4.5699366e-05 0
-0.034695387 0.15909091 0.26477715 3.9158745e-06 -1 -5.520328e-05 0
-0.024913788 0.15909089 0.26388013 1.1500007e-05 -1 -8.446323e-05 0
-0.012128334 0.15909091 0.26570249 7.1431427e-06 -1 -2.0806458e-05 0
-0.0056790253 0.15909091 0.26599044 3.1162181e-06 -1 -5.2635463e-05 0
0.0046130111 0.15909091 0.26384902 4.6251051e-07 -1 -3.3684017e-05 0
0.011663346 0.15909091 0.26194209 -2.4652136e-06 -1 -4.9886607e-05 0
0.023885136 0.15909091 0.26043233 -2.144986e-06 -1 -3.2283479e-05 0
0.036107004 0.15909089 0.26417947 -2.1701487e-07 -1 -1.7975466e-05 0
0.045150846 0.15909091 0.26705348 -9.2760201e-06 -1 -1.5405565e-05 0
0.054847457 0.15909091 0.26499313 -4.0669729e-06 -1 -1.9315645e-05 0
0.067092538 0.15909091 0.26681694 -1.0798596e-05 -1 -1.7588067e-05 0
0.074456215 0.15909091 0.26813328 -8.0609188e-06 -1 -5.1957377e-05 0
0.082176551 0.15909091 0.26417053 -2.9169174e-05 -1 -6.4562322e-05 0
0.0957698 0.15909091 0.26412371 -1.7661207e-05 -1 -5.0008472e-05 0
0.10604177 0.15909091 0.26486859 -3.3312437e-05 -1 -6.2655854e-05 0
0.1155618 0.15909091 0.26297867 -2.9184568e-05 -1 -4.5854926e-05 0
0.12660243 0.15909091 0.26485947 -0.0071576578 -0.99997097 -0.0025920542 9.2924049e-05
0.13408382 0.15909091 0.26314062 -0.12505169 -0.99215019 -0.00023734546 0.018550457
0.14550972 0.15909091 0.26620561 -0.43451864 -0.90010357 0.031734604 0.07762441
0.15808533 0.15671086 0.26681295 -0.72579694 -0.68786734 -0.0075746858 0.078548841
-0.15591325 -0.15729365 0.27625537 0.72807819 0.68538684 0.012126131 0.070919588
-0.14671944 -0.15909091 0.27552277 0.32694608 0.9449687 0.011848689 0.055721097
-0.1338501 -0.15909091 0.27155468 0.13727121 0.99053329 -0.00076961826 0.019209055
-0.12506419 -0.15909091 0.27304065 2.095874e-05 1 4.5884649e-06 0
-0.11759277 -0.15909091 0.27384758 1.580053e-05 1 -2.933683e-05 0
-0.093411393 -0.15909091 0.27430218 2.5165597e-05 1 -1.6872529e-05 0
-0.082492456 -0.15909091 0.27625501 1.0599087e-05 1 -1.3522822e-05 0
-0.07786797 -0.15909091 0.27508253 -2.031549e-06 1 1.488687e-05 0
-0.064930372 -0.15909089 0.27522537 2.2594808e-05 1 -3.1466716e-05 0
-0.05268544 -0.15909091 0.27520186 7.3764804e-06 1 -7.7879427e-05 0
-0.045620766 -0.15909091 0.27560502 1.5441858e-06 1 -3.4747256e-05 0
-0.035990335 -0.15909091 0.27282295 2.754552e-06 1 -7.9914091e-05 0
-0.022189317 -0.15909091 0.27675471 8.6207729e-06 1 -4.8092668e-05 0
-0.017377082 -0.15909089 0.27782229 4.8691054e-06 1 -5.2072526e-05 0
-0.0061928327 -0.15909091 0.27607137 1.1659547e-06 1 -1.5917356e-05 0
0.007563334 -0.15909091 0.27719373 3.5225878e-06 1 -6.2683685e-05 0
0.015689015 -0.15909091 0.27246863 -1.1044052e-06 1 -5.7902278e-05 0
0.026704945 -0.15909091 0.2729845 -5.0036506e-06 1 -4.3465647e-05 0
0.031786658 -0.15909091 0.27440572 -1.0128143e-05 1 -5.5559176e-05 0
0.044592429 -0.15909091 0.27433506 -1.2343019e-05 1 -6.9932459e-05 0
0.055148162 -0.15909091 0.27696446 -6.3666498e-06 1 -1.6576934e-05 0
0.066294245 -0.15909091 0.27564359 -2.0945525e-05 1 -8.3533152e-05 0
0.07580886 -0.15909091 0.2754119 -1.7160139e-05 1 -4.9138591e-05 0
0.084286384 -0.15909091 0.27568704 4.5482707e-06 1 -8.0491845e-05 0
0.093802847 -0.15909091 0.27465284 2.8175562e-06 1 -6.9755624e-05 0
0.10488026 -0.15909091 0.27433741 -1.9780096e-05 1 -6.9907583e-05 0
0.12308425 -0.15909089 0.27660957 -2.6113805e-05 1 -3.7057092e-05 0
0.13739903 -0.15909091 0.2773039 -0.1657597 0.98616368 -0.0022138017 0.02762562
0.14519261 -0.15909091 0.27371189 -0.40804437 0.91287225 -0.012807632 0.05408819
0.15909094 -0.15283471 0.27661911 -0.88881797 0.45784891 -0.019413156 0.07122726
-0.15909092 -0.14442132 0.27454561 0.93207711 0.36224139 -0.0036695381 0.064763673
0.15909092 -0.14552946 0.27445012 -0.92591232 0.37761 -0.0098484773 0.069984093
-0.15909092 -0.13335852 0.27569044 0.9971298 0.075209536 0.0087002208 0.0089976229
0.15909094 -0.13498388 0.27601251 -0.99019635 0.13832366 -0.019435791 0.020462219
0.15909092 -0.12374308 0.27366075 -1 -3.3198537e-06 -5.3518132e-05 0
-0.15909091 -0.11372321 0.27409241 1 2.0567772e-05 -5.1413124e-05 0
0.15909092 -0.11724515 0.27172145 -1 6.3475604e-06 -1.8106628e-05 0
-0.15909092 -0.10489406 0.27318543 1 2.0058576e-05 -7.2917654e-05 0
-0.15909094 -0.092415929 0.27272525 1 -2.3925531e-07 -6.6642519e-05 0
0.15909092 -0.091475323 0.2719484 -1 1.6446393e-05 -4.8534552e-05 0
-0.15909092 -0.083713196 0.27435848 1 2.6798312e-05 -4.4960314e-05 0
0.15909094 -0.086023003 0.27250606 -1 8.1461912e-06 -4.4682161e-05 0
-0.15909094 -0.076223992 0.27564648 1 2.2710927e-05 -7.4572818e-05 0
0.15909092 -0.077017181 0.27753958 -1 8.5782003e-06 -1.6318552e-05 0
-0.15909092 -0.065906346 0.27392441 1 -4.656184e-06 -1.5195652e-05 0
0.15909094 -0.066076018 0.27205813 -1 -3.2440475e-06 -6.9476882e-05 0
0.15909092 -0.05727141 0.2706452 -1 -1.169314e-05 -5.4171389e-05 0
-0.15909092 -0.042305157 0.27961299 1 -7.5915665e-07 -3.4554618e-05 0
0.15909092 -0.044700786 0.27401695 -1 6.0863531e-06 -1.8169856e-05 0
-0.15909094 -0.038067665 0.27704471 1 4.5401948e-06 -4.9053506e-05 0
0.15909092 -0.035335984 0.27522358 -1 2.7939666e-06 -1.5768021e-05 0
-0.15909092 -0.024730356 0.27484766 1 -1.2506963e-06 -3.4165889e-05 0
0.15909092 -0.026736759 0.27257335 -1 5.2994164e-06 -3.3639986e-05 0
-0.15909092 -0.013909908 0.27553523 1 5.504131e-06 2.2938197e-05 0
0.15909094 -0.016245095 0.2735202 -1 2.9943882e-07 -3.1759148e-05 0
-0.15909092 -0.0046357391 0.27268091 1 2.8297697e-07 -3.0240844e-08 0
0.15909092 -0.0042236019 0.27620608 -1 5.5568844e-06 -4.3134638e-05 0
-0.15909092 0.0057001314 0.27458182 1 5.9022791e-06 -5.4027372e-05 0
0.15909092 0.0069641606 0.27337 -1 -1.9697251e-07 -6.319987e-05 0
-0.15909092 0.015597143 0.27474394 1 -6.2162272e-08 -1.8503923e-05 0
0.15909092 0.015680179 0.27564377 -1 -3.0225217e-06 -4.4571407e-05 0
-0.15909092 0.023591597 0.27847564 1 -2.1939104e-06 1.5598515e-07 0
0.15909092 0.025893122 0.27338445 -1 -1.017607e-05 -7.3389092e-05 0
-0.15909092 0.035297081 0.2726858 1 -4.5419788e-06 -3.291016e-05 0
0.15909092 0.034916826 0.27639785 -1 -5.2712617e-06 -5.710838e-05 0
-0.15909092 0.043280374 0.27147207 1 -1.5740969e-05 -3.3908484e-05 0
0.15909092 0.0435424 0.2778905 -1 -2.5400443e-06 -5.3412248e-05 0
-0.15909092 0.053727683 0.27493611 1 -1.1360259e-05 -6.7173984e-05 0
0.15909094 0.055321503 0.27484509 -1 -9.1137845e-06 -6.2876374e-05 0
-0.15909092 0.066555478 0.27173424 1 1.1535914e-06 -4.7169058e-05 0
0.15909092 0.067514323 0.2735967 -1 -1.2530812e-05 -4.9557882e-05 0
-0.15909092 0.074313611 0.2762064 1 -6.3299431e-06 -5.5258562e-05 0
0.15909094 0.074129492 0.27999064 -1 -1.747247e-05 -3.0969582e-05 0
-0.15909092 0.08467444 0.27413335 1 -3.3183365e-05 -3.8658076e-05 0
0.15909094 0.085309006 0.27635315 -1 -1.0916535e-05 -2.0062676e-05 0
-0.15909092 0.094561376 0.27621591 1 -1.6350627e-05 -7.2308416e-05 0
0.15909092 0.091786183 0.27492702 -1 -8.7738908e-06 -1.9315668e-05 0
-0.15909092 0.1063891 0.274896 1 -1.4467682e-05 -6.688448e-05 0
0.15909092 0.10419893 0.27072883 -1 -1.9273137e-05 -5.0529317e-05 0
-0.15909092 0.1153117 0.27564254 1 -2.3274495e-05 -5.81604e-05 0
0.15909092 0.11384816 0.27666563 -1 -1.6552292e-05 1.0588137e-06 0
-0.15909092 0.12667254 0.27633169 1 -1.2015309e-05 -5.6492598e-05 0
0.15909092 0.12350579 0.27317804 -1 -2.9060711e-05 -0.00010496634 0
-0.15909091 0.13304013 0.27325931 0.99619532 -0.087043941 -0.0042710179 0.011845523
0.15909092 0.13505824 0.27636388 -0.98167551 -0.19049716 -0.004904571 0.024359541
-0.15909092 0.14970212 0.27476043 0.87876469 -0.47398084 -0.055811103 0.073789038
-0.15600169 0.15677071 0.27408841 0.71764272 -0.69228661 -0.075685002 0.072749607
-0.14461337 0.15909091 0.27358544 0.36331975 -0.93143624 -0.020624395 0.073166534
-0.13253134 0.15909091 0.27907741 0.059361011 -0.99820906 0.0074108038 0.005581609
-0.12491113 0.15909089 0.27574846 2.0096273e-05 -1 -1.3839923e-05 0
-0.10548058 0.15909091 0.27238044 7.4192085e-06 -1 -1.7532577e-05 0
-0.093277104 0.15909091 0.27876312 1.0365805e-05 -1 -4.6055378e-05 0
-0.087420039 0.15909089 0.2741338 7.6905853e-06 -1 -3.7581056e-05 0
-0.075939693 0.15909089 0.27501765 1.5370499e-05 -1 -1.8335442e-05 0
-0.062930435 0.15909091 0.27098888 1.3182533e-05 -1 -3.0216277e-05 0
-0.055080537 0.15909091 0.2772015 1.6033076e-05 -1 -2.8356202e-05 0
-0.044838063 0.15909091 0.27474058 5.8268606e-06 -1 -5.4973007e-05 0
-0.033969481 0.15909091 0.27567595 6.3959333e-06 -1 -2.9748198e-05 0
-0.024098959 0.15909091 0.27554017 4.7051567e-06 -1 -3.0432304e-05 0
-0.014087676 0.15909091 0.27090803 3.8120706e-06 -1 1.5487885e-05 0
-0.0053239968 0.15909091 0.27896574 8.2893024e-07 -1 -5.5931782e-08 0
0.009146993 0.15909091 0.27835393 -1.020678e-06 -1 -3.0458719e-05 0
0.013713415 0.15909091 0.27371237 -4.4209323e-06 -1 -1.4943679e-05 0
0.020352393 0.15909091 0.27853528 -4.0690406e-06 -1 -1.6526048e-05 0
0.034598466 0.15909091 0.27470013 -8.7805338e-06 -1 -1.8667917e-05 0
0.046620306 0.15909091 0.27234572 -1.3473428e-06 -1 -4.9362759e-05 0
0.055260818 0.15909091 0.27280954 -1.3719633e-05 -1 -6.1438353e-05 0
0.062655479 0.15909091 0.27067551 -1.7275732e-05 -1 -6.7023677e-05 0
0.078061581 0.15909091 0.27118334 -1.474949e-05 -1 -1.3814743e-05 0
0.085415043 0.15909091 0.27537063 -3.027202e-05 -1 -8.1445382e-05 0
0.096391678 0.15909091 0.27443844 -1.8046034e-05 -1 -1.8151015e-05 0
0.1044094 0.15909089 0.27559772 -6.9394737e-06 -1 -5.3745494e-05 0
0.11666674 0.15909091 0.27344051 -1.1540317e-05 -1 -8.8691282e-05 0
0.12213652 0.15909091 0.2740092 -1.3258372e-05 -1 -7.6985212e-05 0
0.13422279 0.15909091 0.27707297 -0.11563481 -0.99320334 0.013256699 0.016116463
0.14444998 0.15909091 0.27572566 -0.34763059 -0.93633825 0.049231604 0.063581876
0.15465745 0.15778139 0.27514458 -0.59630603 -0.79905301 0.077028848 0.087349579
-0.15897858 -0.15651369 0.28619531 0.75564253 0.65493095 0.0083589554 0.076677121
-0.14506705 -0.15909091 0.28347412 0.28987288 0.95665026 0.028179877 0.051777545
-0.13763736 -0.15909091 0.28822935 0.16045544 0.98698026 0.011138854 0.024716763
-0.12683943 -0.15909091 0.28508052 1.326927e-05 1 -4.4531742e-05 0
-0.11810645 -0.15909091 0.28039482 2.9858034e-05 1 -1.1847765e-05 0
-0.093081549 -0.15909091 0.28280056 1.3048201e-05 1 -5.0197508e-05 0
-0.083965734 -0.15909091 0.28829783 2.4109635e-05 1 -9.0686099e-06 0
-0.074048825 -0.15909091 0.28483766 1.2891425e-05 1 1.6176467e-06 0
-0.065088078 -0.15909091 0.28496951 5.75595e-06 1 -8.6134198e-05 0
-0.053488515 -0.15909091 0.28985852 2.1427777e-05 1 -3.2457374e-05 0
-0.044712219 -0.15909091 0.28124699 8.0051032e-06 1 -4.9165512e-05 0
-0.033949446 -0.15909089 0.2856665 -1.1462599e-06 1 -5.5519515e-05 0
-0.022256911 -0.15909091 0.28500307 1.1991068e-05 1 -3.765582e-05 0
-0.0075388383 -0.15909091 0.28556627 1.7186229e-06 1 -1.7247845e-05 0
0.0095796529 -0.15909091 0.285496 -1.3206498e-05 1 -6.3992251e-05 0
0.01484708 -0.15909091 0.28554091 8.2578674e-07 1 -6.375277e-05 0
0.022471717 -0.15909091 0.28548515 1.0386479e-05 1 -7.1380666e-05 0
0.035478786 -0.15909091 0.28592229 -6.9529628e-06 1 -4.8676768e-05 0
0.046763014 -0.15909091 0.28272167 -1.6664131e-05 1 -4.4315839e-05 0
0.052571036 -0.15909091 0.28536543 -2.9390728e-06 1 -6.5891683e-05 0
0.063053392 -0.15909091 0.28548485 4.0887294e-06 1 -5.1918407e-05 0
0.077101327 -0.15909091 0.28486985 -1.3490095e-05 1 -6.0529597e-05 0
0.085035942 -0.15909091 0.28397998 -1.0925285e-05 1 -3.0859155e-05 0
0.096020475 -0.15909091 0.28462958 -1.7911434e-05 1 -8.3405888e-05 0
0.10554534 -0.15909092 0.28638089 -1.2234133e-05 1 -7.3792966e-05 0
0.11907034 -0.15909091 0.28878051 -3.3968528e-05 1 -3.0943407e-05 0
0.1256488 -0.15909091 0.28545785 -2.6894279e-05 1 1.6497595e-05 0
0.13424739 -0.15909091 0.28406346 -0.14749642 0.98899513 0.011552717 0.026528038
0.14830053 -0.15909091 0.28425267 -0.3994222 0.91581309 0.041811608 0.063849263
0.15638742 -0.15880692 0.28433812 -0.70027035 0.71156973 0.057359077 0.077625565
-0.15909092 -0.14604473 0.28559783 0.90259194 0.4277139 -0.048872728 0.069480203
0.15909092 -0.14310683 0.28308889 -0.93836886 0.34488839 0.022711707 0.052864429
-0.15909092 -0.13436806 0.28837937 0.99591142 0.089906216 0.0088001285 0.011435283
0.15909094 -0.13702199 0.28599358 -0.98601514 0.16588885 0.015973786 0.01923186
-0.15909094 -0.12445748 0.28354466 1 4.9059097e-05 -8.3662104e-05 0
0.15909092 -0.12457761 0.28578126 -1 1.0258938e-05 -2.864039e-05 0
-0.15909092 -0.11534062 0.28564718 1 9.6222621e-08 -6.6140972e-05 0
-0.15909094 -0.10574561 0.28506783 1 1.2602791e-05 -6.6942455e-05 0
0.15909094 -0.10363515 0.28613207 -1 8.7516391e-06 -7.4583404e-05 0
-0.15909092 -0.09743537 0.28815928 1 -3.526724e-07 -1.6125819e-05 0
0.15909094 -0.09202373 0.28320506 -1 1.05862e-05 -1.5277794e-05 0
-0.15909094 -0.08931163 0.28978959 1 1.0170221e-05 -4.8275524e-05 0
0.15909092 -0.083294906 0.2885941 -1 2.4970786e-06 1.6533299e-05 0
-0.15909094 -0.075298317 0.2860195 1 1.2045987e-05 -5.2535848e-05 0
0.15909092 -0.072941594 0.28392556 -1 1.6075252e-05 -5.3945561e-05 0
-0.15909094 -0.069781527 0.28625283 1 -3.4810271e-06 -1.5976222e-05 0
0.15909092 -0.066324003 0.28280005 -1 1.2666344e-05 -1.7546421e-05 0
-0.15909092 -0.052957654 0.28656563 1 7.4245118e-06 -3.8049628e-05 0
0.15909094 -0.055597391 0.28113374 -1 2.8023449e-06 -3.2558804e-05 0
-0.15909092 -0.043820966 0.28748417 1 7.9122801e-06 -5.394702e-05 0
0.15909092 -0.044958998 0.28477207 -1 3.8948352e-07 -1.5569081e-05 0
-0.15909092 -0.034592606 0.28884751 1 4.2076936e-06 -1.7790398e-05 0
0.15909092 -0.033990033 0.28321338 -1 1.0042028e-05 -3.382445e-05 0
-0.15909092 -0.023443965 0.28613022 1 -1.4081766e-06 -5.2608713e-05 0
0.15909092 -0.024542812 0.2837531 -1 1.5807547e-06 1.5916235e-05 0
-0.15909092 -0.01552438 0.28510934 1 3.226987e-06 -5.3549447e-05 0
0.15909094 -0.014893897 0.28465044 -1 3.2447451e-06 -1.2200597e-07 0
-0.15909092 -0.0061707008 0.28316471 1 -2.9499208e-06 -3.2302236e-05 0
0.15909092 -0.0065063741 0.28382367 -1 0 0 0
-0.15909091 0.0060331537 0.28445238 1 6.8075719e-06 -8.9610206e-05 0
0.15909092 0.0099260136 0.28573948 -1 -1.7905057e-06 -1.7498814e-05 0
-0.15909091 0.015164047 0.2877371 1 5.7067899e-07 -6.1134167e-05 0
0.15909094 0.015404433 0.28467098 -1 -7.149843e-06 -3.892825e-05 0
-0.15909092 0.02785109 0.28708494 1 -1.580613e-05 -8.3557985e-05 0
0.15909092 0.025388278 0.28666624 -1 -6.0653356e-06 -1.6332937e-05 0
-0.15909092 0.035037369 0.28677949 1 -1.639686e-05 -4.9670434e-05 0
0.15909091 0.032640636 0.28935981 -1 -1.6268696e-05 -5.6212401e-05 0
-0.15909092 0.046285849 0.2852492 1 -1.1699235e-05 -6.6506595e-07 0
-0.15909092 0.054732729 0.28500971 1 -3.4931993e-06 -5.1135368e-05 0
0.15909094 0.058821984 0.28155971 -1 1.8999754e-06 -5.3496326e-05 0
-0.15909094 0.065957204 0.2837559 1 -5.4336601e-07 -2.942333e-05 0
0.15909094 0.067196049 0.28717229 -1 -1.9389381e-05 -4.7691443e-05 0
-0.15909092 0.076697908 0.28548062 1 -1.1532479e-05 1.2406776e-06 0
-0.15909092 0.085112676 0.2856265 1 -3.4508947e-05 -4.813225e-05 0
0.15909092 0.086864822 0.2845262 -1 -9.8586552e-06 -6.4853615e-05 0
-0.15909092 0.095579684 0.2840375 1 -3.0118272e-05 -5.2159921e-05 0
0.15909091 0.096371651 0.28515393 -1 -1.7274617e-05 -3.6468497e-05 0
-0.15909092 0.10642251 0.28233588 1 -1.535254e-05 1.8834058e-05 0
0.15909091 0.10469715 0.284693 -1 -1.4695711e-05 -1.1620527e-06 0
-0.15909092 0.11559744 0.28628337 1 -7.6442129e-06 -3.0600862e-05 0
0.15909092 0.11520833 0.2852537 -1 -1.7771594e-05 -8.0686914e-05 0
-0.15909092 0.12452045 0.28389847 1 -6.5372683e-06 -1.5989599e-05 0
0.15909092 0.12597668 0.28702003 -1 -3.2809985e-05 -6.4192027e-05 0
-0.15909092 0.13427106 0.28663498 0.99422008 -0.10581408 0.018161133 0.014748468
0.15909092 0.13352497 0.28400147 -0.99595243 -0.089775361 -0.0043754382 0.012433232
-0.15909092 0.14579864 0.28342903 0.95615721 -0.29231337 -0.01778443 0.045022298
0.15909092 0.1467841 0.28347704 -0.87352377 -0.48639321 0.019439466 0.081636012
-0.15485762 0.15828963 0.28360069 0.68929374 -0.72427309 -0.017399181 0.078010201
-0.14389712 0.15909091 0.28634471 0.30480102 -0.95241386 -0.0020456417 0.05040101
-0.13955398 0.15909091 0.28780487 0.19440712 -0.98058587 -0.025636604 0.025003983
-0.12395462 0.15909091 0.28489825 3.866206e-05 -1 -5.7454381e-05 0
-0.11291582 0.15909091 0.28437695 7.0847559e-06 -1 -1.6580118e-05 0
-0.10744461 0.15909091 0.28834358 1.7819924e-05 -1 -1.6216656e-05 0
-0.09252236 0.15909091 0.28549129 9.3552235e-06 -1 -9.5020929e-05 0
-0.085842319 0.15909091 0.28638524 -7.0587362e-07 -1 -5.4053977e-05 0
-0.075360075 0.15909091 0.28295487 1.3163738e-05 -1 -7.6403951e-05 0
-0.065230682 0.15909091 0.28374371 8.7280278e-06 -1 -7.5758806e-05 0
-0.053945757 0.15909091 0.28463656 1.2367713e-05 -1 -4.3942724e-05 0
-0.044475287 0.15909091 0.28877136 1.2920552e-05 -1 -8.3774408e-05 0
-0.036045671 0.15909089 0.284439 1.746292e-05 -1 -5.7759298e-05 0
-0.01643829 0.15909089 0.28428635 1.4453586e-06 -1 -7.1388022e-05 0
0.004004987 0.15909091 0.28367531 -4.7472381e-07 -1 -3.5746536e-05 0
0.013394159 0.15909091 0.28599027 -1.0470898e-06 -1 7.8819575e-08 0
0.021662982 0.15909091 0.2860347 -5.0053695e-06 -1 -1.5955629e-05 0
0.035694465 0.15909091 0.28254813 -1.0071331e-05 -1 -4.8692797e-05 0
0.042018853 0.15909091 0.28172678 -2.6196622e-06 -1 -1.7521417e-05 0
0.054463662 0.15909091 0.28671795 -2.4048317e-05 -1 -6.0363342e-05 0
0.066322736 0.15909091 0.28736261 -1.5370922e-05 -1 -3.0574462e-05 0
0.076722838 0.15909091 0.28673384 -1.4362414e-05 -1 -3.2920718e-05 0
0.083216526 0.15909091 0.28415641 -2.3669438e-05 -1 -6.4402171e-05 0
0.095470265 0.15909091 0.28477573 -2.4172889e-05 -1 -3.4421028e-05 0
0.10048837 0.15909091 0.28040567 -2.46619e-05 -1 -1.5022546e-05 0
0.11469658 0.15909091 0.28379747 5.3508697e-06 -1 -5.5886034e-05 0
0.12167202 0.15909091 0.28686243 -1.425119e-06 -1 -8.9434528e-05 0
0.1347539 0.15909091 0.28352782 -0.071223617 -0.99745303 0.0038255514 0.010286878
0.14542471 0.15909091 0.28258896 -0.37525091 -0.92683256 0.012971117 0.074069545
0.15594429 0.15884684 0.28556499 -0.68989956 -0.72238034 0.04695997 0.083146788
-0.15614741 -0.15845034 0.29360825 0.72330368 0.68532932 -0.084589981 0.079360217
-0.1427256 -0.15909091 0.29571113 0.23829496 0.97044605 0.03807991 0.046364713
-0.13327184 -0.15909091 0.29354447 0.11568239 0.99326259 0.006859649 0.017902892
-0.12300071 -0.15909091 0.29426581 2.339656e-05 1 -6.0129394e-05 0
-0.11658072 -0.15909091 0.29373834 2.2484201e-05 1 -1.5608338e-06 0
-0.10398337 -0.15909091 0.29511949 1.8763478e-05 1 -3.5481971e-05 0
-0.091145106 -0.15909091 0.29621518 2.6107433e-05 1 -3.344323e-05 0
-0.086777702 -0.15909091 0.29517835 6.9349362e-06 1 -3.6459747e-05 0
-0.076747231 -0.15909091 0.29676113 2.0281404e-05 1 -2.59272e-06 0
-0.065014049 -0.15909091 0.29422617 1.7849832e-05 1 -7.7740726e-05 0
-0.053348355 -0.15909091 0.29478085 -0 1 -0 0
-0.043301519 -0.15909091 0.29468518 1.4374761e-05 1 -8.1572289e-05 0
-0.02300531 -0.15909091 0.2901217 2.9923901e-06 1 -3.1561318e-05 0
-0.016704889 -0.15909089 0.29469064 -8.6261216e-06 1 -8.4415849e-05 0
-0.0039905333 -0.15909091 0.29392907 1.198806e-06 1 -2.2186461e-05 0
0.0025260267 -0.15909091 0.29363984 2.8390329e-07 1 -4.031424e-05 0
0.014041399 -0.15909091 0.29405946 -1.7052942e-06 1 -5.6010118e-05 0
0.027625382 -0.15909091 0.29541934 -1.1039316e-06 1 1.5620961e-05 0
0.034628645 -0.15909089 0.29429978 6.118667e-06 1 -8.1619044e-05 0
0.04876893 -0.15909091 0.29677051 -4.5385927e-06 1 2.8719364e-07 0
0.054724831 -0.15909091 0.29424775 -1.6679314e-05 1 -5.6918445e-05 0
0.064424582 -0.15909091 0.29842019 -1.0593979e-05 1 -7.2176372e-05 0
0.078328922 -0.15909091 0.2942155 3.3642382e-07 1 -3.5216279e-05 0
0.084603935 -0.15909091 0.2964642 -7.6392434e-06 1 -3.6669939e-05 0
0.096110284 -0.15909089 0.29635397 -1.0248586e-05 1 -3.4137821e-07 0
0.10216411 -0.15909091 0.29378748 -1.6289745e-05 1 -1.8445533e-05 0
0.1148267 -0.15909091 0.29341596 -2.7449567e-05 1 -1.3878413e-05 0
0.12598316 -0.15909091 0.2935333 -4.7863296e-06 1 -5.4369029e-05 0
0.13275047 -0.15909091 0.29471558 -0.074140355 0.99721158 -0.0085075377 0.0088353707
0.14755747 -0.15909091 0.29904169 -0.44597432 0.8945725 -0.029103175 0.068430386
0.15630156 -0.15691194 0.29537934 -0.79399031 0.60020113 0.096633211 0.08049617
-0.15909094 -0.14588054 0.29447493 0.87461072 0.48159006 -0.05592088 0.07654427
0.15909092 -0.14819938 0.29766423 -0.91998559 0.39152232 0.018348383 0.072978675
-0.15909092 -0.13503079 0.29526475 0.98933119 0.14242043 -0.030662876 0.022624288
0.15909094 -0.13105962 0.29224592 -0.99969798 0.024514828 -0.0017340679 0.00075847126
-0.15909092 -0.12446354 0.29427689 1 2.4075625e-05 -6.5740001e-05 0
0.15909092 -0.12894814 0.29679 -0.99984092 0.017836394 -0.00012025953 0.00056789123
-0.15909092 -0.11547052 0.29570433 1 -0 -0 0
0.15909092 -0.11622248 0.29780072 -1 8.9027371e-06 -9.9383112e-07 0
-0.15909094 -0.10295574 0.2922492 1 -1.1662883e-06 -3.5298333e-05 0
0.15909092 -0.10686467 0.29329801 -1 2.5585863e-05 -9.3664792e-05 0
-0.15909092 -0.099634312 0.2910895 1 5.1670258e-06 -4.6975929e-05 0
0.15909092 -0.095355317 0.29264778 -1 3.448288e-05 -2.2494618e-05 0
-0.15909094 -0.085964002 0.29588723 1 7.7250097e-06 -4.7804431e-05 0
0.15909092 -0.085329354 0.29475376 -1 8.3068153e-06 -1.5499636e-05 0
-0.15909094 -0.075223945 0.29578647 1 -5.9430154e-06 1.7968268e-05 0
0.15909094 -0.075193949 0.2922833 -1 -1.0423284e-05 9.2824058e-07 0
-0.15909094 -0.066890918 0.29446331 1 2.0249568e-06 1.6400063e-05 0
0.15909094 -0.064286262 0.29786438 -1 2.9035673e-06 -3.1456788e-05 0
-0.15909094 -0.055092037 0.29311985 1 8.6163627e-06 -1.0248683e-06 0
0.15909092 -0.055207592 0.29511428 -1 3.7951743e-06 -1.4056352e-05 0
-0.15909091 -0.043276712 0.29364723 1 1.6466054e-06 -5.5172506e-05 0
0.15909094 -0.041398555 0.29685754 -1 2.7980929e-07 1.5700645e-05 0
-0.15909092 -0.032031938 0.29225829 1 2.6322339e-06 1.9527817e-05 0
0.15909092 -0.033195458 0.29670525 -1 -3.7502934e-06 -8.3817729e-05 0
-0.15909094 -0.025549375 0.29494068 1 7.2827947e-07 -1.7501918e-05 0
0.15909092 -0.027318338 0.29558235 -1 7.1525469e-06 -1.809282e-05 0
0.15909092 -0.012806089 0.2930474 -1 2.5814438e-06 -6.1993698e-05 0
-0.15909091 -0.0053926148 0.29225075 1 3.3859527e-07 -1.7560593e-05 0
0.15909094 -0.0034750141 0.29516566 -1 4.2226335e-07 -3.3688168e-05 0
-0.15909092 0.00065590814 0.29033339 1 7.2836593e-07 -3.1767522e-05 0
0.15909092 0.0056647183 0.29427671 -1 -5.2342907e-06 -3.7610556e-05 0
-0.15909091 0.016466515 0.29171348 1 1.9069212e-08 -4.3941793e-05 0
0.15909094 0.016296091 0.29125452 -1 -2.0744719e-06 -1.6589036e-05 0
-0.15909094 0.023214679 0.29866019 1 -6.3411803e-06 1.7087488e-05 0
0.15909092 0.023830449 0.29610491 -1 2.3594637e-06 1.8324231e-07 0
-0.15909094 0.036423128 0.29311493 1 -7.9474094e-06 -1.5700873e-05 0
0.15909092 0.036296334 0.29819906 -1 -3.8698313e-06 -7.9053934e-05 0
-0.15909092 0.048198577 0.2936964 1 -1.204103e-05 -4.2413922e-05 0
0.15909094 0.045027334 0.2951645 -1 -6.736906e-06 -1.4534735e-05 0
-0.15909092 0.05763286 0.2940138 1 -3.6626564e-06 -3.6316491e-05 0
0.15909094 0.052003033 0.29444426 -1 4.7508975e-06 -3.6784848e-05 0
0.15909094 0.06358663 0.29303923 -1 -9.381946e-07 -3.2152977e-05 0
-0.15909092 0.077120282 0.29266107 1 -1.8737213e-06 -1.6114727e-05 0
0.15909092 0.077718392 0.2948595 -1 -2.1816333e-05 -6.9297072e-05 0
-0.15909092 0.082357436 0.29040733 1 1.1728313e-06 -3.1380419e-05 0
0.15909092 0.082368106 0.29868993 -1 -2.2154965e-05 -4.2491425e-05 0
-0.15909092 0.093901038 0.29918772 1 9.2807486e-06 -1.4705664e-05 0
-0.15909092 0.10353336 0.29752928 1 -9.4262605e-06 -5.3819935e-05 0
0.15909092 0.10424835 0.29707444 -1 -1.5150565e-05 -3.0098687e-05 0
-0.15909092 0.11783057 0.29333609 1 -1.5216375e-05 8.5216124e-07 0
0.15909092 0.11509565 0.29591393 -1 -4.121074e-05 -6.3399617e-05 0
-0.15909092 0.12616669 0.29382852 0.99997103 -0.0076106698 0.0002594199 0.00010861553
0.15909092 0.12557064 0.29463023 -1 -3.5687463e-05 -4.3547196e-05 0
-0.15909092 0.13393059 0.29336095 0.99441689 -0.10551041 -0.0016252401 0.016956707
-0.15909092 0.14558977 0.29847461 0.93658644 -0.34766313 0.044003315 0.05590133
0.15909092 0.14448319 0.29565498 -0.92242324 -0.38617778 -0.0014276301 0.06781517
-0.15778586 0.15509602 0.29506916 0.78573102 -0.61399549 -0.075074844 0.085931741
-0.14389831 0.15909091 0.29560491 0.31143445 -0.95016122 -0.014223075 0.048136506
-0.13396746 0.15909091 0.294727 0.088594846 -0.99602824 -0.0088721607 0.012277033
-0.12234867 0.15909091 0.29789504 3.4854311e-05 -1 -3.963886e-05 0
-0.11489195 0.15909091 0.29253194 3.1165229e-05 -1 -0.00010273695 0
-0.10938054 0.15909091 0.29741627 3.3317112e-05 -1 -3.511367e-05 0
-0.09528058 0.15909091 0.29470897 1.377542e-05 -1 -3.0602838e-05 0
-0.085156523 0.15909091 0.29771131 8.3098621e-06 -1 -1.5624695e-05 0
-0.074043632 0.15909091 0.29776374 2.6071848e-06 -1 -5.6954847e-05 0
-0.062139809 0.15909091 0.29227772 1.1005485e-05 -1 -6.0017675e-05 0
-0.052888766 0.15909089 0.29397944 8.5213132e-06 -1 -1.8376517e-05 0
-0.043217473 0.15909091 0.29933089 1.5164393e-05 -1 -5.0352388e-05 0
-0.030188013 0.15909091 0.29959634 9.6127915e-06 -1 -9.2929215e-05 0
-0.02088085 0.15909091 0.29812866 5.0296683e-07 -1 -4.6196412e-05 0
-0.015792828 0.15909091 0.29704928 9.0528965e-06 -1 -3.3306915e-05 0
-0.0049687461 0.15909091 0.29428902 -2.7214179e-07 -1 -1.4050313e-05 0
0.0049564564 0.15909091 0.29376662 -1.2630014e-07 -1 -1.5534419e-05 0
0.012343436 0.15909091 0.2974093 7.5168509e-07 -1 -9.6377713e-05 0
0.026797686 0.15909091 0.29349786 -3.0357037e-06 -1 -4.2381704e-05 0
0.038207769 0.15909091 0.29481444 -1.3008465e-05 -1 -9.0940426e-05 0
0.04412929 0.15909091 0.29394594 -8.0039481e-06 -1 -3.7411599e-05 0
0.055284418 0.15909091 0.29428452 -6.8860172e-06 -1 -4.6223646e-05 0
0.064632349 0.15909089 0.29509962 -5.4809416e-06 -1 -6.2963787e-05 0
0.07536196 0.15909091 0.29072449 -5.8032319e-06 -1 -4.756499e-05 0
0.084755912 0.15909091 0.29974848 -2.7591975e-06 -1 -3.3860673e-05 0
0.094762146 0.15909089 0.2960951 -1.8539906e-05 -1 -3.4685712e-05 0
0.10463221 0.15909091 0.29416606 -3.5953188e-05 -1 -5.1369476e-05 0
0.11656267 0.15909091 0.29535431 -6.2789527e-06 -1 -1.9866799e-05 0
0.12478048 0.15909091 0.29575491 2.7587935e-06 -1 -3.9150524e-05 0
0.13499027 0.15909091 0.29520094 -0.1303712 -0.99125248 0.020542787 0.022515796
0.14329691 0.15909091 0.2939806 -0.24315314 -0.96792483 -0.063230507 0.050955519
0.15760501 0.15909091 0.29785404 -0.6398105 -0.76799709 0.028686557 0.066522226
-0.15570997 -0.15710185 0.30444279 0.62655669 0.77843702 -0.038242716 0.08191219
-0.14642797 -0.15909089 0.30391952 0.44823658 0.89246845 -0.050833356 0.069278024
-0.13532947 -0.15909091 0.30702874 0.148094 0.98895377 0.0062163617 0.023757728
-0.12597387 -0.15909091 0.30358031 0.010420905 0.99994546 0.00071373198 0.0002860057
-0.11127885 -0.15909091 0.30027702 2.861714e-05 1 -5.1568481e-05 0
-0.10390995 -0.15909091 0.30334651 1.5534491e-05 1 -8.0806336e-07 0
-0.093152694 -0.15909091 0.30333275 1.1525753e-05 1 -1.5331321e-05 0
-0.073106565 -0.15909091 0.30268726 1.4155686e-05 1 -4.90282e-05 0
-0.056275077 -0.15909091 0.30360511 1.0593218e-05 1 -5.219681e-05 0
-0.042538576 -0.15909091 0.30801594 -1.1564256e-07 1 -1.7449618e-05 0
-0.038288966 -0.15909091 0.30496484 -3.9751053e-06 1 -7.6796481e-05 0
-0.023924757 -0.15909091 0.30130118 3.6508923e-06 1 -3.632866e-05 0
-0.013278533 -0.15909091 0.30222681 7.7789565e-07 1 -7.6755823e-05 0
-0.0059803943 -0.15909091 0.30832338 1.0558373e-05 1 -6.0509807e-05 0
0.015900675 -0.15909091 0.30195338 5.1550069e-06 1 -4.5885488e-05 0
0.035094481 -0.15909091 0.30368569 -8.48332e-06 1 -3.3684457e-05 0
0.046686072 -0.15909091 0.30233026 -4.8405186e-06 1 -7.089851e-05 0
0.057431966 -0.15909091 0.30576134 -8.8111601e-06 1 -3.2690426e-05 0
0.068839945 -0.15909091 0.30615133 -1.5146813e-05 1 -7.2208437e-05 0
0.07409586 -0.15909091 0.305316 -2.9404123e-07 1 -4.9544407e-05 0
0.084809706 -0.15909091 0.30539685 -2.2639273e-05 1 -4.4670389e-05 0
0.094817564 -0.15909091 0.30294925 -1.7259328e-05 1 -6.3719846e-05 0
0.10294745 -0.15909092 0.30673987 -2.3257193e-05 1 -4.9642229e-05 0
0.11292738 -0.15909091 0.30752438 -7.8919848e-06 1 -4.5958299e-05 0
0.12487761 -0.15909089 0.3058975 -9.7849643e-06 1 -1.378146e-05 0
0.13734326 -0.15909091 0.3044183 -0.18515146 0.98198086 -0.037849825 0.031130519
0.15816791 -0.15614437 0.30691376 -0.78078049 0.6246655 0.013225529 0.07767994
0.15909094 -0.14394081 0.30557436 -0.95826721 0.28586897 0.00170999 0.044259001
-0.15909094 -0.13466407 0.30403408 0.99080247 0.13216692 -0.029025178 0.018449355
0.15909092 -0.13568445 0.30721623 -0.99345899 0.11314501 0.015409375 0.016055636
-0.15909092 -0.12339198 0.3063572 1 1.9099869e-05 -1.613691e-05 0
0.15909092 -0.12466185 0.30647638 -1 4.1960669e-05 -5.1284536e-05 0
-0.15909092 -0.1144095 0.30437297 1 1.6393637e-05 -7.520958e-05 0
0.15909092 -0.11289255 0.30374217 -1 -0 -0 0
-0.15909092 -0.10955776 0.30939901 1 1.3481452e-05 -7.0815811e-05 0
0.15909091 -0.10492332 0.30644086 -1 3.1488025e-07 -2.2037158e-05 0
-0.15909091 -0.094744079 0.30479047 1 6.3696834e-06 -9.9765246e-05 0
0.15909092 -0.096742317 0.30331838 -1 -3.8952885e-06 -9.7128643e-05 0
-0.15909092 -0.08513391 0.30379084 1 1.2692094e-05 -4.9349197e-05 0
0.15909092 -0.083643973 0.30233374 -1 2.0605419e-05 -7.0939925e-05 0
-0.15909092 -0.075109929 0.30455443 1 1.4739651e-05 -8.4553823e-05 0
0.15909091 -0.073275208 0.30465862 -1 2.2579528e-05 -0.00011947951 0
-0.15909092 -0.062792234 0.30295184 1 -1.7381632e-06 1.9598918e-05 0
0.15909092 -0.063788995 0.305884 -1 6.7893479e-06 -6.4084263e-05 0
-0.15909092 -0.052128218 0.30482149 1 8.0006394e-06 -2.1053713e-05 0
0.15909091 -0.055520207 0.30537921 -1 5.0595254e-06 -6.3549996e-05 0
-0.15909092 -0.046433952 0.30520546 1 1.495836e-05 -1.473914e-05 0
0.15909092 -0.043480121 0.30648988 -1 5.429782e-06 -7.4355834e-05 0
-0.15909094 -0.035747401 0.30156493 1 1.168288e-05 -3.0762236e-05 0
0.15909094 -0.035844471 0.30688921 -1 -3.6350154e-06 1.9387915e-05 0
-0.15909094 -0.024921274 0.30490786 1 -8.7061764e-08 -1.9509092e-05 0
0.15909094 -0.026739093 0.3036291 -1 3.5032817e-06 -5.0965769e-05 0
-0.15909092 -0.015107042 0.30588269 1 2.0565612e-06 -6.0737908e-05 0
0.15909092 -0.011306152 0.30615801 -1 -1.310809e-06 -1.852481e-05 0
-0.15909092 -0.0056619868 0.3082017 1 -5.1993784e-06 -6.1009981e-05 0
0.15909092 -0.0067762234 0.30709967 -1 2.3556963e-06 -8.3496336e-05 0
-0.15909092 0.0078541432 0.30626053 1 -7.155656e-06 -7.8714453e-05 0
0.15909092 0.0075941458 0.30493739 -1 -3.1995078e-06 -1.9525796e-05 0
-0.15909094 0.01315874 0.30686489 1 -1.2890499e-05 -8.5275475e-05 0
0.15909091 0.013682295 0.30729529 -1 -6.0267644e-06 -3.2383447e-05 0
-0.15909092 0.023822697 0.30654132 1 -8.6733553e-06 -5.0331204e-05 0
0.15909092 0.026493361 0.30657279 -1 -6.2525709e-07 -1.6777014e-05 0
-0.15909092 0.035937767 0.30421618 1 -2.7353829e-06 -6.0226706e-05 0
0.15909092 0.034086946 0.30892539 -1 -6.3969937e-06 1.9041543e-05 0
0.15909092 0.055133324 0.30468786 -1 -1.2704379e-05 -9.0865899e-05 0
-0.15909092 0.066667311 0.30132362 1 -1.7391023e-05 -4.0314215e-05 0
0.15909092 0.06408482 0.30581734 -1 -1.1351183e-05 -6.0153667e-05 0
-0.15909092 0.077723667 0.30141234 1 -8.9671857e-06 -6.0007573e-05 0
0.15909092 0.075291425 0.30511177 -1 -1.3507643e-05 -1.7257009e-05 0
-0.15909092 0.085801691 0.30762106 1 -1.5808471e-05 -1.2930069e-06 0
0.15909092 0.081366874 0.30236825 -1 -1.9488361e-05 -0.00012051916 0
-0.15909092 0.096262962 0.30703831 1 -1.4007864e-05 -3.9479291e-05 0
0.15909092 0.093698196 0.30562046 -1 -2.0881886e-05 -1.9908666e-05 0
-0.15909092 0.10383946 0.30387515 1 -1.6998049e-05 1.973882e-05 0
0.15909092 0.10667837 0.30599141 -1 -2.2557153e-06 -4.791858e-05 0
0.15909092 0.11282068 0.306622 -1 -4.5021097e-05 -5.8200476e-05 0
-0.15909092 0.12515283 0.30444261 1 -8.5553602e-06 -5.1519859e-05 0
0.15909092 0.12424792 0.3045142 -1 -3.2269923e-05 -1.2105505e-05 0
-0.15909092 0.13490784 0.30896565 0.98973012 -0.14292839 -0.0023826882 0.015269395
0.15909092 0.13561423 0.30331016 -0.98775029 -0.15580851 0.00855585 0.029628811
-0.15909092 0.14503825 0.30446029 0.92716455 -0.37079737 0.053620741 0.053904515
0.15909094 0.14587893 0.30733269 -0.91300631 -0.4037925 0.058061138 0.067875355
-0.15725437 0.15642609 0.30549395 0.70241374 -0.70926863 0.059606995 0.078431606
-0.14892305 0.15909091 0.30797243 0.37130269 -0.92850637 -0.0032016388 0.057421371
-0.13274281 0.15909091 0.30517828 0.085416175 -0.9961639 0.019016527 0.011858672
-0.12387452 0.15909091 0.30435672 1.1725947e-05 -1 -2.032542e-05 0
-0.11546503 0.15909091 0.30634603 2.3024333e-05 -1 -3.8345039e-05 0
-0.10507582 0.15909091 0.30621284 2.2374157e-05 -1 -6.2140149e-05 0
-0.095314719 0.15909091 0.30518168 1.9762696e-05 -1 -5.8492966e-05 0
-0.083199717 0.15909089 0.30661961 8.2185925e-06 -1 -1.519324e-05 0
-0.057533398 0.15909091 0.30571002 1.3952464e-05 -1 -4.8060607e-05 0
-0.04571604 0.15909091 0.30683321 9.1289239e-06 -1 -5.2018997e-05 0
-0.036831606 0.15909091 0.30077016 8.8533143e-06 -1 -4.550461e-05 0
-0.023100087 0.15909091 0.30748129 9.2959699e-06 -1 -7.4171228e-05 0
-0.015980337 0.15909091 0.30316597 -4.5959032e-06 -1 -9.327507e-05 0
-0.0024220452 0.15909091 0.30407101 -7.6589295e-06 -1 -7.7637065e-05 0
0.0063100103 0.15909091 0.30615792 2.4177507e-07 -1 -1.6631002e-05 0
0.01465952 0.15909091 0.30346107 -4.0138307e-06 -1 -4.2745578e-05 0
0.024697838 0.15909091 0.30649462 -7.2445e-06 -1 -3.232712e-05 0
0.033968765 0.15909091 0.30647349 -1.7396633e-06 -1 -4.9477287e-05 0
0.049015261 0.15909091 0.3024413 -1.4704177e-05 -1 -6.91604e-05 0
0.054538883 0.15909091 0.30550331 -1.0418448e-05 -1 -6.2201812e-05 0
0.067606024 0.15909091 0.30000967 -2.1450237e-06 -1 -4.8451795e-05 0
0.079016268 0.15909091 0.30943573 -7.874427e-06 -1 -1.5186344e-05 0
0.085632995 0.15909091 0.30381685 -2.705437e-05 -1 -1.5819258e-05 0
0.092811316 0.15909091 0.30828312 -1.5446665e-05 -1 -7.3337396e-05 0
0.10258949 0.15909091 0.30528381 -2.0499761e-05 -1 -6.200128e-05 0
0.11768056 0.15909091 0.30578053 -1.5363421e-05 -1 -6.1491701e-05 0
0.12499249 0.15909089 0.30430281 -4.8846837e-06 -1 -1.8945984e-05 0
0.1353599 0.15909091 0.30432466 -0.1429669 -0.98969281 0.0082904501 0.025489748
0.14212933 0.15909091 0.30473575 -0.29448104 -0.9551605 -0.030811816 0.048670411
0.15770446 0.15634643 0.30473167 -0.60754716 -0.79341489 -0.03713765 0.069576763
-0.15690131 -0.1569131 0.31543955 0.70106429 0.71121722 -0.051758774 0.086110927
-0.14453378 -0.15909091 0.31050283 0.35764849 0.93313777 -0.036624692 0.070017524
-0.13515158 -0.15909091 0.31684399 0.095168859 0.99546087 -0.00066718692 0.013839925
-0.12618931 -0.15909091 0.31515193 4.3072716e-05 1 -1.8160812e-05 0
-0.11579186 -0.15909091 0.3151463 3.2075914e-05 1 -1.6900427e-05 0
-0.10199976 -0.15909091 0.31478736 1.129037e-05 1 -5.0782128e-05 0
-0.095184699 -0.15909091 0.31585285 1.7671655e-05 1 -1.1890032e-05 0
-0.086321831 -0.15909091 0.31394878 1.812072e-05 1 -3.4618712e-05 0
-0.076842852 -0.15909091 0.31219164 5.1457282e-06 1 -2.6944334e-05 0
-0.060449664 -0.15909091 0.31614843 -1.0085223e-05 1 -4.088493e-05 0
-0.053145945 -0.15909091 0.31396222 1.2168126e-05 1 -1.9742987e-05 0
-0.044498518 -0.15909091 0.3142471 1.0700947e-05 1 -3.6967409e-05 0
-0.036252245 -0.15909091 0.31205568 6.5526019e-06 1 -1.7469676e-05 0
-0.025470709 -0.15909089 0.31545481 2.56405e-06 1 -8.5431027e-05 0
