# .PCD v0.7 - Point Cloud Data file format
VERSION 0.7
FIELDS x y z normal_x normal_y normal_z curvature
SIZE 4 4 4 4 4 4 4
TYPE F F F F F F F
COUNT 1 1 1 1 1 1 1
WIDTH 678
HEIGHT 1
VIEWPOINT 0 0 0 1 0 0 0
POINTS 678
DATA ascii
-0.15909092 0.036669672 0.2628701 1 -3.7481989e-06 -3.7274171e-05 0
0.15909092 0.033595257 0.26307809 -1 -1.6901216e-06 -3.1603591e-05 0
-0.15909092 0.041949119 0.2658844 1 1.1427937e-06 -3.4429133e-05 0
0.15909092 0.044721663 0.26292038 -1 -7.601293e-06 -2.0562871e-05 0
-0.15909092 0.055947155 0.26695749 1 -1.135861e-05 1.8374121e-05 0
0.15909092 0.052775141 0.265946 -1 -1.1245654e-05 -4.9910326e-05 0
-0.15909092 0.064391598 0.26289129 1 9.7264126e-07 -3.0037174e-05 0
0.15909092 0.06411317 0.26447633 -1 -4.4269464e-06 5.0105081e-07 0
-0.15909094 0.070130192 0.26457602 1 -1.7724771e-05 -6.5571097e-05 0
0.15909092 0.07442078 0.26502514 -1 -4.2243996e-06 -1.9669724e-05 0
-0.15909092 0.086629555 0.26517561 1 -1.4153356e-05 3.3951968e-05 0
0.15909092 0.086312979 0.26656768 -1 -3.8988196e-06 -5.7494846e-05 0
-0.15909092 0.095212422 0.26532149 1 -4.0708687e-06 -4.4848099e-07 0
0.15909091 0.095119618 0.26352069 -1 -8.0216823e-06 -1.5902902e-05 0
-0.15909092 0.10613193 0.26430029 1 -7.3723563e-06 -1.9959223e-05 0
0.15909092 0.10598654 0.2657772 -1 -6.6473376e-06 1.4353594e-05 0
-0.15909092 0.11057498 0.26421374 1 -6.3581097e-06 -1.8015169e-05 0
0.15909092 0.11704884 0.26299202 -1 -2.613524e-05 -7.3260773e-05 0
-0.15909092 0.12431626 0.26567507 1 -2.6775608e-05 1.1588495e-06 0
0.15909094 0.12700467 0.26407337 -0.99994713 -0.010075933 -0.0020386463 0.00020656339
-0.15909092 0.13457689 0.26652005 0.99482644 -0.10149675 0.0043353899 0.01745012
0.15909094 0.13545966 0.26916659 -0.99016404 -0.13984784 -0.004217329 0.024229581
-0.15909094 0.14546853 0.26620111 0.94915336 -0.31454754 0.012953615 0.055266265
0.15909092 0.14420001 0.26820323 -0.93619239 -0.35095927 0.019272642 0.05940428
-0.15692091 0.15591779 0.26342902 0.80042541 -0.5916394 0.096343249 0.07173492
-0.14523853 0.15909091 0.26128331 0.37877017 -0.92542851 -0.010730487 0.065644376
-0.13700227 0.15909091 0.26690471 0.18827985 -0.98205376 0.011001181 0.037165716
-0.12471 0.15909089 0.26538214 1.5148264e-05 -1 -7.3711031e-05 0
-0.11665513 0.15909091 0.2649036 3.0623585e-05 -1 -7.4263524e-05 0
-0.1041766 0.15909091 0.26247197 1.8382732e-05 -1 -1.807116e-05 0
-0.095736951 0.15909091 0.2654202 6.6606126e-06 -1 -8.9119618e-05 0
-0.083955407 0.15909091 0.26882645 2.3129725e-05 -1 -0.00010591061 0
-0.075749576 0.15909091 0.26438737 2.2494214e-05 -1 -7.4699237e-05 0
-0.067821898 0.15909091 0.2663008 8.3220857e-06 -1 -5.0343417e-05 0
-0.059379674 0.15909091 0.26897433 1.7900094e-05 -1 -6.713238e-05 0
-0.044366691 0.15909091 0.26646554 4.9951677e-07 -1 -5.5325214e-05 0
-0.0301951 0.15909091 0.26922745 -7.2192677e-07 -1 -5.1253457e-05 0
-0.027316265 0.15909091 0.26627818 1.9942227e-06 -1 -4.4122004e-08 0
-0.016515264 0.15909091 0.26378357 9.2517524e-07 -1 -1.84037e-05 0
-0.00088639808 0.15909091 0.26404938 5.6848044e-08 -1 2.0649278e-09 0
0.0073231217 0.15909091 0.26230264 8.2273061e-07 -1 -1.6780432e-05 0
0.024516117 0.15909091 0.26537994 -6.5467839e-06 -1 -5.0669474e-05 0
0.034419563 0.15909091 0.26715848 -1.2041255e-05 -1 -1.6779555e-05 0
0.04609846 0.15909091 0.26510808 -1.0203464e-05 -1 -5.1752271e-05 0
0.062071078 0.15909091 0.26234984 -2.7954497e-06 -1 -9.9928824e-05 0
0.074921831 0.15909091 0.26375312 -1.0586884e-05 -1 -3.8840943e-05 0
0.085294858 0.15909091 0.2641058 -1.5411168e-05 -1 2.3407615e-07 0
0.092915505 0.15909091 0.26344323 -1.4783699e-05 -1 -8.1143167e-05 0
0.10188505 0.15909091 0.26475704 -7.7537443e-06 -1 -2.3049151e-05 0
0.11836378 0.15909091 0.26632142 -3.6573456e-05 -1 -3.8054266e-05 0
0.12657106 0.15909091 0.26540679 -0.011524475 -0.9999311 -0.0022237909 0.00033394291
0.13392501 0.15909089 0.26372609 -0.095243022 -0.99524575 -0.020362327 0.014651708
0.14566666 0.15909091 0.2678085 -0.31099147 -0.95010471 0.024195312 0.054467335
0.15611418 0.15693352 0.26886445 -0.59054726 -0.80695993 -0.0083454018 0.077987604
-0.15462095 -0.1566956 0.27801961 0.69815946 0.71429175 -0.048587225 0.059671246
-0.14288676 -0.15909091 0.27489138 0.29307652 0.95608425 0.00302008 0.040234584
-0.12409694 -0.15909089 0.27643698 8.4504467e-07 1 -5.9591734e-05 0
-0.11501555 -0.15909089 0.27573186 1.2704685e-05 1 -3.4731707e-05 0
-0.10531495 -0.15909091 0.27500111 1.1878599e-05 1 -6.1204068e-05 0
-0.096300319 -0.15909091 0.27255133 -6.2462923e-06 1 -9.1246104e-05 0
-0.086968556 -0.15909091 0.27209491 1.5990345e-05 1 -7.2151248e-05 0
-0.076975048 -0.15909091 0.27569884 1.8124558e-05 1 -2.2732531e-05 0
-0.066712484 -0.15909089 0.27298421 1.1716967e-05 1 -3.8568982e-05 0
-0.054458428 -0.15909089 0.27603689 1.2296776e-05 1 -5.7009598e-05 0
-0.043973509 -0.15909091 0.27547899 9.8973478e-06 1 -4.3260712e-05 0
-0.035175119 -0.15909091 0.27622819 1.7014552e-05 1 -6.4988089e-05 0
-0.025867859 -0.15909091 0.27453515 5.5702099e-06 1 -7.3017414e-05 0
-0.0054064295 -0.15909091 0.27592048 6.5507618e-07 1 -3.3228109e-05 0
0.0018364383 -0.15909091 0.27349138 -7.6789945e-07 1 -6.2990097e-05 0
0.019141413 -0.15909092 0.27298492 -4.7802791e-06 1 -6.164259e-05 0
0.025441941 -0.15909089 0.2746684 -6.0344678e-06 1 -3.3316956e-05 0
0.034756638 -0.15909091 0.27790532 -1.1159054e-05 1 -6.4455387e-05 0
0.044705842 -0.15909091 0.27319425 1.0515618e-07 1 -5.9167825e-05 0
0.054224331 -0.15909091 0.27638078 -5.4909915e-06 1 -4.0533756e-05 0
0.067130581 -0.15909091 0.27367198 -1.1429614e-05 1 -4.4059481e-05 0
0.074708506 -0.15909091 0.27636322 -2.606524e-06 1 -1.7039303e-05 0
0.084533252 -0.15909091 0.27329645 -5.6669396e-06 1 -5.7415044e-05 0
0.094831407 -0.15909091 0.27306172 -7.9880683e-06 1 -4.5422501e-05 0
0.10640579 -0.15909091 0.27278638 -1.0664029e-05 1 -8.9200701e-05 0
0.11686711 -0.15909091 0.27477786 -3.4237124e-05 1 -6.163639e-05 0
0.12628503 -0.15909091 0.27497751 -1.9173443e-05 1 -3.1432155e-05 0
0.13591671 -0.15909091 0.2736823 -0.1472984 0.98811513 0.043950435 0.023056464
0.1429469 -0.15909091 0.27635571 -0.32713202 0.94427073 0.036569316 0.058538478
0.15781567 -0.15678415 0.2757954 -0.69008398 0.72372776 0.001497463 0.083828107
-0.15909092 -0.14497291 0.27313557 0.94503617 0.32637411 0.019660115 0.05292565
0.15909092 -0.14558099 0.27184188 -0.96237177 0.27149647 -0.011409417 0.056939308
-0.15909091 -0.13710202 0.27542213 0.98448896 0.17343178 -0.026513034 0.030146565
0.15909092 -0.13522494 0.27806896 -0.98430502 0.17156507 0.041341536 0.026283659
-0.15909092 -0.12228896 0.27415928 1 0 0 0
0.15909092 -0.12532766 0.27469581 -1 1.4884488e-05 -1.6782928e-05 0
-0.15909092 -0.11352666 0.27195108 1 2.8341468e-05 -5.7761201e-05 0
0.15909094 -0.11644883 0.27299887 -1 -2.2151733e-06 -2.0683745e-05 0
-0.15909092 -0.10727949 0.27517962 1 1.8104189e-05 1.2930758e-06 0
0.15909094 -0.10716712 0.27687666 -1 1.9103067e-05 -6.5770299e-05 0
-0.15909092 -0.092265107 0.27376649 1 1.9412606e-05 -5.410437e-05 0
0.15909092 -0.096688852 0.27584282 -1 1.3667196e-05 -2.4797242e-05 0
-0.15909092 -0.085817322 0.27278116 1 -4.5179104e-06 1.5486052e-08 0
0.15909092 -0.084461227 0.2767331 -1 3.3116597e-05 -4.7012923e-05 0
-0.15909092 -0.077327274 0.27725551 1 2.7744893e-05 -1.7991541e-05 0
0.15909094 -0.077921182 0.27885884 -1 1.2124879e-05 -6.0950679e-05 0
-0.15909092 -0.065438487 0.27512977 1 1.5092078e-05 -3.087876e-05 0
0.15909092 -0.064714231 0.27648264 -1 -4.7466797e-06 -6.2836349e-05 0
-0.15909092 -0.053736508 0.27535492 1 7.6616825e-06 -1.6807953e-05 0
0.15909094 -0.058357272 0.27311757 -1 -1.0583946e-05 -7.3152485e-05 0
-0.15909094 -0.044671968 0.2743212 1 5.0347294e-06 -7.9135301e-05 0
0.15909092 -0.044294477 0.27667326 -1 1.5294367e-05 -3.6388952e-05 0
-0.15909092 -0.035296939 0.27464828 1 5.5661762e-06 -6.3744978e-05 0
0.15909092 -0.034500118 0.27254334 -1 -1.2554967e-06 -8.3680927e-05 0
-0.15909094 -0.02818758 0.27915344 1 6.4129863e-06 -3.292023e-05 0
0.15909092 -0.025350086 0.27413109 -1 5.491874e-07 -3.1716678e-05 0
-0.15909092 -0.016120944 0.27581856 1 -3.0378671e-06 -7.2727191e-05 0
0.15909092 -0.015696481 0.27489299 -1 4.2521774e-06 7.0973016e-07 0
-0.15909092 -0.0045997016 0.27533066 1 -3.1071174e-06 -3.2594362e-05 0
0.15909092 -0.0060127634 0.27403173 -1 -1.5129532e-06 -1.9789779e-05 0
-0.15909092 0.003277018 0.27261329 1 -2.7042287e-08 -8.9517373e-05 0
0.15909092 0.0024618395 0.27250788 -1 2.72932e-07 -1.7866781e-05 0
-0.15909092 0.015374094 0.27670652 1 2.7509991e-06 -4.2502677e-05 0
0.15909092 0.017828405 0.27188572 -1 -7.5994632e-07 -1.704617e-05 0
-0.15909092 0.021908814 0.27685246 1 -2.6405364e-06 -1.7911623e-05 0
0.15909091 0.026678234 0.27590674 -1 -6.0204584e-06 -3.2603799e-05 0
-0.15909092 0.034505423 0.27546188 1 -1.8895702e-06 -1.8341547e-05 0
0.15909092 0.033548206 0.27694145 -1 -7.3696197e-06 -2.8745113e-05 0
-0.15909091 0.043028031 0.27374798 1 -3.3137644e-06 -4.9860213e-05 0
0.15909091 0.041053824 0.27620661 -1 -3.2264961e-06 1.7610493e-05 0
-0.15909091 0.056740798 0.2749503 1 -2.575887e-06 -3.6005251e-05 0
0.15909092 0.05481356 0.27540469 -1 -8.2759669e-07 -4.615224e-05 0
-0.15909092 0.064450875 0.27436176 1 -1.7253931e-05 -3.354888e-05 0
0.15909091 0.064336464 0.27245384 -1 8.1304688e-06 -4.3899629e-05 0
-0.15909094 0.075619988 0.27897602 1 -1.451814e-05 -3.3382501e-05 0
0.15909091 0.075100884 0.27273977 -1 -1.3321509e-05 1.6093278e-05 0
-0.15909094 0.083988532 0.27366656 1 -1.8076185e-05 -3.4307868e-05 0
0.15909092 0.084126443 0.27293125 -1 -1.0518078e-05 -1.6188207e-05 0
-0.15909091 0.094410598 0.27429289 1 -1.5193361e-05 -1.5354306e-05 0
0.15909092 0.0952527 0.27455264 -1 -1.0675724e-06 -3.0493711e-05 0
0.15909091 0.10590393 0.27746186 -1 -2.0303172e-05 -3.4201548e-05 0
-0.15909092 0.1150249 0.27529356 1 -1.9558998e-05 3.5346056e-07 0
0.15909092 0.11623717 0.276961 -1 -2.4655046e-05 -4.9669554e-05 0
-0.15909091 0.12302576 0.27606308 1 -2.733831e-05 -2.2875151e-05 0
0.15909092 0.12375334 0.27642784 -1 -3.5922794e-06 -3.1401698e-05 0
-0.15909092 0.13432251 0.27633834 0.99314684 -0.11679594 -0.004258635 0.017335378
0.15909092 0.1337395 0.27841872 -0.99953169 -0.030418724 0.0033398517 0.00073280936
-0.15909094 0.14410882 0.27523983 0.96587378 -0.25900346 0.0022537701 0.047537558
0.15909092 0.14413463 0.27526948 -0.95224094 -0.30523545 -0.0082761059 0.047415107
-0.15689783 0.15817539 0.27696961 0.73781592 -0.6745159 0.025609082 0.086746946
-0.14605588 0.15909091 0.27446648 0.448746 -0.89159781 0.060665026 0.076036826
-0.12360545 0.15909091 0.2756744 4.2644831e-05 -1 -3.0062412e-05 0
-0.11443166 0.15909091 0.27490398 1.4823589e-05 -1 -4.6656016e-05 0
-0.10562696 0.15909091 0.27118346 1.9308656e-05 -1 -8.8020723e-05 0
-0.096097052 0.15909091 0.2731657 1.795284e-05 -1 -2.125579e-05 0
-0.084312037 0.15909091 0.27377263 3.0944972e-05 -1 -6.0818384e-05 0
-0.075947799 0.15909091 0.27419749 2.4529829e-05 -1 -6.336681e-05 0
-0.066470951 0.15909091 0.27564678 9.3254184e-06 -1 -8.5169311e-05 0
-0.054620408 0.15909091 0.27063641 7.9813672e-06 -1 -5.4542419e-05 0
-0.044224665 0.15909091 0.2751427 -1.023576e-07 -1 -0.00010104801 0
-0.035782702 0.15909091 0.27696723 -1.2678772e-06 -1 -5.3575248e-05 0
-0.023383319 0.15909091 0.27582756 -3.2564762e-06 -1 -3.9945509e-05 0
-0.015053351 0.15909091 0.27602088 5.1759662e-06 -1 -4.8757527e-05 0
-0.0038199842 0.15909091 0.27629724 7.6091555e-06 -1 -8.1664781e-05 0
0.0059311958 0.15909091 0.27755362 -2.5290046e-06 -1 -5.2464668e-05 0
0.015773712 0.15909091 0.2752251 -2.141147e-06 -1 -1.8124992e-05 0
0.021878738 0.15909091 0.27450663 -3.0989872e-06 -1 -3.532228e-08 0
0.035727896 0.15909091 0.27169856 -4.0185409e-06 -1 -3.1011488e-05 0
0.0434126 0.15909089 0.27616483 -6.9513603e-06 -1 -3.4840505e-05 0
0.053482611 0.15909091 0.27590552 -9.5667892e-06 -1 -5.0615661e-05 0
0.065193914 0.15909091 0.27535537 -7.5194266e-06 -1 3.3046618e-07 0
0.075746402 0.15909091 0.27648425 -1.5751363e-06 -1 1.5658634e-05 0
0.087343849 0.15909091 0.27627972 -1.1383169e-05 -1 -4.6508037e-05 0
0.093876034 0.15909091 0.27607268 -5.0067702e-06 -1 -4.9570983e-05 0
0.10555409 0.15909091 0.27675003 -2.8011003e-05 -1 -1.3085715e-05 0
0.11712134 0.15909091 0.27695158 -3.3045526e-06 -1 -8.3331819e-05 0
0.12692446 0.15909091 0.27417323 -0.013909707 -0.99989724 0.0034546473 0.00036791805
0.13632539 0.15909091 0.2748591 -0.17507063 -0.98446786 -0.01316096 0.029021028
0.14209253 0.15909091 0.27460569 -0.27036649 -0.96263969 -0.015056965 0.050953884
0.15722951 0.15461116 0.27409959 -0.79274213 -0.60878837 -0.030603999 0.06853383
-0.15680733 -0.15490654 0.2847265 0.69057 0.72319108 0.010382894 0.061690688
-0.14223287 -0.15909091 0.28369057 0.3313503 0.94321078 0.023673123 0.05592614
-0.13306943 -0.15909091 0.2842111 0.047614388 0.99885696 -0.0041939849 0.0022772348
-0.12211415 -0.15909091 0.28392848 2.1064301e-05 1 -3.2924876e-05 0
-0.11303111 -0.15909091 0.28267005 1.8413819e-05 1 3.2792277e-06 0
-0.10333653 -0.15909089 0.28586885 1.4001198e-05 1 -5.0706254e-05 0
-0.097573638 -0.15909091 0.28861478 2.7973392e-05 1 -5.4607743e-05 0
-0.087246016 -0.15909091 0.28273413 1.1570137e-05 1 -3.3540073e-05 0
-0.070929378 -0.15909091 0.28464139 1.9985588e-05 1 -4.0762749e-05 0
-0.060483322 -0.15909091 0.28339076 1.2357338e-05 1 -1.8705909e-05 0
-0.055023946 -0.15909091 0.28573841 1.9775538e-05 1 -3.7522361e-05 0
-0.04588519 -0.15909091 0.28156427 1.3810084e-05 1 -8.4838968e-05 0
-0.03128171 -0.15909091 0.28258026 6.0212997e-06 1 -1.7995515e-05 0
-0.027751168 -0.15909091 0.28551498 5.9888584e-06 1 -5.7735448e-08 0
-0.015164879 -0.15909089 0.28368172 -1.5588428e-06 1 -6.8274021e-05 0
-0.0088572847 -0.15909091 0.28664175 9.3930312e-06 1 -5.8223573e-05 0
0.007724518 -0.15909091 0.28594616 -9.6658923e-06 1 -5.9341572e-05 0
0.017581373 -0.15909091 0.28593364 -4.6932269e-06 1 -3.2585601e-07 0
0.026279639 -0.15909091 0.28756714 -3.6271513e-06 1 -4.9929895e-05 0
0.037658334 -0.15909091 0.28576082 -2.9239295e-06 1 -1.9876519e-05 0
0.043506093 -0.15909091 0.28294829 -2.5002487e-06 1 -5.0581832e-05 0
0.055946514 -0.15909091 0.28851867 -7.0569222e-06 1 -7.7663695e-05 0
0.063858688 -0.15909089 0.28595355 -1.947256e-05 1 -5.7235571e-05 0
0.075099006 -0.15909091 0.28475973 -1.6534756e-05 1 -4.8894028e-05 0
0.08471036 -0.15909091 0.28489274 -2.2283981e-05 1 -4.4979133e-05 0
0.090737 -0.15909089 0.28647891 -1.9970776e-05 1 -3.6476082e-05 0
0.10447164 -0.15909091 0.28416705 -1.7599443e-05 1 -7.5971933e-05 0
0.11069869 -0.15909091 0.28342643 -2.5978194e-05 1 -7.130795e-05 0
0.1224661 -0.15909091 0.28373402 -2.2442775e-05 1 -4.6816978e-05 0
0.13322608 -0.15909091 0.28604227 -0.056873143 0.99838096 0.00092751521 0.0069380337
0.14901209 -0.15909091 0.28447717 -0.44824103 0.89302349 0.039864026 0.070729502
0.15533641 -0.15751646 0.28429356 -0.71775949 0.69419599 -0.053974759 0.071189895
-0.15909092 -0.14384936 0.28593078 0.95752597 0.28796425 -0.01485064 0.041137617
0.15909092 -0.14384267 0.28650418 -0.95079374 0.30980518 0.0034707421 0.035848226
-0.15909092 -0.13503957 0.2838676 0.99522954 0.097221926 0.0081348242 0.017600423
0.15909094 -0.13696799 0.28652292 -0.98008478 0.1984994 0.0056359214 0.029997099
-0.15909094 -0.12086368 0.28867412 1 1.476481e-05 -4.4414632e-05 0
0.15909092 -0.12678307 0.28663066 -1 9.7446818e-06 -2.8740551e-05 0
-0.15909094 -0.11471948 0.28649378 1 1.6610305e-05 -4.7119367e-05 0
0.15909092 -0.11285656 0.28735265 -1 1.6349515e-05 -1.9116339e-06 0
-0.15909092 -0.10418203 0.28294 1 9.2653745e-06 -1.6560918e-05 0
0.15909092 -0.1052346 0.28501281 -1 1.7401024e-05 -2.7132535e-05 0
-0.15909091 -0.098422863 0.28527552 1 1.1516574e-05 -5.7179175e-05 0
0.15909092 -0.095646158 0.28279236 -1 8.8237412e-06 -1.5625432e-05 0
-0.15909092 -0.089569256 0.28511119 1 -8.0669668e-07 1.9264342e-05 0
0.15909091 -0.081244916 0.28607422 -1 1.5458096e-05 -6.4198059e-05 0
-0.15909091 -0.075341821 0.28672579 1 1.5726891e-05 -1.3798392e-05 0
0.15909092 -0.074957192 0.2839888 -1 2.2368105e-05 -6.4554137e-05 0
-0.15909094 -0.064401008 0.28480971 1 2.1499978e-05 -2.2406319e-05 0
0.15909092 -0.063940123 0.28647667 -1 1.9016643e-05 -6.0045342e-05 0
-0.15909092 -0.053681113 0.28366786 1 1.215065e-05 -3.1734016e-05 0
0.15909092 -0.054846395 0.2852453 -1 1.2954575e-06 -3.4177883e-05 0
-0.15909092 -0.044244025 0.28380576 1 1.2889468e-05 -3.2596949e-05 0
0.15909092 -0.043885618 0.28307545 -1 1.0765698e-05 -3.429866e-05 0
-0.15909091 -0.036513533 0.28408554 1 1.7559483e-05 -6.1696635e-05 0
0.15909094 -0.033901993 0.28438306 -1 5.3749882e-06 -3.9248909e-05 0
-0.15909094 -0.029032174 0.28645876 1 8.0557629e-06 -7.9740836e-05 0
0.15909092 -0.022468254 0.28446767 -1 -5.1451366e-07 -3.8867049e-05 0
-0.15909092 -0.012541749 0.28813925 1 1.1776447e-06 -1.7820554e-05 0
0.15909094 -0.016491836 0.28349605 -1 2.7318442e-06 -7.4181706e-05 0
-0.15909091 -0.0059613008 0.28224468 1 8.2601457e-07 -2.9775432e-05 0
0.15909092 -0.0044759922 0.28426847 -1 1.5884453e-06 -1.5183506e-05 0
0.15909092 0.0058920011 0.28353247 -1 -5.5444372e-07 -1.3774152e-05 0
-0.15909091 0.016553825 0.28401408 1 -6.5534273e-06 -3.5032986e-05 0
0.15909092 0.015215838 0.28120211 -1 -0 -0 0
-0.15909094 0.025339497 0.2857945 1 9.4545663e-07 -2.796927e-05 0
0.15909092 0.025177008 0.28784198 -1 4.5507375e-07 1.6684518e-05 0
-0.15909094 0.038008664 0.28294078 1 -3.36827e-06 -1.4458382e-05 0
0.15909092 0.033964753 0.2829695 -1 1.2006957e-06 1.7581417e-05 0
-0.15909092 0.04566434 0.28491479 1 -1.8043274e-05 -3.6135876e-05 0
0.15909092 0.045982111 0.28504959 -1 -3.3343317e-06 -8.7896406e-05 0
-0.15909091 0.05653188 0.28495932 1 -4.915531e-06 -5.1907111e-05 0
0.15909092 0.055369861 0.28330231 -1 -9.9380793e-07 -1.5514297e-05 0
-0.15909092 0.067729115 0.2849412 1 -1.0519159e-05 -5.5756354e-05 0
0.15909092 0.066363312 0.2855399 -1 -3.7524492e-06 -1.6242402e-05 0
-0.15909092 0.076562017 0.28392446 1 -2.4973673e-05 -2.8197765e-05 0
0.15909092 0.071009472 0.28588772 -1 1.0796242e-05 -1.6962e-05 0
-0.15909092 0.08451464 0.28450418 1 -2.7069016e-05 -8.8937843e-05 0
0.15909094 0.086164773 0.28433165 -1 -1.910671e-05 -8.4859275e-05 0
-0.15909092 0.096853755 0.28595275 1 -1.2519653e-05 -6.7145869e-05 0
0.15909092 0.097137235 0.28699115 -1 -4.7097433e-06 -3.5416837e-05 0
-0.15909092 0.10456294 0.28253517 1 -1.9708928e-05 -3.5749104e-05 0
0.15909094 0.10085777 0.28982604 -1 -1.5922695e-05 -8.0235754e-05 0
-0.15909091 0.11555883 0.28673458 1 -3.0539632e-05 -4.6707872e-05 0
-0.15909092 0.12460288 0.28595933 1 -2.0219388e-05 -5.4106815e-05 0
0.15909092 0.12526813 0.28517184 -1 -2.1572811e-05 -6.4966218e-05 0
-0.15909092 0.13256128 0.28418308 0.99774557 -0.067100748 0.0011857703 0.010204282
0.15909092 0.13621081 0.28747311 -0.98982763 -0.14203055 -0.0082809143 0.025358899
-0.15909092 0.14423032 0.28301337 0.9574784 -0.28814402 0.014426415 0.053469386
0.15909092 0.14414802 0.2824862 -0.91702938 -0.3976799 0.030128615 0.064303771
-0.15861896 0.15843987 0.28434235 0.69065201 -0.72289383 0.020599367 0.085984409
-0.14733906 0.15909091 0.2829476 0.46180332 -0.88623154 0.036488317 0.086000428
-0.13456275 0.15909089 0.28587213 0.10558914 -0.99440986 0.00014264823 0.017322341
-0.11402354 0.15909091 0.28594899 3.7568734e-06 -1 -4.6439196e-05 0
-0.10316788 0.15909091 0.28833756 8.9403666e-06 -1 -7.2026909e-05 0
-0.09646523 0.15909089 0.28318629 3.147461e-05 -1 -2.5675108e-05 0
-0.085330293 0.15909091 0.28496629 2.4271005e-05 -1 -3.4395354e-05 0
-0.076401241 0.15909091 0.28422377 3.3931159e-05 -1 -4.406209e-05 0
-0.062748574 0.15909089 0.28585169 2.07909e-05 -1 -4.8362035e-05 0
-0.052968889 0.15909091 0.28686577 -2.2251984e-06 -1 -7.6447875e-05 0
-0.04373388 0.15909091 0.28442886 9.6897256e-06 -1 -7.0810522e-05 0
-0.030415028 0.15909091 0.28266546 -1.3572181e-06 -1 -6.5848231e-05 0
-0.024671948 0.15909091 0.28453866 5.0360049e-06 -1 -4.859703e-05 0
-0.013345242 0.15909091 0.28575152 3.2074047e-06 -1 -3.9107839e-05 0
-0.0038152181 0.15909089 0.28374544 -1.1273595e-08 -1 -1.8124487e-05 0
0.0063373693 0.15909089 0.28532889 -1.2471784e-06 -1 -4.3143733e-05 0
0.015854327 0.15909091 0.28620523 -6.5661952e-06 -1 -6.4908985e-05 0
0.024339838 0.15909091 0.28301531 -3.7679918e-06 -1 -3.2189972e-05 0
0.034555532 0.15909091 0.28396875 3.9582683e-06 -1 -7.2003313e-05 0
0.044604797 0.15909091 0.28688544 -1.1053726e-05 -1 1.6690183e-06 0
0.052995123 0.15909091 0.28354833 -9.9136887e-06 -1 -2.129628e-05 0
0.063209824 0.15909091 0.28595057 -1.8965731e-05 -1 -4.6460351e-05 0
0.076946437 0.15909091 0.28081962 -1.6500186e-05 -1 -2.9019398e-05 0
0.083539665 0.15909091 0.28354335 -2.5687263e-05 -1 -1.5097919e-05 0
0.10667547 0.15909091 0.28338572 -1.4469664e-05 -1 1.6348882e-05 0
0.11583965 0.15909091 0.28497756 -2.1049711e-05 -1 -3.8161917e-05 0
0.12198839 0.15909091 0.28127521 -1.5866155e-05 -1 -4.6294532e-05 0
0.13424386 0.15909091 0.28463465 -0.12743865 -0.99156862 -0.023475733 0.018353663
0.14443785 0.15909091 0.28501347 -0.34904292 -0.93704557 0.010706894 0.061616682
0.15858667 0.15631367 0.2855241 -0.75695235 -0.65099221 0.056852661 0.071501367
-0.1587753 -0.15431862 0.29353622 0.76416099 0.64464688 -0.022099903 0.073546357
-0.14538057 -0.15909091 0.29667649 0.31898773 0.94697088 0.038638923 0.058655512
-0.13427 -0.15909091 0.29522282 0.13974467 0.98974103 -0.029733041 0.019970639
-0.12826082 -0.15909091 0.29604477 2.9320145e-05 1 -3.668496e-05 0
-0.11609244 -0.15909089 0.29418361 3.3518267e-05 1 -4.446696e-05 0
-0.10834612 -0.15909091 0.29074445 4.3001299e-05 1 -2.5801417e-05 0
-0.085032336 -0.15909091 0.29630542 1.8693858e-05 1 -6.1419356e-05 0
-0.075491622 -0.15909091 0.29188943 6.3676794e-06 1 1.5429221e-05 0
-0.06437102 -0.15909091 0.29350355 2.8725835e-05 1 -6.0118338e-05 0
-0.052791357 -0.15909091 0.29242474 1.9283305e-05 1 -6.903302e-05 0
-0.045691684 -0.15909091 0.29500088 4.2939287e-06 1 -5.7130477e-05 0
-0.034922708 -0.15909091 0.29533762 1.453271e-05 1 -7.952936e-05 0
-0.024863442 -0.15909091 0.29594263 5.057831e-06 1 -5.0406477e-05 0
-0.012790736 -0.15909089 0.29363799 5.1835973e-06 1 -3.6955109e-05 0
-0.00018645823 -0.15909091 0.29407847 2.2082527e-07 1 -4.1853516e-05 0
0.0028965012 -0.15909091 0.29190528 -5.9626326e-10 1 1.808054e-05 0
0.015615605 -0.15909091 0.2946718 -3.9219931e-06 1 -3.1912499e-05 0
0.021273179 -0.15909091 0.29705849 -6.3204702e-06 1 -1.6314105e-05 0
0.037615895 -0.15909091 0.29555684 -3.4244281e-06 1 -5.4873602e-05 0
0.043950915 -0.15909091 0.29940078 -1.1332159e-05 1 -3.3082004e-05 0
0.055099919 -0.15909089 0.29640397 -1.5551492e-05 1 -3.2881169e-05 0
0.062905841 -0.15909091 0.29548484 -1.4345501e-05 1 -7.9326615e-05 0
0.077925093 -0.15909091 0.29486242 -3.150938e-06 1 -3.4232602e-05 0
0.084011205 -0.15909091 0.29275692 -3.0609226e-06 1 -4.1367181e-05 0
0.097746886 -0.15909091 0.2932094 -2.0317011e-05 1 -6.4446998e-05 0
0.10291079 -0.15909091 0.29396552 -4.507915e-06 1 -5.3372347e-05 0
0.11248948 -0.15909091 0.29601848 -7.0322208e-06 1 -4.748936e-05 0
0.12556294 -0.15909091 0.29195723 -2.3354635e-06 1 -4.9504033e-05 0
0.13334574 -0.15909091 0.29591301 -0.060076013 0.99818051 0.0051563638 0.0097076409
0.14232896 -0.15909091 0.29719663 -0.34535927 0.93769199 -0.038219094 0.070813872
0.1568962 -0.15909091 0.29829329 -0.66812068 0.74401385 -0.0076355259 0.080264799
-0.15909091 -0.14266734 0.29695448 0.92649341 0.37575948 0.020367274 0.066337399
0.15909092 -0.14791092 0.292972 -0.87505788 0.48321086 -0.027945956 0.076900244
-0.15909092 -0.13379429 0.29510301 0.99503368 0.099513918 -0.0022324591 0.013620523
0.15909092 -0.13752639 0.29379904 -0.98614854 0.16376039 -0.026335774 0.025148908
-0.15909092 -0.12301416 0.29576969 1 2.5105926e-05 4.275692e-07 0
0.15909092 -0.12488163 0.29549885 -1 6.536799e-06 -8.2145256e-05 0
-0.15909091 -0.11088443 0.29058582 1 4.4627559e-05 -6.7547764e-05 0
0.15909091 -0.10176171 0.29445478 -1 1.936323e-05 -5.0921237e-05 0
-0.15909091 -0.095982976 0.29466978 1 1.4909876e-05 -2.9653078e-05 0
0.15909091 -0.095008567 0.29735094 -1 4.1355474e-06 -4.9022001e-05 0
-0.15909094 -0.083999962 0.29759401 1 1.8244726e-05 -7.3215713e-05 0
0.15909092 -0.084911838 0.29574016 -1 1.3060467e-05 -8.0124191e-05 0
-0.15909091 -0.073572874 0.29703593 1 1.5666716e-05 -5.9685681e-05 0
0.15909092 -0.075292364 0.2943238 -1 1.0166624e-05 -7.0133508e-05 0
-0.15909092 -0.065192834 0.29650503 1 1.3930437e-05 -1.8195304e-05 0
0.15909092 -0.066572204 0.29746181 -1 4.4294056e-06 5.1042218e-05 0
-0.15909091 -0.051903125 0.29163784 1 4.0526347e-06 -3.9209343e-05 0
0.15909094 -0.053718973 0.29472321 -1 4.3718992e-06 -4.571203e-05 0
-0.15909092 -0.041458923 0.29551816 1 3.6283709e-06 2.2511116e-05 0
0.15909092 -0.049877454 0.29125527 -1 -3.5011053e-06 -6.9320035e-05 0
-0.15909092 -0.036884513 0.29326916 1 1.5548328e-06 1.6965223e-05 0
0.15909092 -0.033077795 0.29519475 -1 8.8338616e-08 -2.8718487e-05 0
-0.15909091 -0.023184948 0.29553789 1 5.6190024e-06 -3.1315569e-05 0
0.15909094 -0.025601765 0.29785603 -1 1.7030543e-05 -9.1056398e-05 0
-0.15909094 -0.014337855 0.2954779 1 9.0515068e-06 -2.9618886e-05 0
0.15909092 -0.014910894 0.29664919 -1 -4.1426933e-06 -1.5711868e-05 0
-0.15909092 -0.0083083818 0.29705411 1 4.7414255e-06 -5.1398045e-05 0
-0.15909091 0.0045886366 0.29710552 1 -1.3315721e-06 -4.6274512e-05 0
0.15909092 0.0048543275 0.29717508 -1 -5.6714674e-07 -1.6779606e-05 0
-0.15909092 0.017322205 0.29452556 1 -5.1444281e-06 -6.665448e-05 0
0.15909092 0.014723964 0.29558447 -1 -1.6076297e-06 3.6461635e-05 0
-0.15909092 0.025467239 0.29222947 1 5.8229386e-07 -6.7237881e-05 0
0.15909092 0.024117574 0.29516196 -1 -2.5460236e-06 -4.5728233e-05 0
-0.15909092 0.03548662 0.29647192 1 -3.676276e-06 -1.9581659e-05 0
0.15909092 0.039722294 0.29368821 -1 -4.0048271e-06 -2.092357e-05 0
-0.15909092 0.045739904 0.29510173 1 -1.0366129e-05 -5.1091214e-05 0
0.15909092 0.042438492 0.29623896 -1 -6.0350235e-06 3.4277011e-07 0
-0.15909091 0.059449218 0.2976658 1 1.2004356e-06 -6.3031031e-05 0
0.15909092 0.054229517 0.29380041 -1 -1.424632e-05 9.1176906e-07 0
-0.15909094 0.066383354 0.29229558 1 -3.8207795e-06 -2.9251183e-05 0
0.15909094 0.064475752 0.2945182 -1 8.6293903e-06 -4.0258361e-05 0
-0.15909092 0.073929816 0.2955316 1 -6.5012446e-06 -3.2490552e-05 0
0.15909092 0.074329861 0.29808778 -1 6.7256083e-06 -3.2708253e-05 0
-0.15909092 0.084251426 0.29303998 1 -2.7312923e-05 -5.110482e-05 0
0.15909092 0.085511684 0.29370189 -1 -2.502282e-05 -0.00010432452 0
-0.15909092 0.09656731 0.29656681 1 1.7983091e-05 -1.643742e-05 0
0.15909092 0.093050838 0.29825324 -1 -1.0216199e-05 -3.2680065e-05 0
-0.15909092 0.10132838 0.29697222 1 7.8625562e-06 -5.1140003e-05 0
0.15909092 0.10510259 0.29557422 -1 -2.619069e-05 -7.5625088e-05 0
-0.15909094 0.11349647 0.29738703 1 -8.1150529e-06 -1.5112486e-05 0
0.15909092 0.11355177 0.29428333 -1 -1.5041318e-05 -2.0407697e-05 0
-0.15909092 0.12677602 0.29533306 0.99994457 -0.010288985 -0.0022257236 0.00019640164
0.15909092 0.12508333 0.29287416 -1 -4.8838251e-06 -5.2133957e-05 0
0.15909092 0.13805199 0.29674214 -0.98514748 -0.17123854 -0.012720373 0.026285155
-0.15909091 0.14939037 0.29060578 0.85593051 -0.51675528 -0.018628141 0.085004032
0.15909092 0.14638951 0.29452163 -0.90804064 -0.41880015 0.0082795601 0.067456611
-0.15732095 0.15562776 0.29589677 0.77779132 -0.6278336 -0.029421221 0.092546597
-0.14818114 0.15909091 0.2948266 0.40612561 -0.91323501 -0.032617074 0.065686606
-0.13321848 0.15909091 0.29349127 0.057594508 -0.99833071 -0.0043152929 0.005847564
-0.12489964 0.15909091 0.29832304 4.7038611e-05 -1 -3.0675634e-05 0
-0.1157617 0.15909091 0.29593512 3.4535016e-05 -1 -6.4638014e-05 0
-0.10661831 0.15909091 0.29419172 1.5958838e-05 -1 -9.0728856e-05 0
-0.084077455 0.15909089 0.29552624 4.0957643e-06 -1 -3.146828e-05 0
-0.075370021 0.15909091 0.29507163 1.4567828e-05 -1 -3.0693223e-05 0
-0.065445192 0.15909089 0.29648402 1.5658612e-05 -1 -2.7092456e-05 0
-0.054688647 0.15909091 0.29535225 1.4930462e-05 -1 -3.3958746e-05 0
-0.045729563 0.15909091 0.29298052 9.9275485e-06 -1 -6.1324819e-05 0
-0.034045696 0.15909091 0.29562509 6.9348157e-06 -1 -7.4340074e-05 0
-0.028041992 0.15909091 0.29797262 9.0380536e-06 -1 -3.3718308e-05 0
-0.017461725 0.15909091 0.29729652 6.2475115e-06 -1 -3.8690483e-05 0
-0.0021995921 0.15909091 0.29628477 -3.3785557e-06 -1 -5.2642248e-05 0
0.0057796254 0.15909089 0.29470557 3.5600387e-06 -1 -5.9649883e-05 0
0.02633548 0.15909091 0.29624182 -7.0318592e-06 -1 -5.1486481e-05 0
0.034184251 0.15909091 0.29470414 -1.6912859e-06 -1 -3.2292228e-05 0
0.048854679 0.15909091 0.29508442 -2.7321912e-06 -1 -3.9260376e-05 0
0.054763187 0.15909091 0.2956984 -1.6789158e-05 -1 -4.527636e-05 0
0.066153362 0.15909091 0.29097801 -6.9580947e-06 -1 -3.3563905e-05 0
0.074102819 0.15909091 0.29629466 3.8364183e-06 -1 -6.4621177e-05 0
0.083838284 0.15909091 0.29880878 -1.5967599e-06 -1 -3.2900858e-05 0
0.090239212 0.15909091 0.29949343 -1.7760172e-05 -1 -6.4388987e-05 0
0.10295459 0.15909089 0.29526505 -1.7579425e-05 -1 -7.1066759e-05 0
0.11552103 0.15909091 0.29317468 -2.8994584e-05 -1 -1.8216102e-05 0
0.12529214 0.15909091 0.29706225 -7.7202312e-06 -1 -5.8058551e-05 0
0.145322 0.15909091 0.29285157 -0.34182498 -0.93964976 0.01463057 0.056627259
0.15764084 0.15698434 0.29486868 -0.7529459 -0.65804952 -0.006580919 0.058639158
-0.15729436 -0.1568345 0.30417719 0.77990389 0.62530529 0.027263332 0.072272606
-0.14353535 -0.15909091 0.30258101 0.24638066 0.96914542 0.0073287413 0.03812518
-0.13719721 -0.15909091 0.30158845 0.15952787 0.98716074 0.0080326647 0.023754779
-0.1272624 -0.15909089 0.30418023 4.4176508e-05 1 -1.3936695e-05 0
-0.11790448 -0.15909091 0.30873185 4.3927001e-05 1 -7.3895164e-05 0
-0.10637922 -0.15909091 0.30308974 3.1267791e-05 1 -3.652224e-05 0
-0.096672438 -0.15909091 0.30674556 2.0256319e-05 1 -3.2658467e-05 0
-0.086477123 -0.15909091 0.30521911 1.9689307e-05 1 -4.5330533e-05 0
-0.074161679 -0.15909091 0.30371091 2.3106212e-07 1 -3.3483611e-05 0
-0.065239534 -0.15909091 0.30683535 6.9764665e-06 1 -4.0921179e-05 0
-0.054852284 -0.15909091 0.30552018 1.5360627e-05 1 -5.8171645e-05 0
-0.044032808 -0.15909091 0.30490041 1.0328642e-05 1 -3.374611e-05 0
-0.036246605 -0.15909091 0.30099946 1.2043438e-05 1 -7.9042598e-05 0
-0.021802494 -0.15909091 0.3026835 8.4763224e-06 1 -6.8620961e-05 0
-0.012764767 -0.15909091 0.30418822 -6.3280613e-06 1 -7.9737874e-05 0
-0.0028875188 -0.15909091 0.30290881 -4.9453483e-06 1 -7.0974245e-05 0
0.0072429627 -0.15909091 0.30601168 4.3641644e-06 1 -9.040664e-05 0
0.013864172 -0.15909091 0.30266187 -9.8984231e-07 1 -4.4087235e-05 0
0.025289517 -0.15909091 0.30590397 -3.1974901e-06 1 -5.717876e-05 0
0.038458578 -0.15909091 0.3096422 9.1680039e-07 1 -3.567784e-05 0
0.047121555 -0.15909089 0.30483678 -1.2430619e-05 1 -4.3120108e-05 0
0.055027749 -0.15909091 0.30389231 -1.4122836e-05 1 -8.979268e-05 0
0.063557565 -0.15909091 0.30159584 -1.5601825e-05 1 -8.7756816e-05 0
0.077157848 -0.15909091 0.3058461 -1.9515213e-05 1 -3.4762215e-05 0
0.082372762 -0.15909091 0.30464843 -4.3349605e-06 1 -1.7048291e-05 0
0.094166778 -0.15909091 0.30656746 -1.5701697e-05 1 -4.8767353e-05 0
0.10593659 -0.15909091 0.30587178 -2.6387506e-05 1 -9.2866074e-05 0
0.11486676 -0.15909091 0.30274096 -7.6126998e-06 1 -7.5047865e-05 0
0.12634939 -0.15909091 0.30306706 -0.0058228406 0.99998289 -0.00054584141 7.201812e-05
0.13555497 -0.15909089 0.30446762 -0.14507966 0.98922855 -0.019464061 0.025029717
0.14461051 -0.15909091 0.30351076 -0.39275929 0.91963583 -0.003169073 0.070927329
0.15574725 -0.15801463 0.30587685 -0.63580602 0.77125674 -0.030227687 0.072369255
-0.15909092 -0.14587282 0.30444396 0.89797968 0.43863496 0.035098139 0.070169955
0.15909092 -0.14552683 0.30480823 -0.93683493 0.34826288 0.0324549 0.049582183
-0.15909092 -0.13235974 0.30520687 0.99954033 0.029385788 -0.0074590566 0.00099773705
0.15909092 -0.13556583 0.30334991 -0.98376042 0.17948033 0.0014908819 0.029023923
-0.15909092 -0.12449794 0.30184934 1 1.6875236e-05 1.7471935e-05 0
0.15909092 -0.12538993 0.30406111 -1 -0 -0 0
-0.15909092 -0.11142921 0.30833223 1 2.5053234e-05 -1.6487205e-05 0
0.15909092 -0.11169621 0.30898723 -1 3.0183295e-05 -0.00010400839 0
-0.15909092 -0.10233784 0.30485588 1 2.4564139e-05 -0.00010195887 0
0.15909094 -0.10422182 0.30728763 -1 2.155378e-05 -8.8931803e-05 0
-0.15909094 -0.096763045 0.30755711 1 8.0232558e-06 -4.4828284e-05 0
0.15909092 -0.094478756 0.30768883 -1 1.6675067e-05 -3.7313188e-05 0
-0.15909092 -0.085672654 0.30721655 1 -3.1831096e-06 -3.7929563e-05 0
0.15909094 -0.086749218 0.30637908 -1 1.0484475e-05 -7.7539327e-05 0
-0.15909091 -0.074318878 0.30289948 1 1.6720678e-05 -1.7780649e-05 0
0.15909094 -0.075162604 0.3032144 -1 6.7187952e-06 -3.2465447e-05 0
-0.15909092 -0.064310081 0.30559865 1 1.3453488e-05 -7.9205631e-05 0
0.15909092 -0.067086183 0.30595917 -1 2.8595736e-05 -8.9304041e-05 0
-0.15909092 -0.057172846 0.30507681 1 1.3281377e-05 -0.00013074772 0
0.15909092 -0.051382516 0.30247113 -1 1.0968666e-06 -2.9939563e-05 0
-0.15909091 -0.044067711 0.30630261 1 4.7571157e-06 -4.7498368e-05 0
0.15909091 -0.047321562 0.30685911 -1 6.5440149e-06 -1.64172e-05 0
-0.15909092 -0.032984864 0.3031247 1 8.285715e-06 -0.00010970624 0
0.15909092 -0.03003113 0.30247974 -1 7.4326649e-06 -6.7153451e-05 0
-0.15909092 -0.027317207 0.3051911 1 5.7431253e-06 -8.4064261e-05 0
0.15909092 -0.020879827 0.3020775 -1 1.6206676e-06 -5.0408034e-05 0
-0.15909092 -0.016933203 0.30423364 1 2.3104699e-06 -5.6051141e-07 0
0.15909094 -0.016735829 0.30323669 -1 0 0 0
-0.15909092 -0.0038601896 0.30479008 1 -5.8624173e-06 -8.1384576e-05 0
0.15909092 -0.0023381014 0.30417964 -1 1.0303557e-07 -3.3310803e-09 0
-0.15909092 0.0060947044 0.30782241 1 -1.0344224e-07 -3.3839297e-05 0
0.15909092 0.0064778314 0.30720276 -1 -6.1558887e-07 -1.6390662e-05 0
-0.15909092 0.01674138 0.30177844 1 -3.7162931e-06 -1.877785e-05 0
0.15909094 0.016110156 0.30449691 -1 -8.7766821e-06 -8.1083039e-05 0
-0.15909091 0.028720854 0.30642945 1 2.3628872e-06 -7.2137198e-05 0
0.15909091 0.025835693 0.30582547 -1 -5.8556211e-06 -1.469976e-05 0
-0.15909092 0.038901236 0.30067861 1 -2.0528271e-06 9.3059555e-08 0
0.15909092 0.036119461 0.3052116 -1 -1.5989601e-05 -4.8177524e-05 0
-0.15909092 0.045007151 0.30727419 1 -3.9671904e-06 -5.0307215e-05 0
0.15909092 0.040495858 0.30171981 -1 -6.1140281e-06 1.5559148e-05 0
-0.15909092 0.055592816 0.30720833 1 0 0 0
0.15909092 0.057979345 0.30375886 -1 -8.2968995e-08 -1.7299668e-05 0
-0.15909092 0.065605991 0.30784431 1 -1.8294629e-06 -7.0799426e-05 0
0.15909092 0.063461572 0.30338153 -1 -4.1347657e-06 -8.4303487e-08 0
-0.15909092 0.076812029 0.30345646 1 2.9263703e-07 -1.8926057e-05 0
0.15909092 0.077889048 0.30788562 -1 -2.5390658e-05 -9.114953e-05 0
-0.15909092 0.082160346 0.30859798 1 -1.4635216e-05 -4.9192106e-05 0
0.15909092 0.086256899 0.30502874 -1 -3.7268044e-06 8.2524977e-08 0
-0.15909092 0.090001471 0.30799615 1 -2.3450048e-06 -6.2912477e-05 0
0.15909092 0.094801478 0.30333617 -1 -1.6025377e-05 -3.134667e-05 0
-0.15909092 0.10585203 0.30688173 1 -2.7965627e-05 -5.3514785e-05 0
-0.15909092 0.11467668 0.30336013 1 -1.2785345e-05 -8.0496109e-05 0
0.15909091 0.11302453 0.30193284 -1 -9.4492425e-06 -1.7101722e-05 0
0.15909092 0.12465513 0.30251351 -1 -9.9528688e-06 -3.3311189e-05 0
-0.15909092 0.13670424 0.30534345 0.98401397 -0.17805673 -0.0035117797 0.027570946
0.15909092 0.13406657 0.30308822 -0.99612677 -0.086418092 -0.016231008 0.013688397
-0.15909092 0.14280495 0.30516654 0.93182039 -0.35996458 -0.046219014 0.067261904
0.15909092 0.14632769 0.30603868 -0.91346723 -0.40664741 0.014685163 0.062088173
-0.15649162 0.15742262 0.30529141 0.58372593 -0.80832404 -0.076656714 0.076239809
-0.14173172 0.15909091 0.3047463 0.22069378 -0.97481889 -0.031976178 0.049244545
-0.13505508 0.15909092 0.3014603 0.10171827 -0.9948045 -0.0041840645 0.018496681
-0.12559809 0.15909091 0.30489263 2.2867447e-05 -1 -8.0526675e-05 0
-0.11547222 0.15909089 0.30616328 2.8300454e-05 -1 -4.3522883e-05 0
-0.10800657 0.15909091 0.30593359 0 -1 0 0
-0.09483631 0.15909091 0.30354574 1.6527094e-05 -1 -5.9816266e-05 0
-0.083293088 0.15909091 0.30541089 2.1067628e-05 -1 -8.4591375e-05 0
-0.076618932 0.15909089 0.30360472 -1.9825886e-06 -1 -5.8192556e-05 0
-0.065438651 0.15909091 0.30706123 1.4749362e-06 -1 -6.8224144e-05 0
-0.055180989 0.15909091 0.30390266 8.3044318e-07 -1 -6.6301276e-05 0
-0.045537677 0.15909091 0.30238608 -1.9577154e-05 -1 -6.8636393e-05 0
-0.03559953 0.15909091 0.30914286 4.2070728e-06 -1 -3.3249769e-05 0
-0.025040986 0.15909089 0.30589786 7.372792e-06 -1 -6.5691522e-05 0
-0.015641242 0.15909091 0.30687469 2.4755748e-06 -1 -3.6278571e-08 0
-0.0060021593 0.15909089 0.30385527 2.045251e-06 -1 -1.5912192e-05 0
0.0043863137 0.15909091 0.30095184 -6.0607722e-06 -1 -5.9860129e-05 0
0.012514673 0.15909091 0.30857348 -2.9035964e-06 -1 -1.632977e-05 0
0.023212716 0.15909091 0.30670044 2.3305799e-06 -1 -7.9518926e-05 0
0.032787323 0.15909091 0.30691403 -6.1854139e-06 -1 -1.5088599e-05 0
0.042516422 0.15909091 0.30416718 -1.4025316e-05 -1 -4.6333058e-05 0
0.053937126 0.15909091 0.3056525 -1.5247522e-05 -1 -6.3302992e-05 0
0.068186879 0.15909091 0.30400768 4.4729089e-07 -1 -0.00011091268 0
0.078361496 0.15909091 0.30676341 -1.1259373e-05 -1 -7.2640272e-05 0
0.086085699 0.15909091 0.30187964 -7.1765527e-07 -1 -4.4441418e-05 0
0.094968557 0.15909091 0.30413651 -2.1450374e-05 -1 -2.9342824e-05 0
0.10456355 0.15909091 0.30653298 -2.451123e-05 -1 -4.8139522e-05 0
0.11317736 0.15909091 0.30567247 -4.2095733e-05 -1 -2.9981233e-05 0
0.12271348 0.15909089 0.30664214 1.9018252e-06 -1 -3.5599554e-05 0
0.13803336 0.15909091 0.30501765 -0.16493213 -0.98630488 0.00038015403 0.026209701
0.14397912 0.15909091 0.30321825 -0.41996843 -0.90750277 -0.0080768587 0.06154424
0.15713026 0.15695241 0.30402434 -0.75356835 -0.65721899 -0.014067587 0.06847886
-0.15582731 -0.15909091 0.3169806 0.73094571 0.68234825 -0.010919216 0.06635461
-0.14732318 -0.15909091 0.3130742 0.3472257 0.937769 0.0048637148 0.061628923
-0.13817783 -0.15909091 0.314982 0.19188395 0.9814176 0.00044109588 0.037293904
-0.12270062 -0.15909091 0.31500477 1.2738569e-05 1 -7.4520969e-05 0
-0.11254334 -0.15909091 0.31433961 1.1237091e-06 1 -2.9847693e-05 0
-0.10388076 -0.15909091 0.31430686 6.8537479e-06 1 -5.650564e-05 0
-0.094442569 -0.15909091 0.31686249 2.3658313e-05 1 -9.5773612e-05 0
-0.085517585 -0.15909091 0.31546324 1.1323638e-05 1 -3.302364e-05 0
-0.071191564 -0.15909091 0.31863722 1.4211236e-06 1 -8.7894499e-05 0
-0.060556762 -0.15909091 0.3104775 2.0379848e-05 1 -5.2999541e-05 0
-0.059047513 -0.15909091 0.31340992 1.1686873e-05 1 -5.5553068e-05 0
-0.046320129 -0.15909089 0.31689849 4.9098708e-06 1 -9.864349e-05 0
-0.036228389 -0.15909091 0.31475946 7.1790164e-06 1 -3.5477642e-05 0
-0.02525093 -0.15909091 0.31595314 4.30419e-06 1 -2.4581135e-07 0
-0.018858019 -0.15909091 0.31491497 2.0312002e-06 1 -8.7083754e-05 0
-0.0025886947 -0.15909089 0.31401035 -1.4566635e-06 1 -1.7178612e-05 0
0.0052878857 -0.15909089 0.31246302 4.9234363e-06 1 -0.00010951797 0
0.017419418 -0.15909091 0.31396145 1.5066622e-06 1 -2.9632534e-05 0
0.02501867 -0.15909091 0.31602243 -1.0686627e-05 1 -5.4544536e-05 0
0.033576965 -0.15909091 0.31638598 -5.5503403e-07 1 -6.6853696e-05 0
0.044737939 -0.15909089 0.31549546 -1.220711e-05 1 -3.6869118e-05 0
0.058301084 -0.15909091 0.31541687 -1.1780592e-05 1 -8.8868917e-05 0
0.06412366 -0.15909091 0.31717601 -8.5971915e-06 1 -3.5898825e-05 0
0.078279167 -0.15909091 0.31415969 -8.4758913e-06 1 -5.2774998e-05 0
0.085447319 -0.15909091 0.31471902 -2.328184e-05 1 -4.0959909e-05 0
0.10445271 -0.15909091 0.31838858 7.6564845e-08 1 -4.5825429e-05 0
0.1155173 -0.15909091 0.31536731 3.5724265e-06 1 -0.00010929854 0
0.12503614 -0.15909091 0.31384769 -3.3040621e-06 1 -6.7780617e-05 0
0.13461015 -0.15909091 0.31572175 -0.096581586 0.99530178 -0.0068147592 0.013583779
0.14644845 -0.15909091 0.31259856 -0.44379756 0.89509821 -0.042928729 0.063344702
0.15778756 -0.15698457 0.31623167 -0.68900549 0.72182465 0.065120801 0.071858913
-0.15909092 -0.14176857 0.31868756 0.96311456 0.26874793 0.013593439 0.046403069
0.15909092 -0.14426446 0.31277737 -0.91445792 0.40439042 0.015334686 0.070333987
-0.15909092 -0.13443042 0.31279492 0.9968524 0.078958839 -0.0071287006 0.0088598523
0.15909092 -0.13503365 0.31389949 -0.98936313 0.14546612 -0.00042930472 0.020279422
-0.15909092 -0.12636852 0.31340364 1 1.1458334e-05 -7.2717616e-05 0
0.15909091 -0.12642488 0.31720626 -1 2.0254345e-05 -5.4500208e-05 0
-0.15909091 -0.11659524 0.31604332 1 1.8751351e-05 -3.012335e-05 0
0.15909092 -0.11516786 0.31313819 -1 8.069871e-06 -8.8915825e-05 0
-0.15909092 -0.10398331 0.31641766 1 3.3591793e-06 -1.8979417e-05 0
0.15909092 -0.10385638 0.31491807 -1 3.7194444e-05 -9.1857124e-05 0
-0.15909092 -0.096596964 0.31596169 1 1.6245645e-05 -1.6680908e-05 0
0.15909092 -0.095529221 0.31531522 -1 2.2090388e-05 -8.4303094e-05 0
-0.15909092 -0.086463012 0.31875899 1 1.2494162e-05 -9.3302304e-05 0
0.15909092 -0.081644565 0.31874061 -1 4.0360706e-07 -1.9952762e-05 0
-0.15909092 -0.075466134 0.31547186 1 1.3558238e-05 -3.4507524e-05 0
0.15909092 -0.071389921 0.31768945 -1 1.3080813e-05 -7.9966238e-05 0
-0.15909092 -0.064770408 0.31564629 1 1.6287084e-05 1.8438544e-05 0
0.15909092 -0.064848594 0.31557831 -1 1.623207e-05 -3.1575953e-05 0
-0.15909092 -0.054823406 0.31492153 1 -4.6792566e-06 -5.6925157e-05 0
0.15909092 -0.056221537 0.31384203 -1 8.5893771e-06 -4.6980567e-05 0
-0.15909091 -0.049015976 0.31442088 1 5.8187688e-06 -4.5407403e-05 0
0.15909092 -0.042836137 0.31676763 -1 1.9481504e-06 -5.1264316e-05 0
-0.15909092 -0.03554906 0.31294188 1 1.357643e-06 -8.6707791e-05 0
0.15909094 -0.033931762 0.31735256 -1 2.9997534e-06 -1.6516975e-05 0
-0.15909091 -0.024529884 0.31734005 1 7.2603907e-06 -3.6206344e-05 0
0.15909092 -0.022568233 0.315283 -1 3.5621642e-06 -8.1148159e-05 0
-0.15909094 -0.017517565 0.31571695 1 2.7519463e-06 4.150462e-08 0
0.15909092 -0.014338795 0.31468141 -1 0 0 0
-0.15909092 -0.005718851 0.31146011 1 3.7574709e-06 -6.6562818e-05 0
0.15909092 -0.0046346104 0.31628233 -1 -2.5560055e-08 1.9220524e-05 0
-0.15909092 0.0035335962 0.31569338 1 -2.8823646e-07 1.3784924e-09 0
0.15909092 0.0052552409 0.31208539 -1 -4.974857e-07 3.1073018e-08 0
-0.15909092 0.01212319 0.3140521 1 -1.5926349e-06 -1.8479121e-05 0
0.15909092 0.014702796 0.31433105 -1 5.7516286e-06 3.9802519e-05 0
-0.15909092 0.024833744 0.31399873 1 -4.6427658e-06 -1.7836743e-05 0
0.15909092 0.024788238 0.31661242 -1 2.6716334e-06 -4.156604e-05 0
-0.15909092 0.037959203 0.31187615 1 6.4112619e-06 -3.236163e-05 0
0.15909092 0.032204989 0.31826141 -1 1.8009113e-06 -1.8062105e-08 0
-0.15909091 0.04788911 0.31533188 1 -4.9190448e-06 -6.3518324e-05 0
0.15909092 0.043655582 0.3168188 -1 -7.0618535e-06 -3.5784953e-05 0
-0.15909092 0.056162268 0.31572911 1 1.0238709e-06 -6.1007464e-05 0
0.15909092 0.057869572 0.31746265 -1 -5.7590246e-06 -3.3687622e-05 0
-0.15909091 0.065628514 0.31609035 1 -8.6097407e-06 -8.2307466e-05 0
0.15909092 0.06350673 0.31328231 -1 -1.2459357e-05 -1.6732483e-05 0
-0.15909091 0.077601373 0.31226486 1 -1.1418258e-05 -5.9717752e-07 0
0.15909092 0.077712208 0.31561515 -1 -2.69664e-06 -5.8088339e-05 0
-0.15909094 0.084801458 0.31743079 1 -8.1483004e-06 -5.7026122e-05 0
0.15909092 0.083682485 0.31735072 -1 -9.1341681e-06 3.399406e-05 0
-0.15909092 0.094267167 0.31299281 1 -1.1727705e-07 1.9581856e-05 0
0.15909092 0.097621195 0.31578636 -1 -1.5877618e-05 -2.7550672e-05 0
-0.15909092 0.10630193 0.31409198 1 1.2450822e-05 -5.3114534e-05 0
0.15909091 0.10562669 0.313638 -1 3.0536128e-06 -6.5770982e-05 0
-0.15909092 0.11448469 0.31662294 1 -1.5853768e-05 2.4760175e-06 0
0.15909092 0.11547901 0.31529963 -1 9.0687836e-06 -1.5140861e-05 0
-0.15909091 0.1244779 0.31546617 1 -1.7349662e-06 -4.9012902e-05 0
0.15909092 0.12310807 0.31715423 -1 -1.3624124e-05 -4.8603222e-05 0
-0.15909091 0.13393757 0.31478161 0.99630189 -0.08586026 -0.0032535275 0.013244602
0.15909092 0.13552631 0.31548765 -0.99158448 -0.12901989 -0.010682708 0.021263428
-0.15909092 0.14883058 0.31800354 0.85572058 -0.51691735 -0.023209078 0.080055565
0.15909092 0.14392361 0.317801 -0.94442636 -0.32818371 -0.018823922 0.057779394
-0.15647718 0.15909091 0.31508619 0.67753994 -0.73547488 -0.0040347041 0.084867857
-0.14469919 0.15909091 0.31561381 0.3606393 -0.93140393 0.049255196 0.06512481
-0.13574249 0.15909091 0.31451678 0.16525741 -0.98624647 -0.0028152142 0.025300598
-0.1252501 0.15909091 0.31645733 1.9787713e-05 -1 1.8368346e-05 0
-0.11507606 0.15909089 0.3144137 2.588491e-05 -1 -4.5983681e-05 0
-0.10032181 0.15909091 0.3138268 2.7462638e-05 -1 -0.00010380481 0
-0.098430432 0.15909091 0.3129544 2.7576503e-05 -1 -2.0236932e-05 0
-0.082499623 0.15909091 0.31318292 1.2240483e-05 -1 -5.40746e-05 0
-0.076887317 0.15909091 0.31720015 2.5997966e-05 -1 -7.3864416e-05 0
-0.066367403 0.15909091 0.31469747 6.9647035e-06 -1 -6.7654408e-05 0
-0.056983978 0.15909091 0.31708539 1.0998927e-05 -1 -8.1049213e-05 0
-0.045141254 0.15909091 0.31829062 3.3615754e-07 -1 -6.3882129e-05 0
-0.035128664 0.15909089 0.3128151 1.1766141e-05 -1 -3.4781042e-05 0
-0.024747694 0.15909091 0.31341666 1.6300608e-05 -1 -9.0978901e-05 0
-0.016890721 0.15909089 0.31729603 8.2383549e-06 -1 -4.7466267e-05 0
-0.0064785853 0.15909091 0.31512821 2.230111e-06 -1 -4.073299e-05 0
0.0037610156 0.15909091 0.3161543 5.1365432e-06 -1 -3.7027752e-05 0
0.016688317 0.15909091 0.31534877 -2.2682475e-06 -1 -5.0589308e-05 0
0.023990408 0.15909091 0.31417677 5.2585087e-06 -1 -3.7992631e-05 0
0.035375666 0.15909091 0.31790397 -7.1283116e-06 -1 1.6074004e-05 0
0.041266032 0.15909091 0.3165032 -1.1722766e-05 -1 -5.2856049e-05 0
0.053011689 0.15909091 0.31355092 -1.820937e-05 -1 -2.1191521e-05 0
0.06698171 0.15909091 0.31640679 -1.0866363e-05 -1 -5.610094e-05 0
0.085478485 0.15909091 0.31319827 -1.8541527e-05 -1 -2.9899065e-05 0
0.095530733 0.15909091 0.31376007 -1.7626913e-05 -1 -6.0070222e-05 0
0.10533281 0.15909091 0.31443739 -2.0907884e-05 -1 5.3244989e-05 0
0.11611993 0.15909091 0.31522262 -3.2602045e-05 -1 -7.2245857e-05 0
0.12618504 0.15909089 0.31668577 -0.0054097832 -0.9999848 0.0010512845 4.9951814e-05
0.13320148 0.15909091 0.31465846 -0.024589777 -0.99969757 -0.00047935644 0.00085390545
0.14310254 0.15909091 0.31663314 -0.36302859 -0.93157333 -0.019529197 0.073833168
0.15535764 0.1581699 0.31437773 -0.65057015 -0.75686914 -0.062511452 0.088479996
-0.15882702 -0.15640174 0.32407239 0.75484812 0.65550208 -0.022835432 0.078722119
-0.14533466 -0.15909089 0.32500324 0.35620427 0.93436754 -0.0087086549 0.059253421
-0.13576955 -0.15909091 0.32809824 0.17006209 0.98535252 -0.012621583 0.026880965
-0.12292182 -0.15909091 0.32284883 3.4340555e-05 1 -1.8401166e-05 0
-0.11361607 -0.15909091 0.32266799 5.1124161e-06 1 -7.3379757e-05 0
-0.094439887 -0.15909091 0.32543588 2.037239e-05 1 -7.7046469e-05 0
-0.083168387 -0.15909091 0.3216081 1.5676997e-05 1 -5.7451154e-05 0
-0.074636154 -0.15909089 0.32665309 9.0152735e-06 1 -1.9169016e-05 0
-0.065434016 -0.15909091 0.32046181 1.0486984e-05 1 -9.4341609e-05 0
-0.055483121 -0.15909091 0.32442456 4.6726808e-07 1 -2.114366e-05 0
-0.047444977 -0.15909091 0.32822287 2.034371e-05 1 -9.189266e-05 0
-0.035070989 -0.15909091 0.32401174 7.8037538e-06 1 -4.8851172e-05 0
-0.022379156 -0.15909091 0.32595563 7.1580257e-06 1 -7.1031871e-05 0
-0.014639951 -0.15909091 0.32595858 -3.3504105e-06 1 -3.24834e-05 0
-0.0055277436 -0.15909089 0.32374302 -6.5637187e-06 1 -3.9372277e-05 0
0.00098116323 -0.15909091 0.32494146 6.772438e-07 1 -3.6396079e-05 0
0.011685043 -0.15909091 0.32194686 -6.9353978e-06 1 -5.3751734e-05 0
0.027354706 -0.15909091 0.32309121 -7.3538072e-06 1 -3.3117754e-05 0
0.030164693 -0.15909091 0.321863 -5.7736042e-06 1 -5.1385599e-05 0
0.042744368 -0.15909091 0.32497421 -1.5590394e-05 1 -5.080636e-05 0
0.056313723 -0.15909091 0.3208186 -1.3594118e-05 1 -0.00011405154 0
0.063819267 -0.15909091 0.32367337 -5.9389258e-06 1 -1.4625591e-05 0
0.075745508 -0.15909091 0.32392678 -1.4864962e-05 1 -3.4687975e-05 0
0.083946809 -0.15909091 0.32574904 -1.5482554e-05 1 -3.1296495e-05 0
