# .PCD v0.7 - Point Cloud Data file format
VERSION 0.7
FIELDS x y z normal_x normal_y normal_z curvature
SIZE 4 4 4 4 4 4 4
TYPE F F F F F F F
COUNT 1 1 1 1 1 1 1
WIDTH 659
HEIGHT 1
VIEWPOINT 0 0 0 1 0 0 0
POINTS 659
DATA ascii
0.15371025 -0.043769296 0.32456142 0.2316689 -0.012136791 -0.97271895 0.13144456
0.16468224 -0.046641424 0.32456142 0.33571121 0.0030253318 -0.94196016 0.15618129
0.17373076 -0.043066747 0.32456142 -0.038527858 0.0061444663 -0.99923867 0.14636157
0.18354954 -0.042801946 0.32456142 -0.37803233 -0.038078245 -0.92500901 0.13120833
0.19653106 -0.047293227 0.32597712 -0.74115533 -0.046153288 -0.66974533 0.084584095
0.20175439 -0.040376671 0.32203498 -0.81937224 0.0084412489 -0.57319963 0.093765333
-0.20175439 -0.035194919 0.3231526 0.80343962 -0.044780377 -0.59369987 0.089751497
-0.1984826 -0.035218894 0.32687494 0.76780343 -0.030804474 -0.63994449 0.084758334
-0.18695557 -0.033491425 0.32456142 0.54329985 -0.03912916 -0.83862644 0.11344856
-0.17439924 -0.036716402 0.32456142 0.10016289 -0.063355826 -0.99295187 0.17634773
-0.16444989 -0.036188226 0.32456142 -0.25475448 -0.043935683 -0.96600711 0.16581056
-0.15556353 -0.032484114 0.32456142 -0.33573049 0.15251207 -0.92952949 0.12863894
-0.14467381 -0.034083553 0.32456142 -3.2328418e-05 3.5134269e-06 -1 0
-0.1320274 -0.034753904 0.32456142 1.7034496e-05 -2.1590395e-06 -1 0
-0.12326739 -0.033049908 0.32456139 -1.6663145e-05 3.4028822e-06 -1 0
-0.10506258 -0.038213272 0.32456142 3.2660137e-05 1.0593941e-05 -1 0
-0.09583582 -0.039842714 0.32456142 1.640924e-06 1.5102236e-05 -1 0
-0.084829032 -0.03554181 0.32456142 3.4834407e-05 8.0967156e-06 -1 0
-0.076198041 -0.037791781 0.32456142 4.1246378e-05 -5.6001199e-06 -1 0
-0.064104088 -0.035707694 0.32456142 2.5869818e-05 1.0064696e-05 -1 0
-0.05479895 -0.035613738 0.32456139 1.2168905e-05 9.5483892e-06 -1 0
-0.043396879 -0.037544306 0.32456142 -2.1378453e-05 2.319407e-06 -1 0
-0.013293143 -0.030006219 0.32456142 2.2030924e-06 4.1982112e-06 -1 0
-0.0042062937 -0.035143521 0.32456142 -1.157572e-06 -7.1737195e-06 -1 0
0.0031772177 -0.037486233 0.32456142 -3.6235272e-07 -8.6684586e-06 -1 0
0.013532516 -0.033359703 0.32456142 7.7193152e-10 -5.1077768e-06 -1 0
0.024722839 -0.038582344 0.32456142 -8.5331239e-06 3.6492154e-06 -1 0
0.031865746 -0.03532324 0.32456142 -0 -0 -1 0
0.042061687 -0.038948201 0.32456142 -7.5634339e-06 1.2506614e-05 -1 0
0.054529466 -0.035113901 0.32456142 -8.6752434e-06 3.7824927e-06 -1 0
0.067154072 -0.031921353 0.32456142 -2.9228569e-05 1.532297e-05 -1 0
0.076581776 -0.036396869 0.32456142 -5.5527717e-06 2.3041852e-05 -1 0
0.08491651 -0.035186119 0.32456142 -9.9847985e-06 3.9001338e-06 -1 0
0.094963253 -0.036212657 0.32456142 1.3225365e-05 4.8294464e-06 -1 0
0.10621496 -0.034340877 0.32456142 -3.2069529e-05 7.8939947e-06 -1 0
0.1153976 -0.032281987 0.32456142 -3.5665813e-05 8.0346881e-06 -1 0
0.12442859 -0.036949191 0.32456142 -4.9625021e-05 7.8717121e-06 -1 0
0.13582504 -0.032817658 0.32456142 -1.5471238e-05 4.1702424e-06 -1 0
0.14699028 -0.037136048 0.32456142 -2.8684717e-05 2.8791624e-06 -1 0
0.15775973 -0.038656242 0.32456142 0.37399325 0.040951926 -0.92652684 0.1960423
0.16481419 -0.032342046 0.32456142 0.24269052 -0.18426119 -0.95244384 0.18543951
0.1761955 -0.031896487 0.32456142 -0.16225491 0.019610656 -0.98655397 0.14698058
0.18122116 -0.03305494 0.32456142 -0.36675698 -0.073898748 -0.9273771 0.14011116
0.19556618 -0.034432292 0.32621497 -0.7080403 0.003535199 -0.70616317 0.093868122
0.20097816 -0.032238897 0.32463133 -0.82237309 0.035489962 -0.56784058 0.081617691
-0.20060024 -0.023403494 0.32537752 0.73985285 0.067322969 -0.66939175 0.076995656
-0.19578134 -0.024544949 0.32456142 0.64535779 0.013076423 -0.76376849 0.09373989
-0.17541647 -0.02490858 0.32456142 0.062210854 0.0023678131 -0.99806029 0.12864515
-0.16707513 -0.026770908 0.32456142 -0.19968465 -0.089631103 -0.97575223 0.14987656
-0.15431507 -0.023620421 0.32456142 -0.2196245 -0.014965821 -0.97546971 0.084689617
-0.14551318 -0.024723219 0.32456142 1.3810482e-05 9.1268921e-06 -1 0
-0.13265109 -0.023451101 0.32456142 1.7759161e-05 2.471266e-06 -1 0
-0.12486541 -0.025413964 0.32456142 1.3332094e-06 1.5028187e-05 -1 0
-0.11563581 -0.02375105 0.32456142 1.4926487e-05 1.5082799e-06 -1 0
-0.10569003 -0.021625245 0.32456142 3.4664023e-05 3.827769e-06 -1 0
-0.097363591 -0.023283668 0.32456142 3.1472213e-05 6.6531288e-06 -1 0
-0.086155012 -0.025406461 0.32456142 1.512272e-05 4.1444764e-06 -1 0
-0.068521082 -0.022277452 0.32456142 1.8167279e-05 4.2593101e-06 -1 0
-0.056067199 -0.02676641 0.32456142 3.5786685e-05 2.3823784e-06 -1 0
-0.048071962 -0.024258539 0.32456142 2.8924669e-05 -8.0057735e-06 -1 0
-0.031668067 -0.025645373 0.32456142 2.3531429e-06 9.6779222e-06 -1 0
-0.025946995 -0.024269044 0.32456139 5.5671344e-06 1.3282501e-05 -1 0
-0.015514253 -0.026799684 0.32456142 -2.6903086e-07 -4.6839059e-06 -1 0
-0.0043578129 -0.023115391 0.32456142 4.6737274e-08 -6.6666616e-06 -1 0
0.0060114861 -0.02597104 0.32456142 -1.0173251e-06 4.6024634e-06 -1 0
0.014177863 -0.026130352 0.32456142 -1.114949e-06 5.1608655e-09 -1 0
0.024601577 -0.029360553 0.32456142 -6.8964114e-06 4.1729481e-06 -1 0
0.032679088 -0.02538331 0.32456142 -9.7314169e-06 3.0164688e-06 -1 0
0.056396753 -0.025093481 0.32456142 -1.6583628e-05 7.0353203e-06 -1 0
0.064107522 -0.02497264 0.32456142 -1.8244353e-05 -7.094859e-06 -1 0
0.07593289 -0.021501811 0.32456142 -3.0458283e-05 1.2774641e-06 -1 0
0.082735702 -0.022893887 0.32456142 -7.5199323e-06 7.4937448e-06 -1 0
0.094639666 -0.026946049 0.32456142 -1.862369e-05 1.3569414e-06 -1 0
0.10351799 -0.024989316 0.32456142 -4.2099163e-08 6.8593631e-06 -1 0
0.11245049 -0.024750203 0.32456142 -4.6729383e-05 1.3518376e-05 -1 0
0.12256707 -0.026201338 0.32456142 -1.3326173e-05 3.085333e-06 -1 0
0.13054782 -0.024872504 0.32456142 -1.6383468e-05 1.3406324e-05 -1 0
0.14467871 -0.027568299 0.32456142 -3.2115628e-07 8.5649572e-06 -1 0
0.15081967 -0.02625848 0.32456142 0.069522493 0.021321515 -0.99735254 0.034233183
0.16635615 -0.025075451 0.32456142 0.24954316 0.097168446 -0.96347624 0.14023532
0.17134887 -0.023462739 0.32456142 0.11585698 0.067224525 -0.99098837 0.13161054
0.18520309 -0.024063403 0.32456139 -0.565597 -0.017405655 -0.82449812 0.12065781
0.20000467 -0.022989638 0.32456142 -0.77267903 0.029180778 -0.63412577 0.091927953
-0.20175439 -0.017384604 0.32117391 0.82828009 -0.0074881599 -0.56026429 0.084414192
-0.19416857 -0.013340347 0.32695448 0.68285978 -0.046611421 -0.72906101 0.0823007
-0.18533844 -0.018006641 0.32456142 0.49579182 0.032442231 -0.86783522 0.11058065
-0.17277233 -0.012518323 0.32456139 0.10989802 0.04373803 -0.99298 0.14632553
-0.15294154 -0.016624134 0.32456142 -0.18282525 0.0042514014 -0.98313618 0.094841167
-0.14014328 -0.014731582 0.32456142 5.3967196e-05 4.2871357e-06 -1 0
-0.13508387 -0.015135858 0.32456142 8.4411891e-05 -2.0332738e-05 -1 0
-0.12276123 -0.014276039 0.32456142 -9.2897615e-08 2.4756459e-06 -1 0
-0.10583582 -0.019194223 0.32456142 1.7072514e-05 9.3661947e-06 -1 0
-0.092649303 -0.019802809 0.32456142 5.1900937e-05 9.1425063e-06 -1 0
-0.083551966 -0.015084572 0.32456142 2.633546e-05 3.9269271e-06 -1 0
-0.075215049 -0.014625446 0.32456139 2.466186e-05 7.5291341e-06 -1 0
-0.060425192 -0.016100662 0.32456142 9.081321e-06 1.2714866e-06 -1 0
-0.058450736 -0.011107843 0.32456142 9.6084777e-06 3.4397779e-06 -1 0
-0.04670471 -0.016433319 0.32456142 -3.2812653e-07 1.0191523e-05 -1 0
-0.033420235 -0.014645716 0.32456142 1.4387506e-07 -2.1526864e-06 -1 0
-0.027100395 -0.014057409 0.32456142 9.7304865e-06 3.037617e-06 -1 0
-0.013249531 -0.013114013 0.32456142 3.2488042e-06 2.386189e-06 -1 0
-0.0040573529 -0.014735815 0.32456142 -4.0773702e-07 -2.3358502e-06 -1 0
0.0048014955 -0.013232247 0.32456142 -2.1264364e-06 4.33171e-06 -1 0
0.013797328 -0.016490964 0.32456142 -2.0879284e-06 -1.9541515e-06 -1 0
0.026106151 -0.017338702 0.32456142 -2.1587559e-06 7.9865395e-06 -1 0
0.037433457 -0.012286775 0.32456142 -1.0895748e-05 4.8437169e-06 -1 0
0.045718916 -0.014219804 0.32456142 -3.2142068e-06 4.5399024e-06 -1 0
0.056426901 -0.015906611 0.32456142 -7.0685574e-06 -9.2097366e-07 -1 0
0.066413105 -0.011319041 0.32456142 3.7693106e-08 3.1061068e-06 -1 0
0.077244006 -0.01406873 0.32456142 -9.6733629e-06 -9.9100691e-07 -1 0
0.084489301 -0.013640553 0.32456142 -8.1148573e-06 -1.395947e-06 -1 0
0.10057148 -0.011462305 0.32456142 -0 -0 -1 0
0.11436751 -0.015228754 0.32456142 -1.503225e-05 3.4117541e-06 -1 0
0.13635421 -0.015803935 0.32456142 -1.7773777e-05 1.0129788e-07 -1 0
0.14325663 -0.015230231 0.32456142 5.156621e-05 1.3161604e-06 -1 0
0.16248 -0.018910738 0.32456142 0.28234544 0.064877719 -0.95711643 0.16368729
0.17507252 -0.016754882 0.32456142 -0.1555142 0.090354607 -0.98369271 0.14277039
0.18462534 -0.013971634 0.32456142 -0.55191237 0.066335022 -0.83125949 0.12007044
0.19546907 -0.01511813 0.32900581 -0.66381341 0.019964468 -0.74763173 0.081776761
0.20175439 -0.015165523 0.32350057 -0.79445344 -0.038541511 -0.60610086 0.083734326
-0.20139018 -0.004795976 0.32366061 0.84399045 0.043339018 -0.53460449 0.089087255
-0.19641593 -0.0022141719 0.32700771 0.75431842 0.027792644 -0.65592009 0.077505469
-0.1866238 -0.0064031444 0.32456139 0.62053782 0.052570466 -0.78241241 0.1076022
-0.17604856 -0.0045564887 0.32456142 0.20708957 0.041726913 -0.97743177 0.14327085
-0.16324684 -0.0032979259 0.32456142 -0.16889191 0.026919391 -0.98526692 0.21149607
-0.14109348 -0.0091747381 0.32456142 7.5843614e-05 9.1844886e-06 -1 0
-0.13272382 -0.0044236756 0.32456142 4.1562384e-05 4.9003074e-06 -1 0
-0.12511684 -0.00731197 0.32456142 1.7480354e-05 4.9506125e-06 -1 0
-0.11501057 -0.0044286996 0.32456142 -1.5701999e-05 3.5983526e-06 -1 0
-0.10248401 -0.0034822896 0.32456142 3.417179e-05 3.6068777e-06 -1 0
-0.09771131 -0.001158515 0.32456142 1.5656464e-05 -3.7087871e-06 -1 0
-0.088180296 -0.001471702 0.32456142 1.7708902e-05 -1.9903935e-06 -1 0
-0.072386935 -0.0032538734 0.32456142 6.8175934e-05 7.2788039e-06 -1 0
-0.065090016 -0.0050215321 0.32456142 2.2544897e-05 1.2886099e-07 -1 0
-0.052315116 -0.0061801802 0.32456142 1.6222133e-05 -3.9871216e-07 -1 0
-0.041735403 -0.0023508966 0.32456142 4.3124828e-06 5.8159304e-07 -1 0
-0.035443068 -0.0087587982 0.32456142 -1.7801042e-08 3.418633e-06 -1 0
-0.026280943 -0.0060087224 0.32456139 -3.4833256e-06 3.140322e-06 -1 0
-0.012803935 -0.0082952008 0.32456142 1.8105343e-06 -1.1358812e-06 -1 0
-0.0084850201 -0.008915971 0.32456142 1.9147669e-06 1.1956812e-06 -1 0
0.0024647228 -0.007398691 0.32456142 5.6946237e-07 -7.0385056e-08 -1 0
0.013461287 -0.0031562028 0.32456142 1.6959352e-06 1.1236506e-06 -1 0
0.022469869 -0.0044718734 0.32456142 -6.7317915e-06 1.2435639e-06 -1 0
0.033504184 -0.00065038819 0.32456142 -8.2006836e-06 -4.306244e-07 -1 0
0.043043684 -0.0052075074 0.32456142 -6.6538923e-06 -5.1568537e-07 -1 0
0.06167043 -0.0050616693 0.32456142 3.5080188e-07 2.4217102e-06 -1 0
0.073020652 -0.0056060329 0.32456142 -8.3248742e-06 1.5658761e-06 -1 0
0.084908523 -0.0093943868 0.32456142 -3.4558965e-05 4.0174577e-06 -1 0
0.094758883 -0.005837027 0.32456142 -7.0328429e-06 3.0865485e-07 -1 0
0.10539652 -0.0060535213 0.32456142 -5.3144908e-05 5.2330547e-06 -1 0
0.11357421 -0.0033406392 0.32456142 -3.5995559e-05 -3.1274531e-06 -1 0
0.12444546 -0.008234717 0.32456142 -4.4703487e-05 4.8137367e-06 -1 0
0.13491356 -0.009198104 0.32456142 -1.6012515e-05 2.617737e-06 -1 0
0.14831823 -0.0031462209 0.32456142 -4.3251661e-05 9.6929716e-07 -1 0
0.15212741 -0.0045178928 0.32456142 0.30072328 0.030515214 -0.95322311 0.11019765
0.1600782 -0.005558446 0.32456142 0.2686213 0.022611944 -0.96298045 0.15940724
0.17434096 -0.0073541589 0.32456142 -0.078291036 -0.052725043 -0.99553531 0.14517385
0.18562634 -0.005937641 0.32456142 -0.5188213 0.0006628175 -0.85488248 0.12806395
0.19504066 -0.0047172136 0.32456142 -0.77938342 -0.067493781 -0.62290126 0.073356725
0.20123525 -0.0082881311 0.32342491 -0.82307601 -0.060374677 -0.56471288 0.077838585
-0.20089106 0.0059891283 0.32456142 0.80830646 0.038040787 -0.58753175 0.084186926
-0.19667108 0.0045739789 0.32634637 0.77966851 0.043013215 -0.62471348 0.089424916
-0.18387711 0.0039068996 0.32456142 0.54990345 0.039895866 -0.83427477 0.13534272
-0.17878246 0.0019705147 0.32456142 0.40405113 0.024753908 -0.91440135 0.13903373
-0.16379394 0.0044935071 0.32456139 -0.22407775 0.26621783 -0.93750584 0.23614664
-0.15818273 0.0051468443 0.32456142 -0.40548769 -0.060929716 -0.91206753 0.21894716
-0.14527707 0.0029051276 0.32456142 2.3510001e-05 1.6323326e-06 -1 0
-0.12518123 0.00051037967 0.32456142 3.8364302e-05 4.4219269e-06 -1 0
-0.1120266 0.0026638955 0.32456142 4.5459943e-05 3.9422468e-07 -1 0
-0.093336284 0.0049374513 0.32456142 3.0507459e-05 -6.5197473e-06 -1 0
-0.082837529 0.0055289157 0.32456142 2.0093144e-05 -4.0792061e-06 -1 0
-0.073653206 0.005852838 0.32456142 1.2779093e-07 9.3773667e-07 -1 0
-0.067143112 0.0042134747 0.32456142 9.0556014e-06 -1.0505415e-07 -1 0
-0.044719357 0.0085018752 0.32456142 1.3756953e-05 -8.3011327e-07 -1 0
-0.035087384 0.00097940117 0.32456142 1.6176609e-05 1.4053401e-06 -1 0
-0.027782336 0.0045215972 0.32456142 8.5238367e-09 -1.1382778e-06 -1 0
-0.013763777 0.0048767962 0.32456142 -2.0381894e-08 1.0650515e-06 -1 0
-0.0030454074 0.0040663104 0.32456142 -2.522423e-07 -3.5845179e-08 -1 0
0.0056346636 0.0040098205 0.32456142 -2.6538377e-08 4.5153612e-07 -1 0
0.012185241 0.0055320356 0.32456139 -1.1203842e-06 -1.0629525e-06 -1 0
0.026406083 0.003835652 0.32456142 -4.3910309e-06 -4.1690851e-07 -1 0
0.030039825 0.0021017268 0.32456142 -4.4128083e-06 1.944495e-07 -1 0
0.041696586 0.0040272078 0.32456142 -7.1540676e-06 -1.2787231e-06 -1 0
0.068866089 0.0058169812 0.32456142 -1.499976e-05 -4.2614292e-06 -1 0
0.07651002 0.007169351 0.32456142 -1.0898153e-05 -2.2341985e-06 -1 0
0.087879822 0.0010400601 0.32456142 8.5222264e-06 -1.0398447e-06 -1 0
0.093606882 0.008604167 0.32456142 -2.6497642e-05 -1.5651063e-06 -1 0
0.10454345 0.0047550946 0.32456142 -2.1041589e-05 -1.4882431e-06 -1 0
0.11794856 0.0051675402 0.32456142 -1.5455722e-05 -1.6331223e-06 -1 0
0.13476872 0.0055098333 0.32456142 -4.7550813e-05 -6.5400673e-06 -1 0
0.14397237 0.0051738527 0.32456142 -3.7671325e-05 6.1291286e-07 -1 0
0.15274644 0.0066820234 0.32456142 0.19807549 -0.063472092 -0.97812957 0.10117018
0.16415003 0.0044808406 0.32456142 0.22996858 -0.030398924 -0.97272313 0.15996267
0.18397421 0.003681005 0.32456142 -0.54677916 -0.09584114 -0.8317734 0.11766905
0.1952917 0.0049068867 0.32645908 -0.75227797 -0.017379824 -0.65861654 0.067250587
-0.20129561 0.017794894 0.32245249 0.86048847 0.054723885 -0.5065223 0.065598279
-0.19770038 0.012921729 0.32483065 0.77516979 0.034721084 -0.63079816 0.086716682
-0.18617895 0.014885502 0.32456142 0.4131808 0.02231859 -0.91037548 0.11769423
-0.1768222 0.017171063 0.32456142 0.22753581 0.0065046847 -0.97374797 0.13469745
-0.16105133 0.013508778 0.32456142 -0.46664983 0.076690398 -0.88111091 0.21922861
-0.15374747 0.013057071 0.32456142 -0.35014811 -0.043045182 -0.93570483 0.15333997
-0.14270629 0.017845096 0.32456142 0.00010769177 -1.111702e-05 -1 0
-0.13540336 0.0195703 0.32456142 3.6479651e-05 -5.858155e-06 -1 0
-0.12428747 0.015139113 0.32456142 5.6901637e-05 -1.8372784e-06 -1 0
-0.10236281 0.014354121 0.32456142 3.2236894e-05 -2.5237898e-06 -1 0
-0.087510861 0.016132474 0.32456142 3.6814046e-05 -6.1969522e-06 -1 0
-0.076730497 0.013491881 0.32456142 2.0692012e-05 -1.569578e-06 -1 0
-0.064408354 0.014501058 0.32456139 -2.5390187e-07 -4.5696206e-06 -1 0
-0.052278876 0.013816035 0.32456142 8.6638611e-06 -1.8914376e-06 -1 0
-0.043409079 0.015651755 0.32456142 1.597801e-05 -7.5205699e-06 -1 0
-0.036786817 0.014530528 0.32456142 1.3276397e-05 -7.830734e-07 -1 0
-0.029581189 0.01601088 0.32456142 3.9576958e-06 4.2116554e-07 -1 0
-0.010373605 0.018446043 0.32456142 -2.964741e-06 -3.4000659e-06 -1 0
-0.0047774389 0.01532498 0.32456142 4.886456e-08 -1.8757257e-06 -1 0
0.013666112 0.015391624 0.32456142 1.0037554e-07 1.9979348e-06 -1 0
0.021631375 0.012049854 0.32456142 -9.6811974e-08 -1.8711311e-06 -1 0
0.042869151 0.016527086 0.32456142 -1.8388138e-05 2.027605e-06 -1 0
0.054722197 0.015329599 0.32456145 -3.0261865e-05 -6.4790711e-06 -1 0
0.06289719 0.016852127 0.32456142 -2.9457637e-05 -7.6131614e-06 -1 0
0.074800305 0.015794542 0.32456142 0 0 -1 0
0.095353186 0.011111202 0.32456142 -1.6187816e-05 -1.3365119e-06 -1 0
0.10633286 0.017394457 0.32456142 -1.7817121e-05 -5.5264036e-06 -1 0
0.11141263 0.019394983 0.32456142 1.2685895e-06 -6.5435111e-06 -1 0
0.12346502 0.017382674 0.32456142 1.2948756e-07 -1.7668234e-06 -1 0
0.13126771 0.018484434 0.32456142 2.0553261e-07 -3.7606592e-06 -1 0
0.1444145 0.012390935 0.32456142 -6.1502687e-05 4.3810674e-06 -1 0
0.15923589 0.018463895 0.32456142 0.2483476 -0.012986045 -0.96858388 0.11019341
0.16484299 0.012528608 0.32456142 0.31038371 -0.097234733 -0.94562536 0.1704227
0.17996109 0.01719901 0.32456142 -0.24500103 -0.053832766 -0.96802711 0.12148505
0.18117601 0.01106758 0.32456142 -0.34071344 0.015175146 -0.94004476 0.13065746
0.19526732 0.012855612 0.32456142 -0.72931045 0.0048970128 -0.68416548 0.067930646
0.20175439 0.012821428 0.32026958 -0.83514565 0.010001635 -0.54993796 0.057917096
-0.20029354 0.025052868 0.32521296 0.73014975 -0.037625339 -0.68225038 0.087385386
-0.19525796 0.024739116 0.32615876 0.72902578 -0.0013922593 -0.68448484 0.085851692
-0.17193249 0.02596854 0.32456142 0.075878739 0.014386952 -0.99701327 0.17869754
-0.15756856 0.024009034 0.32456142 -0.49242386 -0.057230644 -0.86847192 0.15633649
-0.14982134 0.024397746 0.32456142 6.5729895e-05 -1.2911547e-05 -1 0
-0.13548471 0.029577194 0.32456142 5.0834347e-05 -2.0354955e-05 -1 0
-0.12482183 0.025766302 0.32456139 3.7058435e-05 -6.9164935e-06 -1 0
-0.11305974 0.028881766 0.32456142 3.5016797e-05 -7.9285428e-06 -1 0
-0.094605483 0.023537388 0.32456142 5.1952564e-05 -9.2458713e-06 -1 0
-0.08341904 0.02151598 0.32456142 6.4059292e-05 6.1996579e-06 -1 0
-0.074108541 0.026161367 0.32456142 5.3439162e-05 -2.1239714e-05 -1 0
-0.063654013 0.022816155 0.32456142 7.5786074e-06 -4.7872991e-06 -1 0
-0.055208217 0.026544131 0.32456142 -1.6301124e-07 -9.8000501e-06 -1 0
-0.044200998 0.024660559 0.32456142 1.4736775e-05 -4.0052701e-06 -1 0
-0.033958644 0.022167567 0.32456142 1.5696418e-05 -1.0360422e-05 -1 0
-0.020967882 0.024903603 0.32456142 -1.8848576e-06 2.2887754e-07 -1 0
-0.014263961 0.023256147 0.32456142 7.2630719e-08 -1.7166851e-05 -1 0
-0.0020373885 0.022727638 0.32456142 5.9842779e-07 -1.6679691e-05 -1 0
0.004167926 0.02247449 0.32456142 -9.73189e-07 -2.1711746e-06 -1 0
0.013170499 0.029609103 0.32456142 1.0032356e-06 -7.33686e-09 -1 0
0.023010891 0.025201935 0.32456142 -1.8620658e-06 -4.3579028e-08 -1 0
0.039519876 0.02634494 0.32456142 -1.1772695e-05 -3.295959e-06 -1 0
0.045518387 0.024104998 0.32456139 -1.7285891e-05 -2.1554697e-06 -1 0
0.055371668 0.028083893 0.32456142 8.0571078e-07 4.6362993e-06 -1 0
0.063831776 0.02544868 0.32456142 -3.2250584e-05 -1.0548369e-05 -1 0
0.071796067 0.02353316 0.32456142 6.1078106e-07 4.3612758e-06 -1 0
0.083874151 0.02336389 0.32456142 -3.2510525e-05 -9.6180256e-06 -1 0
0.092968687 0.025983706 0.32456142 -2.7609762e-05 -1.1369954e-05 -1 0
0.10446903 0.025077958 0.32456142 -1.8114411e-05 -3.4429129e-06 -1 0
0.11676562 0.024700599 0.32456142 1.7164833e-05 -3.1837099e-06 -1 0
0.12862906 0.027281843 0.32456142 5.00446e-05 -4.4079629e-06 -1 0
0.13182834 0.022361431 0.32456142 -3.1117892e-05 -1.3102275e-05 -1 0
0.14484844 0.023968827 0.32456139 -5.2090694e-05 -1.7075016e-06 -1 0
0.15448761 0.026756018 0.32456142 0.26235369 -0.025205197 -0.96464252 0.13489532
0.16633168 0.023666186 0.32456142 0.3190403 0.0087026283 -0.94770128 0.16859502
0.17367561 0.026941083 0.32456142 -0.10302232 0.13866793 -0.98496586 0.16609311
0.18066728 0.024630109 0.32456142 -0.33510059 0.056318436 -0.94049764 0.13758312
0.19630285 0.026766093 0.32498237 -0.66195261 0.046029378 -0.74813098 0.08697629
0.20163827 0.023594819 0.32425505 -0.72266555 0.016455082 -0.69100195 0.083344072
-0.20107508 0.032145839 0.32431334 0.76617157 -0.014365606 -0.64247561 0.098217949
-0.19673193 0.034675825 0.32642925 0.69015718 -0.021062316 -0.72335285 0.087462008
-0.18465173 0.037828464 0.32456142 0.57757157 -0.054713257 -0.81450444 0.10349996
-0.17291409 0.034723081 0.32456142 0.0075814063 -0.077652141 -0.9969517 0.15387538
-0.16567998 0.037034366 0.32456142 -0.30390683 -0.081683867 -0.94919354 0.1744536
-0.15311027 0.039933521 0.32456142 -0.31801853 -0.0091844276 -0.94804001 0.12279344
-0.14727998 0.036020767 0.32456142 5.0378538e-05 -2.6942676e-05 -1 0
-0.13735364 0.031358443 0.32456142 6.123518e-05 -3.0334228e-05 -1 0
-0.12534507 0.035175588 0.32456139 1.9330422e-05 -2.0306366e-05 -1 0
-0.11269778 0.037717909 0.32456142 7.8928224e-07 -9.0097537e-06 -1 0
-0.10299762 0.037193075 0.32456142 0 0 -1 0
-0.095503822 0.033663325 0.32456142 8.4582935e-06 -2.3672108e-06 -1 0
-0.083347112 0.033945918 0.32456142 -1.5790121e-05 -2.6672726e-06 -1 0
-0.076434232 0.031765517 0.32456142 1.024748e-05 1.9753519e-07 -1 0
-0.069082692 0.034077823 0.32456142 -0 -0 -1 0
-0.054526746 0.033600058 0.32456139 -7.7292198e-06 -4.5878746e-06 -1 0
-0.040306821 0.03681111 0.32456142 1.5281996e-05 -8.2992074e-06 -1 0
-0.024650807 0.035088543 0.32456142 -0 -0 -1 0
-0.012595479 0.033080425 0.32456142 3.7327491e-06 -4.7054787e-06 -1 0
-0.0039500268 0.035122596 0.32456142 -6.2624758e-07 -1.5175287e-05 -1 0
0.005102111 0.034493182 0.32456142 -2.2593131e-06 1.0880176e-07 -1 0
0.012467191 0.031988662 0.32456142 -1.0168216e-06 8.7852555e-08 -1 0
0.02907927 0.032808837 0.32456142 3.3665776e-07 -5.0975091e-06 -1 0
0.036321465 0.036317647 0.32456142 7.0203587e-06 -4.221647e-06 -1 0
0.046388149 0.03363179 0.32456142 -8.5503361e-06 -2.052303e-05 -1 0
0.051460661 0.031257033 0.32456142 7.6407841e-06 -9.4030866e-06 -1 0
0.064416595 0.035939999 0.32456142 1.0686673e-05 -1.5759388e-05 -1 0
0.074538812 0.03889969 0.32456142 -4.1158328e-05 -2.8614757e-06 -1 0
0.083809435 0.03224213 0.32456142 -7.2024909e-06 -4.2325937e-06 -1 0
0.096593693 0.03526425 0.32456142 -4.0808605e-05 -1.3558424e-05 -1 0
0.10398158 0.037293367 0.32456142 -3.2627086e-05 -1.1446259e-06 -1 0
0.11293425 0.036742441 0.32456142 -1.8530071e-05 -1.6144902e-05 -1 0
0.12781897 0.034026094 0.32456142 1.5965294e-05 4.5175784e-06 -1 0
0.13394433 0.035562471 0.32456142 1.7186152e-05 3.4628447e-06 -1 0
0.14427023 0.035560608 0.32456139 -1.6055754e-05 1.0616965e-06 -1 0
0.15386099 0.035429716 0.32456139 0.28410009 0.029982848 -0.95832574 0.12124733
0.16029048 0.033978723 0.32456142 0.31459796 0.047677577 -0.9480269 0.16641371
0.17422774 0.03567522 0.32456142 -0.15959272 0.025414063 -0.9868558 0.1672463
0.1853921 0.037934564 0.32456142 -0.42860988 0.034405753 -0.9028343 0.11611619
0.19417492 0.036399253 0.32627705 -0.58989668 0.058459546 -0.80535972 0.09268593
0.20102927 0.035596985 0.32325721 -0.74746543 0.078775264 -0.65961337 0.10169843
-0.19687326 0.043232817 0.32685134 0.71964729 -0.081316091 -0.68956184 0.088537142
-0.18568245 0.043454725 0.32456142 0.57224184 -0.023451502 -0.81974959 0.11785017
-0.17253645 0.044711832 0.32456142 -0.0044641937 -0.036315698 -0.99933034 0.18208504
-0.16530481 0.045445573 0.32456142 -0.18773645 -0.10492067 -0.97659951 0.19919375
-0.14551137 0.043747794 0.32456142 3.4466619e-05 -1.3918133e-06 -1 0
-0.13384216 0.04362765 0.32456142 5.8618338e-05 -2.3038325e-05 -1 0
-0.12552835 0.044836294 0.32456142 2.0008851e-05 -1.8032342e-05 -1 0
-0.11158082 0.047752284 0.32456142 3.6998608e-05 -6.9966122e-06 -1 0
-0.10498264 0.042268142 0.32456142 4.5713419e-05 -3.8849171e-06 -1 0
-0.095605455 0.047881391 0.32456142 2.4070985e-05 4.1119929e-06 -1 0
-0.085189648 0.041691825 0.32456142 -1.5084586e-05 -7.7941322e-06 -1 0
-0.075500518 0.047735218 0.32456142 4.1943273e-05 5.5175192e-06 -1 0
-0.062631875 0.045982406 0.32456142 1.3326156e-05 -3.0853415e-05 -1 0
-0.057749301 0.042230304 0.32456142 8.6744444e-07 -1.282942e-05 -1 0
-0.042141274 0.040813733 0.32456142 8.6031656e-07 -1.3899128e-05 -1 0
-0.034923673 0.046610486 0.32456142 1.7666189e-05 -8.1369799e-06 -1 0
-0.023787722 0.046896003 0.32456142 -2.6100674e-06 -1.9147259e-05 -1 0
-0.01235678 0.045214463 0.32456142 7.7203578e-07 4.0608957e-06 -1 0
-0.0057642525 0.044725999 0.32456142 -4.4058206e-07 -7.7143377e-06 -1 0
0.001072526 0.04049838 0.32456142 3.1605495e-08 1.2640718e-09 -1 0
0.016541921 0.04484836 0.32456142 -1.7092784e-06 1.3407549e-05 -1 0
0.024956495 0.044783253 0.32456142 -9.2240625e-06 -1.611494e-05 -1 0
0.03369008 0.045436047 0.32456142 -1.5376798e-05 -1.5167658e-05 -1 0
0.042889021 0.049131803 0.32456142 3.9849519e-06 5.2447137e-07 -1 0
0.054866057 0.044167478 0.32456142 -8.0204636e-06 3.9127303e-06 -1 0
0.065199614 0.042416193 0.32456142 -0 -0 -1 0
0.071854554 0.044308227 0.32456142 -8.4120411e-06 -4.9423465e-06 -1 0
0.08312244 0.046569638 0.32456142 -1.5247721e-05 -1.7699245e-05 -1 0
0.091771781 0.0472221 0.32456142 -1.9410254e-05 -8.328142e-06 -1 0
0.1082633 0.044535764 0.32456142 1.7302174e-05 -9.7152988e-06 -1 0
0.11781634 0.045392808 0.32456142 5.4743217e-05 1.4000537e-05 -1 0
0.12109391 0.046582915 0.32456142 3.1385985e-05 1.4604699e-05 -1 0
0.13168503 0.042540804 0.32456142 2.9191022e-05 1.0134821e-05 -1 0
0.14403349 0.043891571 0.32456142 -4.2436557e-05 1.4176993e-06 -1 0
0.15060791 0.040837452 0.32456142 0.12539665 -0.0062609171 -0.99208689 0.060959645
0.16643506 0.042305075 0.32456142 0.15250388 0.050208747 -0.98702663 0.17447606
0.17451376 0.043183219 0.32456142 -0.19166285 0.057600211 -0.97976917 0.16848956
0.18647075 0.04627962 0.32456142 -0.50792229 -0.035510473 -0.86067069 0.11496326
0.19271997 0.045178369 0.32456142 -0.5771426 -0.051546656 -0.81501496 0.10909386
0.20157513 0.044835124 0.32420754 -0.71854383 0.046701521 -0.69391197 0.089968361
-0.20175439 0.052467249 0.32242602 0.82071054 -0.048479278 -0.56928366 0.068422049
-0.19653425 0.052468784 0.32649007 0.71844923 0.010573267 -0.69549906 0.088584483
-0.18534172 0.055929232 0.32456142 0.63412076 0.086118996 -0.76842326 0.10723816
-0.1760768 0.053696133 0.32456142 0.19735408 0.064347669 -0.97821814 0.14917453
-0.1543936 0.058215756 0.32456142 -0.42168176 0.13816792 -0.89615518 0.14356442
-0.14447883 0.053161196 0.32456142 3.0336121e-05 4.006034e-06 -1 0
-0.13271631 0.054672573 0.32456142 1.8858562e-05 8.5848666e-07 -1 0
-0.12296084 0.055312753 0.32456142 2.0319427e-05 7.3342376e-06 -1 0
-0.11516955 0.05608945 0.32456142 -1.308699e-06 -8.3585828e-06 -1 0
-0.10297515 0.056261729 0.32456142 -1.5257953e-05 -3.7188445e-07 -1 0
-0.092955828 0.056012146 0.32456142 3.2237287e-05 9.9714116e-06 -1 0
-0.085953638 0.057267945 0.32456142 -2.3510498e-05 1.5815918e-05 -1 0
-0.07252527 0.055344295 0.32456142 2.7802917e-05 -2.5596113e-05 -1 0
-0.06257768 0.057097234 0.32456142 2.5994379e-05 -7.7294226e-06 -1 0
-0.058942109 0.054962672 0.32456142 1.6987646e-05 9.9827021e-06 -1 0
-0.045828156 0.056836344 0.32456142 -6.9101384e-06 -1.5491898e-05 -1 0
-0.034239076 0.053595655 0.32456142 1.5467602e-05 -9.8206544e-07 -1 0
-0.024296174 0.053831521 0.32456142 2.5592944e-06 -2.6253983e-05 -1 0
-0.0036758413 0.054177217 0.32456142 5.9161164e-07 -3.7332459e-08 -1 0
0.0060476721 0.055427723 0.32456142 -1.7616817e-07 -1.4531996e-05 -1 0
0.01659192 0.053395119 0.32456142 -5.8313076e-06 -8.2874267e-06 -1 0
0.021982035 0.055669084 0.32456142 -6.1244623e-06 -1.7086715e-05 -1 0
0.037190121 0.052956991 0.32456142 -7.8542053e-06 -2.0069798e-05 -1 0
0.041528344 0.052745808 0.32456142 9.7809414e-07 9.3832004e-06 -1 0
0.054144457 0.0545482 0.32456139 -1.6595019e-05 -9.9087965e-06 -1 0
0.066300154 0.05574809 0.32456142 -7.3815045e-06 5.8142143e-07 -1 0
0.073180676 0.053454101 0.32456142 -1.7347567e-05 1.2413809e-08 -1 0
0.087467887 0.050805263 0.32456142 -8.0718846e-06 -7.8639787e-06 -1 0
0.094393827 0.054314643 0.32456142 -3.1573054e-05 -2.050371e-06 -1 0
0.10304543 0.051439166 0.32456142 2.128407e-05 -2.2626709e-05 -1 0
0.11213302 0.056140117 0.32456142 -1.6295875e-05 -2.5406796e-05 -1 0
0.12926409 0.057001024 0.32456142 1.7497669e-05 7.3503784e-06 -1 0
0.13496995 0.055620108 0.32456142 3.4655339e-05 4.8854099e-06 -1 0
0.14672385 0.055709053 0.32456142 1.6364296e-05 -1.4694908e-05 -1 0
0.15503995 0.053720593 0.32456142 0.29167047 -0.04253199 -0.95557278 0.12778072
0.16192812 0.056340363 0.32456142 0.20000529 -0.13297127 -0.97072989 0.14226323
0.17571157 0.052414972 0.32456142 -0.13707381 -0.011354522 -0.99049568 0.14390598
0.18620579 0.05632332 0.32456139 -0.50790298 0.02934633 -0.86091423 0.11689253
0.19565813 0.056267451 0.32636887 -0.69374573 -0.0012246515 -0.72021896 0.081748463
0.20116776 0.05695726 0.32497624 -0.76464885 -0.017036302 -0.6442219 0.07076928
-0.20097184 0.063957714 0.32462549 0.80738813 0.0085416362 -0.58995885 0.083798006
-0.19611859 0.065665632 0.32616097 0.73777664 0.036134016 -0.67407715 0.069073513
-0.18476637 0.064242937 0.32456142 0.59548384 -0.0041939411 -0.80335635 0.10727938
-0.17774767 0.06093318 0.32456142 0.25615793 -0.00050540076 -0.96663481 0.1337858
-0.16470589 0.064523406 0.32456139 -0.21727501 -0.0029277641 -0.97610605 0.14889225
-0.15109909 0.068440557 0.32456142 -0.236067 -0.039801434 -0.97092134 0.11826026
-0.14525941 0.067318909 0.32456142 3.2525459e-05 -1.9688619e-05 -1 0
-0.13640654 0.065895528 0.32456142 3.3046479e-05 -2.4583642e-05 -1 0
-0.12007345 0.061937511 0.32456142 1.1511519e-06 9.4235702e-06 -1 0
-0.11701179 0.063257731 0.32456142 0 0 -1 0
-0.10405898 0.065435529 0.32456142 2.079411e-05 -2.920422e-05 -1 0
-0.093058117 0.063196339 0.32456142 8.1036324e-06 -1.9036976e-06 -1 0
-0.083929121 0.063390598 0.32456142 4.8884289e-05 -1.8296952e-05 -1 0
-0.074619576 0.063792557 0.32456142 6.5082162e-07 -2.9072329e-05 -1 0
-0.065008454 0.063040316 0.32456142 3.7555026e-05 -2.6138781e-05 -1 0
-0.04591943 0.064862721 0.32456142 0 0 -1 0
-0.030828619 0.068585902 0.32456142 7.7453342e-06 -7.1228296e-06 -1 0
-0.027853271 0.06004668 0.32456142 8.143993e-06 -7.4801833e-06 -1 0
-0.010063276 0.066386797 0.32456142 1.2461855e-06 -1.9368079e-05 -1 0
-0.0066974866 0.065058284 0.32456142 1.8273e-06 -8.7873059e-06 -1 0
0.00078542624 0.063087195 0.32456142 3.7900062e-07 -6.959955e-06 -1 0
0.026008099 0.064818993 0.32456142 -1.4088026e-05 -2.3948844e-05 -1 0
0.035756394 0.065711826 0.32456142 -1.2157865e-06 -1.3454188e-05 -1 0
0.046403337 0.066304199 0.32456142 -2.6748312e-05 -2.0851216e-05 -1 0
0.065688387 0.064882204 0.32456142 -1.8460643e-05 -4.0629147e-06 -1 0
0.074849851 0.063691318 0.32456142 4.8125946e-07 -7.4178392e-06 -1 0
0.098775893 0.066893093 0.32456145 -3.4341312e-07 -1.6312391e-05 -1 0
0.10375927 0.062951624 0.32456142 -3.2238451e-05 -4.8294787e-06 -1 0
0.1149725 0.064968586 0.32456142 -2.0847761e-05 3.2437754e-06 -1 0
0.12408046 0.066723853 0.32456142 -2.0352192e-05 9.8097335e-06 -1 0
0.13593587 0.06300433 0.32456142 -5.553888e-05 -9.3861972e-06 -1 0
0.1456939 0.063024685 0.32456142 1.8892839e-05 -7.9038791e-06 -1 0
0.15401421 0.06210494 0.32456142 0.19603999 0.015571456 -0.98047221 0.068000823
0.16351704 0.066842385 0.32456142 0.25189885 0.085932046 -0.96393079 0.16373102
0.17372711 0.066026777 0.32456139 0.0026481622 0.045674451 -0.99895287 0.12295163
0.18800715 0.069194943 0.32456142 -0.50247335 -0.051670063 -0.86304742 0.11168363
0.19929083 0.068884373 0.32456142 -0.70743877 0.019694608 -0.70650017 0.079244256
-0.20175439 0.073901266 0.32212994 0.85819334 0.059011426 -0.50992346 0.085098766
-0.19493441 0.075031087 0.32545766 0.64442009 0.001625032 -0.7646699 0.090700492
-0.17249131 0.072660156 0.32456142 0.039749388 -0.17768826 -0.9832837 0.15711932
-0.15346853 0.072676681 0.32456142 -0.35865447 -0.040133569 -0.93260723 0.15158704
-0.14791235 0.079804525 0.32456142 3.7094451e-05 -1.2609285e-05 -1 0
-0.13549829 0.075748935 0.32456142 5.7250436e-05 -1.5393319e-06 -1 0
-0.12457118 0.074363641 0.32456139 2.7545027e-05 -2.4656334e-05 -1 0
-0.11513654 0.073384017 0.32456142 1.9258974e-05 -2.1387397e-05 -1 0
-0.091487445 0.074856728 0.32456142 2.3979997e-05 -7.0283286e-06 -1 0
-0.076054886 0.076691799 0.32456142 9.461809e-06 7.3469741e-06 -1 0
-0.068771787 0.079073481 0.32456142 8.8676907e-06 -9.4769661e-07 -1 0
-0.055970181 0.076465115 0.32456142 1.1337669e-06 -3.824303e-05 -1 0
-0.046884745 0.079133332 0.32456142 -9.3267499e-06 -3.4343873e-07 -1 0
-0.033755235 0.076287985 0.32456142 7.3175456e-06 -1.6082877e-05 -1 0
-0.025522811 0.077872381 0.32456142 2.7468202e-06 -1.8148125e-05 -1 0
-0.005747512 0.073958986 0.32456142 1.5180024e-06 -1.5704874e-05 -1 0
0.0065609789 0.078113042 0.32456142 -3.8295721e-06 -2.2501243e-05 -1 0
0.015573424 0.074394524 0.32456139 -4.2833597e-07 -1.747846e-05 -1 0
0.025140183 0.078507498 0.32456142 -8.0622949e-06 -2.2263443e-05 -1 0
0.031786609 0.07353428 0.32456142 -7.1864647e-06 -7.7904569e-06 -1 0
0.049225304 0.072610334 0.32456142 -6.3337184e-06 -1.4943941e-05 -1 0
0.064682968 0.073813014 0.32456142 1.1068921e-05 -9.6830354e-06 -1 0
0.076502241 0.074488059 0.32456142 -4.483209e-05 -1.1443226e-05 -1 0
0.084993064 0.077374034 0.32456142 -1.6664048e-05 -6.2089698e-06 -1 0
0.095386647 0.075785719 0.32456142 -3.4304216e-05 -8.1905027e-06 -1 0
0.10510664 0.0748991 0.32456142 -4.7108926e-05 -4.8910069e-06 -1 0
0.1195436 0.071863748 0.32456142 1.9734229e-05 -8.8687357e-06 -1 0
0.1287291 0.079128563 0.32456142 3.198245e-05 1.8013367e-05 -1 0
0.13348833 0.075321384 0.32456142 -3.5917525e-05 -1.1356987e-05 -1 0
0.14592159 0.075925946 0.32456142 1.7080398e-05 1.0204777e-05 -1 0
0.15414941 0.075189762 0.32456142 0.32712305 -0.10976495 -0.93858516 0.12104975
0.16592208 0.073550694 0.32456142 0.1817973 -0.11582083 -0.97649127 0.14682665
0.17627233 0.074403375 0.32456142 -0.12653597 0.028184023 -0.99156153 0.13439171
0.18534292 0.073439233 0.32456142 -0.53608632 0.064391911 -0.84170371 0.11672317
0.19497253 0.07614328 0.32721442 -0.6429621 0.025072401 -0.76548749 0.087343112
0.20171165 0.074167386 0.32302135 -0.73165941 -0.03773215 -0.68062532 0.08537586
-0.20092183 0.088824749 0.32430553 0.7688008 -0.044383802 -0.63794619 0.082413487
-0.19558465 0.086722791 0.32456142 0.61854774 -0.024786612 -0.78535616 0.10675189
-0.18244192 0.082584217 0.32456142 0.4345395 0.019002495 -0.90045232 0.12434083
-0.17318514 0.085560828 0.32456142 -0.00081858668 -0.078806534 -0.99688959 0.13826624
-0.16901997 0.08798831 0.32456142 -0.14880663 0.0045925425 -0.9888556 0.12479597
-0.1564665 0.087489121 0.32456142 -0.25699255 -0.074184358 -0.96356195 0.10962785
-0.14591213 0.083930776 0.32456142 1.8284318e-05 -2.8574555e-05 -1 0
-0.13295157 0.084519148 0.32456142 5.1485909e-05 -1.6774116e-05 -1 0
-0.12469581 0.082476042 0.32456142 3.6428941e-05 -1.2091917e-05 -1 0
-0.11492405 0.083825663 0.32456142 3.9231643e-05 -1.5810228e-05 -1 0
-0.10509143 0.080353275 0.32456142 1.4782417e-05 8.2443266e-06 -1 0
-0.090249419 0.083021283 0.32456142 2.0677771e-05 -2.6005446e-05 -1 0
-0.084330402 0.085748777 0.32456142 1.7447444e-07 -7.3342462e-06 -1 0
-0.076660573 0.087310649 0.32456142 1.1438601e-06 -3.8285772e-05 -1 0
-0.06641148 0.085516058 0.32456142 -8.8372517e-06 -8.0679056e-06 -1 0
-0.05449535 0.085058369 0.32456139 6.7552446e-06 -3.2899083e-05 -1 0
-0.042435195 0.085102417 0.32456142 -1.9895879e-07 -1.6880549e-05 -1 0
-0.034795873 0.083699912 0.32456142 4.7828635e-06 -9.6487856e-06 -1 0
-0.01567816 0.087222517 0.32456142 6.5645722e-06 4.5748422e-08 -1 0
-0.006723512 0.086013876 0.32456142 1.018828e-06 -2.0289839e-07 -1 0
0.0037893355 0.082810223 0.32456142 -6.9505649e-07 -8.2908318e-06 -1 0
0.027025033 0.085512459 0.32456142 -2.2595919e-05 -3.7038033e-05 -1 0
0.037394688 0.089372009 0.32456142 -1.1074828e-05 -1.6027498e-05 -1 0
0.044301633 0.086035967 0.32456142 -1.7469221e-05 -4.8864204e-05 -1 0
0.064350992 0.084151857 0.32456142 -9.4272618e-06 -8.889682e-07 -1 0
0.074366122 0.088405028 0.32456142 -3.9722734e-05 -1.0015702e-05 -1 0
0.082856447 0.086079262 0.32456142 -3.2570832e-05 -5.9645299e-06 -1 0
0.1064848 0.085892551 0.32456142 5.3551576e-06 3.3543973e-05 -1 0
0.11264946 0.083463073 0.32456142 -1.6144595e-05 -9.2721148e-06 -1 0
0.12264299 0.085856304 0.32456142 -1.8348976e-05 -1.963489e-05 -1 0
0.1374093 0.083276913 0.32456142 9.9073452e-07 -1.6448059e-05 -1 0
0.14683408 0.086673081 0.32456142 1.9748702e-05 -1.6639406e-05 -1 0
0.15726227 0.08649452 0.32456142 0.27251983 -0.014991489 -0.96203333 0.097746052
0.16554292 0.084672421 0.32456142 0.18479435 0.070823148 -0.98022193 0.11889176
0.17772757 0.087273926 0.32456142 -0.14478759 -0.028897094 -0.98904067 0.13754803
0.18763323 0.083209306 0.32456142 -0.51775235 0.024302024 -0.85518527 0.1076954
0.19490217 0.083842546 0.32581967 -0.67818308 0.022563629 -0.73454654 0.088616371
-0.20097958 0.095172562 0.32385325 0.77969003 -0.00064548932 -0.62616539 0.086130105
-0.19656202 0.095090419 0.32534111 0.74387115 0.01391572 -0.6681782 0.092819437
-0.1838772 0.098604441 0.32456142 0.34863484 -0.083433986 -0.9335376 0.13451703
-0.17600906 0.097577512 0.32456142 0.073271632 -0.049998216 -0.99605799 0.11712216
-0.16671076 0.092167623 0.32456142 -0.24407768 -0.019348105 -0.96956259 0.14567433
-0.15545575 0.094424777 0.32456142 -0.23872401 0.018027643 -0.97092009 0.099033594
-0.1459956 0.093138605 0.32456139 1.7730603e-05 -4.6925453e-07 -1 0
-0.11274079 0.095749103 0.32456142 -3.9749647e-08 8.7368753e-06 -1 0
-0.10285399 0.095671691 0.32456142 2.6382882e-05 -3.4511366e-05 -1 0
-0.093912587 0.096724838 0.32456142 1.5868696e-05 -1.7205506e-05 -1 0
-0.084201738 0.097297415 0.32456142 3.2290623e-05 1.6879145e-08 -1 0
-0.075272277 0.096207187 0.32456142 9.375115e-06 -1.1581875e-05 -1 0
-0.057211112 0.092470586 0.32456142 1.9559324e-05 -2.5081719e-05 -1 0
-0.034944028 0.097541295 0.32456142 1.226702e-05 -1.4744404e-05 -1 0
-0.015848573 0.096445106 0.32456139 7.2437536e-09 -9.9522376e-06 -1 0
-0.0065825842 0.09829206 0.32456142 4.6785563e-06 -3.8058046e-05 -1 0
0.0060515963 0.091794543 0.32456142 -1.3202683e-07 -1.6523243e-05 -1 0
0.015463222 0.096578285 0.32456142 -1.2513403e-05 -3.9876599e-05 -1 0
0.025228873 0.092770815 0.32456142 -1.2212046e-05 -1.6103979e-05 -1 0
0.03471126 0.091995925 0.32456142 -1.0724107e-05 -2.3981684e-05 -1 0
0.045302745 0.095486932 0.32456142 1.2418247e-06 -2.5734345e-05 -1 0
0.052455112 0.095743991 0.32456142 -1.057527e-05 -4.9603284e-05 -1 0
0.0682365 0.094050586 0.32456142 -2.626825e-05 -1.4898987e-05 -1 0
0.072515056 0.091351286 0.32456142 -3.8165337e-05 -4.6373778e-05 -1 0
0.086054832 0.093336388 0.32456142 -2.821017e-05 -5.6946748e-05 -1 0
0.10351606 0.093518212 0.32456142 -3.1592685e-05 -4.4417797e-05 -1 0
0.11649404 0.095983438 0.32456142 -1.975958e-05 -1.6642349e-05 -1 0
0.12463963 0.09344659 0.32456142 -1.9351766e-05 -3.307324e-05 -1 0
0.13191129 0.093740776 0.32456142 -1.5605674e-05 -3.014194e-05 -1 0
0.14402743 0.092931025 0.32456142 -1.5745973e-05 -1.918584e-05 -1 0
0.15534775 0.096814968 0.32456142 0.31095979 0.071558058 -0.94772536 0.10521931
0.16533442 0.098306157 0.32456142 0.16961552 -0.0017207355 -0.9855088 0.13740806
0.17614853 0.094882838 0.32456142 -0.19374394 -0.023103485 -0.98078007 0.14258878
0.18729725 0.096977517 0.32456142 -0.60424012 -0.033611488 -0.79609305 0.12699819
0.193902 0.09421023 0.32489362 -0.66978747 0.002022075 -0.74255002 0.11637105
0.20107642 0.097908735 0.32449043 -0.8203494 0.036329187 -0.5707075 0.070806697
-0.20149291 0.10428777 0.3228589 0.86868972 0.078605719 -0.4890801 0.077629715
-0.19534001 0.1046145 0.32456142 0.75317025 0.065153264 -0.6545912 0.070880331
-0.18512432 0.10388146 0.32456139 0.44345841 -0.029724622 -0.8958019 0.12948866
-0.17558578 0.10065523 0.32456142 0.17863841 0.014925248 -0.98380154 0.15514497
-0.16264196 0.10757636 0.32456142 -0.35542506 0.051455691 -0.93328738 0.16042967
-0.1573132 0.10471461 0.32456142 -0.36636701 0.17187668 -0.91445798 0.16724817
-0.14643741 0.10095846 0.32456142 -1.5561312e-05 -3.0633717e-07 -1 0
-0.1362707 0.10478753 0.32456142 3.5142115e-05 1.6197635e-05 -1 0
-0.12567188 0.1046892 0.32456142 3.6304271e-05 -4.0699956e-06 -1 0
-0.11967242 0.10403103 0.32456142 2.8957538e-05 -1.526403e-05 -1 0
-0.095257476 0.1014575 0.32456142 3.1333253e-05 3.461209e-06 -1 0
-0.084894732 0.10448472 0.32456142 2.3354694e-05 3.7793839e-06 -1 0
-0.068184212 0.10405307 0.32456142 2.9321187e-05 -5.8513939e-05 -1 0
-0.054786712 0.1028946 0.32456142 1.5926386e-06 -3.2668642e-05 -1 0
-0.045275215 0.10545497 0.32456142 1.258518e-05 -3.1825988e-05 -1 0
-0.025671773 0.10402168 0.32456142 1.2656949e-06 -3.3389737e-05 -1 0
-0.0065919245 0.10532667 0.32456142 -2.4910591e-07 -3.6445697e-05 -1 0
0.0040616812 0.10453837 0.32456142 -2.2714908e-06 -1.7978356e-05 -1 0
0.012541404 0.10431625 0.32456142 -6.6804218e-06 -3.4141813e-05 -1 0
0.02722197 0.1050687 0.32456142 -1.6295435e-05 -1.8096616e-05 -1 0
0.035654142 0.10796341 0.32456142 -8.781195e-06 -1.5864924e-05 -1 0
0.049238507 0.10750608 0.32456142 -2.159127e-05 -3.4946152e-05 -1 0
0.064213462 0.10487517 0.32456139 -1.7111952e-05 -1.7828583e-05 -1 0
0.073917255 0.10305285 0.32456139 -1.7675604e-05 -2.7519856e-05 -1 0
0.085386865 0.10712224 0.32456142 -4.2122218e-05 -8.4030529e-07 -1 0
0.098054856 0.10218575 0.32456142 1.3901817e-07 -2.9816354e-05 -1 0
0.10501933 0.10501008 0.32456142 -2.0978669e-05 -5.4437289e-05 -1 0
0.11573989 0.10654777 0.32456139 -4.0104234e-05 -2.906561e-05 -1 0
0.1274021 0.10440674 0.32456142 -1.5327731e-05 9.0455998e-08 -1 0
0.13687192 0.10233381 0.32456142 -5.5250926e-05 -7.3049824e-07 -1 0
0.15492989 0.10566133 0.32456142 0.27912918 0.0084685534 -0.96021622 0.10018721
0.16455369 0.10490656 0.32456142 0.19680677 -0.082643084 -0.97695297 0.13472356
0.17032915 0.10248251 0.32456142 0.13602318 0.048720844 -0.9895069 0.13160354
0.18694663 0.10733369 0.32456142 -0.56701607 -0.019941676 -0.82346535 0.12302451
0.19365878 0.10516783 0.32525811 -0.65825528 -0.010858051 -0.75271648 0.10962381
0.20130149 0.10285844 0.32440424 -0.85756475 0.017759273 -0.51406932 0.062934436
-0.20150486 0.11480356 0.32463932 0.83739632 0.0018016285 -0.54659325 0.069782287
-0.19475739 0.11056461 0.32456142 0.73031938 -0.034028411 -0.68225777 0.087694094
-0.16592494 0.11735228 0.32456142 -0.23581842 0.037206676 -0.97108465 0.13931035
-0.1538514 0.11634183 0.32456142 -0.26226065 0.03015914 -0.96452564 0.11377263
-0.14521521 0.1169088 0.32456142 6.0399911e-05 -2.9955543e-05 -1 0
-0.13926998 0.11441885 0.32456142 6.570806e-05 -2.8089591e-05 -1 0
-0.12358094 0.11110714 0.32456142 -1.0680476e-06 -2.6962614e-05 -1 0
-0.11722824 0.11925673 0.32456142 5.1648251e-05 -3.5502584e-05 -1 0
-0.10576882 0.1149158 0.32456142 4.0778366e-05 -6.4132662e-05 -1 0
-0.083813921 0.1155435 0.32456142 4.6329871e-05 -3.2658121e-05 -1 0
-0.077229455 0.11217276 0.32456142 2.1286005e-05 -4.3127915e-05 -1 0
-0.066800863 0.11455191 0.32456142 2.96006e-05 -3.7538604e-05 -1 0
-0.056210756 0.11515079 0.32456142 -9.1198863e-06 -1.924087e-05 -1 0
-0.047149144 0.11373745 0.32456142 -4.3404116e-06 -1.796709e-05 -1 0
-0.037597034 0.11666789 0.32456142 4.7292378e-06 -5.8420068e-05 -1 0
-0.024632165 0.11273267 0.32456142 -8.5378342e-06 -4.5442946e-05 -1 0
-0.017258115 0.11497784 0.32456142 1.2058746e-05 -3.8390113e-05 -1 0
-0.005609137 0.11656246 0.32456142 2.4305882e-06 1.7595104e-07 -1 0
0.0099747926 0.11550326 0.32456142 -3.2271544e-06 -1.6271062e-05 -1 0
0.010009252 0.11511001 0.32456142 -2.9867085e-06 -3.3178178e-05 -1 0
0.035157192 0.11454562 0.32456142 0 0 -1 0
0.044352472 0.11268385 0.32456142 -2.5130628e-05 -1.1453423e-05 -1 0
0.055015419 0.11505166 0.32456139 -1.6640115e-05 -6.4313713e-07 -1 0
0.066043504 0.11533487 0.32456139 -1.6013263e-06 -2.9119592e-05 -1 0
0.083791889 0.11273222 0.32456142 3.9033872e-05 -4.6213008e-05 -1 0
0.093077369 0.11031843 0.32456142 1.4872095e-05 -3.6671653e-07 -1 0
0.10259724 0.11544855 0.32456142 -4.1464347e-05 -3.0947485e-05 -1 0
0.12554358 0.11705152 0.32456142 -6.5231121e-05 -1.9961315e-05 -1 0
0.13373838 0.11400965 0.32456142 -6.3218104e-05 -4.0803734e-05 -1 0
0.14396054 0.11615527 0.32456139 -1.8158558e-05 -4.0226227e-05 -1 0
0.15676834 0.11362579 0.32456142 0.22796717 -0.035507958 -0.97302115 0.085608184
0.16484308 0.11497781 0.32456142 0.22566384 -0.1070151 -0.9683097 0.14637576
0.17140903 0.11341789 0.32456142 0.043305378 -0.084413074 -0.9954893 0.13326231
0.1877902 0.11559055 0.32456142 -0.52435684 0.024740212 -0.85113907 0.12363758
0.19599304 0.11766555 0.32653898 -0.69332629 0.028810203 -0.72004759 0.08996734
0.20133138 0.11492623 0.32436228 -0.80476195 0.0043205782 -0.59358203 0.083008841
-0.2013807 0.12403479 0.32323408 0.83390141 -0.02708823 -0.55124831 0.066743188
-0.19686918 0.12659156 0.32801577 0.73620272 0.024649816 -0.67631197 0.07457646
-0.18066156 0.12607618 0.32456142 0.21144302 0.067393035 -0.9750641 0.12001673
-0.17222098 0.12505297 0.32456142 -0.090734586 0.0088018486 -0.9958362 0.12581678
-0.16237183 0.12172111 0.32456142 -0.26376742 0.035510372 -0.96393245 0.12978722
-0.15515569 0.12397397 0.32456142 -0.35626537 -0.14111817 -0.92366695 0.12843397
-0.14531206 0.12408635 0.32456142 5.544865e-06 3.4669327e-05 -1 0
-0.13251968 0.12368616 0.32456142 2.9289606e-05 -3.8570997e-05 -1 0
-0.12225518 0.12793052 0.32456142 3.6446891e-05 -2.2288417e-05 -1 0
-0.114697 0.12580286 0.32456142 -0 -0 -1 0
-0.10285836 0.12297643 0.32456142 3.0227786e-05 -1.5761745e-05 -1 0
-0.087283432 0.12505805 0.32456142 4.2880729e-05 -9.2534119e-06 -1 0
-0.063093916 0.12655947 0.32456142 -2.3848281e-06 -1.9510981e-05 -1 0
-0.053010672 0.12304071 0.32456142 2.5470872e-05 -1.7213471e-05 -1 0
-0.046847291 0.12305471 0.32456142 7.8835137e-06 -1.6627073e-05 -1 0
-0.03517516 0.12625505 0.32456142 4.091371e-06 -1.7453614e-05 -1 0
-0.021122403 0.12629604 0.32456142 7.8615312e-06 -2.1019332e-05 -1 0
0.0050038835 0.12376495 0.32456142 -1.7754023e-06 -1.2820894e-05 -1 0
0.019326467 0.12777093 0.32456142 -4.8109423e-06 -1.5827987e-05 -1 0
0.037180942 0.12516277 0.32456142 -2.0727468e-06 -2.3019738e-05 -1 0
0.044221092 0.1246757 0.32456142 -1.8863662e-05 -1.9771753e-05 -1 0
0.053142756 0.12610625 0.32456142 -3.6708956e-05 -1.4113584e-05 -1 0
0.067695163 0.1256959 0.32456142 -1.4888369e-05 -1.9491345e-05 -1 0
0.073698342 0.12689757 0.32456142 -4.6308844e-05 -3.3841214e-05 -1 0
0.086235091 0.12898059 0.32456142 -4.8491787e-05 -6.1226041e-05 -1 0
0.090881728 0.1246222 0.32456142 -2.4226616e-05 -6.0006943e-05 -1 0
0.10423239 0.12901032 0.32456142 -9.4340777e-07 -3.0529165e-05 -1 0
0.11592732 0.12450664 0.32456142 1.0279663e-06 -5.6486275e-05 -1 0
0.12216893 0.1221786 0.32456142 -3.9846072e-05 -3.063256e-05 -1 0
0.13660128 0.12577926 0.32456142 7.1087425e-06 -7.6200537e-05 -1 0
0.14493965 0.1251104 0.32456142 -4.5663114e-08 -4.9524613e-05 -1 0
0.15559331 0.12707554 0.32456142 0.3431502 0.1606226 -0.9254449 0.1562922
0.17402644 0.12404256 0.32456142 -0.10127295 0.006255717 -0.99483901 0.13105212
0.18422925 0.12356848 0.32456139 -0.4087716 0.00085013203 -0.91263628 0.12011691
0.19533004 0.12630127 0.32578093 -0.65346867 0.0019721119 -0.75695103 0.10113876
0.20161168 0.12565678 0.32297885 -0.85481924 -0.033969283 -0.51781291 0.09233626
-0.20123771 0.13389477 0.32380334 0.87304455 -0.038035277 -0.48615485 0.068161458
-0.19475409 0.13362166 0.32591018 0.68710762 -0.04991233 -0.72483921 0.099126332
-0.18319172 0.13378529 0.32456142 0.44540972 -0.027521351 -0.89490378 0.13975708
-0.17204773 0.13730642 0.32456142 -0.088205241 -0.041965477 -0.99521786 0.1176652
-0.16658425 0.13640068 0.32456139 -0.21764113 -0.081641532 -0.97260833 0.14895427
-0.15220922 0.1392767 0.32456142 -0.13227043 0.0017646886 -0.99121213 0.064477481
-0.14762205 0.13767204 0.32456142 3.5527322e-05 -1.1787776e-06 -1 0
-0.13674787 0.1370353 0.32456139 1.3610289e-05 1.6958284e-05 -1 0
-0.12287312 0.13966191 0.32456142 2.6300817e-05 -3.9610433e-05 -1 0
-0.11627384 0.1368943 0.32456142 7.4455354e-05 -3.7454283e-05 -1 0
-0.10250178 0.13945457 0.32456142 4.3035208e-05 -7.2524963e-05 -1 0
-0.093301013 0.13537502 0.32456142 1.7591876e-05 -3.3678109e-05 -1 0
-0.088722199 0.13405198 0.32456142 1.4038821e-05 -6.8057212e-05 -1 0
