# .PCD v0.7 - Point Cloud Data file format
VERSION 0.7
FIELDS x y z normal_x normal_y normal_z curvature
SIZE 4 4 4 4 4 4 4
TYPE F F F F F F F
COUNT 1 1 1 1 1 1 1
WIDTH 605
HEIGHT 1
VIEWPOINT 0 0 0 1 0 0 0
POINTS 605
DATA ascii
0.15498109 0.20334467 0.29595119 -0.0023552761 -0.78244418 -0.62271637 0.016327845
0.16667862 0.20246886 0.29662585 -0.017306846 -0.79925346 -0.6007449 0.020892164
0.17567554 0.20418212 0.29530612 -0.020446161 -0.79778498 -0.60259527 0.021416044
0.18626316 0.20574307 0.29373387 -0.093352214 -0.85582829 -0.50876647 0.03442179
0.19498156 0.20670898 0.29303873 -0.35723558 -0.82945329 -0.42940664 0.055086195
-0.20635255 -0.19317579 0.30286232 0.71705383 0.46983173 -0.51487076 0.084263213
-0.19409595 -0.19395207 0.30318651 0.29382938 0.68677694 -0.66483206 0.060493387
-0.18594526 -0.19388723 0.30323642 0.14553282 0.68342632 -0.71536618 0.033587482
-0.17397718 -0.19461942 0.30267242 0.036369901 0.71560842 -0.69755417 0.012092041
-0.16590564 -0.19080272 0.3056125 0.01016648 0.65188551 -0.75824928 0.0044725146
-0.15484484 -0.19420724 0.30298993 0.00069823611 0.68522549 -0.72833067 0.0063367677
-0.1425813 -0.19728701 0.30061755 -0.0033680927 0.73721337 -0.67565167 0.015681285
-0.13613555 -0.19408967 0.30308053 0.022891946 0.70485157 -0.70898539 0.010515202
-0.12456874 -0.19432366 0.30290025 0.0058918945 0.68070006 -0.73253852 0.0063416716
-0.11621716 -0.19630742 0.30137214 -0.012490078 0.67223012 -0.74023682 0.0057120193
-0.10372974 -0.19481644 0.30252066 0.0029598582 0.65555799 -0.75513905 0.0040865541
-0.096164249 -0.19400404 0.30314648 -0.0074200043 0.65068835 -0.75930864 0.0034109072
-0.0842527 -0.19256547 0.30425462 0.0054803682 0.66366851 -0.74800676 0.0049697682
-0.072541825 -0.19617242 0.30147612 0.0029988198 0.71779716 -0.69624585 0.011208498
-0.064435571 -0.19183308 0.30481881 0.003114671 0.66411805 -0.74762118 0.0053163948
-0.055129785 -0.19429338 0.30292359 -0.00029953153 0.66475368 -0.74706256 0.0056185368
-0.047160361 -0.19322303 0.30374807 -0.0029363749 0.64711076 -0.76239032 0.0030311327
-0.03588511 -0.19355156 0.30349502 0.010267861 0.66289824 -0.74863917 0.0037168406
-0.026158005 -0.1940947 0.30307662 0.00088514853 0.67311889 -0.73953378 0.0051458441
-0.014421984 -0.19497111 0.30240148 -0.010616619 0.69061297 -0.72314656 0.0066856649
-0.0061835628 -0.19282986 0.30405095 -0.0050002001 0.67520124 -0.73761666 0.0063573308
0.0052249227 -0.19256718 0.30425331 -0.0011498758 0.67382789 -0.73888749 0.0074917716
0.011760928 -0.19474642 0.3025746 0.0028430882 0.69921809 -0.71490276 0.010396786
0.027744384 -0.19563365 0.30189115 -0.006761176 0.67065573 -0.7417379 0.0044558146
0.035907198 -0.19322452 0.30374694 -0.0075087976 0.65503448 -0.75556171 0.0031456642
0.042579725 -0.19441283 0.30283156 0.0061952779 0.6843425 -0.72913438 0.0095642116
0.056816503 -0.19437011 0.30286446 -0.0033512651 0.65846688 -0.75260228 0.0031921056
0.064262152 -0.195916 0.30167365 0.015159043 0.66406935 -0.74751735 0.0035226592
0.073806405 -0.19460416 0.30268416 0.0098948004 0.65589404 -0.75478804 0.0038796279
0.083183661 -0.19455498 0.30272207 -0.0055074901 0.6702823 -0.74208575 0.0056765028
0.10609704 -0.19477914 0.30254939 0.0026575434 0.70097905 -0.71317691 0.0096184816
0.11327966 -0.19324219 0.30373335 0.0090198638 0.68678963 -0.72680026 0.0088187065
0.12559094 -0.19323492 0.30373892 0.027850362 0.69772315 -0.71582592 0.0088651581
0.13879797 -0.19392318 0.30320877 0.0093529541 0.68854392 -0.72513425 0.0087587088
0.14505886 -0.19469446 0.30261463 0.0053851469 0.70958632 -0.70459801 0.010174132
0.15691403 -0.19471043 0.30260235 0.0042606667 0.69425821 -0.71971345 0.0099052256
0.16246989 -0.1943084 0.302912 0.01211444 0.69353557 -0.72032058 0.0090208584
0.17573825 -0.19635937 0.30133212 0.014399192 0.72053701 -0.69326693 0.012206256
0.18438658 -0.19508791 0.30231154 -0.050739672 0.71770048 -0.69450086 0.015184782
0.1973926 -0.19209448 0.3046174 -0.37619492 0.60881096 -0.69844586 0.053252593
0.20252571 -0.19464377 0.30265367 -0.527394 0.60095936 -0.60058582 0.062857293
-0.2062304 -0.18540919 0.30564633 0.75884366 0.45710766 -0.46390605 0.086957432
-0.18223415 -0.18905869 0.30695599 0.072347194 0.646559 -0.75942564 0.012152007
-0.16544183 -0.18664046 0.30881879 -0.00037385125 0.61085492 -0.79174238 3.5732788e-05
-0.15065368 -0.18773615 0.30797476 -0.00042224969 0.6114434 -0.79128808 2.0781757e-05
-0.14459291 -0.18671945 0.3087579 -0.00044137723 0.61143607 -0.79129374 1.547992e-05
-0.13532087 -0.18929094 0.30677706 0.0034992883 0.63319659 -0.77398306 0.0024474764
-0.12655799 -0.18660231 0.30884814 -0.0011216344 0.61472255 -0.7887426 0
-0.11928608 -0.18714467 0.30843037 -0.00045253866 0.61502999 -0.78850359 5.9644077e-05
-0.10538515 -0.18777326 0.30794615 0.0023005977 0.62154609 -0.78337419 0.00039666612
-0.097719058 -0.18681395 0.30868512 -0.0011180384 0.61283791 -0.79020792 3.3201577e-05
-0.084845215 -0.18756263 0.30810836 2.6588285e-05 0.61238778 -0.79055756 0
-0.074679911 -0.18768713 0.30801249 0.001637338 0.61244637 -0.79051042 0
-0.065864436 -0.18603237 0.30928719 -1.2982004e-05 0.6102581 -0.79220259 6.4774795e-05
-0.052412495 -0.18763086 0.30805582 -0.00036642491 0.61100882 -0.79162371 3.4894321e-05
-0.04568734 -0.18824077 0.30758601 -0.001618456 0.61274904 -0.79027593 0
-0.035883896 -0.18960485 0.30653524 -0.00092457572 0.64946854 -0.76038796 0.0033106192
-0.028082199 -0.18947065 0.30663863 -0.0012085194 0.6357531 -0.77189147 0.0018161436
-0.0092178285 -0.18586947 0.30941266 -0.0001224811 0.61144787 -0.7912848 2.6172573e-05
0.0017851461 -0.18813193 0.30766988 0.00029938834 0.61136204 -0.79135102 0
0.025569933 -0.18678363 0.30870846 1.5440139e-05 0.61187369 -0.79095554 5.6482007e-05
0.039400861 -0.18582991 0.30944318 0.00031285314 0.61364752 -0.78957999 0
0.0412912 -0.1882754 0.30755934 -0.00044344697 0.61647171 -0.78737694 2.6179297e-05
0.053988952 -0.18611015 0.30922726 -0.00032017039 0.61426914 -0.78909653 1.7377477e-05
0.062616006 -0.18819061 0.30762467 0.0040686782 0.62359947 -0.78173345 0.00062137825
0.082714982 -0.18522432 0.30990964 -2.8079981e-05 0.61031628 -0.79215789 1.2795358e-05
0.094339862 -0.1877524 0.30796221 3.9269718e-05 0.61029756 -0.79217225 2.385643e-05
0.1085165 -0.18537891 0.30979055 -1.0899238e-05 0.61031032 -0.79216242 3.1441916e-05
0.11471884 -0.18527433 0.30987114 -1.2908939e-05 0.61025488 -0.7922051 3.1377444e-05
0.12028174 -0.18908928 0.30693239 0.0013023829 0.62390399 -0.78149998 0.0005616938
0.13468397 -0.18731061 0.30830255 0.0047315834 0.62243754 -0.78265518 0.00046392562
0.14808725 -0.18949649 0.30661869 0.0068605267 0.63692409 -0.77089596 0.0025115313
0.15246089 -0.18624856 0.30912066 0.00014101439 0.61058998 -0.79194689 0
0.16581197 -0.18783315 0.30790001 -0.002718145 0.61863357 -0.78567493 0.00043340435
0.18486513 -0.18567249 0.30956438 -0.1336733 0.60485643 -0.78503519 0.01957267
0.19571979 -0.188695 0.30723611 -0.34138021 0.6030367 -0.72097594 0.053141236
0.20833333 -0.1819578 0.30940983 -0.62367266 0.47905681 -0.61768681 0.059580028
-0.20833331 -0.17249078 0.30448693 0.94592392 0.19860911 -0.2564806 0.052344859
0.20833333 -0.17487185 0.30316147 -0.8882069 0.29459837 -0.35256252 0.075307272
-0.20833333 -0.16585504 0.30742127 0.93908918 0.18123743 -0.29200101 0.05963742
0.20833333 -0.16998316 0.30930099 -0.87938207 0.32538927 -0.34757587 0.073068634
-0.20833333 -0.15671834 0.30620351 0.97730774 0.10321927 -0.18497404 0.034762792
0.20833334 -0.156213 0.30411509 -0.9789986 0.077158272 -0.18870164 0.031313445
-0.20833334 -0.14445911 0.30549905 0.99978089 0.0065300916 -0.019885171 0.00094687229
0.20833334 -0.1454623 0.30292434 -1 3.0974963e-05 1.0884963e-06 0
-0.20833334 -0.13691342 0.30557403 1 -6.0621724e-06 -4.121862e-05 8.2925635e-06
0.20833331 -0.13471653 0.30451879 -1 3.2408003e-05 -6.2045012e-07 0
-0.20833334 -0.12280373 0.30450994 1 -3.0496054e-05 3.0918018e-06 2.8602848e-05
0.20833334 -0.12881069 0.3055737 -1 3.0770923e-05 -3.1070751e-05 0
-0.20833333 -0.11662096 0.30651501 1 5.2121172e-06 -6.3154861e-05 0
0.20833334 -0.1193203 0.30421245 -1 5.7714797e-06 -5.7332694e-05 0
-0.20833333 -0.10505608 0.30454955 1 -4.2452717e-05 -3.6228063e-05 9.5647429e-06
0.20833333 -0.10401847 0.30308843 -1 -3.640969e-06 -8.6034765e-05 0
-0.20833334 -0.091171317 0.30048528 1 1.5998419e-05 -3.1855725e-05 0
0.20833333 -0.093796134 0.30404502 -1 9.8650598e-06 -6.8251138e-05 0
-0.20833333 -0.08579734 0.30863553 1 -8.6607943e-06 -2.9875468e-05 0
0.20833334 -0.081997566 0.30222851 -1 2.2440081e-05 -3.2644741e-05 0
-0.20833333 -0.073884927 0.30339524 1 8.1336457e-06 -3.4369354e-05 8.9799241e-06
0.20833333 -0.076029606 0.30533758 -1 4.1926452e-07 -3.6817783e-05 0
-0.20833331 -0.062364206 0.30639476 1 6.4812857e-06 -7.8897108e-05 0
0.20833333 -0.06775371 0.30503765 -1 5.3283393e-06 -3.9340961e-05 0
-0.20833333 -0.054003228 0.30438334 1 -2.2851587e-07 -3.6334386e-05 0
0.20833334 -0.050525878 0.30885828 -1 4.1251892e-06 -6.7120163e-05 0
-0.20833331 -0.042341113 0.30684161 1 -9.2899199e-06 -8.0279962e-05 0
0.20833333 -0.044853583 0.30616093 -1 -0 -0 2.8126704e-05
-0.20833331 -0.036409453 0.30664119 1 2.5851143e-06 -6.0059436e-05 0
0.20833333 -0.031004252 0.30223781 -1 2.6960865e-06 3.3188309e-07 0
-0.20833333 -0.02106631 0.3022067 1 -3.1427978e-06 -3.1887692e-05 0
0.20833333 -0.026976939 0.30843472 -1 2.1420044e-06 3.5732245e-07 9.484218e-06
-0.20833333 -0.015242786 0.30135843 1 3.6603162e-06 -6.7820016e-05 0
0.20833333 -0.01382335 0.30275497 -1 2.7784865e-06 -3.2892865e-05 0
-0.20833333 -0.0038153385 0.30352393 1 2.2844446e-05 -0.00010933466 9.3587778e-06
0.20833334 -0.0066240337 0.30608758 -1 2.1294538e-05 -0.0001059668 0
-0.20833333 0.0050317617 0.30525225 1 0 0 8.4953581e-06
0.20833333 0.00055902079 0.30802011 -1 -5.4000966e-06 -3.5484558e-05 8.2503702e-06
-0.20833333 0.013123102 0.30453584 1 -0 -0 8.1880989e-06
-0.20833333 0.028730599 0.30071634 1 -3.044777e-06 -6.4405263e-05 0
0.20833333 0.025268162 0.30456328 -1 6.1252072e-06 1.1329283e-06 7.781171e-06
-0.20833333 0.034416713 0.30921006 1 -6.232005e-06 -3.1017302e-07 8.2803735e-06
0.20833334 0.034601923 0.30556363 -1 1.440142e-06 2.8945964e-05 1.6596092e-05
0.20833334 0.043799173 0.30552533 -1 1.0515399e-05 -1.1697649e-06 8.1262351e-06
-0.20833333 0.055706371 0.30450007 1 -8.4916846e-06 -7.2358664e-05 0
0.20833333 0.055865429 0.30721605 -1 -2.3134201e-06 2.8349154e-05 0
-0.20833331 0.064589523 0.30469462 1 -3.1683444e-06 -3.6680325e-05 9.3401204e-06
0.20833334 0.066172488 0.30507892 -1 -1.2584196e-05 -5.6555706e-05 0
-0.20833331 0.07458324 0.30462107 1 -2.8313016e-06 -3.9529699e-05 0
0.20833333 0.073912345 0.30488059 -1 -2.2205568e-05 -2.9745312e-05 0
-0.20833333 0.08579465 0.30735186 1 -8.5380325e-06 -7.49055e-07 0
0.20833334 0.086627617 0.30067244 -1 -2.1395706e-05 -4.7902122e-05 0
0.20833333 0.095244162 0.3038446 -1 -1.0695283e-05 -3.2554628e-05 0
-0.20833333 0.10431483 0.30194312 1 -2.5626978e-05 -3.0878509e-05 0
-0.20833333 0.11453035 0.30314222 1 -2.5063538e-05 -6.3646788e-05 0
0.20833333 0.11527523 0.30602965 -1 -2.4790852e-05 4.0069368e-05 1.8801085e-05
-0.20833333 0.12436689 0.306245 1 1.6379178e-06 -6.7704641e-05 0
0.20833333 0.1223309 0.30623448 -1 -3.9092149e-05 -3.5745088e-05 0
-0.20833331 0.13282111 0.30161422 1 -1.546734e-05 -8.0201221e-07 0
0.20833331 0.13448808 0.30054188 -1 -1.904031e-05 -1.4223901e-05 0
-0.20833331 0.14449729 0.30762941 0.99813044 -0.047534119 -0.038420711 0.0090337675
0.20833333 0.14875694 0.30432886 -0.99927908 -0.018419011 -0.033196852 0.0014293524
-0.20833331 0.1565273 0.30372098 0.98546213 -0.13511942 -0.10299108 0.025016462
0.20833334 0.1552666 0.30328649 -0.99233425 -0.081475407 -0.092921674 0.016627345
-0.20833334 0.16609064 0.3057093 0.9634527 -0.19522268 -0.18343106 0.054444704
0.20833331 0.16514125 0.30569774 -0.95140493 -0.18316941 -0.24754296 0.057215624
0.20833333 0.17437382 0.30438864 -0.91717964 -0.25837213 -0.3033568 0.069620229
-0.20675224 0.18659842 0.30673721 0.75736493 -0.40483233 -0.51235646 0.092579238
-0.17390679 0.18694693 0.30858266 0.0012363843 -0.6193015 -0.78515232 0.00053332717
-0.16665883 0.18826658 0.30756614 0.0024784526 -0.62048471 -0.78421462 0.00049906707
-0.15255544 0.18658954 0.30885798 -2.899432e-06 -0.61024594 -0.79221213 0
-0.14849837 0.18734902 0.30827296 -3.6334341e-06 -0.61021554 -0.79223543 1.941698e-06
-0.13510457 0.18931006 0.30676234 0.013620926 -0.65484738 -0.75563842 0.0030995407
-0.11391543 0.18781482 0.30791414 0.0027667487 -0.6201992 -0.7844395 0.0003327734
-0.10493457 0.18749948 0.30815706 -0.00038739579 -0.61312115 -0.78998882 5.9535254e-05
-0.095440045 0.18917572 0.30686581 -0.0044121095 -0.63962233 -0.76867658 0.002312622
-0.085975051 0.18848759 0.30739588 -0.0032386142 -0.62183642 -0.78314048 0.00063971797
-0.06589023 0.18726142 0.30834043 -0.00015625911 -0.61251432 -0.79045939 2.731745e-05
-0.051563587 0.1886256 0.30728957 -0.0023055016 -0.64144057 -0.76716924 0.0020216377
-0.044184588 0.18814197 0.3076621 -0.0051782592 -0.63255674 -0.77449679 0.0017213265
-0.032413173 0.18822484 0.30759829 -0.0028949862 -0.63218766 -0.7748099 0.0012392559
-0.014013927 0.18690775 0.30861288 -2.1611665e-06 -0.61025631 -0.79220402 7.0590509e-06
-0.0012047663 0.1882837 0.30755293 -0.0018966525 -0.63945436 -0.76882666 0.001968099
0.0055615529 0.1864692 0.30895069 -7.9219183e-07 -0.61025602 -0.7922042 0
0.011356868 0.18646134 0.30895674 -0.00051046495 -0.61127442 -0.79141861 9.278809e-05
0.022611829 0.18588136 0.30940348 -0.00076844875 -0.61222255 -0.79068518 3.9388771e-05
0.035996377 0.18836534 0.30749002 0.00022861459 -0.6126433 -0.79035956 0
0.043262824 0.18705733 0.30849764 0.0004286785 -0.6120249 -0.79083842 8.342768e-05
0.058626104 0.18947375 0.30663621 0.0023794996 -0.63861221 -0.76952505 0.0023692097
0.066470101 0.18908341 0.30693692 0.0040997714 -0.64310396 -0.76576781 0.0022491752
0.078806244 0.18699688 0.30854419 0.00028961489 -0.61134565 -0.79136372 0
0.085607879 0.1878061 0.30792084 -0.002063585 -0.61901915 -0.78537321 0.00047995156
0.10202337 0.18861598 0.30729696 0.00018202429 -0.62448746 -0.78103489 0.00069507695
0.11538601 0.18777043 0.30794832 -7.0359936e-05 -0.61129332 -0.79140407 4.1177012e-05
0.12394036 0.18781582 0.30791336 0.00021272966 -0.61138093 -0.79133648 0
0.13540444 0.18805894 0.30772609 0.0010048572 -0.61132741 -0.79137713 3.484519e-05
0.14232376 0.18730824 0.30830437 -0.0024169616 -0.61876023 -0.78557622 0.00026640177
0.1577028 0.18947399 0.30663604 0.0050003696 -0.63824147 -0.76982003 0.0020054295
0.16861174 0.18713626 0.30843684 -0.00066647283 -0.61123353 -0.79144996 3.1894866e-05
0.19217736 0.18760346 0.30807695 -0.26668859 -0.60325682 -0.7516371 0.053396106
0.20606366 0.18509559 0.30768275 -0.68092006 -0.48038712 -0.55278939 0.09147276
-0.20454685 0.19355974 0.30348873 0.62014627 -0.52078891 -0.58668345 0.065003723
-0.1929806 0.19341689 0.30359873 0.19342645 -0.68739551 -0.7000525 0.035630491
-0.18531114 0.19301191 0.3039107 0.087222211 -0.67386615 -0.73368704 0.01428951
-0.17223047 0.19539352 0.30207613 0.008840357 -0.68290871 -0.73045021 0.0063623735
-0.16626135 0.19583535 0.30173579 0.0099215452 -0.67697626 -0.73593801 0.0072902595
-0.15417638 0.19380045 0.3033033 0.012150996 -0.66416478 -0.74748749 0.0047309953
-0.14591646 0.1937895 0.30331174 -0.011335629 -0.65701145 -0.75379539 0.0036350221
-0.13313743 0.19068864 0.30570036 0.0096331546 -0.67037171 -0.74196291 0.0039477656
-0.12450922 0.19430546 0.30291426 0.013968507 -0.68686169 -0.72665387 0.0062479274
-0.1145731 0.19196983 0.30471346 0.0187847 -0.64581931 -0.76325923 0.0028690926
-0.10646617 0.19610393 0.30152887 0.005928962 -0.71615678 -0.69791424 0.010856899
-0.093921371 0.19409771 0.30307433 0.0061132158 -0.67699373 -0.7359634 0.0060198647
-0.086137503 0.192911 0.30398843 -0.0068055275 -0.65847909 -0.75256824 0.0040395875
-0.075308934 0.19609675 0.30153441 -4.6762569e-05 -0.72920895 -0.68429106 0.014051843
-0.062504277 0.19237994 0.30439755 -0.0026850449 -0.66715282 -0.74491608 0.0042590704
-0.056024384 0.19197164 0.30471206 0.0047961911 -0.66039985 -0.75089872 0.0035916129
-0.044884574 0.19531393 0.3021374 0.0066843657 -0.66992342 -0.74240011 0.0041425717
-0.033350829 0.19356596 0.30348393 0.0032516408 -0.64186394 -0.76681167 0.002025476
-0.028386593 0.19172488 0.30490214 -0.0047931164 -0.64430177 -0.76475632 0.0025486043
-0.014519826 0.19680405 0.30098957 -0.03284125 -0.69878364 -0.71457875 0.0092426399
-0.0036401302 0.19593425 0.30165958 -0.019294785 -0.72474754 -0.68874419 0.012436979
0.0066532921 0.19257304 0.30424881 0.0012641416 -0.65796024 -0.75305158 0.0032268227
0.016919989 0.1945442 0.30273038 -0.00017926416 -0.71443015 -0.69970673 0.01036184
0.029739194 0.19668409 0.30108199 0.017946733 -0.75856638 -0.65134865 0.014646943
0.032536134 0.19468613 0.30262101 0.0053631701 -0.70062059 -0.71351379 0.0065545118
0.046476033 0.19151151 0.30506647 -0.0039937375 -0.65364218 -0.7567932 0.0033532078
0.055345017 0.19447987 0.30277991 0.005427591 -0.70004845 -0.71407479 0.011158298
0.064657077 0.19182327 0.30482638 0.0036882898 -0.64241517 -0.766348 0.0024518622
0.076465219 0.19352899 0.30351242 0.010382911 -0.65862769 -0.75239748 0.004217796
0.081962787 0.19124533 0.30527151 0.0039304495 -0.64341581 -0.76550686 0.0032114754
0.09654671 0.1976535 0.30033523 -0.0027893756 -0.73339516 -0.67979687 0.018006258
0.10505482 0.19262365 0.3042098 -0.0091620628 -0.63929933 -0.76890343 0.00214596
0.11339918 0.19687092 0.30093807 -0.0081106424 -0.74541122 -0.66655558 0.018782349
0.12591934 0.19567239 0.30186129 -0.00088407093 -0.68058807 -0.73266578 0.005832111
0.13375461 0.19382827 0.30328187 0.0035403662 -0.69275433 -0.721165 0.0091239661
0.14668936 0.19529235 0.30215403 0.0066801929 -0.71790302 -0.69611114 0.012031705
0.15363541 0.19208521 0.30462456 -0.010657591 -0.64832908 -0.76128566 0.0031998963
0.16486792 0.19696744 0.30086371 -0.013905556 -0.73979354 -0.67269033 0.015145454
0.17377026 0.19596513 0.3016358 0.0028683073 -0.72755504 -0.68604332 0.012497296
0.18664104 0.19232938 0.3044365 -0.15379275 -0.65162504 -0.742787 0.031724185
0.20754436 0.19691691 0.30090263 -0.72309172 -0.5180369 -0.45692018 0.069103703
-0.20297982 -0.18507603 0.31002384 0.65978152 0.49319986 -0.56695867 0.079767585
-0.19554245 -0.18358369 0.31117344 0.3091113 0.58303058 -0.75134915 0.056947846
-0.18014501 -0.18280591 0.31177261 0.016155021 0.61440843 -0.78882271 0.00068526628
-0.17179917 -0.18394457 0.31089544 -1.932817e-05 0.61057687 -0.79195696 5.4533411e-05
-0.16177538 -0.18052641 0.31352854 -3.097537e-05 0.61025393 -0.79220587 0
-0.15736949 -0.18240058 0.31208479 0.0001086851 0.61047429 -0.79203606 7.295163e-06
-0.13473344 -0.18244573 0.31205004 -1.5437898e-05 0.6108458 -0.79174954 0
-0.11127989 -0.18296759 0.31164804 6.3665175e-06 0.61027223 -0.7921918 0
-0.095726423 -0.18287313 0.31172079 -0.00020055282 0.61128902 -0.79140741 0
-0.083454758 -0.18355085 0.31119877 0.00035180897 0.61251318 -0.79046035 1.1548526e-07
-0.075289682 -0.18254909 0.31197044 -2.8795989e-06 0.61026102 -0.79220039 3.0592222e-05
-0.066444188 -0.18161197 0.31269228 2.4817118e-05 0.61030847 -0.79216385 0
-0.054895423 -0.18047023 0.31357181 1.9715694e-06 0.61019284 -0.79225296 0
-0.04452797 -0.18454739 0.31043106 -0.00021338002 0.61110079 -0.79155278 3.5100006e-06
-0.036568128 -0.18343949 0.31128454 -3.5201363e-05 0.61112368 -0.79153508 0
-0.02586443 -0.18488756 0.31016907 8.1562339e-06 0.61286545 -0.7901873 8.4482026e-06
-0.0019728392 -0.18214622 0.31228077 -2.0554035e-06 0.61026663 -0.79219604 1.632607e-05
0.0025838639 -0.18307354 0.31156644 0.00025016448 0.61084044 -0.79175371 0
0.014552839 -0.18263607 0.31190342 3.8753842e-06 0.61028677 -0.7921806 0
0.034514658 -0.18244484 0.3120507 0.00072598876 0.61184496 -0.79097736 0
0.043997947 -0.18309245 0.31155187 -0.00024117051 0.61228502 -0.79063708 3.3521199e-05
0.050957754 -0.18146262 0.31280735 -6.7608794e-06 0.61026001 -0.79220116 1.4799073e-05
0.06533388 -0.18102841 0.31314182 -4.4355588e-06 0.6102792 -0.7921865 6.0443093e-05
0.074720085 -0.18341845 0.31130072 -8.4784887e-07 0.6103223 -0.7921533 2.0358355e-06
0.094164804 -0.18283862 0.31174737 2.6470581e-05 0.61026466 -0.79219759 0
0.1050666 -0.18338731 0.31132472 5.806754e-06 0.61027402 -0.79219037 3.0222031e-05
0.11489459 -0.18442965 0.31052178 -4.2283522e-05 0.61025196 -0.79220742 4.05303e-05
0.13335292 -0.18067837 0.31341147 -2.5502939e-06 0.61026144 -0.79220009 0
0.1530543 -0.1832651 0.31141886 0.00023575792 0.61069173 -0.79186833 7.6932796e-05
0.16644414 -0.18274654 0.3118183 5.0475024e-05 0.61025387 -0.79220587 0
0.18426712 -0.1837486 0.31104642 -0.13787356 0.60106957 -0.78721428 0.020540014
0.20202728 -0.18119067 0.31301683 -0.44795159 0.52508157 -0.72362202 0.058179427
-0.20675561 -0.17599738 0.31604433 0.59281403 0.48198798 -0.64518142 0.080225825
-0.19429876 -0.17799379 0.31547946 0.34940946 0.55776399 -0.75286943 0.060004059
-0.18534784 -0.17387781 0.31865007 0.10706184 0.61550122 -0.78083032 0.016186669
-0.17147155 -0.17466359 0.31804472 -3.5562611e-05 0.61029762 -0.79217225 3.949838e-05
-0.15590082 -0.1745062 0.31816599 0.00012012263 0.61031741 -0.79215693 0
-0.1463245 -0.17625888 0.31681588 -8.3352261e-06 0.61030716 -0.79216486 5.9832193e-05
-0.13755742 -0.17559016 0.31733102 2.1459868e-05 0.61027765 -0.79218757 0
-0.1233288 -0.17698154 0.31625921 8.1683766e-07 0.61029536 -0.79217398 0
-0.11544426 -0.17645466 0.31666508 -7.9223846e-06 0.61026543 -0.79219705 5.2637501e-05
-0.10306337 -0.17554045 0.31736931 -1.9086187e-06 0.61023378 -0.79222137 0
-0.096717462 -0.17621988 0.31684592 -1.2073276e-06 0.6102742 -0.79219031 0.00010280166
-0.084035695 -0.17709571 0.31617126 2.1543543e-05 0.61027312 -0.79219109 0
-0.078554474 -0.17561887 0.31730887 6.2752156e-06 0.61026776 -0.79219514 3.6004465e-05
-0.062270761 -0.176218 0.31684735 -2.4040808e-06 0.61032003 -0.79215497 0
-0.053521823 -0.17640363 0.31670439 6.7295605e-07 0.610255 -0.79220504 0
-0.045782838 -0.17508471 0.31772038 -1.5768929e-06 0.61028701 -0.79218036 0
-0.035014279 -0.17717348 0.31611133 -6.8109757e-06 0.61032218 -0.7921533 0
-0.01636032 -0.17379159 0.31871647 -8.4142505e-07 0.61026466 -0.79219759 5.0166756e-05
-0.0035752952 -0.17699912 0.31624568 -5.5337449e-07 0.61025029 -0.79220867 4.5309596e-05
0.0088673383 -0.17660877 0.31654635 2.1338274e-06 0.61024952 -0.79220927 1.7571578e-05
0.016438471 -0.17541765 0.3174639 -1.7462637e-06 0.61024016 -0.79221648 2.5865216e-05
0.023977987 -0.17377253 0.31873119 4.9343589e-06 0.61024743 -0.79221088 2.5876681e-05
0.034698773 -0.17623399 0.31683505 6.9471162e-06 0.61023283 -0.79222214 0
0.04396053 -0.1763584 0.31673923 -7.0097458e-06 0.61028737 -0.79218 7.4876036e-05
0.054240566 -0.17518385 0.317644 1.0599722e-05 0.61025828 -0.79220247 0
0.067732692 -0.17490809 0.31785643 -1.3149272e-05 0.61030489 -0.79216653 0
0.075245902 -0.17654097 0.31659859 -5.2508574e-05 0.61038035 -0.79210848 0
0.083970726 -0.17591487 0.31708086 -1.2602707e-05 0.6102913 -0.79217708 0
0.094611101 -0.17587081 0.31711483 -4.2301326e-06 0.61025268 -0.79220688 3.6325513e-05
0.10470561 -0.17609245 0.31694412 1.0582341e-05 0.61025482 -0.79220515 0
0.11529142 -0.17556624 0.31734943 -3.5571593e-05 0.6102407 -0.79221606 0
0.12556852 -0.17492434 0.31784391 2.4806142e-05 0.61029065 -0.79217762 0
0.13349935 -0.17739336 0.31594196 7.3915958e-06 0.61025804 -0.79220271 0
0.14493878 -0.1766917 0.31648251 4.8339225e-05 0.61026162 -0.79219991 2.5211362e-05
0.15674728 -0.17766182 0.31573516 9.5552004e-06 0.61025411 -0.79220569 0
0.1656929 -0.17510244 0.3177067 -3.4050208e-05 0.61026013 -0.79220104 0
0.17569418 -0.17887378 0.31480154 3.871887e-05 0.61026829 -0.79219478 8.981704e-06
0.1848518 -0.17847621 0.31510782 -0.12182675 0.60269421 -0.78861773 0.013589153
0.19806345 -0.17629285 0.31678972 -0.40878946 0.56378275 -0.71766305 0.053764366
0.20591605 -0.17512377 0.31553024 -0.58589178 0.487791 -0.64714044 0.076810941
-0.20833333 -0.16237746 0.31639296 0.87405455 0.2899037 -0.38985187 0.0821165
0.20833331 -0.16326842 0.31392089 -0.8282972 0.30360484 -0.47090104 0.082569554
-0.20833334 -0.15467803 0.31441194 0.95486623 0.18222803 -0.23457073 0.062601715
0.20833331 -0.15550154 0.31569207 -0.91449112 0.19665036 -0.35360253 0.071354263
-0.20833334 -0.14592484 0.31672099 0.97141469 0.12511517 -0.20174168 0.033847094
0.20833331 -0.14486365 0.31368214 -0.98542482 0.11989295 -0.12067964 0.029195612
-0.20833333 -0.13742687 0.31282938 0.99605483 0.041646138 -0.078360103 0.010264303
0.20833334 -0.13444625 0.31506109 -0.99919629 0.02220392 -0.033372488 0.0020245321
-0.20833334 -0.12099388 0.31734005 1 2.7801651e-05 -6.4313273e-05 0
0.20833333 -0.12056557 0.31645387 -1 2.237128e-05 -3.6159374e-05 0
-0.20833333 -0.11303774 0.31589946 1 -5.4503862e-06 -3.4739431e-05 0
0.20833331 -0.11245316 0.31526843 -1 2.5641089e-05 -3.3631626e-05 0
-0.20833334 -0.10472114 0.31528097 1 1.5725886e-05 -8.868373e-05 0
0.20833334 -0.10565586 0.31611875 -1 8.2685247e-06 -3.4117631e-05 0
-0.20833331 -0.099993736 0.31776425 1 -2.168171e-06 -0.00010748711 0
0.20833333 -0.09100502 0.31521568 -1 -6.6818012e-07 -6.4206368e-05 0
-0.20833333 -0.083518632 0.31830579 1 4.4333387e-06 -6.8531306e-05 0
0.20833333 -0.08839833 0.31705803 -1 -1.5206217e-05 -8.4401989e-05 0
-0.20833333 -0.073098622 0.31375813 1 7.6927427e-06 -3.4988625e-05 0
0.20833333 -0.073846266 0.31615826 -1 1.4853699e-05 -6.1705323e-05 9.3843419e-06
-0.20833333 -0.067334205 0.31759045 1 4.6709083e-06 -3.1468404e-05 0
0.20833333 -0.067077614 0.31144649 -1 1.0421125e-05 -7.5340693e-05 0
-0.20833331 -0.053112954 0.31674343 1 -8.0716318e-06 3.5554844e-05 2.7693031e-05
0.20833333 -0.055862386 0.31197032 -1 1.0878803e-05 -7.2438248e-05 0
-0.20833333 -0.047008149 0.31505215 1 7.7100749e-06 -6.2365136e-05 0
0.20833334 -0.042433873 0.31310558 -1 1.6675065e-06 -3.1014159e-05 0
-0.20833331 -0.035775229 0.3142783 1 -7.1283007e-06 -3.1435986e-05 0
0.20833334 -0.03404142 0.31040388 -1 2.585037e-06 3.3200271e-05 9.222741e-06
-0.20833333 -0.029514343 0.3143166 1 -2.7038618e-06 -9.5508294e-05 0
0.20833334 -0.02693006 0.3167417 -1 2.5816389e-06 -7.0987655e-05 0
-0.20833333 -0.013995497 0.31521288 1 -1.9801284e-06 -0.0001019528 0
0.20833333 -0.015071121 0.31420907 -1 1.1080907e-05 -8.1125225e-05 9.5362348e-06
-0.20833333 -0.0066433428 0.31617755 1 -4.5946781e-06 -6.5601293e-05 0
0.20833333 -0.0006023068 0.31249502 -1 2.1397987e-06 -4.1120536e-05 2.6760468e-05
-0.20833333 0.0080358293 0.31561655 1 0 0 8.2600509e-06
0.20833333 0.002716925 0.31330463 -1 -6.4776032e-06 -3.9990042e-05 2.6584939e-05
-0.20833333 0.015580612 0.3149834 1 -1.3552283e-06 -3.1670417e-05 0
0.20833334 0.015270575 0.31823871 -1 3.621504e-06 6.8701302e-05 5.5443437e-05
-0.20833333 0.027788915 0.31193244 1 2.3789823e-06 -6.499041e-05 7.778769e-06
-0.20833331 0.034247711 0.3101868 1 -1.0682342e-06 6.2043706e-05 8.2298211e-06
0.20833333 0.036923986 0.31407306 -1 -8.7798653e-06 3.5436406e-05 4.4527384e-05
-0.20833333 0.045848235 0.31647187 1 -9.8178434e-06 1.0355565e-06 8.4438616e-06
0.20833333 0.045489226 0.31864274 -1 6.4956862e-06 -3.4163822e-05 2.7180717e-05
-0.20833334 0.053529426 0.31597596 1 -2.4966159e-06 -9.2951224e-05 0
0.20833334 0.055007387 0.31690183 -1 -2.1423243e-06 2.8458353e-05 8.8297511e-06
-0.20833331 0.065818056 0.31097275 1 -1.8486315e-05 -5.957191e-05 8.5894198e-06
0.20833334 0.067048863 0.31611294 -1 0 0 8.9206869e-06
-0.20833331 0.074882098 0.3152945 1 -2.6351125e-05 -6.4764412e-05 0
0.20833331 0.074209712 0.3136209 -1 -7.4751479e-06 -3.3516935e-05 0
-0.20833331 0.087681606 0.31440306 1 -1.2830071e-05 -6.3990723e-05 0
0.20833333 0.086745575 0.31524259 -1 -8.1568041e-06 8.9741019e-07 0
-0.20833333 0.095011353 0.31081423 1 -3.0990803e-05 -2.0036061e-06 0
0.20833333 0.094578139 0.31202996 -1 -1.4776316e-05 -2.8552759e-05 0
-0.20833334 0.10682611 0.31193644 1 -4.9352916e-06 -6.0082617e-05 0
0.20833334 0.10460719 0.31339568 -1 -8.3525319e-06 -1.1776809e-06 0
-0.20833333 0.11460704 0.31738132 1 -0 -0 0
0.20833333 0.11082281 0.3172766 -1 -9.9944082e-06 -6.2928797e-05 0
-0.20833333 0.12048801 0.31853876 1 -2.8311961e-05 -3.2668595e-05 0
0.20833331 0.12817667 0.31390449 -1 -1.754945e-05 -1.719324e-06 8.7871649e-06
-0.20833333 0.13557415 0.31147978 1 -3.2278e-05 -3.480952e-05 0
0.20833331 0.13214442 0.31348932 -0.99995053 -0.0064319684 -0.0075872755 0.00021938371
-0.20833331 0.14637357 0.31293318 0.98329163 -0.12380809 -0.13345054 0.028445523
-0.20833333 0.15577532 0.31781706 0.94534659 -0.22803617 -0.23306499 0.059781488
0.20833333 0.15347731 0.31840295 -0.94847214 -0.22629584 -0.2217897 0.051446553
-0.20833333 0.16389908 0.31512275 0.88178605 -0.27930206 -0.38005754 0.08546146
-0.20596434 0.17590711 0.31620428 0.68668622 -0.4611617 -0.56195366 0.077675305
-0.19361553 0.17891373 0.31477082 0.27156687 -0.58946413 -0.76077819 0.05899103
-0.1858125 0.17695495 0.31627968 0.081996553 -0.58898628 -0.80397254 0.018168971
-0.1748509 0.1760978 0.31693998 4.4753866e-05 -0.61029798 -0.79217201 0
-0.16341588 0.17582443 0.31715053 6.3191073e-05 -0.61025882 -0.79220217 0
-0.15512775 0.17550676 0.31739527 9.3147883e-06 -0.61021703 -0.7922343 0
-0.14422552 0.17697699 0.31626269 1.5320473e-05 -0.61029971 -0.79217058 0
-0.13345468 0.17339472 0.31902218 1.2596206e-05 -0.61023146 -0.79222316 0
-0.12687995 0.17792776 0.3155303 -1.9931344e-05 -0.610264 -0.79219806 1.9302788e-05
-0.11319485 0.17276487 0.31950736 9.9298779e-07 -0.61030513 -0.79216647 0
-0.10674869 0.17503923 0.3177554 3.6032061e-06 -0.61026824 -0.79219484 7.2804469e-05
-0.096015692 0.17648953 0.3166382 -1.6771135e-05 -0.61031079 -0.79216206 0
-0.085956655 0.17566063 0.31727672 2.9769304e-05 -0.61030769 -0.79216456 0
-0.073542021 0.17652237 0.31661287 3.1352927e-05 -0.61031228 -0.79216093 0
-0.04536134 0.17236394 0.3198162 -1.2679206e-05 -0.61027282 -0.79219139 0.0001197489
-0.039085545 0.17680955 0.31639171 -5.9005833e-06 -0.61031222 -0.79216105 1.0507007e-05
-0.026443461 0.17477863 0.31795618 -2.7428619e-06 -0.61025727 -0.79220325 6.0249581e-06
-0.016688503 0.174584 0.31810606 -8.0066184e-06 -0.6102162 -0.7922349 1.7065587e-06
-0.007870377 0.1748147 0.31792834 -8.0672675e-07 -0.6102289 -0.79222512 9.5420055e-06
0.0025043916 0.1795336 0.3142933 -5.1705429e-06 -0.61027652 -0.79218853 2.7751519e-05
0.015287733 0.17746207 0.315889 -5.4889083e-06 -0.61026144 -0.79220015 4.7989317e-05
0.047981165 0.17331104 0.31908661 -7.8743669e-06 -0.61027181 -0.79219204 0
0.054692596 0.17310359 0.31924644 -8.6319951e-06 -0.61031616 -0.79215795 0
0.067559943 0.1764859 0.316641 -1.3716336e-05 -0.61025685 -0.79220366 1.5944901e-05
0.074621201 0.1780223 0.31545749 -1.7359558e-05 -0.61029178 -0.79217678 0
0.084176145 0.17562701 0.31730258 -4.4945944e-05 -0.61035502 -0.79212797 0
0.090526581 0.17505753 0.3177413 -2.3119601e-05 -0.61027712 -0.79218799 0
0.10585584 0.17375877 0.31874174 1.3493324e-05 -0.61030006 -0.79217029 9.0879061e-05
0.11584897 0.17499971 0.31778583 -2.0618523e-05 -0.61026776 -0.7921952 4.9608028e-05
0.12607193 0.17531085 0.31754619 -4.1363361e-05 -0.61019921 -0.79224807 3.4274632e-05
0.13570869 0.17685904 0.31635356 1.4022846e-05 -0.61028272 -0.79218364 7.3750093e-06
0.14749098 0.17660099 0.31655237 3.4869947e-05 -0.61026704 -0.7921958 5.4322983e-05
0.15268612 0.17849579 0.31509274 5.6994511e-05 -0.61026263 -0.79219913 0
0.16889113 0.17658055 0.31656808 -2.0893167e-05 -0.61020952 -0.79224014 0
0.17709225 0.1772324 0.31606594 -0.0088970559 -0.60947388 -0.7927562 0.00021950662
0.19742218 0.17872629 0.31491518 -0.46455973 -0.50576329 -0.72690284 0.083436228
0.20623252 0.1770902 0.31383756 -0.66447449 -0.44805199 -0.59809953 0.10160787
-0.20541987 0.18195415 0.31242871 0.77518678 -0.40876079 -0.48166382 0.080062628
-0.19340032 0.18315528 0.31150347 0.20619026 -0.62200511 -0.75537753 0.044329032
-0.18385294 0.18283233 0.31175226 0.0083540641 -0.61207855 -0.79075283 0.00017553367
-0.16713373 0.18403868 0.31082293 -3.0649349e-05 -0.61020797 -0.79224122 4.1133644e-05
-0.15656608 0.18203868 0.31236359 -2.3016768e-05 -0.61028564 -0.79218143 1.0024762e-05
-0.14288442 0.18181896 0.31253281 -2.2877804e-05 -0.6102913 -0.79217702 1.232006e-05
-0.12436888 0.18204916 0.31235552 -6.4060441e-05 -0.61031222 -0.79216099 5.222535e-05
-0.11724906 0.18120936 0.31300247 -3.2196414e-05 -0.61023575 -0.79221982 9.1868089e-05
-0.083314739 0.18116872 0.31303373 -5.5061271e-05 -0.61032569 -0.79215062 9.684293e-05
-0.074765906 0.18290357 0.31169736 -0.00050257362 -0.61222303 -0.790685 3.3605484e-05
-0.054710932 0.18291987 0.31168479 -0.00024038846 -0.61166102 -0.79111981 3.9326616e-05
-0.024907105 0.18245867 0.31204006 -4.0571726e-06 -0.61030132 -0.79216933 0
-0.013054358 0.18232745 0.31214118 1.0058221e-06 -0.61029112 -0.7921772 5.5204528e-05
-0.0044315211 0.18231232 0.31215277 5.3369481e-06 -0.61030281 -0.7921682 3.8982951e-05
0.0030905604 0.18361263 0.31115115 3.6053118e-06 -0.61030167 -0.79216909 0
0.02665404 0.18401048 0.31084466 -0.00055566378 -0.61244017 -0.79051679 1.6364715e-05
0.030643258 0.18430993 0.31061402 -0.00032674154 -0.61262202 -0.79037595 5.7038385e-05
0.046379797 0.18478782 0.31024587 0.00059320842 -0.61189067 -0.79094213 4.1041556e-05
0.0522939 0.18339901 0.31131572 9.7167605e-05 -0.61074919 -0.7918241 8.9064288e-06
0.063601181 0.18363976 0.31113023 -0.00010274338 -0.61116695 -0.79150176 0
0.073514976 0.18191451 0.31245923 -1.7259522e-06 -0.61031389 -0.79215968 1.3894116e-05
0.089707963 0.18003286 0.31390873 -8.6784539e-06 -0.61026037 -0.79220086 0
0.094534285 0.18327717 0.31140956 -1.384498e-05 -0.61031538 -0.79215854 3.3769131e-06
0.10309989 0.18099725 0.31316578 -4.1183968e-05 -0.61036199 -0.79212266 0
0.11183903 0.184919 0.31014481 -5.2737578e-06 -0.61113 -0.79153025 3.3238086e-06
0.12372608 0.18391916 0.31091505 0.0002389983 -0.61136317 -0.79135013 2.2033428e-05
0.13869114 0.18359998 0.31116089 9.6929536e-05 -0.61051244 -0.79200673 0.00010280254
0.14690046 0.18048318 0.31356186 4.5343713e-06 -0.61029905 -0.79217112 0
0.16679604 0.18275452 0.31181216 3.3437384e-05 -0.61020607 -0.79224271 0
0.17966235 0.1832902 0.31139952 -0.015984824 -0.6110667 -0.79141772 0.00038343429
0.18416794 0.18275888 0.31180879 -0.1026101 -0.61136496 -0.78466803 0.017472539
0.19713002 0.18332689 0.31137127 -0.37866431 -0.57318115 -0.72668892 0.085486531
0.20468876 0.18224934 0.31208432 -0.62566954 -0.49066392 -0.60645419 0.092533149
-0.20355776 -0.17056733 0.32120019 0.58086467 0.48588145 -0.6530816 0.08311595
-0.1964986 -0.17017479 0.32150257 0.37366942 0.57822704 -0.72527552 0.062090773
-0.17893237 -0.17006701 0.3215856 0.0070048184 0.61097538 -0.79161859 6.2252577e-05
-0.14851724 -0.1720847 0.32003132 -5.0445604e-05 0.61029488 -0.79217434 1.8941011e-05
-0.12531401 -0.1714927 0.32048738 -5.8169597e-05 0.61026931 -0.79219407 1.0604314e-05
-0.094488621 -0.17109568 0.32079318 -2.0108419e-06 0.61026555 -0.79219687 1.9923184e-05
-0.061502136 -0.17156482 0.32043183 -1.4738739e-05 0.61033148 -0.79214609 3.4736535e-05
-0.050162002 -0.17170691 0.32032233 1.9802119e-05 0.61022425 -0.7922287 0
-0.028493628 -0.17154677 0.32044572 7.1391951e-06 0.61022222 -0.79223025 6.6900316e-07
-0.0065632388 -0.17184502 0.32021594 4.0525874e-06 0.61027652 -0.79218847 3.002929e-05
0.045192715 -0.17089567 0.32094729 3.6947031e-06 0.61027658 -0.79218847 3.2363962e-05
0.055829957 -0.17005983 0.32159114 3.6398145e-05 0.61031032 -0.79216242 7.6323282e-05
0.065230109 -0.17200761 0.32009071 -9.9983781e-06 0.61032569 -0.79215062 0
0.076591887 -0.17169483 0.32033166 -2.9758739e-06 0.61026412 -0.792198 0
0.086354986 -0.17073303 0.32107255 1.1553233e-05 0.61031252 -0.79216075 0
0.090010002 -0.17024067 0.32145181 1.5966743e-05 0.61028606 -0.79218113 0
0.10518747 -0.1712686 0.32066 -1.2941483e-05 0.61027473 -0.79218984 0
0.16692032 -0.17003825 0.32160777 4.6111651e-05 0.61026949 -0.79219389 6.8201283e-05
0.1775872 -0.17091148 0.3209351 -0.0069860728 0.61152482 -0.79119444 0.0002629876
0.18577148 -0.17070563 0.32109365 -0.15163395 0.60891253 -0.77860945 0.021059882
0.19297923 -0.17026697 0.32143152 -0.27799335 0.58190137 -0.7642712 0.049577001
-0.20716986 -0.1660552 0.32349345 0.67844826 0.46084967 -0.57212371 0.08510977
-0.19396822 -0.16539623 0.3251836 0.27030143 0.5964548 -0.75576377 0.050810426
-0.18562868 -0.16378632 0.3264237 0.13942143 0.60931641 -0.78057361 0.022187656
-0.17052522 -0.16379735 0.32641518 -3.152819e-05 0.61023998 -0.7922166 0
-0.16458124 -0.16415231 0.3261418 -6.8314577e-05 0.61030102 -0.79216951 1.4115388e-05
-0.15687642 -0.16420814 0.3260988 2.7872647e-05 0.61027277 -0.79219133 0
-0.1438958 -0.16568834 0.32495856 3.2776334e-05 0.61024159 -0.79221541 0
-0.13821189 -0.16644527 0.32437548 3.7410762e-05 0.61025685 -0.79220366 0
-0.1268356 -0.16256933 0.3273612 -2.9417295e-06 0.61030596 -0.79216582 0
-0.11964653 -0.16703814 0.32391879 -4.90819e-05 0.61025137 -0.79220784 1.8470784e-05
-0.10521881 -0.1622059 0.32764116 -1.232228e-05 0.61025965 -0.79220146 1.3627236e-05
-0.093248226 -0.16565134 0.32498705 2.7034266e-05 0.61025453 -0.79220539 7.1106033e-06
-0.081853926 -0.16664033 0.32422522 -2.9878158e-06 0.6102376 -0.79221839 0
-0.074421808 -0.16782302 0.32331419 5.2048676e-06 0.61024809 -0.79221034 0
-0.069647089 -0.16392726 0.32631516 -2.7972954e-05 0.61026508 -0.79219729 3.9982911e-05
-0.052099973 -0.16392288 0.3263185 -2.9798225e-06 0.61022723 -0.79222637 0
-0.042274252 -0.16585869 0.32482734 -1.2662125e-05 0.61027575 -0.79218906 8.1048485e-05
-0.031331748 -0.16124618 0.32838044 9.0914264e-06 0.61022055 -0.79223162 0
-0.026449678 -0.16577645 0.3248907 4.5624588e-06 0.61025906 -0.79220194 0
-0.016828788 -0.16587046 0.32481828 2.6945813e-06 0.6102854 -0.79218155 0
-0.0047173821 -0.16594252 0.32476276 2.5982681e-06 0.6102792 -0.79218644 9.5735042e-05
0.0048475713 -0.16100633 0.32856518 1.9404349e-06 0.61027986 -0.79218584 0
0.015246419 -0.16448687 0.32588407 -4.5145273e-07 0.6102652 -0.79219717 5.209689e-05
0.026023887 -0.16388296 0.32634929 1.1821408e-05 0.6102832 -0.79218328 3.5220703e-05
0.0353158 -0.16318154 0.32688957 -4.6536788e-06 0.61028093 -0.79218513 0
0.044663772 -0.16735411 0.32367539 -3.7181085e-06 0.61026371 -0.79219836 3.7962857e-06
0.055299085 -0.16489483 0.32556981 3.3896395e-05 0.61029506 -0.79217416 0.00011842574
0.064511605 -0.16501565 0.32547674 -6.9776047e-06 0.61023313 -0.7922219 2.5441444e-05
0.072836027 -0.16703059 0.3239246 3.6877456e-05 0.61025631 -0.79220408 3.1774583e-05
0.086441584 -0.16576797 0.32489723 3.0198439e-06 0.61020237 -0.79224551 9.5241512e-06
0.095391631 -0.16397214 0.32628059 3.0648882e-06 0.61027676 -0.79218841 4.1322928e-05
0.10799858 -0.16542062 0.32516479 1.4886301e-05 0.61024487 -0.79221284 3.5374389e-05
0.11222176 -0.16583076 0.32484886 5.1261969e-07 0.6103065 -0.79216534 0
0.12234479 -0.16398787 0.32626849 3.0486945e-05 0.61030495 -0.79216653 0.00011572819
0.13315976 -0.16373035 0.32646683 1.6054515e-05 0.61026573 -0.79219675 2.1677522e-05
0.14442782 -0.16436319 0.32597932 -1.7195071e-05 0.61026275 -0.79219913 0
0.15534562 -0.16369089 0.32649723 -1.7614317e-05 0.61026877 -0.79219443 6.2920458e-06
0.16923995 -0.16061158 0.32886928 2.6053456e-05 0.61025327 -0.79220635 0
0.17723864 -0.1657474 0.32491305 -3.5560144e-05 0.61024159 -0.79221529 1.888708e-05
0.18256663 -0.16229847 0.32756984 -0.1275938 0.60104388 -0.78896511 0.018831791
0.19292232 -0.16372642 0.32646984 -0.26691908 0.59180439 -0.76060617 0.047429107
0.20604904 -0.16087139 0.32866913 -0.59020108 0.46369699 -0.66079324 0.066726215
-0.20833334 -0.15216427 0.32630283 0.80426192 0.31713018 -0.50258458 0.080285497
-0.19133629 -0.1594943 0.32972997 0.239888 0.61612701 -0.75022745 0.04699216
-0.18202676 -0.15943758 0.32977363 0.079407826 0.60143739 -0.79496384 0.0087083913
-0.17469402 -0.15938276 0.32981583 3.0838033e-05 0.61029601 -0.79217345 2.2193428e-05
-0.15959039 -0.15957274 0.32966954 7.3377603e-05 0.61028987 -0.79217815 0
-0.13440023 -0.15941527 0.32979083 -1.7259976e-05 0.61029226 -0.79217637 0
-0.041730545 -0.15994956 0.32937923 -1.4416078e-05 0.61026978 -0.79219365 9.7360578e-07
-0.0257494 -0.15986991 0.32944059 6.7482592e-06 0.61020166 -0.7922461 0
0.0067083463 -0.15931369 0.32986909 -1.861314e-07 0.61027592 -0.792189 0
0.011399589 -0.1598127 0.32948464 2.9103639e-06 0.61025774 -0.79220301 7.3403371e-06
0.048168786 -0.15973289 0.32954615 4.0304576e-06 0.61024189 -0.79221511 1.1249593e-05
0.066323645 -0.15928216 0.32989335 1.2209175e-07 0.61026448 -0.7921977 1.4640802e-05
0.088628471 -0.15991661 0.32940465 3.8015292e-05 0.61029392 -0.79217505 6.7385969e-05
0.1173504 -0.15986034 0.32944798 1.58311e-05 0.61031532 -0.7921586 4.0570016e-05
0.12300383 -0.15984608 0.32945895 -3.2137556e-05 0.6102941 -0.79217488 5.380813e-06
0.17080994 -0.15919697 0.32995898 3.7874637e-05 0.61024678 -0.79221141 0
0.19617186 -0.15998089 0.32935509 -0.29777312 0.59734887 -0.7446512 0.059202492
0.20833331 -0.15256146 0.32604027 -0.82670033 0.37011626 -0.42376947 0.083263375
-0.20833331 -0.14646101 0.3272692 0.83391684 0.34028313 -0.43449995 0.082874216
0.20833333 -0.14773814 0.32286271 -0.92381924 0.25089416 -0.28915423 0.067051552
0.20833334 -0.13173148 0.32744071 -0.97178674 0.12043303 -0.20279655 0.036353886
-0.20833333 -0.12231456 0.32527256 0.99760044 0.038532 -0.057520352 0.0063057891
0.20833333 -0.12222516 0.32495236 -0.99814904 0.027799392 -0.05408977 0.0035320502
-0.20833333 -0.11354381 0.32440645 0.99980301 0.015073121 -0.012911996 0.00066336349
0.20833333 -0.11349818 0.32901388 -0.99911839 0.023920283 -0.034499768 0.0027489925
-0.20833333 -0.10677725 0.32608733 1 -2.8853361e-05 -0.00010859375 9.111026e-06
0.20833334 -0.10360534 0.32522753 -1 1.6245685e-05 1.9940038e-07 9.1645388e-06
-0.20833333 -0.095594183 0.32649863 1 0 0 0
0.20833333 -0.09392415 0.32679701 -1 1.9511814e-05 -6.3063395e-05 0
-0.20833334 -0.086511567 0.32248107 1 1.9984453e-05 -3.0075229e-05 0
0.20833333 -0.085316867 0.32168263 -1 7.9373976e-06 -6.808457e-05 0
-0.20833334 -0.073049508 0.32093632 1 4.3793593e-06 -6.1742651e-07 0
0.20833333 -0.075340718 0.32360566 -1 9.7788197e-06 -3.3394092e-05 0
-0.20833331 -0.065087542 0.32455382 1 9.0735939e-06 -3.0796746e-05 0
0.20833331 -0.061959997 0.32438722 -1 2.6199132e-05 -6.6938752e-05 0
-0.20833333 -0.054324873 0.32703322 1 -4.6520031e-06 -6.9536654e-05 0
0.20833333 -0.058986224 0.32132286 -1 1.143171e-05 -6.5477325e-05 0
-0.20833333 -0.047766484 0.32967299 1 2.4580171e-05 -9.1690425e-05 0
0.20833333 -0.044904426 0.32797667 -1 1.0043327e-05 8.0470028e-07 9.0449539e-06
-0.20833333 -0.034423947 0.32365513 1 9.3297549e-06 -6.9504618e-05 0
0.20833334 -0.038239442 0.32360923 -1 9.7337934e-06 1.2674602e-06 0
-0.20833334 -0.023371251 0.32462734 1 6.1412034e-06 -5.9632777e-05 0
0.20833336 -0.024567466 0.32322422 -1 3.8309709e-06 -5.773217e-05 0
-0.20833333 -0.016842803 0.32332388 1 2.6153346e-06 2.2869381e-07 9.0071908e-06
0.20833331 -0.016741659 0.32607287 -1 -1.0658734e-06 -5.6759323e-05 0
-0.20833333 -0.0075175008 0.32371125 1 -6.860875e-07 -3.1340558e-05 0
0.20833333 -0.0019305246 0.32732385 -1 -1.3068365e-06 3.5484176e-05 8.8220031e-06
-0.20833333 0.0035207681 0.3264173 1 0 0 8.2058705e-06
0.20833333 0.0036559131 0.3233861 -1 -9.2295821e-08 2.8658027e-05 8.3441664e-06
-0.20833333 0.014457379 0.32524452 1 0 0 7.9154142e-06
0.20833333 0.015065229 0.32595164 -1 -6.2094682e-06 7.091165e-05 5.2014264e-05
0.20833333 0.025830165 0.32489064 -1 9.2484179e-06 -3.4391087e-05 2.2349861e-05
-0.20833333 0.034040291 0.32355711 1 -1.7470384e-06 -2.7183474e-05 0
-0.20833333 0.047254525 0.32424968 1 -9.9363242e-06 -3.8473303e-05 8.8470497e-06
0.20833333 0.045868941 0.32387313 -1 1.6678282e-06 -3.4653593e-05 2.9388191e-05
-0.20833334 0.053599469 0.32518518 1 1.2359388e-06 -3.4530312e-05 0
0.20833333 0.055433705 0.32720798 -1 -1.1224845e-05 -6.6290311e-05 0
-0.20833333 0.063011624 0.32389736 1 -3.7087779e-05 -7.6078395e-05 0
0.20833333 0.061168503 0.32617465 -1 -1.5205927e-05 -7.110009e-05 0
-0.20833333 0.075256109 0.32581919 1 -8.134345e-07 -0.00013324755 0
0.20833331 0.077940285 0.32617211 -1 -4.1439198e-06 -3.5095283e-05 0
-0.20833333 0.088030428 0.32915497 1 -2.5677838e-05 -6.8817928e-05 0
0.20833331 0.083428226 0.32660854 -1 -1.0705245e-05 -4.1720741e-05 0
-0.20833333 0.096035793 0.32409626 1 -4.9642235e-06 -3.7999886e-05 8.6115906e-06
0.20833333 0.094082594 0.32761011 -1 -7.7925843e-06 9.2008929e-07 8.6383479e-06
-0.20833333 0.10389207 0.32449225 1 -2.4589453e-05 -2.9628533e-05 0
0.20833334 0.10411902 0.32644552 -1 -6.2392037e-06 3.6592464e-05 9.1140846e-06
-0.20833333 0.11497781 0.32355294 1 -1.0848556e-05 -3.7609338e-05 0
0.20833333 0.11432149 0.32444352 -1 -1.5493601e-05 7.5689262e-05 8.3780315e-06
-0.20833333 0.1230627 0.32384086 0.99809021 -0.041775595 -0.045504902 0.0042457632
0.20833333 0.1235222 0.32417586 -0.99670595 -0.06494116 -0.048579551 0.0080318581
-0.20833333 0.13321969 0.32471678 0.98625571 -0.089726627 -0.13874047 0.024633497
0.20833331 0.13822627 0.32544494 -0.96694535 -0.12140707 -0.22422551 0.050103553
-0.20833333 0.14305192 0.32551715 0.95950693 -0.15559843 -0.23480962 0.046682246
0.20833333 0.14200729 0.32929087 -0.94877809 -0.16040961 -0.27219281 0.058409799
-0.20833334 0.1574624 0.32595748 0.84826154 -0.32247308 -0.42007557 0.070380196
-0.19127546 0.15964301 0.32961538 0.22294351 -0.57147282 -0.78975624 0.039001595
-0.15476128 0.15980698 0.32948908 -1.7906064e-05 -0.61026925 -0.79219407 5.3798136e-05
-0.13670249 0.15996677 0.32936603 -4.2548985e-05 -0.610291 -0.79217732 5.452547e-05
-0.10130046 0.15971342 0.32956111 -2.7643493e-05 -0.6102947 -0.79217446 3.4398508e-05
-0.019255027 0.15939596 0.32980567 0.0069062375 -0.64655584 -0.76283532 0.0076780417
0.017786168 0.15935561 0.32983676 -0.019913007 -0.66026223 -0.75077111 0.0059311925
0.028258283 0.15950358 0.32972273 -2.1467301e-06 -0.61034793 -0.79213345 0
0.069549143 0.15914801 0.32999671 7.1041291e-06 -0.61025965 -0.79220152 0
0.087693676 0.15953395 0.3296994 1.3485544e-05 -0.6102702 -0.79219341 7.8448529e-06
0.10636595 0.15915161 0.32999396 -3.5078461e-05 -0.61036098 -0.79212338 0
0.13926469 0.15959388 0.3296532 8.9919477e-06 -0.61035931 -0.79212469 8.7307162e-05
0.16130881 0.15937676 0.32982048 2.0157793e-05 -0.61028212 -0.79218417 3.6622376e-05
0.20780778 0.15642324 0.32481518 -0.8572312 -0.35809913 -0.37002644 0.057590377
-0.20489675 0.16642024 0.32439476 0.6803152 -0.44694933 -0.58086801 0.08932364
-0.19708492 0.16254197 0.32738227 0.43311504 -0.54925793 -0.7146517 0.073388577
-0.1819717 0.16679405 0.32410684 0.077703238 -0.58938867 -0.80410397 0.011081652
-0.17329207 0.16366871 0.3265143 3.9240476e-06 -0.6102823 -0.79218394 1.5131666e-05
-0.16623372 0.16805482 0.32313561 -2.578665e-05 -0.61026186 -0.79219979 5.9079579e-05
-0.15622054 0.1660466 0.32468259 4.2617954e-05 -0.61024517 -0.79221267 4.4537182e-06
-0.14380297 0.16041686 0.32901928 7.8772928e-06 -0.61027521 -0.79218942 7.1414746e-05
-0.13388494 0.16416189 0.32613441 -3.470561e-07 -0.61022806 -0.79222572 1.7222728e-05
-0.12576352 0.16344386 0.32668751 -1.270324e-05 -0.61026478 -0.79219759 5.3275562e-05
-0.11323486 0.16436267 0.32597971 5.0255703e-06 -0.61027163 -0.79219222 2.7031863e-05
-0.10450396 0.16400397 0.32625604 8.0538184e-06 -0.61021847 -0.79223317 0
-0.099769242 0.16808602 0.32311153 -3.9605734e-06 -0.61025918 -0.79220188 1.8624563e-05
-0.087749816 0.16894598 0.32244912 -1.9595149e-05 -0.61030424 -0.79216707 0
-0.077809371 0.16866407 0.32266629 -8.3962677e-06 -0.61030143 -0.79216927 4.3812783e-05
-0.065733463 0.16703792 0.32391894 -1.2443916e-05 -0.61026084 -0.79220051 2.8458944e-06
-0.058681697 0.16255297 0.3273738 -5.1160159e-06 -0.61027712 -0.79218799 4.2338772e-05
-0.045497518 0.16492164 0.32554916 -8.8324196e-06 -0.61028427 -0.79218256 6.9399721e-05
-0.034356903 0.16328202 0.32681218 -6.2789932e-06 -0.6102795 -0.79218614 7.2938368e-05
-0.026995426 0.1643084 0.32602152 9.2191613e-06 -0.61030662 -0.79216528 3.4707708e-05
-0.014460763 0.16582209 0.32485551 2.8860773e-06 -0.61027557 -0.79218924 0
-0.0023295134 0.16822866 0.32300168 -4.1347289e-06 -0.61031759 -0.79215682 0
0.0071461201 0.16716081 0.32382426 -5.7274929e-07 -0.6102705 -0.79219311 9.9861216e-05
