# .PCD v0.7 - Point Cloud Data file format
VERSION 0.7
FIELDS x y z normal_x normal_y normal_z curvature
SIZE 4 4 4 4 4 4 4
TYPE F F F F F F F
COUNT 1 1 1 1 1 1 1
WIDTH 614
HEIGHT 1
VIEWPOINT 0 0 0 1 0 0 0
POINTS 614
DATA ascii
0.2882784 -0.11517309 -0.0061128205 -0.98406851 -0.070223644 0.16333339 0.036700211
0.2882784 -0.10376902 -0.0043307752 -0.98668104 0.010556185 0.16232416 0.038486339
0.2882784 -0.093552709 -0.0042148679 -0.98642558 0.011748251 0.16378818 0.034317862
-0.2882784 -0.085366935 -0.0079140579 0.97423869 0.0019805531 0.22551082 0.063568138
-0.2882784 -0.07448934 -0.0063714413 0.98253065 0.01856116 0.18517283 0.06152438
0.2882784 -0.064456649 -0.00087031722 -0.99610686 0.04511445 0.075735129 0.014792618
-0.2882784 -0.052544311 -0.00070377439 0.99559361 -0.00051053328 0.093771547 0.012083015
0.2882784 -0.051534794 -0.0057573458 -0.99803466 0.0040267608 0.062535398 0.020682877
0.2882784 -0.043441266 -0.0043795016 -0.97788531 -0.084546685 0.19129094 0.059712421
-0.2882784 -0.033208307 -0.0050901868 0.98734337 -0.027799364 0.1561415 0.029275414
0.2882784 -0.032351881 -0.0016975701 -0.9954803 -0.010634162 0.094371155 0.030351372
-0.2882784 -0.025895089 -0.0096346615 0.97700614 -0.013655655 0.21277347 0.052941501
0.2882784 -0.017429441 -0.0038685396 -0.99927127 -0.0068609859 0.037548233 0.0067844754
-0.2882784 -0.0031023026 -0.0089563578 0.99045515 -0.036966011 0.13278574 0.038995814
0.2882784 -0.0021978319 -0.0059112431 -0.95071185 -0.070005409 0.30206993 0.066581167
-0.2882784 0.0043591559 -0.0068320832 0.98369485 -0.020817289 0.17863658 0.036935177
0.2882784 0.0033130646 -0.0026728269 -0.98255622 -0.033643983 0.18289681 0.035245135
0.2882784 0.013055474 -0.0086929072 -0.92133307 0.0019800018 0.38876903 0.072296992
0.2882784 0.028792581 -0.0054140151 -0.98451185 0.052598469 0.16724193 0.025629312
-0.2882784 0.03281422 -0.0045113303 0.98208779 -0.011234617 0.18808882 0.018890364
0.2882784 0.034970712 -0.0053649209 -0.9924764 0.029153809 0.11891426 0.020104537
0.2882784 0.042600363 -0.0023132907 -0.99013913 -0.016506623 0.13911122 0.022441709
-0.2882784 0.059060179 -2.5141053e-05 0.99260902 -0.0039530108 0.12129109 0.014745776
0.2882784 0.055887569 -0.0060258806 -0.98912561 0.0019875257 0.14705993 0.020460248
-0.2882784 0.06532532 -0.0022491093 0.99219525 0.039339762 0.11832575 0.017620644
0.2882784 0.066685893 -0.0063957819 -0.98331696 -0.0048990003 0.18183462 0.026856363
-0.2882784 0.073783956 -0.0096759927 0.96593469 -0.061653342 0.25133446 0.061118558
0.2882784 0.073740274 -0.0074616694 -0.98888475 -0.032339178 0.14512473 0.04879915
-0.2882784 0.084452137 -0.0053123934 0.98072386 0.013539528 0.19492912 0.035258785
0.2882784 0.084455766 -0.003395166 -0.99545532 -0.023186198 0.092363723 0.024790665
-0.2882784 0.096403159 -0.0080801547 0.97145897 0.022112476 0.2361747 0.056589879
-0.2882784 0.1125762 -0.0039509423 0.98708159 -0.0030069419 0.16019009 0.028731728
0.2882784 0.11411268 -0.0085025448 -0.97128522 0.012667837 0.2375806 0.087258972
-0.2882784 0.12284237 -0.0041571269 0.98395318 -0.0021163733 0.17841437 0.037330322
0.2882784 0.12552252 -0.0039325692 -0.99061263 0.029414514 0.13349678 0.029752884
-0.2882784 0.13436343 -0.0062693763 0.99081916 -0.031336118 0.13151227 0.032565191
-0.2882784 0.14355145 -0.006386044 0.99275529 -0.030643383 0.11618019 0.022927945
0.2882784 0.15805902 -0.0064439601 -0.98531163 0.0037168693 0.17072535 0.03600204
-0.2882784 0.16285104 -0.0033228749 0.98367858 -0.02796012 0.17774898 0.02361788
0.2882784 0.16003186 -0.0091957841 -0.99032599 0.039626226 0.13298208 0.036186736
-0.2882784 0.17674692 -0.0044891723 0.97994524 0.043239929 0.19451906 0.024584981
0.2882784 0.17702119 -0.0053864825 -0.98337823 -0.084355623 0.16078344 0.049894154
0.2882784 0.18322974 -0.004275891 -0.97376949 0.033151098 0.22510874 0.040656447
-0.2882784 0.19477062 -0.0070886617 0.97967738 0.022415735 0.19932324 0.047768921
-0.2882784 0.20045653 -0.00032004784 0.99192101 -0.011138495 0.1263676 0.01300189
0.2882784 0.20905302 -0.0034284247 -0.99914354 -0.0050949887 0.041062295 0.0017429714
-0.2882784 0.21366042 -0.0055578956 0.98029703 0.082436956 0.17950457 0.038677573
0.2882784 0.21269053 -0.0025152005 -0.99409139 -0.042965665 0.099681035 0.017834648
-0.2882784 0.22700195 -0.005888531 0.98914725 0.045042463 0.13985319 0.034135569
0.2882784 0.22707188 -0.004785127 -0.97532469 -0.055534732 0.21367654 0.042880282
-0.2882784 0.23468554 -0.0077726594 0.99421287 0.021457259 0.10526297 0.032876018
0.2882784 0.23589069 -0.0035419238 -0.9869287 -0.021480018 0.15971999 0.02863301
-0.2882784 0.24482071 -0.0018445293 0.99893719 0.0066155409 0.045614239 0.005144529
0.2882784 0.24337584 -0.0024464121 -0.98944616 -0.033361685 0.14100792 0.025376081
-0.2882784 0.25987536 -0.0022136341 0.99896008 -0.040005069 0.021871181 0.00074891548
0.2882784 0.25888634 -0.0036048461 -0.98290688 -0.033287894 0.1810692 0.025744863
-0.2882784 0.26766819 -0.0074978108 0.97317165 -0.20305216 0.1081978 0.058047224
-0.2882784 0.27337468 -0.0036619056 0.93870324 -0.33106932 0.096069425 0.05924692
-0.28473604 0.2882784 -0.0058830916 0.64370501 -0.76315618 0.056890268 0.086452432
-0.27502316 0.2882784 -0.007408347 0.24147971 -0.96254957 0.1232314 0.067707077
-0.26283994 0.2882784 -0.0037793184 0.078621075 -0.98200476 0.17171276 0.029998384
-0.2549949 0.2882784 -0.0053363871 0.04013446 -0.98818868 0.14789304 0.025296854
-0.24806002 0.2882784 -0.0029773843 -0.0018504754 -0.99664521 0.081822321 0.01298013
-0.23402745 0.2882784 -0.0050096838 -0.0054021422 -0.99086428 0.13475455 0.025276592
-0.21963078 0.2882784 -0.0025299769 0.0023244449 -0.99950385 0.031411726 0.0016018655
-0.20523262 0.2882784 -0.0052963207 -0.0023556221 -0.99427241 0.1068496 0.026491003
-0.19360471 0.2882784 -0.0025721975 -0.029462017 -0.9950093 0.095333248 0.019502986
-0.17760891 0.2882784 -0.00099077635 -0.0032909636 -0.98973155 0.14290136 0.022737294
-0.1621509 0.2882784 -0.0001481548 0.015265794 -0.99875581 0.047473468 0.0067584487
-0.15338604 0.2882784 -0.004401145 -0.011084987 -0.99053133 0.13683848 0.02265653
-0.14349076 0.2882784 -0.0055398154 -0.028667035 -0.98530734 0.1683678 0.043569535
-0.13573718 0.2882784 -0.0017521959 0.0076287906 -0.99230647 0.12357083 0.017054511
-0.11721268 0.2882784 -0.0033299392 0.018711464 -0.99268198 0.11929919 0.01610449
-0.10650674 0.2882784 -0.0013161618 -0.0058121402 -0.99799985 0.062947735 0.0078177955
-0.098519772 0.2882784 -0.0019787569 0.010432484 -0.99246484 0.12208465 0.019057296
-0.087229803 0.2882784 -0.0090673231 0.081443466 -0.9711346 0.22419766 0.084282666
-0.074311018 0.2882784 -0.0087933475 -0.019408219 -0.98662996 0.16181657 0.058525592
-0.062778592 0.2882784 -0.0010348549 -0.026046012 -0.99769133 0.062717974 0.0093515143
-0.052665897 0.2882784 -0.0077236868 0.00071826385 -0.99286246 0.11926289 0.02979872
-0.044729888 0.2882784 -0.0029297175 -0.010914478 -0.9923138 0.12326505 0.015738798
-0.031307936 0.2882784 -0.0030104918 0.006733269 -0.99510872 0.098556399 0.021220054
-0.027597457 0.2882784 -0.0081834132 0.064408138 -0.98932791 0.13069716 0.043619517
-0.012894712 0.2882784 -0.0067226449 0.025222238 -0.99852586 0.04806025 0.014675716
-0.0025821626 0.2882784 -0.0099755004 -0.13157779 -0.98579401 0.10439041 0.050415881
0.0064340532 0.2882784 -0.0049618641 -0.0087913731 -0.98883289 0.1487691 0.034985919
0.029503375 0.2882784 -0.0069986642 0.040346876 -0.96982276 0.24044958 0.046317492
0.032475531 0.2882784 -0.0026338249 0.0015691309 -0.98108089 0.19359195 0.03994149
0.0444053 0.2882784 -0.0052008317 0.021712085 -0.99298638 0.11621834 0.033301204
0.050763361 0.2882784 -0.0079143392 -0.14205033 -0.96852392 0.20440929 0.057977926
0.065075889 0.2882784 -0.0063219345 0.026357379 -0.98940593 0.1427625 0.043742359
0.071535945 0.2882784 -0.0047455947 0.016269481 -0.99264127 0.11999439 0.01913188
0.087996073 0.2882784 -0.0047925268 -0.041010216 -0.98506522 0.16722646 0.0442103
0.094881706 0.2882784 -0.00068060774 -0.026261581 -0.99192214 0.12410033 0.028605167
0.10242214 0.2882784 -0.0036226595 -0.0465298 -0.98927498 0.13845561 0.028128423
0.11881047 0.2882784 -0.0077264975 0.014802149 -0.99750918 0.068965718 0.015837299
0.12955052 0.2882784 -0.00015409384 -0.0029218311 -0.99968785 0.024813592 0.0012558472
0.1325953 0.2882784 -0.0064434572 -0.038639572 -0.99755818 0.058178458 0.017953485
0.14413106 0.2882784 -0.0019764353 -0.0052804621 -0.99276137 0.11998759 0.018209813
0.15341377 0.2882784 -0.0030700956 0.0104761 -0.98750871 0.15721539 0.024696803
0.18280359 0.2882784 -0.0059532225 -0.019685788 -0.98642945 0.16300106 0.035877131
0.19356927 0.2882784 -0.0042429534 -0.0074199494 -0.99663496 0.081632331 0.0097190458
0.20856494 0.2882784 -0.0067598522 -0.032553285 -0.98593926 0.1639024 0.039421577
0.22582124 0.2882784 -0.0098376814 -0.055047471 -0.95461017 0.29272732 0.07156837
0.2347575 0.28827837 -0.0039800284 -0.027884487 -0.98637789 0.16211447 0.023318045
0.24049962 0.2882784 -0.0030152292 -0.066840507 -0.98331827 0.16916765 0.025150651
0.25458795 0.2882784 -0.0076289014 0.0057238857 -0.97491801 0.22249089 0.055083871
0.26005644 0.2882784 -0.0084557617 0.0043589999 -0.95587707 0.29373479 0.048391555
0.27457118 0.2882784 -0.0056633097 -0.22513434 -0.96955186 0.096352361 0.086106703
0.28531715 0.2882784 -0.0021971834 -0.75014377 -0.66003704 0.04044031 0.068591431
-0.28581199 -0.28559789 0.0036586486 0.73075002 0.68124789 -0.043655094 0.11317347
-0.27354771 -0.2882784 0.0076528694 0.34425357 0.93584621 -0.075374074 0.075998962
-0.26282787 -0.2882784 0.0045178384 0.084135033 0.99643707 -0.005863681 0.015619486
-0.25743261 -0.2882784 0.0046434235 0.027815115 0.99960142 -0.0048236968 0.0010261275
-0.24430178 -0.2882784 0.0033488865 -0.0033544279 0.99989218 0.014298455 0.00034923389
-0.2128896 -0.2882784 0.0069727763 3.4527035e-05 1 -2.5295227e-08 0
-0.20575042 -0.2882784 0.0073434208 -6.4660334e-08 1 -1.078899e-06 0
-0.19112664 -0.2882784 0.0049868375 5.2707044e-05 1 -1.2934383e-05 0
-0.17011976 -0.2882784 0.0041514672 7.5296761e-05 1 -5.4200264e-06 0
-0.16643487 -0.2882784 0.0048009027 4.484583e-05 1 -1.1022098e-05 0
-0.15472707 -0.2882784 0.0026290622 2.0649677e-05 1 -4.3671794e-06 0
-0.14329231 -0.2882784 0.0080635119 5.3198466e-05 1 6.5303766e-07 0
-0.13948479 -0.2882784 0.004326785 1.3901581e-05 1 1.6689105e-06 0
-0.12372179 -0.2882784 0.0036379127 -0.0029763733 0.99980742 0.01939838 0.00078810833
-0.11417121 -0.2882784 0.0085053053 4.6261866e-05 1 -4.9607397e-06 0
-0.1065862 -0.2882784 0.0017365972 0.00069751625 0.99905819 0.043383747 0.0025646489
-0.098347738 -0.2882784 0.0085914852 2.8065837e-05 1 -2.6624614e-06 0
-0.083439656 -0.2882784 0.0039325524 0.0011808015 0.99984556 0.017535755 0.00082468486
-0.074693501 -0.2882784 0.0082496591 2.6667838e-05 1 -5.7448083e-06 0
-0.046360523 -0.2882784 0.0073664752 -4.5717893e-06 1 1.2731848e-06 1.6139849e-05
-0.033378456 -0.28827837 0.0056653651 -1.2570378e-05 1 1.8572944e-06 1.6458531e-05
-0.0059492625 -0.2882784 0.0043311454 1.7473454e-06 1 -3.8795616e-08 0
0.0008383505 -0.2882784 0.0059410241 -4.0562082e-07 1 -9.7795282e-07 0
0.028471569 -0.2882784 0.0060695391 4.0981449e-06 1 -1.5321057e-06 0
0.033647805 -0.2882784 0.0010235924 -0.0049814289 0.99973643 0.022411339 0.0012192549
0.044082865 -0.2882784 0.0013990533 -0.010041405 0.99775016 0.066285998 0.0075732898
0.057117704 -0.2882784 0.001979813 0.010820992 0.99946249 0.030944426 0.0014431903
0.065316513 -0.2882784 0.0046805535 -4.0666975e-05 1 -9.0435532e-07 0
0.076634347 -0.2882784 0.0067697018 -1.8665703e-05 1 -4.4286717e-06 0
0.092672542 -0.2882784 0.0075810058 -1.737652e-05 1 2.372911e-06 0
0.10663838 -0.2882784 0.0058856206 -1.8969622e-05 1 8.2300096e-07 0
0.12878871 -0.2882784 0.0029839948 -0.00020899107 0.99998969 0.0045241909 4.1777108e-05
0.13028663 -0.2882784 0.0035073236 0.00023971041 0.99999112 0.0042164032 4.2904649e-05
0.15067282 -0.2882784 0.0075806212 -4.3247725e-05 1 -5.0898075e-06 0
0.16543549 -0.2882784 0.0049000178 -1.5842563e-05 1 8.6498846e-07 0
0.17775171 -0.2882784 0.0013419185 -0.0037532297 0.99976975 0.02112996 0.00077641918
0.18514585 -0.2882784 0.0055532758 0.0039413343 0.99976927 0.021114305 0.00095359888
0.19642906 -0.2882784 0.003470337 0.010468194 0.99975795 0.019352118 0.00088245951
0.21552575 -0.2882784 0.0039959047 -0.0041010324 0.99987537 0.015244622 0.0008726737
0.22537825 -0.2882784 0.0040257769 -0.0018678225 0.99999195 0.0035551868 2.2094444e-05
0.23673043 -0.2882784 0.0014777519 0.00047284077 0.99999011 0.004429732 6.1301602e-05
0.25554001 -0.2882784 0.0049218223 -7.0660797e-05 1 2.3114987e-07 0
0.26781702 -0.2882784 0.0036476767 -0.1653702 0.98590767 -0.02527486 0.017114809
0.27697504 -0.2882784 0.0057100868 -0.36871597 0.92920452 0.025050176 0.056515086
0.28681549 -0.28528628 0.0086793043 -0.648404 0.7591098 0.057659257 0.068793684
-0.2882784 -0.27515417 0.0026779086 0.85749871 0.51433253 -0.012563422 0.0772186
0.2882784 -0.27834404 0.0070548691 -0.83665937 0.53277999 0.12706901 0.080253348
-0.28827837 -0.26579562 0.0057286755 0.96680439 0.25466028 -0.020913158 0.03419476
-0.2882784 -0.25732845 0.0046241418 0.99891835 0.03846712 0.026121119 0.0022196602
0.2882784 -0.24252933 0.0084383842 -1 3.9637471e-05 5.5678929e-06 0
-0.2882784 -0.23541963 0.005579595 0.99910581 0.0088159591 0.041351944 0.0031318183
0.2882784 -0.22400115 0.0022083905 -0.99862188 0.0020313251 0.052441698 0.0095807398
-0.2882784 -0.21830551 0.0011675525 0.99886703 -0.00066345569 0.0475838 0.0021918018
0.2882784 -0.21678463 0.0040155323 -1 4.2758213e-05 6.6010325e-06 0
-0.2882784 -0.20217749 0.0033931155 0.99840754 -0.015767001 0.054163847 0.0023980553
0.2882784 -0.20494694 0.0086877812 -1 3.5794867e-05 -1.6948943e-06 0
-0.2882784 -0.1943872 0.00514154 0.99850553 -0.020896664 0.050498191 0.0023977268
0.2882784 -0.19389637 0.0033971998 -0.999789 -0.0058633462 0.019687274 0.00088021596
-0.2882784 -0.18236437 0.00025181659 0.99724305 -0.012737482 0.073103033 0.011393027
0.2882784 -0.18708874 0.0059426124 -0.99978882 -0.00094881514 0.0205287 0.00086676178
0.2882784 -0.17736709 0.0059261676 -1 6.7437992e-05 1.0859551e-05 0
0.2882784 -0.15769088 0.0029841554 -0.99984694 0.0040423027 0.017022291 0.00043290283
0.2882784 -0.14427257 0.0035203816 -1 1.6689406e-05 -1.5754127e-06 1.9458535e-05
-0.2882784 -0.13633177 0.0049504805 0.99942356 -0.0067004561 0.033281025 0.0031031838
0.2882784 -0.12166367 0.0088467598 -1 1.8103075e-05 -1.1928341e-06 0
0.2882784 -0.11419149 0.0041614641 -0.99946696 -0.0086754365 0.03147215 0.0016800334
-0.2882784 -0.10416387 0.0056310687 0.99924439 -0.0084969457 0.037927732 0.0031918625
0.2882784 -0.1001868 0.0031379685 -0.99957484 -0.0090984823 0.027702188 0.00091191416
-0.2882784 -0.096111082 0.0056958571 0.99910873 0.0057116793 0.041822523 0.0028605128
0.2882784 -0.09437567 0.0055366815 -1 -1.6360475e-05 1.6620021e-06 1.8038752e-05
-0.2882784 -0.081182629 0.0081010796 0.99928093 -0.0051184255 0.037569314 0.0038555777
-0.2882784 -0.075446211 0.0035885796 0.99791032 0.00068336789 0.064611249 0.0044393246
0.2882784 -0.075278342 0.0089363242 -1 0 0 1.5729107e-05
-0.2882784 -0.056774933 0.00507781 0.99942201 0.0067031248 0.033326712 0.0032599515
-0.2882784 -0.0434082 0.0033189105 0.99863076 -0.0067055947 0.051880714 0.0034140667
0.2882784 -0.044250343 0.0078937393 -1 1.1881963e-05 -3.7491631e-07 0
0.2882784 -0.030151755 0.0063687423 -1 1.5874999e-05 -2.8142317e-06 0
-0.2882784 -0.026621342 0.0079568997 0.99967831 0.0054698838 0.024766631 0.0033341269
0.2882784 -0.023395747 0.0036360871 -0.99999291 -0.00039998448 0.0037398417 2.3819128e-05
-0.2882784 -0.014126058 0.0073934174 0.99958903 0.0014437506 0.028629903 0.0029509696
-0.2882784 -0.0035317331 0.00399483 0.99801397 0.007905704 0.062494889 0.003800252
0.2882784 -0.0023026466 0.0014522756 -0.99998939 0.00033638283 0.0045972182 7.1173105e-05
0.2882784 0.0043781549 0.007738498 -1 -1.0693514e-06 -1.5577216e-07 0
-0.2882784 0.014377316 0.0025112166 0.9963122 -0.0028712959 0.085753918 0.0054870131
0.2882784 0.014369704 0.0035211765 -1 0 0 0
-0.2882784 0.027362177 0.0063841119 0.99939358 -0.011193173 0.032972012 0.0029456541
0.2882784 0.028669253 0.0064649908 -1 4.0739374e-06 3.586527e-07 0
-0.2882784 0.034791693 0.0027676509 0.99911028 -0.0069415737 0.041598406 0.0022508223
-0.2882784 0.044347685 0.0025360093 0.99897426 -0.020845987 0.040197767 0.0018273301
0.2882784 0.041557886 0.0011993032 -0.99904919 0.0011152375 0.043583207 0.0020496047
-0.2882784 0.054852489 0.0026725321 0.99898148 -0.014960879 0.042569209 0.0018230269
0.2882784 0.054535691 0.0064716781 -1 -1.6069871e-05 6.4118058e-07 0
-0.2882784 0.067592815 0.005879506 0.99987012 0.013539968 0.0087357368 0.00063292158
0.2882784 0.06680017 0.0037298268 -1 -8.1658491e-06 -6.1050713e-08 0
-0.2882784 0.087476343 0.0032168471 0.99941039 0.013435719 0.031595908 0.0017713144
-0.2882784 0.097767293 0.0061610825 0.9993484 0.004077571 0.035861954 0.0021747341
0.2882784 0.094963536 0.0053514577 -1 -3.7625745e-05 3.6256838e-06 0
-0.2882784 0.10820979 0.0081418473 0.99963129 -0.0056469324 0.026561297 0.0024697462
0.2882784 0.10656509 0.0025151409 -0.99891168 0.0051593087 0.046355616 0.0078484975
-0.2882784 0.11642189 0.0046661766 0.9996466 -0.017066436 0.020381957 0.0018949663
0.2882784 0.11864821 0.0051091043 -1 -1.8047895e-05 1.1061856e-06 0
0.2882784 0.12049062 0.0040062629 -0.9998157 -0.0042496682 0.018723451 0.00088813459
-0.2882784 0.13061413 0.00026063994 0.99824703 -0.039070033 0.044457998 0.0020636991
-0.2882784 0.14384383 0.0074550742 0.99961364 0.012850335 0.024646806 0.0016860197
0.2882784 0.15701917 0.0063525275 -1 -4.753907e-05 -4.8615266e-06 0
-0.2882784 0.16724499 0.0056693028 0.99939859 0.00016355424 0.034676298 0.0025921012
0.2882784 0.16735306 0.0073374528 -1 -8.0576319e-05 -1.4761103e-05 0
0.2882784 0.17272499 0.0019782865 -0.99962538 0.0018594147 0.027306939 0.0019172501
-0.2882784 0.18225962 0.00720762 0.99945754 -0.0014702734 0.032902308 0.0026110674
0.2882784 0.1828818 0.0072413525 -1 -6.2288818e-05 9.8772134e-06 0
-0.2882784 0.19535592 0.00539356 0.99902916 0.0087530473 0.043174729 0.0025215503
-0.2882784 0.20997444 0.0054839146 0.99931508 -0.0012840861 0.036982842 0.0028893568
0.2882784 0.20342574 0.00085316598 -0.99978268 0.00085499126 0.020829042 0.00089857745
-0.2882784 0.21472509 0.0066735437 0.9991101 -0.0023694248 0.042111009 0.0029069663
0.2882784 0.21322489 0.0094403261 -1 -5.4539836e-05 -2.4004532e-06 0
-0.2882784 0.22997697 0.0034007495 0.99883455 -0.011253904 0.046934765 0.0024542192
0.28827843 0.22578655 0.0066493228 -1 -0.0001692825 3.1217619e-06 0
-0.2882784 0.23533033 0.0065959105 0.9992317 -0.013846861 0.03666573 0.0022242633
0.2882784 0.23450407 0.0081148623 -1 -0.00013360483 -7.8614485e-06 0
-0.2882784 0.24928075 0.0071085365 0.9999069 -0.0056712283 0.01241065 0.00051218813
-0.2882784 0.26547429 0.0073700147 0.98554409 -0.16848272 0.017788976 0.021607546
0.2882784 0.26728213 0.0098276613 -0.97899473 -0.20385306 0.003627812 0.021618849
0.2882784 0.27455235 0.0043129944 -0.93030918 -0.36651778 -0.013764054 0.043306556
-0.28641224 0.28752634 0.0076961429 0.77024305 -0.63749987 0.017879725 0.088298902
-0.27677721 0.2882784 0.0032295093 0.36148453 -0.93047482 0.059545696 0.081854202
-0.26552624 0.2882784 0.005682149 0.13417397 -0.99094868 0.0042523951 0.031903617
-0.25457066 0.2882784 0.0037804642 -0.0019358763 -0.99991977 0.012518208 0.00055667642
-0.24890934 0.2882784 0.0012085792 0.0018418561 -0.99454445 0.10429763 0.012500885
-0.23162144 0.2882784 0.0099343825 6.0534279e-05 -1 -1.7937116e-05 0
-0.21254283 0.2882784 0.0076931585 7.2225492e-05 -1 1.8006922e-06 0
-0.20421016 0.2882784 0.0054971632 0.0018875685 -0.99995357 0.0094434591 0.00016643481
-0.19552493 0.2882784 0.0012585539 0.0018426081 -0.99699295 0.077470228 0.012484686
-0.18218502 0.2882784 0.0026910491 0.00047357962 -0.99982959 0.01845351 0.0002525179
-0.17541273 0.28827843 0.0053652693 5.0853501e-05 -1 1.5589088e-06 0
-0.16248143 0.2882784 0.0074689519 6.8444788e-05 -1 3.127785e-06 0
-0.15630761 0.2882784 0.0064665228 5.0412695e-05 -1 -9.1808744e-07 0
-0.13487861 0.2882784 0.007776849 2.764971e-05 -1 -1.7076688e-06 0
-0.12886575 0.2882784 0.0030057477 0.0069021913 -0.99942476 0.03320438 0.002974971
-0.11246148 0.2882784 0.0011601187 0.0020756396 -0.99962097 0.027449571 0.00090252026
-0.10289578 0.2882784 0.0069523128 1.9967671e-05 -1 8.9914687e-07 0
-0.094119452 0.2882784 0.002886815 0.0057167355 -0.99983406 0.017297579 0.00060978701
-0.073876813 0.2882784 0.00089222752 0.0093464786 -0.9997164 0.021903113 0.0016007154
-0.064833775 0.28827837 0.0047207051 3.3466953e-05 -1 -3.3082617e-06 0
-0.059059165 0.2882784 0.0086915651 -9.9568879e-06 -1 -1.5048927e-06 0
-0.045601606 0.2882784 0.0047764173 4.3213013e-06 -1 -2.0595007e-06 0
-0.035768569 0.2882784 0.00453491 7.18008e-06 -1 -1.0151178e-06 0
-0.016280122 0.2882784 0.003527882 5.1554339e-06 -1 -8.0304517e-07 0
-0.0045338571 0.2882784 0.0057208352 6.3192135e-07 -1 -2.1889628e-07 0
0.0063711256 0.2882784 0.0090566371 -2.965274e-06 -1 -3.3397839e-06 0
0.026738271 0.2882784 0.0049995175 -4.3728242e-06 -1 -1.0926897e-06 0
0.03479851 0.28827837 0.0046680593 -1.6168273e-05 -0.99997902 0.0064727385 6.8571171e-05
0.052207939 0.2882784 0.0079641957 -4.7813414e-06 -1 -1.1265831e-06 0
0.088373639 0.2882784 0.00031653326 0.0080627771 -0.99990535 0.011147138 0.000649183
0.092904717 0.2882784 0.0050928788 -4.959121e-05 -1 4.4880903e-06 0
0.10662451 0.2882784 0.0059856251 -3.3127995e-05 -1 4.0290547e-06 0
0.11170432 0.2882784 0.0080044679 2.8453687e-07 -1 -3.9830725e-06 0
0.12442975 0.2882784 0.0031317421 -2.5353622e-05 -1 4.9900484e-07 0
0.13728821 0.2882784 0.0062077018 -8.8088345e-05 -1 -1.5451642e-05 0
0.14753436 0.2882784 0.0070937527 -3.5505826e-05 -1 -6.2850504e-06 0
0.15582448 0.2882784 0.0016398029 -0.0091497712 -0.99785084 0.064884342 0.0058725178
0.16503875 0.2882784 0.0046396879 0.00023876173 -0.99999791 0.0020081999 0
0.17247233 0.2882784 0.0054513309 -4.7833444e-05 -1 -9.6004715e-06 0
0.18176562 0.2882784 0.0063636238 -4.640278e-05 -1 1.2242677e-06 0
0.19917884 0.2882784 0.0082030473 -1.6842841e-05 -1 -2.8134955e-06 0
0.20359714 0.2882784 0.0032767635 -3.5321176e-05 -1 -3.4621253e-06 0
0.22003563 0.2882784 0.0012000487 -0.0024231875 -0.99749279 0.070726514 0.009180191
0.23440339 0.2882784 0.0099796625 -0.00015559272 -1 -1.4039027e-06 0
0.25063777 0.2882784 0.0042889891 -2.8768927e-05 -1 -3.793549e-06 0
0.26549238 0.2882784 0.0075247213 -0.13351324 -0.99046808 -0.033869959 0.029988468
0.27752289 0.2882784 0.0061840471 -0.37345824 -0.92738718 -0.021953037 0.067740738
0.28240001 0.2882784 0.0050378004 -0.48779118 -0.87213522 -0.037944496 0.067299798
-0.28481054 -0.28559899 0.015581283 0.55848718 0.82942641 0.011994405 0.07355015
-0.27144712 -0.2882784 0.011716943 0.26229295 0.96404737 0.042604446 0.056657497
-0.26572731 -0.2882784 0.013915695 0.12283649 0.99200571 -0.028911171 0.018669471
-0.25305068 -0.2882784 0.011050686 0.00014971136 1 -2.6301092e-05 0
-0.23669547 -0.2882784 0.014561847 6.7550063e-05 1 -1.4635039e-05 0
-0.22003624 -0.2882784 0.0149357 3.2692915e-05 1 -4.9003443e-06 0
-0.20136586 -0.2882784 0.015346085 0.00011069752 1 -9.1119337e-06 0
-0.19821218 -0.2882784 0.012706474 0.00011247255 1 -8.6589234e-06 0
-0.18859819 -0.2882784 0.01129289 5.3007778e-05 1 -1.3634229e-05 0
-0.17622229 -0.2882784 0.016739687 3.6806949e-05 1 -1.9652391e-06 0
-0.1650288 -0.2882784 0.016304739 8.6639411e-05 1 -1.215314e-05 0
-0.14291351 -0.28827837 0.013131723 4.4097858e-05 1 -5.9598119e-06 0
-0.13482241 -0.2882784 0.015280573 7.0997041e-05 1 4.8417019e-06 0
-0.11574686 -0.2882784 0.015636636 2.7840979e-05 1 -6.3597186e-06 0
-0.10493439 -0.2882784 0.010097342 7.3298739e-05 1 2.0917446e-06 0
-0.081227385 -0.2882784 0.018068859 7.7048671e-06 1 -9.1559849e-07 0
-0.077509485 -0.2882784 0.011874143 1.6254366e-05 1 -6.2926952e-06 0
-0.055443861 -0.2882784 0.011285152 1.5403833e-05 1 3.0480899e-06 0
-0.023467351 -0.2882784 0.01102956 2.0138689e-06 1 2.435996e-07 0
-0.0030382946 -0.2882784 0.016017621 -3.3546743e-07 1 2.4246287e-06 1.8699924e-05
0.013448046 -0.2882784 0.014479876 -3.9002457e-06 1 1.3982561e-06 0
0.035309479 -0.2882784 0.014712556 -4.5977235e-06 1 -3.5218196e-07 0
0.047675416 -0.2882784 0.014241021 -1.3057972e-05 1 -4.9721543e-06 0
0.052224047 -0.2882784 0.017385293 -2.2242017e-05 1 -2.5737677e-06 0
0.061586659 -0.2882784 0.018972062 -3.2701762e-05 1 -7.7356781e-06 0
0.073711388 -0.2882784 0.015247885 -9.159101e-06 1 -2.3608106e-06 0
0.0944058 -0.2882784 0.010630383 -1.4838353e-05 1 -1.6927157e-06 0
0.1013506 -0.2882784 0.013517234 -3.5806737e-05 1 -3.7059342e-06 0
0.123678 -0.2882784 0.016619992 -1.9526222e-05 1 5.8985838e-06 0
0.13386278 -0.2882784 0.017061403 -1.5017857e-05 1 -3.7801758e-06 0
0.14074218 -0.2882784 0.010207849 -3.5538225e-05 1 -2.1674161e-06 0
0.15619357 -0.28827837 0.012294412 -3.5435245e-05 1 3.6461913e-06 0
0.16374455 -0.2882784 0.017840611 -4.4490513e-05 1 -5.1717248e-06 0
0.17494032 -0.2882784 0.011812828 -3.4752124e-05 1 1.6760016e-06 0
0.18440215 -0.2882784 0.014872673 -9.6062984e-05 1 -4.2055308e-06 0
0.19648604 -0.2882784 0.019895673 -9.6040996e-05 1 1.0687725e-05 0
0.21510765 -0.2882784 0.012603987 1.6967124e-05 1 -4.1712005e-06 0
0.2288616 -0.2882784 0.011281122 -3.9587496e-05 1 -4.4360095e-06 0
0.23047422 -0.2882784 0.016713107 -0.00010309168 1 -7.2242224e-06 0
0.24759543 -0.2882784 0.015384432 3.5807352e-05 1 3.5702108e-06 0
0.25599024 -0.2882784 0.013364648 -0.011844853 0.99992818 -0.0018302646 0.00043243446
0.26684257 -0.2882784 0.018823855 -0.15262909 0.98827171 0.0048320838 0.020287737
0.27357671 -0.2882784 0.014468957 -0.24526672 0.96927899 -0.018505765 0.046332113
0.28520575 -0.28602025 0.016324291 -0.58737695 0.80908048 0.019418173 0.085284986
-0.2882784 -0.27582946 0.014626628 0.91017783 0.41237471 0.039031457 0.064318702
0.2882784 -0.27980757 0.013265254 -0.83585536 0.54821068 0.02847462 0.085677788
-0.2882784 -0.26354077 0.014638156 0.99208528 0.12372603 0.0214181 0.013234832
0.2882784 -0.26095474 0.01572291 -0.99971855 0.023139801 0.0052399221 0.00083480595
-0.2882784 -0.25567791 0.019676976 0.9992522 0.038480107 0.003799614 0.0027927211
0.2882784 -0.25279388 0.015879789 -1 3.7589893e-05 -3.5805599e-06 0
-0.2912088 -0.2436277 0.015692446 0.99956822 0.01848813 0.022836588 0.0041783042
-0.2890968 -0.24399006 0.015807154 0.99956775 0.018530926 0.022825271 0.0041778306
0.2882784 -0.24468303 0.014577906 -1 -4.8206215e-07 -2.1130313e-06 0
-0.29118463 -0.23944065 0.014590392 0.99954224 0.018919209 0.023605553 0.004604287
-0.28862306 -0.23517689 0.012535283 0.99931425 0.011954624 0.035043754 0.0035698705
0.2882784 -0.23359756 0.015925916 -1 5.794294e-05 4.4929693e-06 0
-0.2882784 -0.22552721 0.017437801 0.99967194 0.017167846 0.019006915 0.0045461976
0.2882784 -0.22038418 0.012850973 -1 3.059419e-05 -6.708861e-07 0
-0.2912088 -0.21721247 0.016542917 0.99922198 -0.0033883555 0.039292622 0.0041714199
-0.2882784 -0.21497758 0.014705442 0.9993425 -0.0023596173 0.03617866 0.0044145836
0.28827837 -0.21498604 0.014099351 -1 1.3350763e-05 -1.0809747e-07 0
-0.2912088 -0.20328933 0.015505185 0.9990294 -0.0099657848 0.0429058 0.0034473895
-0.2912088 -0.19588174 0.01977735 0.99932593 -0.022934387 0.02866523 0.0035619151
-0.2882784 -0.19409879 0.017620355 0.9994697 -0.017137112 0.02768819 0.0034362527
0.2882784 -0.1973265 0.010888325 -1 3.529905e-05 -2.6258419e-06 0
-0.28837419 -0.17482375 0.015583828 0.99967706 -0.0023008115 0.025307465 0.0038421853
0.2882784 -0.17709163 0.013394005 -1 3.5588037e-05 -9.7932855e-07 0
-0.2912088 -0.16492163 0.018649347 0.9993909 0.026879538 0.022254895 0.0036812243
-0.2882784 -0.16914731 0.017601615 0.99965888 0.014939185 0.021423923 0.0036482641
0.2882784 -0.16621168 0.014720487 -1 2.9165914e-05 -9.8896237e-07 1.5813295e-05
-0.2912088 -0.15419698 0.016636459 0.99969351 0.012231796 0.021524254 0.0047969678
-0.2882784 -0.15405357 0.017034223 0.99969351 0.012231685 0.021521598 0.0047970121
-0.2912088 -0.14167564 0.014590318 0.99968016 -0.0069311042 0.024323059 0.0059646927
-0.2882784 -0.14131311 0.015055837 0.9996801 -0.006930809 0.024323018 0.0059646266
-0.2912088 -0.13596606 0.014755934 0.99946547 -0.012974628 0.030009108 0.0065156794
-0.28831655 -0.13425228 0.013474169 0.99924862 -0.014974209 0.035749916 0.0054836199
0.2882784 -0.13765824 0.014752591 -1 -0 -0 1.6973747e-05
-0.2912088 -0.12674476 0.013474341 0.9999727 0.0040351017 0.0061814319 0.0050634393
-0.2882784 -0.12121191 0.014152145 0.99986356 -0.010898001 0.01241181 0.0040125041
0.2882784 -0.12087812 0.011673196 -1 1.6549133e-05 -2.094579e-06 0
0.2882784 -0.11403969 0.019931281 -1 2.7831183e-07 -2.0277287e-06 0
-0.29095474 -0.10204759 0.012900954 0.99991626 -0.0069836653 0.010899232 0.0046298862
-0.29104504 -0.098801233 0.012900954 0.99997222 -0.003229579 0.0067129536 0.0040575354
-0.2882784 -0.09423402 0.018599547 0.99965656 0.019356553 0.017669497 0.0046399385
0.2882784 -0.099521793 0.014249996 -1 9.4410843e-06 -5.658479e-06 0
-0.2912088 -0.086007595 0.018965259 0.99992543 0.0048064003 0.011225637 0.005109516
0.2882784 -0.089260608 0.01994957 -1 1.0924993e-05 -7.5682096e-06 0
-0.2912088 -0.070677325 0.014950734 0.99914455 -0.0027801036 0.041259851 0.0036403218
-0.2882784 -0.079442687 0.017263772 0.99981415 0.0025274823 0.01910954 0.0047519505
0.2882784 -0.075098664 0.013292345 -1 -9.7672009e-06 1.0688648e-05 5.5851604e-05
-0.28828922 -0.063615128 0.016639588 0.99895543 0.0030619502 0.045591217 0.0043445318
-0.2912088 -0.052073337 0.017134422 0.99915582 -0.00040846615 0.041079804 0.004051358
-0.2882784 -0.055139672 0.014245441 0.99907792 7.3435745e-05 0.042933024 0.0032942332
0.2882784 -0.052328497 0.013708563 -1 -8.6574644e-08 -9.7704435e-07 0
-0.28854614 -0.044778585 0.013752964 0.99929267 -0.012111963 0.035601813 0.0050268448
-0.2912088 -0.033813044 0.016993433 0.99960673 -0.003646614 0.027804222 0.0039481036
-0.2882784 -0.036396347 0.016030351 0.99965245 0.001032825 0.026341921 0.0042552818
0.2882784 -0.034466013 0.014604167 -1 5.51629e-06 -5.8893343e-06 0
-0.2912088 -0.023252435 0.019640315 0.99995452 -0.0011501382 0.0094662569 0.0040164725
-0.28827837 -0.025397824 0.016716683 0.99975979 0.0061077722 0.021048103 0.0043967795
0.2882784 -0.027404368 0.013666244 -1 1.0052539e-05 -2.3523726e-06 0
-0.2912088 -0.0191337 0.013648117 0.99953038 0.0055208779 0.030142346 0.0041965847
-0.2882784 -0.016544411 0.015262651 0.99965107 -0.006824757 0.025518211 0.0037901739
0.2882784 -0.012713152 0.014801408 -1 3.0352066e-06 -2.2508707e-06 0
-0.29096329 -0.00012692182 0.017854962 0.99972582 0.0040278984 0.023069128 0.0041558892
-0.2882784 -0.0043007531 0.01583338 0.99992043 0.0024180475 0.012377876 0.0045085498
-0.2882784 0.00463168 0.017268026 0.99965101 -0.0079315798 0.025196036 0.0045312047
-0.2912088 0.016409401 0.01518112 0.99948496 0.0038417345 0.031859718 0.0038617759
-0.28859544 0.013141778 0.014415301 0.99932975 0.0063379575 0.036054231 0.0029093951
-0.2912088 0.023673659 0.015924662 0.99960709 -0.010596155 0.025949894 0.0039310898
-0.28882819 0.025120875 0.014074251 0.9993515 -0.018744962 0.030745199 0.0039426186
-0.2912088 0.038168419 0.019906383 0.99969155 -0.015897853 0.019079885 0.0037979791
-0.2888301 0.030531678 0.015025455 0.99953353 -0.013860492 0.027212702 0.0039908621
-0.2882784 0.042026587 0.017450793 0.99945515 -0.019784631 0.026417455 0.0036697187
-0.2882784 0.05458552 0.01643038 0.99923229 -0.02140435 0.032813706 0.0025901587
-0.28885356 0.063104808 0.01683685 0.99961346 -0.010756448 0.025634835 0.0026304796
0.2882784 0.060863566 0.016780335 -1 -9.6110207e-06 -1.55931e-06 0
-0.28852668 0.074570246 0.014949526 0.99959779 0.021197217 0.018840889 0.0018472954
0.2882784 0.07299073 0.012805194 -0.99991649 0.0015843266 0.012825354 0.00052667531
-0.28827837 0.08299873 0.01551271 0.99905127 0.030276617 0.031302903 0.0020913451
0.2882784 0.086223587 0.016458575 -0.9999603 -0.0020882832 0.0086600585 0.00046928073
-0.2912088 0.092254236 0.017553098 0.99940228 0.013725132 0.031730078 0.0035930213
-0.2882784 0.090386599 0.014450795 0.99933231 0.010819054 0.034897532 0.0029068831
0.2882784 0.099743061 0.019654777 -0.99996859 -0.0050049056 0.0061576939 0.0004489753
-0.2912088 0.10818506 0.014578182 0.99975479 -0.0069286521 0.021033002 0.0037861061
-0.2882784 0.10521998 0.013316194 0.99962765 -0.0031333948 0.027106423 0.0035571458
0.2882784 0.10127038 0.019277597 -0.99994588 -0.0068576001 0.0078229969 0.00052485382
-0.2912088 0.11022682 0.019538734 0.99954009 -0.016112737 0.025691859 0.0034275195
-0.28894547 0.11588015 0.01448987 0.9994545 -0.024184132 0.022493394 0.0026058068
0.2882784 0.11660177 0.017398626 -1 -3.8899216e-05 -1.0102064e-05 0
-0.2882784 0.12424969 0.013648004 0.99973434 -0.019717773 0.011930862 0.0018350043
0.2882784 0.12210461 0.01592641 -1 -1.2598839e-07 -3.8588014e-06 0
0.2882784 0.13620107 0.015466655 -1 1.9670744e-05 5.6764701e-08 1.981961e-05
-0.2882784 0.14634994 0.013702047 0.99954689 0.022706741 0.019756433 0.002134922
0.2882784 0.14700837 0.01435522 -1 -3.6029393e-05 -1.3750379e-06 0
-0.2882784 0.15995787 0.013063453 0.99901587 0.016059136 0.041344378 0.004049222
0.28827837 0.15209526 0.017394686 -1 -7.4964562e-05 -1.6085109e-05 0
-0.2912088 0.16558434 0.019519813 0.99949503 0.0023288357 0.031690605 0.0038528303
-0.2882784 0.16646519 0.012334115 0.99937111 -0.00083104038 0.035450332 0.0026181208
0.2882784 0.16825846 0.014538568 -1 -2.5663956e-05 -5.8788237e-06 0
-0.29068258 0.17011131 0.015381723 0.99950045 0.0048913062 0.031224877 0.0038463932
-0.2882784 0.17305744 0.015408406 0.99950773 0.0044375244 0.031057036 0.0035431373
0.2882784 0.17134625 0.010878641 -1 -3.1311007e-05 -2.3166544e-06 0
0.2882784 0.18139353 0.017946739 -1 -4.9115926e-05 -2.0794796e-06 0
-0.2912088 0.19947931 0.014013322 0.99960583 0.0019061269 0.028008293 0.0038535672
-0.28827837 0.1938957 0.015248424 0.9994694 -0.0021256004 0.032502815 0.0031246333
-0.2882784 0.20825116 0.01527752 0.99971819 0.0015715209 0.023688154 0.0037510903
0.2882784 0.20756996 0.019404538 -1 -4.4898214e-05 -4.8357861e-06 0
-0.2912088 0.21236807 0.018938458 0.99972379 -0.0027664991 0.023336841 0.0045940923
-0.2882784 0.21011063 0.018677779 0.99970257 -0.0020555521 0.024303263 0.0041596014
0.2882784 0.21505086 0.012634818 -1 3.277309e-07 -2.1593112e-06 0
-0.2912088 0.22009401 0.016066864 0.99982578 -0.0041888785 0.018187897 0.0039406
-0.2882784 0.22177958 0.016612818 0.99969536 -0.0074816057 0.023519926 0.0033951739
0.2882784 0.22490214 0.016873943 -1 -8.2188424e-05 4.6072655e-06 0
-0.2882784 0.23566569 0.01639419 0.99941707 -0.023315085 0.024938717 0.0034257632
0.2882784 0.23906392 0.018519249 -1 -3.4429654e-08 -8.6494219e-06 0
-0.2882784 0.24759832 0.016244952 0.99914831 -0.034462355 0.022695391 0.0019488522
0.2882784 0.24478747 0.018313451 -1 -0.00010029014 1.1571676e-06 0
-0.2882784 0.25391012 0.014699914 0.99976104 -0.016275665 0.014590365 0.00087441591
0.2882784 0.25052834 0.012754332 -1 -9.6423646e-05 9.2392094e-07 0
-0.2882784 0.26705921 0.017574066 0.97670776 -0.21421622 -0.012382775 0.028661551
-0.2882784 0.2729457 0.016187243 0.92177373 -0.38760898 -0.0096123517 0.070674583
0.2882784 0.27198023 0.016065463 -0.94706589 -0.32069278 0.014906946 0.058581509
-0.28683108 0.28638238 0.016685726 0.74917585 -0.65652359 -0.087819256 0.079188205
-0.27431792 0.2882784 0.016029432 0.3184624 -0.94763058 0.024040813 0.073058456
-0.26485431 0.2882784 0.01556268 0.085710406 -0.99630034 -0.0062749526 0.019542137
-0.2518307 0.2882784 0.019493159 3.1143318e-05 -1 -8.388326e-06 0
-0.24440879 0.28827837 0.015765697 3.1185522e-05 -1 -3.9572124e-06 0
-0.23374516 0.2882784 0.01760306 6.3544358e-05 -1 -4.1259659e-06 0
-0.22717275 0.2882784 0.013456854 5.5162949e-05 -1 -7.1929794e-06 0
-0.21448626 0.2882784 0.016010726 3.1381751e-05 -1 -4.141099e-06 0
-0.20761335 0.2882784 0.013936206 7.5668751e-05 -1 4.6756008e-06 0
-0.1960313 0.2882784 0.017815843 1.9294814e-05 -1 -3.9264637e-06 0
-0.18762675 0.2882784 0.016246829 1.4976498e-05 -1 -7.3607207e-06 0
-0.17518182 0.28827843 0.011105198 3.1797852e-05 -1 4.5010406e-06 0
-0.16136223 0.2882784 0.015528224 8.7686552e-05 -1 -2.1960732e-05 0
-0.15605099 0.2882784 0.018848825 6.0640959e-05 -1 -1.5775124e-05 0
-0.14466779 0.2882784 0.01469111 6.917688e-05 -1 -1.3926014e-05 0
-0.13563235 0.2882784 0.01514833 6.4752967e-05 -1 5.5941723e-06 0
-0.11634238 0.2882784 0.016889179 -2.7751568e-07 -1 -3.1921709e-06 0
-0.098698847 0.2882784 0.018376825 0 -1 0 0
-0.088281721 0.2882784 0.013657767 1.4574245e-05 -1 -2.7666138e-06 0
-0.065050632 0.2882784 0.011626208 -5.6682603e-07 -1 -5.2022065e-06 0
-0.058480281 0.2882784 0.013173316 9.284845e-06 -1 -3.8632975e-06 0
-0.043759119 0.2882784 0.015942028 2.3979857e-05 -1 4.3530808e-06 0
-0.03640648 0.2882784 0.014792338 8.0659802e-06 -1 -2.4223039e-07 0
-0.023626916 0.2882784 0.015942 0 -1 0 0
-0.014670596 0.2882784 0.013366958 2.1441533e-06 -1 -1.5765243e-08 0
-0.005523026 0.2882784 0.012932735 7.2963059e-07 -1 -4.4151689e-06 0
0.004937619 0.2882784 0.015440494 5.6717958e-08 -1 -6.714959e-06 0
0.019310325 0.2882784 0.018346662 -2.5919485e-07 -1 -2.0381738e-06 0
0.02389575 0.2882784 0.014814779 -7.2155044e-06 -1 -7.1276963e-06 0
0.031140327 0.2882784 0.013140868 -1.6357255e-05 -1 -4.6785367e-06 0
0.049967416 0.2882784 0.017273914 -9.1294951e-06 -1 -3.0259105e-06 0
0.057398278 0.2882784 0.014750429 -2.3731702e-05 -1 -3.1851177e-06 0
0.063974328 0.2882784 0.018724293 -2.0810518e-05 -1 -3.6287763e-06 0
0.089968026 0.2882784 0.016481116 -5.1485255e-05 -1 -8.9201103e-06 0
0.096464165 0.2882784 0.014955513 -6.988446e-05 -1 -2.9937976e-06 0
0.10217668 0.2882784 0.015295856 -4.2111944e-05 -1 -6.2884619e-06 0
0.1147982 0.2882784 0.014680752 -2.9642393e-05 -1 -8.2565939e-06 0
0.12831569 0.2882784 0.011177162 -8.9288515e-05 -1 -1.9818262e-05 0
0.13345861 0.2882784 0.013241068 -4.1120071e-05 -1 -7.8791809e-06 0
0.14204788 0.2882784 0.010498481 3.2564645e-07 -1 -3.7167063e-06 0
0.15222281 0.2882784 0.012550009 -7.4156196e-05 -1 9.9848194e-06 0
0.16638568 0.2882784 0.01316112 -3.3726086e-05 -1 -2.1101007e-06 0
0.17586549 0.2882784 0.015461037 -1.6326698e-05 -1 -6.5567137e-06 0
0.18142733 0.2882784 0.016104247 -3.3641343e-05 -1 -9.0392004e-06 0
0.19049829 0.2882784 0.017210199 -4.9729108e-05 -1 6.6807854e-07 0
0.20309666 0.2882784 0.014693033 -6.4009124e-05 -1 1.8672636e-06 0
0.2129975 0.2882784 0.019112062 -3.9643179e-05 -1 9.2308283e-06 0
0.22478727 0.2882784 0.016158644 -7.1595445e-05 -1 -2.0232712e-06 0
0.23309192 0.2882784 0.018945221 -8.1585575e-05 -1 -1.3821894e-05 0
0.24228954 0.2882784 0.017305838 -7.4800831e-05 -1 -6.1877754e-06 0
0.25496939 0.2882784 0.014676686 -0.0077131721 -0.99997032 -0.00010017621 0.00019105064
0.27491182 0.2882784 0.016385939 -0.37553912 -0.92668951 0.0147344 0.057570316
0.28312969 0.28660864 0.014328063 -0.59389967 -0.79561216 -0.11951771 0.082320973
-0.28595069 -0.28643569 0.027642971 0.61808044 0.78591037 0.017926518 0.070214108
-0.26423743 -0.2882784 0.027000682 0.13552132 0.99077058 -0.0027720362 0.016942726
-0.25536063 -0.2882784 0.022592073 4.6108653e-05 1 -8.7047356e-06 0
-0.24118631 -0.2882784 0.02843602 -0 1 -0 0
-0.23319429 -0.2882784 0.025307996 6.6466164e-05 1 -1.4659629e-05 0
-0.22659071 -0.2882784 0.025614034 9.1577785e-05 1 -2.4274873e-06 0
-0.20530964 -0.2882784 0.025569214 1.6505368e-05 1 -8.7054632e-06 0
-0.19432211 -0.2882784 0.02480861 3.7537971e-05 1 -8.9044288e-06 0
-0.18121718 -0.2882784 0.025302785 3.2396179e-05 1 -1.8952693e-05 0
-0.17312938 -0.2882784 0.028941579 9.04767e-05 1 -3.2989235e-05 0
-0.16208787 -0.2882784 0.023585312 3.7003312e-05 1 -6.8901977e-07 0
-0.15543872 -0.2882784 0.028661912 3.0897321e-05 1 -1.4643677e-05 0
-0.14338686 -0.2882784 0.022070613 -1.9674922e-05 1 -5.0630138e-06 0
-0.1241792 -0.2882784 0.025100142 6.8442729e-05 1 -2.1491603e-06 0
-0.11257169 -0.2882784 0.029489467 -0 1 -0 0
-0.10315309 -0.2882784 0.025649309 1.9438161e-05 1 -3.0769663e-06 0
-0.096202567 -0.2882784 0.021877576 1.6192431e-05 1 -9.9639319e-06 0
-0.087231725 -0.2882784 0.02436034 5.8401103e-05 1 -1.261486e-05 0
-0.066147029 -0.2882784 0.025853302 1.8113662e-05 1 -1.5231107e-06 0
-0.053261336 -0.2882784 0.023924192 1.854364e-05 1 -8.8605148e-06 0
-0.041375458 -0.2882784 0.020846199 1.3229656e-05 1 -1.691665e-06 0
-0.03598557 -0.2882784 0.021896422 -6.6004413e-06 1 1.6367032e-06 1.9253124e-05
-0.020574711 -0.2882784 0.029975906 -2.1927867e-06 1 -1.2060973e-05 0
-0.017981373 -0.2882784 0.024118785 5.1599163e-06 1 4.1282474e-06 0
-0.00090973079 -0.2882784 0.026839938 -7.2125158e-07 1 4.3281971e-06 1.8270628e-05
0.01817162 -0.2882784 0.024946898 -1.5741837e-06 1 -3.8704857e-06 0
0.026808746 -0.2882784 0.02533523 -7.3278206e-06 1 -7.9412384e-06 0
0.035633065 -0.2882784 0.024572527 -8.7729986e-06 1 -4.5618613e-06 0
0.064259887 -0.2882784 0.022236399 -1.6557142e-05 1 -3.9585898e-06 0
0.076409295 -0.2882784 0.026867503 -2.4426701e-05 1 -1.7399016e-05 0
0.080857947 -0.2882784 0.02613795 -1.8869472e-05 1 -1.3938615e-05 0
0.093661904 -0.2882784 0.025735652 1.653963e-07 1 -1.2308435e-05 0
0.10814075 -0.2882784 0.026087068 7.011094e-07 1 -5.0750182e-06 0
0.11552398 -0.2882784 0.022375116 -3.4887729e-05 1 4.0702762e-06 0
0.12243558 -0.2882784 0.02446647 -4.0930961e-05 1 -4.5754487e-07 0
0.13475943 -0.2882784 0.024840377 -3.3842156e-05 1 -8.6785485e-06 0
0.15519741 -0.2882784 0.022567801 -3.4705907e-05 1 -7.2224236e-07 0
0.1788792 -0.2882784 0.025956145 -3.5458648e-05 1 -3.2181524e-06 0
0.19299877 -0.2882784 0.026355676 -1.6602258e-05 1 -2.5865977e-06 0
0.20424891 -0.2882784 0.020039123 -6.0633458e-05 1 1.4608473e-06 0
0.21934915 -0.2882784 0.028882118 -3.3523214e-05 1 -6.4007208e-06 0
0.22556555 -0.2882784 0.022175072 -7.8857338e-05 1 -1.2497712e-05 0
0.2391444 -0.2882784 0.028528787 -5.825167e-05 1 2.2770319e-06 0
0.24104182 -0.2882784 0.021712298 -0.00012395922 1 -1.9757648e-05 0
0.25551739 -0.2882784 0.026852107 4.0135441e-05 1 -8.0248356e-06 0
0.2674683 -0.2882784 0.024845835 -0.15103848 0.98851645 0.004755808 0.018523227
0.27672639 -0.2882784 0.023646763 -0.33412451 0.9408685 -0.055922672 0.057059042
0.28666157 -0.2882784 0.028109247 -0.7230556 0.69006813 -0.031570267 0.076311082
0.2882784 -0.27566594 0.020348588 -0.90979058 0.40625557 -0.085073151 0.070931204
0.2882784 -0.26670402 0.020172926 -0.98505282 0.16779429 0.038936276 0.027618216
-0.2882784 -0.25113535 0.027029164 0.99950069 0.030444175 -0.0084590083 0.0029340114
0.2882784 -0.25127083 0.028825983 -1 4.4583336e-05 5.114533e-06 0
-0.2912088 -0.24420373 0.024353826 0.99937069 0.035471674 0.00013340767 0.0039162189
-0.2882784 -0.24402958 0.02313821 0.99937886 0.035238206 0.0003594294 0.0042119613
0.2882784 -0.24449429 0.023768904 -1 5.688702e-05 2.7556847e-05 0
-0.2912088 -0.2369273 0.026134212 0.99953359 0.03047335 -0.0019921463 0.0044340659
-0.2882784 -0.23176058 0.021353656 0.99980867 0.01715889 0.0093903849 0.005464402
0.2882784 -0.23408002 0.022974398 -1 3.6469279e-05 8.9040468e-06 0
-0.2912088 -0.22972053 0.028481383 0.99963236 0.026160901 -0.0071324883 0.0045270887
-0.2882784 -0.22702545 0.023595251 0.9996196 0.024195483 0.013232402 0.0050711841
-0.2912088 -0.21525677 0.023744738 0.99959248 -0.0010664054 0.028526062 0.0042252243
-0.2882784 -0.21652369 0.024738472 0.99967819 0.0011741135 0.025338067 0.0043458426
0.2882784 -0.21415283 0.021364445 -1 2.0269355e-05 -5.7511174e-06 0
-0.2912088 -0.2085387 0.027762102 0.99979639 -0.0049194302 0.019568816 0.0045059486
-0.2912088 -0.19907485 0.027443713 0.99975884 -0.010240108 0.019423941 0.0045499508
-0.2882784 -0.19486499 0.024684859 0.99936616 -0.028745798 0.02099934 0.0038308289
0.2882784 -0.1947726 0.026242398 -0.99989796 0.0013460842 0.014219572 0.00059124135
-0.2882784 -0.18458167 0.026656982 0.99964052 -0.020527292 0.017248724 0.0041696294
-0.2912088 -0.17765784 0.029766362 0.9998734 -0.0079891421 0.013757665 0.004859508
-0.2882784 -0.17566003 0.026685502 0.99991792 -0.0043326728 0.012056406 0.0046078456
0.2882784 -0.17017505 0.020926286 -1 -1.6806045e-05 -1.5147936e-06 0
-0.2882784 -0.16638795 0.024378533 0.99980164 0.011380979 0.016345574 0.0040013348
-0.2912088 -0.15864095 0.029386947 0.99977028 0.018942969 0.010030826 0.0047426648
-0.2882784 -0.15535618 0.023477519 0.9994939 0.017830821 0.026341828 0.0042198268
-0.2912088 -0.14888656 0.020989876 0.99976736 0.012129468 0.017837448 0.0048475731
-0.2882784 -0.14375368 0.023370754 0.99991184 -0.009189859 0.0095787738 0.0056507005
0.2882784 -0.14402784 0.025835091 -0.99967515 0.0036577361 0.025223264 0.0013761783
-0.2912088 -0.13532539 0.02151251 0.99977666 -0.019471174 0.0082129799 0.0062015015
-0.2882784 -0.13618167 0.025430311 0.99964988 -0.023192251 0.012736296 0.0054518264
-0.2882784 -0.12219719 0.023131486 0.99997109 -0.0074883359 -0.0013131057 0.0046100938
-0.2912088 -0.11237048 0.029617246 0.99999267 0.0011178367 0.0036644742 0.0044176229
-0.2882784 -0.11655483 0.024184758 0.99999988 -0.00018498705 -0.00018094694 0.0043541957
0.2882784 -0.11904615 0.027402416 -0.99958253 -0.0012016559 0.028865758 0.0011168527
-0.2912088 -0.10262246 0.025738345 0.99983174 -0.0028254087 0.018121921 0.004781825
-0.2882784 -0.10324961 0.023643916 0.99989808 -0.010869864 0.0092628403 0.004811523
-0.2882784 -0.095556326 0.024308333 0.9996751 0.011636192 0.022675697 0.0046435082
-0.2912088 -0.088937953 0.024135895 0.99999356 0.003506518 0.00079048681 0.0048657325
-0.2882784 -0.085751072 0.024385836 0.99997056 0.0010789715 0.0075950082 0.0050561703
0.2882784 -0.085449927 0.026148761 -0.99999273 -0.001910475 0.0032990449 2.756132e-05
-0.2882784 -0.075620346 0.021658925 0.99998242 0.0027069426 0.0052820509 0.0045762695
-0.2912088 -0.067149021 0.020526879 0.99958271 0.0079951528 0.027755994 0.0041860081
-0.2882784 -0.063378148 0.026585134 0.99995297 0.0013585899 0.009602027 0.0043851063
0.28827837 -0.064974822 0.027047945 -0.99993664 0.0027016827 0.010929593 0.00044302782
-0.2912088 -0.058192749 0.021290734 0.99947041 0.0058622551 0.032007683 0.004606836
-0.2882784 -0.056529116 0.025526233 0.99994862 0.0073502962 0.0069845296 0.0042978087
0.2882784 -0.050563037 0.027904827 -0.99990803 0.00081470329 0.013534994 0.00046478427
-0.2882784 -0.046739694 0.02449869 0.99989039 -0.0013089408 0.014748368 0.0047056745
0.2882784 -0.043324839 0.026963966 -0.99987596 -0.0024059936 0.015564845 0.00052940595
-0.2912088 -0.038218163 0.026296534 0.99980736 -0.0084659597 0.017706592 0.0045609474
-0.2882784 -0.033996392 0.023365026 0.99977082 -0.007091118 0.020201441 0.0046831006
0.2882784 -0.037611537 0.025149485 -0.99999106 -0.00026114605 0.0042177946 2.6304875e-05
-0.2912088 -0.024903432 0.022921972 0.99993891 -0.0055606966 0.0095541729 0.0047609662
-0.2882784 -0.025539085 0.021126155 0.99993891 -0.0055653402 0.0095533645 0.0047609024
0.2882784 -0.024472535 0.027358275 -0.9998951 0.0022899876 0.014300205 0.00071757473
-0.2910479 -0.01331533 0.021492431 0.99991065 -0.011199912 0.0072917808 0.0051461472
-0.28858837 -0.0119819 0.02529081 0.99999952 -0.00072086463 0.00063845736 0.0045687375
0.2882784 -0.016800195 0.025406839 -0.99992299 0.002077851 0.012236676 0.00063739228
-0.29089478 -0.00012692182 0.021000102 0.99993902 0.0074204407 0.0081822416 0.0041101356
-0.2882784 -0.0063740239 0.027457612 0.99995685 0.0084896348 -0.0037768027 0.0045190421
0.2882784 -0.0082729757 0.02881629 -0.99965638 0.0057256566 0.025582507 0.0012187521
-0.2912088 0.0058503016 0.024204165 0.9999103 0.0050293324 0.012411185 0.004442947
-0.28827837 0.0056114499 0.025416613 0.99995703 0.0022521713 0.0090003544 0.004354401
0.2882784 0.0048898659 0.024787044 -0.99994385 -0.0030679435 0.010140004 0.00045548959
-0.2912088 0.017292265 0.027351413 0.99997205 0.0044289781 0.0060178083 0.0048246607
-0.2882784 0.014336023 0.024369322 0.99975163 0.005030219 0.021710055 0.0044380976
-0.2882784 0.024450591 0.027686454 0.99978626 -0.015136917 0.014086477 0.0050468971
0.2882784 0.025010005 0.026929952 -0.99941856 0.0012959336 0.034070708 0.0017758749
-0.2912088 0.035393815 0.024708072 0.99974358 -0.017475631 0.014400158 0.0038594236
