# .PCD v0.7 - Point Cloud Data file format
VERSION 0.7
FIELDS x y z normal_x normal_y normal_z curvature
SIZE 4 4 4 4 4 4 4
TYPE F F F F F F F
COUNT 1 1 1 1 1 1 1
WIDTH 650
HEIGHT 1
VIEWPOINT 0 0 0 1 0 0 0
POINTS 650
DATA ascii
0.15909092 -0.046020031 0.30474409 -1 1.1387991e-05 -6.3875588e-05 0
0.15909092 -0.03141278 0.30200815 -1 6.7924657e-06 -4.866601e-05 0
-0.15909092 -0.02472866 0.30476004 1 -9.8116971e-06 -9.1594033e-05 0
0.15909092 -0.023374243 0.30516198 -1 5.8074825e-06 -0.00010581303 0
-0.15909094 -0.016131543 0.30290416 1 -2.3418459e-06 -6.4233282e-05 0
0.15909092 -0.013805635 0.30801806 -1 -2.1173269e-06 -5.1142546e-05 0
-0.15909092 -0.0055012493 0.30675232 1 2.6230407e-06 -3.4265922e-05 0
0.15909092 -0.0037363246 0.30892903 -1 1.6977643e-06 -1.6239594e-05 0
-0.15909092 0.0012723552 0.30199766 1 3.9054821e-06 -7.4305048e-05 0
0.15909091 0.0022045374 0.30723217 -1 1.5776797e-05 -5.8414338e-05 0
-0.15909092 0.017100187 0.30497655 1 -2.4210863e-08 1.9091973e-05 0
0.15909094 0.018710963 0.30743849 -1 -1.0445656e-06 -9.0103327e-05 0
-0.15909092 0.02526851 0.30444098 1 -3.2364135e-06 -8.6050379e-05 0
0.15909092 0.022885926 0.3041746 -1 -1.1105321e-05 -0.00012474501 0
-0.15909092 0.033091929 0.30667728 1 -7.1757299e-06 -1.7419259e-05 0
0.15909092 0.034497827 0.30382293 -1 -5.1607935e-06 -4.340908e-05 0
-0.15909091 0.043548577 0.30312306 1 -2.5570735e-06 1.6568531e-05 0
0.15909092 0.044930644 0.3048082 -1 -1.3010947e-05 -8.7166969e-05 0
-0.15909092 0.050942123 0.3030847 1 -0 -0 0
0.15909092 0.05806547 0.30142936 -1 -1.0436336e-06 -7.7070799e-05 0
-0.15909092 0.064736784 0.30456698 1 -9.7466163e-06 1.7022625e-05 0
0.15909094 0.065771595 0.30440706 -1 -1.3367356e-06 -3.1702915e-05 0
-0.15909092 0.074806876 0.30864426 1 -1.1016775e-05 -6.0104463e-05 0
0.15909091 0.074095279 0.30128863 -1 -1.8340881e-05 -3.2613334e-05 0
-0.15909094 0.083443351 0.30620357 1 -2.7730477e-05 -5.3276366e-05 0
0.15909092 0.083442338 0.30373853 -1 -1.9296698e-05 -1.7452652e-05 0
0.15909092 0.097860739 0.30423403 -1 4.9483215e-06 -1.1591077e-07 0
-0.15909092 0.10563595 0.3046715 1 -1.6814547e-05 -1.8946177e-05 0
0.15909092 0.10496317 0.30718464 -1 -1.3844986e-05 -4.8620699e-05 0
-0.15909092 0.11526676 0.3045055 1 -2.1786529e-05 -3.5064564e-05 0
0.15909092 0.11571855 0.30314508 -1 -1.3648313e-05 -3.3787008e-05 0
-0.15909092 0.12583472 0.3049992 0.99996626 -0.0082053021 8.6161032e-05 0.00013329249
-0.15909092 0.13500626 0.30590177 0.99672425 -0.079999395 0.011869185 0.010405871
0.15909092 0.13692665 0.30510607 -0.99512738 -0.096618086 -0.019659128 0.011413053
-0.15909092 0.14318669 0.30334663 0.94594097 -0.32355204 -0.022580529 0.060274895
0.15909092 0.14560866 0.30353037 -0.90791005 -0.41520342 -0.057493053 0.065602258
-0.15762988 0.15528241 0.30585259 0.80168498 -0.59610909 -0.044216517 0.073304363
-0.14608064 0.15986073 0.30137077 0.32421103 -0.94588017 0.01406562 0.054989967
-0.1350172 0.15986072 0.30398226 0.13956164 -0.99019551 0.0059378026 0.018737467
-0.1163028 0.15986072 0.30120203 -2.2078502e-05 -1 6.1917504e-05 3.7716989e-05
-0.10314 0.15986073 0.30334315 -2.8890878e-05 -1 8.6320608e-05 4.2171723e-05
-0.09386377 0.15986073 0.30611399 -4.4092038e-05 -1 6.3093881e-05 4.5357272e-05
-0.08418981 0.15986073 0.30369169 -1.7831875e-05 -1 0.00010974569 4.1114807e-05
-0.072805904 0.15986073 0.30622071 -1.5995323e-05 -1 3.3505767e-05 3.3572887e-05
-0.066397302 0.15986073 0.30566251 -1.9994013e-05 -1 8.4004132e-05 3.9807299e-05
-0.044788118 0.15986073 0.30622512 -2.2150392e-05 -1 9.4038696e-05 3.9267823e-05
-0.03487112 0.15986073 0.30622315 -9.491232e-06 -1 7.2836425e-05 4.0224444e-05
-0.026119687 0.15986073 0.30434528 -9.7473448e-06 -1 9.1966387e-05 3.8199643e-05
-0.011837313 0.15986073 0.30511534 -6.9588003e-07 -1 9.9225625e-05 3.5673773e-05
-0.0087696221 0.15986073 0.30644026 -2.1615151e-06 -1 0.0001036584 4.2490094e-05
0.0051116957 0.15986073 0.3044683 -6.7413694e-06 -1 0.00013054651 4.3290602e-05
0.014261477 0.15986073 0.30458561 7.6846754e-06 -1 6.3758787e-05 4.4347158e-05
0.023307128 0.15986073 0.30626699 4.0225086e-06 -1 9.732855e-05 3.7452737e-05
0.033439554 0.15986073 0.30364615 1.2544194e-05 -1 6.9861373e-05 4.1348667e-05
0.044253118 0.15986073 0.30645961 5.7644875e-06 -1 0.00010196661 4.7835885e-05
0.056463081 0.15986073 0.30752262 2.2382254e-05 -1 0.00011109504 4.3847685e-05
0.066703305 0.15986073 0.30627581 1.3168637e-05 -1 8.9183697e-05 4.1625426e-05
0.092859991 0.15986073 0.30598226 6.4977203e-06 -1 8.5916865e-05 3.6716177e-05
0.10468962 0.15986073 0.30704734 5.2479743e-05 -1 0.00012015359 3.8654001e-05
0.1152935 0.15986073 0.30446965 3.339232e-05 -1 7.9575875e-05 3.2535852e-05
0.12830706 0.15986073 0.30591872 -0.031749841 -0.99946469 0.0078963153 0.0015061777
0.13505881 0.15986073 0.30142424 -0.10612492 -0.99433148 -0.0065101516 0.013863121
0.14502065 0.15986073 0.30534968 -0.42084888 -0.90487432 0.063943014 0.06564784
0.15705694 0.155488 0.30240041 -0.69791472 -0.71512419 -0.038890112 0.074606717
-0.15687627 -0.15596712 0.31351325 0.72128302 0.69146091 -0.040405791 0.082996674
-0.14450134 -0.15832108 0.31581548 0.31053266 0.95004302 -0.031430218 0.049279284
-0.13214578 -0.15832108 0.311818 0.1028647 0.99469519 0.00063223048 0.012860027
-0.12538226 -0.15832108 0.31403461 1.1317829e-05 1 -6.7294233e-05 0
-0.11714887 -0.15832108 0.31615859 1.5084741e-05 1 -0.0001231794 0
-0.10398043 -0.15832108 0.31379089 1.5024207e-05 1 3.4990222e-05 0
-0.097388014 -0.15832108 0.31786141 4.2268175e-06 1 -5.5129905e-05 0
-0.087962165 -0.15832108 0.31484708 1.6371323e-05 1 -0.00010717304 0
-0.075838126 -0.15832108 0.31865236 1.171679e-05 1 -5.3965025e-05 0
-0.067537993 -0.15832108 0.31356749 1.0791497e-05 1 -0.00010900067 0
-0.055808675 -0.15832108 0.3121509 2.8516431e-06 1 -2.8394501e-05 0
-0.046113774 -0.15832108 0.31450579 1.2705959e-05 1 -4.7417074e-05 0
-0.034959648 -0.15832108 0.31694454 9.0070998e-06 1 -5.2796884e-05 0
-0.023139747 -0.15832108 0.31321594 7.077781e-06 1 -5.2038296e-05 0
-0.012998024 -0.15832108 0.31610546 7.5176008e-06 1 -6.1371313e-05 0
-0.0047470182 -0.15832108 0.31616268 1.4375598e-06 1 -0.00012263705 0
0.0082208291 -0.15832108 0.31596702 -4.8178363e-06 1 -5.0164312e-05 0
0.020811357 -0.1583211 0.31475383 -5.3996773e-06 1 -4.7072146e-05 0
0.032958582 -0.15832108 0.31579533 -1.9171483e-05 1 -8.2545681e-05 0
0.044312935 -0.15832108 0.31409803 1.3019059e-05 1 -9.0791058e-05 0
0.054992978 -0.15832108 0.31635532 -2.3627126e-06 1 -9.2603055e-05 0
0.067814894 -0.15832108 0.3153744 -1.4620928e-05 1 -1.5999389e-05 0
0.074720204 -0.15832108 0.31787446 -1.5372339e-05 1 1.5270327e-05 0
0.082426168 -0.15832108 0.3164466 -1.1005137e-05 1 -1.7293776e-05 0
0.090525381 -0.15832108 0.3117179 5.7166367e-06 1 1.5019868e-05 0
0.10467823 -0.15832108 0.31418622 9.9610804e-07 1 -8.5043786e-05 0
0.11501254 -0.15832108 0.31507736 -2.2903219e-05 1 -6.0540326e-05 0
0.12820011 -0.15832108 0.31746659 -0.01515107 0.99987358 -0.004822854 0.00031203488
0.13399789 -0.15832108 0.31422716 -0.11686997 0.99293411 -0.020576879 0.016729558
0.14314955 -0.15832108 0.31661332 -0.34229249 0.93721211 -0.066852219 0.056994423
0.15481809 -0.15743923 0.31509408 -0.61199856 0.79081154 -0.008662696 0.074249618
-0.15909092 -0.14739551 0.31165472 0.88879466 0.45819917 0.0098761171 0.077553257
0.15909091 -0.14500201 0.31463867 -0.8943795 0.44672221 0.022901546 0.070083097
-0.15909092 -0.13577992 0.31439945 0.98989254 0.14180338 0.0021451442 0.02338578
0.15909092 -0.13567147 0.31508458 -0.98742735 0.1579922 0.0050621144 0.024148371
-0.15909092 -0.12663706 0.31173107 0.99992943 0.011817313 -0.0012255671 0.00032891482
0.15909092 -0.12475073 0.31434855 -1 3.672715e-05 -3.8612729e-05 0
-0.15909091 -0.11760752 0.31707454 1 2.4353796e-05 3.5100376e-05 0
0.15909092 -0.11114348 0.3190943 -1 1.2763947e-05 -3.2488879e-05 0
-0.15909092 -0.10603637 0.31588721 1 1.9885518e-05 -2.6628572e-05 0
0.15909092 -0.10547361 0.31523639 -1 8.9432542e-06 1.1245543e-06 0
-0.15909092 -0.094495468 0.31562984 1 4.3165008e-07 -6.1288622e-05 0
0.15909091 -0.091089956 0.31115729 -1 1.3269919e-05 -3.3741482e-05 0
-0.15909094 -0.086001851 0.31273198 1 2.3537266e-05 -2.2234639e-05 0
0.15909094 -0.083452344 0.31219646 -1 8.6117352e-06 -5.1873172e-05 0
-0.15909092 -0.075260609 0.31397247 1 8.5456804e-06 -1.9520383e-05 0
0.15909092 -0.078560151 0.31526297 -1 1.1590904e-05 -6.1315717e-05 0
-0.15909092 -0.065304749 0.31357735 1 1.0222316e-05 -7.799414e-05 0
0.15909092 -0.063562453 0.31340629 -1 2.5686328e-05 -6.3262472e-05 0
-0.15909091 -0.058088977 0.31773424 1 -2.7089129e-06 1.9141837e-05 0
0.15909092 -0.057569355 0.31595516 -1 1.1062963e-05 -5.5352102e-05 0
-0.15909092 -0.046810549 0.31528586 1 3.5871913e-06 7.0530625e-08 0
0.15909092 -0.048138376 0.3159745 -1 7.7217164e-06 -0.00011948562 0
-0.15909094 -0.033119019 0.31130239 1 1.4329363e-06 -1.7355011e-05 0
0.15909094 -0.034935176 0.31808582 -1 -9.538187e-07 -1.7093986e-05 0
-0.15909092 -0.025092524 0.31807005 1 1.358856e-06 -5.6691453e-05 0
0.15909092 -0.021317691 0.31447834 -1 -1.361414e-06 -5.4157346e-05 0
-0.15909092 -0.013377775 0.31597006 1 9.908714e-07 -4.7666286e-05 0
0.15909092 -0.014316283 0.31795141 -1 4.1408521e-06 -6.1174454e-05 0
-0.15909092 -0.0066018482 0.31630677 1 0 0 0
0.15909092 -0.0030417528 0.31310937 -1 4.9356163e-07 -3.3179804e-05 0
-0.15909091 0.006108535 0.31292921 1 -1.6711582e-06 -6.1069171e-05 0
0.15909092 0.004268182 0.3141689 -1 9.3831814e-06 -0.00012206822 0
-0.15909092 0.010385867 0.3141363 1 -1.4555746e-06 -1.9340112e-05 0
0.15909092 0.015286597 0.31439242 -1 9.4370953e-06 -6.8280307e-05 0
-0.15909091 0.02333653 0.31690973 1 -1.2787061e-06 -1.7004688e-05 0
0.15909094 0.026712824 0.31601131 -1 -0 -0 0
-0.15909092 0.035509571 0.31301206 1 -3.8798303e-06 -1.7523649e-05 0
0.15909094 0.033648893 0.31696516 -1 -2.1702574e-06 -3.2893047e-07 0
-0.15909092 0.042517938 0.31378719 1 -3.3799936e-06 -1.7663999e-05 0
0.15909092 0.044528391 0.31461129 -1 -5.4554116e-06 -3.4562974e-05 0
-0.15909092 0.053005844 0.31149206 1 -4.3326071e-07 -3.4356017e-05 0
0.15909094 0.055472028 0.31682163 -1 -2.4646863e-06 -1.8094495e-05 0
-0.15909092 0.065206535 0.31446654 1 -8.1881453e-06 1.7456396e-05 0
0.15909094 0.064313106 0.31687984 -1 -7.2423941e-06 -3.2494638e-05 0
-0.15909092 0.078741327 0.31713837 1 -1.7902659e-05 -1.7622902e-05 0
0.15909092 0.0725732 0.31385744 -1 -7.4554564e-06 -1.819773e-05 0
-0.15909092 0.086524352 0.31169915 1 -1.1367048e-05 3.5483987e-07 0
0.15909092 0.085876204 0.31449229 -1 8.333119e-07 -1.9028485e-05 0
-0.15909092 0.096167028 0.31703648 1 -3.0221392e-05 -3.5957433e-05 0
0.15909092 0.091878571 0.31248879 -1 -1.6158563e-05 -7.9993566e-05 0
-0.15909092 0.10467763 0.31042236 1 -9.8800392e-06 -1.6115338e-05 0
0.15909094 0.10734295 0.31245983 -1 -9.2620521e-06 1.6826526e-06 0
-0.15909092 0.11611176 0.31552765 1 -1.4912084e-05 5.8403253e-07 0
0.15909091 0.11369936 0.313016 -1 -1.7421948e-05 -2.9197437e-05 0
0.15909094 0.12741663 0.31370142 -1 -3.631521e-05 -5.0916002e-05 0
-0.15909091 0.13419515 0.31786859 0.99976861 -0.02108608 0.0042601121 0.00037564759
0.15909092 0.13324533 0.31617481 -0.99609172 -0.088249266 -0.0036594544 0.0093377829
-0.15909092 0.14549558 0.31486443 0.94920045 -0.31403297 -0.020044692 0.053827822
0.15909092 0.14464633 0.31170851 -0.92040569 -0.39002499 -0.02709165 0.048707336
-0.15690495 0.15713543 0.31428733 0.69124067 -0.72259939 -0.0060319207 0.064435586
-0.14311753 0.15986073 0.31532231 0.30936891 -0.95086414 0.012178873 0.041557252
-0.13429809 0.15986073 0.31302792 0.13320099 -0.99107629 0.00503013 0.016381601
-0.12651226 0.15986073 0.31243795 -3.7180962e-05 -1 5.4652628e-05 4.1712588e-05
-0.10158635 0.15986073 0.31558794 -2.2792785e-05 -1 8.6247106e-05 4.2776999e-05
-0.095792882 0.15986073 0.31914118 -2.4397268e-05 -1 0.00012026531 3.2416305e-05
-0.082232833 0.15986073 0.31435552 -2.2587967e-05 -1 0.00014519053 4.3160348e-05
-0.075658925 0.15986073 0.31440541 -2.4186294e-05 -1 9.8328397e-05 3.9963103e-05
-0.066868678 0.15986073 0.31315485 -1.1443034e-05 -1 0.00013624135 4.1291376e-05
-0.054313421 0.15986073 0.31385255 -1.1911126e-05 -1 8.2605206e-05 3.3223252e-05
-0.044787016 0.15986073 0.31719407 -1.835998e-05 -1 0.00015111364 3.8839662e-05
-0.036295965 0.15986073 0.31525522 -1.9858548e-05 -1 0.0001167127 3.9811279e-05
-0.023114547 0.15986073 0.31277719 -5.860431e-06 -1 7.9173995e-05 4.0269701e-05
-0.016437082 0.15986073 0.31586796 -3.5416308e-06 -1 7.845636e-05 3.3277032e-05
-0.0027801215 0.15986073 0.31559542 1.4607413e-06 -1 0.00016043123 4.0859941e-05
0.0066658026 0.15986073 0.31808019 -1.3499538e-06 -1 0.00012376712 4.4128978e-05
0.012245901 0.15986073 0.31725985 -2.8337276e-06 -1 0.00012263887 4.4658638e-05
0.023012159 0.15986073 0.3143357 2.546971e-05 -1 0.00013024313 4.2748958e-05
0.036961969 0.15986073 0.31508139 4.4862436e-06 -1 5.9769303e-05 3.9428509e-05
0.043681148 0.15986073 0.31320313 1.6024476e-05 -1 7.7012402e-05 3.761048e-05
0.052633565 0.15986073 0.31382471 2.1975582e-05 -1 7.1436145e-05 3.187983e-05
0.064339831 0.15986073 0.31756318 1.0042064e-05 -1 6.7779751e-05 3.0824125e-05
0.078470901 0.15986073 0.31017715 1.6575244e-05 -1 5.9974696e-05 3.02998e-05
0.089423455 0.15986073 0.31989422 3.1877778e-05 -1 0.00010827236 3.7131649e-05
0.095074184 0.15986073 0.31557217 2.6970369e-05 -1 0.00010343074 4.4944471e-05
0.10693768 0.15986073 0.31405699 3.9569e-05 -1 0.00014974775 3.8466205e-05
0.11381583 0.15986073 0.31233597 4.6657828e-05 -1 9.4867108e-05 3.7827329e-05
0.12692025 0.15986073 0.31411383 -0.013455374 -0.99990922 -0.00070198742 0.00046692739
0.13608184 0.15986073 0.31417426 -0.14825594 -0.98791534 0.045203805 0.022275198
0.14328794 0.15986073 0.31729385 -0.28988308 -0.95651472 0.032362692 0.035615876
0.15612586 0.15734409 0.31785175 -0.67961466 -0.7332567 0.021413418 0.068116613
-0.15563917 -0.15513994 0.3245818 0.62327284 0.7808398 0.042663537 0.078173742
-0.14526853 -0.15832108 0.32231119 0.33992761 0.94044745 0.0028007058 0.049870487
-0.13583642 -0.15832108 0.32798773 0.13735077 0.99050379 -0.0060873376 0.013987656
-0.12715985 -0.15832108 0.32301101 0.015746061 0.99987584 -0.00068267138 0.00067937525
-0.11481025 -0.15832107 0.324402 2.7014141e-07 1 1.6314816e-05 0
-0.10453387 -0.15832108 0.32495254 2.9366327e-05 1 -5.6707904e-05 0
-0.094699413 -0.15832108 0.32384476 1.2339061e-05 1 -0.00012661009 0
-0.085311137 -0.15832108 0.32930276 1.7517234e-05 1 -3.3088902e-05 0
-0.074835569 -0.15832108 0.32531455 3.0097197e-05 1 -0.00010437763 0
-0.065298058 -0.15832108 0.3234213 1.2654403e-05 1 -3.5794743e-05 0
-0.055803478 -0.15832108 0.32380366 7.7522318e-06 1 -9.7202166e-05 0
-0.041714277 -0.15832108 0.32114297 -3.1616926e-06 1 -6.9232592e-05 0
-0.032065105 -0.15832108 0.32316616 1.5508114e-05 1 -9.7048476e-05 0
-0.024969511 -0.15832108 0.32366997 1.0999366e-05 1 -3.5302644e-05 0
-0.015525874 -0.15832108 0.32372442 9.5085479e-06 1 -8.4546475e-05 0
-0.0054494888 -0.15832108 0.32796863 8.8161602e-07 1 -1.76921e-05 0
0.0058520809 -0.15832108 0.32667905 -5.1517156e-07 1 8.3476657e-09 0
0.016199952 -0.15832108 0.32522324 -1.0640774e-06 1 -7.6534488e-05 0
0.027454328 -0.15832108 0.32414055 -8.4991416e-06 1 -6.9877642e-05 0
0.038365345 -0.15832108 0.32241514 -6.3131201e-06 1 -3.2811313e-05 0
0.046250559 -0.15832108 0.32464877 5.5431741e-07 1 -5.8425299e-05 0
0.055722345 -0.15832108 0.32418296 -4.3746568e-06 1 -5.8876951e-05 0
0.065795466 -0.15832108 0.32711446 -1.1388815e-05 1 1.9325675e-05 0
0.074501678 -0.15832108 0.32820898 -1.1018778e-05 1 -3.5491532e-05 0
0.083846845 -0.15832108 0.32362041 8.811865e-06 1 1.7433378e-05 0
0.093959361 -0.15832108 0.32369167 1.234956e-05 1 1.3899238e-05 0
0.1074296 -0.15832108 0.32425308 5.9324771e-06 1 -3.469377e-05 0
0.11541154 -0.15832108 0.32521746 -1.2336239e-05 1 -4.8327573e-05 0
0.12489167 -0.15832108 0.32419369 -3.8225306e-05 1 -0.0001002298 0
0.13472687 -0.15832108 0.3252669 -0.13999842 0.9892208 0.042925395 0.020761101
0.15667287 -0.15626557 0.32555771 -0.57283515 0.81421608 0.094403647 0.075106345
-0.15909092 -0.146412 0.32202026 0.92495525 0.37946212 -0.021592915 0.071314417
0.15909092 -0.14286244 0.32019123 -0.95676804 0.28948501 -0.028166529 0.06045188
-0.15909092 -0.13747804 0.3249245 0.98441815 0.17263675 0.033428226 0.027401648
0.15909092 -0.13647968 0.32549262 -0.9877674 0.15472962 -0.019346878 0.025159143
-0.15909092 -0.12240038 0.3214466 1 7.896092e-06 -3.7437774e-05 0
0.15909094 -0.12430011 0.32376134 -1 5.4315493e-05 -4.3731503e-05 0
-0.15909092 -0.11408726 0.32533929 1 2.0312582e-05 -3.9065155e-05 0
0.15909092 -0.11494966 0.32266217 -1 2.1289139e-05 -6.2817533e-05 0
-0.15909092 -0.10363825 0.32401955 1 1.2116479e-05 -3.4548288e-05 0
0.15909092 -0.10403824 0.32559499 -1 6.883728e-06 -1.708315e-05 0
-0.15909092 -0.097195096 0.32366866 1 2.1078009e-05 -0.0001308638 0
0.15909092 -0.095932022 0.32590333 -1 -3.0172853e-06 -7.2694704e-05 0
-0.15909092 -0.084716521 0.32443383 1 1.9645786e-05 -2.9094625e-05 0
0.15909092 -0.084047891 0.32396618 -1 8.2646293e-06 -6.3900101e-05 0
-0.15909094 -0.075416394 0.32115179 1 2.695848e-05 -3.4606222e-05 0
0.15909092 -0.071590602 0.32231742 -1 2.2169581e-05 -9.5521209e-05 0
-0.15909092 -0.064558096 0.3244338 1 -7.789892e-07 -7.322272e-05 0
0.15909094 -0.063149452 0.32269093 -1 1.6081129e-05 -8.9938338e-05 0
-0.15909092 -0.054187503 0.32452103 1 5.186418e-07 -3.6881633e-05 0
0.15909092 -0.05590827 0.32215202 -1 2.5963122e-05 -6.3389249e-05 0
-0.15909092 -0.043178357 0.32198775 1 5.8013588e-06 4.5884044e-05 0
0.15909094 -0.047381394 0.32220989 -1 -2.1341759e-06 -3.5275894e-05 0
-0.15909092 -0.033912282 0.32557496 1 3.5826929e-06 5.1776072e-07 0
0.15909092 -0.037370946 0.32606483 -1 8.8251319e-08 -1.9184812e-05 0
-0.15909091 -0.024790354 0.324238 1 2.6749547e-06 -2.0247264e-05 0
0.15909092 -0.024045845 0.32405016 -1 -5.3830463e-06 -7.1716466e-05 0
-0.15909092 -0.012684498 0.3247374 1 1.2538676e-06 -5.3834789e-05 0
-0.15909092 -0.0045607747 0.32479808 1 -3.6030988e-06 -1.5685388e-05 0
0.15909092 -0.0051980894 0.3257201 -1 2.6602329e-05 -0.00010777705 0
-0.15909094 0.0060303262 0.32687396 1 -2.6284461e-06 -1.435893e-05 0
0.15909092 0.0052903891 0.3262476 -1 7.3142371e-07 -2.1151045e-05 0
0.15909092 0.018381745 0.32380944 -1 5.3043227e-06 -0.0001076781 0
-0.15909092 0.026483437 0.32401505 1 5.5259665e-08 -3.0850599e-05 0
0.15909092 0.02952927 0.32706517 -1 -6.330602e-06 -5.6478453e-05 0
-0.15909091 0.034153368 0.3269183 1 -3.8605208e-06 -3.1240943e-05 0
0.15909092 0.033032309 0.3267878 -1 -1.3413365e-06 -3.5203e-05 0
-0.15909092 0.044348802 0.32575747 1 -1.6606886e-05 -3.4357858e-05 0
0.15909092 0.044092029 0.32652646 -1 -1.0238072e-05 -6.4691812e-05 0
-0.15909092 0.055047322 0.32415432 1 -1.6502901e-05 -5.9513656e-07 0
0.15909092 0.05451363 0.32393205 -1 -3.8168537e-06 -4.0828887e-05 0
-0.15909092 0.066091888 0.32699361 1 -1.3849841e-05 -1.5823916e-05 0
0.15909092 0.064037308 0.32342952 -1 -3.6898707e-06 -3.7857415e-05 0
-0.15909092 0.075162761 0.3250865 1 -1.0522506e-05 -1.8464141e-05 0
0.15909092 0.073913105 0.32578492 -1 -1.3489724e-05 -5.7615551e-05 0
-0.15909091 0.085216127 0.32473853 1 -1.7316388e-05 -2.0843802e-06 0
0.15909092 0.084713891 0.32648191 -1 5.2801006e-06 -4.2023752e-05 0
0.15909092 0.094925322 0.32725272 -1 -2.5527081e-05 -3.3135064e-05 0
-0.15909092 0.10363698 0.32600489 1 -5.3672388e-06 -3.4181947e-05 0
0.15909092 0.10296369 0.3247737 -1 -2.1077018e-05 -3.4251556e-05 0
-0.15909094 0.11327779 0.32463861 1 -8.5431893e-06 -6.4356682e-05 0
0.15909092 0.11334419 0.32106096 -1 2.4521798e-06 -3.4750556e-05 0
-0.15909092 0.1221797 0.3232801 1 -1.8110199e-05 -4.692225e-05 0
0.15909092 0.12581602 0.32489663 -1 5.367081e-06 -7.5875214e-05 0
-0.15909094 0.13439837 0.32849556 0.9928453 -0.11936659 0.0031466275 0.015912784
0.15909094 0.13258561 0.3277953 -0.99899465 -0.044536602 0.0051193475 0.0014899318
-0.15909091 0.14258344 0.32422927 0.97536397 -0.22055574 0.0045054122 0.032915059
0.15909091 0.14345105 0.32535896 -0.93306088 -0.35943782 -0.014204594 0.046576135
-0.15868764 0.15695432 0.32394001 0.75031632 -0.66072792 0.02154357 0.069155052
-0.14523974 0.15986073 0.32697704 0.38312 -0.92369777 0.0011685201 0.064519972
-0.13317606 0.15986073 0.32431483 0.036699828 -0.99932623 0.00039428996 0.0010211798
-0.12514189 0.15986073 0.3250939 -2.7382022e-05 -1 6.4883687e-05 4.0309031e-05
-0.11900924 0.15986073 0.32325953 -1.6705115e-05 -1 4.4625842e-05 3.3172131e-05
-0.10481202 0.15986073 0.32659277 -1.2341106e-05 -1 0.00010666263 3.4998244e-05
-0.094772786 0.15986073 0.32388508 1.215194e-05 -1 0.00015563938 5.0193539e-05
-0.082858413 0.15986073 0.32894987 -4.1748077e-05 -1 8.4813037e-05 4.0564275e-05
-0.074933827 0.15986073 0.32754683 -3.6696892e-05 -1 0.00014124381 3.8768816e-05
-0.068646304 0.15986073 0.32629457 -1.493926e-05 -1 7.8303259e-05 3.456555e-05
-0.051972955 0.15986073 0.32256222 -1.8530909e-05 -1 9.6768919e-05 3.41054e-05
-0.04838939 0.15986073 0.32024413 -2.6848042e-05 -1 0.00014032832 4.006167e-05
-0.037773963 0.15986073 0.3259286 -5.9246822e-06 -1 6.2547762e-05 3.4917633e-05
-0.023236845 0.15986073 0.32484332 -8.4016401e-06 -1 4.0379109e-05 3.4783272e-05
-0.016826764 0.15986073 0.3273223 -1.508406e-05 -1 0.00011393154 4.0518069e-05
-0.0033491766 0.15986073 0.32293692 -1.0698387e-06 -1 0.00012449418 4.2443149e-05
0.0054222308 0.15986073 0.32219115 1.6312149e-05 -1 0.00010528158 4.3236247e-05
0.016353097 0.15986073 0.32357833 1.6985621e-05 -1 0.00012640771 4.2487831e-05
0.026110554 0.15986073 0.32469738 1.2201692e-05 -1 0.00013972876 4.152823e-05
0.033563614 0.15986073 0.32119912 4.4516387e-06 -1 0.00010651545 3.3030465e-05
0.045565009 0.15986073 0.3213242 2.30473e-05 -1 0.00010339125 3.905232e-05
0.056338113 0.15986073 0.32574257 1.3862573e-05 -1 7.6712808e-05 4.6779074e-05
0.064603373 0.15986073 0.32349306 5.4289003e-06 -1 0.00010148954 4.4205037e-05
0.075335868 0.15986073 0.32614866 1.476875e-05 -1 3.9165676e-05 4.3899599e-05
0.082087263 0.15986073 0.32659495 3.8381899e-05 -1 9.3838018e-05 3.8410039e-05
0.094985217 0.15986073 0.3209793 5.3317377e-05 -1 7.8970166e-05 4.8332797e-05
0.10404295 0.15986073 0.32368425 2.5665859e-05 -1 0.00013045099 3.9944694e-05
0.11159875 0.15986073 0.32582426 3.1283165e-05 -1 0.00013228763 3.9232134e-05
0.13547635 0.15986073 0.3267211 -0.1654323 -0.98619562 -0.0070875543 0.026876051
0.14648217 0.15986073 0.32123277 -0.46754277 -0.88387078 0.013273026 0.055547047
0.1553359 0.15769035 0.32493579 -0.71737182 -0.69016278 -0.095147401 0.070232689
-0.15812296 -0.15452936 0.33565038 0.75806594 0.65070951 -0.04373832 0.059348326
-0.14465305 -0.15832108 0.33334246 0.31915361 0.94765121 -0.0098997187 0.051319912
-0.13538387 -0.15832108 0.33246136 0.16402011 0.98641437 0.0091632344 0.015363515
-0.124304 -0.15832108 0.33495951 6.1656268e-05 1 -0.00014185952 0
-0.11595231 -0.15832108 0.3344163 5.576368e-06 1 -5.0938277e-05 0
-0.10320438 -0.15832108 0.33668169 2.0897023e-05 1 -3.2231161e-05 0
-0.095431581 -0.15832108 0.33292529 1.3111535e-05 1 -4.9041588e-05 0
-0.087698683 -0.15832108 0.33594903 2.5457259e-05 1 -5.2416013e-05 0
-0.074278347 -0.15832108 0.33547002 3.7029145e-06 1 -1.7734907e-05 0
-0.061669983 -0.15832108 0.33506519 1.494754e-05 1 -5.7646172e-05 0
-0.05675495 -0.15832108 0.33413503 4.7327712e-06 1 -4.7727834e-05 0
-0.045654237 -0.15832108 0.33481982 1.0555413e-05 1 -3.0963427e-05 0
-0.034715131 -0.15832108 0.33318409 1.0073567e-05 1 -3.2447788e-05 0
-0.027057499 -0.15832108 0.33428094 7.2806165e-06 1 -4.9887345e-05 0
-0.012684074 -0.15832108 0.3334702 8.8132783e-06 1 -6.6539447e-05 0
-0.0029011953 -0.15832108 0.33415771 2.2559432e-06 1 -1.5502737e-05 0
0.0094834492 -0.15832108 0.33486348 6.5265558e-06 1 -7.2387105e-05 0
0.015501052 -0.15832108 0.33432922 -1.2277323e-05 1 -9.0001246e-05 0
0.024454435 -0.15832108 0.33658743 -4.4475742e-06 1 -2.9631716e-05 0
0.035188865 -0.15832108 0.33036298 -9.9880081e-06 1 -7.2403338e-05 0
0.046748646 -0.15832108 0.33617619 -8.1099761e-06 1 -2.9336463e-05 0
0.057383392 -0.15832108 0.33520335 -1.3248091e-05 1 1.3205668e-06 0
0.064320065 -0.15832108 0.33410987 -4.8313545e-06 1 -9.2157599e-05 0
0.073237009 -0.15832107 0.33455214 -1.0872205e-05 1 -8.7046712e-05 0
0.081271969 -0.15832108 0.33805814 -1.0130515e-07 1 -9.1141053e-05 0
0.096365936 -0.15832108 0.33707809 -1.4040256e-05 1 -6.3167434e-05 0
0.1034046 -0.15832108 0.33707982 -1.8504566e-05 1 -1.5705533e-05 0
0.11322689 -0.15832108 0.33646795 -5.1079128e-06 1 -0.00010631113 0
0.12441072 -0.15832108 0.3337467 -3.8412523e-05 1 -7.5917975e-05 0
0.13457884 -0.15832108 0.33677736 -0.08860413 0.99591202 0.017566957 0.012886302
0.14310703 -0.15832108 0.33340308 -0.37004209 0.92624754 0.071653716 0.055759355
0.15625313 -0.1568599 0.33575565 -0.66912711 0.74314094 0.0032299529 0.063265756
-0.15909092 -0.1465243 0.33482897 0.9038645 0.42779401 0.0046032853 0.072643667
0.15909092 -0.14324167 0.33416495 -0.94881934 0.31503469 -0.022249565 0.056426913
-0.15909092 -0.13161236 0.33529532 0.99965614 0.025972122 0.0036233505 0.00094553054
0.15909092 -0.13476147 0.333996 -0.99422616 0.10604813 0.016375124 0.017223451
-0.15909092 -0.12012848 0.33080423 1 1.1828261e-05 -9.0040106e-05 0
0.15909092 -0.12582634 0.33432731 -1 9.082768e-06 4.4043597e-07 0
-0.15909092 -0.11675028 0.33446574 1 1.6913433e-05 -6.0231028e-05 0
0.15909092 -0.1153099 0.33491239 -1 -6.6805269e-06 -3.8464586e-05 0
-0.15909092 -0.10546148 0.33688551 1 5.0789873e-07 1.7235889e-05 0
0.15909092 -0.10621589 0.33287349 -1 8.690854e-06 -3.0421629e-07 0
-0.15909092 -0.094369531 0.33347967 1 2.8515762e-05 -0.00012376613 0
0.15909092 -0.095130056 0.33540347 -1 3.7627378e-05 -4.527998e-05 0
-0.15909092 -0.086990036 0.3342779 1 1.3549921e-05 -2.9237519e-05 0
0.15909094 -0.088372685 0.3321718 -1 2.2881068e-05 -9.1008696e-05 0
-0.15909091 -0.073285751 0.33834526 1 5.1599168e-06 -4.9808848e-05 0
-0.15909092 -0.062486358 0.33536065 1 5.8945702e-06 -5.2634598e-05 0
0.15909092 -0.0654191 0.33581266 -1 -5.0314475e-07 -5.0017519e-05 0
-0.15909092 -0.056332417 0.3346346 1 1.3008621e-05 -6.8827831e-05 0
0.15909092 -0.055632696 0.33384156 -1 1.0036705e-05 -1.8208193e-05 0
-0.15909092 -0.049755462 0.33645087 1 7.2499765e-06 -1.9297167e-05 0
0.15909094 -0.042437322 0.33444309 -1 6.5376107e-06 -3.5894664e-05 0
-0.15909092 -0.035114121 0.33413395 1 -7.1995164e-06 -0.00012867761 0
0.15909092 -0.034678191 0.33380345 -1 1.5367599e-05 -6.7571964e-05 0
-0.15909092 -0.026069278 0.33621281 1 2.4053534e-06 -1.7486142e-05 0
0.15909091 -0.020978183 0.33472699 -1 2.3185285e-06 -6.6087407e-05 0
-0.15909094 -0.016809037 0.33480167 1 1.0197457e-05 -3.6232628e-05 0
0.15909092 -0.01728088 0.33058912 -1 -4.2292072e-06 -4.6149769e-05 0
-0.15909094 -0.0044114185 0.33438081 1 9.0564617e-07 -6.7449677e-05 0
0.15909092 -0.0088389739 0.33801383 -1 4.3520086e-07 -2.527656e-05 0
-0.15909092 0.0025947115 0.33396259 1 3.4570638e-07 -7.3976997e-05 0
0.15909094 0.0072375028 0.33579674 -1 1.2415533e-06 -5.4711356e-05 0
-0.15909092 0.016198121 0.33409482 1 -1.7951513e-06 -8.7646235e-08 0
0.15909092 0.017589573 0.33188245 -1 -1.310676e-06 -2.9758521e-05 0
-0.15909091 0.02879091 0.33724585 1 -3.8917278e-06 -1.6858852e-05 0
0.15909092 0.024987876 0.33360377 -1 -8.825361e-06 -8.7004519e-05 0
-0.15909092 0.034978278 0.33313036 1 4.5127017e-06 -3.5324687e-05 0
0.15909092 0.034332391 0.33599576 -1 -3.9884376e-06 -5.1575338e-05 0
-0.15909094 0.045031596 0.3337996 1 -4.5729494e-06 -5.3625165e-05 0
0.15909092 0.04641512 0.33680144 -1 -7.2693324e-06 -3.5184654e-05 0
-0.15909092 0.053441614 0.33475646 1 1.8061914e-06 -2.049867e-05 0
0.15909092 0.052655876 0.33610523 -1 -1.2330419e-05 -5.7107649e-05 0
-0.15909092 0.062661573 0.33906659 1 -1.8931783e-05 -6.314693e-05 0
0.15909092 0.060665235 0.33465979 -1 -1.1845571e-05 -4.4382847e-05 0
-0.15909092 0.075749472 0.33579904 1 -1.621326e-05 -1.6474341e-05 0
0.15909092 0.076611944 0.33569255 -1 -3.6180043e-06 -3.5199249e-05 0
-0.15909092 0.083979122 0.33503711 1 0 0 0
-0.15909092 0.094865531 0.33524528 1 -5.4055686e-06 -1.6317008e-05 0
0.15909092 0.094203167 0.33341515 -1 -1.92274e-05 -2.9993875e-05 0
-0.15909092 0.10615888 0.33177018 1 -1.9224479e-05 -1.049585e-06 0
0.15909092 0.10286822 0.33561069 -1 -5.7951439e-07 -4.9126018e-05 0
-0.15909092 0.11403716 0.33647007 1 -1.6391827e-05 -8.1154445e-05 0
0.15909092 0.11977268 0.33378047 -1 -1.829392e-05 -6.0031154e-05 0
-0.15909092 0.125062 0.33420688 1 -1.7075803e-05 -1.93339e-05 0
0.15909092 0.12315676 0.333922 -1 -1.502582e-05 -1.7563347e-05 0
-0.15909092 0.13666894 0.33427468 0.98544496 -0.16992024 -0.0050294227 0.023127448
0.15909092 0.13358058 0.33455256 -0.99462974 -0.10286614 0.011412787 0.012344681
-0.15909092 0.14676817 0.33465162 0.9088065 -0.41597196 -0.032221306 0.064062431
0.15909092 0.14521146 0.33576149 -0.89702576 -0.44090238 0.030820685 0.062419336
-0.1552363 0.15819372 0.3360101 0.71908194 -0.69487584 0.0082897451 0.066258773
-0.14791885 0.15986073 0.33009714 0.42244479 -0.90631551 0.011512372 0.064682662
-0.13574621 0.15986073 0.3342444 0.10893758 -0.99404854 -0.00044416785 0.012445988
-0.11707491 0.15986073 0.33466879 -5.4026332e-06 -1 8.1553226e-05 4.3128031e-05
-0.10244964 0.15986073 0.33797801 -2.1287056e-05 -1 0.00010009571 4.8249913e-05
-0.094949633 0.15986073 0.33271614 -1.9235535e-05 -1 0.00015466512 4.6967129e-05
-0.08564017 0.15986073 0.3350029 -2.2658762e-05 -1 8.0548831e-05 4.6963698e-05
-0.076449364 0.15986073 0.33562627 -2.1236618e-05 -1 0.00012043243 3.9313549e-05
-0.066510767 0.15986073 0.33428782 -2.1204469e-05 -1 0.0001122938 3.4122837e-05
-0.055854592 0.15986073 0.33613893 -1.0553662e-05 -1 7.5703567e-05 3.4103879e-05
-0.040677074 0.15986073 0.33577648 -1.4012221e-05 -1 9.1879876e-05 4.0256451e-05
-0.036585253 0.15986073 0.33340871 3.9835631e-06 -1 0.00013179232 4.2144431e-05
-0.024907019 0.15986073 0.33868593 -2.6852695e-05 -1 0.0001098216 4.0631534e-05
-0.018670112 0.15986073 0.33720249 -1.1338279e-06 -1 0.00011624822 3.9986968e-05
-0.0053986125 0.15986073 0.33607391 -4.8280449e-06 -1 6.2532759e-05 4.0908351e-05
0.0057997666 0.15986073 0.33378419 -3.9358883e-06 -1 0.00016179816 4.3279346e-05
0.013451183 0.15986073 0.33543399 -3.1937418e-06 -1 9.9679724e-05 3.7045269e-05
0.022688197 0.15986073 0.33446866 1.3956016e-05 -1 8.2748164e-05 4.0893865e-05
0.033128958 0.15986073 0.33556265 7.2844032e-06 -1 8.2791958e-05 3.3215867e-05
0.046783432 0.15986073 0.33908716 1.4654153e-05 -1 7.4644297e-05 4.0147981e-05
0.05593349 0.15986073 0.33754629 1.6671223e-05 -1 0.00011429436 3.9450682e-05
0.064144298 0.15986073 0.3356134 2.5406544e-05 -1 8.6580141e-05 3.2161173e-05
0.078476787 0.15986073 0.33695263 2.0038062e-05 -1 6.2486244e-05 3.7593643e-05
0.087558039 0.15986073 0.33595601 3.2559696e-05 -1 4.27429e-05 4.6524918e-05
0.092823975 0.15986073 0.33527821 4.7270747e-05 -1 0.00013313272 4.5937308e-05
0.10445191 0.15986073 0.33599293 3.421279e-05 -1 6.5832151e-05 4.5551496e-05
0.11225197 0.15986073 0.3327727 1.6010286e-05 -1 5.9545455e-05 3.6100359e-05
0.12845924 0.15986073 0.33084652 -0.022440201 -0.99974167 0.0036145407 0.00067371764
0.13537829 0.15986073 0.33448771 -0.16014409 -0.98662323 -0.030470373 0.021248575
0.14492163 0.15986073 0.33480883 -0.445467 -0.89444357 -0.039113373 0.062154435
0.15595393 0.15728742 0.33340809 -0.69315916 -0.71712703 0.072520196 0.078088708
-0.15768132 -0.15559496 0.34607956 0.74703574 0.66355795 0.040353768 0.06569203
-0.14102411 -0.15832108 0.34134817 0.3247945 0.94553292 -0.02181871 0.05686228
-0.13759255 -0.15832108 0.34286219 0.16493757 0.98629475 0.0042757643 0.02352367
-0.12510443 -0.15832108 0.34860197 5.3110594e-05 1 -4.8758651e-05 0
-0.11588889 -0.15832108 0.34657729 2.2801418e-05 1 -4.9935752e-05 0
-0.10152587 -0.15832108 0.34701726 7.8474695e-06 1 -3.0519044e-05 0
-0.081967801 -0.15832108 0.34970599 1.6179878e-07 1 -4.9303737e-05 0
-0.075222626 -0.15832108 0.34504595 7.4549616e-06 1 -3.3780668e-07 0
-0.06475921 -0.15832108 0.345846 2.2280414e-05 1 -3.2138199e-05 0
-0.055547755 -0.15832108 0.34552741 1.236289e-05 1 -8.0753605e-05 0
-0.04595441 -0.15832108 0.34501868 9.1117163e-06 1 -4.7929734e-05 0
-0.024634797 -0.15832108 0.34956843 -9.8544297e-07 1 -5.6521687e-05 0
-0.013538064 -0.15832108 0.34648821 9.6975509e-06 1 -9.1447357e-05 0
-0.0055878204 -0.15832108 0.345617 -3.2010751e-06 1 -7.5053234e-05 0
0.0059269369 -0.15832108 0.3450723 -5.7887814e-06 1 -3.4383553e-05 0
0.01781562 -0.15832108 0.34423876 -3.2504167e-06 1 6.5513525e-08 0
0.024322743 -0.15832108 0.34328413 -8.2071019e-06 1 -3.5809331e-05 0
0.035738435 -0.15832108 0.34474015 6.9296243e-07 1 -5.2385582e-05 0
0.04413043 -0.15832108 0.34569475 -1.7214645e-05 1 -6.4467655e-05 0
0.052817345 -0.15832108 0.34595451 -8.8003471e-06 1 -4.5392007e-05 0
0.06387005 -0.15832108 0.34251714 -4.7411322e-06 1 -5.565412e-05 0
0.076275915 -0.15832108 0.34393984 -0 1 -0 0
0.084738314 -0.15832108 0.34334373 3.6365875e-06 1 -6.1549479e-05 0
0.093012415 -0.15832108 0.34589636 -2.7779984e-06 1 -9.821912e-05 0
0.10443143 -0.15832108 0.34819543 -1.5497308e-05 1 -7.0260619e-05 0
0.11190773 -0.15832108 0.34716234 -2.1184191e-05 1 -3.0391264e-05 0
0.12845102 -0.15832108 0.34936202 -0.0059913266 0.999982 -0.00042239405 6.0270264e-05
0.13269271 -0.15832108 0.34728411 -0.035189465 0.99936652 0.0053045936 0.00091361307
0.14447673 -0.15832108 0.34951189 -0.34026989 0.93852782 -0.05815405 0.059422947
0.15909092 -0.15471008 0.342186 -0.73934561 0.67332566 -0.00076254032 0.074546695
-0.15909091 -0.14709775 0.34468672 0.82385343 0.56672639 -0.0093151852 0.076579258
-0.15909092 -0.13545376 0.34379688 0.98417038 0.1765556 0.015389984 0.029505944
-0.15909092 -0.12863009 0.3457765 0.99986041 0.016472863 -0.0027899109 0.00031539303
0.15909092 -0.12370064 0.344347 -1 1.5732647e-06 -3.2537486e-05 0
-0.15909092 -0.11311254 0.3460319 1 1.0875122e-05 -0.00010499761 0
0.15909092 -0.11535543 0.34541583 -1 1.9178669e-05 -5.2612133e-05 0
-0.15909094 -0.10303199 0.34767807 1 2.1923361e-05 -6.6895067e-05 0
0.15909092 -0.10570745 0.34736291 -1 8.4897993e-06 -7.3968644e-05 0
-0.15909094 -0.095642269 0.3440572 1 3.1502845e-05 -5.3284497e-05 0
0.15909092 -0.091212846 0.34344164 -1 9.5029072e-06 -7.4170683e-05 0
-0.15909094 -0.083734483 0.34367746 1 1.2800335e-05 -7.9101337e-05 0
0.15909092 -0.083581656 0.34475219 -1 1.0463182e-05 -9.5063384e-05 0
-0.15909094 -0.074252144 0.34550232 1 1.1286354e-05 -8.7798777e-05 0
0.15909091 -0.075318299 0.34573859 -1 1.0798003e-06 -1.6289832e-05 0
-0.15909092 -0.060565609 0.34467655 1 8.2025254e-06 -1.5287103e-05 0
0.15909092 -0.06450092 0.34388518 -1 9.229896e-06 1.689911e-06 0
-0.15909091 -0.054536633 0.34302521 1 -1.84455e-06 -6.7953413e-05 0
0.15909092 -0.056021385 0.3443096 -1 2.9616413e-06 -4.6417965e-05 0
-0.15909094 -0.045356177 0.346809 1 4.5655388e-06 -4.1915069e-07 0
0.15909092 -0.043612942 0.34634563 -1 8.3544946e-06 5.5192584e-05 0
0.15909092 -0.033756386 0.34647894 -1 3.312053e-06 -1.5760335e-05 0
-0.15909092 -0.027051888 0.34288973 1 5.8653877e-06 1.8662346e-05 0
-0.15909092 -0.013726838 0.34640661 1 2.189448e-06 -5.1577168e-05 0
-0.15909092 -0.0064874631 0.34503946 1 -5.0963399e-06 -9.2249218e-05 0
-0.15909092 0.0043371208 0.34591419 1 1.6580992e-05 -9.474079e-05 0
0.15909092 0.0064178905 0.34504128 -1 -5.8784226e-06 -5.2481209e-05 0
-0.15909092 0.017830806 0.34583557 1 -3.8377848e-06 -3.2733096e-05 0
0.15909092 0.012270928 0.34505242 -1 -4.6489167e-06 -5.7830697e-05 0
-0.15909092 0.026908591 0.34367523 1 -1.6422154e-06 -7.3700852e-05 0
0.15909092 0.024033358 0.34463504 -1 -1.1392926e-05 -7.6778502e-05 0
-0.15909092 0.036234718 0.34705862 1 -1.8794639e-05 -7.9197431e-05 0
0.15909092 0.035943527 0.3458418 -1 -1.1868782e-05 -6.5233209e-05 0
-0.15909092 0.046335045 0.34733102 1 -1.2327942e-05 -5.1731866e-05 0
0.15909092 0.044163451 0.34569147 -1 3.9465444e-06 -8.9435751e-05 0
-0.15909092 0.05432735 0.345236 1 -4.7098802e-06 -8.1936552e-05 0
0.15909092 0.055266574 0.34479639 -1 -6.9624516e-06 -0.00012335289 0
-0.15909092 0.066578478 0.34624732 1 -1.3023538e-05 -8.0878701e-05 0
0.15909092 0.066187061 0.34542829 -1 2.537848e-07 -6.1608356e-05 0
-0.15909092 0.073344432 0.34300014 1 -2.2099292e-05 6.3664811e-07 0
0.15909094 0.076134883 0.34635356 -1 -8.9901441e-06 -0.00011959018 0
-0.15909092 0.083762109 0.34255147 1 -7.857474e-06 -3.2972628e-05 0
0.15909092 0.083125122 0.34540468 -1 -1.614857e-05 -8.3079321e-05 0
-0.15909091 0.096825764 0.34282058 1 -1.8228873e-05 -5.9162016e-05 0
0.15909092 0.094344534 0.3454996 -1 -1.551575e-05 -7.310287e-05 0
-0.15909092 0.10702813 0.3470085 1 -1.4211283e-05 -3.0740463e-05 0
0.15909092 0.10611377 0.34716931 -1 -1.8183446e-05 -3.5427693e-05 0
-0.15909092 0.11748929 0.34503734 1 -3.0156838e-05 -8.9396919e-05 0
0.15909092 0.11471084 0.34538963 -1 -3.1408366e-05 -3.7472561e-05 0
-0.15909092 0.12538433 0.3428373 1 -3.7914699e-05 -5.2118728e-05 0
0.15909092 0.12458482 0.34312013 -1 9.3951221e-06 -1.4781531e-05 0
-0.15909094 0.13707323 0.3475408 0.98847175 -0.15100889 0.010948544 0.01530925
0.15909092 0.13714537 0.34400672 -0.97985184 -0.19966972 0.0047275294 0.029484574
-0.15909092 0.14472316 0.34595057 0.92400604 -0.37997025 0.042841278 0.056974053
0.15909092 0.14584595 0.3445062 -0.92424136 -0.38151312 0.01502231 0.057694886
-0.1565273 0.15757571 0.34666169 0.78331369 -0.61887407 0.058434252 0.06771294
-0.14531139 0.15986073 0.34341666 0.40824321 -0.91246092 -0.027432792 0.069297142
-0.13547266 0.15986073 0.34453142 0.16356578 -0.98650837 0.0068913824 0.02410662
-0.12591419 0.15986073 0.34423348 -4.0939263e-05 -1 6.7552173e-05 4.3350054e-05
-0.11494369 0.15986073 0.34653819 -3.4503362e-05 -1 9.2188195e-05 4.9881201e-05
-0.10322206 0.15986073 0.34238413 -1.3258074e-05 -1 7.6252567e-05 4.0620598e-05
-0.084587671 0.15986073 0.34511063 -3.327577e-05 -1 0.00011541979 3.1971977e-05
-0.073674098 0.15986073 0.34875405 -3.986002e-05 -1 8.963346e-05 4.2474425e-05
-0.063604169 0.15986073 0.34615132 -3.1272921e-05 -1 0.0001117487 4.166842e-05
-0.056105923 0.15986073 0.34603786 -1.4176047e-05 -1 7.3930467e-05 3.9103088e-05
-0.049799427 0.15986073 0.34350312 -1.6669605e-05 -1 6.2623309e-05 4.0120569e-05
-0.038318496 0.15986073 0.34297538 -1.5987462e-05 -1 9.2566508e-05 4.1112056e-05
-0.028049285 0.15986073 0.34317327 -7.6105625e-06 -1 6.759206e-05 3.4208373e-05
-0.014835152 0.15986073 0.3430669 -8.5167102e-07 -1 0.0001438484 4.1077583e-05
-0.0028962831 0.15986073 0.34435025 4.6892847e-06 -1 6.9082445e-05 4.0156898e-05
0.0019300082 0.15986073 0.34176263 7.1634986e-06 -1 6.3915897e-05 4.0608593e-05
0.013377951 0.15986073 0.34457177 -1.6824163e-07 -1 5.3169344e-05 4.2353e-05
0.025676537 0.15986073 0.34688258 4.7341302e-07 -1 0.00017017529 4.1595496e-05
0.031897124 0.15986073 0.3469989 4.2941565e-06 -1 0.00011033819 4.0709354e-05
0.043235436 0.15986073 0.34707445 1.9254267e-06 -1 9.1498478e-05 3.9820665e-05
0.052320361 0.15986073 0.34302557 2.5730027e-05 -1 7.6319331e-05 3.9928276e-05
0.069469914 0.15986073 0.3456991 2.1128413e-05 -1 0.00014189833 4.03378e-05
0.074237071 0.15986073 0.34421974 1.6354994e-05 -1 8.6070584e-05 3.7678128e-05
0.09487839 0.15986073 0.34629458 2.8271035e-05 -1 6.1801074e-05 3.6305482e-05
0.10260534 0.15986073 0.3488048 1.7616119e-05 -1 6.1030525e-05 3.5011784e-05
0.11782554 0.15986073 0.34463656 2.9069501e-05 -1 0.00014361227 3.6750971e-05
0.12341952 0.15986073 0.34139204 3.6953279e-05 -1 0.0001114786 5.126746e-05
0.13544066 0.15986073 0.34446993 -0.17934902 -0.98353189 -0.022337729 0.02523331
0.14412199 0.15986073 0.34365466 -0.35309079 -0.93444669 -0.046220131 0.052057911
0.15712388 0.15658548 0.34307685 -0.70535576 -0.70851535 -0.021890888 0.062482208
-0.15710749 -0.15636103 0.35434848 0.76203358 0.64752662 -0.0037579318 0.078400187
-0.14934605 -0.15832108 0.35509139 0.48127204 0.8763451 -0.019913808 0.072199695
-0.13670549 -0.15832108 0.35273606 0.15396193 0.9880383 -0.008719028 0.023731416
-0.12597173 -0.15832108 0.3597655 0.016329547 0.9969312 -0.076559879 0.0073386068
-0.11331111 -0.15832108 0.35413101 2.3211827e-05 1 -8.4806241e-05 0
-0.10766813 -0.15832108 0.35474271 -2.836263e-08 1 -9.1645081e-05 0
-0.095542505 -0.15832108 0.35464925 7.5577391e-06 1 -7.0433605e-05 0
-0.084528185 -0.15832108 0.35499883 2.6369336e-05 1 -4.2598647e-05 0
-0.075181022 -0.15832108 0.35580549 1.5643462e-05 1 -9.6285054e-05 0
-0.061462004 -0.15832108 0.35631528 5.9301447e-06 1 -0.00010638962 0
-0.056659266 -0.15832108 0.3567355 -0.00021992991 0.99982929 -0.018474806 0.00084050267
-0.046110705 -0.15832108 0.35059434 6.3573711e-06 1 -8.0295722e-05 0
-0.036322583 -0.15832108 0.3546941 2.775251e-06 1 -4.4150762e-05 0
-0.023024255 -0.15832108 0.3536838 8.2260967e-06 1 -0.00013094684 0
-0.018859267 -0.15832108 0.35637552 5.3711697e-06 1 -6.0065104e-05 0
-0.0074239788 -0.15832108 0.35623464 1.2830177e-06 1 -0.00010707661 0
0.0042747669 -0.15832108 0.35354298 -8.7098067e-07 1 -5.5816308e-05 0
0.015006098 -0.15832108 0.35596263 0.00077237323 0.99985355 -0.017100308 0.00084007042
0.025958549 -0.15832108 0.35567361 -7.2544985e-06 1 -9.1937996e-05 0
0.036208417 -0.15832108 0.35716984 -6.1020237e-06 1 -6.0467992e-05 0
0.055234391 -0.15832108 0.35476997 -2.8637496e-05 1 -0.00010460625 0
0.060141895 -0.15832108 0.35780188 -0.0035494466 0.9998008 -0.01963941 0.00035946205
0.078798264 -0.15832108 0.35504222 -4.3534928e-07 1 -0.00011727295 0
0.084323585 -0.15832108 0.3579942 -0.0041085235 0.99949312 -0.031569269 0.0010279588
0.092059709 -0.15832108 0.35241434 -1.4303464e-05 1 -7.5372496e-05 0
0.10257549 -0.15832108 0.35404912 -1.8260217e-06 1 -0.0001216669 0
0.11496363 -0.15832108 0.35435867 8.0411735e-07 1 -9.36871e-05 0
0.12722959 -0.15832108 0.35959238 -0.013158594 0.99914145 -0.039283961 0.0013725532
0.13628088 -0.15832108 0.35560617 -0.13799454 0.98950166 -0.042942282 0.017998943
0.144161 -0.15832108 0.35734993 -0.35942933 0.92909729 -0.087112874 0.054424793
0.15580742 -0.15722276 0.35233626 -0.51846004 0.85420632 -0.039123237 0.073925905
-0.15909092 -0.14245194 0.35442865 0.92423666 0.38171583 0.0089245345 0.063975736
0.15909092 -0.14558481 0.35540557 -0.90826279 0.41607085 -0.044088881 0.073516302
-0.15909092 -0.13715279 0.35239506 0.98317015 0.18267259 0.0026948962 0.033906374
0.15909092 -0.13530439 0.35274392 -0.98014539 0.19827764 -0.0010353491 0.030025756
-0.15909092 -0.12624052 0.35330093 1 1.3416774e-05 -0.00011705564 0
0.15909092 -0.12648603 0.35310742 -1 1.130856e-05 -4.0504881e-05 0
-0.15909094 -0.11542009 0.35561344 1 -9.3553399e-06 -3.8695856e-05 0
0.15909091 -0.11465789 0.35952535 -0.99907154 -0.0053202044 -0.042752922 0.0018771137
-0.15909092 -0.10534623 0.35610074 1 -1.0662957e-05 -3.9254759e-05 0
0.15909092 -0.10520344 0.35512868 -1 8.4569529e-06 -6.1665902e-05 0
-0.15909092 -0.095151238 0.35410571 1 1.9930501e-05 -4.6225683e-05 0
0.15909092 -0.091402411 0.35728028 -0.99960244 0.00337874 -0.027992057 0.0012907685
-0.15909091 -0.085154258 0.35383889 1 1.4828098e-05 -7.9593687e-05 0
0.15909094 -0.086574361 0.35366297 -0.99998653 -9.6652082e-05 -0.0051894337 7.5777934e-05
-0.15909092 -0.075972937 0.35648176 1 -5.3285532e-07 -4.6573685e-05 0
0.15909092 -0.073464289 0.35447776 -1 5.7238053e-06 -5.6425579e-05 0
-0.15909094 -0.065889865 0.35272291 1 -1.1852917e-05 -8.1691098e-05 0
0.15909092 -0.064780176 0.35429692 -1 7.4912368e-06 1.848751e-05 0
-0.15909092 -0.052774597 0.35608271 0.99985206 -0.00046660562 -0.017196434 0.00046409809
-0.15909092 -0.046852626 0.35145894 1 6.5231338e-06 -8.6861452e-05 0
-0.15909094 -0.032066841 0.3555477 0.99993181 0.0013993972 -0.011591217 0.00022551061
0.15909092 -0.034243718 0.35314322 -1 1.348973e-06 1.4110874e-05 0
-0.15909092 -0.025463527 0.35477629 1 -4.9736496e-08 -4.2361709e-05 0
0.15909092 -0.024287786 0.35510772 -1 -2.525004e-07 -1.590484e-05 0
-0.15909092 -0.01324471 0.35791731 0.99889785 -0.015824405 -0.04418844 0.002130734
0.15909092 -0.014321797 0.35543448 -1 2.7097735e-06 -1.7799961e-05 0
-0.15909092 -0.0076131001 0.35108405 1 -2.4692949e-06 -3.429093e-05 0
0.15909092 -0.003780961 0.35665852 -0.99985009 0.0021079807 -0.017186292 0.00061775261
-0.15909092 0.0028854285 0.35411072 1 -4.7277825e-07 -3.8540511e-05 0
0.15909092 0.0056061209 0.35545525 -1 -1.0469261e-05 -6.7950328e-05 0
-0.15909092 0.01301807 0.35382098 1 1.7950815e-05 -0.00010819709 0
0.15909092 0.016247377 0.35866413 -0.99935931 0.00077168655 -0.03578382 0.0014070714
-0.15909092 0.02296491 0.35653159 0.99980545 0.0018668193 -0.019635685 0.00081500248
0.15909091 0.025620636 0.35470816 -1 -6.9150642e-06 -0.00010100842 0
-0.15909092 0.032684118 0.35313219 1 -8.313129e-06 -3.2074237e-05 0
0.15909092 0.035985328 0.35669553 -1 -8.1201551e-06 -4.2531214e-05 0
-0.15909094 0.047581464 0.35704648 0.99961901 -0.0012625599 -0.02757341 0.00092742842
0.15909092 0.044420399 0.35389149 -1 -2.3515136e-06 -6.6127599e-05 0
-0.15909094 0.054478485 0.35402882 1 -1.7766148e-05 -5.2939602e-05 0
0.15909092 0.054689076 0.35360244 -1 -3.9643737e-06 -6.7303336e-05 0
-0.15909094 0.065641835 0.35262164 1 -1.5558438e-05 -5.3764124e-05 0
0.15909092 0.065031551 0.35254696 -1 2.7767212e-06 1.9053641e-05 0
-0.15909092 0.073813178 0.35306564 1 -1.5128228e-05 -9.6463336e-05 0
0.15909092 0.075636126 0.35536125 -0.99993664 0.0020880494 -0.011065666 0.00034709607
-0.15909092 0.080430709 0.35952961 0.99955809 -0.0065797502 -0.028989846 0.0010604247
0.15909092 0.085212536 0.35623837 -1 -1.0829084e-05 -1.8385705e-05 0
-0.15909092 0.09547998 0.35340747 1 1.0608077e-05 -7.9674915e-05 0
0.15909092 0.094665945 0.35467336 -1 -2.2888635e-05 -3.0693507e-05 0
-0.15909094 0.10256537 0.35588431 0.99996293 -0.0016783647 -0.0084483223 0.00015863535
0.15909092 0.10511106 0.35608315 -0.99983954 -0.0017907827 -0.017822897 0.00081632746
0.15909092 0.11579151 0.35524926 -1 1.3985853e-06 -6.2532752e-05 0
-0.15909092 0.12606084 0.35630774 0.99979037 -0.020371016 -0.0020718311 0.0014020867
0.15909092 0.12673564 0.35297275 -0.99999946 -0.00097922958 -0.00025711252 0
-0.15909094 0.13772388 0.35477167 0.98545802 -0.16926761 0.014867927 0.021845812
-0.15909092 0.14260483 0.35307539 0.96601564 -0.25848344 0.00019039915 0.041458488
0.15909094 0.14328229 0.35313958 -0.96435505 -0.26457906 0.0041451883 0.042873349
-0.15459171 0.15520363 0.35289389 0.72030497 -0.69219047 -0.045090303 0.081371956
-0.14819263 0.15986073 0.3543818 0.52185696 -0.85194945 -0.042981155 0.073914617
-0.13662091 0.15986073 0.35377774 0.17398512 -0.98401511 -0.037992373 0.028654143
-0.12605131 0.15986073 0.35590735 0.02379827 -0.99970824 -0.0041420027 0.0018590406
-0.11812871 0.15986073 0.3531794 -4.3514716e-05 -1 0.00011984239 4.1854342e-05
-0.10671531 0.15986073 0.35429621 2.6054479e-06 -1 0.00014628813 4.4011314e-05
-0.084691286 0.15986073 0.35529345 -1.9424659e-05 -1 7.4237447e-05 3.632349e-05
-0.076496445 0.15986073 0.35912523 -0.0052438038 -0.9988358 -0.047953676 0.0025116664
-0.067908809 0.15986073 0.35397303 -4.7586454e-05 -1 9.0268979e-05 3.5295368e-05
-0.055183079 0.15986073 0.35684088 -0.0013535592 -0.99992704 -0.012002621 0.00038930148
-0.044653099 0.15986073 0.35419932 -1.1349294e-05 -1 0.00011218247 3.5471949e-05
-0.032828283 0.15986073 0.35547057 -1.1799862e-05 -1 0.00013786578 3.5591929e-05
-0.02384492 0.15986073 0.35574484 5.780243e-07 -1 0.00014675118 3.5203811e-05
-0.014091119 0.15986073 0.35606849 1.0683229e-05 -1 0.00016743429 3.9489318e-05
-0.0033956084 0.15986073 0.35320199 8.7006333e-07 -1 0.00014111161 4.0734216e-05
0.0062675369 0.15986073 0.35553846 1.0140365e-05 -1 0.00014078207 3.9155919e-05
0.013974033 0.15986073 0.35671782 0.00051693688 -0.99981487 -0.019238098 0.0010639167
0.020293571 0.15986073 0.35127199 -6.4274582e-06 -1 0.00016667567 3.9440863e-05
0.034753397 0.15986073 0.3545869 2.7330711e-06 -1 0.00010949654 3.5167741e-05
0.046769947 0.15986073 0.3570244 -0.0045263018 -0.99985927 -0.016156269 0.00053044455
0.052461475 0.15986073 0.35179642 2.9285749e-05 -1 0.00014658066 4.1300507e-05
0.063139863 0.15986073 0.35587168 5.1356778e-06 -1 9.159738e-05 4.8868387e-05
0.076228455 0.15986073 0.35700074 0.0006665471 -0.99996263 -0.0086268811 0.00018675745
0.083947949 0.15986073 0.35473683 -3.2264331e-06 -1 6.1072758e-05 4.3994929e-05
