# .PCD v0.7 - Point Cloud Data file format
VERSION 0.7
FIELDS x y z normal_x normal_y normal_z curvature
SIZE 4 4 4 4 4 4 4
TYPE F F F F F F F
COUNT 1 1 1 1 1 1 1
WIDTH 678
HEIGHT 1
VIEWPOINT 0 0 0 1 0 0 0
POINTS 678
DATA ascii
0.19387755 -0.055409979 -0.0069664046 -1 4.8877973e-06 4.2660429e-07 0
-0.19387755 -0.046921059 -0.0058323517 1 -0 -0 0
0.19387753 -0.042192142 -0.0066923206 -1 3.745205e-09 -1.5011461e-06 0
-0.19387755 -0.037770331 -0.00020234287 1 2.126736e-06 2.1387318e-07 0
0.19387753 -0.038013283 -0.0034637793 -1 -2.1146072e-06 -3.0868151e-07 0
-0.19387755 -0.021520123 -0.0035505444 1 3.8278295e-06 6.2488579e-07 0
0.19387755 -0.026036015 -0.0035783616 -1 -1.5839503e-06 -7.3994028e-07 0
-0.19387755 -0.017300662 -0.0031387461 1 -0 -0 0
0.19387753 -0.018154962 -0.0070422008 -1 4.8512611e-06 5.6054688e-07 0
-0.19387755 -0.00074349949 -0.0016093012 1 -6.4885256e-08 3.3659667e-08 0
0.19387755 -0.0032643382 -0.0037088599 -1 2.8525326e-07 7.3041565e-07 0
-0.19387755 0.0062774876 -0.0049119117 1 -5.042898e-07 -2.496391e-07 0
0.19387755 0.0025119251 -0.0029502176 -1 -1.1605699e-07 3.4291858e-07 0
-0.19387755 0.015415249 -0.0038575558 1 6.8033621e-08 -5.0731188e-07 0
0.19387755 0.011353076 -0.0076633692 -1 4.6787864e-08 1.4232407e-06 0
-0.19387755 0.024326254 -0.0017259419 1 6.1095229e-06 -2.5728241e-07 0
0.19387755 0.024116699 -0.0047604665 -1 2.284715e-06 -4.1009793e-07 0
-0.19387755 0.035995379 -0.0020819085 1 -5.7815632e-09 -1.26148e-07 0
0.19387753 0.035689373 -0.0031651605 -1 -2.1884446e-06 1.1609023e-07 0
-0.19387756 0.04513457 -0.0056982669 1 -1.1694677e-05 -1.0148677e-06 0
-0.19387755 0.056908458 -0.0058260392 1 4.4278795e-06 -4.5862836e-07 0
0.19387755 0.054996558 -0.005969597 -1 1.261383e-05 -4.2495043e-07 0
-0.19387755 0.065662347 -0.0027660772 1 -2.7813018e-08 2.2891683e-07 0
0.19387755 0.065726325 -0.004643321 -1 -6.1395699e-06 -2.185498e-06 9.967097e-06
-0.19387755 0.078549527 -0.0028265715 1 -1.6563657e-05 -3.7326777e-07 0
0.19387755 0.075765572 -0.0045279874 -1 -4.4467024e-06 1.7719231e-06 0
-0.19387755 0.088403881 -0.007780984 1 -1.8121638e-05 2.4356139e-06 0
0.19387755 0.083118349 -0.0094151534 -1 -1.6528063e-05 -8.0876339e-07 0
-0.19387753 0.094967902 -0.0056829937 1 -1.664776e-05 3.4983586e-07 0
-0.19387753 0.10330087 -0.0037748839 1 -1.447839e-05 -4.3566234e-07 0
0.19387755 0.10462535 -0.0040753521 -1 9.4131046e-06 6.7002354e-08 0
-0.19387753 0.11459615 -0.004616119 1 -8.9488176e-06 7.9948748e-08 0
0.19387753 0.11383005 -0.0070240698 -1 9.3506051e-06 8.5995703e-07 0
-0.19387755 0.12602875 -0.005768518 1 -9.0447293e-06 6.0441334e-07 0
0.19387753 0.12728129 -0.0066092932 -1 1.803411e-05 3.8118287e-07 0
-0.19387755 0.13193245 -0.0059431195 1 8.7051985e-06 8.6096298e-07 0
0.19387756 0.13474301 -0.0068527423 -1 2.6396172e-05 1.9377828e-06 0
-0.19387755 0.14567113 -0.0035827113 1 2.8083672e-05 4.7514322e-06 0
0.19387755 0.1456452 -0.0011041015 -1 8.5593265e-06 2.6834235e-07 0
0.19387755 0.15201071 -0.0092643239 -1 -7.5253743e-06 1.4533172e-06 0
-0.19387755 0.16712561 -0.0021193307 0.99716926 -0.075102694 0.0036198914 0.011549044
0.19387753 0.16144915 -0.0039084353 -1 1.4726549e-05 9.3054655e-07 0
-0.19387753 0.17592661 -0.0054587531 0.96000826 -0.27995592 0.0029585818 0.053360395
0.19387755 0.17441043 -0.0029713565 -0.98359597 -0.1799771 0.012126875 0.040497538
-0.19387755 0.18605104 -0.0012548706 0.86412001 -0.50285697 -0.020770395 0.07096763
0.19387755 0.18019241 -0.0078209797 -0.95601743 -0.29264686 -0.01971193 0.053622954
-0.19272746 0.19224644 -0.0032007773 0.61009514 -0.79126143 -0.041099925 0.09754739
-0.18281414 0.19387755 -0.0072884709 0.35024363 -0.93637359 -0.023105741 0.080353379
-0.17655283 0.19387755 -0.0064649731 0.24078652 -0.97057176 -0.0035110507 0.047761198
-0.16477962 0.19387755 -0.0038418353 0.0055928444 -0.99998432 -0.0002832493 0.00012311198
-0.15288499 0.19387755 -0.0061201216 -8.9402756e-06 -1 -3.4676316e-07 0
-0.14267763 0.19387755 -0.0022472739 3.7299204e-05 -1 -2.9416998e-07 0
-0.13570978 0.19387753 -0.0073563405 8.6249656e-06 -1 6.1294236e-07 0
-0.12257894 0.19387755 -0.0047153234 1.5678444e-05 -1 1.6529092e-06 0
-0.11452196 0.19387753 -0.0061674491 -1.8720229e-05 -1 -1.2845774e-07 0
-0.10382586 0.19387756 -0.0048101139 1.6544293e-05 -1 8.9602446e-07 0
-0.093786538 0.19387753 -0.0078542801 1.5940303e-05 -1 1.1636848e-06 0
-0.084019884 0.19387755 -0.0028289841 2.3496243e-05 -1 1.483013e-06 0
-0.074470952 0.19387755 -0.0044522136 -4.2042934e-06 -1 9.7937345e-07 0
-0.0646846 0.19387755 -0.009069426 -9.3888711e-06 -1 -2.2871671e-07 0
-0.053261161 0.19387755 -0.0063080764 4.365218e-06 -1 -1.0016111e-06 0
-0.045726221 0.19387755 -0.0056632962 4.2308852e-06 -1 -1.3319349e-06 0
-0.034663081 0.19387756 -0.0055891913 2.1355979e-06 -1 -5.5164645e-07 0
-0.023652812 0.19387753 -0.0067464351 2.1016599e-06 -1 3.4829944e-07 0
-0.015269556 0.19387753 -0.0083497623 2.6950963e-06 -1 2.0067085e-07 0
-0.0056132493 0.19387755 -0.0059207836 9.6238978e-07 -1 -4.6173821e-07 0
0.0093293041 0.19387755 -0.00067022629 -2.5610577e-06 -1 1.7880336e-07 0
0.01613876 0.19387755 -0.005946883 2.8127991e-08 -1 -6.2826177e-07 0
0.023454182 0.19387753 -0.0045590936 1.7212479e-06 -1 -2.1879288e-08 0
0.046307571 0.19387755 -0.0017028153 -4.1097019e-06 -1 2.220772e-07 0
0.057143264 0.19387755 -0.0050044451 -4.2189504e-06 -1 1.0985602e-06 0
0.065746263 0.19387755 -0.0041848086 -1.1981381e-05 -1 5.3738455e-07 0
0.072497755 0.19387755 -0.0071521103 -9.7082566e-06 -1 -4.1333205e-08 0
0.085865818 0.19387753 -0.0038319454 -1.520535e-08 -1 4.9799434e-07 0
0.09553095 0.19387756 -0.0062967786 1.5163504e-05 -1 3.6408761e-07 0
0.10420631 0.19387755 -0.0048061013 -1.988957e-05 -1 -1.4538596e-06 0
0.11494379 0.19387755 -0.0025553554 9.2718419e-06 -1 -7.0385238e-07 0
0.12353203 0.19387755 -0.0057869554 0 -1 0 0
0.13335216 0.19387755 -0.0047630146 0 -1 0 0
0.14554834 0.19387755 -0.0078407563 8.3944333e-06 -1 -2.6642536e-07 0
0.15795851 0.19387755 -0.0046896413 2.0662153e-05 -1 -1.2805767e-06 0
0.16195156 0.19387753 -0.0046863854 -1.4662507e-05 -1 -3.0405442e-07 0
0.17956996 0.19387755 -0.0064735375 -0.34645531 -0.93804085 0.0069354586 0.067116186
0.18470101 0.19387755 -0.0021717935 -0.42570016 -0.90485579 -0.0039295689 0.072590351
0.19387755 0.19248626 -0.0048149116 -0.74035233 -0.67164081 -0.027875908 0.080382802
-0.19300735 -0.19387755 0.0017958209 0.68185812 0.72999817 -0.046607051 0.099093899
-0.18840894 -0.19387755 0.0080046505 0.47934002 0.87716591 0.028515778 0.062891997
-0.17583695 -0.19387756 0.0059801596 0.26095879 0.96367824 -0.056787066 0.056486748
-0.16638924 -0.19387753 0.0041871071 0.022766771 0.99974054 0.00072717818 0.0021794573
-0.15427168 -0.19387755 0.0054899482 1.851755e-05 1 -8.6171769e-07 0
-0.14595415 -0.19387755 0.0072042346 1.4530273e-05 1 -5.6561039e-08 0
-0.13489053 -0.19387755 0.0040859357 -4.6900888e-05 1 -1.8018808e-06 9.7599441e-06
-0.12411445 -0.19387753 0.0018162578 1.8095026e-05 1 3.5301619e-07 0
-0.11599637 -0.19387756 0.0059581613 7.5627045e-06 1 -2.7947824e-06 0
-0.10486262 -0.19387755 0.0065906867 -1.9004347e-05 1 -1.6939147e-06 0
-0.098701157 -0.19387755 0.0087008923 1.7904442e-05 1 -1.0649834e-06 0
-0.076831378 -0.19387755 0.0034085363 -5.2311719e-08 1 -4.1245673e-07 0
-0.063557319 -0.19387755 0.0045103133 -0 1 -0 0
-0.055535275 -0.19387756 0.0046123601 -8.7656199e-06 1 2.7412923e-06 9.0655994e-06
-0.036564153 -0.19387755 0.0087688714 -0 1 -0 0
-0.022945561 -0.19387755 0.0011695176 1.2968327e-06 1 -1.8320632e-07 0
-0.01689845 -0.19387755 0.0032161027 -1.5209541e-06 1 4.1572221e-07 0
-0.0050490904 -0.19387755 0.004801291 3.6803009e-08 1 -6.262249e-07 0
0.0045549516 -0.19387755 0.0063830866 -0 1 -0 0
0.013649135 -0.19387753 0.0079611037 1.1127331e-06 1 4.2664439e-08 0
0.020006321 -0.19387755 0.0076674223 2.1277197e-07 1 1.0627775e-06 0
0.035029858 -0.19387755 0.0030594035 -2.0481521e-06 1 -3.5791055e-07 0
0.045845296 -0.19387755 0.0069898013 -3.695565e-09 1 -4.8570632e-07 0
0.052715305 -0.19387755 0.0074605071 -8.8782599e-06 1 -1.5965429e-06 0
0.065638937 -0.19387755 0.0013212338 1.8400163e-08 1 2.3810638e-07 0
0.07542181 -0.19387755 0.0038619644 1.0239766e-07 1 7.116513e-07 0
0.084620625 -0.19387755 0.0033601234 2.0108138e-05 1 6.92676e-07 1.0735348e-05
0.096010782 -0.19387755 0.0048998613 2.3550239e-05 1 -5.9807239e-06 0
0.10092976 -0.19387755 0.0076321065 8.0220952e-06 1 2.1901141e-07 0
0.11568996 -0.19387753 0.0035348188 -0 1 -0 0
0.12431742 -0.19387755 0.0079431981 -2.4946935e-08 1 5.4266962e-07 0
0.13528489 -0.19387755 0.0033599827 -8.7575308e-06 1 3.6101443e-07 0
0.14394535 -0.19387753 0.0078227865 -1.5926451e-05 1 -9.2648378e-08 0
0.15758263 -0.19387753 0.0041025332 -1.9353301e-05 1 -8.8693525e-07 0
0.16464794 -0.19387753 0.0060792863 -0.0065565798 0.99997824 -0.00080954231 4.9125199e-05
0.1708152 -0.19387755 0.001467295 -0.074577548 0.99699038 -0.021176444 0.0097150365
0.18916786 -0.19387755 0.001741305 -0.55163103 0.8330465 -0.041675158 0.081485555
0.19384491 -0.19387755 0.0040162206 -0.69983506 0.71298438 -0.043407232 0.08981473
-0.19387755 -0.18780395 0.0040440904 0.81982625 0.56078905 -0.11576077 0.074879035
0.19387755 -0.18294176 0.0088914391 -0.90940672 0.41519254 0.024385767 0.089573503
-0.19387755 -0.1736117 0.0093323868 0.97551411 0.21033868 -0.064263567 0.037888259
0.19387753 -0.1735888 0.0036609247 -0.98615479 0.1532146 0.063436426 0.034238696
-0.19387755 -0.16443162 0.0048048133 0.99999005 0.0043718591 0.0009428538 3.2388813e-05
0.19387755 -0.16109453 0.0056450665 -1 1.7288243e-05 1.5346745e-07 0
-0.19387755 -0.15280567 0.0074369013 1 9.1036918e-06 1.8736472e-07 0
0.19387755 -0.15522006 0.0042804033 -1 9.1691727e-06 1.2405745e-06 0
-0.19387755 -0.14417699 0.0029552421 1 1.5490628e-05 -5.9888077e-07 0
0.19387755 -0.14630914 0.0042895023 -1 -8.6445143e-06 -3.311109e-07 0
-0.19387753 -0.13348828 0.0061584511 1 1.9028341e-05 1.9593031e-06 0
0.19387753 -0.13385592 0.0021206539 -1 -2.2640877e-05 -2.1779907e-07 0
-0.19387755 -0.12513405 0.0071674632 1 -9.1908905e-06 -1.2501305e-07 0
0.19387755 -0.12714913 0.006383446 -1 -8.828456e-06 1.8877532e-06 0
-0.19387755 -0.11345879 0.0048911944 1 3.4892768e-08 -3.0206959e-07 0
0.19387753 -0.11791819 0.0048684329 -1 1.4955411e-05 -2.0045941e-06 0
-0.19387753 -0.10569298 0.0038888629 1 -2.8010318e-08 -2.941608e-07 0
0.19387756 -0.10578623 0.0052705654 -1 -2.7277867e-05 4.3567247e-06 0
-0.19387753 -0.094685189 0.0026342571 1 -8.7640647e-06 2.7397882e-06 0
0.19387753 -0.094604246 0.0071141222 -1 1.2074035e-07 1.18019e-06 0
-0.19387755 -0.084188968 0.0047541969 1 6.7003496e-09 3.2551426e-07 0
0.19387756 -0.085622586 0.0065582879 -1 -1.804712e-05 -7.9464019e-07 0
-0.19387755 -0.074275419 0.0030172765 1 -0 -0 0
0.19387756 -0.075211957 0.0093886852 -1 -4.6280802e-06 1.3877506e-07 0
-0.19387755 -0.061319299 0.0069123395 1 9.5382411e-06 -8.0376282e-07 0
0.19387755 -0.062281504 0.0060517755 -1 7.5952466e-06 1.3060677e-06 0
-0.19387755 -0.059694365 0.004692167 1 9.1799657e-06 7.8743106e-08 0
0.19387753 -0.052777156 0.0044301511 -1 3.6197228e-08 -6.5416037e-07 0
-0.19387756 -0.045071974 0.0033457291 1 3.6721531e-06 4.7860738e-08 0
0.19387755 -0.044592999 0.0050437152 -1 4.1104413e-06 -9.1796448e-07 0
0.19387753 -0.034524139 0.0077268393 -1 4.2876204e-06 -2.1216192e-06 0
-0.19387755 -0.027126849 0.0040126685 1 2.2347292e-06 -2.4799195e-07 0
0.19387755 -0.021393143 0.0079765171 -1 1.038037e-06 -5.0054285e-07 0
-0.19387755 -0.017622568 0.0059606731 1 3.1038098e-06 -6.8763092e-07 0
0.19387753 -0.013757813 0.0068711527 -1 -1.7999427e-07 -1.384935e-06 0
-0.19387753 -0.0061613717 0.0042657242 1 6.7540094e-07 -3.2748645e-07 0
0.19387756 -0.0057400218 0.0050093844 -1 6.2247369e-07 -6.886674e-08 0
-0.19387753 0.0036278367 0.0050427294 1 -8.2256707e-07 4.9766083e-08 0
0.19387756 0.0061430694 0.0046464223 -1 -1.1251632e-06 -1.0797672e-06 0
-0.19387756 0.016467832 0.005865539 1 -2.4022604e-06 8.1342733e-07 0
0.19387755 0.019328758 0.0045259744 -1 -1.0160661e-06 -4.8543035e-07 0
-0.19387756 0.025842668 0.0063853026 1 4.1967814e-06 -4.7141009e-07 3.0286459e-05
0.19387755 0.025495684 0.0052461987 -1 2.3439082e-08 -5.3294144e-07 0
-0.19387756 0.035731461 0.006120523 1 1.9303168e-06 2.6242908e-06 1.8582612e-05
0.19387755 0.030910209 0.0015420169 -1 2.1829442e-06 2.8577392e-07 0
0.19387755 0.045550425 0.0046278834 -1 -1.5534154e-08 -4.0752477e-07 0
-0.19387755 0.051645964 0.0037111714 1 -1.9238653e-08 -5.7129063e-07 0
0.19387755 0.053370789 0.0051356852 -1 -4.0027098e-06 -2.8776256e-07 0
0.19387755 0.063825913 0.0044737831 -1 -2.2038812e-08 4.6436426e-07 0
-0.19387755 0.078485653 0.0038779937 1 0 0 0
0.19387753 0.073988818 0.0045767799 -1 -1.26893e-05 -9.653503e-07 0
-0.19387755 0.083724059 0.0071126483 1 2.7112847e-07 -1.5513579e-06 0
0.19387755 0.086340547 0.0027567968 -1 -8.074313e-06 4.1556189e-07 0
-0.19387755 0.094497018 0.0062667988 1 -9.136781e-06 -3.5214106e-07 0
0.19387753 0.094142072 0.0090100141 -1 2.7558715e-05 6.2778247e-07 0
-0.19387753 0.10409706 0.0033943902 1 -3.0201212e-05 -1.6687711e-06 0
0.19387755 0.10186151 0.0048708068 -1 7.6040906e-06 1.4554389e-06 0
-0.19387755 0.11875249 0.0067787617 1 7.5157141e-06 -1.7152398e-07 0
0.19387755 0.11567405 0.006449474 -1 2.703555e-05 -6.0281826e-07 0
-0.19387755 0.12783766 0.0080692992 1 -1.8208788e-05 4.1269604e-07 0
0.19387755 0.12432794 0.0040931394 -1 9.6582125e-06 4.9620036e-07 0
-0.19387755 0.13019747 0.005121015 1 0 0 0
0.19387753 0.13569821 0.0054272958 -1 -8.224235e-06 -1.9416655e-06 0
-0.19387755 0.14035535 0.0022240281 1 2.7385642e-05 2.9018129e-06 0
0.19387753 0.14683928 0.0046887002 -1 2.3952758e-05 -1.0825423e-06 0
-0.19387755 0.15432365 0.0040920153 1 5.7323275e-09 -2.4523024e-07 0
0.19387755 0.16573466 0.0044128005 -0.99954426 -0.029801553 0.0048199478 0.0034215301
-0.19387755 0.1759108 0.0048352554 0.95569134 -0.29403332 -0.014091676 0.052288949
0.19387755 0.17539981 0.005161697 -0.97001469 -0.24224515 -0.019719599 0.046798237
-0.19387753 0.18363915 0.0037648624 0.92633998 -0.37587187 -0.024792032 0.056860108
0.19387753 0.18372549 0.0052196286 -0.91342521 -0.40547878 -0.035233103 0.065041646
-0.19369841 0.19387755 0.00363563 0.68011194 -0.73219877 -0.036507517 0.080906689
-0.18509765 0.19387755 0.0037458055 0.41627336 -0.90902239 -0.019868115 0.09018258
-0.17467538 0.19387755 0.0031329901 0.21379089 -0.97614866 -0.037779041 0.042052563
-0.16333938 0.19387753 0.0020784091 0.0070482744 -0.99997509 -0.00028098447 0.00014615436
-0.15550533 0.19387755 0.0080261305 8.2717392e-08 -1 -2.3160449e-06 0
-0.1459263 0.19387755 0.0031996667 8.3782024e-06 -1 4.3243278e-07 0
-0.13605508 0.19387755 0.0064236261 1.6357142e-05 -1 -3.6919531e-07 0
-0.12315794 0.19387755 0.003756392 -1.6949387e-05 -1 6.2348238e-07 0
-0.11699024 0.19387755 0.0033200085 7.7763043e-06 -1 -1.4503291e-07 0
-0.10332962 0.19387755 0.0052026706 -6.3831685e-08 -1 6.6105889e-07 0
-0.094743229 0.19387756 0.0035928686 2.2134209e-05 -1 -2.3753087e-06 0
-0.086446673 0.19387755 0.0056041256 2.9019697e-08 -1 5.6508037e-07 0
-0.075496644 0.19387753 0.0039430261 3.4136833e-09 -1 -2.7138768e-07 0
-0.064945556 0.19387755 0.0045872582 3.8232656e-06 -1 -1.1021621e-10 0
-0.055779353 0.19387755 0.0092222188 -5.3403128e-06 -1 -7.2423308e-07 0
-0.036564227 0.19387756 0.0069068279 0 -1 0 0
-0.024150783 0.19387753 0.0032796774 -2.4927438e-06 -1 -1.5640111e-08 0
-0.015684385 0.19387755 0.0070897769 1.4170876e-06 -1 5.7036527e-07 0
-0.0044483999 0.19387755 0.0053777155 -5.6739754e-07 -1 9.4937553e-07 0
0.0012003817 0.19387753 0.0045582266 3.9087304e-08 -1 -5.1916209e-07 0
0.014347669 0.19387755 0.0022410098 1.047498e-06 -1 -3.355256e-08 0
0.026577938 0.19387755 0.0070435219 -2.0906948e-06 -1 -3.5472816e-08 0
0.037321761 0.19387755 0.0059808195 1.0224544e-07 -1 -9.566603e-07 0
0.043256078 0.19387756 0.0039966893 1.0864633e-08 -1 -1.414685e-07 0
0.053278126 0.19387755 0.0055394657 -1.3374854e-05 -1 -1.9181869e-06 0
0.06439615 0.19387753 0.0044833473 -1.2237943e-05 -1 -1.4042678e-06 0
0.074924178 0.19387756 0.0041801301 8.0358923e-06 -1 -2.062061e-07 0
0.083666794 0.19387753 0.0060462058 0 -1 0 0
0.093184032 0.19387755 0.0044624787 -7.41394e-08 -1 7.3892181e-07 0
0.10290597 0.19387755 0.004938954 0 -1 0 0
0.11399893 0.19387753 0.0051202825 8.0161566e-09 -1 -2.7354332e-07 0
0.13755554 0.19387753 0.0027989447 1.7186438e-05 -1 -1.4513414e-06 0
0.14391018 0.19387753 0.0053905845 -1.6055379e-05 -1 -1.1043837e-06 0
0.15482825 0.19387755 0.0072143413 -7.7298155e-06 -1 -2.6948778e-06 0
0.17262761 0.19387756 0.0066413432 -0.17385828 -0.98463118 0.016577721 0.032279883
0.18707502 0.19387755 0.00092479587 -0.52178955 -0.85235041 -0.03513366 0.099103391
-0.19269547 -0.19262913 0.015614641 0.73298019 0.67550898 -0.080172643 0.090172581
-0.18661694 -0.19387753 0.017024556 0.62263006 0.77924991 -0.071424954 0.085290574
-0.17466864 -0.19387755 0.014364798 0.17763381 0.98406589 -0.0077761044 0.042660829
-0.15483579 -0.19387755 0.014946103 -0 1 -0 0
-0.13354915 -0.19387755 0.015370935 -1.5523074e-05 1 -1.8273155e-06 0
-0.12833017 -0.19387755 0.018165827 -3.6909515e-08 1 1.0759367e-06 0
-0.10446831 -0.19387753 0.013646767 7.8027633e-06 1 6.4800616e-07 0
-0.094650231 -0.19387753 0.015831275 -2.2770751e-05 1 -1.5827331e-06 9.0902904e-06
-0.08838363 -0.19387755 0.011786863 7.6118445e-06 1 7.0114432e-08 0
-0.07474719 -0.19387755 0.015105121 -5.8280399e-08 1 1.0712056e-06 0
-0.063223749 -0.19387753 0.017178297 -1.9023613e-05 1 3.4812933e-06 1.8341121e-05
-0.055088285 -0.19387756 0.016422093 -8.4601916e-06 1 -4.7529721e-07 0
-0.045860965 -0.19387753 0.016275415 -5.4643633e-06 1 6.3281514e-06 9.0592912e-06
-0.033269152 -0.19387755 0.013373852 7.8259426e-08 1 1.0536767e-06 0
-0.028917074 -0.19387755 0.016681477 -3.3176544e-08 1 -1.0981111e-06 0
-0.015477324 -0.19387755 0.015644338 -8.2750801e-10 1 -2.0444766e-06 0
-0.0024812259 -0.19387753 0.016936364 4.186888e-08 1 -2.2055924e-06 0
0.0043569938 -0.19387755 0.015199358 -3.0214247e-07 1 3.5268745e-06 0
0.013309788 -0.19387755 0.014495414 -9.0677355e-07 1 -5.2933151e-06 0
0.024695205 -0.19387755 0.015924912 -1.6707032e-06 1 -2.6481378e-06 0
0.036952179 -0.19387755 0.018522628 4.9223609e-06 1 1.2463877e-06 0
0.042388678 -0.19387755 0.01640089 -1.1682881e-07 1 2.464516e-06 0
0.053213406 -0.19387755 0.01699011 1.1425524e-05 1 4.9507507e-06 0
0.062544823 -0.19387755 0.012232415 9.5772448e-06 1 4.6808573e-06 0
0.07374087 -0.19387755 0.013523009 6.1156093e-06 1 2.9526577e-06 0
0.089118525 -0.19387755 0.015066274 6.9768244e-06 1 2.0473885e-06 0
0.10106418 -0.19387755 0.012388982 7.8763032e-06 1 1.4463565e-06 0
0.11563138 -0.19387753 0.014550666 7.3751517e-06 1 -1.0718885e-06 0
0.12460816 -0.19387753 0.01330703 -1.6550664e-05 1 -1.5338017e-07 0
0.1362901 -0.19387755 0.01510904 8.9347341e-06 1 -2.7429273e-06 0
0.14466938 -0.19387755 0.015305966 -7.8525882e-06 1 5.23474e-07 0
0.15471087 -0.19387755 0.01720487 -0 1 -0 0
0.16752025 -0.19387755 0.0129252 -0.081268609 0.99667478 -0.0058999644 0.011988406
0.17388044 -0.19387753 0.01484027 -0.1653931 0.98571885 -0.031675912 0.035414863
0.18593065 -0.19387755 0.013097212 -0.49948069 0.86624146 -0.012035412 0.093809657
0.19288291 -0.19288899 0.015938943 -0.66514045 0.7455793 0.041227702 0.089967601
-0.19387755 -0.18342446 0.018688934 0.9101792 0.41320461 -0.028909875 0.073390715
0.19387755 -0.18668553 0.01685442 -0.86680508 0.4974184 0.034986071 0.084269494
-0.19387755 -0.17413834 0.015102582 0.97354072 0.2270266 -0.026025543 0.042989586
0.19387755 -0.17540389 0.015194851 -0.98441446 0.17543319 0.012303933 0.036199413
-0.19387755 -0.16533259 0.017182056 0.99936134 0.035191301 0.0062056696 0.0036898546
0.19387755 -0.16706875 0.016804997 -0.99923176 0.038691916 0.006232006 0.0042690109
-0.19387755 -0.15706542 0.018712807 1 0 0 0
0.19387755 -0.15816285 0.019586578 -1 -1.7013945e-05 -2.703438e-06 0
-0.19387755 -0.14606318 0.014463538 1 1.50413e-05 -6.327123e-08 0
0.19387755 -0.14421357 0.018365443 -1 -3.1547745e-05 -1.1817588e-06 0
-0.19387755 -0.13660955 0.016263418 1 -9.1383044e-06 -3.5217488e-06 0
-0.19387753 -0.12594552 0.013248024 1 9.8575633e-08 -1.9698866e-06 0
-0.19387753 -0.11427519 0.014506609 1 -7.7867344e-06 -4.6036394e-07 0
0.19387755 -0.11833298 0.017105047 -1 1.8875326e-05 -1.1234547e-06 0
-0.19387753 -0.10409275 0.015413799 1 1.5284017e-05 2.6964115e-06 0
0.19387755 -0.10599792 0.018295191 -1 0 0 0
-0.19387755 -0.09788429 0.016630523 1 1.4992365e-05 -8.549066e-07 0
0.19387753 -0.096245758 0.017036362 -1 8.033544e-06 -1.6880714e-06 0
-0.19387756 -0.085522264 0.015000264 1 1.1141535e-07 -8.8865227e-07 0
0.19387755 -0.08473511 0.016098894 -1 -8.5738266e-06 -2.1761755e-06 0
-0.19387755 -0.075468272 0.015952205 1 8.8946617e-06 4.6894058e-07 0
0.19387756 -0.077248856 0.011371687 -1 7.2056023e-06 -2.6406065e-06 0
-0.19387755 -0.066224337 0.011809193 1 -7.901258e-06 -4.3845682e-07 0
0.19387755 -0.06385377 0.015127726 -1 4.6340119e-06 5.4604487e-07 0
-0.19387755 -0.0540406 0.014923021 1 8.2904999e-06 -3.6720442e-06 0
0.19387755 -0.054000117 0.016520225 -1 1.3358279e-08 -2.0909729e-06 0
-0.19387755 -0.043556206 0.014591097 1 4.3593618e-06 -3.4825682e-06 0
0.19387755 -0.044769004 0.01937311 -1 -5.2669652e-06 -2.1564285e-06 0
-0.19387755 -0.037771881 0.015306827 1 5.6537106e-06 -4.080513e-06 0
0.19387756 -0.034781262 0.016556097 -1 3.792627e-06 -3.8271196e-06 0
-0.19387753 -0.025085339 0.01647692 1 -1.8771844e-07 -1.4133038e-06 0
0.19387755 -0.020205632 0.012975536 -1 1.8649781e-06 -1.2341969e-06 0
-0.19387755 -0.01593576 0.013969486 1 -2.0187219e-06 -6.0181515e-06 0
0.19387753 -0.013583348 0.013873535 -1 2.2147283e-06 -4.6206243e-09 0
-0.19387755 -0.0062306561 0.017109174 1 3.7607697e-07 -2.6116063e-06 0
0.19387753 -0.0047266069 0.01490662 -1 9.052896e-07 -1.1448521e-06 0
-0.19387756 0.0035570546 0.014416363 1 9.4268685e-08 1.2970007e-06 0
0.19387753 0.0020931133 0.014361373 -1 2.5768145e-07 3.630671e-06 0
-0.19387755 0.013266969 0.010612389 1 -0 -0 0
0.19387755 0.018020198 0.01340948 -1 -2.7908993e-06 5.4824561e-08 0
-0.19387753 0.025357997 0.011338315 1 4.224451e-06 -9.852134e-08 0
0.19387755 0.025294583 0.017897148 -1 -2.6353659e-06 1.0102046e-07 0
0.19387753 0.033915848 0.015901638 -1 -8.763422e-08 2.0753159e-06 0
-0.19387755 0.042448565 0.016261064 1 4.040618e-06 -1.7147445e-06 0
0.19387753 0.044378832 0.01507061 -1 -0 -0 0
-0.19387753 0.055920538 0.014215074 1 1.9305331e-07 1.1539116e-06 0
0.19387755 0.056440648 0.019237876 -1 -5.0516144e-07 -4.4566691e-06 0
-0.19387753 0.062268961 0.016432619 1 6.1383275e-08 -9.3676874e-07 0
0.19387753 0.066649057 0.014313462 -1 0 0 0
-0.19387755 0.074275494 0.012399342 1 4.2888446e-06 2.2225274e-06 0
0.19387756 0.07563027 0.016869413 -1 1.4209148e-07 2.0291754e-06 0
-0.19387755 0.084604919 0.017584678 1 -8.3463292e-06 4.5104093e-06 0
-0.19387755 0.095733911 0.01539384 1 -9.7796183e-06 -1.7710533e-06 0
0.19387755 0.098438554 0.011842199 -1 -1.6741244e-05 7.4117645e-07 0
-0.19387755 0.10736918 0.01544429 1 -1.4330073e-05 -7.20787e-07 0
0.19387753 0.10678204 0.012831029 -1 -6.4187077e-08 -2.8198456e-06 0
-0.19387753 0.11509878 0.014993928 1 1.6437103e-05 -4.1054054e-06 0
0.19387756 0.11492962 0.014722518 -1 1.022158e-05 -3.0358475e-08 0
-0.19387753 0.12744951 0.017663553 1 1.4941054e-07 1.0546295e-06 0
0.19387755 0.12531525 0.011182101 -1 9.3783565e-06 1.1842503e-06 0
-0.19387756 0.13664149 0.015906045 1 -3.5417488e-05 1.6909858e-06 0
0.19387755 0.13705766 0.015158974 -1 -2.7312506e-08 -1.0027218e-06 0
-0.19387755 0.14464271 0.018352499 1 0 0 0
0.19387755 0.14631972 0.0135685 -1 1.6816456e-08 9.624398e-07 0
-0.19387755 0.15543294 0.014549982 1 2.0161377e-05 3.483224e-07 0
0.19387755 0.15968126 0.011131868 -1 -4.3072268e-05 -4.1673729e-06 0
-0.19387753 0.16585235 0.015147273 0.99914134 -0.04047868 0.0088405451 0.0053626159
0.19387756 0.16290624 0.014372587 -1 -2.9295428e-05 3.1169216e-07 0
-0.19387755 0.17738026 0.01702185 0.95597374 -0.29163918 -0.032570165 0.054250047
0.19387753 0.17317444 0.014827024 -0.98881996 -0.14538124 0.033155907 0.028079456
-0.19387755 0.18489078 0.014952434 0.90817213 -0.41829842 -0.015806213 0.064044625
0.19387755 0.18780509 0.016788926 -0.88533926 -0.46422276 -0.025916517 0.062773861
-0.19194217 0.19301479 0.012736474 0.77673429 -0.62836218 -0.04295212 0.086459607
-0.18489446 0.19387755 0.013878238 0.48033434 -0.87643665 -0.033731032 0.089377478
-0.17313866 0.19387755 0.013015781 0.17406265 -0.98473382 -0.0012093035 0.033109937
-0.16397691 0.19387755 0.013539679 0.0037470104 -0.99999279 -0.00064833963 4.2501782e-05
-0.15152837 0.19387753 0.016136194 1.3339945e-07 -1 1.1726376e-06 0
-0.14566678 0.19387755 0.016866952 1.5033862e-07 -1 -1.8268069e-06 0
-0.13723481 0.19387753 0.01604788 3.2376225e-05 -1 -2.325686e-06 0
-0.11493905 0.19387755 0.013519717 2.3513641e-05 -1 4.7978676e-07 0
-0.1059 0.19387755 0.017097944 -2.0851619e-05 -1 1.0780103e-06 0
-0.090382054 0.19387753 0.018356964 8.846825e-06 -1 -2.4814995e-06 0
-0.087315708 0.19387755 0.014470173 8.4985604e-06 -1 1.7202166e-06 0
-0.074316755 0.19387755 0.017831646 8.9874156e-06 -1 6.037979e-08 0
-0.060269196 0.19387755 0.010304075 0 -1 0 0
-0.051852871 0.19387755 0.016715258 4.0429136e-06 -1 -4.8548027e-06 0
-0.045131158 0.19387755 0.018253572 4.1153694e-06 -1 1.0346573e-06 0
-0.033638492 0.19387753 0.01437951 -4.4299723e-06 -1 -3.5032721e-07 0
-0.024899 0.19387753 0.015288748 3.6026786e-06 -1 -2.4265473e-06 0
-0.016009167 0.19387755 0.016097203 1.3214953e-06 -1 -2.9400321e-06 0
-0.0087087415 0.19387755 0.0161024 -2.0271211e-06 -1 -1.4560235e-06 0
0.002453106 0.19387755 0.016971812 8.161328e-07 -1 -2.8070808e-06 0
0.026591266 0.19387755 0.013878806 -4.2026118e-06 -1 -2.829599e-06 0
0.033996012 0.19387753 0.0136118 2.4983729e-06 -1 -1.7449777e-07 0
0.044001613 0.19387753 0.014478336 -4.7718236e-06 -1 -4.0358709e-06 0
0.053860575 0.19387755 0.010832742 -4.555317e-06 -1 5.3374487e-07 0
0.067017078 0.19387755 0.010330066 -2.6891771e-08 -1 -1.0370554e-06 0
0.07641077 0.19387755 0.012359411 4.0893519e-06 -1 -1.5423572e-07 0
0.085149661 0.19387755 0.017927952 8.5549136e-06 -1 -2.4833896e-06 0
0.097238839 0.19387755 0.015644621 -9.5891637e-06 -1 5.6949784e-07 0
0.10406113 0.19387755 0.015999582 1.9465177e-05 -1 1.0638322e-07 0
0.11552116 0.19387755 0.013934592 -1.4836005e-05 -1 -9.4299821e-07 0
0.12943381 0.19387755 0.014193229 -8.3749146e-06 -1 -3.2528803e-06 0
0.13685739 0.19387755 0.018701196 -2.3583489e-05 -1 -4.7757762e-06 0
0.14324009 0.19387755 0.019543692 -9.7664024e-06 -1 -4.3880377e-06 0
0.1542788 0.19387755 0.016970467 -2.5132385e-05 -1 -1.0501361e-06 0
0.1636596 0.19387755 0.010529265 -1.58328e-05 -1 -4.1039279e-06 0
0.17654437 0.19387755 0.012981117 -0.24899544 -0.96840179 -0.014114561 0.049918827
0.18173522 0.19387755 0.012568161 -0.32648179 -0.94443738 0.038048632 0.056382731
0.19387753 0.19144042 0.01595372 -0.85523307 -0.51742524 -0.029112061 0.060958426
-0.18130916 -0.19387753 0.022880256 0.40084195 0.91513336 -0.04308879 0.085012101
-0.17658675 -0.19387753 0.023674196 0.22697137 0.9727819 -0.046684749 0.050751716
-0.16779415 -0.19387756 0.025051137 0.075610466 0.99713534 0.0020481702 0.010424224
-0.15820837 -0.19387755 0.028167278 -2.4802649e-08 1 2.3333096e-06 0
-0.14689958 -0.19387755 0.024494149 3.0252269e-05 1 -2.0816128e-06 0
-0.1370237 -0.19387755 0.025194898 -2.3076238e-05 1 -5.1517063e-06 0
-0.12445138 -0.19387755 0.027521458 7.3174201e-06 1 -4.6783134e-06 0
-0.11235762 -0.19387753 0.026125804 2.8625302e-05 1 -5.3196923e-06 0
-0.10572204 -0.19387755 0.028372228 -0 1 -0 0
-0.095815904 -0.19387753 0.026055427 -7.1132849e-06 1 -4.3619434e-06 0
-0.076079421 -0.19387755 0.027895056 4.0741834e-06 1 -2.4085119e-07 0
-0.064148009 -0.19387755 0.022902511 -1.0668526e-05 1 3.8163662e-06 0
-0.055823967 -0.19387755 0.026862552 -1.7501861e-05 1 -6.3614866e-06 0
-0.044907108 -0.19387755 0.022476118 -1.7071059e-05 1 6.8895433e-06 9.4244679e-06
-0.02535614 -0.19387755 0.025442222 2.3824277e-06 1 4.181225e-06 0
-0.013696553 -0.19387755 0.024462767 5.1717842e-07 1 -8.9205369e-06 0
-0.0086356318 -0.19387756 0.024612809 -5.2758122e-07 1 -2.1098467e-06 0
0.0066678682 -0.19387755 0.026478637 -4.8471742e-07 1 2.1442017e-06 0
0.017737981 -0.19387755 0.027019387 1.009307e-06 1 2.0950702e-06 0
0.026896857 -0.19387755 0.022688717 -4.8301836e-06 1 -5.5094288e-06 0
0.035811178 -0.19387756 0.026323512 2.2149386e-06 1 -5.9726935e-06 0
0.044778742 -0.19387755 0.02581086 -7.0923754e-08 1 -2.0808627e-06 0
0.053165685 -0.19387753 0.023905938 1.7379003e-08 1 -1.9405024e-06 0
0.067826703 -0.19387755 0.027667202 7.3994174e-06 1 -1.531454e-06 0
0.098368675 -0.19387755 0.028258 9.589603e-06 1 -3.3885856e-06 0
0.11251989 -0.19387755 0.023989275 1.931304e-05 1 4.3319978e-06 9.4608686e-06
0.12547323 -0.19387755 0.022196621 -1.5089036e-05 1 -1.3027097e-06 0
0.13493505 -0.19387755 0.025378499 -9.5903124e-07 1 7.4422896e-06 0
0.14649752 -0.19387755 0.025349177 -2.3624287e-05 1 -4.5329866e-06 0
0.15168877 -0.19387755 0.027276561 -1.558704e-05 1 -4.7098192e-06 0
0.1632579 -0.19387755 0.02687981 -1.6476464e-05 1 -1.8165443e-06 0
0.1727007 -0.19387755 0.026793376 -0.18359117 0.98293275 -0.011731113 0.031745765
0.18111284 -0.19387755 0.029362634 -0.31599063 0.94854206 0.020441201 0.062151283
0.19077554 -0.19387755 0.026436396 -0.56283629 0.82603717 -0.029629542 0.09590511
-0.19387755 -0.18444955 0.025882438 0.88729972 0.45567781 0.07111188 0.083363131
0.19387755 -0.1844133 0.023052849 -0.90107626 0.4332332 0.019250173 0.086112596
-0.19387755 -0.17172679 0.027900185 0.98414981 0.17691427 0.012272463 0.035108853
0.19387755 -0.17680192 0.024275061 -0.96733004 0.24852891 -0.050059464 0.054657392
-0.19387755 -0.16722406 0.02429942 0.99468678 0.10253508 -0.009204098 0.014421958
0.19387755 -0.16838825 0.025388481 -0.99682534 0.079440497 0.0053356099 0.011990815
-0.19387753 -0.15418459 0.026223434 1 -1.030914e-05 -5.2539008e-06 0
0.19387755 -0.15401182 0.026896024 -1 -2.2312208e-05 -1.7109096e-06 0
-0.19387756 -0.14256682 0.023763994 1 7.813207e-06 3.8940345e-07 0
-0.19387755 -0.13202064 0.029114233 1 -3.2314404e-07 -6.458019e-06 0
0.19387753 -0.13839053 0.025491381 -1 6.7411088e-06 -4.9163867e-07 0
-0.19387755 -0.12279224 0.020896122 1 -0 -0 0
-0.19387755 -0.1168697 0.026205469 1 -8.65729e-06 -2.7329563e-06 0
0.19387753 -0.11566754 0.025621807 -1 -1.6303042e-07 4.1339972e-06 0
0.19387756 -0.10676251 0.02370985 -1 0 0 0
-0.19387755 -0.092182085 0.0240188 1 8.3543773e-06 -4.3829264e-06 0
0.19387755 -0.098047286 0.02243007 -1 -8.7405269e-06 -1.0784919e-06 0
0.19387755 -0.081768543 0.024691707 -1 0 0 0
-0.19387755 -0.076656565 0.023659723 1 -1.2325454e-07 -1.8258359e-06 0
0.19387755 -0.076788522 0.029058136 -1 -9.5980531e-06 2.5093939e-06 0
-0.19387755 -0.064020187 0.020087093 1 9.1225838e-06 -4.1125973e-06 0
0.19387753 -0.066665679 0.020625923 -1 7.4355064e-08 -1.0625712e-06 0
-0.19387755 -0.055558871 0.025056727 1 1.5708942e-07 -1.8602332e-06 0
0.19387755 -0.055154055 0.023848794 -1 -1.1126959e-07 -4.5604979e-06 0
-0.19387753 -0.042617392 0.025905743 1 7.2023422e-06 4.5270399e-06 0
0.19387753 -0.045531143 0.026884204 -1 4.9587425e-06 1.9244676e-06 0
-0.19387755 -0.032448184 0.02356475 1 -3.6072242e-07 -6.0177586e-06 0
0.19387755 -0.03587535 0.025611777 -1 3.5705573e-06 -4.6136138e-06 0
-0.19387755 -0.026065696 0.028053422 1 -7.8880121e-06 -5.423909e-06 0
0.19387753 -0.026764408 0.026474277 -1 1.8736013e-06 -5.2095643e-06 0
-0.19387753 -0.012784901 0.023493908 1 2.6434893e-06 -1.7032692e-06 0
0.19387755 -0.012369225 0.024595354 -1 2.3095856e-06 -4.8181014e-06 0
-0.19387755 -0.0036313664 0.023782065 1 4.5453766e-07 -2.2176537e-06 0
0.19387755 -0.0060719931 0.021801148 -1 -6.0643987e-07 -3.9440778e-08 0
-0.19387755 0.0049187355 0.023122823 1 1.316139e-06 -3.8558092e-06 0
0.19387755 0.0024790051 0.022799002 -1 -3.4291332e-08 -4.0013629e-06 0
-0.19387756 0.014497633 0.024019469 1 -2.1087149e-06 3.6521769e-06 0
0.19387755 0.013867737 0.023355383 -1 2.3333296e-06 -4.1952699e-06 0
-0.19387753 0.026563829 0.023887808 1 -1.4014801e-06 -2.8350389e-06 0
0.19387755 0.020386487 0.027323548 -1 -2.7866058e-06 -3.954578e-06 0
-0.19387755 0.032114152 0.023436338 1 1.7505029e-06 1.762643e-06 0
0.19387755 0.035575505 0.027948935 -1 2.1680801e-06 -4.0527643e-06 0
-0.19387753 0.04589662 0.021573104 1 -8.9729037e-06 2.3399014e-06 0
0.19387756 0.045552734 0.02499691 -1 -7.4776899e-06 -1.5132221e-06 0
-0.19387755 0.055176772 0.0246523 1 4.4907943e-06 2.4220783e-06 9.5227797e-06
0.19387753 0.056990873 0.024735004 -1 9.4162797e-06 1.4806621e-07 0
-0.19387755 0.069695316 0.02081934 1 -6.9807138e-06 -5.3783396e-07 0
0.19387753 0.066067152 0.026909212 -1 -1.466346e-05 3.370601e-06 0
-0.19387755 0.074450672 0.022352537 1 4.0903933e-06 4.9466178e-07 0
0.19387755 0.075710364 0.024621919 -1 -8.3854811e-06 1.6114888e-06 0
-0.19387753 0.085558809 0.025953531 1 1.0235297e-05 3.9444658e-06 0
0.19387755 0.083230704 0.024896964 -1 -1.4131066e-07 -7.0520664e-06 0
-0.19387755 0.096669346 0.024725545 1 1.835162e-05 -2.8823627e-06 0
0.19387753 0.095514871 0.022699064 -1 -1.5547475e-05 -5.2189544e-06 0
-0.19387755 0.10627662 0.024057481 1 2.1114451e-07 -1.9917657e-06 0
0.19387755 0.10547855 0.025370441 -1 0 0 0
-0.19387755 0.11577942 0.024992231 1 1.0041553e-07 -6.0917682e-06 0
0.19387756 0.11427847 0.023948019 -1 9.7905349e-06 -3.9955576e-06 0
-0.19387755 0.12808257 0.027075946 1 -3.2775242e-05 -7.2671828e-06 0
0.19387753 0.12558885 0.02701881 -1 -2.4415895e-05 1.4792822e-06 0
-0.19387753 0.13284858 0.022420643 1 -9.2608761e-06 1.333021e-06 0
0.19387755 0.13503879 0.023945337 -1 -2.3888919e-07 -2.3039347e-06 0
0.19387755 0.14145294 0.029148374 -1 -2.4731809e-05 -4.0504451e-06 0
-0.19387755 0.15724608 0.027826417 1 1.4881509e-05 -2.5914126e-06 0
0.19387753 0.15387641 0.02754196 -1 -2.4084535e-05 1.9072002e-06 0
-0.19387755 0.16744024 0.0240466 0.99569446 -0.092440039 0.006882607 0.01450343
0.19387755 0.16869345 0.029601872 -0.99675471 -0.073864609 -0.032000288 0.010221306
-0.19387755 0.17324442 0.024326712 0.98666614 -0.15643382 -0.044926528 0.027099304
0.19387755 0.17508434 0.02502873 -0.95023388 -0.31153697 -0.00048776422 0.051585186
-0.19387753 0.1876217 0.026905112 0.86760485 -0.49643371 -0.028557066 0.070890136
-0.18265367 0.19387753 0.025649533 0.40987703 -0.91166091 0.029583443 0.07492654
-0.16329141 0.19387753 0.024952257 1.7615341e-05 -1 2.0432635e-06 0
-0.15331763 0.19387755 0.023767263 2.9466444e-05 -1 -4.211372e-06 0
-0.14659914 0.19387755 0.027406111 -5.1810719e-05 -1 -3.9047918e-06 0
-0.13652807 0.19387755 0.021109596 -8.4163303e-06 -1 4.5049765e-07 0
-0.1292018 0.19387755 0.023371413 -7.7835184e-06 -1 1.6555806e-06 0
-0.11187354 0.19387755 0.021961913 -2.9226177e-07 -1 1.978942e-06 0
-0.10611304 0.19387755 0.024709504 0 -1 0 0
-0.093282104 0.19387755 0.021569766 2.5762685e-07 -1 -1.8190897e-06 0
-0.084433973 0.19387753 0.026417593 -5.3775761e-08 -1 -3.5166152e-06 0
-0.074534848 0.19387756 0.025074437 1.4724587e-07 -1 -1.9235724e-06 0
-0.065461539 0.19387755 0.026026201 5.149936e-06 -1 -7.3723249e-06 0
-0.051203579 0.19387755 0.024413526 0 -1 0 0
-0.044901364 0.19387755 0.025517156 -3.7046009e-06 -1 -2.0506982e-06 0
-0.030651994 0.19387755 0.022143379 0 -1 0 0
-0.024092626 0.19387755 0.022583809 -2.1755891e-06 -1 -3.0990075e-06 0
-0.013316513 0.19387755 0.024673825 -1.3430874e-06 -1 -5.6478928e-08 0
-0.0039412328 0.19387753 0.023221113 3.8713421e-07 -1 1.9514091e-06 0
0.0050928975 0.19387755 0.023169536 -1.2181953e-07 -1 -5.8903202e-09 0
0.017230075 0.19387756 0.025542248 -6.5597851e-07 -1 -3.6965441e-06 0
0.0253051 0.19387753 0.028604761 -1.9179211e-06 -1 2.9410181e-09 0
0.035479628 0.19387755 0.025104098 3.4300936e-06 -1 5.4418279e-06 0
0.047229946 0.19387755 0.02328743 0 -1 0 0
0.054388672 0.19387755 0.025543511 -4.3993828e-06 -1 -2.9030434e-06 0
0.063490756 0.19387753 0.026243174 -9.3864892e-06 -1 -1.0025133e-06 0
0.072327353 0.19387755 0.021094844 3.9938641e-06 -1 -1.0034064e-06 0
0.083458692 0.19387755 0.023199905 1.7373593e-05 -1 -7.1715772e-07 0
0.098218709 0.19387755 0.027712502 -8.3444529e-06 -1 -1.5339411e-06 0
0.10746923 0.19387755 0.023859926 8.6563405e-06 -1 -6.9078765e-06 0
0.11481911 0.19387753 0.021871714 1.4039374e-07 -1 -1.9359143e-06 0
0.12563899 0.19387755 0.023431409 -7.170916e-06 -1 -7.9257222e-07 0
0.13418506 0.19387753 0.024837891 -3.4127508e-05 -1 -6.977678e-07 0
0.14134541 0.19387755 0.02425357 9.3136605e-06 -1 -3.4593122e-06 0
0.15241638 0.19387755 0.022214606 -1.8117107e-05 -1 -6.5254526e-06 0
0.16302003 0.19387753 0.02522325 -7.3480483e-06 -1 -2.3095949e-06 0
0.17409836 0.19387755 0.024782807 -0.20314549 -0.97891849 -0.021222202 0.039139763
0.19025747 0.19387755 0.020237342 -0.55074316 -0.83244497 -0.060969427 0.079721302
-0.19250995 -0.19387755 0.034744725 0.65991312 0.74156302 0.12082621 0.084300913
-0.18516186 -0.19387756 0.034845028 0.45656455 0.88731295 0.064996503 0.086099066
-0.17476609 -0.19387755 0.033994526 0.22231728 0.97460848 -0.026708484 0.050447173
-0.16517888 -0.19387755 0.033590242 1.7581875e-05 1 -2.6866589e-06 0
-0.15376234 -0.19387756 0.033884224 7.4385684e-06 1 7.325857e-06 0
-0.14991237 -0.19387755 0.032773644 1.5727435e-05 1 4.6210056e-07 0
-0.13467105 -0.19387756 0.031559438 -0 1 -0 0
-0.12669416 -0.19387755 0.035658982 -0 1 -0 0
-0.11990803 -0.19387755 0.033323452 8.5123511e-06 1 4.4479002e-06 0
-0.10898867 -0.19387755 0.031098396 1.6763041e-05 1 6.0729167e-07 0
-0.097672567 -0.19387755 0.033274215 -1.4556754e-07 1 -6.699318e-06 0
-0.085759528 -0.19387756 0.033140603 8.4243966e-06 1 -4.5665379e-06 0
-0.074979722 -0.19387753 0.037380058 1.3751908e-05 1 -1.1523884e-05 0
-0.068413273 -0.19387755 0.036752202 8.5091197e-06 1 -4.5433126e-06 0
-0.054629587 -0.19387755 0.036672153 8.3194127e-06 1 -5.7725911e-06 0
-0.041509949 -0.19387755 0.035611786 4.1310968e-06 1 -2.4267833e-06 0
-0.036273234 -0.19387755 0.035141464 1.7677888e-07 1 2.01026e-06 0
-0.026564617 -0.19387755 0.032007039 -2.2323007e-07 1 2.7582262e-06 0
-0.013756215 -0.19387755 0.036653019 -7.4608488e-07 1 -9.9991466e-06 0
-0.0071676373 -0.19387756 0.032786191 1.1049388e-07 1 -2.1971482e-06 0
0.009917276 -0.19387755 0.035717774 -6.6015753e-07 1 -3.7222826e-06 0
0.017794296 -0.19387755 0.03567718 -8.8212374e-07 1 -1.8145404e-06 0
0.034222856 -0.19387756 0.035039481 -3.8501476e-06 1 -6.9576095e-06 0
0.04349168 -0.19387753 0.034461845 5.1289567e-06 1 4.7698791e-07 0
0.052262645 -0.19387755 0.033858575 2.8996986e-08 1 1.8595797e-06 0
0.084920175 -0.19387755 0.037336484 4.2873155e-05 1 3.8366238e-06 9.4582774e-06
0.096270211 -0.19387753 0.03601579 1.7375587e-05 1 -3.3215235e-07 8.6266436e-06
0.10556629 -0.19387753 0.031664956 3.1546693e-05 1 5.5734286e-06 0
0.11229698 -0.19387755 0.034062583 1.9877123e-05 1 5.1759835e-06 0
0.12734425 -0.19387755 0.036314294 -2.4637338e-05 1 -6.8790209e-06 0
0.13212304 -0.19387755 0.038158834 -1.5755375e-05 1 -6.5110003e-06 0
0.1450004 -0.19387755 0.033733424 -1.6346776e-05 1 -6.4788487e-06 0
0.15616567 -0.19387753 0.033584431 -3.2881184e-05 1 -2.321364e-06 0
0.16382834 -0.19387755 0.030548364 -0.0060206214 0.99998176 -0.00047705919 9.3958341e-05
0.17609276 -0.19387756 0.034698803 -0.22313032 0.97468626 0.014124757 0.044405777
0.18157572 -0.19387755 0.038560405 -0.32595474 0.94537014 -0.0053728088 0.05406072
0.19284725 -0.1924845 0.032799244 -0.63873416 0.76804721 -0.04606726 0.076198094
-0.19387753 -0.18527682 0.038382936 0.92958623 0.36401951 0.057958987 0.048583884
0.19387755 -0.18662436 0.035135638 -0.87952179 0.47356504 -0.046663694 0.076505847
-0.19387755 -0.17639753 0.036129761 0.96659267 0.25419113 0.032946944 0.04304548
0.19387755 -0.17587665 0.036281072 -0.97562391 0.2191899 0.010666508 0.049860504
-0.19387755 -0.16057 0.032646082 1 -2.3931047e-05 6.88819e-07 0
0.19387755 -0.16245374 0.033092007 -1 1.6728722e-05 -7.29147e-06 0
-0.19387755 -0.15517828 0.035727922 1 2.0332553e-05 -2.6753546e-06 0
0.19387755 -0.15497446 0.031126574 -1 1.0803292e-05 -3.9281126e-06 0
-0.19387755 -0.14504759 0.031311385 1 8.7307317e-06 -1.7946618e-06 0
0.19387753 -0.14740559 0.032225296 -1 1.0308136e-05 -2.1823028e-06 0
-0.19387755 -0.13146424 0.030311532 1 8.0710797e-06 -6.263836e-06 0
0.19387755 -0.13447295 0.032359187 -1 -6.5740219e-06 2.961305e-06 0
-0.19387755 -0.12455953 0.03479258 1 -9.4483521e-06 7.8940604e-07 0
0.19387753 -0.12369294 0.033031855 -1 9.4234993e-06 8.0248692e-06 0
-0.19387755 -0.11335496 0.035736829 1 -7.3667361e-06 -6.8350158e-07 0
0.19387755 -0.1143819 0.037998609 -1 -9.9054014e-06 -4.5480438e-06 0
-0.19387755 -0.10594772 0.034370638 1 1.3444647e-05 -2.0275727e-06 0
0.19387755 -0.10741238 0.031749919 -1 1.5968899e-07 1.8064669e-06 0
-0.19387753 -0.095332384 0.033760931 1 -1.6416179e-05 7.1157742e-06 9.2696728e-06
0.19387755 -0.094685793 0.034898102 -1 8.6885084e-06 1.1204123e-06 0
-0.19387755 -0.084049828 0.030876271 1 -8.1058597e-06 4.7955245e-06 0
-0.19387755 -0.075159825 0.035077929 1 1.9025256e-05 -7.092317e-06 0
0.19387756 -0.074377388 0.035194751 -1 -8.5082675e-06 -4.0277723e-06 0
-0.19387755 -0.064684205 0.035620198 1 8.6814161e-06 -7.6593788e-06 0
0.19387753 -0.062161684 0.033470258 -1 9.2050659e-06 -6.205184e-06 0
-0.19387753 -0.055714965 0.034304108 1 4.5445104e-06 -1.7688317e-06 0
0.19387755 -0.053321388 0.035638794 -1 -3.7068901e-07 -6.6484504e-06 0
-0.19387755 -0.044686127 0.038622163 1 4.1439425e-06 -3.4462516e-06 0
0.19387753 -0.047318131 0.036491781 -1 1.1581834e-07 -2.3030177e-06 0
-0.19387755 -0.034949146 0.035515614 1 -0 -0 0
0.19387753 -0.033504147 0.035006627 -1 3.7097798e-06 -1.6285204e-06 0
-0.19387755 -0.025441647 0.034079287 1 -0 -0 0
0.19387755 -0.022441793 0.034328721 -1 3.9481961e-06 -3.4932825e-06 0
-0.19387755 -0.016546989 0.031962 1 2.0532368e-06 1.7384519e-06 0
0.19387756 -0.016166596 0.034990933 -1 1.30443e-06 1.1930344e-07 0
0.19387755 -0.0054844711 0.031103704 -1 4.1683256e-07 -6.1360588e-06 0
-0.19387755 0.0054543354 0.036837444 1 8.3356338e-07 5.8645473e-06 0
0.19387755 0.0030472232 0.031346913 -1 -7.038161e-08 -6.1304304e-06 0
0.19387755 0.014730025 0.034943577 -1 2.0713715e-06 -4.5180673e-06 0
0.19387755 0.021541106 0.034724519 -1 -3.7612174e-06 -9.5984897e-06 0
-0.19387755 0.036056876 0.035839785 1 -4.1875528e-06 6.5559216e-06 0
0.19387755 0.031645902 0.035804857 -1 -2.0333614e-06 -6.2411582e-06 0
-0.19387755 0.046099409 0.035057783 1 4.3225418e-06 5.6724525e-07 0
0.19387755 0.046899453 0.037951216 -1 1.2967802e-06 -1.0864091e-05 0
-0.19387755 0.052638158 0.035876118 1 4.6146397e-06 3.7624472e-06 0
0.19387755 0.059208382 0.035196114 -1 -9.1620741e-06 -7.5168905e-06 0
-0.19387753 0.063557304 0.033161711 1 -3.9253246e-06 4.1109884e-06 0
0.19387755 0.06680131 0.030975197 -1 -1.4697166e-05 -3.286237e-06 0
-0.19387755 0.075001858 0.038332235 1 -3.2178777e-06 -4.7465642e-06 0
0.19387753 0.074216627 0.033852398 -1 9.1472994e-06 -7.6517235e-06 0
-0.19387755 0.08520738 0.034516327 1 1.0256679e-05 8.3168143e-06 0
0.19387755 0.086254686 0.035435375 -1 -8.3978248e-06 2.9162438e-06 0
-0.19387755 0.095983922 0.031988528 1 7.5339477e-07 -3.986177e-06 0
0.19387755 0.097562581 0.033914398 -1 -8.3011805e-08 -1.7419754e-06 0
-0.19387753 0.10407615 0.034613054 1 -7.6973702e-06 4.8426759e-06 0
0.19387755 0.10538803 0.036270633 -1 -2.0768659e-05 -5.2100754e-06 0
0.19387756 0.11671032 0.035178855 -1 2.4982277e-05 -8.1173903e-06 0
-0.19387753 0.12540254 0.03634863 1 -9.6296681e-06 4.2931742e-06 0
0.19387753 0.12686557 0.033084642 -1 8.9734567e-06 -7.5372022e-06 0
-0.19387755 0.13314992 0.035382979 1 -7.6816805e-06 -7.4102917e-07 0
0.19387755 0.13599709 0.035571836 -1 -9.3867975e-06 -1.5446669e-07 0
-0.19387755 0.14422981 0.032237619 1 -8.3826562e-06 1.4615712e-06 0
0.19387755 0.14171982 0.039683666 -1 -8.582354e-06 1.2881904e-07 0
-0.19387755 0.15761438 0.034331746 1 1.711559e-05 7.9562051e-07 0
0.19387753 0.15294167 0.036276981 -1 -1.5133968e-05 -4.6795294e-06 0
-0.19387755 0.16474965 0.034687556 1 1.7792296e-05 6.3520014e-07 0
0.19387755 0.16500092 0.037505999 -0.99998361 -0.0056008161 0.001195641 9.6399737e-05
-0.19387755 0.17613313 0.038930342 0.96969831 -0.24400136 0.012185685 0.039511941
0.19387753 0.17568429 0.034961596 -0.9650653 -0.26013473 0.031287737 0.049699504
-0.19387753 0.18327172 0.032888129 0.9382264 -0.34512806 -0.024856081 0.068507917
0.19387755 0.18754533 0.033527866 -0.8472895 -0.53112209 -0.0031390318 0.084546097
-0.19387755 0.19009696 0.036995262 0.78711551 -0.61601102 0.03129787 0.094833605
-0.18465297 0.19387753 0.035986636 0.41608444 -0.90887439 0.028652824 0.064282194
-0.17640471 0.19387756 0.032660883 0.30290315 -0.95246136 0.032665785 0.052836653
-0.16606438 0.19387755 0.033826619 0.069434673 -0.99748147 0.014478141 0.0082654152
-0.15464374 0.19387755 0.035482343 -1.0340402e-05 -1 -5.0614744e-06 0
-0.14334425 0.19387755 0.036478464 -1.8530653e-05 -1 2.2776533e-06 0
-0.1234066 0.19387755 0.032185331 -8.6644228e-08 -1 -3.793001e-06 0
-0.1156092 0.19387753 0.033703368 -1.575177e-05 -1 8.3583136e-06 8.390185e-06
-0.10782504 0.19387755 0.035235267 8.1758126e-06 -1 -1.1961616e-06 0
-0.094882324 0.19387755 0.038749814 9.6835138e-06 -1 -5.4194065e-06 0
-0.082192317 0.19387755 0.038225122 3.2174606e-07 -1 -6.565876e-06 0
-0.073982455 0.19387753 0.034117725 8.0060718e-06 -1 -5.8985784e-06 0
-0.062238738 0.19387755 0.038503658 7.5421763e-06 -1 -1.2355871e-05 0
-0.055582821 0.19387753 0.032580923 4.3219879e-06 -1 -2.2903014e-06 0
-0.046982136 0.19387753 0.035429925 3.3736628e-06 -1 -4.3467007e-06 0
-0.036140051 0.19387753 0.03602621 -6.7345995e-06 -1 -4.6366022e-06 0
-0.022880415 0.19387753 0.03394125 -2.0535781e-06 -1 2.1872538e-06 0
-0.018529475 0.19387753 0.032897931 1.5165535e-06 -1 -4.2481602e-06 0
0.0083626891 0.19387753 0.032813493 -2.0443101e-06 -1 2.7322583e-06 0
0.0176384 0.19387755 0.037657198 0 -1 0 0
0.025288045 0.19387755 0.036653567 -4.5603465e-06 -1 1.4177177e-06 0
0.034074303 0.19387755 0.035135686 7.6436066e-09 -1 -4.0962377e-06 0
0.045221653 0.19387755 0.034114949 7.6790514e-07 -1 -6.155909e-06 0
0.052784938 0.19387756 0.035125982 -5.1800798e-06 -1 -7.7251907e-06 0
0.063969798 0.19387756 0.034588847 4.3687337e-06 -1 -2.1006726e-06 0
0.072611965 0.19387755 0.037795693 3.5616554e-06 -1 -2.2809911e-06 0
0.085376129 0.19387755 0.035584439 5.5459515e-07 -1 5.9005247e-06 0
0.094458103 0.19387755 0.034724332 -1.1623666e-07 -1 4.2165502e-06 0
0.10131866 0.19387755 0.038242027 9.2974769e-06 -1 2.3589582e-06 0
0.11256933 0.19387753 0.035662111 0 -1 0 0
0.12535131 0.19387755 0.037392505 2.5756569e-07 -1 -4.3046798e-06 0
0.13664147 0.19387755 0.03810332 -1.6924057e-05 -1 -3.1742939e-06 0
0.14265192 0.19387755 0.034990713 -3.4400447e-05 -1 -2.9494383e-06 0
0.15599383 0.19387753 0.033994418 9.7303891e-06 -1 -5.5354835e-06 0
0.16670647 0.19387755 0.032911927 -0.033058837 -0.99945253 -0.0013480836 0.0024842126
0.17407408 0.19387755 0.034518607 -0.21640655 -0.9762671 -0.0084126964 0.039949723
0.18313085 0.19387755 0.035707407 -0.44159192 -0.89717323 -0.0087565463 0.074027374
0.19263346 0.19229369 0.035777763 -0.70169789 -0.71241814 0.008965198 0.098211057
-0.19387755 -0.19014442 0.046267956 0.83014774 0.55667406 0.031121971 0.07037051
-0.18577909 -0.19387753 0.045694891 0.5239867 0.85086811 -0.038227517 0.082673296
-0.17588204 -0.19387755 0.043280959 0.19349568 0.98110038 -0.0011790883 0.034748461
-0.1625466 -0.19387755 0.042944908 -2.1532436e-05 1 -3.06279e-06 0
-0.15355393 -0.19387755 0.047460623 2.0168207e-05 1 -5.1386746e-06 0
-0.14435031 -0.19387753 0.045899779 -0 1 -0 0
-0.12268944 -0.19387755 0.045051079 -0 1 -0 0
-0.11275898 -0.19387755 0.046178151 7.211313e-06 1 -6.7579094e-06 0
-0.10452778 -0.19387755 0.044696856 -2.314986e-05 1 1.4655371e-05 0
-0.097418368 -0.19387755 0.046085756 -7.1682275e-06 1 -1.0084797e-05 0
-0.083474986 -0.19387753 0.044080067 1.1965581e-07 1 -4.8082829e-06 0
-0.07427185 -0.19387756 0.046206031 -4.7182089e-06 1 -1.7679295e-05 0
-0.055418335 -0.19387755 0.049427167 1.1424877e-05 1 -4.1416115e-06 0
-0.046687692 -0.19387755 0.046740755 7.2222401e-06 1 -1.0700866e-05 0
-0.034532834 -0.19387755 0.043397728 -1.790393e-07 1 -4.4041458e-06 0
