# .PCD v0.7 - Point Cloud Data file format
VERSION 0.7
FIELDS x y z normal_x normal_y normal_z curvature
SIZE 4 4 4 4 4 4 4
TYPE F F F F F F F
COUNT 1 1 1 1 1 1 1
WIDTH 584
HEIGHT 1
VIEWPOINT 0 0 0 1 0 0 0
POINTS 584
DATA ascii
0.036527414 -0.064424448 0.39619231 -0.79439574 -3.7690515e-06 -0.60740054 3.0535819e-05
0.039016277 -0.057592951 0.39293766 -0.7944048 -4.2882853e-06 -0.60738862 3.9861465e-05
0.040719669 -0.053747211 0.39071018 -0.79436451 -8.7815743e-06 -0.60744143 2.3245079e-06
-0.042454075 -0.044649601 0.39905003 0.81086916 7.5599683e-06 -0.58522749 2.655782e-05
0.034760557 -0.046712793 0.39850277 -0.79438114 8.204358e-06 -0.60741967 1.8604136e-05
0.040752508 -0.041949078 0.3906672 -0.79427731 2.2213972e-05 -0.60755533 0
-0.044846579 -0.037574351 0.39573562 0.81078225 -9.1093571e-06 -0.58534783 0
0.040754512 -0.034303993 0.39066455 -0.79438305 -4.6903219e-06 -0.60741717 2.0701356e-05
-0.046821062 -0.023600658 0.39300025 0.81083161 -3.6751787e-06 -0.58527946 1.3616035e-05
0.03761844 -0.022131177 0.39476556 -0.79440713 -1.0325397e-05 -0.60738558 3.5558929e-05
-0.044747248 -0.015417836 0.39587316 0.81083179 -3.173845e-06 -0.58527929 9.6860422e-06
0.037220873 -0.014893837 0.39528546 -0.79442966 -1.4460566e-05 -0.60735619 4.9570477e-05
0.040153928 -0.014352149 0.39144996 -0.7943626 4.3321512e-07 -0.60744393 6.0230809e-06
-0.045601767 -0.0033866323 0.39468944 0.81079084 -1.0749447e-06 -0.58533597 0
0.036117822 -0.0042148218 0.39672792 -0.79435706 1.453276e-07 -0.60745114 7.0210494e-06
0.041093834 -0.0086661773 0.39022085 -0.79437798 -4.9225609e-06 -0.60742378 2.0914997e-05
-0.044381455 0.0065938458 0.39637995 0.81080437 2.4818976e-06 -0.58531713 0
0.035777189 0.0057523306 0.39717337 -0.79436648 8.0891715e-07 -0.60743886 3.8291532e-06
-0.045048822 0.012121576 0.39545545 0.81082851 2.3376492e-06 -0.58528376 3.4727791e-06
0.036578249 0.014604233 0.39612585 -0.79419863 -3.5151074e-06 -0.60765839 0
0.040860474 0.015635908 0.39052606 -0.7943936 -3.4048629e-08 -0.6074034 2.234223e-05
-0.044406027 0.022412797 0.39634594 0.81083184 -1.0604706e-06 -0.58527917 7.9720603e-06
0.036933575 0.023953289 0.39566115 -0.79436487 8.449378e-07 -0.60744089 1.1094561e-05
0.041119885 0.029971369 0.39018679 -0.79432887 1.1894029e-05 -0.60748792 0
-0.04632403 0.034356691 0.39368892 0.81087869 2.0478354e-05 -0.58521438 4.3898734e-05
0.038426075 0.031456534 0.39370945 -0.79440159 -5.4803422e-06 -0.60739285 3.0326184e-05
-0.045511521 0.044084609 0.39481449 0.81080598 -8.8809911e-06 -0.58531505 3.7352086e-07
0.035215948 0.044518448 0.39790729 -0.79413277 -1.4512621e-05 -0.60774434 0
-0.043718144 0.05595544 0.39729896 0.81077403 -2.1837077e-05 -0.58535933 0
0.036122475 0.054955583 0.39672184 -0.79446554 2.8467184e-05 -0.60730928 7.583377e-05
-0.045519192 0.069704622 0.39480391 0.81085163 1.568938e-06 -0.58525163 2.0789743e-05
0.036279798 0.065484591 0.39651617 -0.79434937 -5.2921664e-06 -0.60746115 0
0.040268186 0.062831476 0.39130062 -0.79432923 -5.2975684e-06 -0.60748756 0
-0.047331467 0.073045053 0.39229333 0.81082451 9.787308e-06 -0.5852893 0
0.037588663 0.0793093 0.39480454 -0.79424673 -2.7233377e-06 -0.60759526 0
0.04073384 0.076979354 0.39069158 -0.79433608 -3.0231726e-05 -0.60747856 0
-0.047987085 0.087754562 0.39138508 0.81080031 5.2621176e-06 -0.58532274 0
0.038061243 0.083932512 0.39418653 -0.79421008 -1.4751849e-05 -0.60764319 0
-0.045733433 0.095395841 0.39450714 0.81081599 1.5435042e-05 -0.58530122 0
0.037333395 0.093943335 0.39513832 -0.7942754 -2.729468e-05 -0.60755783 0
0.035665587 0.10465982 0.39731932 -0.79421949 -3.3490396e-05 -0.60763103 0
0.040177669 0.10308542 0.39141893 -0.79432267 -6.0525604e-06 -0.60749602 0
-0.048337545 0.11943468 0.39089945 0.81086123 -1.5267122e-05 -0.58523858 1.4613604e-05
0.040837295 0.11302175 0.39055637 -0.79436713 4.504477e-05 -0.60743791 1.5390649e-05
-0.045885824 0.12333409 0.3942959 0.81077027 -5.3757699e-06 -0.58536464 0
0.036162078 0.12477769 0.3966701 -0.79427999 -4.8211509e-06 -0.60755193 0
0.041260626 0.1287048 0.39000279 -0.79425019 -1.1642258e-05 -0.60759085 0
-0.045983437 0.13586602 0.39416066 0.81069452 -8.364347e-05 -0.58546937 0
0.039024506 0.13641444 0.39292693 -0.79434103 -1.6521748e-05 -0.60747212 0
-0.046163846 0.14661357 0.39391074 0.81078506 -4.9716979e-05 -0.58534402 0
0.037093081 0.14513332 0.39545268 -0.79435909 -1.3935559e-05 -0.60744846 3.0280614e-07
-0.046590745 0.1537105 0.39331946 0.81081706 -7.1680561e-06 -0.58529967 0
0.036951728 0.1561161 0.39563754 -0.79429024 -5.3102067e-05 -0.60753846 0
0.040673103 0.15216562 0.39077115 -0.79431194 -5.271077e-05 -0.60751003 0
-0.04356356 0.1632617 0.39751309 0.81067759 -5.3300664e-05 -0.58549273 0
0.038173724 0.16358709 0.39403951 -0.79438126 -1.3752016e-05 -0.60741949 1.9035044e-05
-0.045577615 0.17601074 0.394723 0.78869271 -0.22024988 -0.57398069 0.059279177
0.036295466 0.17382476 0.39649564 -0.80023366 -0.15139292 -0.58026391 0.02595756
-0.044740696 0.18491745 0.3958824 0.75428271 -0.38634783 -0.53084171 0.072991043
0.03534111 0.1863306 0.39774358 -0.73060739 -0.41545439 -0.54185838 0.0653001
0.040534075 0.18338613 0.39095286 -0.75160581 -0.3623625 -0.55116445 0.061873779
-0.043086331 0.19551551 0.39456972 0.49225578 -0.78800428 -0.36977479 0.096225701
-0.023743959 0.19551551 0.3955971 0.27550146 -0.95487463 -0.11096513 0.05749613
-0.016238937 0.19551551 0.39577264 0.16818075 -0.98481828 -0.042990945 0.034826737
-0.0057509034 0.19551551 0.39994723 0.0078207273 -0.99996662 -0.0023531406 4.668258e-05
0.0044515268 0.19551551 0.39428693 -0.07403715 -0.99548596 -0.05938141 0.015143821
0.014618091 0.19551551 0.39440605 -0.22892219 -0.96556163 -0.12363383 0.050796259
0.024976999 0.19551551 0.39445642 -0.36475462 -0.87000072 -0.33174187 0.099331543
-0.031222668 -0.19551551 0.40565005 0.51940215 0.76768446 -0.37534261 0.078737073
-0.024869056 -0.19551551 0.40567139 0.41221347 0.85993922 -0.30097273 0.071985699
-0.01353804 -0.19551551 0.4033168 0.14789732 0.98227125 -0.11519349 0.030609148
-0.006895137 -0.19551551 0.40628803 0.092552885 0.99123555 -0.094265558 0.027175117
0.0042727999 -0.19551551 0.40534347 -0.14831245 0.9831233 -0.10710659 0.03376919
0.015971437 -0.19551551 0.40309286 -0.29508099 0.92633766 -0.23414882 0.064985067
0.032182794 -0.19462758 0.40144715 -0.54569679 0.74529976 -0.38307095 0.064304814
-0.038950361 -0.18478684 0.40390384 0.71762961 0.43177697 -0.54642135 0.055673666
0.025987109 -0.18964683 0.40997565 -0.66738814 0.54294813 -0.50970614 0.088802584
-0.041002844 -0.17414013 0.40106049 0.78228599 0.22278206 -0.58171886 0.033659615
-0.037554409 -0.17275999 0.40583768 0.79048336 0.13722859 -0.59691232 0.013452225
0.028146535 -0.17454913 0.40715185 -0.79267353 0.12828191 -0.59599692 0.029433893
0.031454116 -0.17965257 0.40282658 -0.80198729 0.24271686 -0.54580659 0.057965212
-0.040991139 -0.16708384 0.4010767 0.81075376 0.039381441 -0.58406121 0.0032503097
-0.03779145 -0.16658829 0.40550929 0.80861437 0.027921278 -0.58767611 0.0017576399
0.028593998 -0.16348724 0.40656668 -0.7942307 -3.8674243e-06 -0.60761631 0
-0.036795381 -0.15266588 0.40688917 0.81083059 -1.9128072e-05 -0.58528095 3.4189723e-06
0.027692258 -0.15403818 0.40774587 -0.79445118 -3.8184116e-05 -0.60732806 6.5097389e-05
0.03077912 -0.15738165 0.40370923 -0.79437894 -2.5207988e-05 -0.60742247 1.9008436e-05
-0.037569936 -0.14574917 0.40581617 0.8108511 -5.6312449e-05 -0.58525252 2.3267723e-05
0.026798334 -0.14970013 0.4089148 -0.79445297 -4.5596338e-05 -0.60732561 5.5236644e-05
-0.040807746 -0.13702279 0.40133077 0.81091273 -0.00010681894 -0.58516723 5.6817684e-05
-0.037663169 -0.13500908 0.405687 0.81077909 -3.8647901e-05 -0.58535212 0
0.02796974 -0.13030468 0.40738299 -0.79429716 -1.2541008e-05 -0.60752946 0
0.03332907 -0.13084723 0.40037468 -0.79425728 7.3728661e-05 -0.60758162 0
-0.037116744 -0.12638962 0.40644398 0.81078607 -5.8112769e-06 -0.58534259 0
0.028403476 -0.12745528 0.40681586 -0.79427552 1.974e-05 -0.60755765 0
0.032250602 -0.12333584 0.40178502 -0.79439229 -1.0745986e-05 -0.60740507 2.3991124e-05
-0.040410638 -0.11945565 0.40188086 0.81087631 -4.6551086e-05 -0.58521754 3.408355e-05
-0.03956566 -0.1155899 0.40305144 0.81085992 -2.6311804e-05 -0.58524024 2.7996535e-05
0.031962864 -0.11634191 0.40216127 -0.79437691 -2.0521013e-06 -0.60742521 1.0301748e-05
-0.040094715 -0.10962206 0.40231848 0.81087214 6.0057041e-06 -0.58522338 3.029815e-05
-0.036265764 -0.1036152 0.4076229 0.81082577 2.1407528e-05 -0.58528763 8.7853196e-06
0.028397247 -0.10758904 0.40682399 -0.79437977 -3.1492706e-05 -0.6074214 1.6611302e-05
-0.041476358 -0.09469834 0.40040445 0.81086493 -1.8946464e-05 -0.58523333 2.4752797e-05
-0.035542253 -0.097245753 0.40862522 0.81086701 1.983666e-05 -0.58523047 2.6347139e-05
0.027376624 -0.093451798 0.40815866 -0.79435849 -6.4473547e-06 -0.60744917 0
0.03198313 -0.095668942 0.40213478 -0.79429895 6.197824e-06 -0.6075272 0
-0.040599696 -0.089249209 0.40161896 0.81071097 2.4779334e-05 -0.58544672 0
0.027854672 -0.084194988 0.40753353 -0.79422235 7.1596005e-06 -0.60762715 0
0.033307537 -0.088249326 0.40040287 -0.79427582 1.3144315e-05 -0.60755736 0
-0.036125604 -0.076215081 0.40781704 0.81075966 1.4086585e-05 -0.58537918 0
0.027569288 -0.078517467 0.40790671 -0.79430926 -1.7131102e-05 -0.60751361 0
0.032796048 -0.076010302 0.40107176 -0.79440892 -9.7896973e-06 -0.60738343 3.2916298e-05
-0.036282375 -0.06552875 0.40759987 0.81075597 9.3292501e-06 -0.58538425 0
0.029310262 -0.060869835 0.40563008 -0.79423571 -5.3927211e-06 -0.60760981 0
0.032175001 -0.066337787 0.40188393 -0.79432511 6.5595332e-06 -0.60749298 0
-0.03872323 -0.053979773 0.40421847 0.81084901 -7.537148e-07 -0.58525532 1.8966779e-05
0.028370686 -0.05290328 0.40685877 -0.7942692 3.2075925e-06 -0.607566 0
-0.036772881 -0.046101514 0.40692034 0.81081033 4.8879983e-06 -0.58530903 0
0.028591743 -0.04373854 0.40656969 -0.79434556 2.0293512e-05 -0.6074661 0
0.032327306 -0.042306259 0.40168473 -0.79428273 2.1525042e-05 -0.6075483 0
-0.037717473 -0.03385983 0.40561172 0.810848 -3.5536559e-06 -0.58525681 1.5799977e-05
0.027540052 -0.033612154 0.40794498 -0.79433578 6.9037646e-06 -0.60747886 0
0.03235805 -0.034292754 0.40164456 -0.79437059 -5.2703399e-06 -0.60743338 6.557304e-06
-0.0378731 -0.025918299 0.40539616 0.81079227 3.2573319e-06 -0.585334 0
0.027511327 -0.028810725 0.40798253 -0.79446954 -4.7456065e-06 -0.60730404 8.139186e-05
0.032697152 -0.028762074 0.40120107 -0.79437685 4.2957805e-07 -0.60742533 9.4748284e-06
-0.034565132 -0.018855032 0.40997878 0.81076419 2.4117555e-05 -0.58537287 0
0.026896698 -0.011239975 0.40878627 -0.79439574 4.8091169e-06 -0.60740054 1.8509083e-05
0.032249372 -0.016362296 0.40178666 -0.79441625 -1.5330158e-06 -0.60737377 3.9701677e-05
-0.040684175 -0.0036236825 0.40150192 0.81089038 -1.9441188e-05 -0.58519804 4.438961e-05
-0.034621984 -0.0065995976 0.40990004 0.81080747 -1.2944338e-06 -0.58531302 0
0.026549838 -0.0064786635 0.40923986 -0.79442585 -4.647557e-06 -0.60736126 4.0207986e-05
0.032478727 -0.0038615288 0.40148672 -0.79436308 2.3145212e-06 -0.60744327 0
-0.038834952 0.0053214841 0.40406373 0.81093574 -1.4597708e-05 -0.58513516 7.2554496e-05
0.029017178 0.0031470228 0.40601334 -0.79431427 4.6007513e-06 -0.60750705 0
-0.040081576 0.016739225 0.40233675 0.81081003 1.3320872e-06 -0.58530945 0
-0.036321416 0.014082825 0.40754578 0.81073433 -1.7688997e-05 -0.58541423 0
0.027740708 0.010985497 0.4076826 -0.79441798 1.328855e-05 -0.60737151 3.6376863e-05
0.030610181 0.0140202 0.40393022 -0.794415 1.8655557e-07 -0.60737532 3.5868703e-05
-0.041619323 0.02854833 0.40020645 0.81079811 5.7195443e-06 -0.5853259 0
-0.036562052 0.024350973 0.40721244 0.81083333 5.1666683e-07 -0.58527714 4.9359992e-06
0.028889086 0.023253432 0.40618086 -0.79432881 1.0326554e-07 -0.60748798 0
0.032779478 0.025234409 0.40109345 -0.79435575 5.3038975e-06 -0.60745281 2.3031153e-06
-0.040473357 0.036110636 0.40179402 0.81088191 1.2876751e-05 -0.58520985 3.7575326e-05
-0.036799788 0.034161389 0.40688309 0.81085825 5.8061096e-06 -0.58524263 2.0432017e-05
0.029462043 0.035339303 0.40543163 -0.79432827 -9.6592985e-06 -0.60748875 0
0.030322216 0.031375781 0.40430677 -0.79437709 -2.1481335e-06 -0.60742491 7.6834995e-06
-0.035921291 0.043151472 0.4081001 0.81077778 4.148987e-06 -0.58535403 0
0.028941415 0.046425585 0.4061124 -0.79436672 5.0666807e-07 -0.6074385 2.8721545e-06
0.031918783 0.045459017 0.40221894 -0.79423946 -7.1675431e-06 -0.60760486 0
-0.039755095 0.054015007 0.40278909 0.8107506 -2.2910202e-05 -0.5853917 0
0.028572481 0.055104185 0.4065949 -0.79434252 -1.0558861e-05 -0.60747021 0
0.031132076 0.054332912 0.40324774 -0.79428762 -5.1878574e-06 -0.60754192 0
-0.03707777 0.066616967 0.40649804 0.81081825 -4.6221021e-06 -0.585298 0
0.029549617 0.060762547 0.40531713 -0.79436219 -6.3825091e-06 -0.60744441 0
0.030973908 0.064224377 0.40345463 -0.794375 -2.4759925e-06 -0.6074276 1.1813802e-05
0.027715024 0.079008676 0.40771616 -0.79420662 5.742525e-06 -0.60764778 0
-0.035820398 0.085738003 0.4082399 0.81083775 -1.3889541e-05 -0.585271 9.5695641e-06
0.028896203 0.085864335 0.40617156 -0.79433638 -6.4979417e-07 -0.6074782 0
0.03202036 0.085307591 0.40208614 -0.79425627 2.833934e-05 -0.60758299 0
-0.041073747 0.094490901 0.40096232 0.81086713 9.3264553e-06 -0.58523035 3.1591539e-05
-0.036845773 0.09109655 0.4068194 0.81081057 -9.8116725e-06 -0.58530867 0
0.028346373 0.094224423 0.40689057 -0.79438698 -8.4152962e-06 -0.60741204 2.4709025e-05
0.03137764 0.093835682 0.40292662 -0.79435736 -1.6209617e-06 -0.60745084 4.3527189e-06
0.030477956 0.10236058 0.40410316 -0.79431051 -2.4375571e-05 -0.60751206 0
-0.040275145 0.11473984 0.40206864 0.81074941 -2.6831909e-05 -0.58539337 0
-0.03748595 0.11466739 0.40593261 0.81070489 -6.7249108e-05 -0.58545494 0
0.028266214 0.1148814 0.40699539 -0.79434353 -1.1033181e-05 -0.60746878 0
0.030395491 0.11471582 0.40421098 -0.79436743 -5.0715948e-06 -0.60743755 1.733801e-06
-0.040749181 0.12484208 0.40141192 0.81083417 -2.1161286e-05 -0.58527607 1.2952594e-05
-0.034820143 0.12586749 0.40962559 0.81084871 1.1541624e-05 -0.58525586 1.4933023e-05
0.029639928 0.12730953 0.40519905 -0.79438502 2.6833088e-06 -0.60741454 1.8246352e-05
0.032149207 0.12655583 0.4019177 -0.79442227 1.4569913e-07 -0.60736585 3.8826973e-05
-0.040993158 0.1321561 0.40107384 0.81083816 -2.0809834e-05 -0.58527035 1.2567421e-05
-0.035280779 0.13356557 0.40898746 0.81075835 9.5668047e-06 -0.58538103 0
0.029349623 0.13342752 0.40557867 -0.79428971 -4.694828e-05 -0.60753912 0
0.031924065 0.13535021 0.40221214 -0.7943846 2.3048546e-05 -0.60741508 2.2250621e-05
-0.041762263 0.14166372 0.40000844 0.81082797 1.4285524e-05 -0.58528453 2.2932209e-06
-0.037363686 0.14557314 0.40610188 0.81082058 -2.8889184e-05 -0.58529484 0
0.0282901 0.14513248 0.40696421 -0.79434419 3.4298417e-05 -0.60746795 0
0.031727538 0.14931418 0.40246916 -0.79434985 -6.0660045e-06 -0.60746056 0
-0.040198665 0.15585384 0.40217456 0.81087065 -6.6163207e-06 -0.5852254 3.3342942e-05
-0.037997097 0.15312587 0.40522444 0.81088948 2.6410162e-05 -0.5851993 3.9461225e-05
0.029347975 0.15172076 0.40558088 -0.79425925 -5.9773913e-05 -0.60757893 0
0.032701388 0.15656072 0.40119565 -0.7942729 -3.3638313e-05 -0.60756123 0
-0.041434441 0.16892217 0.40046263 0.80775434 -0.018724205 -0.58922172 0.00051999232
-0.037762925 0.16594191 0.4055489 0.80978835 -0.014059893 -0.58655363 0.00053395482
0.027809121 0.16147935 0.40759319 -0.79434979 -1.4810037e-05 -0.60746062 0
0.031202832 0.167973 0.40315527 -0.79698241 -0.044919312 -0.60232985 0.0060802451
-0.040051877 0.1785225 0.40237796 0.76100975 -0.25161782 -0.59795702 0.06219285
-0.038911954 0.17323458 0.40395713 0.78998035 -0.092858575 -0.60605967 0.018505629
0.029359544 0.17424014 0.40556571 -0.7866466 -0.1439914 -0.60037804 0.025973508
0.030956477 0.17072667 0.40347743 -0.79816061 -0.090041347 -0.59567803 0.012733943
-0.040412184 0.1821698 0.4018788 0.71876818 -0.34223178 -0.60518569 0.071275376
-0.03687568 0.18570286 0.40677801 0.71572256 -0.4358207 -0.54571187 0.081998564
0.028187092 0.18247712 0.40709889 -0.74225527 -0.37828764 -0.55313253 0.074742913
0.032066241 0.18913463 0.40202612 -0.71041328 -0.50635833 -0.48878863 0.077485487
-0.040093303 0.19027305 0.40232056 0.70522827 -0.49291313 -0.50959754 0.081694819
-0.035075545 0.19495364 0.40433684 0.5516367 -0.73396057 -0.39623088 0.10419998
-0.024074078 0.19551551 0.40371433 0.34514281 -0.89034402 -0.29692405 0.093507312
-0.015333842 0.19551551 0.4045662 0.14492998 -0.98685908 -0.07144472 0.031697024
-0.0045337174 0.19551551 0.40684909 -0.0032340693 -0.99814343 -0.060821876 0.011244834
0.0048589939 0.19551551 0.4092038 -0.20192957 -0.96856391 -0.1452872 0.050741941
0.018496301 0.19551551 0.4016898 -0.39731443 -0.88737553 -0.23389301 0.082812741
0.026406528 0.19497651 0.40694436 -0.64298403 -0.6404475 -0.41999826 0.078246862
0.031390071 0.19551551 0.40044624 -0.53829032 -0.72509658 -0.42950961 0.089719065
-0.026103223 -0.1941856 0.41548026 0.63931704 0.66727364 -0.3821252 0.076383896
-0.014163416 -0.19551551 0.41558531 0.3141382 0.89768076 -0.30900881 0.058332477
-0.0040486632 -0.19551551 0.41593996 -0.01646331 0.98482084 -0.17279127 0.04300075
0.0055447132 -0.19551551 0.41497648 -0.32230714 0.89248544 -0.31557563 0.070296191
0.019163419 -0.192405 0.41889894 -0.57095152 0.6166867 -0.54195184 0.08108478
0.023647176 -0.19312894 0.41303557 -0.57308406 0.72552675 -0.38103232 0.072722852
-0.030997181 -0.18087339 0.41492161 0.76338738 0.33758271 -0.55070657 0.055064503
-0.02811257 -0.18142454 0.41891775 0.762187 0.38578793 -0.51984483 0.0635361
0.019681821 -0.18648361 0.41822103 -0.70772469 0.37022898 -0.60171109 0.073704444
0.020966407 -0.18403667 0.41654119 -0.71930921 0.32843417 -0.61214811 0.063408352
0.019213691 -0.17199236 0.4188332 -0.79048312 0.10834233 -0.6028254 0.019073039
0.024416177 -0.17499396 0.41202998 -0.76866621 0.19899011 -0.60791045 0.046327993
-0.032499183 -0.16512597 0.41284084 0.80760992 0.02147641 -0.58932602 0.00085147226
-0.028623484 -0.16227773 0.41820994 0.81086069 -2.0618978e-05 -0.58523923 2.1498872e-05
0.023720125 -0.16143137 0.41294017 -0.79429364 3.82203e-05 -0.60753405 0
-0.032835186 -0.15376937 0.41237536 0.81091851 1.2370542e-05 -0.58515906 5.7641948e-05
-0.027861744 -0.15172276 0.41926524 0.81091839 -3.5923305e-05 -0.58515918 5.0422925e-05
0.018551415 -0.15708987 0.41969922 -0.79407692 0.00012100517 -0.60781729 0
0.022982361 -0.1542529 0.41390496 -0.79440874 -6.4683336e-06 -0.60738349 3.4608809e-05
-0.028153643 -0.14628324 0.41886085 0.8109138 -5.4895147e-05 -0.58516568 5.0950861e-05
-0.033141892 -0.13310316 0.41195047 0.8108713 -1.1641418e-05 -0.58522457 3.0983894e-05
-0.028612336 -0.13136099 0.41822538 0.81072646 -2.2375771e-05 -0.58542508 0
0.021586545 -0.1363599 0.41573024 -0.79434305 3.9954131e-05 -0.60746944 0
-0.031966809 -0.12554412 0.41357836 0.81081855 -3.4673762e-06 -0.5852977 0
-0.02938601 -0.12401391 0.4171536 0.81082124 -9.7896236e-06 -0.58529383 0
0.019985391 -0.12636288 0.41782403 -0.79426831 2.4737341e-05 -0.60756719 0
0.023048365 -0.12218508 0.4138186 -0.79430962 3.4528337e-05 -0.60751319 0
-0.033009041 -0.11272057 0.4121345 0.81084073 -1.3530688e-05 -0.58526689 7.9575038e-06
-0.027870949 -0.11895344 0.41925246 0.81086051 -1.3963994e-06 -0.58523941 2.3540762e-05
0.01884035 -0.11619748 0.41932142 -0.79426247 1.5876391e-05 -0.60757488 0
0.022203097 -0.11257496 0.41492397 -0.79431301 2.290566e-05 -0.60750866 0
-0.032426879 -0.10264506 0.41294098 0.81083798 2.041e-05 -0.58527076 1.3433308e-05
-0.027878556 -0.10195237 0.41924191 0.81080246 6.7718042e-06 -0.58531994 0
0.021956958 -0.10331554 0.41524589 -0.79438418 1.8195897e-05 -0.60741568 1.7315275e-05
-0.033433147 -0.09198381 0.41154698 0.81082833 -7.2874027e-06 -0.58528405 1.7495353e-06
-0.029081002 -0.093251564 0.41757613 0.81085443 -1.653908e-07 -0.58524793 1.781378e-05
0.019531446 -0.098743044 0.41841769 -0.79425538 5.3437102e-06 -0.607584 0
0.02254433 -0.098352544 0.4144778 -0.79439545 -1.3000283e-05 -0.60740089 2.4962566e-05
-0.03162536 -0.086764045 0.41405132 0.81081408 -1.3276841e-05 -0.5853039 0
0.019814253 -0.0861803 0.41804788 -0.79436225 -2.0118569e-07 -0.60744429 6.0804655e-06
0.023330621 -0.083762959 0.41344956 -0.79437137 1.3054477e-05 -0.60743243 8.8669458e-06
-0.033352513 -0.076908335 0.41165867 0.81072366 1.2842143e-05 -0.58542895 0
-0.028426588 -0.076631345 0.41848269 0.81086141 -9.8393512e-06 -0.58523828 1.8845638e-05
0.018922005 -0.073310569 0.41921464 -0.7943511 -1.0916911e-05 -0.60745889 0
0.023194801 -0.075176887 0.41362715 -0.79423183 3.4404551e-05 -0.60761487 0
-0.034424774 -0.061508097 0.41017324 0.81076854 9.6023098e-07 -0.58536685 0
-0.028845767 -0.061546985 0.41790199 0.81080365 -2.0179681e-05 -0.58531839 0
0.02293909 -0.068482488 0.41396156 -0.79440695 -1.8360528e-05 -0.60738593 3.263629e-05
-0.032189947 -0.055606991 0.41326922 0.81078559 -7.1874928e-07 -0.5853433 0
-0.028116841 -0.055680536 0.41891181 0.81089777 3.3317112e-05 -0.58518779 4.3398482e-05
0.020821743 -0.057974037 0.4167304 -0.79435992 -4.134296e-06 -0.60744739 6.8354547e-07
-0.032411039 -0.047404498 0.41296291 0.81079966 5.2592827e-06 -0.58532375 0
-0.029556129 -0.049766559 0.41691792 0.81080097 -1.8098486e-06 -0.58532202 0
0.020784421 -0.044769689 0.41677922 -0.79435247 8.842082e-06 -0.60745704 1.6599723e-06
-0.031342417 -0.030356981 0.41444331 0.81058919 1.6103028e-05 -0.58561516 0
0.018971479 -0.034036014 0.41914997 -0.79439366 -2.2759084e-06 -0.60740322 2.3333716e-05
0.023555627 -0.035754506 0.41315532 -0.79432583 -1.0391952e-05 -0.60749191 0
-0.032129399 -0.024052061 0.41335315 0.81094015 -2.4081593e-05 -0.58512908 6.9717571e-05
-0.027890079 -0.022059705 0.41922596 0.81085259 -2.7981821e-06 -0.5852505 1.5999783e-05
0.019506369 -0.023491666 0.4184505 -0.79439336 6.2473582e-06 -0.60740364 2.1149841e-05
0.024865545 -0.028273517 0.4114424 -0.79443717 -7.3163114e-06 -0.60734642 5.4291053e-05
-0.031464633 -0.016160013 0.41427404 0.81072927 2.0669727e-06 -0.5854212 0
-0.02989348 -0.011572207 0.41645059 0.81078941 3.6187503e-06 -0.585338 0
0.019653572 -0.017009614 0.41825804 -0.79436767 1.6784657e-06 -0.60743725 1.0036902e-05
0.023750711 -0.012574799 0.41290024 -0.7943421 1.2438031e-06 -0.60747063 0
-0.032423824 -0.0062949271 0.41294521 0.81087095 -5.4575548e-07 -0.58522505 3.0844134e-05
-0.028450102 -0.0028511665 0.41845012 0.81077403 -4.8380766e-06 -0.58535922 0
0.023210436 -0.0030503995 0.41360676 -0.794245 -5.5037158e-06 -0.60759765 0
-0.032203678 0.0057358793 0.41325024 0.810853 6.8828153e-06 -0.5852499 2.0332707e-05
-0.02955172 0.00042404095 0.41692406 0.81079578 -7.5932962e-07 -0.58532917 0
0.024270087 0.0017149388 0.41222104 -0.79433566 2.6977325e-06 -0.6074791 0
-0.032494314 0.013675662 0.41284758 0.81078678 4.90611e-06 -0.58534157 0
-0.028378088 0.017501827 0.4185499 0.81090814 7.0258097e-06 -0.58517355 5.6485787e-05
0.022814825 0.014082474 0.4141241 -0.79443383 -1.041924e-05 -0.60735071 5.275775e-05
-0.030829109 0.026622869 0.41515443 0.81068176 -2.6582197e-06 -0.58548695 0
0.019147281 0.023024779 0.4189201 -0.79443204 -4.410666e-06 -0.60735291 5.667426e-05
0.022910435 0.024041284 0.41399908 -0.79445124 3.1389261e-06 -0.607328 6.382649e-05
-0.028642386 0.03852243 0.41818377 0.81082535 -3.221156e-06 -0.58528811 0
0.019549873 0.032587081 0.41839361 -0.79426873 -1.207908e-05 -0.60756665 0
0.023160854 0.035724953 0.41367158 -0.79438776 6.1987462e-06 -0.60741103 1.9438201e-05
-0.029011862 0.049192425 0.41767198 0.81086063 -7.6316264e-06 -0.58523929 2.108327e-05
0.018600347 0.045336884 0.41963533 -0.79435879 7.7836048e-06 -0.60744894 7.3989423e-07
0.025420081 0.042397283 0.41071722 -0.79437351 9.1559247e-07 -0.60742962 1.1519218e-05
-0.030417785 0.05468452 0.41572428 0.81082153 3.1284569e-06 -0.58529341 0
-0.028896626 0.056202538 0.4178316 0.81073093 1.4481417e-05 -0.58541894 0
0.022647696 0.054410432 0.41434261 -0.7944079 9.5034256e-06 -0.60738462 3.6640136e-05
-0.028918672 0.063048318 0.41780105 0.81081599 1.099545e-05 -0.58530116 0
0.01906669 0.063191794 0.41902554 -0.79434741 -7.8341536e-06 -0.60746378 0
0.022432581 0.065424889 0.41462401 -0.79436702 9.5330734e-06 -0.60743815 1.0613857e-05
-0.030390101 0.071127668 0.41576266 0.81083041 -5.1588331e-06 -0.58528113 6.3251523e-06
-0.028617 0.078782044 0.418219 0.81085265 2.2191041e-05 -0.58525044 1.199896e-05
0.022979595 0.076943532 0.4139086 -0.79420209 -7.6320161e-05 -0.60765374 0
-0.031860452 0.086680949 0.4137257 0.81091321 1.3838022e-05 -0.58516657 5.7352067e-05
-0.027514927 0.088336736 0.41974571 0.81094223 2.0928501e-05 -0.58512622 5.3539319e-05
0.019289805 0.083552033 0.41873372 -0.79434091 -1.922782e-05 -0.60747224 0
0.025630193 0.087649725 0.4104425 -0.79430306 -8.9444247e-06 -0.60752165 0
-0.030901134 0.093631223 0.41505471 0.81073517 -2.0389589e-05 -0.5854131 0
-0.028359752 0.094150588 0.41857535 0.81070948 -5.0323215e-05 -0.58544874 0
0.018629799 0.096976817 0.41959679 -0.79434049 -8.5114361e-06 -0.60747278 0
0.024078498 0.095406808 0.41247165 -0.79431039 -2.8037191e-05 -0.60751212 0
-0.031219717 0.10811479 0.41461337 0.81080985 -9.3041888e-07 -0.58530968 0
-0.029835429 0.10074797 0.41653109 0.81073034 8.8014012e-06 -0.58541989 0
0.022978231 0.10650613 0.41391045 -0.79427701 -1.6469035e-05 -0.60755581 0
-0.031780355 0.11624098 0.41383672 0.81082988 5.0589788e-06 -0.58528191 3.3006306e-06
-0.028394029 0.11602236 0.41852784 0.81083524 -3.3881131e-06 -0.58527446 8.257045e-06
0.019179303 0.11235283 0.41887826 -0.79434979 7.5415196e-06 -0.60746068 0
0.023210451 0.11704835 0.41360679 -0.79441667 1.1922553e-05 -0.60737312 4.0105791e-05
-0.031058133 0.12605906 0.41483721 0.81083387 -2.217656e-05 -0.58527631 5.1226607e-06
0.019727053 0.12627669 0.41816199 -0.79431665 -3.1651572e-05 -0.60750395 0
0.024206245 0.12899911 0.41230464 -0.79430014 -4.4283923e-05 -0.60752553 0
-0.031377822 0.1356201 0.41439432 0.81087059 -1.0782787e-05 -0.58522546 3.0504712e-05
-0.028198602 0.13711846 0.4187986 0.81077707 -2.5965439e-05 -0.58535498 0
0.019023094 0.13396986 0.41908258 -0.79428458 -2.5826728e-06 -0.60754585 0
0.023560166 0.13269351 0.41314951 -0.79428244 -6.21254e-05 -0.60754871 0
-0.031381138 0.14495175 0.4143897 0.81089306 4.7817925e-06 -0.58519429 4.2854343e-05
-0.028871655 0.1442786 0.4178662 0.81082422 -7.1889804e-06 -0.58528972 2.6956595e-06
0.019848481 0.14340129 0.41800326 -0.79435503 -2.2683789e-05 -0.6074537 0
0.022538608 0.14692296 0.41448537 -0.79430592 3.6069036e-06 -0.60751802 0
-0.031378612 0.15444542 0.41439322 0.81083786 3.1769352e-05 -0.58527082 7.9492393e-06
-0.027987203 0.15496655 0.41909137 0.81080711 -3.2108393e-05 -0.5853135 0
0.019418748 0.15905043 0.41856521 -0.79429895 -4.7180124e-06 -0.60752708 0
0.022616573 0.15543301 0.41438347 -0.79433805 5.8131373e-08 -0.60747606 0
-0.032472331 0.16919699 0.4128781 0.80547583 -0.056250099 -0.58995312 0.00819139
-0.028274965 0.16949609 0.41869283 0.7925759 -0.066045001 -0.60618597 0.0089836819
0.020528682 0.16411863 0.41711375 -0.79444671 -0.0036215994 -0.60732305 3.9432092e-05
-0.034475673 0.17965399 0.41010284 0.74281317 -0.23987745 -0.62504995 0.053068422
0.019399302 0.17771643 0.41859058 -0.7573784 -0.17064592 -0.63028401 0.027928155
0.024003491 0.17620653 0.41256973 -0.77318138 -0.18399848 -0.60690618 0.032144569
0.022917379 0.18451497 0.41399002 -0.76403463 -0.3308914 -0.55386102 0.064676262
-0.032673605 0.19500911 0.41082531 0.57032263 -0.62629712 -0.53149223 0.10036314
-0.027956411 0.19435365 0.41553089 0.5520038 -0.72874689 -0.40524039 0.091981918
-0.014830299 0.19551551 0.41714141 0.29255626 -0.93695271 -0.1911297 0.072798416
-0.0074104033 0.19551551 0.41398147 0.0084493123 -0.99589658 -0.090103552 0.015889389
0.0053922017 0.19551551 0.41766268 -0.31477857 -0.9195416 -0.23528214 0.062245499
0.012550612 0.19551551 0.41310254 -0.34224543 -0.89541656 -0.28477558 0.070725694
0.022707775 0.19326654 0.41314512 -0.65828079 -0.63362163 -0.4064357 0.081919484
-0.021419829 -0.19404496 0.42571935 0.56557733 0.69313931 -0.44685578 0.074829146
-0.013698595 -0.19551551 0.42507637 0.37309343 0.87600315 -0.30564642 0.07177721
-0.0052824221 -0.19551551 0.42412198 0.063651264 0.97661114 -0.20537548 0.090288788
0.0053529288 -0.19551551 0.42538458 -0.321702 0.89424968 -0.31116772 0.092846565
0.016507801 -0.19277158 0.42207241 -0.59308767 0.63165128 -0.49926299 0.078685634
-0.024243878 -0.18391271 0.42427716 0.76946032 0.42684892 -0.47511142 0.059946422
0.016101047 -0.18226202 0.42290354 -0.71171993 0.32694009 -0.62174344 0.055151735
-0.024236558 -0.17457588 0.42428723 0.79545361 0.1837429 -0.57748771 0.021531278
0.01574103 -0.1731431 0.42337435 -0.78250861 0.073490135 -0.61828762 0.011532915
-0.024044983 -0.16610225 0.42455268 0.80274826 0.020598894 -0.59596217 0.0015834131
0.012607503 -0.16466314 0.42747205 -0.7979731 0.0033183568 -0.60268396 0.0046496987
-0.024520857 -0.15504555 0.42389345 0.8108508 -2.9930799e-05 -0.58525294 1.3130067e-05
0.013622537 -0.15211618 0.42614469 -0.78481531 0.005860351 -0.61970204 0.00062656216
-0.026966589 -0.14298576 0.42050529 0.81085646 -3.5451703e-05 -0.58524501 2.0852493e-05
0.013525788 -0.14811158 0.4262712 -0.80227047 0.0043877414 -0.59694457 0.0028564881
-0.022698531 -0.13739149 0.42641792 0.75509953 0.010713241 -0.6555227 0.0099531962
0.016076051 -0.13982196 0.42293623 -0.79439175 4.6490726e-08 -0.60740578 2.2155784e-05
0.015496857 -0.12727949 0.42369366 -0.79434013 6.0544176e-06 -0.60747331 0
-0.023621369 -0.11458576 0.42513952 0.80396408 -0.0033482523 -0.59466851 0.00026847312
0.01273567 -0.11612315 0.42730445 -0.76380199 0.021650508 -0.64508742 0.022865722
-0.025116827 -0.10619317 0.42306781 0.80531257 0.000727951 -0.59284997 0.00024916753
-0.023003373 -0.096128002 0.42599565 0.76480401 0.0040852064 -0.64424998 0.010425421
0.015276045 -0.095975459 0.42398244 -0.79433578 -8.1500036e-07 -0.60747886 0
-0.024193024 -0.084887013 0.42434761 0.80988181 1.0324098e-05 -0.58659303 0
0.015046157 -0.083384752 0.42428303 -0.79440874 -7.8862411e-07 -0.60738349 3.6961697e-05
-0.021442866 -0.077325486 0.42815748 0.70543158 0.0073698666 -0.70873976 0.03446212
-0.021552479 -0.063909866 0.42800564 0.74314642 0.0011773912 -0.66912776 0.026465354
0.014069088 -0.065181777 0.42556077 -0.78093863 -0.0042896173 -0.62459308 0.0010498955
-0.026368689 -0.050637245 0.42133355 0.81083149 -1.172673e-06 -0.58527964 6.2331897e-06
0.014178533 -0.055751547 0.42541766 -0.78230608 -0.0031905186 -0.622886 0.0009915093
-0.025133528 -0.047452554 0.42304468 0.81086206 7.0165606e-07 -0.58523732 2.5004903e-05
0.013487136 -0.048873536 0.42632177 -0.77849972 0.00079127081 -0.62764436 0.0010504997
-0.0252837 -0.033926059 0.4228366 0.81083399 2.4664844e-06 -0.58527619 5.4106445e-06
0.012317603 -0.035470478 0.42785117 -0.77113712 -0.0041266666 -0.63665581 0.024617258
-0.021732211 -0.026569271 0.42775664 0.74504161 0.013069056 -0.66688991 0.02004886
0.01421881 -0.023976482 0.42536497 -0.7906124 0.00028687785 -0.61231685 0.00012185917
-0.023262586 -0.015591788 0.42563656 0.78534174 0.00086181297 -0.61906177 0.0052816523
0.0161885 -0.014585046 0.42278925 -0.79434794 5.5428922e-07 -0.60746306 0
-0.023815989 -0.0010392112 0.42486989 0.8061021 -0.00065127801 -0.59177619 0.00017833164
0.012881978 -0.0062713712 0.42711315 -0.78344983 -0.0029440795 -0.62144798 0.0078935549
-0.022626989 0.0051442771 0.4265171 0.7664867 -0.012460129 -0.64213938 0.0089814579
0.01496971 0.0078256046 0.42438304 -0.79442555 -1.5165083e-05 -0.6073615 4.2303487e-05
-0.024211183 0.016125206 0.42432246 0.79832321 -0.00030873038 -0.60222912 0.00076812593
0.01329086 0.014962961 0.42657843 -0.77931607 -0.0035663215 -0.62662089 0.0080177896
-0.025232073 0.028614666 0.42290819 0.81081569 -1.3740361e-08 -0.5853017 0
0.013796836 0.02624315 0.42591679 -0.76953673 -0.00075665838 -0.63860214 0.0042567304
-0.022660175 0.035831839 0.42647108 0.80066788 0.0039262045 -0.59909564 0.00074144074
0.012006164 0.034155097 0.42825845 -0.76470292 -0.016325464 -0.64417624 0.031375173
0.014352711 0.044442467 0.42518991 -0.7942853 -7.8990743e-06 -0.60754496 0
-0.023206556 0.055259746 0.42571416 0.80753434 -0.00058718666 -0.58982038 0.00014744878
0.013683417 0.053896308 0.42606512 -0.75557107 -0.0057759802 -0.65504122 0.008281514
-0.022892386 0.066381596 0.42614943 0.78999668 -0.0039906004 -0.6130982 0.0011069583
0.013929939 0.066010907 0.42574278 -0.79074025 0.0002845136 -0.61215174 8.8005094e-05
-0.02350593 0.073664457 0.42529947 0.80358994 -0.0020379452 -0.59517974 0.00029865108
0.013394631 0.074042939 0.42644277 -0.75931317 0.0045175026 -0.65070969 0.0061673927
-0.024283806 0.083928622 0.42422184 0.80789959 5.1838208e-05 -0.58932012 6.7876572e-05
0.013586782 0.088602781 0.42619151 -0.79856801 -0.004050876 -0.60189092 0.0036688843
-0.025222754 0.096437573 0.42292112 0.81069118 -1.4149272e-06 -0.58547407 0
0.017137904 0.093110055 0.42154777 -0.79428929 -2.1062006e-05 -0.60753977 0
-0.023605572 0.10461513 0.42516145 0.80102277 0.0017842028 -0.5986312 0.00082401989
0.014616443 0.10473225 0.42484507 -0.79231632 -5.7311963e-06 -0.61011058 3.3004795e-05
-0.024451755 0.11707786 0.42398918 0.80686706 -0.002533342 -0.59072763 0.00017447591
0.014279277 0.11747378 0.425286 -0.7885707 0.0002843359 -0.61494398 0.00026591832
-0.023950873 0.1256393 0.42468309 0.80698538 -0.00085267203 -0.59057081 0.0001231693
0.012799445 0.12467382 0.42722118 -0.76632005 0.022142494 -0.64207727 0.017560039
-0.022434458 0.13683583 0.4267838 0.77054429 -0.0089815669 -0.63732314 0.0071274592
0.014521482 0.13528109 0.42496929 -0.79434425 1.2171672e-05 -0.60746783 0
-0.022485875 0.14766245 0.4267126 0.75683874 0.014586155 -0.65343893 0.010988738
0.013685663 0.14630076 0.42606229 -0.77211255 -0.000748005 -0.63548541 0.0050788834
-0.025859457 0.15827744 0.422039 0.81082511 5.5864006e-05 -0.58528852 0
0.014468977 0.15360403 0.42503798 -0.79432285 -2.2076804e-06 -0.60749584 0
-0.022910256 0.16554345 0.42612466 0.77770388 -0.0044317036 -0.6286152 0.0076027084
0.014101657 0.16662566 0.4255183 -0.78351474 -0.027576262 -0.62076104 0.0022741791
-0.025295133 0.1725298 0.42282084 0.80868745 -0.09660095 -0.58025241 0.013847847
0.015875969 0.17553133 0.42319801 -0.7687158 -0.19275458 -0.60985374 0.028948253
-0.025656363 0.1849775 0.42232046 0.74079633 -0.41470811 -0.52842975 0.074892186
0.014273314 0.18601805 0.42529371 -0.74777961 -0.41233483 -0.52039003 0.080663718
-0.023632318 0.19551551 0.42377627 0.53953922 -0.79021263 -0.29062232 0.093145423
-0.016745105 0.19551551 0.42261818 0.37680927 -0.88877994 -0.26093104 0.075517759
-0.0044849738 0.19551551 0.42472181 -0.078152165 -0.97926223 -0.18691626 0.092755653
0.0069805733 0.19551551 0.4248693 -0.45532224 -0.83879167 -0.29851329 0.089707762
0.015242808 0.19385217 0.42380705 -0.56734353 -0.68349838 -0.45929438 0.077547573
-0.014409283 -0.19391479 0.43641493 0.57812935 0.66545838 -0.47215635 0.1397931
-0.0058990913 -0.19551551 0.43478832 0.15994361 0.94223899 -0.29428512 0.15693039
0.0028729029 -0.19551551 0.43332544 -0.32616299 0.89135683 -0.3148025 0.12006596
-0.016556 -0.18009751 0.43492737 0.74107248 0.2661342 -0.61642861 0.099572703
0.0073843664 -0.18639305 0.43430227 -0.66664392 0.51464742 -0.53918827 0.14979817
-0.017683823 -0.17339431 0.43336499 0.72652584 0.12479607 -0.67571157 0.061548516
0.0054065562 -0.17511556 0.43688864 -0.78417462 0.2001913 -0.58736151 0.10153288
-0.017665157 -0.1659029 0.43339083 0.70782936 -0.014132276 -0.70624214 0.04242659
0.0057975245 -0.16384175 0.43637741 -0.82178628 0.10922172 -0.55922973 0.11291785
-0.018388357 -0.1556069 0.43238896 0.67388725 -0.10322458 -0.73158777 0.05491377
0.0058245808 -0.15087773 0.436342 -0.8161872 -0.0032592255 -0.57777834 0.10750619
-0.017792532 -0.14428501 0.43321437 0.68093503 -0.01809413 -0.73212028 0.068907931
0.0064950907 -0.14695318 0.43546519 -0.79476428 -0.061711434 -0.60377264 0.093643956
-0.013620593 -0.13637051 0.43899387 0.73994231 0.030699482 -0.67196941 0.11474398
0.0054416675 -0.13794734 0.43684274 -0.78422225 0.023569053 -0.62003225 0.11100793
0.010232966 -0.13770142 0.43057719 -0.75081915 -0.0050211665 -0.66048872 0.06629914
-0.015403192 -0.12600631 0.43652442 0.7072925 0.097297184 -0.70019335 0.0942889
0.0091108344 -0.12165257 0.43204457 -0.75686795 0.0072762421 -0.65352732 0.061754193
0.010452263 -0.12875113 0.43029043 -0.77252221 -0.015718091 -0.63479316 0.054537009
-0.017727345 -0.11244846 0.43330467 0.69252694 -0.028098973 -0.72084457 0.070054948
0.0034666262 -0.11730669 0.43942547 -0.88307625 -0.027921483 -0.46839795 0.13057946
-0.019179204 -0.10323355 0.43129337 0.70107925 -0.004133902 -0.71307147 0.065551646
0.006935731 -0.10424711 0.43488896 -0.75262737 0.041117057 -0.65716165 0.085780643
0.01039652 -0.10455915 0.4303633 -0.73703563 0.019279845 -0.67557889 0.069469355
-0.014705584 -0.098522708 0.43749082 0.71691763 -0.0065108198 -0.69712746 0.10013045
0.0074872402 -0.095250487 0.43416774 -0.75772792 -0.041825414 -0.65122885 0.069678374
-0.017621003 -0.083122648 0.43345201 0.70757329 0.0059577082 -0.70661485 0.060647812
0.0058357525 -0.082449809 0.4363274 -0.7677027 -0.055034898 -0.63843852 0.12068332
-0.015000291 -0.073542945 0.43708253 0.74791986 0.017540025 -0.66355729 0.093808994
0.0079388274 -0.076074317 0.43357724 -0.72674513 -0.052812781 -0.684874 0.090813592
-0.015213408 -0.067301758 0.43678731 0.75221616 0.079913296 -0.6540525 0.090877965
0.0062952805 -0.068367749 0.43572646 -0.77823204 0.0084820967 -0.62791955 0.14251375
-0.016227577 -0.055623163 0.43538237 0.72256929 -0.084090911 -0.68616503 0.077812172
0.0048595867 -0.053379256 0.43760392 -0.84599364 0.049837828 -0.5308587 0.1246333
0.0060205101 -0.043904163 0.43608582 -0.81496251 0.060390532 -0.5763585 0.084073104
0.010000555 -0.048356183 0.43088114 -0.75828403 0.022020232 -0.65155232 0.05948652
-0.013477408 -0.036314942 0.43919221 0.82641912 0.024901023 -0.56250459 0.13206859
0.0073376764 -0.037203606 0.43436337 -0.79350191 0.021617072 -0.60818368 0.10004152
-0.017494053 -0.022148713 0.43362784 0.73223174 0.041514155 -0.67978907 0.053492345
0.0062304661 -0.022960991 0.43581119 -0.72450322 -0.029690234 -0.68863165 0.13862467
-0.015809398 -0.015902597 0.43596166 0.73393512 -0.027794726 -0.67865068 0.057172265
0.0071983133 -0.014418845 0.43454558 -0.78936946 0.033856649 -0.612984 0.093152702
-0.017471634 -0.0054925065 0.43365893 0.70355505 -0.001577826 -0.71063906 0.076307148
0.0088434573 -0.005437511 0.43239427 -0.75585777 0.023828341 -0.65430206 0.077586614
-0.016331829 0.0055996431 0.43523791 0.71249634 -0.022052325 -0.70132923 0.069568612
0.0069362447 0.0070348708 0.4348883 -0.75187135 -0.013113051 -0.65917945 0.1037944
0.010286544 0.0024138081 0.43050715 -0.75744963 -0.030118972 -0.65219855 0.057754524
-0.02001757 0.013231088 0.43013197 0.69591206 -0.00079028355 -0.71812665 0.044992596
-0.016338956 0.013702474 0.43522805 0.69928652 -0.0052673258 -0.71482199 0.072408788
0.0065303626 0.015226997 0.43541908 -0.73972547 -0.028352292 -0.67231113 0.10157091
-0.017018393 0.026631862 0.43428683 0.68998528 0.033866417 -0.72303075 0.075955108
0.0068709566 0.025612622 0.43497372 -0.73935986 0.024524808 -0.67286372 0.11389798
-0.015418901 0.036798023 0.43650264 0.63492399 0.01357126 -0.77245545 0.12676235
0.0056973267 0.033048369 0.43650845 -0.78411925 -0.0079360316 -0.62055945 0.105877
0.010108075 0.033018138 0.43074057 -0.73896533 -0.032754358 -0.67294687 0.067744248
-0.016040755 0.043448765 0.4356412 0.70124233 0.080002405 -0.70841992 0.10198324
0.0082674902 0.045236219 0.43314746 -0.71873838 -0.055324439 -0.69307607 0.095863461
0.010261274 0.040489759 0.4305402 -0.74973196 -0.017621011 -0.66150695 0.061233729
-0.020093901 0.051773988 0.43002626 0.71935505 0.015451542 -0.69447064 0.053036734
-0.016371284 0.053572524 0.43518329 0.7280342 -0.016491834 -0.68534237 0.074237213
0.0061873188 0.05471313 0.43586767 -0.75052923 0.028873527 -0.66020614 0.12763815
0.010013845 0.057997718 0.4308638 -0.75481355 -0.029721845 -0.65526569 0.059293628
-0.01641977 0.065116145 0.43511614 0.69253057 -0.05359016 -0.71939522 0.08331643
0.0070371102 0.065574296 0.43475643 -0.74078757 -0.037869152 -0.67067111 0.091032155
-0.018645821 0.075673997 0.43203232 0.69773465 -0.026740022 -0.71585709 0.070355877
0.0071949828 0.07356336 0.43454996 -0.70745188 0.0088864351 -0.70670563 0.081201434
0.010531629 0.079310775 0.43018669 -0.74066138 -0.016026534 -0.6716873 0.055764288
-0.016564772 0.083380446 0.43491524 0.69096941 0.004769498 -0.72286832 0.076452442
0.0054076393 0.084907003 0.43688726 -0.82880968 0.050027087 -0.5572896 0.14516181
-0.020060491 0.095476687 0.43007258 0.69695109 0.060644388 -0.71454978 0.041930184
-0.013021253 0.096822381 0.43982416 0.76232851 -0.057012107 -0.64467436 0.073940091
0.0070847766 0.093675666 0.43469408 -0.77537489 -0.0042257719 -0.63148701 0.08893197
-0.016425576 0.10728751 0.43510807 0.70563644 -0.032924861 -0.70780873 0.083109036
0.0068329 0.10531293 0.43502349 -0.7348299 -0.048851587 -0.67648995 0.10566716
-0.016003586 0.11584453 0.43569267 0.74211919 -0.02203786 -0.6699056 0.084176794
0.0075831423 0.11487212 0.43404245 -0.75200224 0.016523881 -0.65895337 0.080662109
0.010348354 0.11831197 0.43042639 -0.7358346 0.022558238 -0.67678547 0.059315227
-0.01607739 0.12440194 0.43559045 0.68424451 -0.031828415 -0.72855777 0.087236695
0.0063896156 0.12216131 0.43560317 -0.75317246 0.057384338 -0.65531534 0.10158546
-0.016931888 0.13520212 0.43440667 0.7111252 -0.0013311682 -0.7030642 0.067589559
0.0082819685 0.13812274 0.4331286 -0.76592439 0.060759209 -0.64005333 0.074160501
-0.016252067 0.1466015 0.43534845 0.73660475 -0.015444013 -0.67614704 0.088830456
0.0064532561 0.14182389 0.43551999 -0.79468971 0.025734814 -0.60647023 0.079380177
0.010392714 0.14532341 0.43036845 -0.76028061 -0.019235155 -0.64930993 0.05153444
0.0071929642 0.15655193 0.43455273 -0.80312502 0.0017429712 -0.59580803 0.068982184
-0.016399005 0.16353922 0.4351449 0.7085188 -0.032052401 -0.70496368 0.081014842
0.0074527063 0.16645306 0.43421304 -0.76593447 0.013598879 -0.64277476 0.064413473
0.010240616 0.16287926 0.43056732 -0.75925833 0.012063636 -0.65067756 0.0354545
-0.017550658 0.17386875 0.43354946 0.70811766 -0.16730376 -0.68598741 0.06333144
0.0072545162 0.17588244 0.4344722 -0.77738994 -0.13094595 -0.61523825 0.088069968
-0.014710784 0.18714896 0.43748364 0.75718665 -0.39035973 -0.52372479 0.12981448
0.0074134828 0.18958992 0.43426427 -0.67141843 -0.57639116 -0.46580082 0.13075754
-0.013478577 0.19444108 0.43657315 0.43517828 -0.77686876 -0.45507666 0.1476343
-0.0028694249 0.19551551 0.43306452 -0.13351595 -0.9557119 -0.26227519 0.13503097
0.0049942126 0.19280659 0.43342465 -0.55053818 -0.74692762 -0.37283623 0.12836689
-0.0052168267 -0.19383475 0.445452 0.9881224 -0.0047678058 -0.15359488 0.11753178
-0.01275183 -0.18173781 0.44019744 0.84650391 0.20624909 -0.49080792 0.12037127
-0.0057108034 -0.18463486 0.44773701 0.97463322 -0.042416096 -0.219752 0.11278743
0.0012849106 -0.18201363 0.4422785 -0.96997905 0.10888931 -0.21744825 0.15649541
-0.010298751 -0.17979886 0.44359571 0.90566427 0.075134337 -0.41728541 0.12010675
-0.0067501389 -0.1746442 0.44696289 0.96391094 -0.043033995 -0.26272365 0.12848698
0.002049074 -0.17129815 0.4412792 -0.90410167 0.12972212 -0.40715155 0.12213505
-0.0047855834 -0.1648231 0.44531351 0.98493135 -0.10432404 -0.13793685 0.14155561
0.0011663642 -0.16886626 0.44243354 -0.92958415 0.11220213 -0.35111839 0.12335772
-0.0038422979 -0.15504996 0.44619775 -0.99213475 0.090668991 -0.08630041 0.12280194
0.0018272179 -0.15395111 0.44156933 -0.92366183 0.086350687 -0.37335292 0.13577451
-0.010739414 -0.14038202 0.44298524 0.92857307 -0.077842452 -0.36289486 0.13993424
-0.0030242167 -0.14295259 0.44682503 -0.99668235 -0.045329776 -0.067598172 0.11237916
0.00081326743 -0.14546511 0.44289523 -0.9798606 -0.039595384 -0.19571786 0.15297537
-0.0034233616 -0.13293943 0.44714415 0.99284035 0.10241334 -0.061477695 0.12022909
0.0021400924 -0.13383169 0.44116017 -0.92381459 -0.033972446 -0.38132975 0.15804908
-0.011234222 -0.12541205 0.44229978 0.92456573 0.11856201 -0.36210674 0.18094635
0.0013273974 -0.12609494 0.44222292 -0.90291691 -0.013303675 -0.42960921 0.12038487
-0.012652447 -0.11908833 0.44033509 0.79422408 -0.024595618 -0.60712701 0.15597422
-0.0053091175 -0.11346044 0.44824758 0.99966866 0.0051370477 -0.025222963 0.12576836
0.0020888741 -0.11840028 0.44122714 -0.9341293 -0.073197708 -0.34934872 0.13050939
-0.010242724 -0.10763068 0.44367334 0.92361659 0.035925288 -0.38163036 0.15441798
-0.0060168444 -0.10441267 0.44611585 0.97257131 0.0041036294 -0.23256904 0.14092541
0.0012377931 -0.10005666 0.44234008 -0.98312891 0.0015102171 -0.1829078 0.16966356
-0.0051803286 -0.095450789 0.44737831 0.98818678 0.0091577042 -0.15298039 0.12353982
0.0016161343 -0.096699178 0.44184533 -0.95097697 -0.016522001 -0.30882004 0.17009884
-0.010222714 -0.085163608 0.44370106 0.91786075 0.030655339 -0.39571691 0.11416531
-0.0075641135 -0.083247244 0.44672447 0.94648647 0.02188242 -0.32200074 0.11443351
0.0015433156 -0.086567305 0.44194061 -0.98854798 -0.041139472 -0.14519101 0.16007176
-0.011073596 -0.073978432 0.44252229 0.85643393 0.09397801 -0.50763083 0.12199192
-0.0032195703 -0.075910755 0.44773674 0.97148043 0.063377686 -0.22849284 0.10363233
0.00042302185 -0.07525 0.44340557 -0.99968827 -0.023166899 -0.0093100052 0.18348454
-0.011930028 -0.064012378 0.44133586 0.82840246 0.00070095056 -0.56013292 0.11622647
-0.0055027073 -0.063977256 0.44692713 0.99030149 0.0022552088 -0.13891719 0.13220653
0.0020982625 -0.066654451 0.44121486 -0.94502264 0.060078766 -0.32143864 0.18758981
-0.012662289 -0.056571648 0.44032145 0.8255142 -0.050980978 -0.56207407 0.11257516
-0.0056990921 -0.056020223 0.44552761 -0.98721504 0.11481881 -0.11055793 0.1403861
-0.0058113229 -0.043117817 0.44711503 -0.99971539 0.013914241 -0.019379552 0.097988613
-0.011983573 -0.036350533 0.44126168 0.86703604 -0.01549207 -0.49800444 0.14527853
-0.0054060714 -0.034281008 0.4467929 0.99718058 0.040578105 -0.06312184 0.11355556
0.00083473441 -0.032106817 0.44286716 -0.96123475 -0.075894855 -0.26508054 0.13808499
-0.011983816 -0.021842934 0.44126135 0.86014467 0.02633515 -0.50936985 0.11633085
-0.0042562396 -0.025155649 0.44736359 0.99726433 0.062236577 -0.039882038 0.12802941
-0.012044678 -0.015295 0.44117704 0.82173395 -0.078922831 -0.56437981 0.095326297
-0.0042449655 -0.015601419 0.44950983 0.99060965 -0.098754376 -0.094551899 0.11486661
0.00033829594 -0.016721919 0.44351637 -0.99369335 0.027464114 -0.10871662 0.19139095
-0.010793933 -0.0050377008 0.44290975 0.89412773 -0.015064351 -0.44755864 0.16350336
-0.0057277516 -0.0054880758 0.44692799 0.95350277 0.011401933 -0.30116859 0.14384484
0.0012586321 -0.0039314553 0.44231284 -0.96414638 -0.02439856 -0.26424709 0.16574135
-0.004633476 0.0043258113 0.44753152 0.99503481 -0.020954899 -0.097296536 0.13749039
0.0012057842 0.0048524393 0.44238198 -0.99570698 0.060988959 -0.069626898 0.1755836
-0.010579458 0.019070428 0.44320685 0.91033608 0.075954169 -0.40684038 0.15482402
-0.0055472874 0.013380989 0.44585848 0.98167658 -0.048114762 -0.18438032 0.14527354
0.0012891034 0.013866881 0.44227302 -0.9761222 -0.0091395294 -0.21702974 0.17913419
-0.010208162 0.025629811 0.4437212 0.93189371 -0.036673419 -0.36087272 0.1854935
-0.005285149 0.024777731 0.4456329 0.9978196 -0.050965477 -0.041935056 0.17793362
0.0017207365 0.023750089 0.44170856 -0.90926361 -0.02279729 -0.41559598 0.16552511
-0.010712429 0.036994334 0.44302264 0.87490869 0.092569396 -0.47535843 0.16079117
-0.0054342016 0.036840018 0.44677842 0.9844237 0.075211726 -0.15891264 0.14737752
-0.0087378034 0.047004957 0.44575816 0.96953416 0.062521361 -0.23684287 0.14127961
0.0013737059 0.047203947 0.44216239 -0.93729973 -0.02686904 -0.34748706 0.16069146
-0.012407635 0.055106051 0.44067425 0.8240853 0.065997347 -0.562608 0.16518888
-0.0063630007 0.055060763 0.44692338 0.97900736 0.082755201 -0.18626891 0.14461175
-0.011487933 0.068263367 0.44194829 0.90619403 -0.027142152 -0.42199019 0.15972751
-0.0033425463 0.065252528 0.44619042 0.99413037 -0.10620498 0.020619856 0.17786033
