# .PCD v0.7 - Point Cloud Data file format
VERSION 0.7
FIELDS x y z normal_x normal_y normal_z curvature
SIZE 4 4 4 4 4 4 4
TYPE F F F F F F F
COUNT 1 1 1 1 1 1 1
WIDTH 834
HEIGHT 1
VIEWPOINT 0 0 0 1 0 0 0
POINTS 834
DATA ascii
0.024871653 -0.12483905 -0.5 -0.018169045 0.59440744 0.80395877 0.070075408
0.035124768 -0.12553607 -0.5 0.0055293762 0.63373387 0.77353144 0.075264335
0.046095967 -0.12548666 -0.5 0.004358585 0.62008476 0.78452265 0.06785512
0.054287039 -0.12523514 -0.5 -0.026494347 0.63180226 0.77467662 0.071504422
0.066420302 -0.12148428 -0.5 0.046696126 0.45956269 0.88691694 0.078496896
0.076310419 -0.12696049 -0.5 0.020805215 0.63882095 0.76907414 0.069746003
0.085303031 -0.12452371 -0.5 0.052607592 0.57216132 0.81845218 0.068542801
0.093618967 -0.12512106 -0.5 -0.0082502244 0.62197769 0.78299153 0.075876556
0.105853 -0.12613288 -0.5 -0.0035540515 0.59115517 0.80655003 0.077140272
0.11612064 -0.12522267 -0.5 0.013836578 0.51785076 0.85535908 0.088187657
0.12626205 -0.12450633 -0.5 -0.13641857 0.55892426 0.81792033 0.10694125
0.13782968 -0.12660272 -0.5 -0.4794924 0.44744208 0.75490576 0.14701472
0.143702 -0.12516609 -0.49686408 -0.68040228 0.21306586 0.70118165 0.12894385
-0.14427836 -0.11611874 -0.49572384 0.74396217 0.15578832 0.64980787 0.099583551
-0.13458829 -0.11471663 -0.5 0.41890439 0.24982867 0.87298614 0.089752041
-0.12337403 -0.11541864 -0.5 0.1513422 0.19204397 0.96964663 0.043849312
-0.11582364 -0.11784472 -0.5 -0.0064281421 0.29626006 0.95508569 0.052792758
-0.10784779 -0.11571118 -0.5 0.023788203 0.24085778 0.97026885 0.034205474
-0.094839141 -0.11486824 -0.5 -0.033471767 0.25120544 0.96735483 0.043041844
-0.085809872 -0.1123731 -0.5 0.016351413 0.18484603 0.98263144 0.024739251
-0.074093334 -0.11488685 -0.5 0.035765562 0.22980675 0.97257888 0.034777876
-0.068982184 -0.11702104 -0.5 -0.02086672 0.32959118 0.94389313 0.054420318
-0.055269141 -0.11608791 -0.5 0.0045844074 0.34557542 0.93837976 0.064211518
-0.046794277 -0.1169892 -0.5 -0.0023563188 0.23762198 0.97135484 0.052842051
-0.033305619 -0.11525895 -0.5 -0.020678841 0.29627994 0.95487732 0.055669744
-0.025871957 -0.11693553 -0.5 0.0065419669 0.34910944 0.9370591 0.072592795
-0.015263975 -0.11309689 -0.5 -0.017385604 0.20027258 0.97958595 0.036600608
-0.0027982593 -0.11449212 -0.5 0.040446375 0.1755091 0.98364657 0.032436967
0.0066024028 -0.11457406 -0.5 -0.015981656 0.19267884 0.98113173 0.032550372
0.016246846 -0.1135385 -0.5 -0.033407804 0.24204738 0.96968913 0.050522007
0.022001138 -0.11887885 -0.5 -0.00037022313 0.35609108 0.9344511 0.066097327
0.032569662 -0.11462192 -0.5 -0.035789896 0.20706087 0.97767317 0.032777682
0.043833084 -0.11373359 -0.5 -0.0090833427 0.2440158 0.96972877 0.032756366
0.05660842 -0.11373872 -0.5 -0.0020176689 0.21921961 0.9756735 0.029420419
0.064160936 -0.11649573 -0.5 0.032983519 0.36916029 0.92878032 0.067665577
0.073167764 -0.11588118 -0.5 -0.00098249863 0.301745 0.95338815 0.045412779
0.089272507 -0.1181991 -0.5 0.052642874 0.36783388 0.92840028 0.063058443
0.096771851 -0.11533763 -0.5 0.027552363 0.31073505 0.95009714 0.057497703
0.10392442 -0.11396775 -0.5 0.054382075 0.2470485 0.96747595 0.047829043
0.11626866 -0.1140313 -0.5 -0.010987383 0.16679907 0.98592967 0.026050419
0.12460855 -0.11613912 -0.5 -0.15692292 0.24789084 0.95599449 0.060587883
0.13338466 -0.11423841 -0.5 -0.40664583 0.19827051 0.89181161 0.090643786
0.14492454 -0.11574108 -0.49561137 -0.78402495 0.14960119 0.60243207 0.11102434
-0.14520323 -0.10498925 -0.49401551 0.89898968 0.048588082 0.43526632 0.05604431
-0.13612908 -0.10031547 -0.5 0.51369494 -0.016259646 0.85781884 0.07448069
-0.1264417 -0.10257711 -0.5 0.19375333 0.0093862079 0.98100531 0.026971826
-0.11567587 -0.10735627 -0.5 0.007477168 0.087512724 0.99613535 0.015180605
-0.10373764 -0.10517512 -0.5 -0.0081459209 0.078800976 0.99685711 0.0094290888
-0.094130903 -0.10590905 -0.5 0.011009881 0.10858709 0.99402595 0.01487022
-0.085925013 -0.10768172 -0.5 0.0097095678 0.15919293 0.98719978 0.023332842
-0.076020896 -0.10525169 -0.5 -0.0057152594 0.089472085 0.99597293 0.012244873
-0.061188105 -0.10689567 -0.5 0.011670068 0.056294769 0.99834597 0.0037790891
-0.05589072 -0.10504016 -0.5 0.0095876204 0.04367847 0.99899966 0.003921059
-0.046241555 -0.10447446 -0.5 -0.0013471292 0.03030391 0.99953979 0.0017470535
-0.034265328 -0.104693 -0.5 0.0035891447 0.033077937 0.99944633 0.0027084779
-0.027547386 -0.10007185 -0.5 -0 -0 1 0
-0.015962433 -0.10301711 -0.5 -0.00044217554 0.026431015 0.9996506 0.0021339434
-0.0026393104 -0.1036697 -0.5 -0.00040506371 0.025974434 0.99966252 0.0011959362
0.0044798353 -0.10485947 -0.5 0.012944206 0.05869931 0.99819177 0.0094612362
0.013807058 -0.10470114 -0.5 0.0082697822 0.015705472 0.99984252 0.00087207416
0.028547591 -0.10498171 -0.5 -0.003594324 0.061343916 0.99811018 0.0073092743
0.035223685 -0.10737681 -0.5 0.0035026351 0.11068022 0.99384993 0.015974198
0.046122119 -0.10744456 -0.5 -0.0072073182 0.15361144 0.98810506 0.026715357
0.058139622 -0.10641784 -0.5 -0.0024047079 0.12885129 0.99166095 0.019178733
0.064283408 -0.1062238 -0.5 0.0097106686 0.072368309 0.99733073 0.010013193
0.076773256 -0.10799818 -0.5 -0.01405337 0.12856081 0.99160206 0.022755912
0.084965073 -0.10649763 -0.5 -0.00038310431 0.12695037 0.99190903 0.020788118
0.094538838 -0.10435231 -0.5 0.0011596057 0.043527819 0.99905151 0.0035328786
0.10504092 -0.10551296 -0.5 0.0024590776 0.077879071 0.99695975 0.0080114314
0.11591209 -0.10633949 -0.5 0.0065130056 0.065417923 0.99783665 0.0077268262
0.1244671 -0.10404619 -0.5 -0.1496035 0.030680142 0.98826998 0.024955666
0.13414589 -0.10531175 -0.5 -0.47203609 -0.030487372 0.8810519 0.075769097
0.14296016 -0.10478278 -0.4990367 -0.65886045 0.038621232 0.75127316 0.072965428
-0.14362434 -0.095102035 -0.49872908 0.73801482 -0.00096023886 0.67478377 0.080366939
-0.13519511 -0.094771281 -0.5 0.45473453 -0.012100806 0.89054483 0.075990267
-0.12581155 -0.093069412 -0.5 0.22461134 0.010357713 0.97439343 0.032801166
-0.1108122 -0.099341385 -0.5 -0 -0 1 0
-0.10429251 -0.093447626 -0.5 0 0 1 0
-0.094867148 -0.097198285 -0.5 0 0 1 0
-0.084090576 -0.092348017 -0.5 -0 -0 1 0
-0.074792042 -0.092625618 -0.5 0 0 1 0
-0.067211539 -0.097462565 -0.5 0 0 1 0
-0.051748946 -0.091005206 -0.5 0 0 1 0
-0.045309983 -0.095458291 -0.5 -0 -0 1 0
-0.035386518 -0.096089736 -0.5 0 0 1 0
-0.023859989 -0.095484123 -0.5 -0 -0 1 0
-0.018759929 -0.094361097 -0.5 0 0 1 0
-0.0025550518 -0.094197869 -0.5 -0 -0 1 0
0.006301465 -0.094773568 -0.5 -0 -0 1 0
0.015148838 -0.096142739 -0.5 -0 -0 1 0
0.027120959 -0.094862893 -0.5 0 0 1 0
0.033984579 -0.095219187 -0.5 -0 -0 1 0
0.044213921 -0.094147384 -0.5 -0 -0 1 0
0.056214619 -0.0933351 -0.5 -0 -0 1 0
0.069817871 -0.097240537 -0.5 0 0 1 0
0.076464958 -0.094980419 -0.5 0 0 1 0
0.085619554 -0.093508713 -0.5 -0 -0 1 0
0.096400559 -0.09389396 -0.5 -0 -0 1 0
0.10342494 -0.094000302 -0.5 0 0 1 0
0.11332095 -0.095708609 -0.5 0 0 1 0
0.12239772 -0.097049333 -0.5 -0.16052794 -0.0030372702 0.98702663 0.028659381
0.13569507 -0.094362356 -0.5 -0.4248057 0.022295354 0.90500993 0.068834193
0.14492419 -0.094929747 -0.49607745 -0.84787518 0.079615749 0.52418417 0.068345644
-0.14518045 -0.084112018 -0.49759459 0.68882465 -0.048675884 0.72329199 0.07349243
-0.13418877 -0.085737765 -0.5 0.36364403 -0.044958431 0.93045241 0.064959645
-0.12489565 -0.083581805 -0.5 0.18668669 0.020696744 0.98220146 0.03779209
-0.11265197 -0.083520435 -0.5 -0 -0 1 0
-0.10567769 -0.083017223 -0.5 -0 -0 1 0
-0.095506303 -0.083010644 -0.5 -0 -0 1 0
-0.084159791 -0.087687649 -0.5 0 0 1 0
-0.077371895 -0.08461199 -0.5 0 0 1 0
-0.064420603 -0.084311098 -0.5 -0 -0 1 0
-0.058589306 -0.084360935 -0.5 0 0 1 0
-0.046144199 -0.087516487 -0.5 0 0 1 0
-0.033956245 -0.08387997 -0.5 -0 -0 1 0
-0.024968434 -0.083025888 -0.5 0 0 1 0
-0.0061220787 -0.085385174 -0.5 -0 -0 1 0
0.0047013387 -0.086095333 -0.5 -0 -0 1 0
0.017471045 -0.087533079 -0.5 0 0 1 0
0.024209375 -0.084351152 -0.5 0 0 1 0
0.035691287 -0.083971269 -0.5 -0 -0 1 0
0.046486229 -0.088211589 -0.5 0 0 1 0
0.054919988 -0.081895769 -0.5 -0 -0 1 0
0.065910399 -0.084678225 -0.5 -0 -0 1 0
0.078873403 -0.083425112 -0.5 -0 -0 1 0
0.085155949 -0.0848905 -0.5 -0 -0 1 0
0.098510891 -0.086333446 -0.5 -0 -0 1 0
0.1080303 -0.085829303 -0.5 -0 -0 1 0
0.11536736 -0.084362991 -0.5 -0.0042948136 4.1965934e-05 0.99999076 2.5781836e-05
0.12494005 -0.084482461 -0.5 -0.17103538 0.017271798 0.9851135 0.025397334
0.13430798 -0.083750151 -0.5 -0.51419395 -0.022410428 0.85738111 0.07738445
0.14253631 -0.085992739 -0.49914294 -0.66773623 -0.041770294 0.74322516 0.078923963
-0.14438672 -0.076694734 -0.49752197 0.68366623 -0.046449773 0.72831517 0.070445567
-0.13231307 -0.074484907 -0.5 0.37299252 0.010240214 0.92777789 0.067905381
-0.12308411 -0.075748034 -0.5 0.16081943 -0.02697677 0.98661506 0.029369194
-0.11874864 -0.074084915 -0.5 0.036270894 -0.0018187575 0.99934036 0.0010799009
-0.10882571 -0.077686615 -0.5 -0 -0 1 0
-0.086157173 -0.072933689 -0.5 0 0 1 0
-0.077042162 -0.071684249 -0.5 -0 -0 1 0
-0.063155346 -0.077873684 -0.5 0 0 1 0
-0.054501884 -0.075081006 -0.5 -0 -0 1 0
-0.046514034 -0.077919163 -0.5 -0 -0 1 0
-0.035200495 -0.073433951 -0.5 0 0 1 0
-0.024155477 -0.074083529 -0.5 -0 -0 1 0
-0.014528577 -0.076203518 -0.5 0 0 1 0
-0.004229404 -0.073355213 -0.5 -0 -0 1 0
0.002538532 -0.075719252 -0.5 -0 -0 1 0
0.016510785 -0.076515868 -0.5 0 0 1 0
0.024677293 -0.074265979 -0.5 0 0 1 0
0.034523774 -0.074257642 -0.5 -0 -0 1 0
0.047104813 -0.073761761 -0.5 0 0 1 0
0.057528757 -0.075022221 -0.5 -0 -0 1 0
0.067077488 -0.076208219 -0.5 0 0 1 0
0.079549536 -0.073687822 -0.5 -0 -0 1 0
0.084144175 -0.075226694 -0.5 -0 -0 1 0
0.096022658 -0.075640716 -0.5 0 0 1 0
0.11492407 -0.074974336 -0.5 -0.0043053995 0.0015106219 0.99998957 5.9782542e-05
0.12166589 -0.074746802 -0.5 -0.12937458 0.012263238 0.99151993 0.016350187
0.1340427 -0.075002603 -0.5 -0.35832676 -0.068831012 0.93105549 0.064099871
0.14454253 -0.076060914 -0.49495953 -0.83865219 -0.056362789 0.54174328 0.074800283
-0.14471433 -0.06245311 -0.49698514 0.75646579 0.068885975 0.65039551 0.081883602
-0.1321813 -0.064334109 -0.5 0.41078064 -0.0094094984 0.91168571 0.078055367
-0.12456733 -0.063348919 -0.5 0.21023583 -0.013129348 0.97756249 0.033179756
-0.11399057 -0.063396119 -0.5 -0 -0 1 0
-0.10405715 -0.06400267 -0.5 0 0 1 0
-0.085636221 -0.065232068 -0.5 -0 -0 1 0
-0.076797068 -0.065452255 -0.5 -0 -0 1 0
-0.063634761 -0.061988726 -0.5 0 0 1 0
-0.053636752 -0.064253181 -0.5 -0 -0 1 0
-0.044945531 -0.066400498 -0.5 0 0 1 0
-0.037224963 -0.064508632 -0.5 0 0 1 0
-0.024273008 -0.063727267 -0.5 0 0 1 0
-0.014586003 -0.065272041 -0.5 -0 -0 1 0
-0.0066818409 -0.064130872 -0.5 0 0 1 0
0.0086215734 -0.064677775 -0.5 0 0 1 0
0.015528932 -0.063393429 -0.5 -0 -0 1 0
0.02713016 -0.063971311 -0.5 0 0 1 0
0.033283655 -0.063854203 -0.5 -0 -0 1 0
0.045458525 -0.066330194 -0.5 -0 -0 1 0
0.056154702 -0.066351548 -0.5 -0 -0 1 0
0.064429715 -0.065681867 -0.5 -0 -0 1 0
0.073646873 -0.06653659 -0.5 -0 -0 1 0
0.083320461 -0.063398711 -0.5 0 0 1 0
0.093858838 -0.063456759 -0.5 0 0 1 0
0.1058973 -0.066033848 -0.5 0 0 1 0
0.11513622 -0.065488182 -0.5 -0.022946492 -0.0024471169 0.99973369 0.0012425036
0.12215045 -0.064505085 -0.5 -0.17123812 -0.021578083 0.98499328 0.027196473
0.13654713 -0.064129688 -0.5 -0.4193432 0.025845125 0.90745986 0.064676188
0.14416653 -0.065221615 -0.49617544 -0.77732509 -0.018453451 0.62882841 0.092108421
-0.14478472 -0.053399503 -0.49727279 0.86280286 -0.00046818989 0.50554025 0.068659417
-0.13918488 -0.054085542 -0.5 0.57422847 0.060730487 0.81643951 0.081529096
-0.12819943 -0.055830095 -0.5 0.1974082 0.0049830568 0.98030871 0.032065023
-0.11478946 -0.053698491 -0.5 0 0 1 0
-0.10359424 -0.054207664 -0.5 -0 -0 1 0
-0.096083559 -0.053221915 -0.5 -0 -0 1 0
-0.085259296 -0.053016175 -0.5 0 0 1 0
-0.073014788 -0.053740796 -0.5 -0 -0 1 0
-0.064502954 -0.055685431 -0.5 0 0 1 0
-0.054805636 -0.057760809 -0.5 0 0 1 0
-0.044820521 -0.054964222 -0.5 0 0 1 0
-0.036873486 -0.052275073 -0.5 0 0 1 0
-0.021740744 -0.053145304 -0.5 -0 -0 1 0
-0.01502832 -0.055538956 -0.5 0 0 1 0
-0.0058202501 -0.055604175 -0.5 0 0 1 0
0.0032381464 -0.056678955 -0.5 -0 -0 1 0
0.017334878 -0.054921284 -0.5 -0 -0 1 0
0.025659375 -0.052268874 -0.5 -0 -0 1 0
0.032656532 -0.055535126 -0.5 0 0 1 0
0.045350119 -0.054179143 -0.5 0 0 1 0
0.054169782 -0.053182848 -0.5 0 0 1 0
0.067941234 -0.055110991 -0.5 0 0 1 0
0.074444987 -0.053933464 -0.5 -0 -0 1 0
0.09743274 -0.05438856 -0.5 -0 -0 1 0
0.10924587 -0.054965608 -0.5 -0 -0 1 0
0.11023998 -0.058132246 -0.5 -0 -0 1 0
0.12571727 -0.055151079 -0.5 -0.22556262 -0.022511521 0.97396857 0.032924518
0.13413019 -0.052999243 -0.5 -0.3654817 -0.017460115 0.93065476 0.061826311
0.14503115 -0.055012796 -0.49415636 -0.87205195 -0.047305994 0.48712167 0.073513158
-0.14399715 -0.045791488 -0.49714938 0.71841604 0.016615948 0.69541526 0.09390983
-0.1354983 -0.047302645 -0.5 0.53909898 -0.027238572 0.84180188 0.082171783
-0.12605505 -0.043557771 -0.5 0.18490714 0.016161883 0.9826231 0.030903192
-0.11578933 -0.044114772 -0.5 0.012652087 0.0019374139 0.9999181 0.00059836608
-0.1033555 -0.048302211 -0.5 0 0 1 0
-0.094366461 -0.045922771 -0.5 -0 -0 1 0
-0.086558126 -0.04452762 -0.5 -0 -0 1 0
-0.074696638 -0.045510504 -0.5 0 0 1 0
-0.065840326 -0.045154136 -0.5 0 0 1 0
-0.056892823 -0.043118384 -0.5 -0 -0 1 0
-0.043317378 -0.043920536 -0.5 0 0 1 0
-0.03280079 -0.045937877 -0.5 0 0 1 0
-0.025673443 -0.046936128 -0.5 0 0 1 0
-0.015099142 -0.045189209 -0.5 0 0 1 0
-0.0036158413 -0.043452002 -0.5 -0 -0 1 0
0.011479758 -0.045573436 -0.5 -0 -0 1 0
0.026118634 -0.04707963 -0.5 -0 -0 1 0
0.036733039 -0.044479303 -0.5 0 0 1 0
0.045654681 -0.04362718 -0.5 -0 -0 1 0
0.056257617 -0.046941169 -0.5 0 0 1 0
0.063283227 -0.043103885 -0.5 0 0 1 0
0.07263881 -0.041841924 -0.5 0 0 1 0
0.08524891 -0.044079553 -0.5 -0 -0 1 0
0.096471511 -0.045284986 -0.5 -0 -0 1 0
0.10600577 -0.045917451 -0.5 -0 -0 1 0
0.1150065 -0.045829013 -0.5 -0.0065027894 -0.00064964552 0.99997866 0.00014360996
0.12273011 -0.044337898 -0.5 -0.18197067 0.015861707 0.98317605 0.032798018
0.13421005 -0.041659784 -0.5 -0.43168375 0.040850114 0.9010995 0.074870475
0.14420971 -0.044147346 -0.49853769 -0.74660075 0.030746212 0.66456139 0.088952385
-0.14455871 -0.035475601 -0.49596515 0.82304585 -0.042256862 0.56640089 0.082229272
-0.1324807 -0.033936519 -0.5 0.37265867 0.027487855 0.92756128 0.072313383
-0.12510176 -0.034205832 -0.5 0.18035543 -0.002492697 0.98359829 0.025475172
-0.11599359 -0.03256331 -0.5 0.028042328 0.0022318682 0.99960428 0.0011747982
-0.10445827 -0.032539718 -0.5 -0 -0 1 0
-0.09060806 -0.035729297 -0.5 -0 -0 1 0
-0.08537294 -0.033322223 -0.5 0 0 1 0
-0.076101892 -0.034473613 -0.5 0 0 1 0
-0.065617852 -0.036349747 -0.5 -0 -0 1 0
-0.055938248 -0.034068629 -0.5 0 0 1 0
-0.041412003 -0.036664877 -0.5 0 0 1 0
-0.038946189 -0.035164986 -0.5 -0 -0 1 0
-0.024676723 -0.033976559 -0.5 0 0 1 0
-0.014604348 -0.035643402 -0.5 0 0 1 0
-0.0014679978 -0.035056081 -0.5 0 0 1 0
0.0033911853 -0.033609726 -0.5 -0 -0 1 0
0.015359665 -0.034927726 -0.5 0 0 1 0
0.023450945 -0.033801343 -0.5 -0 -0 1 0
0.032595739 -0.036701422 -0.5 -0 -0 1 0
0.040957063 -0.030631049 -0.5 -0 -0 1 0
0.055735722 -0.036909536 -0.5 0 0 1 0
0.061484337 -0.031473216 -0.5 0 0 1 0
0.074868746 -0.034663994 -0.5 0 0 1 0
0.085315816 -0.035259765 -0.5 0 0 1 0
0.094680771 -0.036181718 -0.5 -0 -0 1 0
0.10567433 -0.035168882 -0.5 -0 -0 1 0
0.11271676 -0.035142463 -0.5 0 0 1 0
0.12492648 -0.035385709 -0.5 -0.20889516 0.017444072 0.97778249 0.029197432
0.13474682 -0.036285531 -0.5 -0.46411583 -0.054511864 0.88409555 0.074193731
0.14398921 -0.035195317 -0.49507579 -0.73335034 -0.024914451 0.67939425 0.06907066
-0.14422955 -0.024291957 -0.49751067 0.69439232 -0.054233443 0.71754998 0.092406042
-0.13431419 -0.026189571 -0.5 0.43287313 -0.021972366 0.901187 0.07393986
-0.12338976 -0.022996766 -0.5 0.17072 0.017893083 0.98515707 0.026353344
-0.11500783 -0.028080229 -0.5 0.013194379 -0.0016276314 0.99991167 0.0003578949
-0.10527036 -0.024365548 -0.5 0 0 1 0
-0.094465859 -0.021209473 -0.5 0 0 1 0
-0.083657786 -0.023802027 -0.5 0 0 1 0
-0.075400151 -0.02595067 -0.5 0 0 1 0
-0.064641118 -0.020687101 -0.5 -0 -0 1 0
-0.056204766 -0.023597201 -0.5 0 0 1 0
-0.044544347 -0.024572894 -0.5 -0 -0 1 0
-0.034276616 -0.026083803 -0.5 -0 -0 1 0
-0.021221893 -0.025744736 -0.5 0 0 1 0
-0.014564969 -0.024174411 -0.5 0 0 1 0
-0.0058032237 -0.025693757 -0.5 -0 -0 1 0
0.0054753595 -0.027369982 -0.5 -0 -0 1 0
0.015017726 -0.028623149 -0.5 -0 -0 1 0
0.023728747 -0.026017457 -0.5 -0 -0 1 0
0.034050819 -0.026095824 -0.5 0 0 1 0
0.044576623 -0.023946131 -0.5 0 0 1 0
0.052791584 -0.026632365 -0.5 -0 -0 1 0
0.063997068 -0.026217852 -0.5 0 0 1 0
0.074284554 -0.021286713 -0.5 0 0 1 0
0.086203918 -0.026290618 -0.5 -0 -0 1 0
0.095172472 -0.025289014 -0.5 -0 -0 1 0
0.10527341 -0.025275242 -0.5 0 0 1 0
0.11780741 -0.025522377 -0.5 -0.040362757 0.0098056849 0.99913692 0.0020677713
0.12427196 -0.023630837 -0.5 -0.18105692 0.022652753 0.9832117 0.029556017
0.13537943 -0.025479347 -0.5 -0.55615652 0.018322211 0.83087552 0.078439295
0.14423513 -0.024398034 -0.49621886 -0.70618838 -0.0062484597 0.70799643 0.0694151
-0.14489619 -0.014895144 -0.49687144 0.74167144 0.054465938 0.66854841 0.087377369
-0.13279706 -0.013566959 -0.5 0.39490688 0.023935597 0.91840935 0.06889113
-0.12489591 -0.017506523 -0.5 0.21992086 -0.0012373138 0.97551686 0.034512576
-0.11642822 -0.014302656 -0.5 0.03716787 -0.0028705469 0.99930495 0.0015957189
-0.10435959 -0.015056456 -0.5 0 0 1 0
-0.09353973 -0.014780739 -0.5 -0 -0 1 0
-0.081948318 -0.01426198 -0.5 0 0 1 0
-0.074344851 -0.014070977 -0.5 0 0 1 0
-0.064888731 -0.015341047 -0.5 0 0 1 0
-0.056131572 -0.011780478 -0.5 -0 -0 1 0
-0.04774436 -0.010565061 -0.5 -0 -0 1 0
-0.035769701 -0.016746942 -0.5 -0 -0 1 0
-0.024912698 -0.016567534 -0.5 -0 -0 1 0
-0.01273267 -0.016478166 -0.5 -0 -0 1 0
-0.0037754625 -0.014842425 -0.5 -0 -0 1 0
0.0034907311 -0.013692889 -0.5 -0 -0 1 0
0.01339558 -0.016113412 -0.5 0 0 1 0
0.023727713 -0.015175193 -0.5 0 0 1 0
0.034871027 -0.014528225 -0.5 0 0 1 0
0.045194842 -0.014318615 -0.5 -0 -0 1 0
0.057146028 -0.014294825 -0.5 0 0 1 0
0.069789678 -0.015791794 -0.5 -0 -0 1 0
0.07540001 -0.017604195 -0.5 0 0 1 0
0.086727619 -0.013746543 -0.5 -0 -0 1 0
0.095139027 -0.013940916 -0.5 0 0 1 0
0.10532046 -0.01431264 -0.5 0 0 1 0
0.11484171 -0.014194721 -0.5 -0.0061277119 -1.025842e-05 0.99998122 8.2161678e-05
0.12514172 -0.013511044 -0.5 -0.2172052 -0.0072216904 0.97609925 0.028515738
0.13360369 -0.015450843 -0.5 -0.40471077 0.0052442593 0.91442966 0.067151032
0.14328127 -0.014349118 -0.49863777 -0.61590844 -0.028784554 0.78729171 0.065750957
-0.14477742 -0.0060010529 -0.49575204 0.74163747 -0.012677217 0.67068118 0.076450087
-0.13770455 -0.0045426888 -0.5 0.60095561 0.033249002 0.7985906 0.081290513
-0.12399658 -0.0069121532 -0.5 0.17478719 -0.021470742 0.98437214 0.02636941
-0.11506624 -0.0065739746 -0.5 0 0 1 0
-0.10386751 -0.0015572564 -0.5 0 0 1 0
-0.098371387 -0.0049601607 -0.5 0 0 1 0
-0.084528342 -0.0036766129 -0.5 -0 -0 1 0
-0.073899992 -0.004437855 -0.5 -0 -0 1 0
-0.064353228 -0.0045120344 -0.5 -0 -0 1 0
-0.054228827 -0.0044576824 -0.5 -0 -0 1 0
-0.04230826 -0.0079678232 -0.5 0 0 1 0
-0.033450589 -0.0063086166 -0.5 -0 -0 1 0
-0.023020269 -0.0041853441 -0.5 -0 -0 1 0
-0.016938845 -0.0060785189 -0.5 0 0 1 0
-0.0037391167 -0.0055999449 -0.5 -0 -0 1 0
0.0071201301 -0.0015447935 -0.5 -0 -0 1 0
0.016116858 -0.0048801266 -0.5 -0 -0 1 0
0.024671901 -0.0067972634 -0.5 0 0 1 0
0.035086673 -0.0058705262 -0.5 -0 -0 1 0
0.045324735 -0.0079972353 -0.5 -0 -0 1 0
0.055418923 -0.0066106045 -0.5 0 0 1 0
0.062249769 -0.0025897603 -0.5 0 0 1 0
0.075152524 -0.0055354447 -0.5 0 0 1 0
0.084458582 -0.0045328126 -0.5 0 0 1 0
0.09561377 -0.0052106255 -0.5 0 0 1 0
0.10736954 -0.0038423003 -0.5 -0 -0 1 0
0.1117893 -0.0039537791 -0.5 0 0 1 0
0.12383135 -0.0055571077 -0.5 -0.16981572 -0.0086962478 0.98543751 0.02955367
0.13481112 -0.0043534134 -0.5 -0.48186079 0.022424754 0.87596083 0.07503967
0.14327246 -0.0048945402 -0.49679878 -0.72607476 0.023318237 0.68722039 0.071297742
-0.14520323 0.0059690084 -0.49581802 0.82192183 0.0099110678 0.56951398 0.075611182
-0.13708273 0.0026691202 -0.5 0.52802676 -0.020770282 0.84897369 0.07827355
-0.12280536 0.0053606927 -0.5 0.12279756 -0.012777518 0.99234951 0.020397833
-0.11551873 0.0045551709 -0.5 0.016153965 -0.0042190319 0.99986064 0.000856912
-0.10482065 0.0064124148 -0.5 -0 -0 1 0
-0.094291531 0.0057175322 -0.5 0 0 1 0
-0.081199877 0.0024297321 -0.5 -0 -0 1 0
-0.073248401 0.0030940422 -0.5 0 0 1 0
-0.067690492 0.0042892136 -0.5 -0 -0 1 0
-0.053807579 0.0054002758 -0.5 0 0 1 0
-0.043357365 0.0051694177 -0.5 0 0 1 0
-0.034186937 0.0039496268 -0.5 0 0 1 0
-0.024849579 0.0032832259 -0.5 -0 -0 1 0
-0.017563993 0.0026774451 -0.5 -0 -0 1 0
-0.0062876809 0.0048589017 -0.5 0 0 1 0
0.0067368597 0.0032820757 -0.5 0 0 1 0
0.015556407 0.0053878529 -0.5 -0 -0 1 0
0.025198817 0.0051367581 -0.5 0 0 1 0
0.030383512 0.0052776895 -0.5 0 0 1 0
0.045160316 0.0048007034 -0.5 0 0 1 0
0.054842636 0.0059187589 -0.5 0 0 1 0
0.063485742 0.0043520643 -0.5 -0 -0 1 0
0.074569166 0.0062410594 -0.5 -0 -0 1 0
0.081536561 0.0060743708 -0.5 0 0 1 0
0.095319599 0.0050727152 -0.5 -0 -0 1 0
0.10444795 0.0067921774 -0.5 -0 -0 1 0
0.11599156 0.0025292991 -0.5 -0.032922253 0.001607542 0.99945664 0.0016558626
0.12396272 0.0059927078 -0.5 -0.15529497 -0.01131261 0.98780334 0.023145761
0.13266003 0.0045088832 -0.5 -0.39286062 -0.011091687 0.91953117 0.074760281
0.14424767 0.0059370892 -0.49573645 -0.75073791 0.043080218 0.65919405 0.071562991
-0.14386781 0.013646889 -0.49654016 0.6549986 0.019790934 0.75537086 0.094507173
-0.13713272 0.018670918 -0.5 0.48674846 0.044825695 0.87239128 0.094105348
-0.12671852 0.013734234 -0.5 0.17816979 0.0028397376 0.98399568 0.028735751
-0.11453282 0.016756048 -0.5 0.015346296 0.0034579472 0.99987626 0.0007549178
-0.105839 0.016117588 -0.5 -0 -0 1 0
-0.094458483 0.014092848 -0.5 -0 -0 1 0
-0.086461902 0.015595808 -0.5 -0 -0 1 0
-0.075813495 0.014211126 -0.5 0 0 1 0
-0.068853676 0.010177597 -0.5 0 0 1 0
-0.05558867 0.013529876 -0.5 -0 -0 1 0
-0.044823579 0.015823847 -0.5 0 0 1 0
-0.035588037 0.01519421 -0.5 0 0 1 0
-0.025599226 0.015210575 -0.5 0 0 1 0
-0.016372507 0.017612694 -0.5 0 0 1 0
-0.006589869 0.012978703 -0.5 -0 -0 1 0
0.0033681989 0.013331525 -0.5 -0 -0 1 0
0.017248236 0.015690234 -0.5 -0 -0 1 0
0.02709803 0.011183782 -0.5 -0 -0 1 0
0.034443256 0.012966475 -0.5 0 0 1 0
0.044623565 0.0134074 -0.5 0 0 1 0
0.054093797 0.01602485 -0.5 0 0 1 0
0.063084669 0.012084941 -0.5 -0 -0 1 0
0.078256734 0.017230392 -0.5 -0 -0 1 0
0.085564137 0.014807163 -0.5 -0 -0 1 0
0.096244119 0.016235203 -0.5 -0 -0 1 0
0.10465947 0.014587003 -0.5 -0 -0 1 0
0.11392495 0.014268984 -0.5 0 0 1 0
0.12703007 0.014505372 -0.5 -0.23878734 -0.0018647845 0.97107011 0.033869445
0.13445947 0.012705117 -0.5 -0.48003826 0.027134841 0.87682778 0.071808204
0.14373007 0.016818384 -0.49668613 -0.76881677 0.021448569 0.63910937 0.06851656
-0.14402361 0.026034301 -0.49877161 0.67546183 0.0030292748 0.73738873 0.10718017
-0.13811275 0.023902461 -0.5 0.52684975 -0.025189662 0.84958512 0.1011143
-0.12148296 0.023431947 -0.5 0.11488048 0.0067279516 0.99335653 0.021264922
-0.1143057 0.022725342 -0.5 0.006294962 2.3760582e-05 0.99998021 8.3533734e-05
-0.1074889 0.023310959 -0.5 -0 -0 1 0
-0.093072236 0.029079005 -0.5 0 0 1 0
-0.082541332 0.029264236 -0.5 -0 -0 1 0
-0.073974043 0.023351094 -0.5 0 0 1 0
-0.064846113 0.024112828 -0.5 0 0 1 0
-0.055122182 0.024287308 -0.5 -0 -0 1 0
-0.047396917 0.021906609 -0.5 -0 -0 1 0
-0.033431403 0.020831674 -0.5 0 0 1 0
-0.023294006 0.026953112 -0.5 0 0 1 0
-0.016706934 0.02575548 -0.5 0 0 1 0
-0.0038436532 0.025785755 -0.5 -0 -0 1 0
0.0034942876 0.027213017 -0.5 -0 -0 1 0
0.016029211 0.024470886 -0.5 0 0 1 0
0.022142891 0.024561912 -0.5 0 0 1 0
0.035261218 0.022683769 -0.5 -0 -0 1 0
0.043051936 0.024306359 -0.5 0 0 1 0
0.057538435 0.024260767 -0.5 -0 -0 1 0
0.067173794 0.026326865 -0.5 0 0 1 0
0.079259016 0.027043376 -0.5 0 0 1 0
0.085247211 0.021342402 -0.5 -0 -0 1 0
0.095928058 0.025390696 -0.5 0 0 1 0
0.10503191 0.02594397 -0.5 0 0 1 0
0.11674406 0.026530268 -0.5 -0.028925329 0.0047642188 0.99957019 0.0011967476
0.12564409 0.024919491 -0.5 -0.19306904 0.010072853 0.9811334 0.031902906
0.13467434 0.025430987 -0.5 -0.45869887 -0.014193182 0.88847846 0.074782379
0.14409259 0.024792142 -0.49699605 -0.75130415 0.027642807 0.65937692 0.082143463
-0.1437213 0.036436375 -0.49762416 0.7875126 0.036569092 0.61521268 0.075190723
-0.13720149 0.034064516 -0.5 0.45835996 0.059240259 0.88679016 0.079583675
-0.12614572 0.036620483 -0.5 0.13000466 0.0092958016 0.99146986 0.020076336
-0.11200683 0.032495312 -0.5 0 0 1 0
-0.10471588 0.034724895 -0.5 -0 -0 1 0
-0.094894014 0.033755507 -0.5 0 0 1 0
-0.074115254 0.034658197 -0.5 -0 -0 1 0
-0.065145962 0.035456814 -0.5 -0 -0 1 0
-0.053778812 0.036028728 -0.5 0 0 1 0
-0.045964688 0.036883682 -0.5 -0 -0 1 0
-0.036817174 0.037650906 -0.5 -0 -0 1 0
-0.02570861 0.034217123 -0.5 -0 -0 1 0
-0.013517988 0.034948993 -0.5 0 0 1 0
-0.0046533556 0.033081766 -0.5 0 0 1 0
0.0023820624 0.039730828 -0.5 0 0 1 0
0.013511327 0.034905598 -0.5 0 0 1 0
0.025311047 0.037193954 -0.5 -0 -0 1 0
0.034091163 0.033330128 -0.5 0 0 1 0
0.045060836 0.035998262 -0.5 -0 -0 1 0
0.053066015 0.032683495 -0.5 0 0 1 0
0.064625449 0.033334509 -0.5 -0 -0 1 0
0.074327268 0.035634685 -0.5 -0 -0 1 0
0.093518831 0.038598232 -0.5 0 0 1 0
0.10738467 0.034287263 -0.5 0 0 1 0
0.11518217 0.03596741 -0.5 -0.012075403 -0.0012657668 0.99992627 0.00041786279
0.12541433 0.031631399 -0.5 -0.25669131 -0.0036808969 0.96648645 0.039417554
0.13233413 0.03631863 -0.5 -0.37742528 0.0066801533 0.92601597 0.06990917
0.14520323 0.035221659 -0.49455217 -0.86705625 0.0022264863 0.49820527 0.072677836
-0.14396602 0.044768609 -0.49887744 0.68221062 -0.085046977 0.72619253 0.095619038
-0.12411221 0.043966804 -0.5 0.13021035 -0.038675997 0.99073184 0.026340997
-0.1145043 0.046465896 -0.5 0.005346443 0.00038199298 0.99998564 4.8187216e-05
-0.10630814 0.046851639 -0.5 0 0 1 0
-0.093364626 0.047193255 -0.5 0 0 1 0
-0.087172709 0.045877647 -0.5 0 0 1 0
-0.072850086 0.048856467 -0.5 0 0 1 0
-0.063759133 0.045051321 -0.5 -0 -0 1 0
-0.053504448 0.047406513 -0.5 0 0 1 0
-0.04592834 0.043844316 -0.5 0 0 1 0
-0.033368874 0.046890628 -0.5 -0 -0 1 0
-0.025669524 0.044905275 -0.5 -0 -0 1 0
-0.014493774 0.042777408 -0.5 0 0 1 0
-0.0040910766 0.044081196 -0.5 0 0 1 0
0.0040683015 0.043978147 -0.5 -0 -0 1 0
0.018057037 0.044277668 -0.5 0 0 1 0
0.028673761 0.040220831 -0.5 0 0 1 0
0.037085522 0.044401113 -0.5 0 0 1 0
0.044587046 0.041668355 -0.5 -0 -0 1 0
0.055629894 0.049458552 -0.5 0 0 1 0
0.065666392 0.045512281 -0.5 0 0 1 0
0.076373704 0.045454949 -0.5 0 0 1 0
0.084664568 0.04412163 -0.5 -0 -0 1 0
0.093945049 0.047213968 -0.5 0 0 1 0
0.10751 0.046531398 -0.5 -0 -0 1 0
0.11465457 0.044208784 -0.5 -0.011397704 -0.0022326545 0.99993259 0.00041115575
0.12110352 0.049983062 -0.5 -0.12831436 -0.0018869825 0.99173176 0.019864449
0.13967165 0.042143516 -0.5 -0.54228276 -0.045614194 0.83895701 0.07814391
0.14340875 0.044646699 -0.49764568 -0.60250628 -0.030290131 0.79753911 0.086108118
-0.14376067 0.056368172 -0.49721426 0.7429201 -0.024294376 0.66893917 0.088209391
-0.13755457 0.058222469 -0.5 0.53758055 0.011098223 0.84313935 0.091799818
-0.1249566 0.054410014 -0.5 0.1789304 0.004562635 0.98385119 0.036143605
-0.11389599 0.055151485 -0.5 -0 -0 1 0
-0.10522193 0.055462688 -0.5 -0 -0 1 0
-0.096932687 0.051474009 -0.5 -0 -0 1 0
-0.084555112 0.055366963 -0.5 0 0 1 0
-0.075875729 0.056498334 -0.5 0 0 1 0
-0.065877333 0.053616088 -0.5 0 0 1 0
-0.057244331 0.054001238 -0.5 -0 -0 1 0
-0.044430703 0.05237015 -0.5 0 0 1 0
-0.036225818 0.055924341 -0.5 0 0 1 0
-0.0252956 0.057549153 -0.5 0 0 1 0
-0.014996339 0.053184491 -0.5 0 0 1 0
-0.0024624392 0.055139478 -0.5 -0 -0 1 0
0.0065534776 0.053599123 -0.5 0 0 1 0
0.013230393 0.054823291 -0.5 -0 -0 1 0
0.024403909 0.05465534 -0.5 0 0 1 0
0.033572026 0.054250013 -0.5 0 0 1 0
0.04606634 0.052572861 -0.5 0 0 1 0
0.05459667 0.053875767 -0.5 0 0 1 0
0.064743795 0.05404086 -0.5 0 0 1 0
0.073242188 0.054680631 -0.5 -0 -0 1 0
0.083973005 0.053983729 -0.5 0 0 1 0
0.095844746 0.05387105 -0.5 -0 -0 1 0
0.11434301 0.053945452 -0.5 -0.016386081 -0.0032577727 0.99986041 0.00069530006
0.1228407 0.05331419 -0.5 -0.18036133 -0.02719401 0.98322445 0.027511492
0.13347365 0.054661229 -0.5 -0.48637778 -0.057848271 0.8718316 0.076507293
0.14291899 0.056860138 -0.49688125 -0.63154495 -0.059331559 0.77306587 0.090925761
-0.14447588 0.062714085 -0.49642786 0.7651177 -0.030776577 0.6431545 0.080904104
-0.13641433 0.063907556 -0.5 0.581258 -0.029203244 0.81319517 0.082537837
-0.12511334 0.06351845 -0.5 0.18607356 -0.008416689 0.98249978 0.038040221
-0.11896069 0.064189531 -0.5 0.036708511 0.00096282433 0.99932557 0.0016323921
-0.10534185 0.068910986 -0.5 -0 -0 1 0
-0.095884882 0.068522692 -0.5 0 0 1 0
-0.08993645 0.063153781 -0.5 0 0 1 0
-0.075839199 0.062844425 -0.5 -0 -0 1 0
-0.066331275 0.065908283 -0.5 0 0 1 0
-0.057162713 0.064835802 -0.5 -0 -0 1 0
-0.044640336 0.06439659 -0.5 0 0 1 0
-0.03655462 0.067351446 -0.5 -0 -0 1 0
-0.023038667 0.063434228 -0.5 0 0 1 0
-0.012815014 0.067311838 -0.5 -0 -0 1 0
-0.0054638153 0.065243341 -0.5 -0 -0 1 0
0.0042133681 0.068302147 -0.5 -0 -0 1 0
0.016545322 0.063740894 -0.5 0 0 1 0
0.022719169 0.063490905 -0.5 -0 -0 1 0
0.035182063 0.061350748 -0.5 0 0 1 0
0.046829168 0.065459713 -0.5 0 0 1 0
0.0510749 0.064065024 -0.5 0 0 1 0
0.064114451 0.064589635 -0.5 -0 -0 1 0
0.075041905 0.064378582 -0.5 -0 -0 1 0
0.083777681 0.06860894 -0.5 0 0 1 0
0.094699316 0.065505318 -0.5 0 0 1 0
0.10323188 0.064344451 -0.5 0 0 1 0
0.11629197 0.06498532 -0.5 -0.027448185 0.0038054581 0.99961597 0.00085094624
0.1219151 0.064868152 -0.5 -0.13284086 -0.0068440954 0.99111378 0.020979555
0.1352613 0.066755719 -0.5 -0.53965795 0.020806979 0.84162724 0.072471082
0.14433342 0.063311927 -0.49760103 -0.6579271 -0.065271161 0.75024772 0.080321178
-0.14418659 0.076366022 -0.49693879 0.77008814 0.10119964 0.62985945 0.093817674
-0.13452351 0.075902805 -0.5 0.40298009 0.051991157 0.91373074 0.062632345
-0.12803558 0.074285559 -0.5 0.26699966 0.002775769 0.96369267 0.060367297
-0.11527523 0.074375093 -0.5 0.012883696 -0.0010488288 0.99991643 0.00056780316
-0.10614434 0.075639203 -0.5 -0 -0 1 0
-0.099515826 0.075619549 -0.5 -0 -0 1 0
-0.082608968 0.071912438 -0.5 0 0 1 0
-0.073387593 0.071556538 -0.5 0 0 1 0
-0.065371148 0.075285889 -0.5 0 0 1 0
-0.056616664 0.076895058 -0.5 -0 -0 1 0
-0.047199409 0.074403204 -0.5 -0 -0 1 0
-0.034098823 0.076580614 -0.5 0 0 1 0
-0.024211762 0.072651669 -0.5 0 0 1 0
-0.015580729 0.074323371 -0.5 0 0 1 0
-0.0055474043 0.074389882 -0.5 -0 -0 1 0
0.0029754292 0.074946769 -0.5 -0 -0 1 0
0.015945656 0.074497595 -0.5 0 0 1 0
0.024964543 0.075417519 -0.5 0 0 1 0
0.036809951 0.076458275 -0.5 -0 -0 1 0
0.046253879 0.074745387 -0.5 -0 -0 1 0
0.054038584 0.074486502 -0.5 -0 -0 1 0
0.062532239 0.077136025 -0.5 0 0 1 0
0.07441815 0.074041277 -0.5 0 0 1 0
0.084395684 0.075415105 -0.5 0 0 1 0
0.094129071 0.075520657 -0.5 -0 -0 1 0
0.10518861 0.074299797 -0.5 -0 -0 1 0
0.11762779 0.074715853 -0.5 -0.038166277 0.00029855495 0.99927133 0.0020398011
0.12355196 0.073484235 -0.5 -0.16204703 -0.00086097297 0.98678267 0.026672041
0.14520323 0.075597346 -0.49503705 -0.80093157 0.013487679 0.59860396 0.083278388
-0.14350601 0.084690057 -0.49658728 0.79626381 -0.097848244 0.59698373 0.060979098
-0.1346702 0.085141219 -0.5 0.41499364 0.022270486 0.90955174 0.059136681
-0.12420195 0.088076927 -0.5 0.13118085 -0.00037845087 0.99135834 0.020418309
-0.11210857 0.085698426 -0.5 0 0 1 0
-0.096667148 0.084844492 -0.5 -0 -0 1 0
-0.086454369 0.081337951 -0.5 -0 -0 1 0
-0.073202975 0.08547058 -0.5 0 0 1 0
-0.069607124 0.087088212 -0.5 -0 -0 1 0
-0.054812312 0.086968742 -0.5 -0 -0 1 0
-0.04643378 0.085530259 -0.5 0 0 1 0
-0.036125407 0.084871031 -0.5 -0 -0 1 0
-0.026923994 0.085191257 -0.5 -0 -0 1 0
-0.013813693 0.082900189 -0.5 -0 -0 1 0
-0.0057258904 0.085942522 -0.5 0 0 1 0
0.0076786005 0.08623714 -0.5 0 0 1 0
0.014257143 0.084468491 -0.5 0 0 1 0
0.025182821 0.086479448 -0.5 0 0 1 0
0.034810483 0.086235881 -0.5 -0 -0 1 0
0.04232024 0.087349772 -0.5 -0 -0 1 0
0.055218276 0.085801788 -0.5 -0 -0 1 0
0.066136353 0.083603352 -0.5 0 0 1 0
0.074808255 0.084462672 -0.5 -0 -0 1 0
0.082272388 0.088073596 -0.5 0 0 1 0
0.095073961 0.085244238 -0.5 -0 -0 1 0
0.10351144 0.085094012 -0.5 -0 -0 1 0
0.11548313 0.086220652 -0.5 -0.031018531 0.00038756526 0.99951881 0.0021408321
0.12425324 0.085273735 -0.5 -0.18715686 0.0064494098 0.98230886 0.028789207
0.1343392 0.086885534 -0.5 -0.38798103 0.057751235 0.91985631 0.0548683
0.14476818 0.086392596 -0.49454051 -0.85311276 0.0084624607 0.52165794 0.076376267
-0.14420538 0.094554305 -0.49640724 0.77425832 0.027800862 0.63225877 0.071107484
-0.13405646 0.094277181 -0.5 0.42841929 0.010398128 0.90352011 0.074182346
-0.12260941 0.09893129 -0.5 0.093741737 0.012188399 0.99552196 0.01326451
-0.11192658 0.096040666 -0.5 -0 -0 1 0
-0.10646078 0.095887311 -0.5 -0 -0 1 0
-0.095147021 0.09529198 -0.5 0 0 1 0
-0.085748054 0.09255302 -0.5 0 0 1 0
-0.07376112 0.094999962 -0.5 -0 -0 1 0
-0.065979242 0.094696641 -0.5 -0 -0 1 0
-0.053889934 0.094228089 -0.5 0 0 1 0
-0.046570029 0.09475407 -0.5 0 0 1 0
-0.035844732 0.095163427 -0.5 -0 -0 1 0
-0.029015571 0.096833661 -0.5 0 0 1 0
-0.01301777 0.094042376 -0.5 -0 -0 1 0
-0.0086561292 0.093369588 -0.5 -0 -0 1 0
0.0041255988 0.096051 -0.5 0 0 1 0
0.01420715 0.095138013 -0.5 0 0 1 0
0.028476276 0.093463376 -0.5 0 0 1 0
0.035391875 0.094403587 -0.5 0 0 1 0
0.044208009 0.095995083 -0.5 -0 -0 1 0
0.055079311 0.095806979 -0.5 -0 -0 1 0
0.067540899 0.094231382 -0.5 -0 -0 1 0
0.077536881 0.099979579 -0.5 -0 -0 1 0
0.085033573 0.094233841 -0.5 0 0 1 0
0.096712813 0.097832218 -0.5 0 0 1 0
0.10596801 0.093033351 -0.5 -0 -0 1 0
0.11324384 0.095437616 -0.5 -0 -0 1 0
0.12537836 0.094982401 -0.5 -0.18123147 -0.0062839463 0.98342043 0.02776544
0.13389981 0.092704751 -0.5 -0.40512627 -0.013952143 0.91415429 0.064564608
0.14478 0.094608083 -0.49486241 -0.86513191 0.016858317 0.50126106 0.077640809
-0.14455862 0.10357821 -0.49611691 0.7080453 -0.028783979 0.70558012 0.071265645
-0.13530567 0.10516528 -0.5 0.52424622 -0.0014692592 0.85156554 0.079351805
-0.1249214 0.10654037 -0.5 0.15936978 -0.065327711 0.98505515 0.035596248
-0.11826993 0.10487369 -0.5 0.03948544 -0.037672371 0.99850982 0.0044407304
-0.10387707 0.10653671 -0.5 -0.00082258059 -0.13417667 0.99095708 0.021931181
-0.094431289 0.10594376 -0.5 -0.0012022466 -0.080727749 0.99673545 0.01207
-0.084611945 0.10565708 -0.5 -0.00044791421 -0.030691423 0.99952877 0.0012981885
-0.075926706 0.10380091 -0.5 0.0012977741 -0.025117559 0.99968368 0.0011950932
-0.063640065 0.10540686 -0.5 0.00025281528 -0.029872304 0.99955368 0.0012891185
-0.058909848 0.10356981 -0.5 5.3146719e-05 -0.023732016 0.99971837 0.0011107657
-0.043849993 0.10534251 -0.5 0.00036144527 -0.026821094 0.99964023 0.0013402126
-0.035049006 0.10256398 -0.5 -0.00062110618 -0.016026694 0.99987137 0.00081897527
-0.025816482 0.10484691 -0.5 0.0065628327 -0.067843907 0.99767429 0.009690593
-0.015345489 0.10210211 -0.5 0.00040468093 -0.0081244186 0.99996692 0.00028860781
-0.0052115121 0.10475012 -0.5 1.4570241e-05 -0.046880249 0.99890053 0.0028512166
0.0060823956 0.10480186 -0.5 0.0050206827 -0.056500573 0.9983899 0.0039441171
0.014592559 0.10428644 -0.5 -0.0023046159 -0.053869598 0.99854535 0.0040013124
0.026591117 0.10639071 -0.5 0.0059437356 -0.10385733 0.99457443 0.013282742
0.032534972 0.10829506 -0.5 0.0091616968 -0.15346694 0.98811126 0.021083733
0.046154197 0.10693296 -0.5 0.006940423 -0.056546144 0.99837589 0.0036173118
0.055848911 0.10376896 -0.5 -0.0080220411 -0.035009015 0.99935478 0.0021292402
0.063689634 0.10288322 -0.5 0.00055733568 -0.018085983 0.99983627 0.0013307238
0.085388117 0.10588638 -0.5 0.00083890557 -0.076697387 0.9970541 0.010770447
0.09595599 0.10592063 -0.5 0.0098365657 -0.031828295 0.9994449 0.0024325221
0.10117301 0.10616364 -0.5 -0.0082486644 -0.077575013 0.99695241 0.011207455
0.1174205 0.10657687 -0.5 -0.040825699 -0.050376318 0.99789554 0.0046476433
0.12160008 0.10599301 -0.5 -0.13830122 -0.050035588 0.98912549 0.024113214
0.13235791 0.10325915 -0.5 -0.38099501 0.0055776481 0.92456031 0.062848732
0.14489278 0.10485836 -0.49607098 -0.77722609 -0.019594565 0.62891614 0.077970967
-0.14459693 0.11472225 -0.49671802 0.77233297 -0.12985507 0.6218034 0.10431395
-0.13347469 0.11408197 -0.5 0.37563139 -0.17656657 0.90979409 0.093396112
-0.12636647 0.11552845 -0.5 0.11842348 -0.30160919 0.9460485 0.078668945
-0.11390389 0.11478465 -0.5 0.012526848 -0.23154977 0.97274238 0.044871207
-0.10711969 0.11789057 -0.5 0.0068087731 -0.39566484 0.91836983 0.069238596
-0.094684742 0.11902333 -0.5 0.037803799 -0.39021218 0.91994858 0.074247301
-0.085577011 0.11641722 -0.5 -2.844902e-05 -0.32424128 0.94597441 0.056057699
-0.075291663 0.11303948 -0.5 0.0013755744 -0.15805808 0.98742884 0.028076394
-0.062745862 0.11556321 -0.5 0.014016789 -0.23398282 0.97213972 0.054512523
-0.054119032 0.11497539 -0.5 0.017769972 -0.16492021 0.98614681 0.031290989
-0.046245541 0.11394449 -0.5 -0.053509708 -0.16500278 0.98484051 0.028849252
-0.035343967 0.11347716 -0.5 0.012282838 -0.16922548 0.98550081 0.027631592
-0.026593829 0.11445669 -0.5 -0.019825445 -0.19622445 0.98035854 0.035608411
-0.013948378 0.11630399 -0.5 0.011212213 -0.26807514 0.96333271 0.040331602
-0.0058770031 0.11347942 -0.5 0.0030550109 -0.27132812 0.96248204 0.046695478
0.0039592832 0.11421549 -0.5 0.024948154 -0.26335633 0.96437603 0.046325333
0.01587476 0.11543825 -0.5 -0.020177701 -0.26238352 0.96475267 0.03057182
0.021413956 0.11195511 -0.5 0.0080752447 -0.19621216 0.98052824 0.027899735
0.03360739 0.11385635 -0.5 0.0053107883 -0.20352799 0.97905475 0.030352402
0.043977309 0.11201721 -0.5 -0.014112649 -0.19473493 0.98075438 0.033373076
0.056404196 0.11395274 -0.5 0.00060752069 -0.2362932 0.97168165 0.040147517
0.065624222 0.11540625 -0.5 0.0028383753 -0.30522862 0.95227486 0.052548237
0.074690625 0.1152679 -0.5 0.023369318 -0.18332858 0.9827739 0.024715232
0.084435083 0.11382878 -0.5 -0.022383548 -0.19466367 0.98061466 0.032357585
0.092962258 0.11726445 -0.5 -0.033390742 -0.27581915 0.9606294 0.041976456
0.10395694 0.11713794 -0.5 -0.02090151 -0.36673245 0.93009168 0.064344525
0.11180197 0.11244062 -0.5 -0.060081486 -0.21688643 0.97434622 0.041333105
0.12405048 0.11773916 -0.5 -0.16785979 -0.39992455 0.90104574 0.087352939
0.13526399 0.11327004 -0.5 -0.48405802 -0.15758455 0.86072928 0.084339857
0.1444107 0.11444009 -0.49639362 -0.67344522 -0.18754725 0.7150507 0.094482511
-0.14314246 0.12368983 -0.49837822 0.73232174 -0.46823037 0.49443427 0.12371474
-0.13494511 0.1224163 -0.5 0.41465506 -0.47475234 0.77631915 0.1176162
-0.12714478 0.12425742 -0.5 0.13384977 -0.54113144 0.83021742 0.10228604
-0.11603273 0.12339785 -0.5 -0.066378906 -0.4600814 0.88539195 0.07881894
-0.10418558 0.12525822 -0.5 0.049808651 -0.5023945 0.86320263 0.071709149
-0.096145354 0.12541986 -0.5 -0.025131498 -0.61420959 0.78874272 0.07720004
-0.085675754 0.12358087 -0.5 -0.028653231 -0.49492624 0.86846244 0.075990655
-0.074567907 0.12326299 -0.5 -0.051904239 -0.46794859 0.88223016 0.081235252
-0.064551733 0.12558767 -0.5 0.060538627 -0.57729942 0.81428528 0.089895785
-0.052595541 0.1233428 -0.5 0.050010763 -0.45343411 0.8898856 0.088730775
-0.044521168 0.12426937 -0.5 0.082272716 -0.43286321 0.89769745 0.083401002
-0.034508221 0.1251884 -0.5 0.0033028286 -0.57358879 0.8191368 0.098008014
-0.02575141 0.12874076 -0.5 -0.071148887 -0.61207676 0.78759116 0.097406276
-0.013001923 0.12390199 -0.5 0.0270912 -0.5274725 0.84914005 0.088841759
-0.006542787 0.12363416 -0.5 -0.052174728 -0.46941677 0.88143396 0.070258103
0.0059053972 0.12326302 -0.5 0.046503168 -0.4411248 0.89624023 0.068618529
0.01454134 0.12292626 -0.5 0.010861549 -0.53208625 0.84662056 0.079269744
0.023167327 0.12366943 -0.5 -0.049877096 -0.5639993 0.82426757 0.081728689
0.034728102 0.12275149 -0.5 -0.011981756 -0.37910181 0.92527741 0.062117636
0.043716915 0.12521414 -0.5 -0.061765224 -0.56294185 0.82418531 0.074982747
0.056770224 0.12460268 -0.5 0.047112234 -0.50658518 0.86090189 0.073828831
0.060202476 0.12194017 -0.5 0.0040723137 -0.4156729 0.90950507 0.07148502
0.075798877 0.12760061 -0.5 0.012572884 -0.59920812 0.80049455 0.085827485
0.086955696 0.12085294 -0.5 0.037493296 -0.43473074 0.89977968 0.076743722
0.097608142 0.12755598 -0.5 -0.0045859707 -0.61804038 0.78613293 0.081941485
0.10271578 0.12229849 -0.5 -0.10060781 -0.38920584 0.91564006 0.058434606
0.11249558 0.12544701 -0.5 -0.014899594 -0.55209613 0.83364737 0.06042577
0.12533586 0.12383425 -0.5 -0.12084796 -0.50028777 0.85738432 0.085069619
0.13598138 0.1244657 -0.5 -0.36397222 -0.51216388 0.77795398 0.13525128
0.1429826 0.12623563 -0.49839586 -0.57571399 -0.50989264 0.6391893 0.1500245
-0.14280564 0.13200293 -0.49751073 0.58037627 -0.66475958 0.4703809 0.11817662
-0.13527885 0.13200293 -0.49923748 0.26942214 -0.76152891 0.58947897 0.12380895
-0.12326295 0.13200293 -0.49525881 0.13157476 -0.74663663 0.65209025 0.079270892
-0.1129365 0.13192263 -0.49496913 0.043829288 -0.82911611 0.55735588 0.08345072
-0.10534237 0.13200293 -0.49505103 0.010612293 -0.80753237 0.58972776 0.080552712
-0.094033599 0.13196385 -0.49724743 0.00017732133 -0.69508165 0.71893078 0.077612758
-0.084872127 0.13200293 -0.49630609 -0.011175623 -0.70566446 0.70845801 0.082769997
-0.073949926 0.13127871 -0.49769443 0.023515955 -0.709526 0.70428681 0.089833543
-0.065418743 0.13200293 -0.49660903 -0.014889679 -0.75319684 0.65762663 0.08813291
-0.05526419 0.13161328 -0.49692249 0.033879168 -0.62784684 0.77759922 0.086201623
-0.045400381 0.13170427 -0.49928775 0.0025687471 -0.77008653 0.63793433 0.088660181
-0.036894124 0.13188948 -0.49646357 -0.082661211 -0.63855475 0.76512414 0.094230071
-0.025546169 0.13200293 -0.49426436 -0.054566171 -0.8620609 0.50385869 0.074068435
-0.016200965 0.13182992 -0.4980433 -0.089124694 -0.63964367 0.76348722 0.087241799
-0.0034334175 0.13143186 -0.494499 0.021022974 -0.82829577 0.55989659 0.080661841
0.0056744688 0.13176936 -0.49530056 0.02934864 -0.78957838 0.61294752 0.09724769
0.01506042 0.13200293 -0.49461117 -0.0071021034 -0.76193869 0.64761019 0.081017904
0.023878308 0.13200293 -0.49424568 0.027719928 -0.77268624 0.63418269 0.091131032
0.035122871 0.13200293 -0.49466446 0.0086738346 -0.76099622 0.64869839 0.076828115
0.045988407 0.13200293 -0.49581546 0.033119582 -0.77219433 0.63452262 0.080883525
0.051981922 0.13176702 -0.49528205 0.040871479 -0.7402457 0.67109305 0.085339487
0.06495218 0.13177522 -0.4955391 0.032148361 -0.79502386 0.60572565 0.08884161
0.074194871 0.13092667 -0.4972671 -0.033196241 -0.77146 0.63541126 0.067998782
0.083337337 0.13184223 -0.49485651 -0.079364717 -0.81893879 0.56836647 0.079869963
0.093857378 0.13200293 -0.49724984 -0.06603536 -0.73249304 0.6775642 0.084565617
0.11506096 0.13200293 -0.49436465 0.048161786 -0.79465145 0.60515255 0.074554197
0.12563503 0.13200295 -0.49435726 -0.10485486 -0.74146616 0.66274679 0.090666942
0.13383925 0.13200293 -0.49290353 -0.2962282 -0.70240563 0.64720565 0.12583986
0.14249364 0.13178904 -0.49823222 -0.55669183 -0.72364998 0.40795228 0.12838531
-0.14217281 -0.13147697 -0.487973 0.44279563 0.85040605 0.28415057 0.11192004
-0.13693748 -0.13200293 -0.487463 0.39527172 0.85614622 0.33282712 0.1152939
-0.12666817 -0.13200293 -0.48383164 0.13721596 0.96597087 0.21925363 0.06398312
-0.11771532 -0.13200295 -0.48481637 0.037932534 0.96131319 0.27283317 0.055256151
-0.100913 -0.13200293 -0.48885971 0.0057444684 0.91451597 0.40450913 0.084311873
-0.092824817 -0.13200295 -0.48689961 -0.0019040403 0.92090231 0.38978884 0.086226255
-0.084553696 -0.13200293 -0.48708287 -0.00070702605 0.93632549 0.35113263 0.069451638
-0.074942596 -0.13200293 -0.48664069 -0.0095205707 0.88794893 0.45984355 0.081100039
-0.06690263 -0.13200293 -0.481253 -0.041666273 0.97459739 0.22005415 0.038667336
-0.055066645 -0.13200293 -0.48371956 -0.017325317 0.96911514 0.24599926 0.034877025
-0.048110493 -0.13200293 -0.48558861 0.028338525 0.96151704 0.27327985 0.04086272
-0.036689412 -0.13200293 -0.48721853 -0.003729912 0.95433235 0.29872367 0.042024922
-0.022043878 -0.13200293 -0.48315462 0.012541831 0.9745208 0.22394578 0.040995535
-0.018072449 -0.13200293 -0.48376191 0.037746824 0.96173322 0.27137518 0.048415173
-0.0055750157 -0.13200293 -0.48824689 0.044338316 0.94785583 0.31559989 0.054599315
0.0034933959 -0.13200293 -0.487326 -0.014679918 0.90879923 0.4169752 0.075106591
0.010142339 -0.13200293 -0.48492122 0.0020579752 0.96121752 0.27578381 0.044092115
0.023195777 -0.13200293 -0.48368263 0.0099201463 0.9703216 0.24161446 0.040895335
0.034255631 -0.13200293 -0.48583919 0.027230538 0.93473029 0.35431299 0.059804767
0.047018033 -0.13200293 -0.48492575 -0.010647745 0.93658066 0.35029018 0.057163421
0.054672681 -0.13200293 -0.48522907 -0.0078359619 0.90818274 0.41850051 0.077644318
0.060093548 -0.13200293 -0.48792711 0.007349446 0.90042996 0.43493888 0.069011405
0.075745605 -0.13200293 -0.48718557 -0.027176568 0.89411741 0.44700724 0.067383535
0.085566677 -0.13200293 -0.48495948 0.032072395 0.8942188 0.44647962 0.072772413
0.095825255 -0.13200293 -0.4846386 -0.0055106017 0.97187853 0.23541826 0.039877877
0.10839627 -0.13200293 -0.4895514 -0.0075884135 0.89440262 0.44719821 0.080255844
0.11305246 -0.13200293 -0.48358533 0.0038871618 0.96952373 0.24496673 0.04451194
0.12486319 -0.13200292 -0.48379999 -0.19549142 0.96465194 0.17671898 0.055678204
0.13364393 -0.13200293 -0.48251164 -0.3567051 0.92334902 0.14208472 0.073338166
0.1417418 -0.13197975 -0.48747543 -0.55431378 0.79663092 0.24107139 0.10648447
-0.14520323 -0.12284285 -0.48532563 0.88366455 0.40369466 0.23699695 0.10799716
0.14507529 -0.12331865 -0.48394743 -0.86832178 0.46868068 0.16234434 0.1009536
-0.14520323 -0.11474317 -0.48515004 0.9438343 0.20927306 0.25569814 0.077777602
0.14520323 -0.11673266 -0.48514432 -0.91919321 0.23571882 0.31546858 0.093388826
-0.14520323 -0.10843554 -0.48779783 0.93522608 0.068078674 0.34744427 0.05764924
0.14520323 -0.10522288 -0.48505545 -0.93409753 0.052626364 0.35311803 0.061943833
-0.14520323 -0.093768246 -0.48264813 0.95519328 -0.060465135 0.2897408 0.05149965
0.14520323 -0.098134466 -0.48424518 -0.92282879 -0.015068746 0.38491547 0.061219301
-0.14520323 -0.082731418 -0.48513427 0.93764472 -0.016702401 0.34719351 0.059807435
0.14520323 -0.085852407 -0.4862636 -0.9222852 0.0088511584 0.38640881 0.066464521
-0.14520323 -0.078038819 -0.48499545 0.9451704 0.032313723 0.32497486 0.056774832
0.14520323 -0.073258087 -0.48936382 -0.88631618 -0.061199848 0.45901883 0.07249254
-0.14520323 -0.062530965 -0.48572332 0.93423885 0.061447781 0.3513146 0.061498828
0.14520323 -0.062082071 -0.48365894 -0.96263969 0.0029965446 0.27076906 0.044564884
-0.14520323 -0.057281625 -0.48427215 0.95523643 -0.029399497 0.29437903 0.057534818
0.14520323 -0.054987743 -0.48395947 -0.94651777 0.0089393565 0.322528 0.057179365
-0.14520323 -0.049475603 -0.48573232 0.92116922 -0.0071858894 0.38909569 0.056956761
0.14520323 -0.043590527 -0.48345649 -0.94416404 0.019733667 0.32888439 0.054057643
-0.14520323 -0.034253888 -0.48675877 0.91999549 -0.023088489 0.39124823 0.058916237
0.14520323 -0.034287438 -0.48464438 -0.94377011 0.00040559444 0.33060214 0.059382163
-0.14520323 -0.025445411 -0.48411822 0.93957299 0.0051174448 0.34231028 0.061244253
0.14520323 -0.025689919 -0.48620382 -0.93833846 0.016798992 0.34530959 0.051658548
-0.14520323 -0.014773129 -0.48696852 0.91596234 0.039730817 0.39929238 0.075075269
0.14520323 -0.016955094 -0.48242196 -0.95669395 0.0070270114 0.29101092 0.054535672
-0.14520323 -0.0062453928 -0.48273456 0.96730238 0.031895354 0.25161254 0.052848663
