# .PCD v0.7 - Point Cloud Data file format
VERSION 0.7
FIELDS x y z normal_x normal_y normal_z curvature
SIZE 4 4 4 4 4 4 4
TYPE F F F F F F F
COUNT 1 1 1 1 1 1 1
WIDTH 579
HEIGHT 1
VIEWPOINT 0 0 0 1 0 0 0
POINTS 579
DATA ascii
0.11025958 0.042687308 0.43658087 -0.022083139 -0.33595338 -0.94161969 0.10518816
0.12507269 0.047806937 0.43438673 0.074150935 -0.38278338 -0.92085749 0.075906895
0.13503949 0.047548242 0.43449759 0.043478988 -0.41119471 -0.91051 0.060342006
0.14664476 0.042347923 0.43552288 0.11387509 -0.41337579 -0.90341181 0.050218672
-0.14290947 0.055264827 0.43119049 -0.11232318 -0.41788867 -0.90152794 0.048998408
-0.13450129 0.055963524 0.43089107 -0.031410456 -0.43135712 -0.90163428 0.064217649
-0.12919885 0.055770107 0.43097395 -0.019598287 -0.4418368 -0.89688128 0.068691216
-0.11634643 0.0546211 0.4314664 -0.13570237 -0.45299187 -0.88112617 0.095453002
-0.10378932 0.053773545 0.43182963 -0.0071261055 -0.34073713 -0.9401316 0.123856
-0.095329963 0.055445429 0.43111309 0.14378384 -0.37912297 -0.9141072 0.1530553
-0.08553867 0.053890601 0.43177944 -0.098247573 -0.49602962 -0.86272943 0.21696512
-0.076246493 0.054796979 0.431391 -0.016427414 -0.42638326 -0.90439343 0.22181565
-0.066334501 0.057488475 0.43023753 0.2717123 -0.40445718 -0.87326211 0.1853893
-0.055036008 0.053955972 0.43175146 0.21830994 -0.28781402 -0.93247187 0.15545365
-0.049778964 0.050981227 0.43302634 0.14165954 -0.34676585 -0.92719257 0.11580292
-0.034577355 0.054961316 0.43132058 8.0538739e-06 -0.39394057 -0.91913587 0
-0.026161902 0.053029928 0.43214831 -1.0499991e-05 -0.39394906 -0.91913229 6.1879276e-05
-0.015538385 0.055020243 0.43129534 -7.0532883e-06 -0.39389795 -0.91915417 4.6710716e-06
-0.0011804402 0.055629313 0.4310343 2.4355584e-06 -0.39394739 -0.91913301 7.8647558e-05
0.0018311652 0.0545411 0.43150067 -8.5856027e-06 -0.39406696 -0.91908175 0.00022213497
0.014334725 0.055406805 0.43112963 3.372774e-06 -0.39391774 -0.91914564 0
0.024943829 0.054069668 0.4317027 -1.8282665e-07 -0.39400107 -0.91911 0.0001152656
0.037453271 0.052219447 0.43249568 -1.6758961e-05 -0.39393845 -0.91913688 0
0.042667881 0.051106505 0.43297267 -3.1905552e-06 -0.39393139 -0.9191398 0
0.075476125 0.053284075 0.43203938 -0.071009308 -0.27622697 -0.95846552 0.22078136
0.082640998 0.053132951 0.4321042 0.095570892 -0.43005118 -0.89773166 0.24959186
0.094521046 0.055848271 0.43094045 -0.10359731 -0.432924 -0.89545763 0.16382211
0.10655607 0.053465687 0.43196157 0.0089621572 -0.37717119 -0.92610019 0.1298667
0.11556428 0.057663679 0.43016243 -0.026290441 -0.36979315 -0.92874205 0.09726759
0.1259574 0.053968221 0.43174616 0.058208838 -0.4010092 -0.91422284 0.068765245
0.13585988 0.054168809 0.43166023 0.053884771 -0.40767232 -0.91153699 0.056716174
0.14670806 0.051576998 0.43277097 0.082415171 -0.40753368 -0.90946364 0.041612305
0.15328462 0.053177048 0.43208528 0.068889521 -0.39408597 -0.91648811 0.037545748
-0.02642291 -0.15203626 0.44460401 0.32209221 0.90252906 -0.2858282 0.080380335
-0.014774606 -0.15572734 0.4429493 0.18560964 0.97059703 -0.15326566 0.058205806
-0.0038880815 -0.15309553 0.44748732 0.075477175 0.83307433 -0.54798746 0.075971231
0.0031658537 -0.15403962 0.44526249 -0.060768731 0.9198305 -0.3875809 0.078335926
0.01298506 -0.15456252 0.4465813 -0.16608281 0.90349048 -0.39512211 0.07131955
0.025051642 -0.15286019 0.44368449 -0.32084906 0.92076588 -0.22191451 0.071389869
-0.043304991 -0.14026216 0.44408852 0.60554433 0.78798884 -0.11130818 0.064187288
-0.036281928 -0.14475371 0.44469541 0.50569606 0.83712763 -0.20853989 0.077494256
-0.02596277 -0.14860202 0.44987273 0.30910242 0.86578757 -0.39353225 0.07710775
0.010293539 -0.14984702 0.44933915 -0.15007153 0.81799239 -0.55530798 0.074123345
0.02608739 -0.14936657 0.44226328 -0.33389935 0.91617799 -0.22165078 0.073164478
0.036735404 -0.14483747 0.44720992 -0.45736593 0.82141626 -0.34072238 0.066529334
0.042488344 -0.14255825 0.44425708 -0.60726279 0.77203208 -0.187612 0.075928763
-0.051257133 -0.13124266 0.4449209 0.76064789 0.64297205 -0.089452654 0.060627785
-0.047027584 -0.13488537 0.44461408 0.68301827 0.72785854 -0.06089326 0.054123942
0.046300616 -0.13617493 0.44524404 -0.68477285 0.72318894 -0.089911103 0.05753338
-0.053962108 -0.12427103 0.44495574 0.83768797 0.53321815 -0.11814119 0.0504262
-0.047064245 -0.12993312 0.44346249 0.72949332 0.68236279 -0.047120936 0.054142892
0.047731426 -0.12915847 0.4439016 -0.75752294 0.64837241 -0.07597442 0.059091851
0.053954609 -0.123406 0.44527239 -0.85070282 0.51729715 -0.093318731 0.046230491
-0.060781103 -0.11285026 0.44911775 0.9334076 0.34726411 -0.090321004 0.036588803
-0.057178438 -0.11627975 0.4447802 0.90209925 0.43028554 -0.03273198 0.03936094
0.0584854 -0.11443102 0.44399649 -0.91526473 0.40283158 0.0041420953 0.031233471
0.060619351 -0.1154856 0.44974196 -0.90348655 0.41149315 -0.11993933 0.045333378
-0.062090233 -0.10395543 0.44457743 0.97656649 0.21520008 0.0025903475 0.02954248
-0.058495428 -0.10570425 0.44393635 0.96396416 0.26598254 0.0051360172 0.032255389
0.058101535 -0.10699524 0.44418892 -0.95682746 0.29064482 0.0025929539 0.023127936
0.062106457 -0.10290545 0.4453136 -0.98311996 0.18210471 0.017689176 0.015859775
-0.062424909 -0.093809262 0.4454208 0.99926114 0.033056621 0.019605525 0.012997696
-0.059384312 -0.098725311 0.44055432 0.9877761 0.1367579 0.074803434 0.015567196
0.0595036 -0.093297124 0.44449535 -0.99982488 0.01819301 -0.0043794527 0.01405492
0.061681915 -0.095635012 0.44186082 -0.99593109 0.088440128 0.017307449 0.016322216
-0.062111743 -0.083843805 0.44382411 0.99797738 0.01562072 -0.061621342 0.033569157
0.062979922 -0.085160568 0.44434294 -0.99625629 -0.017274568 -0.084705569 0.039033011
-0.061626654 -0.075355485 0.44475159 0.96427292 -0.11031045 -0.24085116 0.058123503
-0.059815906 -0.07292743 0.44830161 0.94994664 -0.22318256 -0.21861155 0.048824187
0.057789903 -0.072814725 0.44629276 -0.95632911 -0.17067103 -0.23728889 0.055075973
0.062738821 -0.075223044 0.44297755 -0.94250125 -0.043746419 -0.33132711 0.085488841
-0.060352363 -0.067039721 0.44515985 0.89008921 -0.16829142 -0.42357892 0.089159369
-0.056826741 -0.063325122 0.44543436 0.86902523 -0.27168429 -0.4135007 0.077772655
0.057220027 -0.065058395 0.44688872 -0.90333754 -0.25787327 -0.34275734 0.066577882
0.060886517 -0.06945131 0.44111326 -0.89762801 -0.078181431 -0.43376458 0.099701926
-0.05413257 -0.055116583 0.44517878 0.74275273 -0.24644062 -0.6225636 0.092049688
-0.0497167 -0.052552935 0.44833517 0.76460212 -0.42445675 -0.48499495 0.076772854
0.054115608 -0.054909721 0.44573286 -0.78625143 -0.34952432 -0.50955027 0.10620658
-0.052175775 -0.049690943 0.44425392 0.58223802 -0.25942516 -0.77051765 0.10838758
-0.048250429 -0.046431564 0.44666132 0.63564247 -0.37934613 -0.67235041 0.087163299
-0.034172274 -0.040889464 0.44594595 0.53737068 -0.50782388 -0.67331094 0.086682267
0.037628159 -0.042057447 0.44261703 -0.60872293 -0.40627295 -0.68146801 0.089027897
0.042872857 -0.044523906 0.44466519 -0.6437009 -0.46233097 -0.60983533 0.080832273
-0.15909091 -0.030255865 0.44123942 -0.10012118 0.34275183 -0.93407542 0.042428132
-0.11424945 -0.030221624 0.44126347 -0.027134003 0.3975189 -0.91719276 0.11504662
-0.10870578 -0.031554163 0.44069237 -0.018666748 0.34528446 -0.93831241 0.12706673
-0.099453941 -0.031976558 0.44051135 0.013863345 0.27385893 -0.96166992 0.17794146
-0.074740298 -0.031926557 0.44053274 0.31185389 0.33926892 -0.88749301 0.18620911
-0.05904489 -0.03231921 0.44036445 0.51267338 -0.060734514 -0.85643291 0.18841808
-0.043114394 -0.035495937 0.44067636 0.4235304 -0.2256069 -0.87733889 0.10428097
-0.033884786 -0.038289614 0.4477784 0.49153784 -0.59227812 -0.63843328 0.090060093
-0.027098607 -0.03354745 0.44533825 0.39165786 -0.5601396 -0.7299642 0.083180644
-0.014583237 -0.031272352 0.44820172 0.21460278 -0.64212865 -0.73594594 0.1227925
-0.0062406468 -0.030292492 0.44901648 0.11440472 -0.69716054 -0.70772791 0.11353047
0.0094442489 -0.0310138 0.44962883 -0.072669938 -0.75016683 -0.65724331 0.090226918
0.02413982 -0.034364346 0.44674951 -0.39443469 -0.60989344 -0.68735081 0.093623035
0.032361649 -0.037283793 0.44611695 -0.53133529 -0.60651308 -0.59145981 0.086771704
0.054915 -0.032091092 0.4404622 -0.39945683 -0.43258452 -0.80827278 0.19338122
0.074561939 -0.030631198 0.44108787 -0.13753322 0.25139371 -0.95806354 0.2058499
0.099868439 -0.030951466 0.44095063 -0.024422763 0.34082946 -0.93980783 0.14633597
0.10306078 -0.032424916 0.44031918 -0.017936219 0.31190401 -0.94994426 0.13925068
0.11604545 -0.031302743 0.4408001 0.086468868 0.3697789 -0.92508733 0.092889324
0.13867421 -0.031627957 0.44066072 0.093918927 0.36213431 -0.92738235 0.052396115
0.14582941 -0.030766387 0.44102997 -0.018281559 0.35044566 -0.93640471 0.042899165
-0.15506703 -0.024698881 0.4431797 -0.22256005 0.40360227 -0.8874526 0.03979582
-0.14466764 -0.02180583 0.44487023 -0.18756866 0.37285006 -0.90873581 0.045398597
-0.13322578 -0.023690062 0.44406268 -0.014800806 0.34767213 -0.93749928 0.058398563
-0.11433377 -0.023196576 0.44427419 0.077155039 0.38770345 -0.91854942 0.1043738
-0.10429479 -0.024536546 0.4436999 -0.17676473 0.45319843 -0.87370783 0.14805202
-0.096254684 -0.024276303 0.44381142 -0.10164861 0.46415478 -0.8799023 0.19160944
-0.08516787 -0.026573371 0.44282696 -0.028344097 0.30778822 -0.95103258 0.20499554
-0.073932439 -0.024334999 0.44378626 0.26695654 0.27906305 -0.92241967 0.19884607
-0.064852811 -0.024443418 0.44373977 0.38687876 0.3594484 -0.84918886 0.17253248
-0.054348994 -0.025666632 0.44321555 0.43065718 0.080811508 -0.89889032 0.13207448
-0.044140548 -0.027098918 0.44260168 0.29268911 0.031322021 -0.95569456 0.11910646
-0.036017429 -0.023902005 0.44397178 0.20694996 0.1423503 -0.96794009 0.055436362
-0.02309997 -0.023965165 0.44498289 0.24459247 -0.1630597 -0.95581698 0.0882117
-0.015871309 -0.02626089 0.44604051 0.18370554 -0.19693814 -0.96305126 0.097140111
-0.0059492528 -0.028786149 0.44734639 0.12684223 -0.57006139 -0.8117519 0.12397527
0.00096123479 -0.028079769 0.44690692 0.011960002 -0.4161081 -0.90923649 0.10779481
0.012289865 -0.025482215 0.44625828 -0.065237202 -0.36542693 -0.9285512 0.11915293
0.026389748 -0.025183301 0.44473198 -0.25275508 -0.15322196 -0.95532089 0.1140928
0.035935454 -0.025581667 0.44361576 -0.26432875 0.032927949 -0.96387029 0.089316666
0.052549321 -0.023808556 0.44401187 -0.51193917 0.018943243 -0.85881287 0.16851676
0.074600421 -0.024461288 0.44373211 -0.16875981 0.28894618 -0.94235361 0.23033634
0.086420752 -0.023600072 0.44410121 -0.063931219 0.50459361 -0.86098665 0.17969011
0.091056511 -0.0273294 0.44250298 0.078543402 0.21566388 -0.97330368 0.18793605
0.1059524 -0.028475264 0.44201192 0.018784268 0.3360543 -0.94165534 0.13471502
0.11253842 -0.024349777 0.44377995 0.011328878 0.4147166 -0.9098801 0.10936132
0.12497505 -0.025086997 0.44346395 0.093911663 0.35018736 -0.93195993 0.087497286
0.13597848 -0.022219559 0.44469288 0.081529438 0.4132933 -0.90694082 0.07764075
0.14436892 -0.025715735 0.44319454 0.051604893 0.3629992 -0.93035942 0.051201552
0.15623358 -0.022138167 0.44224906 0.16479047 0.36691424 -0.91554248 0.043613207
-0.15471458 -0.015908116 0.44499797 -0.32807884 0.44568491 -0.8329041 0.079452008
-0.14799939 -0.01415484 0.44239685 -0.24247573 0.45028228 -0.85933185 0.11188652
-0.13477197 -0.014001516 0.44821492 -0.0015782954 0.54765463 -0.836703 0.13668185
-0.12498397 -0.013720438 0.44833535 0.01158751 0.57942694 -0.8149417 0.15614699
-0.11135476 -0.01456937 0.44797152 0.083221428 0.6153093 -0.78388059 0.16522521
-0.10603326 -0.016763516 0.44703114 0.022023339 0.55926603 -0.82869565 0.15077388
-0.09794677 -0.01493255 0.4478159 -0.11183014 0.55798644 -0.82228053 0.17782256
-0.088216335 -0.014511658 0.44799626 -0.12835768 0.66995257 -0.73122352 0.19989744
-0.07435564 -0.01411004 0.4481684 0.3189078 0.67639554 -0.66391784 0.20025918
-0.063772246 -0.01455614 0.44797722 0.32848522 0.64950067 -0.68574518 0.19637896
-0.054486979 -0.014979881 0.44779557 0.31073055 0.54216886 -0.78070444 0.17470536
-0.045769457 -0.015739329 0.44747013 0.29911453 0.38554317 -0.87286144 0.12693945
-0.034957446 -0.015548535 0.44755191 0.10163229 0.25960225 -0.96035284 0.08333157
-0.021357886 -0.01539174 0.44761908 0.11313941 0.11993852 -0.98631352 0.089447655
-0.015368704 -0.013193165 0.44856134 0.098643064 0.11801704 -0.98809993 0.12624305
-0.0060110921 -0.01285739 0.44870523 0.060484767 0.1180037 -0.99116933 0.10873248
0.0024222746 -0.014993606 0.44778976 -0.033794641 0.078362964 -0.9963519 0.097968407
0.015836744 -0.01356861 0.44840047 -0.060147591 0.16276398 -0.98483008 0.10777522
0.026030052 -0.015783317 0.44745132 -0.11072455 0.18453102 -0.97656977 0.093534328
0.034720376 -0.017369496 0.4467715 -0.20489457 0.22214369 -0.953242 0.071661264
0.044969127 -0.016817143 0.44700816 -0.37455907 0.31366968 -0.87253463 0.1353898
0.053619862 -0.013884659 0.44826499 -0.29537818 0.67450994 -0.6766004 0.21048489
0.063336998 -0.01427024 0.44809973 -0.11834764 0.71760917 -0.68631691 0.18574975
0.074609488 -0.016891859 0.44697618 -0.30143127 0.52863908 -0.79352379 0.18899606
0.086298697 -0.016328977 0.44721738 0.10140303 0.69752568 -0.7093485 0.20937996
0.093033426 -0.013928862 0.44824603 0.024877101 0.73488492 -0.67773539 0.18606286
0.10692604 -0.01469771 0.44791651 -0.11185155 0.53055882 -0.84023601 0.15924837
0.11386986 -0.014122146 0.44816318 -0.08020588 0.62060356 -0.78001165 0.14539541
0.12253745 -0.015704535 0.44748503 0.0085368212 0.4892239 -0.87211645 0.11966668
0.13411242 -0.01410646 0.44816995 0.092443153 0.49169832 -0.86584473 0.12029666
0.1442267 -0.014757249 0.44633013 0.20089056 0.44745252 -0.87145245 0.11023224
0.156332 -0.014960502 0.44756207 0.31673765 0.5117439 -0.79862094 0.10703945
-0.15519628 -0.0037240395 0.44676545 -0.60470736 0.31812701 -0.73015362 0.20408392
-0.14404191 -0.0011814632 0.44525245 -0.41214964 0.0081167892 -0.91108 0.23706384
-0.13668656 -0.0028513707 0.44282055 -0.10033772 0.2578629 -0.96095735 0.196716
-0.12805548 -0.0028243118 0.44081819 -0.099058554 0.18508998 -0.97771633 0.19017176
-0.088266641 -0.0099650407 0.44994482 0.040259328 0.80133241 -0.59686297 0.20974173
0.1279123 -0.0052734525 0.443827 0.24713767 0.36865079 -0.89611351 0.1624639
0.13477333 -0.0032272686 0.442213 0.33207676 0.22315156 -0.91647601 0.15903741
0.14667685 -0.0042626304 0.44454676 0.43094397 0.36175412 -0.82669306 0.16849296
0.15200676 -0.004959024 0.44549197 0.65139228 0.29687491 -0.69825023 0.16973807
-0.15457568 0.0056959335 0.44643539 -0.69459403 -0.28664261 -0.65982968 0.20186254
-0.14324582 0.0085879825 0.4425523 -0.27644625 -0.31733257 -0.90712595 0.15908994
-0.13077578 0.0019633274 0.44248182 -0.14668106 -0.073243387 -0.98646849 0.19645473
-0.12750882 0.00246769 0.44150335 -0.057828914 -0.14054921 -0.98838335 0.17401338
0.12600361 0.0028368346 0.44099396 0.23084718 -0.048741143 -0.97176844 0.18456653
0.1357933 0.0072678896 0.44137919 0.26458535 -0.27342066 -0.92478949 0.14913134
0.14391397 0.0042919931 0.44454938 0.40978342 -0.16383322 -0.8973496 0.20268874
0.1538388 0.0051450809 0.44653192 0.73060501 -0.29364029 -0.61643475 0.194997
-0.15693681 0.014361913 0.44481298 -0.29347289 -0.47416407 -0.83008558 0.098045453
-0.14623435 0.014256618 0.44500804 -0.28073269 -0.46275291 -0.84086198 0.12516187
-0.13347763 0.013810061 0.44895685 -0.1098376 -0.55350554 -0.825571 0.15610164
-0.1276639 0.014618832 0.44861022 -0.065452471 -0.5696193 -0.81929845 0.15529802
-0.11620571 0.014870683 0.4485023 -0.07069774 -0.57837766 -0.81269979 0.17632616
-0.10297211 0.014592044 0.44862169 -0.085498787 -0.68240923 -0.72595292 0.16983685
-0.080251083 0.011415806 0.44998294 0.23524286 -0.72534609 -0.6469419 0.21430048
-0.074537836 0.015655775 0.4481658 0.18959713 -0.5436545 -0.81761408 0.16646588
-0.064393722 0.016169259 0.44794574 0.1716789 -0.67562962 -0.71697354 0.1830056
-0.052478496 0.017109456 0.44754282 0.10865089 -0.61186534 -0.78346395 0.13833895
-0.043693196 0.018146249 0.44709843 0.15308347 -0.54048198 -0.82731169 0.10794541
-0.036079895 0.013174435 0.44922921 0.0024605356 -0.54189992 -0.84043938 0.067342415
-0.023980549 0.014440108 0.44868678 0.0095096566 -0.50761873 -0.86152941 0.073673353
-0.0050622248 0.017130634 0.44753373 -0.0035095632 -0.51046717 -0.85989004 0.027459268
0.0060168132 0.018413296 0.44698402 -0.0051985639 -0.51115549 -0.85947245 0.026725089
0.015018217 0.01565926 0.44816428 0.010531977 -0.4970336 -0.86766732 0.054025978
0.024752945 0.016674176 0.44772935 -0.00084070751 -0.53073484 -0.84753752 0.036713164
0.034763727 0.017610289 0.44732818 0.014220083 -0.47702137 -0.87877661 0.033755165
0.063090898 0.014828105 0.44852054 -0.19124827 -0.64547551 -0.73944944 0.16735184
0.070281386 0.014951246 0.44846773 -0.26803607 -0.62765253 -0.730896 0.14898922
0.084307753 0.015953386 0.44803825 -0.21043751 -0.65522009 -0.72553611 0.17860492
0.091400251 0.014000342 0.44887528 -0.1189765 -0.71837449 -0.68540692 0.18729354
0.10495568 0.015761424 0.44812053 0.023149341 -0.60553962 -0.7954784 0.16846272
0.11462923 0.016876992 0.44764245 -0.061944466 -0.54537106 -0.83590269 0.14591192
0.12204309 0.016266083 0.44790423 0.016700625 -0.53664136 -0.84364522 0.13492529
0.13398996 0.015410113 0.4482711 0.11969011 -0.48286256 -0.86747801 0.12030474
0.14514871 0.014587039 0.4446854 0.19358878 -0.42434743 -0.88456357 0.094290242
0.15423802 0.015779177 0.44763553 0.31553492 -0.50780576 -0.80160522 0.10633421
-0.15625052 0.022737259 0.44364208 -0.072017975 -0.44602674 -0.8921175 0.051838975
-0.14610822 0.024963159 0.44417694 -0.10460082 -0.35811633 -0.92779922 0.054881971
-0.1372443 0.025439747 0.44397268 -0.08926861 -0.37640673 -0.92214376 0.060959827
-0.12475883 0.025951479 0.44375336 0.00010375313 -0.38675916 -0.92218077 0.085677966
-0.11592251 0.024780799 0.44425508 -0.082881458 -0.4460943 -0.89113992 0.11831922
-0.10464686 0.025263868 0.44404805 -0.016638793 -0.52578902 -0.85045224 0.1348705
-0.097203955 0.022018477 0.44543892 0.10418787 -0.56066114 -0.82146454 0.13679782
-0.08481957 0.023919102 0.44462439 0.30174291 -0.34761548 -0.88775826 0.20335604
-0.073983155 0.026845524 0.44337025 0.27690193 -0.35078877 -0.89457953 0.22491866
-0.067125149 0.024953637 0.44418103 0.17526279 -0.34009832 -0.92391348 0.1994528
-0.054094832 0.022447303 0.44525513 0.170412 -0.45350826 -0.87480849 0.17420767
-0.047339458 0.026033115 0.44371834 0.038040049 -0.41377735 -0.90958303 0.037237778
-0.034822237 0.022959914 0.44503546 0.020049296 -0.44248068 -0.89655387 0.0078087407
-0.025362022 0.027492862 0.44309276 0.0013461652 -0.41102359 -0.91162366 0.00055859698
-0.011899993 0.02544073 0.44397226 -0.005044769 -0.43981624 -0.89807361 0.0040319688
-0.0047954917 0.023566822 0.44477534 -0.015286372 -0.42517006 -0.9049843 0.005447634
0.0087418482 0.025344223 0.44401363 0.0013989118 -0.41108081 -0.91159785 0.00089501787
0.016271995 0.026695309 0.4434346 0.0013366551 -0.41319832 -0.91064006 0.00087430212
0.025933191 0.024272498 0.44447294 0.0067436788 -0.44907895 -0.89346665 0.0078345304
0.035982881 0.025807749 0.44381496 -0.0022717472 -0.41704729 -0.90888196 0.0031139029
0.043047152 0.024882123 0.44421166 -0.020383615 -0.37661314 -0.92614639 0.047392517
0.058328331 0.027830228 0.44294819 -0.077575065 -0.47437957 -0.87689573 0.11906354
0.064690761 0.024180572 0.44451234 -0.23695974 -0.46485364 -0.85308927 0.15391564
0.073337078 0.024554268 0.44435215 -0.36903331 -0.27233547 -0.88862133 0.1832974
0.086002447 0.023497706 0.444805 -0.11582531 -0.40503013 -0.90693712 0.17785683
0.10471874 0.024302809 0.44445992 0.068959564 -0.55524015 -0.82882619 0.14859255
0.11437032 0.025358548 0.44400749 0.0052458853 -0.40004545 -0.91648024 0.10883719
0.123023 0.026572885 0.44348702 0.16158853 -0.39268848 -0.90536451 0.089338265
0.13663287 0.025536627 0.44393119 0.081697635 -0.39386442 -0.91553062 0.060652312
0.14447086 0.025953704 0.44375244 0.15087867 -0.41699964 -0.89629626 0.050045833
0.15488018 0.024404194 0.44396648 0.20510921 -0.41152889 -0.88801706 0.049306538
-0.15909092 0.033208985 0.44035414 -0.025017472 -0.36841744 -0.92932373 0.034091629
-0.13258682 0.033372182 0.44057307 -0.027674036 -0.40840432 -0.91238153 0.056305315
-0.12369691 0.030128231 0.44196334 -0.031643651 -0.38763288 -0.92127055 0.081935868
-0.11434892 0.032402828 0.44098848 -0.042450249 -0.36152467 -0.93139565 0.10719661
-0.10451133 0.032728437 0.44084895 0.014711309 -0.24449705 -0.96953839 0.12053487
-0.092584737 0.032990247 0.44073674 0.15383503 -0.40168816 -0.90276319 0.15328175
-0.081115395 0.034253504 0.44019535 0.26236236 -0.3713741 -0.89064431 0.16096701
-0.076319307 0.032884013 0.44078228 0.10627884 -0.44297758 -0.89021105 0.16589381
-0.055564679 0.032410897 0.44098502 0.22843386 -0.29554012 -0.92761743 0.18226099
-0.047061324 0.031932198 0.44119018 0.1432457 -0.41739884 -0.89736223 0.14475952
-0.037790045 0.033490151 0.44052249 4.1912663e-06 -0.39390779 -0.91914999 0
-0.022456348 0.033794854 0.44039193 3.7796301e-06 -0.39397147 -0.91912264 8.1050697e-05
0.014882609 0.031705078 0.44128752 -4.8029705e-07 -0.39391875 -0.91914523 0
0.021994749 0.031729568 0.44127703 -9.8347173e-06 -0.39392629 -0.91914207 0
0.039067436 0.032125812 0.44110721 -0.040898304 -0.39416167 -0.91813064 0.055871047
0.043535896 0.030490967 0.44180787 -0.016088346 -0.40980038 -0.91203338 0.061839283
0.054431971 0.033409186 0.44055721 -0.37017274 -0.52275097 -0.76792157 0.20832655
0.072888613 0.033312112 0.44059885 -0.26582921 -0.35820296 -0.89500022 0.21532595
0.086697385 0.032324754 0.44102198 -0.13144852 -0.21100888 -0.96860546 0.15482947
0.090814531 0.03427517 0.44018608 -0.067710735 -0.31366801 -0.94711548 0.18630154
0.1069208 0.031121075 0.44153783 0.013836123 -0.42476726 -0.90519685 0.13624649
0.12357563 0.033378147 0.4405705 0.077572681 -0.37930706 -0.9220134 0.083898976
0.13443954 0.032733023 0.44084698 0.11718642 -0.41468763 -0.90238655 0.059172597
0.14418325 0.032354042 0.44100937 0.046278041 -0.36289093 -0.93068177 0.044825021
0.15909092 0.030361239 0.44047976 0.1905629 -0.40434808 -0.8945325 0.034113362
-0.016047308 -0.15163337 0.45082328 0.15258713 0.84124422 -0.5186764 0.071984425
-0.0056237089 -0.15303865 0.45066956 0.042269677 0.83587933 -0.54728329 0.086418897
0.005928521 -0.15162562 0.45256531 -0.040436592 0.75477141 -0.65474039 0.070584476
0.010748273 -0.15215194 0.45118362 -0.10120232 0.81633228 -0.56864721 0.071203865
-0.040742293 -0.1417845 0.45207259 0.42714924 0.76392025 -0.48370388 0.079639032
-0.033533353 -0.14079176 0.45736331 0.29806662 0.65419346 -0.6951167 0.056550857
-0.02411427 -0.14456469 0.45465326 0.18401518 0.71580523 -0.67361802 0.053918142
-0.017149406 -0.14385997 0.45667547 0.09075024 0.60561347 -0.79056734 0.033148166
-0.0049967538 -0.14528924 0.4525288 0.039567005 0.78552169 -0.61756808 0.072921991
0.0049694744 -0.14542603 0.45247018 -0.039056093 0.71565419 -0.69736195 0.059838798
0.01399356 -0.14604165 0.45344269 -0.11352306 0.79262143 -0.59905237 0.075737312
0.024549183 -0.14703034 0.45345455 -0.24777701 0.77949482 -0.57532108 0.059006125
0.036091167 -0.14326416 0.45283693 -0.41723272 0.79012555 -0.44901955 0.060226936
0.042152919 -0.14283565 0.45122284 -0.49304578 0.78123391 -0.38285688 0.075176068
-0.053736594 -0.13091636 0.45570236 0.65710086 0.62038296 -0.42818612 0.061761744
-0.043941602 -0.13523723 0.45513347 0.44980699 0.62407726 -0.63890636 0.067595482
-0.038025532 -0.13734968 0.45542687 0.34831691 0.66245341 -0.6631974 0.064774513
-0.024947422 -0.13517468 0.45562732 0.17687312 0.58298117 -0.79299992 0.044055481
-0.015439973 -0.13291171 0.45659715 0.056593053 0.5342353 -0.84343928 0.027859634
-0.005354723 -0.13667794 0.45621935 0.014732444 0.53206241 -0.84657693 0.024988621
0.0068477187 -0.1355246 0.45630154 -0.047511067 0.53619295 -0.84275723 0.030357957
0.013620746 -0.13410282 0.45608664 -0.030907484 0.55434197 -0.83171493 0.029184273
0.02264851 -0.13523561 0.45560119 -0.1703074 0.61104822 -0.77305585 0.046376958
0.036341321 -0.13589346 0.4561179 -0.35407388 0.71155602 -0.6068936 0.066641271
0.045737162 -0.13545771 0.45473486 -0.57178056 0.70378673 -0.42160559 0.063883357
0.054593574 -0.1304085 0.45211974 -0.74918175 0.6039198 -0.27204323 0.063448146
-0.055839386 -0.12334896 0.45403919 0.79808861 0.50508064 -0.32855463 0.061189603
-0.045698337 -0.12578052 0.45965335 0.50425041 0.57823473 -0.64138597 0.07821697
-0.03371568 -0.1276132 0.45886794 0.26559314 0.55168623 -0.79063433 0.053767838
-0.025792236 -0.12609503 0.45951855 0.11958013 0.47240371 -0.87323266 0.027039185
-0.015290913 -0.1283042 0.45857179 0.0039211912 0.41640037 -0.90917289 0.007799543
-0.0068422393 -0.12625916 0.45944822 0.0091718184 0.38801044 -0.92160934 0.0072190715
0.0048116241 -0.12746716 0.45893049 0.012570625 0.40986732 -0.91205859 0.007758908
0.025725946 -0.1274232 0.45894939 -0.13707215 0.52326649 -0.84107286 0.032651525
0.036956389 -0.12974092 0.45795605 -0.33740008 0.60918224 -0.71767551 0.063886374
0.042647723 -0.12834579 0.45855394 -0.43856993 0.61929131 -0.6512562 0.075303443
0.053916745 -0.12489928 0.45531484 -0.77665269 0.53429157 -0.33368102 0.062455978
-0.060726244 -0.11645707 0.45627061 0.82821494 0.48451707 -0.28160822 0.066399708
-0.057132851 -0.11423013 0.45440578 0.81881618 0.44583607 -0.36162171 0.072593831
0.057014566 -0.11739042 0.45632347 -0.83907533 0.44558346 -0.31210259 0.066612095
0.060788423 -0.11585289 0.45186335 -0.89129275 0.41334727 -0.18639031 0.056152251
-0.062769726 -0.10435069 0.45511806 0.95494634 0.23439626 -0.18203296 0.050373863
-0.058852226 -0.10530581 0.45493412 0.93095225 0.28122118 -0.23290047 0.064801201
0.062141106 -0.10292433 0.45477498 -0.96363014 0.17752147 -0.19975738 0.040871207
-0.063076027 -0.09533447 0.45586124 0.98137826 0.088943958 -0.17025211 0.044480313
0.062544249 -0.096242115 0.45591325 -0.97496855 0.10259847 -0.19725581 0.035589702
-0.062193286 -0.084667832 0.45633841 0.98244506 -0.10309627 -0.1554766 0.026977526
-0.058908723 -0.084948421 0.4596675 0.95770609 -0.034706209 -0.28564733 0.044861801
0.059058145 -0.085273713 0.45910287 -0.95229369 -0.011414555 -0.30496964 0.046145201
0.062404878 -0.084809601 0.45623162 -0.97664845 -0.071499541 -0.20259731 0.027767811
-0.057468731 -0.071126834 0.45590594 0.93464822 -0.31483302 -0.16526604 0.019680806
0.058152124 -0.075104415 0.45426229 -0.95785689 -0.21894683 -0.18593678 0.022832075
0.061355185 -0.077242732 0.45380679 -0.96106941 -0.22692676 -0.15763798 0.016666939
-0.056261711 -0.066709697 0.45539495 0.91403776 -0.3679406 -0.1707474 0.016931687
0.054584932 -0.06396129 0.45514742 -0.90307391 -0.39001024 -0.17985947 0.015122473
-0.052737992 -0.055662673 0.45610884 0.80925596 -0.46770626 -0.35546532 0.056896791
-0.04695094 -0.052861001 0.45526707 0.73316908 -0.52655101 -0.43035698 0.054695185
0.046016932 -0.052466862 0.45625988 -0.73092514 -0.57998598 -0.35967323 0.048866339
0.052239135 -0.05448338 0.45440373 -0.81445146 -0.47895148 -0.32752743 0.049230512
-0.043719191 -0.047271173 0.45342273 0.68791628 -0.51012778 -0.516276 0.062250759
-0.03791381 -0.043681458 0.45578507 0.58674234 -0.64331603 -0.49181083 0.062112872
0.038678482 -0.041397542 0.45586666 -0.6005215 -0.58968639 -0.54004073 0.065602571
0.045558061 -0.047150947 0.45280123 -0.71532822 -0.54575884 -0.43640903 0.069496103
-0.035267528 -0.036918428 0.45338583 0.52340555 -0.53715289 -0.661448 0.093293659
-0.025906995 -0.034505021 0.45483604 0.41977447 -0.73753345 -0.52899319 0.080552429
-0.015662078 -0.030913267 0.45371974 0.17602144 -0.75679797 -0.62950242 0.10846744
-0.0052043675 -0.030595504 0.45618457 0.077303655 -0.78010511 -0.62085432 0.10514962
0.0070451749 -0.030665137 0.45550302 -0.11684584 -0.68302774 -0.72098553 0.11494316
0.015010124 -0.031965785 0.45496899 -0.19495364 -0.74643898 -0.63625616 0.084498674
0.026294634 -0.033145722 0.45320734 -0.3849026 -0.67271197 -0.63190866 0.097837478
0.033587389 -0.036331784 0.45469484 -0.51806408 -0.65420067 -0.5510273 0.072518431
0.041339323 -0.039821453 0.45096719 -0.57694733 -0.5023976 -0.64399409 0.091165863
-0.02013888 -0.029963318 0.45802349 0.32288554 -0.65627098 -0.68194813 0.1328772
-0.014065367 -0.028339902 0.45695314 0.17665887 -0.6170128 -0.76686811 0.15516374
-0.0049549984 -0.028117519 0.45504147 0.061717663 -0.62322432 -0.77960408 0.14248554
0.004597967 -0.027399514 0.45462632 -0.038591534 -0.66878241 -0.74245596 0.10978819
0.014476024 -0.029231343 0.45749992 -0.18895635 -0.59069264 -0.78446013 0.12411218
0.020435596 -0.029337432 0.45630741 -0.23928295 -0.60379177 -0.76038104 0.15046082
-0.15600428 -0.0017798713 0.45496884 0.98705018 -0.12254003 0.10351741 0.20663159
-0.14293456 -0.0038141974 0.45400283 -0.36960563 0.84277964 -0.39129809 0.2343646
-0.1347979 -0.0022688787 0.45385322 0.015803631 0.9946261 -0.10231915 0.2461198
-0.1241658 -0.0065492103 0.45140877 0.028385872 0.83334583 -0.55202264 0.18705738
-0.11358942 -0.0056212614 0.45329461 0.18018569 0.87751043 -0.44441935 0.18535422
-0.10402226 -0.0033508867 0.4539037 0.031141754 0.95104963 -0.30746514 0.18297036
-0.094986759 -0.0045650783 0.45225909 -0.045806035 0.94746232 -0.31657058 0.2037134
-0.084715247 -0.0071588773 0.45114747 0.026658531 0.91806757 -0.39552653 0.18129717
-0.075530671 -0.0053067678 0.45314661 -0.078150719 0.95634651 -0.28159162 0.17316979
-0.064526752 -0.0035191085 0.45497018 -0.026097497 0.98564392 -0.16680786 0.19987682
-0.055294774 -0.003410527 0.45404172 0.097076826 0.539684 -0.83625197 0.20590508
-0.046353403 -0.0044692103 0.45408466 0.037427232 0.66973388 -0.7416575 0.21135369
-0.03397385 -0.0047969306 0.4536894 0.069062822 0.54240346 -0.83727467 0.21141341
-0.021975255 -0.0035197965 0.45389342 -0.0023968879 0.38463727 -0.92306465 0.1963532
-0.013674743 -0.0059471577 0.45255741 0.041368969 0.22480616 -0.97352493 0.15927495
-0.0040287832 -0.00319448 0.45499268 -0.074477986 0.22492097 -0.97152632 0.20277295
0.004737169 -0.0025667695 0.45472527 -0.088949881 0.19352855 -0.97705406 0.19023208
0.015789129 -0.004484307 0.4527629 -0.035143789 0.18713655 -0.98170507 0.14614893
0.028097438 -0.0066218567 0.45137763 -0.087783366 0.33155513 -0.93934309 0.15260136
0.037884697 -0.0016307852 0.45351663 0.22444521 0.4831669 -0.84627068 0.23037831
0.044871394 -0.0056563159 0.4524579 -0.053536434 0.8106429 -0.58308828 0.15601873
0.054368902 -0.0029384689 0.45318684 -0.043550305 0.99115145 -0.12538831 0.15316248
0.066473015 -0.0040848753 0.45303869 0.044100028 0.96783745 -0.24768075 0.18770562
0.073637046 -0.0035441332 0.45341527 0.02955565 0.9859122 -0.1646314 0.19859692
0.086181968 -0.0042569106 0.4543328 -0.13750237 0.97286779 -0.18606797 0.21185549
0.093415976 -0.0034617146 0.45543203 -0.031384993 0.9951241 -0.093503669 0.19046222
0.10590836 -0.0038440088 0.45471734 -0.12907645 0.9773441 -0.16774291 0.20000532
0.11640648 -0.0043035974 0.45321923 -0.15631925 0.90901196 -0.38634384 0.21871747
0.12640588 -0.0031193052 0.45328814 0.061577033 0.95945108 -0.27506688 0.21455239
0.13683578 -0.004947369 0.45204929 0.37825346 0.60555124 -0.70016563 0.2046617
0.14635772 -0.0034603414 0.45383897 0.36506101 0.73190075 -0.57537085 0.1974149
0.15722317 -0.0028889121 0.45297745 0.90046549 0.1756357 -0.39788687 0.20623
-0.15444636 0.0037285183 0.45459595 0.95917046 0.15709399 0.23518842 0.21748345
-0.14439297 0.0028699473 0.45444626 -0.47169086 -0.83044744 -0.29642007 0.26010537
-0.13437286 0.0058743004 0.45357111 -0.15555453 -0.7917347 -0.59072739 0.23376372
-0.12694059 0.0030425678 0.45788994 0.007925191 -0.98836672 -0.1518833 0.16905722
-0.1129706 0.0044164849 0.45306271 0.003026346 -0.98487067 -0.17326443 0.22449097
-0.10636566 0.0023809073 0.45426142 -0.046834789 -0.99617487 -0.073771194 0.20976755
-0.094718561 0.0051903231 0.45485967 -0.0046155937 -0.99123722 -0.13201343 0.18420601
-0.083494589 0.0061725555 0.45229474 0.042084847 -0.96150535 -0.27154422 0.21570618
-0.074332453 0.0054445169 0.45244184 0.081408732 -0.96429253 -0.25201705 0.20150457
-0.065947279 0.0057047433 0.45253944 0.15163116 -0.9369368 -0.31489271 0.19363849
-0.055391036 0.0042149508 0.45488706 -0.027231283 -0.8651219 -0.50082177 0.1753349
-0.044345912 0.0039447104 0.45331845 0.059352566 -0.81506592 -0.57632011 0.17568049
-0.034777541 0.0034100122 0.45493439 -0.012556772 -0.67840391 -0.73458189 0.21733792
-0.026251188 0.0051147076 0.45503601 0.01300477 -0.86703748 -0.49807301 0.16332853
-0.01512701 0.0042032436 0.45532736 0.054710969 -0.88778502 -0.45699501 0.19006315
-0.0071263909 0.0080994982 0.45140421 0.030284477 -0.66288656 -0.74810708 0.14750253
0.009960413 0.0030425678 0.45752382 -0.031865217 -0.87821513 -0.47720307 0.16518848
0.016530478 0.0077656549 0.45154729 -0.02249182 -0.5865311 -0.80961436 0.12464692
0.025775524 0.0032853277 0.45460072 -0.13916738 -0.75744987 -0.63788885 0.17226636
0.037024543 0.0062050787 0.45314971 0.04356226 -0.64366382 -0.76406759 0.18330741
0.043911669 0.0032619422 0.45482898 -0.0088372445 -0.87175423 -0.48986372 0.19266096
0.054266259 0.0037630901 0.45439154 0.10469874 -0.98033768 -0.167261 0.20628428
0.061810836 0.0050973175 0.45269087 0.07914643 -0.9725607 -0.2187725 0.20567462
0.074180253 0.0029352657 0.45372158 0.0080993008 -0.99776947 -0.066260539 0.18719171
0.085302092 0.0043532834 0.45328549 -0.076739408 -0.97368532 -0.21458744 0.2184767
0.095677942 0.0025169984 0.45331132 0.057863381 -0.98947632 -0.13262163 0.17603727
0.10343536 0.0045119026 0.45268673 -0.020068733 -0.95791876 -0.28633696 0.20789291
0.11762194 0.0030761021 0.45305496 -0.14644156 -0.94679546 -0.28658912 0.21701601
0.12413649 0.0029514348 0.45490295 -0.13932841 -0.98264569 -0.12245413 0.2142894
0.13597421 0.0037221594 0.45456469 0.084275432 -0.98519677 -0.14928147 0.2587966
0.1463788 0.0048132432 0.45334047 0.43447274 -0.71172577 -0.55197805 0.24166498
0.15518372 0.0026378208 0.45541877 -0.97320807 0.016838115 0.22930886 0.23193687
-0.14972158 0.01005217 0.45056736 -0.50287706 -0.62783939 -0.5940811 0.16654077
-0.12551081 0.010462837 0.45039132 -0.060301244 -0.67927456 -0.7314027 0.17747743
-0.10193264 0.010313581 0.45045531 -0.13895501 -0.71341085 -0.6868307 0.21027665
-0.087457426 0.011163136 0.45009124 0.15202589 -0.73501426 -0.66078901 0.23952714
-0.06271071 0.010464307 0.45039073 0.16102214 -0.73940706 -0.65371931 0.17951794
-0.046602488 0.010162077 0.45052028 0.0055466038 -0.71483171 -0.69927448 0.16565986
-0.022045314 0.011147494 0.45009795 0.0060742209 -0.5179655 -0.85537994 0.12233231
-0.0054380447 0.010568261 0.45034617 -0.03489431 -0.59471148 -0.80318165 0.12260512
0.0008469224 0.010090333 0.450551 0.090328388 -0.59417421 -0.79924828 0.11925184
0.02064725 0.010312627 0.45045573 -0.029397495 -0.54180449 -0.83999026 0.097179033
0.052452017 0.010181135 0.45051205 -0.087203048 -0.58517927 -0.80620152 0.16005358
0.071425848 0.010405188 0.45041609 -0.29402295 -0.78661275 -0.54294658 0.18943477
0.10086964 0.010687578 0.45029503 0.0015526833 -0.81805998 -0.57513088 0.17959477
0.12364604 0.010330573 0.45044804 -0.058589648 -0.67341727 -0.73693722 0.21362057
0.13149732 0.010319095 0.45045298 0.10297318 -0.54743624 -0.83048791 0.1866511
0.1540966 0.01074688 0.45026964 0.63428938 -0.46444356 -0.61803651 0.15670887
-0.04238547 -0.13294758 0.46048266 0.3870928 0.62869012 -0.67446858 0.057886139
-0.034330796 -0.13348389 0.46129721 0.21949093 0.56040132 -0.79860759 0.052840151
-0.015531225 -0.1317963 0.46202049 0.019583305 0.43186438 -0.90172589 0.010670595
-0.0056060152 -0.1305628 0.46254915 0.0059013451 0.39381754 -0.91916966 0.0073779887
0.0054263948 -0.13139002 0.46219462 0.019860111 0.4105919 -0.91160291 0.0084042
0.014932278 -0.13517757 0.46057138 -0.042147111 0.51195866 -0.85797548 0.019656548
0.021311773 -0.13255337 0.46169603 -0.044650886 0.47456783 -0.87908572 0.012950555
0.034527611 -0.13257915 0.46168494 -0.19271648 0.60711002 -0.77089423 0.043268323
0.042271797 -0.1309859 0.4622936 -0.38159645 0.63371694 -0.67289454 0.066110454
-0.052419357 -0.12348747 0.46136373 0.60862827 0.55200344 -0.56996822 0.079892457
-0.044482283 -0.12518069 0.46354151 0.35640404 0.57085109 -0.73966563 0.056460921
-0.033605974 -0.12283996 0.46338621 0.15871358 0.49853688 -0.85221529 0.030111728
-0.023686787 -0.12256472 0.46498781 -0.0088073844 0.40715817 -0.91331524 0.008023561
-0.014717464 -0.12727213 0.4639594 -0.00027936944 0.39881179 -0.91703272 0.0073112422
-0.0029030158 -0.12243749 0.46232241 0.014674033 0.40340275 -0.91490477 0.0083331866
0.0069939392 -0.12468437 0.46309033 0.029140862 0.39801973 -0.91691387 0.0082515152
0.010240256 -0.12907916 0.46318498 0.010439986 0.40086806 -0.9160763 0.0074744411
0.024535237 -0.12450858 0.46349537 -0.010050151 0.43552354 -0.90012127 0.0098663764
0.034100555 -0.12339327 0.46463269 -0.13930723 0.50730813 -0.85043043 0.026428822
0.045271352 -0.1232508 0.46520874 -0.38244015 0.50551057 -0.77343303 0.059948843
0.053012699 -0.1239551 0.46119744 -0.6576677 0.52821422 -0.53708738 0.076060563
-0.062493689 -0.11224119 0.46401206 0.82660633 0.35623255 -0.43568382 0.07101465
-0.056326777 -0.11509493 0.46321616 0.7521857 0.48910737 -0.4415774 0.083048485
-0.043934472 -0.11748464 0.46419778 0.3868987 0.48145151 -0.78645653 0.06969057
-0.034429215 -0.11525095 0.46663865 0.11112518 0.41195482 -0.90440279 0.022060584
-0.026455626 -0.11468789 0.46440735 0.00099754846 0.40541241 -0.91413331 0.0076787812
-0.013285168 -0.11672397 0.46452379 0.006177986 0.39764157 -0.91751999 0.007759477
-0.0049567064 -0.11468095 0.46511677 0.015372576 0.39999497 -0.91638845 0.0076433118
0.0038926713 -0.11616879 0.46597058 -0.0076166778 0.40041101 -0.91630399 0.0087315897
0.015315303 -0.1152577 0.46478131 0.006029102 0.38807806 -0.92160684 0.0090378495
0.023927342 -0.11521855 0.46665257 0.022401525 0.39630961 -0.91784358 0.0078925015
0.036402069 -0.1154605 0.46654886 -0.16699064 0.47624215 -0.86331195 0.03311744
0.04624024 -0.11576292 0.4676556 -0.36585823 0.46777439 -0.80457127 0.061438013
0.055003356 -0.11597999 0.46533921 -0.61271417 0.48225972 -0.62610453 0.073241979
0.060633656 -0.11423345 0.46275809 -0.81856555 0.3896924 -0.4220075 0.077582322
-0.063938826 -0.105312 0.46601754 0.86393875 0.31032896 -0.39661786 0.073112607
-0.056960847 -0.10539769 0.46853516 0.68504053 0.34448844 -0.64190894 0.07696262
-0.043356612 -0.10848224 0.46706688 0.36200717 0.41855049 -0.83292633 0.05940586
-0.035993565 -0.1038365 0.46905792 0.11684316 0.412462 -0.90345055 0.021579433
-0.025532087 -0.10594654 0.46815366 -0.019071208 0.40079233 -0.91597039 0.0067457468
-0.016708681 -0.10985959 0.46647662 -0.0021542055 0.39155418 -0.92015254 0.0068703219
-0.0025999497 -0.10481532 0.46863845 0.012004929 0.39022386 -0.92064172 0.0078271097
0.0066342093 -0.10391585 0.46902394 0.0056705298 0.40444645 -0.91454411 0.0080457935
0.015666783 -0.10815167 0.46720859 0.01216163 0.37851059 -0.92551708 0.0082963733
0.026600048 -0.10799541 0.46727553 0.0068175104 0.37970623 -0.92508203 0.0073602539
0.035937697 -0.10234146 0.46969867 -0.075254843 0.39397913 -0.91603345 0.014485561
0.04109602 -0.1029922 0.46941981 -0.21851446 0.37203339 -0.90213227 0.037860099
0.054615986 -0.10777641 0.46705043 -0.68072611 0.3469125 -0.64518493 0.075041793
0.06240534 -0.10452006 0.4640457 -0.88917965 0.24737747 -0.38492081 0.077524751
-0.063571192 -0.093847483 0.46524835 0.92815185 0.073484644 -0.36487547 0.070737496
-0.059760377 -0.098910458 0.46091527 0.93455297 0.13968195 -0.32726106 0.07205727
0.059411775 -0.094155788 0.46840981 -0.79769164 0.14526929 -0.58530742 0.06979803
0.061966956 -0.09448351 0.464109 -0.9055652 0.11053495 -0.40955299 0.063006476
-0.0625 -0.083411366 0.46513167 0.94674605 -0.095654793 -0.30744445 0.045514267
-0.05927667 -0.083760001 0.465554 0.91453165 -0.023982007 -0.40380299 0.063719869
0.062661387 -0.084856242 0.46349359 -0.95153105 -0.036324881 -0.30539984 0.037422158
-0.057717234 -0.074462757 0.46614552 0.89053923 -0.25887206 -0.37406582 0.051827602
0.056251567 -0.073627047 0.46477345 -0.88195372 -0.23901822 -0.40623617 0.053154692
0.060087051 -0.074389301 0.46429288 -0.9206959 -0.24240845 -0.30587104 0.030781861
-0.054302812 -0.064981148 0.46374449 0.85235566 -0.41811615 -0.31411576 0.033501945
0.048828207 -0.06013184 0.4645122 -0.8103624 -0.48036823 -0.33549818 0.024777764
0.053671833 -0.063871346 0.46442416 -0.84631425 -0.41883475 -0.32913461 0.027621726
-0.050061703 -0.059965357 0.46621603 0.81498903 -0.45993674 -0.35249275 0.029111678
-0.045753323 -0.051377203 0.46200636 0.72626829 -0.60858649 -0.31962007 0.020292247
0.04516004 -0.054475244 0.46450326 -0.75356698 -0.58753383 -0.29485723 0.017404879
-0.036167368 -0.045040596 0.46589062 0.58716267 -0.73587775 -0.33722982 0.010775324
0.02575697 -0.041600682 0.46834064 -0.42666957 -0.82620102 -0.36789253 0.016138444
0.033855405 -0.043900501 0.46784139 -0.53560215 -0.76042664 -0.36726224 0.015955256
0.044115584 -0.046537608 0.46045747 -0.67515337 -0.63740546 -0.37132511 0.040142298
-0.026183495 -0.036189396 0.4634178 0.39076075 -0.78686047 -0.47765756 0.047395084
-0.014163549 -0.032490518 0.46573299 0.22670734 -0.85855341 -0.45988029 0.056957446
-0.0056222328 -0.032343309 0.46404243 0.015597581 -0.8741228 -0.48545441 0.053426504
0.0031533088 -0.032125846 0.46402678 -0.071401425 -0.90011346 -0.42976445 0.033172943
0.014301777 -0.03345453 0.46579894 -0.17665137 -0.88025028 -0.44040185 0.034054767
0.025206544 -0.036517158 0.46392781 -0.42601746 -0.77615106 -0.4648641 0.042362142
0.030835219 -0.038561307 0.46294904 -0.46429065 -0.78340644 -0.41316885 0.037949432
-0.011230599 -0.029814761 0.46342456 0.15377013 -0.7559039 -0.6363678 0.13686974
-0.0075473622 -0.028944954 0.46192554 0.044421829 -0.77859026 -0.62595832 0.14373489
0.0019854847 -0.029113699 0.46428874 -0.062205229 -0.79510677 -0.60327095 0.11887263
-0.15589434 -0.00086220476 0.46805128 -0.0047894404 -0.99967837 -0.024902064 0.082510121
-0.14237961 -0.0015028849 0.46860272 -0.028202815 -0.99931222 -0.024075536 0.075714909
-0.1324445 -0.0015028849 0.46434966 0.028536845 0.99923939 -0.026575565 0.076637171
-0.12451547 -0.0015028849 0.46559852 -0.022202162 0.99882197 -0.043147519 0.079210073
-0.11522628 -0.001502885 0.46637771 0.029282533 0.99710923 -0.070112675 0.094920561
-0.1055029 -0.0015028849 0.46434021 0.01421294 0.99398446 -0.10859428 0.089856446
-0.092639007 -0.0015028848 0.46380147 -0.055852689 0.99469757 -0.086354792 0.10050416
-0.085572414 -0.0015028849 0.46390504 -0.0052150078 0.99957675 -0.028619431 0.11036555
-0.076339267 -0.0015028849 0.46542525 0.037875775 -0.9992075 -0.012236327 0.096680738
-0.065827556 -0.0015028849 0.46540126 0.0046466822 -0.99798208 -0.063324951 0.096977279
-0.053749904 -0.0015028849 0.46298969 0.039355256 -0.99734664 -0.061243888 0.14165255
-0.042601246 -0.0015028848 0.46881157 -0.035207935 -0.99929637 -0.012932444 0.080488496
-0.037223149 -0.001502885 0.46457577 0.02723268 0.99890035 -0.038165286 0.10797381
-0.027600473 -0.001502885 0.46562764 -0.012317036 0.99779791 -0.065174133 0.093329191
-0.015261657 -0.0015028849 0.46575156 0.01036065 0.98526227 -0.17073606 0.19695671
-0.0066566993 -0.001502885 0.46671891 0.017162459 0.97719133 -0.2116663 0.21303818
0.0073741004 -0.001502885 0.46244258 -0.055024561 0.91632611 -0.3966344 0.24577376
0.015948385 -0.0015028849 0.46644455 0.074964739 0.99711561 -0.011868773 0.14106083
0.021393869 -0.0015028849 0.46740729 0.056805626 0.99598247 -0.06922359 0.1074798
0.034897093 -0.001502885 0.46449652 0.022370616 0.99564838 -0.090464316 0.10260552
0.043757875 -0.001502885 0.46568009 0.012106782 0.98677671 -0.16163255 0.081169546
0.056487631 -0.0015028849 0.46501321 -0.011053883 0.99640769 -0.08396136 0.092819341
0.065211475 -0.0015028849 0.46600565 0.0049025305 0.99965984 -0.025614936 0.081572242
0.077559866 -0.001502885 0.46837184 0.034914341 0.99933386 -0.010619583 0.081417687
0.083037831 -0.0015028849 0.46641418 -0.0139341 0.99978632 -0.015266675 0.087102838
0.098964334 -0.0015028849 0.46580714 0.0018651234 0.99949551 -0.031705797 0.083778381
0.10308525 -0.0015028849 0.46110111 -0.047766995 0.99885768 -0.0013373977 0.11538176
0.12857139 -0.001502885 0.46490473 0.026335692 0.99832797 -0.05145625 0.097498097
0.13510638 -0.0015028849 0.4639051 0.0061571593 0.99883747 -0.047810014 0.11140624
0.14396228 -0.0015028849 0.46322808 0.039568055 0.9964366 -0.074488096 0.1271515
0.15909092 -0.0012266973 0.46684992 -0.12185425 0.99072301 -0.060162261 0.11007453
-0.15501541 0.0030344746 0.46410641 -0.040852245 -0.994847 -0.092792459 0.12811835
-0.14530335 0.0030425675 0.46622607 0.053517278 -0.99818707 -0.027539602 0.093499869
-0.13595703 0.0030425675 0.46486345 -0.02899397 -0.99944317 -0.016514244 0.068955064
-0.12456001 0.0030425675 0.46477404 0.021018969 -0.99824113 -0.055433635 0.089469358
-0.11792601 0.0030425678 0.46479639 0.01605837 -0.99906451 -0.040152173 0.1070874
-0.10556202 0.0030425678 0.46292767 -0.011650521 -0.99776721 -0.065764017 0.12657721
-0.085641325 0.0030425678 0.46511197 0.022788376 -0.9873023 -0.15720953 0.1226963
-0.074015714 0.0030425675 0.46655369 0.058833212 -0.99813914 -0.016023846 0.092486441
-0.063204624 0.003042568 0.46715337 0.016084572 -0.99896628 -0.042517655 0.077524379
-0.054909777 0.0030425678 0.46256396 0.0045993119 -0.98766023 -0.15654409 0.13532317
-0.044855461 0.0030425675 0.46822909 -0.034653343 -0.99916339 -0.021715753 0.082833976
-0.035018593 0.0030425675 0.4622249 -0.084651247 -0.99277961 -0.084986895 0.12540767
-0.023330389 0.0030425678 0.46258795 -0.038329784 -0.99103588 -0.12797907 0.1238246
-0.013046649 0.0030425675 0.46294597 0.021096168 -0.97152901 -0.23597944 0.14224286
-0.0055826236 0.0030425682 0.46783623 -0.0084060803 -0.99806476 -0.061611753 0.082283467
0.0070849569 0.0030425675 0.46510425 0.011982724 -0.99585652 -0.090145469 0.094824187
0.01579335 0.0030425675 0.46824166 -0.067395382 -0.99377328 -0.088726975 0.069082737
0.026883787 0.0030425675 0.46362075 -0.019823411 -0.99315047 -0.11514867 0.11292998
0.030404441 0.0030425678 0.46156538 -0.02595186 -0.98936844 -0.14309655 0.14337945
0.04709952 0.0030425678 0.46811551 0.012121934 -0.99984378 -0.01285808 0.067345992
0.054250743 0.003042568 0.46972358 0.017871948 -0.99954265 -0.024391843 0.058089886
0.06482587 0.0030425675 0.46546999 0.043246016 -0.99716735 -0.061538011 0.10580492
0.073590077 0.0030425678 0.46742952 -0.00046430787 -0.99773961 -0.067197323 0.073186666
0.094545946 0.0030425678 0.46160501 -0.04058402 -0.98840213 -0.14633536 0.13649486
0.10709608 0.0030425678 0.46470785 0.013886577 -0.99688649 -0.077617526 0.11061652
0.11483316 0.0030425678 0.46498284 0.021235202 -0.99822909 -0.055567335 0.078306392
0.12597595 0.0030425678 0.46796036 0.0111297 -0.99926805 -0.036599919 0.077774845
0.13533245 0.0030425675 0.46561733 0.010618449 -0.9991231 -0.040502116 0.084416173
0.14360918 0.0030425675 0.46660891 -0.048339155 -0.99855572 -0.023446655 0.094505295
0.15570518 0.0022246807 0.46186766 0.027764527 -0.99078882 -0.13253951 0.16848944
-0.050216787 -0.11090384 0.47097439 0.44730321 0.42100146 -0.78909928 0.063431703
-0.046339482 -0.11258739 0.47025284 0.32024714 0.4319967 -0.84310174 0.061406963
-0.02029153 -0.11311906 0.47002497 -0.0035683212 0.39549264 -0.91846222 0.0072554522
0.00748902 -0.11128449 0.47081125 -0.0015600362 0.39571351 -0.91837263 0.007821206
0.017531294 -0.11116877 0.47086084 0.0087585887 0.38367832 -0.92342532 0.0074898032
0.048654113 -0.11012945 0.47130626 -0.4259342 0.41916052 -0.80180073 0.055576075
0.050809648 -0.11288135 0.47009921 -0.45442829 0.43453163 -0.77760994 0.069811732
-0.05480187 -0.10539539 0.47110602 0.5844512 0.35610035 -0.72911537 0.074193671
-0.043141522 -0.10470996 0.47239256 0.27294672 0.39229918 -0.87840849 0.040149432
-0.032896113 -0.10049175 0.47543666 0.0016845622 0.38366997 -0.92346877 0.0070447652
-0.023492176 -0.1029254 0.47241554 -0.0017714367 0.40366209 -0.91490638 0.0076123304
-0.017358627 -0.10307942 0.47432771 0.0025967699 0.41384444 -0.91034389 0.0067751193
-0.0062151812 -0.10323742 0.47178733 0.0096989311 0.40215674 -0.91551948 0.0075322231
0.0027725752 -0.10250802 0.4735707 0.010548623 0.41541874 -0.90956914 0.0074144169
0.015464415 -0.10800651 0.4722161 -0.0011760517 0.38608897 -0.92246073 0.0081803091
