# .PCD v0.7 - Point Cloud Data file format
VERSION 0.7
FIELDS x y z normal_x normal_y normal_z curvature
SIZE 4 4 4 4 4 4 4
TYPE F F F F F F F
COUNT 1 1 1 1 1 1 1
WIDTH 662
HEIGHT 1
VIEWPOINT 0 0 0 1 0 0 0
POINTS 662
DATA ascii
0.12385798 0.21201587 0.27704722 -2.1664348e-05 -1 -7.5286138e-05 0
0.1345654 0.21201587 0.27554804 9.3921071e-06 -1 -1.4536118e-06 0
0.14805263 0.21201588 0.27702123 -1.4534212e-05 -1 -1.2743278e-06 0
0.15194312 0.2120159 0.27690989 -1.5877078e-05 -1 1.2053461e-06 0
0.16483808 0.21201587 0.27371842 -6.5238208e-05 -1 -2.1821164e-05 0
0.17602777 0.21201588 0.2738111 -5.9723629e-05 -1 -7.2367249e-05 0
0.18398458 0.21201588 0.27505141 -0.066192731 -0.99774623 0.010998439 0.0054584136
0.19352411 0.21201588 0.27488762 -0.31413913 -0.94937581 0.0014760129 0.066658735
0.20043561 0.21201588 0.27966285 -0.52066225 -0.85373157 0.0072912513 0.075639799
-0.20710784 -0.20465077 0.28214926 0.70674485 0.70358682 -0.074008293 0.066004574
-0.19500577 -0.20465077 0.2843878 0.30107355 0.95221424 -0.0514066 0.048375662
-0.18424578 -0.20465077 0.285896 0.10669358 0.99406582 0.02120528 0.01783216
-0.173172 -0.20465076 0.28584501 3.6532656e-05 1 9.5093137e-06 0
-0.16480434 -0.20465077 0.282502 4.9348211e-05 1 -0.0001072786 0
-0.15553415 -0.20465077 0.28313753 4.2769312e-05 1 -4.2686839e-05 0
-0.14469576 -0.20465079 0.28225532 5.350454e-05 1 -9.4744712e-05 0
-0.13483787 -0.20465077 0.28717485 0.00010413667 1 -0.00014341144 0
-0.10074986 -0.20465076 0.28593969 1.4886235e-05 1 -1.2976458e-05 0
-0.085897252 -0.20465076 0.28188419 8.6760531e-07 1 -8.0534643e-05 0
-0.074512959 -0.20465076 0.28607357 2.4890345e-05 1 -0.00012624994 0
-0.06026816 -0.20465076 0.28448007 1.308309e-05 1 -4.9801696e-05 0
-0.053231418 -0.20465077 0.28284168 1.3248333e-05 1 -5.6183733e-05 0
-0.045301888 -0.20465079 0.28547168 2.1863656e-05 1 -0.00015965306 0
-0.038220607 -0.20465077 0.28597677 5.9485164e-06 1 -0.00011565441 0
-0.025319528 -0.20465079 0.28237313 1.2183893e-06 1 -7.6811768e-05 0
-0.017069351 -0.20465077 0.28566268 1.0167616e-05 1 -5.1207538e-05 0
-0.0066611869 -0.20465077 0.28116018 3.3772715e-06 1 -5.6344437e-05 0
0.024722945 -0.20465079 0.28560466 -4.167297e-06 1 -5.8075908e-05 0
0.032031346 -0.20465077 0.28040898 -1.1891139e-05 1 -3.1475061e-05 0
0.043595605 -0.20465079 0.28251103 -2.6881018e-05 1 -7.4786025e-05 0
0.055117201 -0.20465077 0.28555146 -1.7943985e-05 1 9.6412521e-07 0
0.063627593 -0.20465079 0.28843552 -1.2074319e-05 1 -8.1900464e-05 0
0.076580048 -0.20465079 0.28443745 -4.2586558e-05 1 -4.6784331e-05 0
0.085962601 -0.20465076 0.28616711 -2.5521471e-05 1 -1.3665659e-05 0
0.099456474 -0.20465077 0.28442076 -3.7277208e-05 1 -2.8490911e-05 0
0.10764492 -0.20465077 0.28526247 -3.1361033e-05 1 -2.6113736e-05 0
0.12536605 -0.20465077 0.28464413 -3.5692115e-05 1 -7.4099378e-05 0
0.1336222 -0.20465077 0.28882182 -3.9205686e-05 1 -6.4980311e-05 0
0.14514129 -0.20465077 0.28423452 -5.3478401e-05 1 -9.8620847e-05 0
0.15184733 -0.20465079 0.28716913 -2.5765183e-05 1 -0.00014022268 0
0.16614771 -0.20465077 0.28127444 -3.2121821e-05 1 -7.3336523e-05 0
0.17641941 -0.20465076 0.28265023 -0.0025308467 0.99999672 -0.00041166239 0
0.18735054 -0.20465077 0.28578001 -0.13943982 0.9898957 -0.025748804 0.018630479
0.19068444 -0.20465077 0.28729382 -0.22578275 0.97391236 -0.022731548 0.042278174
0.20474178 -0.20423289 0.28690112 -0.57341051 0.81912702 0.015207053 0.089040242
-0.20833333 -0.19479577 0.28361925 0.87627614 0.48152807 -0.016457392 0.067640357
-0.20833334 -0.18417734 0.28600815 0.98201865 0.18872952 0.0045367721 0.028331166
-0.20833334 -0.17554787 0.28708804 0.99970341 0.02431554 0.0013248618 0.0012963308
0.20833333 -0.17541082 0.28602093 -0.99985492 0.016831387 -0.0026339954 0.00087045733
-0.20833334 -0.16525915 0.28466725 1 -1.1668247e-05 1.94683e-05 4.4142533e-05
0.20833333 -0.16274428 0.28207541 -1 -1.5361004e-05 1.6130432e-05 0
-0.20833334 -0.15318295 0.28406653 1 -6.3586435e-06 -3.8806626e-05 8.7882136e-06
0.20833333 -0.15504555 0.28794113 -1 8.7688659e-07 1.5248657e-05 8.4448056e-06
-0.20833333 -0.14508204 0.28327486 1 -4.7149521e-07 6.1187508e-05 9.449901e-06
0.20833331 -0.1478031 0.28468338 -1 6.2536623e-05 -9.9689896e-06 0
-0.20833334 -0.13544208 0.28117257 1 -1.2845506e-06 2.0595764e-05 3.2016585e-05
0.20833331 -0.13333569 0.28356844 -1 -8.4132189e-06 -2.0781019e-07 4.9212704e-05
-0.20833334 -0.1291042 0.28989276 1 2.0722255e-05 -4.2904907e-05 0
0.20833333 -0.12324551 0.28219229 -1 8.0759301e-06 -2.1949309e-06 8.8921643e-06
-0.20833333 -0.11604575 0.28433841 1 2.4614947e-05 1.4337119e-05 0
0.20833333 -0.11567483 0.28635216 -1 -1.1368898e-05 3.2050288e-05 4.2448566e-05
-0.20833333 -0.10093384 0.28213862 1 1.3239729e-05 1.5224737e-05 7.5284806e-06
0.20833333 -0.10455803 0.28518784 -1 -7.2965545e-06 -1.0822519e-06 1.8639641e-05
0.20833331 -0.094308279 0.2895951 -1 4.3833943e-06 -3.4342578e-05 8.3811838e-06
-0.20833334 -0.086090133 0.28897113 1 -1.0243185e-05 1.3896752e-05 2.6800462e-05
0.20833333 -0.085514963 0.28436413 -1 7.4712798e-06 -4.9135861e-07 2.5704601e-05
-0.20833333 -0.071199179 0.28341782 1 8.7345427e-07 -1.6492346e-05 0
0.20833331 -0.074880481 0.28755131 -1 1.4957684e-05 -1.5154388e-05 0
-0.20833334 -0.063647225 0.28617454 1 6.9959096e-06 -6.9797992e-05 0
0.20833333 -0.0660991 0.28494787 -1 3.0866713e-06 -4.8565598e-05 0
-0.20833331 -0.052385535 0.2835862 1 4.0961472e-06 -6.5145912e-05 0
0.20833331 -0.053407878 0.28410298 -1 -1.0524575e-06 -6.4010092e-05 0
-0.20833333 -0.046783376 0.28685808 1 -5.4951815e-06 -3.2557029e-05 0
0.20833333 -0.049852394 0.28863531 -1 1.0152912e-05 -8.111279e-05 0
-0.20833333 -0.032363098 0.28823331 1 -1.0556259e-05 -6.6862369e-05 9.1931624e-06
0.20833331 -0.033058546 0.28483441 -1 1.1430536e-05 1.2032426e-06 0
-0.20833331 -0.026134424 0.28333136 1 -2.1966232e-06 2.9901677e-05 0
0.20833333 -0.024587855 0.28039122 -1 4.7292756e-06 -1.561124e-05 0
-0.20833333 -0.015527323 0.28567308 1 -1.6578186e-06 1.7245147e-05 3.1730706e-05
0.20833333 -0.015022531 0.28607365 -1 1.1491096e-06 -1.1962658e-07 8.8644756e-06
-0.20833333 -0.0045365989 0.28263095 1 2.2264069e-06 4.9348862e-05 2.8048427e-05
0.20833333 -0.0057357252 0.28664923 -1 8.0905295e-08 -7.6815544e-05 0
-0.20833333 0.0088771507 0.28912508 1 1.1413149e-05 9.9477875e-05 4.2331223e-05
0.20833334 0.0045927307 0.28438517 -1 1.7472886e-06 -1.9229365e-05 9.3716835e-06
-0.20833333 0.013741143 0.28465244 1 9.8766886e-06 4.0131239e-05 3.7979069e-05
0.20833333 0.014484021 0.28217152 -1 -3.6056229e-06 1.9164581e-05 8.8704055e-06
-0.20833334 0.024903961 0.28393012 1 9.2174441e-06 -8.1141698e-05 2.6285798e-05
0.20833333 0.021993816 0.28280389 -1 1.1743641e-05 0.00010915914 4.751742e-05
-0.20833333 0.035984747 0.28693199 1 3.7337115e-06 -3.4218749e-05 8.5904448e-06
0.20833333 0.039058041 0.28163624 -1 -9.121678e-06 -4.35947e-05 8.7041735e-06
-0.20833333 0.045142729 0.28695855 1 2.0859511e-06 -9.4331182e-05 0
0.20833333 0.046597008 0.28511691 -1 -3.9527231e-06 -1.7292614e-08 0
-0.20833334 0.05909767 0.28650662 1 -1.334299e-05 -6.883328e-05 0
0.20833333 0.053766422 0.28663915 -1 4.1033059e-06 -5.5968827e-05 0
-0.20833333 0.065374643 0.28003347 1 -1.3013465e-05 -4.7084977e-05 0
0.20833334 0.069987178 0.28454152 -1 -1.2279668e-05 -1.6192274e-05 0
-0.20833331 0.074423581 0.28733334 1 -1.6784631e-06 -0.00012849683 0
0.20833333 0.079119019 0.28468859 -1 9.1417151e-06 1.0937055e-06 0
-0.20833333 0.085004345 0.28371856 1 1.9549966e-06 -4.9517384e-05 0
0.20833333 0.082616635 0.28510028 -1 -1.4403017e-06 -1.5059092e-05 0
-0.20833333 0.092510767 0.28534314 1 4.0743776e-06 -5.4557961e-05 1.7450935e-05
0.20833333 0.094133377 0.28491464 -1 -7.7239338e-06 4.3637274e-07 8.1070284e-06
-0.20833331 0.10737375 0.28719684 1 -2.3833461e-05 -1.7262904e-05 0
0.20833333 0.10286311 0.28125411 -1 -8.5153288e-06 5.2706918e-07 1.6512018e-05
-0.20833331 0.1133387 0.2878361 1 -1.3639975e-05 -3.9052033e-05 0
0.20833333 0.11404431 0.28456905 -1 1.6725564e-05 3.6896505e-05 3.7511618e-05
-0.20833333 0.1250162 0.28611681 1 -8.832707e-06 -4.2151634e-05 9.5714313e-06
0.20833331 0.12238091 0.28243268 -1 1.9229552e-07 -3.1809268e-05 8.0429381e-06
-0.20833331 0.13424137 0.28586945 1 8.6411892e-06 -2.0249501e-05 2.8494986e-05
0.20833333 0.13607109 0.28642088 -1 -3.8030394e-06 -4.2616241e-05 2.4704506e-05
0.20833333 0.14362213 0.28416136 -1 -9.2170721e-06 -1.7454478e-05 8.3040641e-06
-0.20833333 0.1544784 0.28808063 1 -1.8864712e-05 -3.3880453e-05 0
0.20833333 0.15563549 0.28296992 -1 -1.9735131e-05 -1.5294596e-05 9.0556523e-06
-0.20833331 0.16899812 0.2852321 1 3.3840806e-05 3.7431051e-05 1.6492295e-05
0.20833333 0.16442555 0.28476718 -1 1.0803104e-07 1.9645913e-05 8.9702035e-06
0.20833333 0.17621736 0.28301612 -1 1.5928677e-05 -5.8845393e-07 0
-0.20833333 0.18365674 0.28413177 0.99983984 -0.017879354 -0.00074748107 0.00087941682
0.20833333 0.18639012 0.28489986 -0.99205446 -0.12494539 -0.014717771 0.020390393
-0.20833334 0.19495806 0.28355831 0.99250865 -0.1195999 -0.024948116 0.022155302
0.20833333 0.19509666 0.28414202 -0.95671934 -0.28356522 -0.065414034 0.047780242
-0.20833331 0.2056582 0.28192079 0.93172234 -0.36314902 0.0040281368 0.083044939
0.20833333 0.20373783 0.2826888 -0.86191797 -0.50702333 0.0049831159 0.076039605
-0.20496944 0.21178024 0.28413802 0.5292933 -0.84595144 -0.064921416 0.10978182
-0.18259899 0.2120159 0.28634501 0.047277413 -0.99880922 -0.012036918 0.0042487537
-0.17508142 0.21201588 0.28572926 0.0015533908 -0.99999875 -7.9775185e-05 0
-0.16350706 0.21201587 0.286331 6.7566216e-05 -1 -6.0708531e-05 0
-0.15506583 0.21201588 0.28120008 2.3782281e-05 -1 -8.8085821e-05 0
-0.13949524 0.21201588 0.28082487 3.0185949e-05 -1 -7.1383845e-05 0
-0.12613072 0.21201588 0.28354272 1.7206061e-05 -1 -5.2729702e-05 0
-0.11302765 0.21201587 0.28460357 3.3816366e-05 -1 -6.4221727e-05 0
-0.10623129 0.21201588 0.28456894 8.8628349e-06 -1 -2.1293368e-05 0
-0.097309045 0.21201588 0.28628361 7.6378583e-06 -1 2.2943648e-07 0
-0.084486812 0.21201588 0.28528234 1.6922699e-05 -1 -5.4190234e-05 0
-0.072829016 0.21201588 0.28510189 1.9384237e-05 -1 -9.5735064e-05 0
-0.069690332 0.2120159 0.28074536 7.4794157e-06 -1 -5.7806912e-05 0
-0.054440539 0.21201588 0.28708166 1.7982351e-05 -1 -6.5128246e-05 0
-0.044541005 0.21201587 0.28452355 1.1689587e-05 -1 -4.0758383e-05 0
-0.039883994 0.2120159 0.28182051 8.0466552e-06 -1 -0.00013229776 0
-0.025279667 0.2120159 0.28580174 6.1978171e-06 -1 -4.8360776e-05 0
-0.016754633 0.2120159 0.28564963 8.7261105e-06 -1 -9.3028153e-05 0
-0.0045373016 0.21201587 0.28491417 1.1135144e-05 -1 -6.6271037e-05 0
0.0078826211 0.21201587 0.2847805 -1.2939704e-05 -1 -0.00010258659 0
0.014976227 0.21201587 0.28523099 -6.3923922e-06 -1 -5.6178164e-05 0
0.02307965 0.21201588 0.28190988 -1.9052008e-05 -1 -8.1818631e-05 0
0.036429789 0.21201588 0.28476319 -2.7592061e-05 -1 -5.992053e-05 0
0.044279784 0.21201588 0.28397867 -2.0912835e-06 -1 -6.8974201e-05 0
0.06485185 0.21201587 0.28566542 -2.3365033e-05 -1 -4.7625137e-05 0
0.073273189 0.21201587 0.28333879 -1.8561957e-05 -1 -1.9658371e-05 0
0.085588127 0.21201587 0.28583458 -2.7185684e-05 -1 -7.631434e-05 0
0.095869616 0.21201587 0.28430972 -1.5026191e-05 -1 -0.00011487156 0
0.10591451 0.21201588 0.28594911 -7.1052173e-06 -1 -5.5947388e-05 0
0.11077262 0.21201588 0.2868101 -1.9414256e-05 -1 -3.7827314e-05 0
0.12083054 0.21201587 0.28769308 2.8623556e-06 -1 -6.8802365e-05 0
0.13707796 0.21201588 0.28353569 -5.4189236e-06 -1 -3.3454606e-05 0
0.14683093 0.21201588 0.28601512 -1.4511959e-05 -1 1.7466802e-05 0
0.15622881 0.21201588 0.28611219 1.8459968e-05 -1 2.9682067e-06 0
0.16497624 0.21201587 0.28118658 -5.993219e-05 -1 -6.3740918e-05 0
0.17624092 0.21201588 0.28300291 -2.9882112e-05 -1 -0.00014361608 0
0.18893023 0.21201588 0.28857958 -0.23388027 -0.97226381 0.001748045 0.042673405
0.19389646 0.21201588 0.2863251 -0.36446199 -0.93030095 0.041322794 0.064209506
0.20387828 0.21201588 0.28863719 -0.67667836 -0.73557532 0.032175485 0.085857727
-0.20400238 -0.20420349 0.29239956 0.75170386 0.65943813 0.0090851421 0.078545384
-0.19423702 -0.20465077 0.29490572 0.30861703 0.94973546 0.052516595 0.059643369
-0.18411656 -0.20465077 0.29528111 0.10132074 0.99478811 0.011434376 0.014196852
-0.17144057 -0.20465077 0.29567981 6.1849969e-05 1 -6.7032553e-05 0
-0.16788355 -0.20465077 0.29003194 6.9237554e-05 1 -8.0272359e-05 0
-0.15647246 -0.20465077 0.29597616 5.9417845e-05 1 -0.00010859565 0
-0.14345646 -0.20465079 0.29058841 4.7365134e-05 1 -9.4004485e-05 0
-0.13652156 -0.20465077 0.29557732 4.219023e-05 1 -6.4829896e-05 0
-0.12165768 -0.20465077 0.29596978 6.3720174e-05 1 -0.00016873276 0
-0.11745783 -0.20465077 0.29532874 2.7321097e-05 1 -0.00013163689 0
-0.10919572 -0.20465077 0.29409394 1.5611342e-05 1 -7.1977192e-05 0
-0.096266642 -0.20465077 0.29136544 -3.3918154e-06 1 -5.0142331e-05 0
-0.088154085 -0.20465077 0.29221493 7.1098898e-06 1 -3.3895027e-05 0
-0.065236449 -0.20465076 0.29497904 1.4724614e-05 1 -9.1112932e-05 0
-0.05649361 -0.20465077 0.29487827 1.2263234e-05 1 -8.2521787e-05 0
-0.04584774 -0.20465077 0.29189008 8.460921e-06 1 -0.00011108664 0
-0.034856942 -0.20465076 0.29375386 1.1323453e-06 1 -4.9094637e-05 0
-0.025252717 -0.20465076 0.29555884 -1.1267719e-05 1 -0.00011167522 0
-0.01779611 -0.20465077 0.29515961 1.024018e-05 1 -5.0389532e-05 0
-0.0041575907 -0.20465077 0.29613939 2.3462508e-06 1 -1.5263417e-05 0
0.0089303982 -0.20465077 0.296554 -2.3427131e-06 1 -3.7067432e-05 0
0.014416428 -0.20465076 0.29386768 -8.3994058e-07 1 -6.8988185e-05 0
0.02570954 -0.20465076 0.29308966 -1.010345e-05 1 -1.3439487e-05 0
0.038318966 -0.20465077 0.29403877 -2.6416626e-05 1 -9.2263421e-05 0
0.04401185 -0.20465077 0.29513654 -2.5815605e-06 1 -8.356844e-05 0
0.056534473 -0.20465079 0.29697916 -2.0913717e-06 1 -9.9773912e-05 0
0.076164514 -0.20465079 0.29668736 -1.5146305e-05 1 -9.775332e-05 0
0.083758861 -0.20465076 0.29814288 -4.1952364e-05 1 -9.977755e-05 0
0.09499757 -0.20465076 0.2969631 -4.2368716e-05 1 -9.810015e-05 0
0.10777832 -0.20465076 0.29486927 -2.3761431e-05 1 -1.6628323e-05 0
0.11516291 -0.20465077 0.29686931 -4.4777695e-05 1 -6.351831e-05 0
0.12546091 -0.20465077 0.2951763 -2.0213161e-05 1 -0.00010788207 0
0.13538784 -0.20465077 0.292505 -5.1198731e-05 1 -0.00010789579 0
0.14558168 -0.20465076 0.29342383 -6.3413616e-05 1 -9.4420349e-05 0
0.16679764 -0.20465076 0.2924304 -4.2089971e-05 1 -0.00012299996 0
0.17198831 -0.20465077 0.29925182 -6.9938847e-05 1 -0.00011859176 0
0.18549332 -0.20465077 0.29452282 -0.14052349 0.99006867 -0.0041416232 0.020393072
0.19539322 -0.20465077 0.29654413 -0.3399297 0.93993652 0.031097841 0.062244516
0.20472826 -0.20424426 0.29540515 -0.71003807 0.70362097 0.027630327 0.086641937
-0.20833333 -0.19520891 0.29719934 0.85261565 0.51731074 0.073730119 0.078992002
0.20833331 -0.19109313 0.29010141 -0.94897324 0.31466135 0.020925995 0.061026741
-0.20833334 -0.1850369 0.2952438 0.97665972 0.20015705 0.077929333 0.031121247
0.20833333 -0.18289928 0.29011995 -0.98402095 0.17594478 0.027315902 0.030174743
-0.20833333 -0.1760761 0.29473016 0.9997552 0.021351151 0.005807145 0.0014052198
0.20833333 -0.17698243 0.2999714 -0.99980342 0.019278929 0.0046265931 0.00099060731
0.20833331 -0.1659188 0.29936266 -1 1.8478971e-05 2.0577436e-06 0
-0.20833333 -0.15589157 0.29173067 1 2.8556342e-05 -3.3213808e-05 0
-0.20833333 -0.143197 0.29192427 1 4.8677899e-05 2.5773887e-05 0
0.20833333 -0.1470881 0.29516387 -1 2.2662109e-05 4.2612108e-05 8.4712192e-06
-0.20833331 -0.13297375 0.29384789 1 4.8445472e-05 -4.2735897e-05 0
0.20833331 -0.13075811 0.29781544 -1 1.0042834e-05 -3.9072489e-05 0
-0.20833334 -0.12046278 0.29542494 1 6.4344708e-06 -3.991176e-05 9.1891488e-06
0.20833334 -0.12569371 0.29495972 -1 -9.1900984e-06 -2.7430011e-07 2.4043888e-05
-0.20833334 -0.11602736 0.29641685 1 -2.0538386e-05 1.3543082e-06 2.8116929e-05
0.20833331 -0.11566544 0.29301608 -1 -3.4536031e-05 1.2761008e-06 3.4941109e-05
0.20833333 -0.10534488 0.29767311 -1 1.2794726e-06 -1.3913632e-05 1.6424243e-05
-0.20833334 -0.093680553 0.29949689 1 1.5620033e-05 -4.6389003e-05 0
0.20833333 -0.099681281 0.294276 -1 5.330161e-06 -6.1558887e-05 2.4260227e-05
-0.20833333 -0.081828244 0.293699 1 -4.3200944e-06 2.9799285e-05 2.7202454e-05
-0.20833333 -0.07438653 0.2944797 1 1.3942505e-06 -8.6992455e-05 0
0.20833333 -0.074048996 0.29455286 -1 1.7982065e-06 -1.5647514e-05 0
-0.20833333 -0.068909921 0.29655042 1 4.6783384e-06 -7.9087273e-05 0
0.20833333 -0.060423039 0.293127 -1 -3.2033342e-06 -7.6363664e-05 0
-0.20833333 -0.050684221 0.29548863 1 -4.4696349e-06 -7.5286863e-07 9.1058519e-06
0.20833333 -0.05808907 0.29588699 -1 2.4919062e-05 -6.9322385e-05 0
-0.20833333 -0.041825049 0.29010385 1 1.5153102e-05 2.7548006e-07 0
0.20833333 -0.045302171 0.2981002 -1 1.713637e-05 -7.9515361e-05 0
-0.20833333 -0.033915825 0.29512295 1 -3.9916162e-07 -1.7322112e-05 2.7412552e-05
0.20833333 -0.035005253 0.29906473 -1 -8.5636913e-07 3.4721485e-05 0
-0.20833333 -0.028879888 0.2922312 1 1.3423356e-06 -1.8106248e-05 8.811262e-06
0.20833333 -0.024953753 0.29537472 -1 1.1417094e-05 6.9595582e-05 3.8550555e-05
0.20833331 -0.014866918 0.29597789 -1 -2.3446567e-06 -1.8517383e-05 1.9467559e-05
0.20833334 -0.0055953041 0.29688519 -1 1.6344088e-06 -6.010785e-05 0
0.20833331 0.0029150844 0.29668564 -1 -1.4055096e-06 -1.7865341e-05 0
-0.20833333 0.016184784 0.29681629 1 -0 -0 8.3451296e-06
0.20833333 0.017597504 0.29744086 -1 -2.2603945e-06 -1.6692777e-05 8.4242592e-06
-0.20833331 0.025577949 0.29523113 1 -1.4470113e-05 -8.6719287e-05 0
0.20833333 0.022381723 0.29770064 -1 2.1894054e-06 -1.7972905e-05 0
-0.20833334 0.038465984 0.29826602 1 -4.7501153e-06 -6.8721136e-05 0
0.20833333 0.032223418 0.29009148 -1 -2.8354739e-06 -3.5276371e-05 0
-0.20833333 0.04443159 0.2963312 1 -3.1888421e-06 -3.5119392e-05 0
0.20833333 0.043237612 0.29401201 -1 -1.0751896e-06 -1.7738443e-05 0
-0.20833333 0.052589238 0.29757392 1 -1.1346428e-05 -5.3776537e-05 0
0.20833334 0.05751805 0.29446059 -1 -1.0985521e-05 -5.6813009e-05 0
-0.20833333 0.061791357 0.29448202 1 -3.7770167e-06 -2.0292378e-05 0
0.20833331 0.065967694 0.29335085 -1 -4.9578516e-06 -6.0418522e-05 0
-0.20833334 0.074085154 0.29478729 1 -1.8851524e-05 -6.7170833e-05 8.7399867e-06
0.20833333 0.073913261 0.29566622 -1 -0 -0 0
-0.20833333 0.08696942 0.29781401 1 -5.4232464e-06 -5.0512248e-05 0
0.20833333 0.082355812 0.29944819 -1 -1.6329795e-05 -0.00010591889 0
-0.20833333 0.090531021 0.29902017 1 -1.8448183e-05 -7.6444514e-05 0
-0.20833331 0.10619305 0.2940107 1 -1.5500138e-05 -4.7763435e-05 0
0.20833331 0.10753441 0.29556412 -1 0 0 8.3428968e-06
-0.20833333 0.11152249 0.290465 1 -1.2413898e-05 -6.464692e-05 0
0.20833334 0.11492498 0.29836839 -1 -2.6979324e-05 -9.5185368e-07 0
-0.20833333 0.12978488 0.29512024 1 3.6320894e-06 -3.1502095e-05 0
0.20833333 0.12459427 0.29601121 -1 9.7035427e-06 2.105462e-05 3.8346156e-05
-0.20833334 0.13533023 0.29699063 1 -2.3277658e-05 1.2237821e-06 0
0.20833334 0.13764867 0.29421622 -1 7.7251279e-06 5.6922603e-05 3.8860224e-05
-0.20833333 0.146108 0.29536796 1 -1.7760476e-05 3.3689947e-08 1.755114e-05
0.20833331 0.14425085 0.29387945 -1 2.5462099e-05 5.2228312e-05 3.683101e-05
-0.20833333 0.153813 0.29480538 1 1.903661e-05 3.6264511e-05 3.5692938e-05
0.20833333 0.15325527 0.29472315 -1 -3.5451027e-05 5.7590747e-05 2.736585e-05
0.20833334 0.16938731 0.29819602 -1 -3.0830906e-05 -1.3532654e-05 0
-0.20833333 0.17397428 0.2963495 1 -0 -0 7.2829339e-06
0.20833334 0.17680758 0.29863393 -1 -3.3550394e-05 -1.5673917e-05 0
-0.20833333 0.18609476 0.29672807 0.99612957 -0.087411933 0.0092207966 0.014000557
0.20833333 0.18282965 0.29372016 -0.99960172 -0.028210074 -0.00075261545 0.0014810788
-0.20833333 0.19711055 0.29731309 0.98966968 -0.14167999 -0.021925578 0.02254544
0.20833333 0.19536924 0.2958324 -0.95929962 -0.28197041 0.01539144 0.050160181
-0.20833334 0.20685944 0.29366523 0.79916716 -0.59985042 -0.0388752 0.093296915
0.20833333 0.20440705 0.29325739 -0.90132189 -0.42935953 -0.057178162 0.077216327
-0.204676 0.21201588 0.29575381 0.47729 -0.87868929 0.009969038 0.079266675
-0.19477709 0.21201588 0.29734001 0.33597404 -0.94180393 0.011259618 0.070364103
-0.18166593 0.21201587 0.2977027 0.056291856 -0.99838102 0.0081603508 0.0058942712
-0.17832153 0.21201588 0.29774088 0.0014386342 -0.99999875 0.00068342726 7.5256316e-06
-0.1684313 0.21201588 0.29315808 5.557328e-05 -1 -7.8405501e-05 0
-0.15556768 0.21201588 0.29456031 6.7152287e-05 -1 -6.766009e-05 0
-0.14601509 0.21201587 0.29511017 7.1147493e-05 -1 -5.5142296e-05 0
-0.13329825 0.21201588 0.29157212 5.0228915e-05 -1 -7.8038291e-05 0
-0.12699881 0.21201587 0.29070821 2.7870547e-05 -1 -7.8248835e-05 0
-0.11500368 0.21201588 0.29499394 2.0037902e-05 -1 -7.9315025e-05 0
-0.10568158 0.21201587 0.29695192 2.637117e-05 -1 -3.332393e-05 0
-0.094379053 0.21201588 0.29458094 3.0538427e-05 -1 -0.00010023094 0
-0.085698023 0.21201588 0.29373223 3.775832e-05 -1 -5.8076464e-05 0
-0.072210319 0.21201588 0.29341376 2.1298192e-05 -1 -1.6089289e-05 0
-0.066176206 0.21201588 0.29348072 -3.9250825e-08 -1 -4.4957895e-05 0
-0.054802418 0.21201587 0.29428476 1.94566e-05 -1 -5.5685836e-05 0
-0.042257998 0.21201588 0.2933706 1.3009753e-06 -1 -8.0256439e-05 0
-0.033749115 0.21201588 0.29629198 5.3988765e-06 -1 -9.9863566e-05 0
-0.024751563 0.2120159 0.29505765 9.8464932e-07 -1 -3.7187714e-05 0
-0.014195497 0.21201588 0.29538298 4.508189e-08 -1 -5.5353747e-05 0
-0.0030736413 0.21201587 0.29540738 -3.5631692e-06 -1 -6.8550813e-05 0
0.0058910679 0.21201588 0.29703909 6.0273451e-06 -1 -9.3993629e-05 0
0.01140383 0.21201587 0.2964862 -5.795056e-06 -1 -6.7539135e-05 0
0.024492081 0.21201588 0.29546636 -6.70486e-06 -1 -9.3306007e-05 0
0.035138354 0.21201588 0.29474083 -2.1321855e-06 -1 -8.3107945e-05 0
0.058958694 0.21201588 0.29633731 -3.551871e-06 -1 -4.6663808e-05 0
0.064694643 0.2120159 0.29588595 -1.0017142e-05 -1 -7.7803328e-05 0
0.072882995 0.2120159 0.29754227 -9.6995473e-06 -1 -2.0098357e-06 0
0.085265145 0.2120159 0.29694009 -1.6204318e-05 -1 -3.1323478e-05 0
0.095070809 0.21201587 0.29834515 -2.0028716e-05 -1 -2.7683744e-05 0
0.105446 0.21201588 0.29549119 -1.6812874e-05 -1 -7.5493357e-05 0
0.13654926 0.2120159 0.2970351 -1.8892246e-05 -1 -6.5752844e-05 0
0.14440404 0.21201588 0.29412422 -4.5281754e-06 -1 -3.3904595e-05 0
0.16370173 0.2120159 0.29418421 -1.5210896e-05 -1 2.132896e-05 0
0.17311253 0.21201588 0.29478559 -1.6710523e-05 -1 -1.9324236e-05 0
0.18727842 0.21201588 0.29354379 -0.19810565 -0.98008645 0.013588272 0.037668567
0.19651499 0.21201588 0.29452285 -0.38199678 -0.92092854 0.077259921 0.074608527
0.20514284 0.21182536 0.29275748 -0.71510899 -0.69874132 0.019482709 0.08515203
-0.20417973 -0.20381196 0.30610818 0.62931472 0.77535963 0.052730188 0.080441013
-0.1972945 -0.20465076 0.30204651 0.39564735 0.91770762 0.035718933 0.07537812
-0.18709216 -0.20465077 0.30819753 0.20084968 0.97961825 0.0027482323 0.037800193
-0.17618468 -0.20465079 0.30402023 0.0039857873 0.99999207 -0.00017463281 0
-0.1689 -0.20465077 0.30485937 5.3909989e-05 1 -8.0957332e-05 0
-0.15155204 -0.20465077 0.30923158 5.0075723e-05 1 -0.00011644419 0
-0.1460125 -0.20465077 0.30300662 7.0421265e-05 1 -0.00012933243 0
-0.13214871 -0.20465076 0.3026194 2.8600247e-05 1 -9.0407542e-05 0
-0.12423702 -0.20465079 0.30473465 3.8484344e-05 1 -4.8282047e-05 0
-0.11509991 -0.20465077 0.30515552 1.7352319e-05 1 2.47863e-06 0
-0.093362711 -0.20465077 0.30250496 8.2792967e-06 1 -5.6118071e-05 0
-0.085255481 -0.20465076 0.30147454 3.1643496e-05 1 -5.2905274e-05 0
-0.07467401 -0.20465079 0.3026087 1.8296087e-05 1 -7.094461e-05 0
-0.066832587 -0.20465076 0.30323339 2.284722e-05 1 -0.00010809243 0
-0.053702887 -0.20465076 0.30459994 2.0681888e-05 1 -9.5576695e-05 0
-0.042462129 -0.20465077 0.30576366 3.0521293e-05 1 -0.00012850574 0
-0.034623753 -0.20465077 0.30564651 2.4778014e-05 1 -0.00014126391 0
-0.023405869 -0.20465077 0.30497032 1.1491587e-05 1 -0.00015794857 0
-0.011694044 -0.20465077 0.30278775 3.5813168e-06 1 -3.2480511e-05 0
-0.0052989675 -0.20465076 0.30672905 -1.1808781e-08 1 -0.00011535368 0
0.0060472898 -0.20465076 0.30243069 -1.6556188e-06 1 -5.0867144e-05 0
0.014352625 -0.20465077 0.30226585 -8.0502878e-06 1 -6.8528549e-05 0
0.025661686 -0.20465076 0.30518931 -8.1223734e-06 1 -3.1663572e-07 0
0.035876643 -0.20465076 0.30762479 -8.4686453e-06 1 -3.0972406e-05 0
0.046821162 -0.20465076 0.30607393 -1.0611534e-05 1 -0.00010478078 0
0.066941872 -0.20465076 0.3034879 -1.9599745e-05 1 -4.4233981e-05 0
0.073310874 -0.20465077 0.3064194 -1.1823821e-05 1 -7.1615912e-05 0
0.087095454 -0.20465079 0.30598852 -2.4944904e-05 1 -0.00010940041 0
0.10673746 -0.20465077 0.30526602 -1.7338531e-05 1 -0.00010971737 0
0.11490009 -0.2046508 0.30530503 -4.6217847e-05 1 -4.3307049e-05 0
0.12445758 -0.20465077 0.30594301 -3.676879e-05 1 -0.00013467207 0
0.14784245 -0.20465077 0.30364025 -2.1675292e-05 1 -4.5097593e-05 0
0.15675113 -0.20465076 0.30738097 -5.8592406e-05 1 -2.2722832e-05 0
0.16199586 -0.20465076 0.30776361 -4.1596388e-05 1 -2.4629646e-05 0
0.17520857 -0.20465077 0.3047722 -7.743686e-05 1 -0.00012135276 0
0.18347476 -0.20465077 0.30356905 -0.089880273 0.99588746 -0.011389336 0.012189602
0.20833334 -0.20201418 0.30604255 -0.83895868 0.53881741 0.076316111 0.075200632
-0.20833333 -0.19414739 0.30478135 0.91413504 0.40352717 0.039023526 0.070206389
0.20833333 -0.192819 0.30245346 -0.9069764 0.40420455 0.11837377 0.065005913
-0.20833334 -0.18475568 0.30377039 0.97675544 0.20908125 -0.047264755 0.043880496
0.20833334 -0.18367878 0.30555534 -0.99047899 0.13405766 0.031303674 0.019307043
-0.20833333 -0.1751709 0.30342603 0.99975586 0.021838585 -0.0033691179 0.0014701537
0.20833333 -0.17307325 0.30542037 -1 4.7548325e-05 8.3530967e-06 8.7073849e-06
-0.20833334 -0.16504183 0.3035835 1 1.0036189e-05 -6.1279425e-05 0
0.20833333 -0.16941826 0.30074874 -1 1.7432272e-06 -6.5213389e-05 0
-0.20833334 -0.15615608 0.30576032 1 4.1925487e-06 -3.2542743e-05 8.3969599e-06
0.20833333 -0.15500127 0.30475545 -1 -1.6887692e-05 1.1979693e-06 8.4221847e-06
-0.20833331 -0.14137504 0.30431166 1 1.7037199e-05 1.345375e-06 0
0.20833334 -0.14443319 0.30519825 -1 -6.8820327e-06 -2.6822227e-05 7.7677523e-06
-0.20833333 -0.13370973 0.30625513 1 2.2249591e-05 -3.5078203e-05 0
-0.20833333 -0.12308592 0.3054125 1 2.1013466e-05 -3.0972137e-06 9.2474756e-06
-0.20833334 -0.11506791 0.30863214 1 8.9607202e-06 -1.2244736e-06 9.1179245e-06
-0.20833333 -0.10939668 0.30581695 1 -1.7077074e-06 -7.9976387e-05 8.3994028e-06
-0.20833333 -0.096732825 0.30572113 1 -6.9782172e-06 4.2970598e-05 8.8222814e-06
0.20833333 -0.096857078 0.30533466 -1 -2.5059777e-05 -5.3208496e-05 2.4043993e-05
-0.20833333 -0.084488854 0.30528235 1 1.6186999e-05 -2.6595326e-05 8.8962097e-06
0.20833333 -0.084234163 0.30832571 -1 9.4075347e-07 -3.3818447e-05 8.0307591e-06
-0.20833331 -0.078210756 0.30385372 1 3.2819276e-05 7.2758354e-07 2.8904689e-05
0.20833333 -0.07259462 0.30617696 -1 5.751088e-07 -6.492604e-05 0
-0.20833333 -0.063168779 0.30266133 1 4.5865497e-07 -6.3222426e-05 0
0.20833333 -0.064121604 0.30723757 -1 1.0651823e-05 1.30801e-06 9.4117777e-06
-0.20833331 -0.054413378 0.3033115 1 8.1434637e-06 3.9472619e-05 8.7310582e-06
0.20833333 -0.055090498 0.30329034 -1 1.5141098e-05 -6.3341693e-05 8.7982053e-06
-0.20833331 -0.043994796 0.30306745 1 -3.6310462e-07 -3.1612235e-05 8.9307714e-06
-0.20833333 -0.03608375 0.3015016 1 0 0 8.5262036e-06
-0.20833333 -0.022869974 0.30746728 1 1.5256034e-05 -3.8882077e-05 2.5979083e-05
0.20833333 -0.025037441 0.30502713 -1 2.0466171e-06 2.0076071e-07 0
-0.20833333 -0.013831101 0.30921626 1 2.3383718e-05 -9.5448988e-05 7.8190742e-06
0.20833334 -0.017410908 0.30586886 -1 4.3589343e-06 -3.6525314e-05 8.6545579e-06
-0.20833333 -0.0090931803 0.30769634 1 8.4363637e-07 -1.0442128e-07 7.337253e-06
0.20833331 -0.0065396451 0.30425426 -1 4.5247416e-06 -6.9262511e-05 0
-0.20833334 0.0064244419 0.3096599 1 -9.4659181e-06 -7.5641743e-05 8.5227102e-06
0.20833334 0.0042313524 0.30478972 -1 2.6033834e-07 -1.4664595e-09 8.7402368e-06
-0.20833333 0.014693357 0.30750975 1 1.8343852e-06 3.7463215e-05 8.4888998e-06
0.20833333 0.016164405 0.3021875 -1 -3.4771876e-06 -3.060668e-05 8.7334192e-06
-0.20833333 0.027811678 0.30479562 1 -4.9368236e-06 3.4468434e-05 0
0.20833334 0.028505564 0.3049137 -1 3.7248558e-06 -5.6489262e-05 7.9585161e-06
-0.20833334 0.035988163 0.30680254 1 -1.2552588e-05 -6.9196263e-05 0
-0.20833333 0.044412836 0.30492583 1 -1.3076821e-05 3.3258308e-05 0
0.20833331 0.046753842 0.30223945 -1 -3.7431787e-06 -1.0313352e-07 7.8449784e-06
-0.20833333 0.056816898 0.30714107 1 -1.8748118e-06 -9.2432216e-05 0
0.20833331 0.059559375 0.30613577 -1 -1.2969599e-05 -3.4668432e-05 0
-0.20833331 0.062788479 0.3015565 1 4.6165233e-06 -3.1927684e-05 0
0.20833333 0.066386305 0.30612081 -1 -8.267054e-06 -6.7903216e-05 0
-0.20833333 0.078035511 0.30053023 1 7.0188448e-06 -0.0001096796 0
0.20833331 0.078846447 0.30238521 -1 -1.2833617e-05 -7.5348762e-05 0
-0.20833333 0.087547123 0.30969933 1 -3.040212e-07 -8.8689303e-05 0
0.20833331 0.085132062 0.30676037 -1 -1.4964447e-05 3.8507045e-05 0
-0.20833333 0.095672943 0.30540502 1 -3.0615123e-05 2.8616482e-06 9.2171185e-06
0.20833333 0.090369552 0.30360228 -1 -2.9390647e-05 -3.1381896e-05 0
-0.20833334 0.10464387 0.30602935 1 -1.5232187e-05 -7.4387066e-07 0
0.20833333 0.10740039 0.30301285 -1 2.3453681e-06 -3.1969645e-05 8.9457471e-06
-0.20833333 0.11546066 0.30691054 1 -3.0193962e-05 -3.5081128e-05 0
0.20833333 0.11402312 0.30337936 -1 -1.4519982e-05 -3.6700781e-05 8.7065182e-06
0.20833333 0.12347345 0.30520585 -1 -9.3974686e-06 -3.5028112e-05 2.789372e-05
-0.20833333 0.13181803 0.30172437 1 -1.4556811e-05 4.4530279e-07 0
0.20833333 0.13833375 0.30199543 -1 1.7614344e-05 1.8542912e-06 1.6791584e-05
-0.20833331 0.14530759 0.30326739 1 1.1116243e-05 3.66362e-05 2.5601943e-05
-0.20833333 0.15770863 0.30663121 1 -9.1515485e-06 8.6284148e-05 3.7690777e-05
0.20833333 0.1555007 0.3008903 -1 2.5443242e-06 -2.1531952e-05 2.7905326e-05
-0.20833333 0.16654444 0.30871344 1 -2.0304376e-05 -3.5431654e-05 2.5611031e-05
0.20833333 0.16413191 0.30573189 -1 3.7891945e-07 -7.5156408e-05 2.6077416e-05
-0.20833333 0.17426379 0.30803835 1 7.4974228e-06 -6.9716581e-05 8.0076315e-06
0.20833333 0.17725293 0.30431747 -1 -4.0370283e-05 4.1085172e-05 9.4161323e-06
0.20833333 0.18396907 0.30640274 -0.99916255 -0.039927762 -0.0089352364 0.0033270686
-0.20833333 0.19341981 0.30663571 0.98842978 -0.15019399 -0.021170314 0.02251173
0.20833334 0.19717883 0.30382061 -0.93370277 -0.35793063 0.0092100175 0.062700137
-0.20833333 0.2038974 0.30290172 0.90721154 -0.41993722 -0.02489893 0.084726803
0.20833333 0.20487218 0.30221814 -0.88461494 -0.46526152 0.031435583 0.075076222
-0.20795926 0.2120159 0.30923995 0.73776335 -0.67502552 0.0067626112 0.099589951
-0.17868489 0.21201587 0.30557969 2.6122474e-05 -1 -4.5559151e-05 0
-0.16436814 0.2120159 0.30867705 2.0629783e-05 -1 -7.548499e-05 0
-0.15247762 0.21201587 0.30672079 1.5077664e-05 -1 1.1700988e-06 0
-0.14713536 0.21201588 0.30455673 -1.0070313e-05 -1 -1.3944689e-06 0
-0.13533573 0.21201588 0.30609104 -1.6778431e-05 -1 5.6101067e-07 0
-0.12956382 0.21201588 0.30872115 3.3079941e-05 -1 -3.4397985e-05 0
-0.11579094 0.21201588 0.30468079 1.0762627e-05 -1 6.3132728e-07 0
-0.1053644 0.21201587 0.30220291 2.7610417e-05 -1 -3.3768287e-05 0
-0.095886692 0.21201587 0.30499989 3.0997904e-05 -1 -3.7992281e-06 0
-0.083717272 0.21201588 0.30689263 2.2218303e-06 -1 -3.1105821e-05 0
-0.065827683 0.21201588 0.30511561 1.4958639e-05 -1 -3.2489639e-05 0
-0.055447429 0.21201587 0.30555108 4.1460789e-06 -1 -2.9538651e-05 0
-0.043441966 0.2120159 0.30628988 1.0856165e-06 -1 -6.3445405e-05 0
-0.035945013 0.21201588 0.30632365 8.5441061e-06 -1 -2.9012424e-05 0
-0.016360592 0.21201588 0.30333483 1.672089e-06 -1 -5.0788833e-05 0
-0.0057600564 0.21201588 0.30540255 4.2979846e-06 -1 -0.0001359742 0
0.0058552809 0.2120159 0.30516735 7.3962278e-06 -1 -6.8329093e-05 0
0.01656135 0.21201588 0.30551821 -1.0003532e-06 -1 -7.4234857e-05 0
0.02157267 0.21201588 0.30358553 -3.1207892e-06 -1 -3.7973605e-05 0
0.036004696 0.21201588 0.30518925 9.0389649e-06 -1 -6.4084445e-05 0
0.044728838 0.21201588 0.30562025 -5.8811456e-06 -1 -6.3895903e-05 0
0.058516748 0.21201587 0.3079837 -1.6127287e-05 -1 -8.6391527e-05 0
0.063730717 0.21201587 0.30725846 -1.5128392e-05 -1 -3.3719596e-05 0
0.083665356 0.2120159 0.30062118 -2.4366833e-05 -1 -3.1036943e-05 0
0.097457737 0.21201588 0.3025482 -1.8000484e-05 -1 -6.2194653e-05 0
0.109271 0.21201588 0.30180705 -3.5570753e-05 -1 -9.7915334e-05 0
0.11346886 0.21201588 0.30496678 2.6624357e-06 -1 -6.7035588e-05 0
0.12611529 0.2120159 0.30708587 -3.8583548e-05 -1 -3.2779943e-05 0
0.13298188 0.2120159 0.30661988 -3.7630551e-05 -1 -7.1454837e-05 0
0.14454384 0.21201588 0.30484074 -6.6935936e-05 -1 -0.00010747415 0
0.15340409 0.21201588 0.30510491 -7.3034149e-05 -1 -7.8427744e-05 0
0.16252622 0.21201588 0.30390877 -4.6683097e-05 -1 -7.2217917e-05 0
0.17578451 0.21201588 0.30247131 -5.5958797e-05 -1 -3.3696535e-05 0
0.18364483 0.21201588 0.30394089 -0.11560646 -0.99327374 -0.006510816 0.017625947
0.19269526 0.2120159 0.3032698 -0.29459831 -0.95561898 -0.0020639233 0.041184865
0.20391667 0.21201588 0.30656821 -0.5743413 -0.81623864 -0.062342741 0.0868278
-0.20496082 -0.2041209 0.31446981 0.62350267 0.77954727 0.059586506 0.071457162
-0.19937189 -0.20465077 0.31960893 0.40225616 0.9154622 0.010909201 0.064592667
-0.18945664 -0.20465077 0.3121458 0.24566391 0.96935463 -0.00097502582 0.053569984
-0.16066794 -0.20465077 0.31070289 3.0441823e-05 1 -8.1128768e-05 0
-0.15621556 -0.20465079 0.31345785 1.1088331e-05 1 -0.0001256539 0
-0.13559029 -0.20465077 0.31727269 1.9310026e-05 1 -8.6321168e-05 0
-0.11498494 -0.20465076 0.31219214 6.2929619e-05 1 -2.7220605e-05 0
-0.10806037 -0.20465077 0.3128593 2.7386039e-05 1 -6.1525599e-05 0
-0.08448007 -0.20465076 0.31359032 1.3727874e-05 1 -6.3731881e-05 0
-0.077727459 -0.20465077 0.31568089 1.0747543e-05 1 -2.6392216e-05 0
-0.065744251 -0.20465076 0.31368119 9.4683246e-06 1 -8.4156469e-05 0
-0.051216304 -0.20465077 0.31231213 1.6482625e-05 1 -2.8947205e-05 0
-0.045081694 -0.20465077 0.31708315 1.5577967e-05 1 -0.00010698238 0
-0.03434851 -0.20465077 0.31582755 -3.8088151e-06 1 -7.4203388e-05 0
-0.023494957 -0.20465077 0.31529632 9.7091433e-06 1 -7.0550617e-05 0
-0.01673759 -0.20465077 0.31549537 1.1721515e-05 1 -0.0001266051 0
-0.0089757871 -0.20465077 0.31199744 2.8838851e-06 1 4.6196837e-07 0
0.0082561048 -0.20465077 0.31956792 4.7954209e-06 1 -6.5425535e-05 0
0.015043862 -0.20465077 0.3141613 -7.4729087e-07 1 -0.00014137245 0
0.027302783 -0.20465079 0.31600437 5.958108e-06 1 -0.00011931456 0
0.038232438 -0.20465079 0.31011748 -2.4475003e-05 1 -6.5258559e-05 0
0.045313936 -0.20465079 0.31494537 7.1526351e-06 1 -0.00017491714 0
0.055467319 -0.20465077 0.31627426 -4.2988213e-06 1 -7.9909427e-05 0
0.066676147 -0.20465077 0.31052384 -3.6294798e-06 1 -3.6943016e-05 0
0.070338704 -0.20465077 0.31775826 -3.0767063e-05 1 -4.3725839e-05 0
0.084096014 -0.20465076 0.31894338 -1.6957154e-05 1 -7.1442613e-05 0
0.091470324 -0.20465077 0.31310222 -2.9879991e-05 1 -0.00018215303 0
0.1063509 -0.20465076 0.31654006 -1.197256e-05 1 -7.1576171e-05 0
0.11375847 -0.20465079 0.31236684 -4.0590043e-05 1 -9.9610013e-05 0
0.12530038 -0.20465077 0.31457207 -4.9625414e-05 1 -8.4880085e-05 0
0.13294572 -0.20465077 0.31158003 -2.3816838e-05 1 -6.3740314e-05 0
0.1494084 -0.20465077 0.31070858 -6.4030588e-05 1 -3.3786579e-05 0
0.15173842 -0.20465077 0.31557775 -5.3303116e-05 1 -0.00012779261 0
0.16471401 -0.20465077 0.31205228 -1.6551787e-05 1 -3.1633092e-05 0
0.17400575 -0.20465077 0.31896427 -4.0667495e-05 1 -0.00013574341 0
0.19537184 -0.20465077 0.31529132 -0.32616451 0.94496405 -0.025685351 0.05919382
0.20570539 -0.20313455 0.31586823 -0.78916001 0.61413103 0.0083482359 0.085150771
-0.20833333 -0.19836771 0.3121171 0.91205019 0.40949318 0.021904657 0.053796511
0.20833333 -0.19428837 0.31584281 -0.94471711 0.32459074 0.046373285 0.062007517
-0.20833333 -0.18533584 0.31485435 0.97425503 0.22431408 0.022589562 0.039516456
0.20833333 -0.18960372 0.31589714 -0.96875072 0.24695162 -0.023169614 0.039345276
-0.20833333 -0.17276089 0.31680146 1 3.92414e-05 -6.4964956e-06 0
0.20833334 -0.17532456 0.31612998 -0.99973679 0.022772755 -0.0027961065 0.0010751889
-0.20833334 -0.16330382 0.31651643 1 0 0 8.6741775e-06
0.20833331 -0.1661469 0.31704938 -1 1.1091754e-05 -7.5121672e-05 0
-0.20833334 -0.15731171 0.31373972 1 1.2575521e-05 -3.6081688e-05 8.1756607e-06
0.20833331 -0.15217724 0.3132841 -1 3.9906015e-05 -7.7051649e-05 0
-0.20833334 -0.14267364 0.31585205 1 2.6571994e-05 -3.550003e-05 0
0.20833333 -0.14638998 0.31465253 -1 -0 -0 8.1236667e-06
-0.20833334 -0.13212618 0.31447083 1 1.0361283e-05 -7.3803596e-05 0
0.20833333 -0.13509387 0.31665999 -1 1.7701794e-05 -2.0667169e-06 9.000154e-06
-0.20833333 -0.1261057 0.31524462 1 1.2345415e-05 -3.6417136e-05 9.3027193e-06
0.20833333 -0.12800284 0.31990206 -1 0 0 2.7382723e-05
-0.20833333 -0.11947547 0.31224963 1 2.8907036e-05 -3.7091522e-05 0
0.20833333 -0.11514679 0.31770068 -1 6.1939068e-06 -3.2861954e-05 2.5382033e-05
-0.20833333 -0.1063946 0.31819931 1 -1.4637862e-07 8.1415434e-05 0
0.20833334 -0.1070237 0.31716424 -1 -1.8807407e-06 7.7748693e-05 2.457964e-05
-0.20833333 -0.092375383 0.31619418 1 1.7584311e-05 2.6953908e-06 0
0.20833331 -0.093580931 0.31516242 -1 9.159693e-06 7.2422966e-07 2.5792584e-05
-0.20833333 -0.085067213 0.31537277 1 -8.6574746e-06 -2.6598667e-07 0
0.20833333 -0.086289108 0.31752348 -1 7.770167e-06 -8.0545635e-07 0
-0.20833333 -0.079127744 0.31268424 1 -0 -0 0
0.20833333 -0.077659652 0.31493503 -1 -4.2658744e-06 -6.4870474e-05 0
-0.20833333 -0.067783184 0.31956109 1 -7.4603656e-07 -3.4657864e-05 0
0.20833333 -0.064244553 0.31448841 -1 1.2891671e-05 -9.5187468e-05 0
-0.20833333 -0.055547792 0.31463608 1 1.5197288e-06 -3.02259e-05 0
0.20833334 -0.055495042 0.31890029 -1 -3.154581e-06 4.035818e-05 2.9397876e-05
-0.20833334 -0.047099039 0.31353661 1 -1.5172963e-05 -6.1118459e-05 8.4397707e-06
0.20833333 -0.044094492 0.31416774 -1 4.8505481e-06 -3.7028611e-05 0
-0.20833333 -0.035066176 0.31277707 1 1.1456274e-05 -3.6273981e-05 0
0.20833333 -0.039987676 0.31172755 -1 -2.2142872e-06 3.6907066e-05 0
0.20833333 -0.026264908 0.31450126 -1 1.1255797e-05 4.6442579e-05 2.8593771e-05
-0.20833333 -0.017055839 0.31681937 1 -1.3554614e-06 3.7079565e-07 2.8657434e-05
0.20833333 -0.015399156 0.31447995 -1 -3.9902961e-06 -3.5839425e-05 0
-0.20833333 -0.0083526131 0.31277055 1 9.5005703e-07 2.8369447e-08 0
0.20833333 -0.0054761879 0.31848031 -1 5.4242987e-06 5.9460337e-05 2.6862377e-05
-0.20833334 0.0039771646 0.31562048 1 2.7862689e-07 9.4796796e-08 2.7474225e-05
0.20833334 0.0081856959 0.31264254 -1 -0 -0 8.3272653e-06
-0.20833334 0.014301704 0.31350201 1 -7.9005104e-06 -3.5752997e-05 0
0.20833333 0.01407506 0.31394118 -1 6.921246e-06 0.00012089648 2.4688652e-05
-0.20833333 0.02428644 0.31528756 1 -3.0921797e-06 -3.6335321e-05 0
0.20833333 0.024490288 0.3136479 -1 -3.9360893e-06 3.7467529e-05 4.6142322e-05
-0.20833333 0.035611205 0.31742463 1 -5.0613057e-06 -7.3454314e-05 0
0.20833333 0.037725016 0.31543359 -1 -6.8679392e-06 1.0432232e-06 0
-0.20833334 0.0457628 0.31266624 1 -1.0172602e-05 -3.2041575e-05 0
0.20833333 0.042037394 0.31838766 -1 -4.3809687e-06 1.7318131e-08 8.0123236e-06
-0.20833333 0.053835507 0.31784233 1 6.0140064e-06 -3.8807375e-05 0
0.20833333 0.056113333 0.31401348 -1 -8.3624518e-06 -3.6161804e-05 0
-0.20833333 0.064895578 0.31243244 1 5.7983239e-06 -7.5017182e-05 0
0.20833334 0.064161688 0.31686342 -1 -2.4363069e-05 -9.8204626e-05 0
-0.20833333 0.076212853 0.31395316 1 1.2213167e-06 -9.7564734e-05 0
0.20833333 0.073312573 0.31236759 -1 -1.8948511e-05 -5.8116413e-05 0
0.20833333 0.089264885 0.31486401 -1 -2.3376428e-05 -4.0652179e-05 0
-0.20833333 0.096309423 0.31532982 1 -6.4549806e-07 -3.6376507e-05 0
0.20833333 0.099540927 0.31357968 -1 -7.960678e-06 1.1121184e-07 9.3108747e-06
-0.20833333 0.1045455 0.31456903 1 -3.9464845e-05 -2.9462773e-05 0
0.20833333 0.10961257 0.31659719 -1 -1.9847666e-05 -3.6044599e-05 9.0572621e-06
-0.20833331 0.11475699 0.3149381 1 -4.7593247e-05 -2.9861951e-05 0
0.20833333 0.11352022 0.31506193 -1 9.7351194e-06 4.7004203e-05 5.0264975e-05
-0.20833331 0.12494644 0.31618488 1 -1.0039509e-05 -8.7413442e-05 0
0.20833331 0.12602943 0.31518134 -1 -3.4355144e-05 -3.3559696e-05 1.8136952e-05
-0.20833331 0.13420148 0.31559134 1 -5.091345e-06 -3.3770924e-05 0
-0.20833334 0.14816731 0.31527114 1 4.0551686e-06 -6.4189953e-05 0
0.20833331 0.14358467 0.31248406 -1 1.00509e-05 1.2714067e-06 3.1662184e-05
-0.20833333 0.15366264 0.31253961 1 -1.6698188e-05 1.7060872e-06 0
0.20833334 0.16694565 0.31345126 -1 -0 -0 4.2798136e-05
-0.20833333 0.17764637 0.31601128 1 2.1062833e-05 4.9961065e-05 2.5320325e-05
0.20833333 0.17609563 0.31387749 -1 1.4332996e-05 3.0756612e-05 4.2674466e-05
-0.20833333 0.1848975 0.3159115 0.99947685 -0.032119039 -0.0037918773 0.0030628953
0.20833333 0.18495992 0.31518376 -0.99867141 -0.051213123 0.0057144896 0.0035408076
-0.20833333 0.19672312 0.31628385 0.96185917 -0.27349478 0.0052546989 0.059935391
-0.20833334 0.2059063 0.31437325 0.89180291 -0.45212618 -0.016413985 0.092631124
0.20833334 0.20737642 0.31447405 -0.8461594 -0.53052348 0.050588429 0.076425724
-0.20241755 0.21201588 0.31769794 0.51686078 -0.85525471 0.037341133 0.099458449
-0.19493109 0.21201588 0.31569564 0.33429548 -0.94209957 0.026361596 0.057701331
-0.18635204 0.21201588 0.31816879 0.16232944 -0.98672354 0.0050863787 0.03231436
-0.17845786 0.21201588 0.3164247 0.004256885 -0.99999064 -0.00081333728 4.5729441e-05
-0.16438633 0.21201588 0.31057152 2.1234846e-05 -1 -0.00011373171 0
-0.15152231 0.21201588 0.31769884 6.2509447e-05 -1 -0.00010281365 0
-0.14931484 0.21201588 0.31168666 2.2954453e-05 -1 -0.00010060738 0
-0.13531519 0.21201588 0.31537908 5.7082019e-05 -1 -6.4268876e-05 0
-0.12491455 0.21201588 0.31460014 6.8565903e-05 -1 -7.966219e-05 0
-0.11666787 0.21201588 0.31558168 1.0811047e-05 -1 -3.1115884e-05 0
-0.10341424 0.21201588 0.31573805 3.0632236e-05 -1 5.7912047e-07 0
-0.093875356 0.21201588 0.31659234 2.5047926e-05 -1 -0.00010463556 0
-0.08536648 0.21201591 0.314527 1.9002528e-05 -1 -5.288126e-05 0
-0.074171454 0.21201588 0.31929424 1.1675073e-05 -1 -6.0825059e-05 0
-0.068704933 0.2120159 0.31905225 1.320604e-05 -1 -6.4527514e-05 0
-0.054885469 0.21201588 0.31231901 1.5723175e-05 -1 -0.00010117561 0
-0.043138757 0.21201588 0.31422275 -4.3494751e-06 -1 -0.00015232367 0
-0.032853 0.2120159 0.31543708 -3.9681486e-06 -1 -4.1863899e-05 0
-0.023291478 0.21201587 0.31374392 -2.1798799e-06 -1 -3.5668301e-05 0
-0.014246319 0.21201587 0.3148163 5.8822684e-07 -1 -0.00010937121 0
-0.0061322525 0.21201588 0.31557468 6.186421e-07 -1 -3.6391339e-05 0
0.0017723963 0.2120159 0.3101747 -5.1630632e-06 -1 -9.5859337e-05 0
0.014712437 0.21201588 0.31039339 -6.2518179e-06 -1 -9.5737843e-05 0
0.02351699 0.21201588 0.31179857 -3.2688388e-06 -1 -9.0325128e-05 0
0.034064587 0.21201588 0.31437808 6.4342744e-06 -1 -6.9220558e-05 0
0.043704752 0.21201588 0.31675243 -1.2779305e-05 -1 -3.227534e-05 0
0.054065462 0.21201588 0.31317243 -1.8605437e-05 -1 -4.0236776e-07 0
0.063941419 0.21201587 0.31534609 -2.1324702e-05 -1 -6.7600595e-05 0
0.086723387 0.21201588 0.31405714 -3.3790435e-05 -1 -7.3826523e-05 0
0.095603406 0.2120159 0.31960183 -3.6147379e-05 -1 -9.9641416e-05 0
0.10738364 0.21201588 0.31687924 -1.9346977e-05 -1 -6.5717366e-05 0
0.11668252 0.21201588 0.31890324 -3.2780998e-05 -1 -9.7993376e-05 0
0.12588815 0.21201587 0.31333449 -2.5134232e-05 -1 4.3242116e-07 0
0.13507378 0.21201588 0.31404117 -2.7960128e-05 -1 -0.00011908463 0
0.14158173 0.21201587 0.31690907 -1.0568472e-05 -1 -0.0001326604 0
0.15420446 0.21201587 0.3178274 3.5996786e-06 -1 -0.00010286236 0
0.16821341 0.21201588 0.31500229 -6.8610047e-05 -1 -7.6722034e-05 0
0.17586935 0.21201588 0.31309125 -2.1406993e-05 -1 -3.9818187e-05 0
0.18890192 0.21201588 0.31274313 -0.18015036 -0.98214185 -0.054251958 0.025444077
0.20276457 0.21201588 0.31380463 -0.54814875 -0.83568132 0.034199562 0.079709671
-0.20603733 -0.2029082 0.32317936 0.78721178 0.61626309 -0.022745177 0.08284653
-0.19656722 -0.20465077 0.32442039 0.36131552 0.93240851 -0.0080843326 0.064986438
-0.18087196 -0.20465077 0.32403669 0.029060511 0.99957108 -0.0036311119 0.0011616996
-0.1726453 -0.20465077 0.32781261 8.4727086e-05 1 -0.00013791975 0
-0.16516353 -0.20465077 0.32463655 7.6346325e-05 1 -4.589056e-05 0
-0.15513696 -0.20465077 0.32589734 3.7005429e-05 1 -3.1125124e-05 0
-0.14571387 -0.20465076 0.32373297 2.2514789e-05 1 -5.7536025e-05 0
-0.13320473 -0.20465077 0.32491186 2.4760426e-05 1 -0.00013547399 0
-0.12533507 -0.20465077 0.32328302 4.2323052e-05 1 -0.00011681482 0
-0.11362764 -0.20465077 0.32397273 6.10018e-05 1 -0.00010977745 0
-0.10438114 -0.20465079 0.32581475 4.2968488e-05 1 -4.1889605e-05 0
-0.093457259 -0.20465077 0.32261074 2.2571752e-05 1 -7.4430471e-05 0
-0.08573322 -0.20465076 0.325176 1.2493036e-05 1 -3.4740577e-05 0
-0.071036547 -0.20465076 0.32439804 1.392149e-05 1 -3.260811e-05 0
-0.065789193 -0.20465077 0.32657847 5.6922258e-06 1 -7.4804571e-05 0
-0.054602891 -0.20465077 0.32442358 1.9925792e-06 1 -0.00011092526 0
-0.045283772 -0.20465077 0.32819328 1.3898285e-05 1 -3.329392e-05 0
-0.034828514 -0.20465077 0.32440889 1.1296691e-05 1 -0.00013923485 0
-0.024260739 -0.20465079 0.32569093 6.6704442e-06 1 -8.6076834e-05 0
-0.013516493 -0.20465077 0.32720411 5.8765386e-06 1 -7.8229154e-05 0
-0.004495264 -0.20465079 0.32757711 6.8356621e-06 1 -0.00016520069 0
0.0033319991 -0.20465077 0.32251969 -6.3164994e-06 1 -7.0942995e-05 0
0.02498403 -0.20465079 0.32592398 -1.2704906e-05 1 -7.9964128e-05 0
0.038663175 -0.20465077 0.32232022 -1.5698412e-05 1 -3.2924112e-05 0
0.043023072 -0.20465077 0.32490432 -1.3706674e-05 1 -0.00013979284 0
0.058218658 -0.20465077 0.32410094 -1.0759144e-05 1 -0.00011300162 0
0.067171909 -0.20465077 0.3253248 -2.585559e-05 1 -0.00011979143 0
0.07664977 -0.20465077 0.32869115 -3.6059595e-05 1 -8.8470566e-05 0
0.087487623 -0.20465079 0.32145733 -1.3683707e-05 1 -9.5123032e-05 0
0.092755772 -0.20465077 0.32789102 -1.9231196e-05 1 -0.00013298375 0
0.10435273 -0.20465077 0.32224792 -5.6718174e-05 1 -0.00015104961 0
0.11546466 -0.20465076 0.32464871 -2.5088406e-05 1 -3.3223074e-05 0
0.12588242 -0.20465076 0.3246668 -2.1484298e-05 1 -8.6737149e-05 0
0.14521872 -0.20465077 0.32244578 -7.2997187e-05 1 -0.00017874097 0
0.15378727 -0.20465079 0.324325 -5.2048636e-05 1 -0.0001212351 0
0.16055536 -0.20465079 0.32623279 -6.869268e-05 1 -0.00012470901 0
0.17642966 -0.20465079 0.32962894 -0.0027685654 0.99999583 0.00083088444 0
0.18766597 -0.20465077 0.32684484 -0.19283031 0.98021525 0.044660531 0.038530901
0.19790377 -0.20465077 0.32486203 -0.55424809 0.83228475 -0.010542295 0.10479581
0.20508304 -0.20408674 0.32234335 -0.76370567 0.64549518 -0.0094623128 0.10289531
-0.20833334 -0.19992554 0.32662341 0.83158249 0.55490083 0.023570357 0.079760067
0.20833333 -0.19865257 0.32749757 -0.89047724 0.45432466 -0.025286058 0.073878005
-0.20833333 -0.184672 0.32105386 0.98350692 0.17953362 0.021949114 0.029753745
0.20833333 -0.18434785 0.32500315 -0.97840965 0.20664828 -0.0033357912 0.040087111
-0.20833334 -0.17674276 0.32942712 0.99981797 0.019063739 -0.00075340411 0.00069244992
0.20833333 -0.17770082 0.32278445 -0.99819499 0.060050149 -0.00082321168 0.0070102108
-0.20833333 -0.16546774 0.32151997 1 -1.9816191e-05 -8.7976036e-07 9.0973717e-06
0.20833333 -0.16864772 0.32277784 -1 1.2027693e-05 -0.00010405245 0
-0.20833333 -0.15480198 0.32196712 1 1.0252184e-05 -4.0600298e-05 0
-0.20833334 -0.14905265 0.3219552 1 3.7017893e-05 6.3680511e-07 8.7056133e-06
0.20833333 -0.14402328 0.32656434 -1 -2.8632792e-05 2.4601241e-06 3.9846502e-05
-0.20833333 -0.13567473 0.32638469 1 2.005921e-06 3.9233873e-05 9.1950451e-06
