# .PCD v0.7 - Point Cloud Data file format
VERSION 0.7
FIELDS x y z normal_x normal_y normal_z curvature
SIZE 4 4 4 4 4 4 4
TYPE F F F F F F F
COUNT 1 1 1 1 1 1 1
WIDTH 651
HEIGHT 1
VIEWPOINT 0 0 0 1 0 0 0
POINTS 651
DATA ascii
0.208111 0.076038331 -0.42550468 -1 1.3747095e-05 -5.8975085e-05 1.6218461e-05
-0.20811099 0.085258044 -0.42376688 0.99458772 -0.1023979 -0.017601488 0.012805052
0.208111 0.084605955 -0.42571136 -0.99829721 -0.057910979 -0.0069974572 0.0067545599
-0.208111 0.095895983 -0.42383659 0.94801903 -0.31821284 -0.00075786182 0.048862286
0.20811102 0.095119119 -0.42393956 -0.95501387 -0.29465669 0.033556372 0.068892978
0.208111 0.10969823 -0.42729959 -0.80235684 -0.59642655 -0.022334917 0.088979915
-0.20471911 0.11169698 -0.42523703 0.63871527 -0.7673375 -0.056885175 0.080466159
-0.1949321 0.11179295 -0.42453051 0.48114726 -0.87645942 -0.017778473 0.074384905
-0.18409924 0.11179295 -0.42515787 0.101776 -0.99462092 -0.019262491 0.020487526
-0.17643049 0.11179295 -0.4225201 0.00046756159 -0.99999994 1.4912671e-05 0
-0.16312693 0.11179295 -0.42544064 2.4575973e-05 -1 3.4812398e-05 0
-0.15586041 0.11179295 -0.425208 2.0873515e-05 -1 3.1769177e-05 0
-0.14314429 0.11179294 -0.42474517 8.0137452e-06 -1 1.5336724e-05 0
-0.13329057 0.11179295 -0.42707917 1.1549924e-05 -1 4.8236943e-05 0
-0.12564602 0.11179294 -0.42670482 1.3842483e-05 -1 1.6782831e-05 0
-0.1172441 0.11179295 -0.4270308 3.4049437e-05 -1 7.3227187e-05 0
-0.10585457 0.11179294 -0.42505607 8.5879592e-06 -1 8.0695543e-05 0
-0.096586064 0.11179295 -0.42630059 1.2667584e-05 -1 4.8246013e-05 0
-0.083889693 0.11179294 -0.42327178 1.7859653e-05 -1 3.8314603e-05 0
-0.073758662 0.11179294 -0.42331356 1.2226e-05 -1 -1.7620678e-05 0
-0.066052593 0.11179294 -0.42360711 5.1980178e-06 -1 5.7704332e-05 0
-0.055824909 0.11179295 -0.4278813 1.9591223e-06 -1 1.704513e-07 0
-0.043839741 0.11179295 -0.42632103 4.4325679e-06 -1 -4.228508e-07 0
-0.032401796 0.11179295 -0.4244678 8.96112e-07 -1 2.1278976e-05 0
-0.025733003 0.11179294 -0.42493811 3.5606542e-06 -1 3.2332031e-05 0
-0.017496539 0.11179295 -0.4258177 3.1588041e-08 -1 -2.1077536e-05 0
-0.0036788983 0.11179295 -0.42514366 2.2471106e-06 -1 4.7979262e-05 0
0.0034890405 0.11179295 -0.42415643 3.4297813e-07 -1 1.7023469e-05 0
0.016108289 0.11179295 -0.42593378 0 -1 0 0
0.027557649 0.11179295 -0.42300302 -1.1016186e-05 -1 8.9734058e-05 0
0.035665296 0.11179296 -0.42732114 -2.4224978e-06 -1 2.4429445e-07 0
0.04385674 0.11179295 -0.42152217 -1.0655296e-05 -1 6.6863387e-05 0
0.053558774 0.11179295 -0.42557031 3.6618765e-06 -1 5.5813853e-05 0
0.064419702 0.11179295 -0.42402449 -1.7592798e-05 -1 8.8967732e-05 0
0.077382877 0.11179295 -0.4237864 -6.906203e-06 -1 6.8759269e-05 0
0.083113164 0.11179295 -0.42383331 -1.0147658e-05 -1 8.0362799e-05 0
0.098923802 0.11179295 -0.42651218 -1.8475089e-06 -1 5.0438128e-05 0
0.10344917 0.11179295 -0.42558682 -6.7068646e-07 -1 8.7593158e-05 0
0.11286877 0.11179295 -0.42281792 -2.308032e-05 -1 8.4541323e-05 0
0.125762 0.11179294 -0.42416608 -8.2109955e-06 -1 4.6554942e-05 0
0.13595979 0.11179295 -0.4222858 -4.5029228e-06 -1 4.2151067e-05 0
0.15432285 0.11179294 -0.42540208 -2.3440381e-05 -1 3.2673393e-05 0
0.16418707 0.11179295 -0.42388743 -1.7181705e-05 -1 4.8863676e-05 0
0.17560148 0.11179295 -0.4264192 -0.001611897 -0.99999863 -0.00021481542 0
0.18537147 0.11179294 -0.42543954 -0.13480216 -0.9906401 0.021462692 0.025267515
0.19761457 0.11179295 -0.42192206 -0.45408455 -0.89008558 0.039432209 0.086260647
0.20491034 0.11143994 -0.42501506 -0.62518281 -0.78044635 -0.0070578153 0.094139084
-0.20087253 -0.11179295 -0.41805589 0.46514881 0.88327211 -0.05888053 0.082953013
-0.19475766 -0.11179294 -0.4147779 0.33625606 0.94161814 -0.016943544 0.062749155
-0.18333416 -0.11179295 -0.41386786 0.043909114 0.99900937 -0.0072259726 0.0052190665
-0.17255878 -0.11179295 -0.41644555 1.2903465e-07 1 -1.7832728e-05 0
-0.16728352 -0.11179295 -0.41239864 5.3679054e-07 1 -1.7312359e-05 0
-0.15535352 -0.11179295 -0.41856322 3.3245848e-07 1 5.2435047e-05 0
-0.14600176 -0.11179295 -0.41137409 5.4451311e-06 1 6.575563e-05 0
-0.13206792 -0.11179295 -0.4141283 1.3418484e-05 1 -1.9549596e-05 0
-0.12770665 -0.11179295 -0.41588217 1.938825e-05 1 6.5452608e-05 0
-0.11432591 -0.11179295 -0.41532111 8.3637797e-06 1 6.4329273e-05 0
-0.10180283 -0.11179295 -0.41704994 1.1191764e-05 1 2.0616002e-05 0
-0.097907662 -0.11179295 -0.41717604 1.3114171e-05 1 7.3877934e-05 0
-0.085784726 -0.11179295 -0.41497055 -0 1 -0 0
-0.074453719 -0.11179295 -0.41491044 2.3817181e-06 1 4.5382556e-05 0
-0.066953659 -0.11179295 -0.41894802 5.7175434e-06 1 1.7453587e-05 0
-0.053858668 -0.11179295 -0.41490498 8.5980946e-06 1 6.6064829e-05 0
-0.044147916 -0.11179294 -0.41617092 5.5051437e-06 1 5.727385e-05 0
-0.038169727 -0.11179295 -0.41666055 2.8949678e-06 1 5.2674866e-05 0
-0.024425263 -0.11179295 -0.41649109 8.993768e-07 1 5.5313049e-05 0
-0.01403624 -0.11179295 -0.41798252 3.3409367e-06 1 3.6263213e-05 0
-0.0090512075 -0.11179295 -0.41342154 6.4021572e-07 1 -1.8801971e-05 0
0.0065129064 -0.11179294 -0.41215032 -9.6044448e-07 1 1.5438014e-05 0
0.017100619 -0.11179294 -0.41627169 5.9753808e-07 1 1.7434679e-05 0
0.029623687 -0.11179295 -0.41717646 3.1111207e-07 1 1.949057e-05 0
0.033697821 -0.11179295 -0.41321391 -9.7852433e-07 1 1.7702569e-05 0
0.045246769 -0.11179295 -0.41534185 1.0239622e-05 1 7.146244e-05 0
0.053743623 -0.11179295 -0.41581374 -8.8337174e-07 1 4.567904e-05 0
0.068204522 -0.11179295 -0.41517726 -5.1093862e-06 1 4.3489021e-05 0
0.075602233 -0.11179295 -0.41457927 -7.5319927e-06 1 5.0836268e-05 0
0.089792036 -0.11179295 -0.41983485 -1.9339534e-05 1 3.4085122e-05 0
0.093606964 -0.11179294 -0.41656962 5.4061129e-06 1 2.1818469e-05 0
0.10488861 -0.11179295 -0.41357881 -1.3213892e-05 1 -9.9875876e-07 0
0.11527862 -0.11179295 -0.41517091 -3.6193926e-06 1 -1.8573593e-07 0
0.12301978 -0.11179295 -0.41656849 -1.0826106e-05 1 5.9481445e-05 0
0.13772969 -0.11179294 -0.41591597 1.816182e-06 1 7.3603129e-05 0
0.14382653 -0.11179295 -0.4137733 -2.9806521e-05 1 4.5895598e-05 0
0.15617362 -0.11179294 -0.41456699 -2.8317843e-05 1 5.6717203e-05 0
0.1665069 -0.11179295 -0.41520819 -1.462561e-06 1 3.0636671e-05 0
0.17568076 -0.11179294 -0.41489685 -0.0012026909 0.99999928 0.00014838515 0
0.18483514 -0.11179295 -0.41346565 -0.14811027 0.98891646 -0.010372179 0.028499963
0.19935249 -0.11179295 -0.41712603 -0.37810555 0.9249227 -0.039422963 0.058535945
0.20544665 -0.11150992 -0.41489688 -0.69031435 0.72341734 -0.011553899 0.094771855
-0.20811099 -0.10580124 -0.41356894 0.83230144 0.55432308 -0.00055229838 0.060844157
0.208111 -0.10381985 -0.41238338 -0.87141877 0.48879087 0.041385487 0.076297782
-0.20811099 -0.093743749 -0.41274852 0.97914463 0.2017998 0.023508642 0.024430711
0.208111 -0.095245034 -0.41286016 -0.95219237 0.30360693 -0.033948697 0.057576388
-0.20811099 -0.085767865 -0.41132033 0.994995 0.099755384 0.0058163959 0.016120356
0.208111 -0.081975199 -0.41476098 -0.99993688 0.011203806 -0.00080639526 0.00044406042
-0.20811099 -0.074711837 -0.41447708 1 -3.8222915e-06 1.499011e-07 0
0.208111 -0.075676382 -0.41788 -1 -1.1873278e-05 -6.8056346e-05 8.7926937e-06
-0.208111 -0.063642308 -0.41631347 1 -4.6448035e-06 3.0741251e-07 0
0.208111 -0.063250162 -0.41542804 -1 -4.3233476e-06 1.9784201e-07 8.5574666e-06
-0.20811099 -0.055532731 -0.41641605 1 -0 -0 0
0.208111 -0.052249197 -0.41572008 -1 5.2665538e-08 -0.00011679502 1.6352646e-05
-0.20811099 -0.045253228 -0.41536301 1 -1.0118856e-05 -3.2856042e-05 1.7140184e-05
0.208111 -0.044446692 -0.4158932 -1 -1.9765275e-05 -6.7069326e-05 8.5640513e-06
-0.20811099 -0.033151936 -0.41342354 1 -7.8749599e-06 -9.8475291e-05 1.6274045e-05
0.208111 -0.034002166 -0.41315213 -1 -5.231826e-06 -3.4277127e-05 3.2415075e-05
-0.20811099 -0.023631833 -0.41893211 1 1.4735352e-06 -3.1395226e-05 1.7276821e-05
0.208111 -0.026805405 -0.41417354 -1 -2.2121369e-06 1.5873148e-07 8.4846197e-06
-0.20811099 -0.019648179 -0.41651255 1 -4.391185e-06 -3.6309721e-05 1.6514639e-05
0.208111 -0.013644253 -0.41396531 -1 -2.8573183e-07 -3.0220697e-05 1.6599302e-05
-0.208111 -0.0045421394 -0.4180932 1 -4.8726446e-07 9.4762918e-09 9.0563744e-06
0.208111 -0.0063228882 -0.41859499 -1 9.304398e-07 -6.3824969e-05 8.252623e-06
-0.208111 0.0059045521 -0.41634569 1 5.9254471e-06 -0.00013428691 1.712604e-05
0.208111 0.0067410003 -0.41496563 -1 -4.3934888e-06 -7.6969496e-05 9.0080266e-06
-0.20811102 0.014631225 -0.41424221 1 5.3200597e-06 -0.00012584368 8.6644823e-06
0.208111 0.016630236 -0.41798055 -1 1.8501695e-06 -3.6169509e-05 0
-0.20811099 0.023030609 -0.41375998 1 2.8763701e-05 -0.00018621993 1.6239841e-05
0.20811102 0.026294135 -0.41374442 -1 -1.5669162e-05 -0.00010312838 3.3212142e-05
-0.20811102 0.035985544 -0.41618067 1 5.8966516e-06 7.2140101e-05 1.5750571e-05
0.20811099 0.031014517 -0.41906786 -1 6.5251156e-06 8.8741174e-08 2.411704e-05
-0.20811099 0.04501316 -0.41755733 1 -2.3402677e-06 -3.7982383e-05 0
0.20811102 0.045698926 -0.41583157 -1 1.5034737e-05 -0.00011400148 2.4591422e-05
-0.208111 0.056031544 -0.41527629 1 -4.8685433e-06 2.812738e-07 8.8297893e-06
0.208111 0.05300957 -0.41457501 -1 4.3596061e-05 -0.00013772571 1.6637476e-05
-0.20811099 0.068394609 -0.41851616 1 1.1843278e-05 -6.2905019e-05 1.57878e-05
0.20811099 0.066294029 -0.41577348 -1 7.7375744e-06 -6.1739869e-05 1.5968657e-05
-0.20811099 0.07476788 -0.41408834 1 1.4003957e-05 -5.7602851e-05 2.1564574e-05
0.20811099 0.070851699 -0.41557994 -1 9.4694742e-06 -3.0052948e-05 1.6206728e-05
-0.20811099 0.086976252 -0.41773346 0.98871601 -0.1497438 -0.0041706483 0.018568553
0.208111 0.089227498 -0.41878381 -0.99346972 -0.11327496 0.013661188 0.02026448
-0.20811099 0.091148019 -0.41839546 0.97718519 -0.21071047 -0.02664914 0.025796233
0.208111 0.093360491 -0.4158617 -0.9768526 -0.21266341 -0.023091013 0.044519477
-0.20811099 0.10178947 -0.41321281 0.89747596 -0.43901339 -0.04247516 0.069477536
0.208111 0.10448924 -0.41329634 -0.82721013 -0.56143087 -0.022775337 0.079656675
-0.20219293 0.11179294 -0.41411954 0.56918991 -0.8211996 0.040670358 0.081823394
-0.1940638 0.11179295 -0.41824201 0.39479166 -0.91870815 0.010709769 0.068365939
-0.18449344 0.11179295 -0.41237217 0.064969391 -0.99788266 -0.0030500125 0.0085098837
-0.17814918 0.11179295 -0.4159503 0.0011262223 -0.99999934 -0.0001633488 0
-0.16497247 0.11179294 -0.41640219 1.9345594e-05 -1 9.2697977e-05 0
-0.15658414 0.11179295 -0.4150435 2.3301491e-05 -1 6.130476e-05 0
-0.14312755 0.11179295 -0.41526753 2.8779212e-05 -1 2.0738316e-06 0
-0.1352939 0.11179294 -0.41524756 4.3229616e-06 -1 4.917413e-05 0
-0.12458778 0.11179295 -0.41464889 1.4924125e-05 -1 5.7381083e-05 0
-0.11071613 0.11179295 -0.41296101 1.3449026e-05 -1 5.7744081e-05 0
-0.10453411 0.11179295 -0.4127802 8.73317e-06 -1 1.6191871e-05 0
-0.097067773 0.11179295 -0.41535795 3.9071456e-06 -1 1.4895199e-05 0
-0.089074016 0.11179295 -0.41918835 4.1580297e-06 -1 -2.2764503e-08 0
-0.064601406 0.11179295 -0.41202766 1.5804369e-06 -1 4.588973e-05 0
-0.056253981 0.11179295 -0.41641688 1.3487921e-05 -1 3.0416784e-05 0
-0.047016814 0.11179295 -0.41596696 2.0850512e-06 -1 -2.3091523e-08 0
-0.036520161 0.11179295 -0.41194177 2.1994765e-06 -1 3.2889951e-05 0
-0.022637332 0.11179295 -0.41702363 -5.2739477e-07 -1 1.6214168e-05 0
-0.015654258 0.11179294 -0.41354641 1.3010035e-06 -1 -1.816199e-07 0
-0.0014629191 0.11179295 -0.41449413 -5.532857e-07 -1 3.2557273e-05 0
0.014667817 0.11179295 -0.41605306 -1.5778808e-06 -1 -1.8821167e-07 0
0.024501538 0.11179294 -0.41459817 -2.1022843e-06 -1 2.856239e-05 0
0.034783047 0.11179295 -0.41608346 -7.0391084e-06 -1 1.5838805e-05 0
0.044522386 0.11179295 -0.41547942 -2.0797347e-06 -1 3.231044e-05 0
0.055661004 0.11179294 -0.41443154 -2.1303526e-06 -1 5.4070002e-05 0
0.063942924 0.11179294 -0.41387939 -6.5677218e-06 -1 1.7750532e-05 0
0.076173149 0.11179295 -0.41419861 -6.6037383e-06 -1 3.1929376e-05 0
0.082342356 0.11179295 -0.41438574 -2.8600261e-06 -1 5.1543375e-05 0
0.093789816 0.11179294 -0.41619459 -5.3946765e-06 -1 6.2951127e-05 0
0.10515737 0.11179295 -0.41591343 7.341881e-06 -1 5.6954206e-05 0
0.11348812 0.11179294 -0.41472387 -1.4055401e-05 -1 -1.7815464e-05 0
0.12667277 0.11179295 -0.4138771 -1.4087007e-05 -1 -2.2763626e-05 0
0.13741963 0.11179295 -0.41683549 -1.1456144e-05 -1 3.5458786e-05 0
0.14421634 0.11179295 -0.41352952 -6.791824e-06 -1 1.7335939e-05 0
0.15498886 0.11179295 -0.41523671 4.9642567e-06 -1 4.1759809e-05 0
0.16395114 0.11179295 -0.41871381 -6.4550618e-06 -1 7.6870965e-05 0
0.17174201 0.11179295 -0.41608682 -7.8848652e-06 -1 5.8713642e-05 0
0.1861763 0.11179294 -0.41432738 -0.18517283 -0.98265177 0.010319557 0.03966292
0.19424933 0.11179295 -0.41537964 -0.33840209 -0.94017696 -0.0393866 0.066181019
0.20642857 0.11161268 -0.41661415 -0.71445656 -0.69923061 0.025069457 0.074284509
-0.20713072 -0.11128277 -0.40368822 0.81944931 0.5730387 0.011378703 0.058720265
-0.19709927 -0.11179295 -0.4095788 0.3863073 0.92235464 -0.0053542373 0.07596039
-0.17386843 -0.11179296 -0.40693992 9.3374292e-06 1 -1.621523e-05 0
-0.16837037 -0.11179295 -0.40900534 -0 1 -0 0
-0.14382321 -0.11179295 -0.40607998 1.5616763e-05 1 5.6613058e-05 0
-0.1376811 -0.11179295 -0.40492558 1.106761e-05 1 3.163471e-05 0
-0.12604976 -0.11179295 -0.40427467 -2.3736841e-06 1 2.59678e-05 0
-0.11645365 -0.11179295 -0.40650114 1.6655933e-05 1 7.7326848e-05 0
-0.10604474 -0.11179295 -0.40710601 1.1659704e-05 1 -5.5672865e-07 0
-0.098296694 -0.11179295 -0.40562099 1.3607646e-05 1 7.1131923e-05 0
-0.086109057 -0.11179295 -0.40649128 1.5656015e-05 1 7.6697666e-05 0
-0.076103382 -0.11179294 -0.40741929 5.1381512e-06 1 6.1453844e-05 0
-0.064189076 -0.11179295 -0.40337741 9.8717128e-06 1 6.4494634e-05 0
-0.05525621 -0.11179295 -0.40639305 9.9818408e-06 1 1.9518449e-05 0
-0.045116886 -0.11179295 -0.40348604 5.5894984e-06 1 6.4116866e-05 0
-0.035334781 -0.11179294 -0.4037897 1.4823573e-05 1 8.4664585e-05 0
-0.02564284 -0.11179295 -0.40772495 4.7184208e-06 1 2.1845164e-05 0
-0.018125635 -0.11179295 -0.40874064 2.1445792e-06 1 2.0090349e-05 0
-0.0013794778 -0.11179295 -0.4073475 -1.9782165e-06 1 1.551179e-05 0
0.0033183314 -0.11179294 -0.40627155 5.8498506e-07 1 3.6221234e-05 0
0.014441093 -0.11179295 -0.40553257 1.0167861e-06 1 -1.7275681e-05 0
0.026013121 -0.11179295 -0.40205598 -1.9807328e-06 1 -1.6715002e-07 0
0.037617452 -0.11179295 -0.40874541 -0 1 -0 0
0.044194758 -0.11179294 -0.40312436 -4.5623237e-06 1 1.5909149e-05 0
0.05374945 -0.11179295 -0.40481359 -4.2949223e-06 1 1.4154293e-05 0
0.07648275 -0.11179295 -0.40674227 -8.3693703e-06 1 1.4867361e-05 0
0.084307075 -0.11179294 -0.40515795 5.9195795e-06 1 1.6348346e-05 0
0.094252057 -0.11179295 -0.40404594 -1.0069523e-05 1 3.7195139e-05 0
0.10595562 -0.11179295 -0.40780237 1.6408493e-06 1 1.8007891e-05 0
0.11336682 -0.11179295 -0.40605909 -1.1394484e-05 1 5.0004208e-05 0
0.12673874 -0.11179295 -0.40598586 -1.3203677e-05 1 4.8658032e-05 0
0.13600823 -0.11179294 -0.40313452 -2.3782073e-05 1 2.7068469e-05 0
0.14759474 -0.11179295 -0.40862411 -2.8669941e-05 1 3.5343346e-05 0
0.1518946 -0.11179295 -0.40589416 -2.8119193e-05 1 2.9667588e-05 0
0.16439091 -0.11179295 -0.40648285 -2.3170061e-05 1 3.4469616e-05 0
0.17362988 -0.11179294 -0.40294972 -3.4462726e-05 1 6.4684245e-05 0
0.18650429 -0.11179294 -0.40506047 -0.19590996 0.98061264 0.0042595207 0.041835602
0.19371322 -0.11179294 -0.40301007 -0.24380346 0.96965301 -0.018242165 0.044376113
0.2034425 -0.11179295 -0.40672842 -0.63689828 0.77038217 -0.029529007 0.084048092
-0.20811099 -0.10440774 -0.4062492 0.88751781 0.45842969 -0.046414357 0.059874613
0.20811102 -0.10235735 -0.4026227 -0.84662783 0.53011018 0.046952065 0.072251827
-0.208111 -0.096597686 -0.40466946 0.95501816 0.29485664 -0.031619154 0.03803714
0.20811099 -0.095164604 -0.40841383 -0.95237935 0.30370975 -0.027093239 0.06269294
-0.20811097 -0.086590886 -0.40496421 0.99750137 0.069019049 0.015082636 0.010335278
0.208111 -0.083633833 -0.40282559 -0.99942797 0.033717532 0.0026196854 0.0017821166
-0.208111 -0.074643135 -0.40393439 1 -7.2993464e-07 3.6563481e-05 0
0.20811102 -0.070423394 -0.40377086 -1 -4.4239082e-06 -6.6312918e-05 8.8528495e-06
-0.208111 -0.063586511 -0.40278229 1 -1.0729796e-05 3.2790525e-05 8.2201486e-06
0.208111 -0.066128097 -0.40325034 -1 -2.0999282e-06 -6.1542436e-05 8.5183974e-06
-0.208111 -0.054384977 -0.40438834 1 -1.684352e-05 -4.9905441e-07 1.7035411e-05
0.208111 -0.055536933 -0.40631714 -1 -2.4372903e-05 -0.00012891997 1.5713269e-05
-0.20811099 -0.04280372 -0.4075166 1 -8.9398327e-06 -9.0922927e-05 1.6874763e-05
-0.20811099 -0.036734417 -0.40546593 1 -8.6424352e-06 -6.2050247e-05 2.3966531e-05
0.208111 -0.035767648 -0.40721443 -1 -1.0572723e-05 -3.0532032e-05 3.18852e-05
-0.20811099 -0.023696944 -0.40239862 1 -6.6813532e-06 -3.3489647e-05 1.6416936e-05
0.208111 -0.025198391 -0.40571156 -1 2.3248396e-07 -6.6320616e-05 8.4353651e-06
-0.20811099 -0.014864725 -0.40423709 1 -3.4499624e-06 -1.2877351e-07 9.0289632e-06
0.208111 -0.014767963 -0.4044407 -1 7.7545724e-07 -3.9817874e-05 8.9784262e-06
-0.208111 -0.0052518584 -0.40522394 1 2.1640183e-06 -9.7799719e-05 1.5737851e-05
0.208111 -0.0011211336 -0.40319455 -1 -1.0063321e-05 -0.00014125981 1.64921e-05
-0.208111 0.0046221339 -0.40572089 1 1.1986082e-06 5.3445948e-08 1.6954204e-05
0.208111 0.0040695244 -0.40173689 -1 -4.2168222e-06 -6.3843589e-05 1.7127953e-05
-0.20811099 0.015289448 -0.40577582 1 -1.752963e-06 -2.9305285e-05 8.5338825e-06
0.208111 0.013482941 -0.40158278 -1 6.4526498e-06 -3.2282172e-05 1.5972439e-05
-0.20811099 0.022898786 -0.4049257 1 5.9335443e-06 -0.00012762657 1.5247174e-05
0.208111 0.022493595 -0.40649924 -1 -2.9802706e-07 -9.0918809e-05 8.6019254e-06
-0.20811099 0.038001467 -0.4021132 1 1.3630129e-05 -0.00010778586 1.6926784e-05
0.20811099 0.034739513 -0.40525547 -1 6.9801818e-06 -9.0811547e-05 1.6496144e-05
-0.208111 0.047924452 -0.40418667 1 1.1512206e-05 -3.2360271e-07 1.6975513e-05
0.208111 0.046625715 -0.40535238 -1 1.5080397e-05 -3.4714372e-05 1.6379108e-05
-0.20811099 0.052099187 -0.403202 1 1.0698877e-05 -3.477361e-05 1.6524704e-05
0.208111 0.055458553 -0.40427995 -1 1.0231151e-05 -2.8117825e-05 1.5958623e-05
-0.20811099 0.061900079 -0.40255499 1 1.0934683e-05 -6.8285561e-05 1.6707399e-05
0.208111 0.069636852 -0.40172663 -1 2.168647e-05 -3.2290725e-05 1.5894926e-05
-0.20811099 0.07405784 -0.40246937 1 1.9295616e-05 3.6922564e-05 1.6929214e-05
0.20811099 0.071532451 -0.40178093 -1 1.8295459e-05 -3.4503526e-05 1.5915446e-05
-0.20811099 0.081277348 -0.40579495 1 -0 -0 0
0.208111 0.081267662 -0.40065953 -1 1.2772847e-05 -6.4763815e-05 1.6419423e-05
-0.20811099 0.093384445 -0.40795317 0.95576084 -0.29359409 -0.017993756 0.046799883
0.208111 0.094951436 -0.40338048 -0.96155447 -0.27444273 0.0097065233 0.058145538
0.20811102 0.10696635 -0.40185428 -0.79911447 -0.60043389 -0.029921288 0.081064321
-0.20354219 0.1116152 -0.40587622 0.50980008 -0.86005551 -0.020210471 0.069639489
-0.19183026 0.11179295 -0.40487415 0.27449682 -0.96101558 0.033175655 0.054499328
-0.18557663 0.11179295 -0.40431532 0.14663549 -0.98911715 0.012053486 0.02956406
-0.17625874 0.11179294 -0.40704116 0.00076606509 -0.9999997 -2.3188068e-05 0
-0.16506615 0.11179295 -0.40578747 9.0786434e-06 -1 3.9360999e-05 0
-0.15246457 0.11179295 -0.40274775 -3.7107404e-06 -1 3.7699861e-05 0
-0.14443961 0.11179295 -0.40588591 2.4206282e-05 -1 2.9340836e-05 0
-0.13437593 0.11179295 -0.40328854 1.0068711e-05 -1 -1.8208569e-08 0
-0.12590674 0.11179295 -0.40463701 2.6981279e-05 -1 5.1765663e-05 0
-0.11514356 0.11179294 -0.40402547 7.9749616e-06 -1 -4.8826303e-09 0
-0.1047587 0.11179294 -0.40399998 7.3736737e-06 -1 8.3972962e-05 0
-0.094341785 0.11179294 -0.40442586 5.0284752e-06 -1 1.8812787e-05 0
-0.086970329 0.11179295 -0.4076446 4.5765355e-06 -1 3.2802083e-05 0
-0.075838253 0.11179295 -0.40624073 1.6603855e-05 -1 3.3821841e-05 0
-0.066541329 0.11179295 -0.40657523 4.2997285e-06 -1 2.9467052e-05 0
-0.058290184 0.11179295 -0.4035649 1.1163925e-05 -1 1.7496886e-05 0
-0.04274556 0.11179295 -0.4003672 1.2189993e-05 -1 4.8890295e-05 0
-0.032342646 0.11179295 -0.40812337 5.6401873e-06 -1 -2.9894557e-07 0
-0.02673367 0.11179295 -0.40359408 -7.5753696e-06 -1 6.8255904e-05 0
-0.014957696 0.11179294 -0.40384737 -1.1481918e-06 -1 -2.0490269e-09 0
-0.0078439536 0.11179294 -0.40301543 6.3522685e-07 -1 2.6034965e-09 0
0.0031495194 0.11179295 -0.40232897 -5.2991135e-07 -1 5.1745898e-05 0
0.010747191 0.11179295 -0.40910092 3.1116749e-06 -1 4.5318004e-05 0
0.023463866 0.11179295 -0.40320948 -1.9124757e-06 -1 4.3640171e-05 0
0.035044882 0.11179295 -0.40483487 8.7249092e-08 -1 4.8164595e-05 0
0.044895861 0.11179295 -0.40619758 -5.6296599e-06 -1 1.708132e-05 0
0.055518448 0.11179294 -0.40249416 1.4196687e-06 -1 3.680454e-05 0
0.064471975 0.11179295 -0.40477043 -8.6677246e-06 -1 5.1011222e-05 0
0.077391528 0.11179295 -0.40459448 -4.0161276e-06 -1 2.4415618e-05 0
0.08450105 0.11179295 -0.40264469 -1.6423477e-05 -1 2.9884926e-05 0
0.098905869 0.11179294 -0.40663522 -1.0545123e-05 -1 5.3027805e-05 0
0.10556608 0.11179295 -0.40795529 -3.9396195e-06 -1 1.7392509e-05 0
0.11763594 0.11179295 -0.40493584 -3.0410391e-05 -1 2.1317881e-05 0
0.12393844 0.11179295 -0.40601575 -1.8041685e-05 -1 6.3999083e-05 0
0.13400257 0.11179295 -0.40584362 -8.7787403e-06 -1 1.6585642e-05 0
0.14571567 0.11179294 -0.40360594 7.0674594e-07 -1 1.8808891e-05 0
0.15521863 0.11179294 -0.4057025 -1.7499207e-05 -1 1.968922e-07 0
0.1632558 0.11179295 -0.40449756 -2.648311e-07 -1 1.9907397e-05 0
0.17586607 0.11179295 -0.40573889 -0.00091941375 -0.99999958 0.00016617935 0
0.18583876 0.11179295 -0.40347573 -0.14193033 -0.98937017 -0.031660233 0.027492503
0.19196886 0.11179295 -0.40432698 -0.208535 -0.9777168 -0.024145804 0.044090401
0.20526166 0.11159611 -0.40423071 -0.57690859 -0.81658781 0.01899532 0.081085928
-0.20528002 -0.11179295 -0.39380726 0.71117353 0.69813865 0.082671329 0.082173839
-0.1970702 -0.11179295 -0.39192361 0.46417555 0.88501602 0.035883792 0.079893149
-0.18696101 -0.11179295 -0.39515367 0.18384445 0.98292702 0.0074774227 0.030113395
-0.17825447 -0.11179295 -0.39437953 -0 1 -0 0
-0.16472057 -0.11179295 -0.39777026 1.0326727e-05 1 1.7275417e-05 0
-0.15493816 -0.11179295 -0.39404237 9.8816636e-06 1 9.0015885e-05 0
-0.14545366 -0.11179295 -0.39952493 6.861183e-06 1 5.4398053e-05 0
-0.13382514 -0.11179295 -0.39513278 8.2272836e-06 1 1.9428317e-05 0
-0.12548862 -0.11179295 -0.39452064 8.9036994e-06 1 3.8498994e-05 0
-0.11695402 -0.11179295 -0.39485639 9.418161e-07 1 8.3845938e-05 0
-0.10689233 -0.11179294 -0.39349046 4.098692e-06 1 -1.4102844e-07 0
-0.083249919 -0.11179295 -0.39318201 9.2289201e-06 1 -9.376833e-07 0
-0.074669145 -0.11179294 -0.39753118 1.7510216e-07 1 6.2772036e-05 0
-0.064338751 -0.11179295 -0.39605075 -4.8307443e-06 1 8.0208294e-05 0
-0.053174175 -0.11179295 -0.39630347 6.3200951e-06 1 1.5990801e-05 0
-0.045361411 -0.11179295 -0.39416733 9.5729401e-06 1 3.0254359e-05 0
-0.035803087 -0.11179294 -0.39658234 7.0363913e-06 1 2.8522147e-05 0
-0.026330898 -0.11179295 -0.39504546 6.5281215e-06 1 5.7717418e-05 0
-0.017994268 -0.11179295 -0.39596057 7.7966109e-07 1 3.4047371e-05 0
0.0048187762 -0.11179295 -0.39127275 -4.9558303e-06 1 7.057075e-05 0
0.014953999 -0.11179295 -0.39788395 1.5808055e-07 1 4.360421e-05 0
0.032844961 -0.11179295 -0.39504755 -4.3885125e-06 1 -1.4178278e-05 0
0.045758046 -0.11179295 -0.39287555 -2.5097172e-06 1 1.7380003e-07 0
0.065796375 -0.11179295 -0.39290905 -4.1883527e-06 1 -2.2252392e-07 0
0.071998924 -0.11179295 -0.39272779 -7.5154999e-06 1 3.3200835e-05 0
0.084083408 -0.11179295 -0.39293969 -4.4009657e-06 1 2.7871532e-05 0
0.094042227 -0.11179295 -0.39825654 -9.4611969e-06 1 -2.4712585e-07 0
0.10267345 -0.11179295 -0.39610401 -1.5567473e-05 1 6.9920163e-05 0
0.11436757 -0.11179294 -0.39592624 -1.52518e-05 1 4.8066595e-05 0
0.12649892 -0.11179295 -0.39028281 -1.9438703e-05 1 9.4756579e-05 0
0.13523991 -0.11179295 -0.39409655 -2.6218398e-05 1 5.3316962e-05 0
0.14535563 -0.11179294 -0.39450437 -1.524257e-05 1 2.8069271e-05 0
0.15617026 -0.11179294 -0.39188564 -2.1864327e-05 1 6.7871144e-05 0
0.16580179 -0.11179294 -0.39404678 -9.3793396e-06 1 4.964431e-05 0
0.17194897 -0.11179295 -0.39169613 -3.7570742e-05 1 3.824407e-05 0
0.18771428 -0.11179295 -0.39499983 -0.20386262 0.97859102 0.028276717 0.03778797
0.19578382 -0.11179294 -0.39419001 -0.37784651 0.92527533 -0.033127867 0.074880011
0.20469938 -0.11136468 -0.39719486 -0.75672358 0.65290231 -0.032985535 0.074466668
-0.20811099 -0.10241897 -0.39835212 0.9430778 0.33234233 0.012363981 0.052387662
-0.20811099 -0.099335089 -0.39155763 0.94542664 0.32405853 0.03397949 0.059441127
0.208111 -0.095359564 -0.39546269 -0.94893736 0.31259319 0.042465705 0.060457632
-0.20811102 -0.086167879 -0.39587921 0.99748701 0.06715215 -0.022589115 0.011024908
0.208111 -0.085888021 -0.39610699 -0.9972207 0.074259087 0.006045328 0.0096393023
-0.20811097 -0.074044161 -0.39422926 1 -6.4907294e-06 -3.4966146e-07 8.0430418e-06
0.208111 -0.073481083 -0.39333349 -1 -1.5655995e-05 -3.0762927e-05 8.6527398e-06
-0.20811099 -0.062503345 -0.39489219 1 -3.4388836e-06 -4.4656648e-08 8.2870829e-06
0.208111 -0.062302522 -0.39544705 -1 -1.0752368e-05 -6.470357e-05 8.3563809e-06
-0.20811099 -0.056214862 -0.39515662 1 1.1150584e-05 7.2297364e-05 0
0.208111 -0.054216456 -0.39534101 -1 -7.9933507e-06 -5.5899043e-05 8.1555099e-06
-0.208111 -0.04509791 -0.39465913 1 4.0068295e-07 -6.200136e-05 8.489129e-06
0.20811102 -0.041969839 -0.3918007 -1 -1.6874865e-05 -6.2253806e-05 1.5634292e-05
-0.20811099 -0.036416933 -0.3922843 1 -1.4825944e-05 -0.00012466843 1.6121556e-05
0.20811102 -0.035324052 -0.39513221 -1 -5.2732912e-06 -3.3531982e-05 1.6073367e-05
-0.20811099 -0.024361156 -0.39553335 1 3.8896797e-08 -6.3775515e-05 1.6914631e-05
0.20811099 -0.025211338 -0.39338911 -1 -3.7674884e-06 1.6931236e-07 8.0903465e-06
-0.20811099 -0.015126564 -0.39539582 1 -4.9025689e-06 -2.9927902e-05 1.5782838e-05
0.208111 -0.012249658 -0.39610136 -1 6.8521667e-06 -0.00015573631 1.725024e-05
-0.20811102 -0.0042923768 -0.39457145 1 -6.6439197e-06 -4.637647e-05 0
0.20811099 -0.0064487513 -0.39292476 -1 8.0195314e-06 -0.00010613906 1.7104592e-05
-0.20811099 0.0049200114 -0.39694077 1 1.00246e-06 -1.2006382e-07 1.6386559e-05
0.20811099 0.0044859778 -0.39357167 -1 3.8164571e-06 -6.8874018e-05 1.6842341e-05
-0.208111 0.015208331 -0.39475593 1 -2.3799989e-06 -2.4867293e-07 0
0.208111 0.014119213 -0.39568448 -1 -2.8072725e-06 -2.8369381e-05 1.6487838e-05
-0.208111 0.02377297 -0.39408651 1 1.4464364e-05 -0.00014214349 1.5745552e-05
0.208111 0.025573745 -0.39821076 -1 1.086707e-05 -0.00012558812 1.6120997e-05
-0.208111 0.03744632 -0.39693958 1 1.8730523e-05 -6.2875741e-05 2.3901237e-05
0.20811099 0.034947153 -0.39228833 -1 7.6274509e-06 -8.791963e-05 8.6069522e-06
-0.20811099 0.046141665 -0.39603382 1 1.8487874e-05 -2.8509399e-05 1.6243221e-05
0.20811103 0.044143185 -0.39574742 -1 1.4014196e-05 -0.000104802 1.622011e-05
-0.208111 0.053080998 -0.39415252 1 1.2497342e-05 -0.00010140501 1.630616e-05
0.208111 0.055366039 -0.39607754 -0.99999994 -9.7486873e-06 -0.00017385336 1.7317716e-05
-0.20811099 0.066278942 -0.3922461 1 1.8133895e-05 -0.00014205977 1.6412534e-05
0.208111 0.065219305 -0.39422479 -1 9.2173432e-06 -5.9863454e-05 8.8228344e-06
-0.20811099 0.076673463 -0.39844441 1 3.8657995e-06 3.8974136e-05 8.6032787e-06
0.20811102 0.073464878 -0.39453655 -1 2.600094e-05 -9.8004268e-05 1.5819156e-05
-0.20811099 0.081262566 -0.39080167 1 2.2330372e-05 -7.2073861e-05 8.7294966e-06
0.208111 0.08755739 -0.39596051 -0.99746352 -0.071133636 -0.0025532662 0.0079185478
-0.208111 0.09478119 -0.39406246 0.9536702 -0.29938376 0.029706568 0.051024221
0.20811099 0.097259618 -0.39620283 -0.93307054 -0.35940343 -0.014438453 0.076970391
-0.20811099 0.1047636 -0.39665377 0.85288191 -0.51890439 0.057711367 0.072254635
0.208111 0.10610612 -0.39493206 -0.81904233 -0.57103175 0.055609815 0.07217744
-0.20437081 0.11169548 -0.39520034 0.55121863 -0.83429325 0.010619644 0.081157058
-0.19402625 0.11179294 -0.39552104 0.31300721 -0.94969082 -0.010666587 0.052138444
-0.18522102 0.11179294 -0.39317369 0.11818434 -0.99277878 -0.020563148 0.022030717
-0.17560197 0.11179294 -0.39513654 0.0011714736 -0.99999934 0.00019622743 0
-0.16495721 0.11179295 -0.39610648 2.5076095e-05 -1 -1.3721459e-06 0
-0.15236396 0.11179295 -0.39418262 1.7453856e-05 -1 3.5597139e-05 0
-0.14580755 0.11179294 -0.3972412 6.7736682e-06 -1 1.5277412e-05 0
-0.13430917 0.11179295 -0.39146703 4.5434599e-06 -1 7.0422531e-05 0
-0.12535404 0.11179295 -0.39245009 1.854893e-05 -1 1.3580625e-05 0
-0.11923307 0.11179295 -0.394811 1.5368187e-05 -1 3.441755e-05 0
-0.10446805 0.11179295 -0.39328581 1.0093251e-05 -1 3.6003352e-05 0
-0.093735427 0.11179295 -0.39339069 6.4913752e-07 -1 8.6479631e-05 0
-0.084515318 0.11179294 -0.39440748 1.1610787e-05 -1 -3.6005827e-07 0
-0.074424453 0.11179294 -0.39643604 7.5827047e-06 -1 3.0565014e-05 0
-0.062274143 0.11179295 -0.39261097 1.4072048e-05 -1 -6.9785978e-07 0
-0.05552578 0.11179295 -0.39439192 7.4931768e-06 -1 7.2654097e-05 0
-0.045148242 0.11179294 -0.39427888 6.0074262e-06 -1 3.6878871e-05 0
-0.030478634 0.11179295 -0.39405078 -1.2491469e-08 -1 5.4069646e-05 0
-0.026254172 0.11179295 -0.39495087 -4.3149516e-06 -1 6.5330845e-05 0
-0.013108087 0.11179295 -0.39334866 8.3738478e-06 -1 7.0687573e-05 0
-0.0061321757 0.11179294 -0.39547196 -8.360268e-07 -1 5.5685214e-05 0
0.0061306944 0.11179294 -0.39543384 -2.5478016e-07 -1 7.1321389e-09 0
0.012425255 0.11179295 -0.39118737 9.6177735e-07 -1 5.4503547e-05 0
0.024965601 0.11179295 -0.39540675 8.2147061e-08 -1 0.00011586939 0
0.035452161 0.11179294 -0.39416179 -3.9983925e-06 -1 -2.8413317e-05 0
0.043225385 0.11179295 -0.39404649 -4.7909512e-06 -1 1.4518214e-05 0
0.05345504 0.11179295 -0.39351407 -1.1141624e-05 -1 1.6844529e-05 0
0.067067273 0.11179296 -0.39241377 -5.9044332e-06 -1 1.7228878e-05 0
0.078934252 0.11179295 -0.39422846 -2.9120515e-06 -1 5.6885561e-05 0
0.087403834 0.11179294 -0.39420962 -3.9580309e-06 -1 6.0711493e-05 0
0.093066096 0.11179295 -0.39671302 -1.0762854e-05 -1 9.2138514e-05 0
0.10466355 0.11179295 -0.39521855 -1.1017006e-05 -1 5.0697978e-05 0
0.1130724 0.11179295 -0.39552075 -2.9140199e-06 -1 6.1559636e-05 0
0.1216908 0.11179295 -0.39870059 -1.2693116e-05 -1 -1.6803172e-08 0
0.13209604 0.11179295 -0.39454126 -2.4724643e-05 -1 6.0473245e-05 0
0.1418325 0.11179295 -0.39442679 -2.219684e-05 -1 0.00010142366 0
0.15709448 0.11179295 -0.39481688 -8.1508442e-06 -1 1.434705e-05 0
0.16769372 0.11179295 -0.39582336 -2.0042198e-05 -1 3.1806063e-05 0
0.17597298 0.11179295 -0.39423022 -8.7809585e-06 -1 -4.3740094e-08 0
0.18341881 0.11179295 -0.39512354 -0.10328931 -0.99455816 0.013620771 0.017589873
0.19786827 0.11179295 -0.39623025 -0.44511896 -0.89440751 -0.043637838 0.073949911
0.20223804 0.11179295 -0.39477909 -0.5105443 -0.85984904 -0.0020030644 0.086479306
-0.20081481 -0.11179295 -0.3854917 0.51413143 0.8567993 -0.039546508 0.084535167
-0.19503272 -0.11179295 -0.38290092 0.41483539 0.9094401 -0.028815681 0.070721023
-0.17491297 -0.11179295 -0.38634244 1.8060466e-07 1 3.1433643e-05 0
-0.16291933 -0.11179295 -0.38629231 -5.0663898e-06 1 3.7205831e-05 0
-0.15351942 -0.11179295 -0.38456741 1.6119975e-06 1 1.7697444e-05 0
-0.14238556 -0.11179295 -0.38703024 3.4844965e-05 1 5.2539865e-05 0
-0.1344265 -0.11179295 -0.38716161 2.0781532e-05 1 3.495441e-05 0
-0.11390965 -0.11179295 -0.38527936 -3.6646425e-06 1 3.1423021e-08 0
-0.10029033 -0.11179295 -0.38865846 -8.7833769e-06 1 6.052322e-05 0
-0.093583182 -0.11179294 -0.38312191 4.29192e-06 1 1.8819581e-05 0
-0.086250894 -0.11179295 -0.38460916 9.5542855e-06 1 3.8828734e-05 0
-0.075562097 -0.11179294 -0.38212264 2.797078e-06 1 -1.6543621e-05 0
-0.064534888 -0.11179295 -0.38225019 9.8195196e-06 1 5.1789339e-05 0
-0.056525979 -0.11179294 -0.38505062 5.8904475e-06 1 1.6397669e-05 0
-0.048453413 -0.11179295 -0.38537928 4.936395e-07 1 3.8052563e-05 0
-0.028806994 -0.11179295 -0.38540325 2.0431321e-06 1 1.9889558e-05 0
-0.016057212 -0.11179295 -0.38658974 1.9371255e-06 1 3.1172607e-05 0
-0.0065423632 -0.11179295 -0.38727766 3.2982628e-06 1 4.252102e-05 0
0.00727503 -0.11179295 -0.38368437 7.806463e-07 1 2.7722946e-05 0
0.014660318 -0.11179294 -0.38503179 -2.9856876e-06 1 1.540089e-05 0
0.026003268 -0.11179294 -0.38415191 -0 1 -0 0
0.036234658 -0.11179294 -0.38530248 -1.9123393e-06 1 3.1855921e-05 0
0.044774529 -0.11179295 -0.38355771 1.4738547e-06 1 5.1765004e-05 0
0.05353564 -0.11179294 -0.38761955 -6.0188063e-07 1 -1.5123673e-05 0
0.063871697 -0.11179294 -0.38399249 2.8561742e-06 1 7.8667283e-05 0
0.073585153 -0.11179295 -0.38566315 -1.5674672e-06 1 3.8109589e-05 0
0.087123416 -0.11179295 -0.38506091 -9.1435231e-06 1 1.7026727e-05 0
0.092738293 -0.11179294 -0.38592839 -7.7704663e-06 1 5.9880538e-05 0
0.1054384 -0.11179295 -0.38540936 -1.6108166e-05 1 0.00010643432 0
0.11500318 -0.11179294 -0.38516825 -1.6706799e-05 1 7.2600647e-05 0
0.12883805 -0.11179295 -0.38485819 -2.6101172e-05 1 6.1865394e-05 0
0.13392389 -0.11179295 -0.38874647 -1.7408795e-05 1 3.1560729e-05 0
0.14120792 -0.11179295 -0.38468134 -1.4442588e-05 1 8.2163497e-05 0
0.15400954 -0.11179294 -0.38453504 -1.756532e-05 1 1.5245681e-05 0
0.16763243 -0.11179295 -0.38687384 -3.7650858e-05 1 0.00010039077 0
0.17602381 -0.11179295 -0.385923 -1.9579573e-05 1 -3.6052192e-05 0
0.18798909 -0.11179295 -0.38613778 -0.21838723 0.97585827 -0.0027577654 0.042961463
0.19582739 -0.11179295 -0.38401961 -0.39462766 0.91862905 0.019740187 0.085129045
0.20592789 -0.11179295 -0.3858653 -0.6704492 0.7410326 -0.036995605 0.080698118
-0.20811099 -0.10207089 -0.38781983 0.9388417 0.34337509 -0.025880124 0.058730565
0.20811102 -0.10513924 -0.3852101 -0.80963695 0.58691078 -0.0048686396 0.066978455
-0.20811099 -0.099120647 -0.38435617 0.94851458 0.31313774 -0.047589783 0.05841611
0.208111 -0.095089331 -0.38409609 -0.9493041 0.31407428 -0.013385041 0.054847408
-0.20811099 -0.085059822 -0.38494313 0.99571693 0.092398271 0.0032104475 0.013266965
0.208111 -0.086563565 -0.38440707 -0.99348241 0.11381967 0.0061360658 0.019820644
-0.20811099 -0.075046867 -0.38404742 1 0 0 1.6002317e-05
0.208111 -0.074132927 -0.385317 -1 9.7959571e-07 -0.00010807959 0
-0.20811099 -0.064485453 -0.38614124 1 -8.2047873e-06 -4.3569955e-05 1.83262e-05
0.208111 -0.064185619 -0.38383237 -1 1.3026909e-06 -6.523604e-05 9.2652253e-06
-0.20811099 -0.055377197 -0.38383183 1 3.9828851e-06 4.7011352e-07 8.8119323e-06
0.208111 -0.054461673 -0.38724968 -1 -1.9551651e-05 -8.879527e-05 8.3791138e-06
-0.208111 -0.042685412 -0.38578659 1 -3.1074601e-06 -3.0169942e-05 8.0730206e-06
0.208111 -0.043029185 -0.38261572 -1 -1.5033894e-05 -6.5542306e-05 8.3053555e-06
-0.208111 -0.035544079 -0.3852354 1 -7.9243337e-06 -0.00013175288 7.9734291e-06
0.20811102 -0.032302015 -0.38560674 -1 -2.0199181e-05 -0.00010519262 0
-0.20811099 -0.024436915 -0.38350403 1 -7.9232987e-06 -7.7893543e-05 1.7220957e-05
0.208111 -0.023301698 -0.38737157 -1 -7.1175909e-06 -9.8749377e-05 1.5874648e-05
-0.20811099 -0.015827794 -0.38660845 1 -1.44102e-05 -8.437354e-05 9.0800822e-06
0.20811102 -0.016935412 -0.3851549 -1 -2.291044e-06 -7.3025905e-05 1.7385031e-05
-0.20811099 -0.0057166032 -0.38360214 1 -5.7006702e-07 8.4245947e-08 0
0.20811102 -0.0070327045 -0.38519412 -1 2.8294369e-06 -0.00011545653 1.7253764e-05
-0.20811099 0.00047526509 -0.3860479 1 -5.1384632e-07 -3.8831335e-05 1.6516819e-05
0.208111 0.0038643079 -0.38496059 -1 -1.840539e-06 -7.3509218e-05 1.7745009e-05
-0.20811099 0.01481583 -0.3864378 1 -6.4314423e-07 -8.3628642e-05 1.6291277e-05
0.20811099 0.015272508 -0.38608691 -1 2.6657199e-06 -0.00010594876 1.6654772e-05
-0.20811099 0.024620287 -0.38301218 1 2.7347896e-06 -3.3976426e-05 8.6560476e-06
0.208111 0.023962598 -0.38383871 -1 7.9743686e-06 -3.5637175e-05 9.0794401e-06
-0.20811099 0.03254883 -0.38707379 1 9.5211262e-06 1.0085061e-07 1.598716e-05
0.208111 0.036618546 -0.38326901 -1 8.2774768e-06 -6.6493922e-05 1.6890841e-05
-0.20811099 0.046064571 -0.3837384 1 1.0059101e-05 7.7170895e-05 9.3704184e-06
0.208111 0.044374224 -0.38578081 -1 -5.4433212e-06 -9.2940019e-05 0
-0.20811099 0.054322787 -0.38324165 1 3.6482136e-06 -1.0807558e-07 1.6661048e-05
0.208111 0.053938482 -0.3853097 -1 5.2958867e-06 -7.5199401e-05 0
-0.20811099 0.062435836 -0.38592404 1 1.4267445e-05 -4.9421065e-05 9.4210654e-06
0.208111 0.068135455 -0.38522363 -1 3.6215904e-05 -0.00014385031 9.4423003e-06
-0.20811099 0.075005203 -0.38489389 1 4.2497927e-06 -6.3239476e-08 8.5174488e-06
0.20811102 0.076390281 -0.38634366 -1 9.666147e-06 -3.6548117e-05 9.0071362e-06
-0.20811099 0.085569233 -0.38623199 0.99586499 -0.088171378 0.02187968 0.01254991
0.20811099 0.085335635 -0.38211656 -0.99662989 -0.081802458 0.006101897 0.011621612
-0.208111 0.092764921 -0.38618225 0.97782755 -0.20682761 0.032798804 0.039416723
0.20811102 0.094455242 -0.38400012 -0.97899967 -0.20251487 0.023395579 0.041205205
-0.20811099 0.10559174 -0.38230059 0.82628441 -0.55762696 0.079411924 0.085955851
0.20811102 0.10386208 -0.38939971 -0.85283637 -0.52156788 -0.025238745 0.087093987
-0.2041133 0.11134464 -0.38277513 0.56723791 -0.82102269 0.064520068 0.095449261
-0.19468416 0.11179294 -0.38678107 0.36009496 -0.93258142 -0.024969861 0.068566941
-0.1860387 0.11179294 -0.3865844 0.1827528 -0.98315501 0.0027652483 0.038277317
-0.17526564 0.11179295 -0.3859337 0.0019964464 -0.99999803 -5.0863258e-05 2.147953e-06
-0.16195281 0.11179295 -0.38279381 1.5655683e-05 -1 1.4080132e-06 0
-0.15856764 0.11179295 -0.38487548 -4.1553312e-07 -1 2.1291236e-05 0
-0.14660478 0.11179295 -0.38476333 -4.5426205e-07 -1 4.8491507e-05 0
-0.13390391 0.11179295 -0.38616222 1.9456791e-05 -1 6.2419269e-05 0
-0.1234802 0.11179295 -0.38555789 1.0590647e-05 -1 4.3828786e-05 0
-0.11356638 0.11179294 -0.38323158 1.0238118e-05 -1 1.4757134e-05 0
-0.10720229 0.11179295 -0.38692817 6.8786244e-06 -1 3.7110611e-05 0
-0.09310782 0.11179295 -0.38786086 6.7848564e-06 -1 6.6319073e-05 0
-0.083981678 0.11179295 -0.38637754 6.0599245e-06 -1 4.1000796e-05 0
-0.074108854 0.11179295 -0.38622847 1.0698894e-06 -1 3.6076934e-05 0
-0.062356636 0.11179295 -0.38547975 8.7584904e-06 -1 -3.137836e-07 0
-0.054958355 0.11179294 -0.38534552 -5.2858177e-06 -1 7.9592006e-05 0
-0.045175716 0.11179295 -0.38504004 9.6357962e-06 -1 7.4514937e-05 0
-0.033990972 0.11179295 -0.38429475 5.6619288e-06 -1 5.6548717e-05 0
-0.024210798 0.11179294 -0.38400304 7.3814526e-06 -1 9.5269745e-05 0
-0.015438621 0.11179295 -0.38442445 2.9099197e-06 -1 9.4803355e-08 0
-0.0026651267 0.11179295 -0.38657326 -8.9401249e-07 -1 6.4776723e-05 0
0.003154045 0.11179294 -0.38726079 7.2125141e-07 -1 3.5903493e-05 0
0.016543139 0.11179295 -0.38343295 2.4347819e-06 -1 3.0913641e-05 0
0.027064919 0.11179294 -0.38385934 2.5497336e-06 -1 6.2511208e-05 0
0.037442029 0.11179295 -0.38792801 -5.2174641e-06 -1 3.3729095e-05 0
0.045761071 0.11179294 -0.38486597 -8.024831e-07 -1 3.7663413e-05 0
0.054886125 0.11179295 -0.38228476 -2.820464e-06 -1 5.3579337e-05 0
0.064942129 0.11179295 -0.38661289 -8.8950947e-06 -1 3.3537894e-05 0
0.076534398 0.11179295 -0.38613692 1.2995471e-06 -1 5.3341966e-05 0
0.083196528 0.11179294 -0.3841697 -3.6407741e-06 -1 2.1818711e-05 0
0.094175182 0.11179295 -0.38621399 -1.314181e-05 -1 3.739342e-05 0
0.1056544 0.11179295 -0.38507929 2.2755703e-06 -1 7.088948e-05 0
0.11541388 0.11179294 -0.38564405 5.8078365e-07 -1 2.981135e-05 0
0.1293347 0.11179295 -0.38788614 -1.1191065e-05 -1 8.3199986e-05 0
0.13572778 0.11179295 -0.38475281 -1.7651306e-05 -1 7.412408e-05 0
0.14726868 0.11179295 -0.38453054 -2.5195759e-05 -1 7.9941245e-05 0
0.15340094 0.11179295 -0.38484299 -1.2265257e-05 -1 5.6128381e-05 0
0.16428596 0.11179295 -0.38465476 -6.0651792e-06 -1 8.2227598e-05 0
0.17553619 0.11179295 -0.38747901 -0.00067260908 -0.99999976 -0.00011482643 0
0.18622915 0.11179295 -0.38403752 -0.20000908 -0.97979379 0.00066311529 0.039679755
0.19446623 0.11179295 -0.3840954 -0.3228904 -0.94581544 0.034276698 0.068078198
0.20513441 0.11163633 -0.38365459 -0.65376824 -0.75530541 0.045834556 0.081961744
-0.20608836 -0.11158216 -0.3743124 0.77967429 0.62612534 -0.008660485 0.075950816
-0.19586608 -0.11179295 -0.37726822 0.2993004 0.95412523 -0.0080228234 0.052631486
-0.18758497 -0.11179295 -0.37683043 0.17257659 0.98441613 0.033798024 0.036429197
-0.17450979 -0.11179295 -0.3771823 7.6145193e-06 1 1.7568249e-05 0
-0.16118211 -0.11179295 -0.37839395 1.1478861e-05 1 3.9770359e-05 0
-0.15456589 -0.11179294 -0.37503979 1.2819639e-05 1 4.6813548e-05 0
-0.14159305 -0.11179295 -0.37606955 9.690255e-06 1 3.3732955e-05 0
-0.13676675 -0.11179294 -0.37534001 1.6600368e-05 1 4.7093192e-05 0
-0.12420011 -0.11179295 -0.37296209 1.7319331e-05 1 5.8481084e-05 0
-0.11408401 -0.11179294 -0.37601894 7.9194724e-06 1 5.8236456e-05 0
-0.10593983 -0.11179295 -0.37454242 -3.327913e-06 1 -1.8839346e-05 0
-0.095841512 -0.11179294 -0.3749463 6.512324e-06 1 -2.2677621e-05 0
-0.085715942 -0.11179295 -0.37297556 5.6996387e-06 1 5.8472127e-05 0
-0.077648818 -0.11179295 -0.37704539 1.1306567e-07 1 2.1069345e-05 0
-0.064567804 -0.11179294 -0.37387288 5.9515851e-06 1 4.9909988e-05 0
-0.05528399 -0.11179295 -0.37464604 1.0730312e-05 1 8.3101644e-05 0
-0.045036331 -0.11179295 -0.37572113 4.3509908e-06 1 1.5377829e-05 0
-0.037014909 -0.11179295 -0.37513569 6.1627647e-06 1 -3.9631445e-07 0
-0.025163902 -0.11179295 -0.37391293 1.1009078e-06 1 -9.9796026e-08 0
-0.013818271 -0.11179295 -0.37455648 4.0416063e-07 1 2.1060761e-05 0
-0.0055388324 -0.11179295 -0.37360832 -1.3440346e-07 1 3.199909e-08 0
0.0035376865 -0.11179294 -0.37446705 1.8127312e-06 1 3.9834908e-05 0
0.015728319 -0.11179295 -0.37174955 -3.6262134e-06 1 5.0922212e-05 0
0.023427758 -0.11179295 -0.37370268 -1.7779508e-06 1 3.2479904e-05 0
0.03766188 -0.11179295 -0.37167358 -5.567048e-06 1 3.6601923e-05 0
0.045543421 -0.11179294 -0.37536985 -1.7938288e-06 1 6.2020335e-05 0
0.055617858 -0.11179295 -0.37567547 -1.8339786e-05 1 4.8591854e-05 0
0.067143194 -0.11179295 -0.37004969 3.8694677e-07 1 7.1133487e-05 0
0.074665338 -0.11179295 -0.37483475 -1.8464026e-06 1 4.3000931e-05 0
0.08468698 -0.11179294 -0.375449 -1.5440834e-05 1 3.3349021e-05 0
0.094196394 -0.11179294 -0.37644738 -5.7748484e-06 1 3.8401497e-05 0
0.10827337 -0.11179295 -0.37665588 -1.3487235e-05 1 5.5703324e-05 0
0.11450066 -0.11179295 -0.37514588 -1.0958361e-05 1 8.6691456e-05 0
0.12418538 -0.11179295 -0.37630913 -1.8871762e-05 1 3.0506169e-05 0
0.13392872 -0.11179295 -0.37326768 2.2403794e-06 1 4.8202357e-05 0
0.14546767 -0.11179294 -0.37496239 -1.0809668e-05 1 5.2320913e-05 0
0.15223104 -0.11179294 -0.37774801 -1.5643363e-05 1 8.2307932e-05 0
0.1637805 -0.11179294 -0.37546206 1.9298438e-06 1 6.6808207e-05 0
0.18740511 -0.11179295 -0.37447321 -0.19784161 0.97998154 -0.022243677 0.035977703
0.19578654 -0.11179295 -0.37657911 -0.41691554 0.90815037 0.038004234 0.073766336
0.208111 -0.11110595 -0.37461317 -0.73350775 0.67325085 0.093272343 0.067172624
-0.208111 -0.10313533 -0.37340388 0.9166733 0.39934713 -0.015225558 0.079539105
0.20811102 -0.10563602 -0.37539434 -0.81090552 0.5819279 0.061580978 0.073115461
-0.20811099 -0.09513399 -0.3748737 0.97268373 0.23151898 0.016892537 0.043641582
0.20811102 -0.096009754 -0.37444749 -0.95737869 0.2872501 0.03022196 0.060795911
-0.20811099 -0.083771922 -0.37443081 0.99996865 0.0078012929 0.0013300022 0.00026739307
0.208111 -0.086892352 -0.37374681 -0.99223775 0.12355905 0.014047193 0.020454835
-0.20811099 -0.07375595 -0.3756547 1 -1.2508263e-05 -5.6764013e-05 7.7298328e-06
0.208111 -0.074407108 -0.37556586 -1 -1.8496634e-05 -6.6823581e-05 1.6294172e-05
-0.20811099 -0.065934695 -0.37239215 1 -3.8201929e-06 -4.7036332e-07 8.0710579e-06
0.20811102 -0.066384576 -0.37637335 -1 -9.224018e-06 -3.7616104e-05 8.7219441e-06
-0.20811097 -0.050695188 -0.37820086 1 -5.4144666e-06 -3.51739e-05 8.4804697e-06
0.20811102 -0.050834849 -0.37573451 -1 -1.1387418e-05 5.4627162e-07 8.906256e-06
-0.20811099 -0.041288946 -0.37933186 1 -6.245692e-06 -6.5444321e-05 1.6280779e-05
0.208111 -0.04674964 -0.37699687 -1 -1.3545868e-05 -4.6040175e-05 8.4570702e-06
-0.20811102 -0.03520653 -0.37496883 1 -4.3766286e-06 3.5858458e-05 0
-0.20811099 -0.024861125 -0.37037173 1 5.4265246e-07 3.3535707e-05 0
0.20811099 -0.026991863 -0.3742035 -1 -1.4963205e-05 -6.9131427e-05 0
-0.20811099 -0.016203342 -0.37351948 1 0 0 0
0.208111 -0.018902514 -0.37316951 -1 3.7073739e-06 -6.3770691e-05 1.5533455e-05
-0.20811102 -0.0053276578 -0.37511995 1 -6.5974706e-07 4.0627987e-05 0
0.208111 -0.0024166908 -0.3761335 -1 5.1558459e-06 -0.00013985051 1.6300128e-05
-0.20811099 0.0045692734 -0.37837282 1 5.3174849e-06 -3.3760138e-05 1.5843156e-05
0.208111 0.003154258 -0.37758484 -1 4.8557122e-06 -3.3520431e-05 8.9188752e-06
-0.20811099 0.016689857 -0.37086734 1 1.1357673e-06 -8.4636817e-08 8.5616866e-06
0.20811099 0.015191099 -0.37389895 -1 3.5342377e-06 -3.3597314e-07 1.5880914e-05
-0.208111 0.024796264 -0.37508735 1 6.5528966e-06 5.007758e-07 8.1256476e-06
0.208111 0.025460884 -0.37520966 -1 7.4784616e-06 -3.8398659e-05 3.3395558e-05
-0.20811099 0.033424571 -0.37704787 1 -1.5485307e-06 -6.4919135e-05 8.4930716e-06
0.208111 0.03469393 -0.37579831 -1 5.0213375e-06 -7.8966739e-05 0
-0.20811099 0.045784362 -0.37548402 1 4.7641392e-06 -8.2266757e-05 1.6093414e-05
0.208111 0.046022896 -0.37658334 -1 1.271871e-06 -3.3186239e-05 1.6991929e-05
-0.20811099 0.054198455 -0.37425473 1 1.0989539e-05 2.9309702e-05 1.5222307e-05
0.208111 0.055007413 -0.37482226 -1 3.6252884e-05 -9.7754215e-05 1.673314e-05
-0.20811099 0.068545163 -0.37691069 1 -1.7781815e-06 -3.3805056e-05 8.641332e-06
0.20811102 0.064041667 -0.37441579 -1 1.88715e-05 -6.4663662e-05 1.5951884e-05
-0.20811099 0.077468008 -0.37746227 1 -6.7129386e-06 -3.1269214e-05 1.5189583e-05
0.208111 0.074552305 -0.37472141 -1 2.622049e-05 -0.00010613562 2.3115985e-05
-0.20811099 0.082731634 -0.37555012 0.99962676 -0.026885604 0.0048449119 0.0014313688
0.208111 0.086015068 -0.37336493 -0.99727142 -0.073549822 -0.0063393218 0.0094312886
-0.20811099 0.096838094 -0.37594691 0.92807567 -0.36976966 0.044112179 0.080790639
0.20811099 0.093967833 -0.37686014 -0.96048307 -0.27734539 -0.023493284 0.050834812
-0.20811099 0.10393485 -0.37603402 0.87520748 -0.47897846 0.067760438 0.093923941
0.20811099 0.1056467 -0.3746627 -0.8358559 -0.54200876 -0.087013952 0.067706488
-0.20489168 0.11179295 -0.37163258 0.56222415 -0.82417643 0.068096451 0.075899437
-0.19867019 0.11179295 -0.37329757 0.34002525 -0.93963563 0.038310602 0.056653187
-0.18261993 0.11179295 -0.37594733 0.10926225 -0.99393481 -0.012465419 0.019358646
-0.17725925 0.11179295 -0.37742749 0.0026855101 -0.99999642 -5.8451774e-06 1.0903552e-05
-0.16715391 0.11179295 -0.37524644 1.4772212e-05 -1 2.0594345e-05 0
-0.15530112 0.11179295 -0.37074095 1.6964077e-05 -1 6.8565721e-05 0
-0.14482357 0.11179294 -0.37427625 5.1989523e-06 -1 3.5454232e-05 0
-0.13870075 0.11179295 -0.37392259 1.2318989e-05 -1 1.8589792e-05 0
-0.12521414 0.11179294 -0.37549144 1.6301105e-05 -1 3.3147473e-05 0
-0.1151228 0.11179294 -0.37526178 9.5065898e-06 -1 3.7463273e-05 0
-0.10398487 0.11179295 -0.37347257 1.5004768e-05 -1 5.3094194e-05 0
-0.097048819 0.11179295 -0.37351224 -5.063817e-07 -1 5.9252532e-05 0
-0.083687887 0.11179294 -0.37713194 3.9626066e-06 -1 5.4832923e-05 0
-0.073149785 0.11179295 -0.37257186 8.759409e-06 -1 1.5161862e-05 0
-0.063259959 0.11179295 -0.37820917 1.1908377e-05 -1 3.3280456e-05 0
-0.054798424 0.11179295 -0.37495011 1.5313411e-05 -1 1.8351311e-05 0
-0.04603263 0.11179294 -0.37310785 2.1546014e-06 -1 4.6999576e-05 0
-0.034441072 0.11179294 -0.37659907 -4.2092347e-06 -1 6.9856142e-05 0
-0.025978878 0.11179295 -0.37522969 4.6297537e-06 -1 3.3968514e-05 0
-0.013054495 0.11179294 -0.37567654 3.055439e-06 -1 1.7124086e-05 0
-0.0057457243 0.11179295 -0.37434661 2.7550464e-06 -1 3.1801606e-05 0
0.014144215 0.11179295 -0.37588096 1.8028618e-06 -1 3.0963674e-05 0
0.024836374 0.11179294 -0.37585106 -1.1089636e-06 -1 6.5834051e-08 0
