# .PCD v0.7 - Point Cloud Data file format
VERSION 0.7
FIELDS x y z normal_x normal_y normal_z curvature
SIZE 4 4 4 4 4 4 4
TYPE F F F F F F F
COUNT 1 1 1 1 1 1 1
WIDTH 595
HEIGHT 1
VIEWPOINT 0 0 0 1 0 0 0
POINTS 595
DATA ascii
-0.15366955 0.075556688 0.18297629 0.82844049 -1.4843322e-05 -0.56007719 0
-0.12211443 0.073178083 0.18285166 -0.42400861 0.33725739 -0.84052014 0.21435215
-0.11906919 0.076663233 0.1873568 0.81925631 -0.18592614 0.5424487 0.21796986
0.12065123 0.071416423 0.18624523 -0.8618837 0.069950059 0.50225836 0.26412675
0.15264148 0.072754487 0.18538982 -0.85417187 -0.41005877 -0.31975311 0.25454226
-0.15416387 0.084778115 0.18224502 0.82842624 -2.9865671e-05 -0.56009817 0
-0.14924206 0.08345025 0.18952635 0.76848072 0.029915016 -0.63917327 0.088810876
-0.12167551 0.084207095 0.18350103 -0.68214118 0.25264221 -0.68618894 0.24140728
-0.11774097 0.086265191 0.18932176 0.94061399 -0.20265599 0.27235276 0.26478612
0.11852659 0.084443688 0.1894585 -0.86444408 0.47103932 0.17566533 0.26350665
0.1236629 0.083697528 0.18169045 0.69484627 0.099377222 -0.71225888 0.16437939
-0.15457027 0.096763574 0.18164378 0.76433676 -0.04675715 -0.64311975 0.0966895
-0.12225801 0.095682114 0.18263924 0.8591491 -0.042230278 0.50997984 0.25471783
-0.11800871 0.095218785 0.18892567 0.90718353 0.17855391 0.380968 0.25278717
0.11919042 0.097141802 0.18845455 -0.88452798 0.047166791 0.46409643 0.23344955
0.12199561 0.09466245 0.18421201 -0.76757747 -0.2591784 0.58621794 0.22263446
0.15229177 0.09297093 0.1859187 -0.83872575 0.030791277 -0.54368293 0.10857668
-0.15226492 0.10276052 0.18505432 0.80898124 -0.042968471 -0.58626187 0.12872843
-0.12157848 0.10538851 0.18364455 0.87571079 0.17143911 0.45137483 0.21861446
-0.11770759 0.10701945 0.18937115 0.96755564 -0.12315248 0.22061168 0.24579398
0.12150292 0.10579854 0.18495718 -0.81041282 -0.18865451 0.55465358 0.20868288
0.15186629 0.10832086 0.18656223 -0.84116662 0.046181016 -0.53880066 0.12861654
-0.15386391 0.11717045 0.18268877 0.8043741 0.037871886 -0.59291488 0.089551866
-0.12036939 0.1177325 0.18543327 0.88977969 0.065695651 0.45163721 0.20239466
-0.11733164 0.11045162 0.18992734 0.99909532 -0.0021029911 0.042473648 0.21214409
0.11966244 0.11994049 0.18774065 -0.89240104 -0.12876604 0.43248084 0.21294779
0.12235342 0.11745791 0.18367088 -0.77701122 -0.2133009 0.59224671 0.21966909
0.15356447 0.11486048 0.18399389 -0.79037267 0.13593732 -0.59735417 0.10880912
-0.14955528 0.12870702 0.18906298 0.73171479 0.097484246 -0.67460388 0.19518141
-0.12115953 0.12475169 0.18426435 -0.80632478 -0.05292023 -0.58910096 0.20624602
0.1217795 0.1267664 0.18453887 0.76360482 0.082220241 -0.64042765 0.23949546
0.15088814 0.12877043 0.18804151 -0.79230928 -0.026727518 -0.60953403 0.091207437
-0.15305667 0.13335174 0.18388301 0.76422971 0.034218226 -0.6440357 0.12025521
-0.14967264 0.13498603 0.18888932 0.79227364 0.035037406 -0.60915917 0.1076987
-0.1239855 0.13408107 0.18008362 -0.45890483 -0.18972428 -0.86799252 0.18790904
0.12075333 0.13512611 0.18609083 0.80784237 -0.084210046 -0.58335185 0.22851504
0.15354013 0.13266006 0.18403073 -0.80826432 -0.059839152 -0.58577126 0.08083941
-0.15506035 0.14504132 0.18091875 0.82848167 -6.6567886e-06 -0.5600161 0
-0.12178931 0.14611182 0.18333265 -0.69644564 -0.33565992 -0.63426799 0.20365022
-0.1174311 0.14215052 0.18978018 -0.85983783 -0.38690051 -0.33314684 0.18832271
0.1189035 0.14026231 0.18888846 -0.97482598 0.14357127 0.17059171 0.25534722
0.12290102 0.1437318 0.1828427 -0.83758903 -0.1867658 0.5133841 0.25231495
0.15245001 0.14352985 0.18567938 -0.79737478 0.059251849 -0.60056865 0.10355058
-0.15196112 0.15828186 0.18550377 0.75606471 -0.09594328 -0.64742655 0.14790598
-0.1202102 0.15438379 0.1856688 -0.83241862 -0.21407227 -0.51112843 0.21505
-0.11800058 0.156873 0.18893768 0.96651012 0.21493192 0.14022294 0.24985796
0.12258294 0.15489849 0.18332374 0.63335228 -0.20720203 -0.74560857 0.25115919
0.14991406 0.15880305 0.18951476 -0.79216892 0.020414028 -0.60996038 0.13994263
0.15213367 0.15645644 0.18615781 -0.79348207 -0.010118493 -0.60850954 0.11856088
-0.1534504 0.16820784 0.18330054 0.77712232 0.044071443 -0.62780452 0.13424157
-0.12210113 0.1645771 0.18287134 -0.76235092 0.0452151 -0.64558232 0.2221722
0.12254336 0.16266918 0.18338361 0.76667958 -0.10420799 -0.63351649 0.24732639
0.15249182 0.16685574 0.18561615 -0.82198119 0.0063273851 -0.56947941 0.04905634
-0.15542057 0.17602925 0.18038584 0.81351846 0.019165991 -0.58122307 0.04769814
-0.12227786 0.17391266 0.18260989 0.78118366 -0.22745036 0.58139348 0.18830889
-0.11919127 0.17659907 0.1871762 0.9403922 -0.090130337 0.32793126 0.22765702
0.11878764 0.17636289 0.18906371 -0.96381199 0.26128632 0.052876309 0.19472247
0.12147798 0.17640792 0.18499488 -0.95607132 0.15827374 0.2467328 0.22967173
0.15413526 0.17635956 0.18313064 -0.804214 -0.080710664 -0.58883411 0.096940041
-0.15148142 0.18024188 0.18621343 0.81839907 -0.099601187 -0.56595284 0.096642122
-0.1215305 0.18249042 0.18371551 -0.85644388 -0.182841 -0.4827764 0.20280309
0.12208273 0.18631847 0.18408027 0.74155539 -0.51917511 -0.42491508 0.21904325
0.15352172 0.18133381 0.18405856 -0.80554187 -0.1822314 -0.56382084 0.09870553
-0.15243153 0.1949158 0.18480784 0.72006118 -0.47866702 -0.50238419 0.092088498
-0.12250879 0.19665945 0.18226826 -0.55177802 -0.79165608 -0.26233909 0.22245952
0.11959666 0.19433527 0.18784016 0.44435626 -0.89334846 -0.066903725 0.17166007
0.12330555 0.19654424 0.18223089 0.29227546 -0.95539409 -0.042393878 0.18119618
0.15530573 0.1946217 0.18136045 -0.75771362 -0.40360266 -0.51281083 0.10307173
-0.152805 0.20351119 0.1835607 0.68339807 -0.57593757 -0.44862351 0.10861757
-0.1492722 0.2004302 0.18948175 0.56537193 -0.67507285 -0.47395292 0.11754958
-0.13434346 0.2044919 0.1845354 0.16898604 -0.98146081 -0.090433896 0.13329597
-0.12976795 0.2044919 0.18483061 -0.10664572 -0.97320628 -0.20370623 0.15401883
-0.11900609 0.20200713 0.18745014 -0.38450122 -0.92032671 -0.071816139 0.18069474
0.1256125 0.2044919 0.18694822 0.23185576 -0.97272581 -0.0068876902 0.15219003
0.13499215 0.2044919 0.18479745 -0.044314522 -0.99766028 0.05206069 0.12699153
0.14580154 0.2044919 0.18559512 -0.32868293 -0.93936986 -0.097733364 0.12737128
-0.13446075 -0.2044919 0.19151671 -0.074483469 0.99652439 0.037300821 0.12088258
-0.12667775 -0.2044919 0.19538788 -0.22445992 0.97436881 0.014935957 0.1450426
-0.11928625 -0.2032654 0.19349629 -0.30431494 0.94909889 0.081263632 0.1575014
0.11933234 -0.20369695 0.19670969 -0.63021135 -0.68113101 -0.37268502 0.16711263
0.12661588 -0.2044919 0.19328173 0.1286809 0.99115145 -0.032556381 0.15918981
0.13454704 -0.2044919 0.19756775 -0.034884047 0.99505424 -0.093005896 0.20803142
0.14320992 -0.20428814 0.19644322 -0.45726126 0.81864572 -0.34746405 0.14694571
-0.14635321 -0.19436042 0.19380006 0.59061027 0.77368456 -0.22932877 0.24349731
-0.1187093 -0.19140589 0.19434986 0.80352032 -0.58121997 -0.12860167 0.19568783
0.11775652 -0.19656581 0.19718297 -0.65196973 -0.64884251 -0.39235055 0.15336801
0.12129249 -0.19747947 0.19183522 0.57369733 0.81585985 0.072415173 0.17713852
0.14492317 -0.19230482 0.19706284 -0.70135343 0.45802239 -0.54618567 0.19332124
-0.14727387 -0.18652235 0.19243808 0.87215537 0.35761794 -0.33384794 0.22194828
-0.12143838 -0.18181545 0.1903124 0.98302656 -0.18091142 0.030495744 0.17593984
-0.11725684 -0.18540181 0.19649862 0.9420104 -0.23140407 -0.24304044 0.18827531
0.11871177 -0.18538082 0.19573826 -0.88893139 -0.080450252 -0.45091993 0.22281355
0.12151875 -0.18249772 0.19149302 -0.98914963 0.13537845 -0.057058554 0.23115712
0.14668931 -0.18368883 0.19439177 -0.76203161 0.31300575 -0.56686437 0.17490135
-0.14436018 -0.17371288 0.19674857 0.92723 0.059313279 -0.36976546 0.24011114
-0.11721468 -0.17435117 0.19656098 0.92776507 -0.0033505841 -0.37314978 0.21354179
0.11818886 -0.17427731 0.19652911 -0.92042899 0.14464684 -0.36316347 0.22180532
0.12164739 -0.17994672 0.19129848 -0.99705613 -0.075240612 -0.01476278 0.21208459
0.1449029 -0.17335956 0.19709349 -0.6896475 0.18134488 -0.7010709 0.19112517
-0.14591756 -0.16181734 0.1944446 0.91769665 0.25805408 -0.30206114 0.2391689
-0.1206783 -0.16567019 0.19143689 0.97346473 0.12744804 -0.19006142 0.21617675
-0.11511503 -0.16216254 0.19966719 0.88284838 -0.0076889647 -0.46959519 0.21193136
0.11750818 -0.1625049 0.19755855 -0.78214926 0.038210306 -0.62191844 0.21222587
0.14378974 -0.16141519 0.19877702 -0.68378735 0.082225084 -0.72503376 0.24588448
-0.14410806 -0.15415932 0.19712159 0.79874104 0.14146233 -0.58480871 0.22716057
-0.12106113 -0.15380004 0.19087052 0.9990015 -0.044027265 0.0075896634 0.21923998
-0.11668526 -0.15563732 0.1973442 0.88301325 0.016676854 -0.46905172 0.2172225
0.11724599 -0.15257236 0.19795507 -0.78599387 0.07507582 -0.61365885 0.23033269
0.14470273 -0.15248936 0.19739623 -0.86623704 -0.01722895 -0.49933612 0.21877292
-0.14561737 -0.14235593 0.19488871 0.76343071 0.051690008 -0.64381808 0.21261637
-0.11803988 -0.14921537 0.19534016 0.93968469 0.25200182 -0.23127395 0.24115825
0.11920179 -0.14036307 0.19499718 -0.95698559 -0.20059928 -0.20961481 0.24145311
0.12144978 -0.14554648 0.19159734 -0.99672049 -0.04841581 -0.06483905 0.22284012
0.14652283 -0.14494169 0.1946435 -0.79015851 -0.13526048 -0.59779102 0.22103384
-0.14433363 -0.13200966 0.19678786 0.79359275 0.16105275 -0.58674747 0.21942443
-0.12129226 -0.13648364 0.1905286 0.98939395 0.14105524 -0.034682583 0.22978796
-0.11795536 -0.13113567 0.19546521 0.95866925 -0.052599315 -0.27961856 0.23124814
0.11843666 -0.13553439 0.19615431 -0.86887681 -0.1286156 -0.47802836 0.25947565
0.12076603 -0.13129734 0.19263144 -0.98414642 -0.11632498 -0.13388219 0.24942493
0.14682251 -0.13251281 0.19419029 -0.68405479 -0.06638252 -0.72640383 0.20659646
-0.14532976 -0.12651169 0.19531418 0.79845613 -0.023722162 -0.60158545 0.23950864
-0.11897853 -0.12973125 0.19395152 0.97608078 0.11804342 -0.18257079 0.23495343
0.11642532 -0.1257641 0.19919625 -0.77652925 0.090010494 -0.62361884 0.22095549
0.12099554 -0.12022309 0.19228432 -0.89957166 -0.4361228 -0.023825821 0.23371176
0.14483342 -0.12455969 0.19719857 -0.70168602 -0.022747939 -0.71212304 0.21216738
-0.14524806 -0.11655542 0.19543509 0.74667966 0.033506572 -0.66433942 0.23388152
-0.12085201 -0.11362658 0.19117992 0.99292904 -0.096452571 0.069200978 0.2221258
-0.11564938 -0.11734635 0.19887669 0.78264982 -0.1360251 -0.60741782 0.21943009
0.11843342 -0.11420812 0.19615924 -0.94867098 -0.065539733 -0.30939937 0.2105523
0.14659791 -0.11807197 0.19453001 -0.75543094 -0.05310658 -0.65307254 0.18822154
-0.14591718 -0.10588008 0.19444518 0.6380372 -0.27564105 -0.71897882 0.22446032
-0.12091096 -0.10771061 0.19109268 0.9682585 -0.21215674 0.13215527 0.22983412
-0.1165182 -0.10566929 0.19759132 0.7707094 -0.19732241 -0.60586369 0.1999507
0.1174984 -0.10713658 0.19757335 -0.80448705 0.23070805 -0.5473339 0.20650879
0.12075205 -0.10343616 0.1926526 -0.76081175 0.64879149 -0.015331536 0.22184946
0.14958714 -0.10223442 0.19000915 -0.89815837 -0.016013259 -0.4393805 0.26051724
-0.14557984 -0.095076382 0.19494422 0.8352598 0.27140766 -0.4782038 0.22573991
-0.12112334 -0.090954356 0.19077851 0.96424246 -0.19517881 0.1792811 0.23245402
-0.11798117 -0.093876682 0.195427 0.91370273 0.085514031 -0.39728409 0.23984666
0.11886317 -0.095743343 0.19550928 -0.9258287 0.22715984 -0.30205914 0.23435061
0.14661261 -0.096104205 0.19450776 -0.82977289 -0.10928798 -0.54729623 0.22845149
-0.14620784 -0.085163973 0.19401519 0.82787806 0.18234362 -0.53044206 0.20488106
-0.11589549 -0.085345387 0.1985126 0.78600466 0.11547776 -0.60733968 0.18681511
0.11749008 -0.085271455 0.19758594 -0.84129697 0.018399041 -0.54026008 0.20604062
0.14645404 -0.08780393 0.19474758 -0.80786949 -0.0083507746 -0.58930218 0.19926839
-0.14742492 -0.07555794 0.19221462 0.87882847 0.21120331 -0.42784768 0.21239996
-0.11780722 -0.074045554 0.19568437 0.82337439 0.1166786 -0.55537438 0.22938392
0.11802583 -0.073658958 0.19677566 -0.88245589 0.043370042 -0.46839148 0.21171582
0.1451603 -0.076648407 0.19670419 -0.85471743 0.036562964 -0.51780421 0.21795282
-0.14467971 -0.064788207 0.1962759 0.77044809 -0.027979357 -0.63688856 0.22407633
-0.11833162 -0.061771039 0.19490856 0.74003559 -0.61422753 -0.27399263 0.23109463
0.11768798 -0.062605888 0.19728661 -0.64926547 -0.70424616 -0.28721374 0.22199363
0.1462505 -0.065283664 0.19505544 -0.74490696 -0.49137264 -0.45129439 0.22859067
-0.14632888 -0.057316966 0.19383612 0.76771766 -0.09382166 -0.63388264 0.20473041
-0.12132382 -0.051873758 0.1904819 -0.20084244 0.97948796 -0.016297795 0.18951192
-0.11706419 -0.056443207 0.1967836 0.39006668 -0.82494152 -0.40904689 0.24062312
0.11733881 -0.056966349 0.19781469 -0.64243174 -0.74725837 -0.16996035 0.20774938
0.12099545 -0.056652863 0.19228449 -0.40442586 -0.90721095 -0.11579269 0.17920557
0.14794105 -0.058825426 0.19249865 -0.86021191 0.099767327 -0.50008202 0.2239484
-0.14481694 -0.045795295 0.19607286 0.82769603 0.27123287 -0.49127582 0.23032409
-0.12080328 -0.045221746 0.19124058 0.13352562 0.99104261 0.0023512263 0.14287849
-0.11438327 -0.043445103 0.19543442 -0.056539375 0.99677825 0.056888707 0.095482975
-0.10534628 -0.043377098 0.19842249 0.35082233 -0.90061945 -0.25653151 0.070088528
-0.094613262 -0.043377101 0.19559921 -0.12381572 0.98762262 0.096286356 0.024881482
-0.084673941 -0.043377098 0.19657946 -0.080493733 0.996333 0.029004144 0.010107345
-0.075264379 -0.043377094 0.19667986 -0.00095611758 0.9999755 -0.0069333599 0.00015761235
-0.064611144 -0.04337709 0.19345808 0.0035102891 0.99858505 -0.0530615 0.0092557669
-0.047319077 -0.043377098 0.19245416 0.015927322 0.99847662 -0.052828014 0.0067944573
-0.028128322 -0.043377094 0.1915563 -0.014556943 0.99871773 -0.048486214 0.0071529704
-0.016069092 -0.043377098 0.19258077 0.0075518568 0.99904311 -0.043078642 0.0072158249
-0.004245013 -0.043377094 0.19780844 -1.4261175e-07 1 -6.5881838e-09 1.5235776e-06
0.0040872884 -0.043377098 0.19344051 0.0055922549 0.99978006 -0.020214763 0.0019442873
0.013468821 -0.043377098 0.19697265 -4.6442972e-07 1 -5.0580329e-06 2.9748924e-07
0.025145838 -0.043377098 0.19593331 -0.003115338 0.99974364 -0.022426937 0.0010832365
0.043997217 -0.043377098 0.19558349 -0.0003012878 0.99998808 -0.0048782695 9.4739844e-05
0.053091809 -0.043377098 0.19375135 0.0027844133 0.99898463 -0.044966511 0.0072156102
0.062810004 -0.043377098 0.19424741 -0.008371965 0.99876297 -0.049014926 0.0079431506
0.07568422 -0.043377098 0.19701695 9.7677787e-07 1 4.4626431e-06 6.1277564e-07
0.085358858 -0.043377094 0.19612265 0.078084618 0.99597216 0.044070628 0.012558691
0.096566409 -0.043377098 0.19447568 0.22231182 0.9748944 -0.012581669 0.035732206
0.10719854 -0.043377094 0.1939421 -0.39634711 -0.91235542 -0.1025498 0.072892249
0.11612371 -0.04610309 0.19905892 0.13494623 0.9889878 -0.060766689 0.20198357
0.14608181 -0.046487082 0.19531055 -0.83620781 0.17650478 -0.51923263 0.16343342
-0.14480805 -0.033503484 0.19608597 0.7981379 0.19900171 -0.56866008 0.11392248
0.14650416 -0.033529885 0.19467178 -0.80772007 0.14488608 -0.57148606 0.087359637
-0.1465942 -0.023755239 0.1934436 0.8284961 -1.3053019e-06 -0.55999482 1.9919735e-05
0.14642276 -0.021502687 0.19479489 -0.83412379 -5.933166e-07 -0.55157727 0
-0.14563426 -0.016308498 0.19486375 0.82848674 -1.2394102e-06 -0.56000859 7.6717788e-06
0.14335611 -0.011591844 0.19943282 -0.83413899 -1.0379147e-06 -0.55155426 1.4246101e-06
-0.14537813 -0.0052078641 0.19524264 0.82845968 1.0559233e-06 -0.5600487 0
0.1456899 -0.0049428628 0.19590326 -0.8341257 -2.0669504e-06 -0.55157441 0
-0.14403506 0.0060963794 0.19722958 0.82849264 1.2881782e-06 -0.56 4.2308588e-06
0.14669281 0.0057369135 0.19438651 -0.83415419 6.8558421e-07 -0.55153131 3.6894689e-06
-0.14711207 0.015660334 0.19267745 0.82844901 7.4260151e-06 -0.56006444 0
0.14676675 0.012907729 0.19427463 -0.8341344 -2.4680676e-07 -0.55156118 0
-0.14326113 0.023433436 0.19837451 0.82537025 -0.052443966 -0.5621509 0.046860937
0.14590679 0.025313014 0.19557524 -0.82732183 -0.055317111 -0.55899787 0.04904747
-0.11315328 0.033579942 0.19241531 -0.069302276 -0.99312186 -0.094372608 0.15354417
-0.10679838 0.030983601 0.19437177 0.49408823 0.84530312 -0.20332128 0.094913617
-0.091978095 0.030983603 0.19657958 0.27848276 0.95842934 -0.06213304 0.070098758
-0.084718682 0.030983601 0.19660917 -0.134165 -0.99085528 0.014336976 0.034643285
-0.065230079 0.030983603 0.19215731 -0.024428517 -0.98064536 -0.1942624 0.032031354
-0.052310027 0.030983601 0.19659998 -0.027347172 -0.99615264 -0.083259158 0.011603698
-0.041469023 0.030983601 0.19529837 0.019884024 -0.9874227 -0.15684737 0.022482527
-0.033355732 0.030983601 0.19597854 -0.012782276 -0.98779768 -0.15521751 0.025107883
-0.025810193 0.030983601 0.19329554 0.023772271 -0.98716134 -0.15794748 0.021274209
-0.01519445 0.030983603 0.19398896 0.0019474754 -0.9900763 -0.14051659 0.019753009
-0.0031701054 0.030983603 0.19487794 0.017308088 -0.98707217 -0.1593392 0.024334164
0.0070961942 0.030983601 0.19634801 -0.012424164 -0.99225658 -0.12358177 0.015847607
0.011822733 0.030983599 0.19610329 -0.010154537 -0.99371833 -0.11144833 0.011566391
0.025293151 0.030983603 0.19313009 -0.019274108 -0.97725409 -0.21119423 0.02492407
0.034873243 0.030983601 0.19597979 0.0093459161 -0.99524182 -0.09698648 0.010279795
0.040776055 0.030983601 0.1938616 0.032440364 -0.98118412 -0.19032931 0.02370674
0.055216841 0.030983601 0.19523075 -0.0058596944 -0.99610746 -0.087952875 0.011968949
0.060201585 0.030983601 0.19551162 -0.019741444 -0.99555123 -0.092130646 0.013699665
0.075067505 0.030983601 0.19656534 0.012543546 -0.99756593 -0.068592198 0.0087320535
0.088267177 0.030983603 0.19319737 0.12825093 -0.99160343 -0.016558269 0.034021661
0.095330752 0.030983603 0.19498989 -0.21219529 0.97542661 -0.059296571 0.065298147
0.10358677 0.030983599 0.19601679 -0.40392879 0.89713639 -0.17885128 0.093916304
0.11423332 0.035815589 0.19595155 0.021078879 -0.99969983 0.012487985 0.14827384
0.14709142 0.037419751 0.19378364 -0.83778626 -0.0754878 -0.54075468 0.1322186
-0.14509697 0.044159573 0.19565858 0.76473939 0.00095222093 -0.64433903 0.17488591
-0.11327449 0.046339698 0.19592947 0.52481395 0.83473784 -0.16668256 0.21561956
0.11535376 0.044471134 0.19425704 0.28736043 -0.95738488 -0.028949151 0.22451004
-0.14552933 0.055505503 0.19501899 0.69590431 -0.0014073181 -0.71813309 0.17735176
-0.11256578 0.052115977 0.19697794 0.8691954 0.37822139 -0.31850877 0.20629229
0.11436693 0.056195375 0.19574948 -0.99852228 0.052910693 -0.012398557 0.25359342
0.14671232 0.054095231 0.19435698 -0.82238436 0.042597201 -0.56733537 0.051723637
-0.14548111 0.065032326 0.19509029 0.77064538 -0.16049598 -0.61672252 0.19230163
-0.11406957 0.063062206 0.19475324 0.96465206 -0.25546566 -0.064681485 0.23970614
0.11524391 0.065247178 0.19442317 -0.98485506 -0.098289475 -0.14282697 0.24592905
0.14569657 0.06579563 0.19589317 -0.89518988 -0.14318475 -0.42205834 0.19693576
-0.14406365 0.07237269 0.19718729 0.7872715 0.0059412988 -0.61657792 0.1912951
-0.1140554 0.077241398 0.19477421 0.9399156 0.1884329 -0.28469589 0.22300127
0.11767944 0.079343513 0.19073972 0.10111481 -0.99351883 -0.051923785 0.24609107
0.14704435 0.077332228 0.19385481 -0.88790053 0.01841021 -0.45966682 0.26702809
-0.14626141 0.083171353 0.19393593 0.67515504 -0.10566089 -0.73006946 0.16117477
-0.11228662 0.086398222 0.19739094 0.97290158 0.12044964 -0.19736852 0.24809189
0.11461373 0.082437254 0.19537623 -0.97105342 0.21336313 -0.10738423 0.24247907
0.14544882 0.08459603 0.19626787 -0.95709658 0.20238607 -0.2073791 0.25041032
-0.14461961 0.096026845 0.19636479 0.77793771 0.047834527 -0.62651789 0.20909756
-0.11298473 0.094835743 0.19635813 0.97287065 -0.15550469 -0.1712922 0.2485484
0.11394795 0.094882093 0.19638316 -0.95467526 -0.19005652 -0.22907151 0.23458609
0.14816524 0.09568119 0.19215958 -0.86474371 0.044208687 -0.50026381 0.23089834
-0.14699641 0.10259597 0.19284858 0.78058809 0.032403473 -0.62420535 0.15587594
-0.11596507 0.10704724 0.19194904 0.9730283 -0.22612815 -0.045628622 0.22953866
0.11510718 0.10404444 0.19462995 -0.98368019 0.0083993431 -0.17972915 0.25985733
0.14559595 0.10463089 0.19604534 -0.9083696 0.18259344 -0.37619725 0.22282666
-0.11397704 0.11689355 0.19489014 0.9986943 0.012739784 -0.049471404 0.22241949
0.11636632 0.11647466 0.19272566 -0.99163616 -0.085188858 0.096956588 0.25469598
0.14586903 0.1132075 0.19563232 -0.74479568 -0.17444295 -0.64408779 0.22003263
-0.14472833 0.12389715 0.19620395 0.85126191 -0.063440271 -0.52089202 0.15356514
-0.1125304 0.1260578 0.19703031 -0.38459903 -0.91468054 -0.1242699 0.23236865
0.11442908 0.12496548 0.19565549 -0.80848795 -0.58605093 0.05377407 0.23527056
0.14528501 0.12738472 0.1965156 -0.7826997 0.076574497 -0.61767113 0.14947277
-0.14812566 0.13884838 0.19117795 0.77480018 -0.015420912 -0.63201803 0.10129121
-0.11301122 0.1354183 0.19631895 0.96924317 0.20092182 -0.14211988 0.22064981
0.11449853 0.13337517 0.19555047 -0.99982643 0.016904166 0.0078433482 0.19985387
0.14513645 0.1341482 0.19674025 -0.83305091 -0.013478451 -0.5530321 0.15332496
-0.14577848 0.14367579 0.19465035 0.74755603 -0.075510204 -0.65989256 0.15219174
-0.11516349 0.14349678 0.19313489 0.99775183 -0.041803606 -0.052380953 0.21905774
0.11637738 0.1468744 0.19270894 -0.90273178 0.38813296 0.18554804 0.23751158
0.14573197 0.14119191 0.19583961 -0.8591857 -0.021765837 -0.51120079 0.19109763
-0.14706495 0.1562725 0.19274715 0.71905309 -0.026198842 -0.69446105 0.15930459
0.11592241 0.15610385 0.19339703 -0.8659212 -0.4163973 0.27711692 0.23899317
0.14852369 0.15856254 0.19161749 -0.79906255 -0.029874962 -0.60050529 0.12074619
-0.14617695 0.16346355 0.19406085 0.82073009 -0.13114505 -0.55606037 0.22397907
-0.11502936 0.16264099 0.19333331 0.99585241 -0.014256647 -0.089860156 0.19928688
0.11383983 0.16293001 0.19654666 -0.99288493 -0.11737356 0.020075118 0.24221663
0.14717488 0.16672739 0.19365738 -0.80482137 0.026686626 -0.59291685 0.1591498
-0.11332094 0.17638731 0.19586079 0.99778181 0.047061075 -0.047080737 0.24135527
0.11247693 0.17027804 0.19860791 -0.95172113 -0.29924881 -0.068388723 0.20401503
0.14431728 0.17676881 0.19797918 -0.80626851 -0.014641593 -0.5913685 0.14317431
-0.14321657 0.1823802 0.19844046 0.84406859 -0.20731255 -0.49453989 0.17208375
-0.1127368 0.18653649 0.19672494 0.91007119 0.4024207 -0.099135928 0.2616531
0.1123732 0.18453863 0.19876479 -0.85962975 0.27942207 -0.42773819 0.18519817
0.14422651 0.18684661 0.19811647 -0.75578666 -0.2333028 -0.61184669 0.15620174
-0.14533484 0.19633916 0.19530669 0.58673573 -0.70947897 -0.39035973 0.15960743
-0.1116698 0.19474068 0.19830345 -0.28587431 -0.95474422 0.082093917 0.1715159
0.11475684 0.19521585 0.19515981 0.286529 -0.95647776 0.055239942 0.16673324
0.14462796 0.19462933 0.19750932 -0.58321816 -0.72288394 -0.37053385 0.1675988
-0.14489691 0.20321393 0.19405515 0.44885081 -0.8191753 -0.35705012 0.10961331
-0.13331768 0.20449191 0.19161136 0.14526182 -0.97910988 -0.14227694 0.14611025
-0.12265956 0.2044919 0.19418764 0.0027822861 -0.99922985 -0.039139226 0.15494156
-0.11416085 0.20337836 0.19590499 -0.22159407 -0.97504729 0.013375525 0.13419007
0.11801964 0.2028212 0.19444661 0.26513845 -0.96416867 0.0089711277 0.13979129
0.12381829 0.2044919 0.19457245 0.11208721 -0.99368876 0.0043695723 0.16139591
0.13288645 0.20449191 0.19546117 0.069231518 -0.99758065 0.0063111135 0.12954876
0.14433643 0.2034494 0.19368538 -0.35315418 -0.9285866 -0.11405666 0.14460699
-0.13593955 -0.20055968 0.20920607 0.66334498 0.69519413 -0.27690887 0.14975844
-0.11558624 -0.20355754 0.20274793 -0.52431184 0.81075126 0.26034489 0.17260621
0.10944609 -0.20274347 0.2097515 0.50024784 0.8018142 0.32687306 0.13399495
0.11152825 -0.20411521 0.20745745 0.56064832 0.73700726 0.37748358 0.1230647
0.127891 -0.2044919 0.2074364 -0.2333694 0.96778858 -0.09446732 0.18733886
0.13412803 -0.20368919 0.20437865 -0.08120738 0.99613667 0.033420946 0.21595564
0.14116624 -0.20420447 0.20245838 -0.3842712 0.8763817 -0.29032874 0.16061692
-0.1413822 -0.19612771 0.20115422 0.7108618 0.61713743 -0.33736756 0.16654575
-0.13759437 -0.19064003 0.20675795 0.84078526 0.33869767 -0.42233157 0.20284693
-0.11324659 -0.19828922 0.20243138 0.64637887 -0.65392965 -0.39315432 0.16796863
0.11436184 -0.19323453 0.20231703 -0.70653778 -0.32822454 -0.62695533 0.2145358
0.13743772 -0.19811232 0.20838372 -0.72346032 0.56088507 -0.4025085 0.194225
-0.13932358 -0.18849814 0.20419973 0.82571518 0.35335201 -0.43970084 0.19349138
-0.11370514 -0.18168713 0.20175299 0.85296226 -0.17186226 -0.49286777 0.19942506
-0.10991116 -0.18357897 0.20736581 0.75048697 -0.24316125 -0.61452568 0.17901899
0.11541513 -0.18880019 0.20072404 -0.81542414 -0.25514922 -0.51959819 0.21435314
0.13745071 -0.18434711 0.20836405 -0.87692606 0.31599504 -0.36214355 0.2082586
-0.14024603 -0.17570317 0.20283505 0.92232311 0.09135057 -0.37546656 0.24904683
-0.13789459 -0.17286876 0.20631379 0.71116585 -0.18207394 -0.67903775 0.23401539
-0.11041725 -0.17717414 0.20661709 0.691863 -0.08578258 -0.71691483 0.20652951
-0.10965121 -0.17436872 0.20775038 0.73048383 -0.14573462 -0.66719925 0.19841878
0.11293408 -0.17649505 0.20447634 -0.84814399 0.083352126 -0.52316749 0.19013913
0.13872403 -0.17671663 0.2064383 -0.65310669 -0.0019752232 -0.75726336 0.21467087
-0.14097051 -0.16300435 0.20176327 0.85532695 -0.041170377 -0.51645017 0.23909217
-0.13736904 -0.16730505 0.20709127 0.53739864 -0.021464588 -0.84305513 0.24704032
-0.11172043 -0.16850093 0.20468917 0.70186961 0.0088091884 -0.71225101 0.2144049
0.11436006 -0.16520369 0.20231968 -0.7331847 0.15710098 -0.66163397 0.21207695
0.13961223 -0.16850977 0.20509502 -0.72479594 0.1062121 -0.6807273 0.22195305
0.14140634 -0.16384293 0.20238163 -0.78267753 0.034554701 -0.62146753 0.21130979
-0.13883819 -0.15353288 0.20491783 0.83656883 0.069815986 -0.54339528 0.25177348
-0.11361931 -0.1581215 0.20187998 0.87499666 0.059705861 -0.48043332 0.20717104
-0.10948933 -0.15759504 0.20798986 0.77285868 0.080338009 -0.62947226 0.22623126
0.11464969 -0.15538377 0.20188168 -0.78893387 -0.15212247 -0.59535044 0.20405266
-0.1414834 -0.14602301 0.20100451 0.86500901 -0.071812272 -0.49659088 0.20900741
-0.13726309 -0.14424279 0.20724805 0.88614744 0.12051608 -0.44745797 0.23534189
-0.11104531 -0.14875804 0.20568794 0.76756936 0.13561411 -0.62645507 0.20454508
-0.10954162 -0.14484343 0.2079125 0.88350278 0.11503311 -0.45408183 0.18300603
0.1131081 -0.14669722 0.20421314 -0.7562961 0.031335711 -0.65347856 0.1960637
0.13863683 -0.14213639 0.20657016 -0.65650076 -0.061440274 -0.75181901 0.22800541
0.14224879 -0.14624666 0.20110753 -0.61788464 0.093711868 -0.78066427 0.22572719
-0.13839965 -0.13348192 0.2055666 0.77275974 -0.0053169071 -0.63467646 0.22950758
-0.1094224 -0.13502708 0.20808889 0.79350156 -0.10722537 -0.5990476 0.19424301
0.11409429 -0.13360436 0.20272164 -0.91346544 0.021025339 -0.4063729 0.21713929
0.13804738 -0.13615546 0.20746164 -0.85801685 -0.02750659 -0.51288444 0.22436453
0.14074594 -0.13621329 0.20338041 -0.67741305 0.063226186 -0.73288065 0.23871763
-0.14063619 -0.1249292 0.20225787 0.75777888 -0.13225074 -0.63896859 0.21386968
-0.13541588 -0.12013869 0.20998079 0.82765085 -0.20565316 -0.52220774 0.22627437
-0.11108534 -0.1276799 0.20562872 0.7258411 -0.19572252 -0.65942967 0.19659165
0.11200646 -0.12349452 0.20587927 -0.89834493 -0.10386272 -0.42683589 0.20988935
0.14065601 -0.12704943 0.20351642 -0.66188687 0.37678909 -0.64802444 0.24842775
-0.13943197 -0.11544418 0.20403937 0.7552343 -0.20406218 -0.62288028 0.22117579
-0.11256555 -0.11679019 0.20343888 0.63152301 -0.04045416 -0.77430105 0.19548111
0.11332396 -0.1129136 0.20388667 -0.81389505 0.12240409 -0.56797194 0.21218112
0.14127141 -0.11556813 0.2025857 -0.83754975 0.13575631 -0.52922642 0.19877055
-0.14019178 -0.1056236 0.20291536 0.67241186 -0.050523166 -0.73845083 0.25018641
-0.13821037 -0.105626 0.20584664 0.59085292 -0.074846193 -0.80330002 0.22920094
-0.11430666 -0.10643257 0.20086311 0.71640056 -0.073000096 -0.69385964 0.2019753
0.10996628 -0.10537212 0.20896477 -0.72375453 -0.036624487 -0.68908501 0.20714682
0.11277867 -0.10099295 0.20471138 -0.84783363 -0.0082086558 -0.53019875 0.19224052
0.13937679 -0.10770336 0.20545107 -0.70492029 -0.03671198 -0.70833582 0.21502167
-0.13750917 -0.096347168 0.20688397 0.72967881 0.11565965 -0.67393738 0.23573732
-0.11035965 -0.096384466 0.20670232 0.7873596 -0.050549809 -0.61441809 0.19295208
-0.1084749 -0.093125872 0.20949061 0.78120446 0.041296002 -0.62290788 0.18830851
0.11251099 -0.094191477 0.2051162 -0.7239148 0.14229108 -0.67505604 0.21356201
0.1370327 -0.096441858 0.20899625 -0.72412634 0.20721072 -0.657803 0.20354125
0.14135489 -0.09060429 0.20245942 -0.68462491 0.093480617 -0.72287625 0.21706906
-0.14087343 -0.084812179 0.20190692 0.72791445 0.040629245 -0.68446326 0.21694112
-0.13558142 -0.080122173 0.2097359 0.79142714 -0.093280725 -0.6041041 0.19023944
-0.11359406 -0.083217815 0.20191732 0.81759143 0.028951056 -0.5750705 0.19258103
0.11524851 -0.085930645 0.20097604 -0.89972389 -0.10526872 -0.42357448 0.19766223
0.14237434 -0.084576532 0.20091763 -0.81766915 0.16695592 -0.55094731 0.2174798
-0.13859245 -0.073711991 0.20528133 0.70871156 0.027979188 -0.70494336 0.2031977
-0.11299962 -0.073475584 0.20279674 0.75214696 -0.087040521 -0.65322196 0.21849777
0.11214057 -0.072157338 0.20567641 -0.7123937 0.065208368 -0.698744 0.20742768
0.1411726 -0.070705391 0.20273513 -0.78561258 -0.14138642 -0.60234767 0.22737718
-0.14126553 -0.067402326 0.20132682 0.72596192 -0.088199824 -0.68205583 0.20571975
-0.13799301 -0.065279812 0.2061682 0.74380344 -0.13371259 -0.65488732 0.22081992
-0.11325209 -0.066127755 0.20242324 0.73585117 -0.30273446 -0.60570192 0.18121886
0.11187559 -0.068228774 0.20607716 -0.51795304 -0.30601627 -0.79879832 0.21459089
0.13773453 -0.061995946 0.20793481 -0.6468156 0.039232727 -0.76163667 0.21523552
-0.14005353 -0.050183944 0.20311984 0.69927222 -0.033209555 -0.71408355 0.22170864
-0.13644889 -0.054428209 0.20845257 0.74415541 0.044773117 -0.66650432 0.23530057
-0.11135866 -0.053635083 0.20522438 0.29166824 -0.90173239 -0.31907424 0.18815503
-0.1090728 -0.052551478 0.20860605 0.23557992 -0.94504064 -0.22671644 0.17644855
0.10998096 -0.054273631 0.20894259 -0.33937046 -0.92513537 -0.17015366 0.21624507
0.11266518 -0.051878303 0.20488301 0.28817654 0.95735413 0.020672275 0.2038971
0.13826758 -0.051414043 0.20712864 -0.69359571 0.2236852 -0.68475544 0.22476476
0.14154482 -0.051461935 0.20217219 -0.78551072 0.12658012 -0.60576427 0.19822772
-0.14132635 -0.045359522 0.20123684 0.72666776 0.40042073 -0.55822682 0.24775098
-0.11236972 -0.046458572 0.20372863 -0.090331629 0.99291664 0.07718017 0.16602944
-0.10275006 -0.043377098 0.2063086 0.2107306 -0.95765227 -0.1962008 0.096226595
-0.09737955 -0.043377094 0.20436576 0.32886043 -0.91086441 -0.24935277 0.065852948
-0.083017334 -0.043377101 0.20702416 -0.12500921 0.98708087 0.10022002 0.022017989
-0.072150528 -0.043377098 0.20519507 -2.0194989e-06 1 2.7411244e-07 1.8159579e-06
-0.068407387 -0.043377101 0.20354348 -2.4009037e-06 1 6.9755238e-06 2.3350415e-06
-0.052662551 -0.043377098 0.20589378 -0 1 -0 8.084142e-07
-0.046445448 -0.043377098 0.20714252 1.0958074e-06 1 -4.0581635e-06 0
-0.036309905 -0.043377098 0.20001751 9.3610225e-07 1 -4.3115483e-06 5.1485659e-07
-0.025436474 -0.043377098 0.20495164 3.9253689e-07 1 -4.2501792e-06 0
-0.013863722 -0.043377098 0.20366499 1.2652453e-06 1 8.7582903e-06 2.6906395e-07
-0.0068271831 -0.043377101 0.20669046 -4.126525e-07 1 4.1224148e-06 5.3825431e-07
0.0046133874 -0.043377098 0.20314518 1.8914399e-07 1 1.0083257e-05 8.0659743e-07
0.015690913 -0.043377098 0.20095383 -2.5854945e-07 1 -5.7295773e-09 1.0458649e-06
0.023265356 -0.043377098 0.2054103 -8.0646538e-07 1 4.9107507e-06 2.9158409e-07
0.032861482 -0.043377101 0.20818673 -3.7174968e-07 1 3.8683688e-06 9.7967131e-07
0.052177511 -0.043377098 0.20939505 -6.1482012e-07 1 -4.2078163e-06 7.8140829e-07
0.061455324 -0.043377098 0.20123972 -2.0930233e-06 1 3.96429e-06 1.2654019e-06
0.076904111 -0.043377094 0.20711938 0.0069509004 0.99994659 0.0076499013 0.0002767517
0.085045233 -0.043377098 0.20552412 0.084250256 0.99594414 0.031576905 0.014260322
0.090173811 -0.043377098 0.20260787 0.13651022 0.98868495 0.062187158 0.03496287
0.1031075 -0.043377098 0.20086777 -0.3610329 -0.90609354 -0.22056669 0.085098319
0.11090519 -0.043377098 0.20671204 0.03905138 0.99263138 -0.11470774 0.2131976
-0.14168397 -0.034797505 0.20070776 0.73303986 0.27196729 -0.62344712 0.12946773
-0.13761598 -0.033641066 0.20672596 0.79350418 0.23122637 -0.56292576 0.11727442
0.14115806 -0.033227146 0.20275712 -0.82264775 0.073170111 -0.56382334 0.053933844
-0.14116579 -0.027626857 0.20147437 0.81468266 0.11756711 -0.56786448 0.068190165
0.1388593 -0.021380275 0.20623371 -0.83415872 -3.3740998e-06 -0.55152446 1.8827612e-05
0.14258659 -0.022098809 0.20059665 -0.83411545 1.1580658e-05 -0.55158985 0
-0.14078882 -0.013226461 0.20203207 0.82846028 6.1429037e-06 -0.56004786 0
-0.13550332 -0.010416463 0.20985147 0.82844776 1.7599987e-05 -0.56006628 0
0.13869159 -0.010204449 0.20648737 -0.83414978 -2.1806659e-06 -0.55153805 4.9325849e-06
0.14176068 -0.019942444 0.20184574 -0.83412862 5.6480826e-06 -0.55157 0
-0.1380578 -0.0022187848 0.20607233 0.82845891 7.5640321e-07 -0.56004983 0
0.13796212 -0.0074067209 0.20759059 -0.8341257 -4.3998552e-06 -0.55157441 0
0.14201897 -0.0078725433 0.2014551 -0.83412266 5.0478893e-06 -0.55157894 0
-0.141552 0.0039267801 0.20090301 0.82845604 1.5220639e-06 -0.56005412 0
-0.13661376 0.0064240112 0.20820868 0.82845575 1.2823991e-06 -0.56005448 0
0.13727924 0.0074232109 0.20862338 -0.83413386 2.4524584e-07 -0.55156213 0
-0.13934588 0.013085604 0.20416673 0.82845342 -8.6852815e-06 -0.56005794 0
0.13857388 0.018977907 0.20666538 -0.83417267 -6.5809227e-06 -0.5515033 2.4432355e-05
0.14143862 0.016725525 0.20233281 -0.83413291 -7.2647441e-07 -0.5515635 0
-0.14169203 0.020693511 0.20069586 0.83372748 -0.066642642 -0.54813969 0.049998004
-0.1380042 0.025138699 0.20615165 0.84668356 -0.083073653 -0.52557182 0.10406876
0.1391086 0.025241569 0.20585668 -0.82945508 -0.12642781 -0.54407746 0.11391684
0.14110248 0.021123722 0.20284118 -0.83415097 -5.0553108e-06 -0.55153608 6.3626699e-06
-0.14080088 0.039203655 0.20201424 0.7959742 -0.09563861 -0.5977276 0.21927096
-0.13821678 0.03204079 0.20583715 0.85308182 -0.024943558 -0.52118057 0.087902725
-0.10366886 0.033079844 0.20777591 -0.17390606 -0.98377001 0.044194769 0.13496242
-0.096208498 0.030983601 0.20849414 0.47885633 0.8356961 -0.26890266 0.078579903
-0.08578068 0.030983601 0.20435171 0.21160194 0.96581978 -0.14972199 0.043678973
-0.074848115 0.030983601 0.20217387 -0.046000201 -0.99882478 0.01526706 0.0030872643
-0.066848673 0.030983599 0.20448153 1.1274297e-05 -0.99999994 -0.00035946362 0
-0.013632871 0.030983601 0.20464832 3.1475756e-05 -0.99999958 -0.00095283537 9.4211396e-07
-0.005436528 0.030983601 0.2092461 1.0419411e-07 -1 1.1853092e-08 0
0.0013573617 0.030983601 0.20502076 -1.0957228e-07 -1 -6.1523588e-06 0
0.016119372 0.030983601 0.20505136 -9.1047593e-07 -1 -8.1330863e-06 0
0.024506554 0.030983601 0.20166519 0.0013145801 -0.99951714 -0.031043468 0.00096627575
0.035616316 0.030983601 0.20877098 -5.5477221e-07 -1 3.0456178e-08 0
0.043715864 0.030983601 0.20601788 -2.1883652e-06 -1 -9.2696082e-06 0
0.054800566 0.030983603 0.20506603 -1.9781558e-06 -1 -1.138213e-05 0
0.067020282 0.030983601 0.20475897 3.0356043e-05 -0.99994391 -0.010587927 0.00014797664
0.077450395 0.030983601 0.20519435 0.084096797 -0.9963097 0.017167702 0.015385129
0.083521932 0.030983601 0.20422341 0.1491802 -0.98485261 0.088378191 0.030655855
0.093006887 0.030983603 0.20427096 -0.35308367 0.87805158 -0.32304385 0.067468025
0.10676285 0.036015045 0.20616038 -0.15565018 0.96506035 -0.21078789 0.16367607
0.13912839 0.034913335 0.20582677 -0.82349348 -0.28162599 -0.49248886 0.22425976
0.14132376 0.033371851 0.20250653 -0.83147156 -0.22013411 -0.51009423 0.17148528
-0.13618639 0.048649035 0.20884094 0.82795471 -0.088989705 -0.55368936 0.19844395
-0.10597862 0.047327537 0.20672299 0.80173236 0.47128829 -0.3675766 0.1982737
0.10734974 0.043060903 0.20636216 -0.26721981 0.87649333 -0.40044111 0.22023988
0.11041636 0.042321142 0.20172426 -0.10872007 0.86849988 -0.48361957 0.17622335
0.13916665 0.04429847 0.20576887 -0.8069393 -0.085964821 -0.58434492 0.21518302
0.14104655 0.045047574 0.20292577 -0.79571378 -0.071691774 -0.60141492 0.19933148
-0.14069661 0.054456856 0.20216848 0.50221145 0.051780827 -0.86319309 0.25572997
-0.1385968 0.057324246 0.20527494 0.8419348 0.48278189 -0.24097167 0.24490382
-0.10568042 0.054951411 0.20716415 0.79264146 0.18945985 -0.5795036 0.2041121
0.10535552 0.055322658 0.20937818 0.14373146 0.41144466 -0.90003031 0.22231381
0.13706537 0.051665463 0.20894685 -0.89436072 -0.017829977 -0.44699112 0.19009148
0.14168398 0.056438167 0.20196171 -0.76691508 0.012875333 -0.64161944 0.16867161
-0.14022258 0.06277477 0.20286977 0.81783903 0.017623041 -0.57517713 0.25404134
-0.10542396 0.064783044 0.20754355 0.79356891 0.033140723 -0.6075772 0.18268301
0.10562235 0.0677412 0.20897461 -0.78117645 -0.056366172 -0.62176055 0.18963207
0.13778639 0.06621927 0.20785639 -0.87581927 -0.11318928 -0.46917892 0.18616302
-0.13731724 0.079520807 0.20716792 0.81376827 -0.044923745 -0.57945061 0.22811756
-0.11008383 0.074031711 0.20064975 0.84631288 0.013646684 -0.53251129 0.18845728
-0.10757422 0.075956918 0.20436245 0.87610978 -0.028185185 -0.48128709 0.19047309
0.10647175 0.078125812 0.20769003 -0.81483924 -0.052274071 -0.57732517 0.20167919
0.1396928 0.07649909 0.20497316 -0.92011529 0.096982077 -0.37945014 0.22454005
-0.14104386 0.087957785 0.20165476 0.66266692 0.18961339 -0.72451311 0.22882624
-0.13817774 0.086131237 0.20589489 0.88381219 -0.069724746 -0.46261698 0.25257662
-0.11048229 0.089817129 0.20006025 0.85656452 -0.01714698 -0.51575494 0.22176863
-0.10724863 0.086526722 0.20484412 0.89696199 -0.080583595 -0.43470174 0.1973705
0.10676184 0.085643008 0.2072513 -0.88394701 0.027731733 -0.46676412 0.22587301
0.13758078 0.084874734 0.20816731 -0.91575766 -0.014897289 -0.40145475 0.19548073
0.14165305 0.08891356 0.2020085 -0.89574683 0.15555845 -0.41646037 0.2440875
-0.14030416 0.096880011 0.20274907 0.94300246 -0.084636249 -0.32184324 0.24081416
-0.13720931 0.09796156 0.2073276 0.97128493 0.095565766 -0.21788239 0.28438908
-0.11024573 0.099195942 0.20041022 0.91016561 0.0098562445 -0.41412723 0.19416635
-0.1070463 0.094798297 0.20514345 0.88919401 0.18679291 -0.41766292 0.23356152
0.10825262 0.094716199 0.20499666 -0.70023149 -0.053895094 -0.71187866 0.24685264
0.13717327 0.097530454 0.20878364 -0.89558488 0.11047652 -0.43095562 0.20543683
0.14195293 0.095747724 0.20155498 -0.90539992 0.323228 -0.27527189 0.25131902
-0.10934725 0.10423862 0.20173943 0.8938272 0.092479438 -0.43877155 0.24971609
0.10748696 0.10700262 0.20615464 -0.80365342 -0.024648821 -0.59458697 0.18648274
0.13743012 0.10025906 0.20839518 -0.85417491 0.064627014 -0.51595414 0.21253425
0.14295276 0.10390491 0.20004284 -0.90436071 -0.01302758 -0.42657003 0.22238135
-0.14100409 0.11179253 0.20171359 0.85150683 0.046584852 -0.52227008 0.20718504
-0.13730803 0.11383185 0.20718157 0.8711139 -0.17012447 -0.46067163 0.2596294
-0.11016016 0.11145167 0.2005368 0.84758526 0.022245582 -0.53019273 0.22030279
-0.10793922 0.11537923 0.20382248 0.83394462 0.13741583 -0.53446543 0.27523819
0.10685387 0.11736276 0.20711213 -0.81042367 -0.12147127 -0.57311279 0.20612743
0.11134656 0.11628613 0.20031746 -0.76411307 -0.051460084 -0.64302659 0.18647961
0.13652837 0.11282076 0.20975897 -0.8455466 -0.044528197 -0.53204155 0.22570494
0.1411505 0.11417731 0.20276855 -0.7228834 -0.12913789 -0.67879528 0.24057513
-0.14127046 0.12535161 0.2013195 0.81921411 -0.082489327 -0.56752414 0.18011582
-0.13799201 0.12509565 0.20616968 0.81188434 0.0079397643 -0.58376426 0.1886978
-0.10819306 0.12603402 0.20344694 0.75519645 -0.0084581329 -0.65544397 0.22385252
0.10759154 0.12830776 0.20599648 -0.82301629 0.037816755 -0.5667575 0.13517831
0.13772665 0.12353916 0.20794669 -0.87849569 -0.080639705 -0.47089538 0.2157321
0.14192419 0.12278249 0.20159842 -0.74908191 -0.061158381 -0.65964836 0.20579268
-0.14071691 0.13436897 0.20213844 0.83331418 -0.10929237 -0.54188806 0.20597015
-0.13748099 0.13492717 0.20692568 0.80580562 -0.062905349 -0.58882952 0.20501544
-0.10807709 0.13834134 0.2036185 0.80224782 -0.011868488 -0.59687316 0.19963995
0.10857185 0.13443372 0.20451385 -0.85216349 0.057344593 -0.52012396 0.19710994
0.11129604 0.13590252 0.20039384 -0.96497595 -0.045207128 -0.25841391 0.23056252
0.14118679 0.13544972 0.20271368 -0.56958222 0.036973499 -0.82110232 0.2430381
-0.13740706 0.14557502 0.20703505 0.88507891 -0.11306925 -0.45149836 0.22019657
-0.10624241 0.14024803 0.20633274 0.84709102 -0.067260861 -0.52717435 0.20644277
0.1081205 0.1431011 0.20519648 -0.8152833 -0.10370498 -0.56970042 0.18162586
0.11090751 0.14946708 0.20098147 -0.76430875 0.041659229 -0.64350337 0.23775366
0.13708359 0.14469242 0.20891929 -0.76257414 0.26078406 -0.59200704 0.24714261
0.14205705 0.14815223 0.20139752 -0.83839893 0.058531515 -0.54190528 0.19337355
-0.13666311 0.15454103 0.20813565 0.93290824 0.040880926 -0.35778612 0.17366321
0.10835159 0.15571421 0.20484699 -0.82289618 0.027944891 -0.56750423 0.17601505
0.11031415 0.15843844 0.20187885 -0.74053973 0.066556983 -0.6687085 0.18786772
0.1387987 0.15592209 0.20632534 -0.62125438 -0.2295614 -0.74922925 0.24541241
0.14074138 0.15699728 0.20338732 -0.80236757 -0.071884222 -0.59248543 0.21445818
-0.14092581 0.16365094 0.20182942 0.85810912 -0.013971684 -0.51327729 0.19022784
-0.10540448 0.16425729 0.20757236 0.85116613 0.03730287 -0.52356917 0.2465405
0.10894138 0.16456531 0.20395501 -0.7775929 -0.010130621 -0.62868643 0.16227005
0.13956611 0.16145761 0.20516478 -0.68655485 -0.0091704465 -0.72702026 0.2147314
0.14039829 0.16079062 0.20390619 -0.73518866 0.049610067 -0.67604464 0.20730166
-0.14029965 0.17761299 0.20275575 0.84975564 0.0030277991 -0.52716815 0.1828849
-0.13711004 0.17359251 0.20747447 0.9312883 -0.062922172 -0.35880762 0.21969704
-0.10550474 0.17353508 0.20742404 0.81792933 -0.29851887 -0.4918111 0.22478853
0.10892755 0.17946047 0.20397593 -0.80293697 0.032605819 -0.59517151 0.13871165
-0.14097725 0.1859432 0.20175329 0.83363205 -0.21674858 -0.50801343 0.20501272
-0.13727471 0.18303545 0.20723085 0.8336699 -0.16031355 -0.52848291 0.17340554
-0.1072476 0.18106008 0.20484565 0.78455997 0.09159264 -0.61325079 0.21592693
0.10685515 0.18548897 0.20711017 -0.82548887 0.23329785 -0.51394582 0.16290437
0.11082983 0.18629208 0.20109895 -0.76926184 0.2655862 -0.58111989 0.16833328
0.13707754 0.18632708 0.20892845 -0.8194893 -0.37617648 -0.43235236 0.23190147
0.14137705 0.18420145 0.20242593 -0.80929756 -0.30193457 -0.50385815 0.16888875
-0.14118364 0.19835976 0.20144795 0.57206982 -0.71172857 -0.40765011 0.11856019
-0.13870227 0.19269951 0.20511889 0.66528136 -0.55935967 -0.49448702 0.15223651
-0.10706085 0.19498657 0.20512195 -0.5380711 -0.75823885 0.36817575 0.18701625
0.10649516 0.19679022 0.20765463 -0.66393197 0.6409902 -0.38513097 0.12570985
0.1112795 0.19369918 0.20041887 -0.64832056 0.54896009 -0.52756345 0.14703
0.13692331 0.19935225 0.2091617 -0.50473517 -0.80533975 -0.31091872 0.15118222
0.1422559 0.19587922 0.20109674 -0.51321143 -0.78549963 -0.34583861 0.14760228
-0.13470578 0.20449191 0.20064293 0.2632167 -0.93918318 -0.22057156 0.13043013
-0.12455563 0.2044919 0.20524314 0.089197218 -0.99156374 -0.094049878 0.12480032
-0.11323988 0.20440264 0.20453376 -0.20420682 -0.97521108 0.085222989 0.12902139
-0.10379592 0.20294783 0.20995209 -0.44863629 -0.84698874 0.28519383 0.14086705
0.10716822 0.20170309 0.2066367 0.56868744 -0.78652394 0.24077944 0.11552739
0.11552304 0.2044919 0.20582278 0.3069793 -0.93241787 0.19068454 0.11662935
0.1200313 0.2044919 0.20152003 0.18540727 -0.97302961 0.13724959 0.12873089
0.13306053 0.20449191 0.20344706 0.02544559 -0.99871445 0.043839559 0.13373549
0.14060351 0.20222834 0.20359582 -0.4003073 -0.88653064 -0.231986 0.12227048
-0.13262689 -0.20339763 0.21410684 0.43384737 0.88951296 -0.14332844 0.12786703
-0.12540016 -0.20449188 0.21562949 0.038689815 0.9903267 0.13325174 0.16982448
-0.11528827 -0.20449188 0.21262333 -0.27254602 0.92529511 0.26371875 0.14575627
-0.10482939 -0.20449191 0.21861216 -0.34125584 0.91260278 0.22516787 0.14435469
0.10483202 -0.20136631 0.21672972 -0.64290136 -0.67592609 -0.36028007 0.15762727
0.11501335 -0.2044919 0.21609032 0.14420603 0.98874313 0.039895423 0.14935768
0.12708826 -0.2044919 0.21431701 -0.16695006 0.97752988 -0.12869701 0.12343215
-0.1326932 -0.19566357 0.21400872 0.77077132 0.52693659 -0.35811916 0.21385394
-0.1295501 -0.19815698 0.21865864 0.73970377 0.61483079 -0.27353504 0.19311504
-0.10307162 -0.19720161 0.21748424 0.58107913 -0.68268305 -0.44304737 0.14492528
0.10464203 -0.19147564 0.21701708 -0.78965533 -0.2889052 -0.54127473 0.20749824
0.13232611 -0.19712195 0.2161144 -0.56314814 0.73512882 -0.37742525 0.15269309
-0.130742 -0.18780172 0.21689536 0.75049907 -0.088329203 -0.65494204 0.22762559
-0.10357863 -0.18648589 0.21673417 0.77784789 -0.3559137 -0.51795578 0.18193264
0.10534044 -0.18365262 0.21596083 -0.92907101 0.069895908 -0.36323765 0.20553285
0.13261215 -0.18663588 0.21568179 -0.8153314 0.36913246 -0.44606715 0.19011641
-0.13198128 -0.17063498 0.21506193 0.75315875 0.10654622 -0.64915311 0.23051727
-0.12961167 -0.17733184 0.21856755 0.78847075 -0.16896476 -0.59140915 0.20348918
-0.10482856 -0.17329499 0.214885 0.89325219 -0.091778919 -0.44008759 0.20782693
0.10584227 -0.17612126 0.21520185 -0.86255479 0.11105042 -0.49362642 0.18977146
0.13387223 -0.17444675 0.21377608 -0.93280381 0.11342667 -0.34206939 0.20543084
-0.13494784 -0.16291006 0.21067321 0.89580309 0.15680248 -0.41587219 0.27541298
-0.10459972 -0.1655048 0.21522355 0.83123654 -0.1881725 -0.5231033 0.20509639
0.10478549 -0.16299936 0.21680009 -0.83400244 -0.19325131 -0.51681119 0.23950763
0.13276093 -0.165389 0.2154568 -0.88331068 -0.037907373 -0.46725297 0.21837279
-0.13239799 -0.15585425 0.21444547 0.57017803 0.44953784 -0.68761379 0.24575076
-0.10413709 -0.15776357 0.21590798 0.78267735 0.1114918 -0.61236072 0.20443775
0.10601577 -0.15531841 0.21493945 -0.80331647 -0.13556436 -0.57991803 0.18574996
0.13360368 -0.15591957 0.21418224 -0.83318079 -0.091200173 -0.54542857 0.22902967
-0.13259369 -0.14219421 0.21415596 0.88856292 0.049039561 -0.45612615 0.22039902
-0.1294245 -0.14584066 0.21884444 0.80335534 0.061921697 -0.59227175 0.21230723
-0.10526263 -0.14318886 0.21424285 0.89072478 -0.029441094 -0.45358852 0.23103631
0.10758094 -0.14467123 0.21257231 -0.88421345 0.13312481 -0.44771019 0.21393868
0.13229859 -0.14601207 0.21615602 -0.82551426 0.0967656 -0.55602396 0.21463698
-0.13292144 -0.13476975 0.21367106 0.82192713 -0.030033732 -0.56880033 0.20992127
-0.10176992 -0.13655625 0.21940997 0.70987231 -0.012269577 -0.70422357 0.22552446
0.10695157 -0.13375314 0.21352416 -0.87283921 0.059555061 -0.48436049 0.18681796
0.13094187 -0.1359648 0.2182079 -0.86387694 0.076553099 -0.49785152 0.21832241
-0.1039144 -0.12480885 0.2162374 0.83012903 -0.12371729 -0.54367262 0.18101566
0.10574763 -0.12569779 0.215345 -0.91032416 0.19516149 -0.36499587 0.20315436
0.13178024 -0.12377598 0.21693997 -0.89670843 -0.15807013 -0.41343427 0.20131108
-0.13468796 -0.1186183 0.21105769 0.83976448 -0.23246923 -0.49066657 0.22461309
-0.10394152 -0.11486113 0.2161973 0.8531791 -0.1808164 -0.48927584 0.18997449
0.10716019 -0.11634286 0.21320868 -0.92700148 0.10061707 -0.36130938 0.21760161
0.13204616 -0.11408274 0.2165378 -0.91517675 -0.029363481 -0.40198168 0.23984703
-0.13298437 -0.10607752 0.21357797 0.79950058 -0.25170112 -0.54538554 0.23615131
-0.10633984 -0.10527458 0.21264923 0.81432498 0.0011017633 -0.5804081 0.19269942
