# .PCD v0.7 - Point Cloud Data file format
VERSION 0.7
FIELDS x y z normal_x normal_y normal_z curvature
SIZE 4 4 4 4 4 4 4
TYPE F F F F F F F
COUNT 1 1 1 1 1 1 1
WIDTH 645
HEIGHT 1
VIEWPOINT 0 0 0 1 0 0 0
POINTS 645
DATA ascii
0.15252993 0.20189694 -0.45400608 -4.3879281e-05 -1 7.7460958e-05 0
0.16415837 0.20189694 -0.45689082 -1.6997323e-05 -1 4.3908415e-07 0
0.17415018 0.20189692 -0.45352301 -0.037594501 -0.99922234 -0.011888354 0.0022937753
0.19397141 0.20189694 -0.45307648 -0.31526312 -0.94899786 -0.0035129078 0.046542004
-0.19193363 -0.20161182 -0.44373956 0.48663422 0.87282288 0.036977045 0.076456048
-0.18498591 -0.20161182 -0.44761401 0.3058188 0.95183569 0.021993335 0.045415446
-0.17454699 -0.20161183 -0.44672689 0.067927249 0.99768758 -0.0023012552 0.0066474117
-0.16548668 -0.20161183 -0.44402823 -1.3982401e-05 1 6.5309519e-05 0
-0.14521299 -0.20161183 -0.44198883 -7.7678651e-06 1 2.9403382e-05 0
-0.1239171 -0.20161183 -0.4448767 2.1313686e-05 1 -9.6694896e-07 0
-0.11302936 -0.20161183 -0.44534358 1.3636653e-05 1 6.6047622e-05 0
-0.1052107 -0.20161183 -0.44756502 -4.4559097e-06 1 3.2397587e-05 0
-0.098834261 -0.20161183 -0.44275838 1.624787e-05 1 3.7369449e-05 0
-0.085057653 -0.20161183 -0.44469664 2.1618533e-05 1 7.0135065e-05 0
-0.066104047 -0.20161183 -0.44204921 5.1667489e-06 1 6.0709121e-05 0
-0.053370561 -0.20161183 -0.44528809 9.8557621e-06 1 8.1775084e-05 0
-0.042158093 -0.20161183 -0.44278362 5.6558742e-06 1 6.1485924e-05 0
-0.038240433 -0.20161183 -0.44648477 2.7301996e-06 1 3.6075322e-05 0
-0.020600788 -0.20161183 -0.44180566 3.9468714e-06 1 2.1945603e-09 0
-0.014032265 -0.20161183 -0.44354415 1.0542052e-06 1 2.4953911e-08 0
-0.0037476495 -0.20161185 -0.44132996 0.00056241121 0.99999982 -0.00025053055 0
0.0031552725 -0.20161183 -0.4468146 0.00077291479 0.99999946 -0.00064720039 0
0.014372498 -0.20161183 -0.4455429 0.00042205903 0.9999994 -0.0010056845 0
0.027342837 -0.20161183 -0.44636071 1.0708429e-05 0.9999969 -0.0024660465 1.5703441e-05
0.034621034 -0.20161183 -0.44413868 -0.00049659773 0.99999762 -0.0020986595 0
0.045475312 -0.20161182 -0.44496599 0.00093861314 0.99999511 -0.002990484 0
0.051047627 -0.20161183 -0.44064939 9.7592827e-05 0.99999547 -0.0030040424 0
0.062516719 -0.20161185 -0.44639251 -0.00052917242 0.99999708 -0.0023540417 0
0.076678172 -0.20161183 -0.44392371 0.00011377642 0.99999583 -0.0028941175 0
0.085338771 -0.20161183 -0.44591826 -0.00043558958 0.99999619 -0.0027132044 1.12233e-05
0.092487991 -0.20161183 -0.44606307 5.4475149e-05 0.99999577 -0.0029125046 4.3183068e-06
0.10563648 -0.20161183 -0.44459859 -0.0009049456 0.99999583 -0.0027469883 0
0.11474431 -0.20161185 -0.44206986 0.00025311578 0.99999893 -0.001440242 0
0.12536776 -0.20161183 -0.44358253 0.00063403812 0.99999791 -0.0019632161 6.0477664e-06
0.13783665 -0.20161182 -0.44239789 -0.00022232581 0.99999785 -0.0020520219 0
0.14453213 -0.20161183 -0.44178262 -9.0772257e-05 0.99999875 -0.0015733807 7.1231048e-06
0.15551749 -0.20161183 -0.44587159 0.00065609399 0.99999684 -0.0024205858 4.5038651e-06
0.16681194 -0.20161183 -0.44466099 0.00023611232 0.99999678 -0.0025014768 5.3662029e-06
0.18308476 -0.20161183 -0.44211426 -0.16030483 0.98701274 -0.010405493 0.04337474
0.19954737 -0.20161183 -0.44608009 -0.77042592 0.6374678 -0.0088683702 0.085763857
0.20131326 -0.20147336 -0.44693333 -0.77042258 0.63747221 -0.0088462839 0.085757621
-0.20175439 -0.19426611 -0.44447649 0.87583351 0.47224605 0.099495776 0.070824914
0.20175439 -0.1991446 -0.44501039 -0.81842077 0.57296729 0.043542244 0.081509151
-0.20175439 -0.18479055 -0.44616327 0.96270663 0.26928258 0.026132371 0.032991987
0.20175439 -0.18433341 -0.44442466 -0.9826889 0.18333723 -0.02664303 0.049571041
-0.20175441 -0.17411993 -0.4448176 0.99645585 0.084116772 0.00015916744 0.0073750848
-0.20175439 -0.16512662 -0.4428111 1 1.5432234e-06 3.3275071e-05 1.5016037e-05
0.20175439 -0.16645947 -0.44871798 -1 9.8452192e-06 -0.00016932796 3.603478e-05
0.20175439 -0.15442808 -0.44265699 -1 8.3497844e-06 -1.801207e-06 1.6645339e-05
-0.20175439 -0.14065725 -0.44119641 1 1.3832525e-05 -0.00010469272 3.4952376e-05
0.20175439 -0.1424787 -0.44146079 -1 3.9614461e-05 -4.4502249e-05 1.8532706e-05
-0.20175438 -0.13585693 -0.4451243 1 1.7036171e-05 2.4893058e-07 1.5881606e-05
0.20175439 -0.13483068 -0.44407326 -1 9.7725988e-06 3.260114e-05 8.469272e-06
-0.20175439 -0.12086713 -0.44203225 1 3.4552999e-05 0.00014215696 0
0.20175439 -0.12612338 -0.44379348 -1 -4.1252315e-06 8.3119128e-05 1.874338e-05
-0.20175439 -0.11746856 -0.44684136 1 2.9075269e-05 0.00015393386 0
0.20175439 -0.11467473 -0.44805935 -1 1.1021283e-05 3.3082066e-05 0
-0.20175438 -0.10393224 -0.4446342 1 -2.3330715e-06 5.8839949e-05 9.1061875e-06
0.20175439 -0.10509927 -0.44258189 -1 3.102528e-05 3.1787458e-05 0
-0.20175439 -0.091799319 -0.44766587 1 1.4659751e-06 3.0432308e-05 0
0.20175439 -0.096285999 -0.44043952 -1 -4.1398602e-05 0.00010156696 9.4666511e-06
-0.20175439 -0.084936619 -0.4443908 1 9.3939416e-06 1.0670207e-06 8.6912742e-06
0.20175439 -0.087562859 -0.44359672 -1 1.6633465e-05 2.9268211e-05 0
-0.20175439 -0.073203035 -0.44564754 1 -9.6781523e-06 -0.00012285871 1.7779244e-05
0.20175439 -0.077619582 -0.4458248 -1 2.7640002e-05 9.6360251e-05 0
-0.20175439 -0.061912779 -0.44379479 1 -1.5652256e-05 -3.358808e-05 3.4115877e-05
0.20175439 -0.061377972 -0.44299605 -1 -1.257048e-05 3.7665763e-05 1.8017918e-05
-0.20175439 -0.053141773 -0.44723201 1 -6.323779e-06 -4.0024504e-05 3.6178582e-05
0.20175439 -0.059499517 -0.44309145 -1 1.9611557e-06 3.4442663e-05 8.1423723e-06
0.20175439 -0.045380194 -0.44504735 -1 3.7288858e-06 -4.4108749e-08 8.2639863e-06
-0.20175439 -0.031494021 -0.44467804 1 -2.179665e-06 2.5745209e-07 1.777648e-05
0.20175439 -0.035518877 -0.44526032 -1 -9.4377647e-06 -3.5197369e-05 8.9139412e-06
-0.20175439 -0.024643231 -0.44686669 1 7.9536744e-07 3.4579625e-05 7.9739993e-06
0.20175439 -0.025725573 -0.44455993 -1 3.1668187e-06 3.1689804e-05 8.5293532e-06
-0.20175439 -0.016962081 -0.44509616 1 -6.3028472e-07 -3.3730445e-05 9.5209389e-06
0.20175439 -0.015795752 -0.44816637 -1 1.1669166e-05 9.4428993e-05 0
-0.20175439 -0.0039841011 -0.44860172 1 -1.4523188e-06 3.2345473e-05 0
0.20175439 -0.0038023468 -0.44537887 -1 -6.8253598e-06 -7.5714444e-05 4.2023377e-05
0.20175439 0.0067097791 -0.44613108 -1 -4.3442208e-07 3.7404316e-08 1.5511916e-05
-0.20175439 0.01735615 -0.44437665 0.99999994 -1.5946562e-05 0.00022571418 0
-0.20175439 0.023621326 -0.44819245 1 -6.2715067e-06 5.7922931e-05 0
0.20175439 0.028330762 -0.4488517 -1 -8.372419e-06 3.4531553e-05 0
-0.20175439 0.033352792 -0.44035766 1 8.9923498e-07 -9.9743236e-05 1.9274295e-05
0.20175439 0.036198776 -0.44760835 -1 -4.2754182e-06 1.1996692e-08 8.854905e-06
-0.20175439 0.044593889 -0.44414774 1 7.999256e-06 4.8020695e-05 8.5493357e-06
0.20175439 0.04204141 -0.44277328 -1 -4.9683949e-06 6.1419923e-05 0
0.20175439 0.055107117 -0.44646826 -1 -1.0583869e-05 3.240677e-05 0
-0.20175438 0.064347208 -0.44632423 1 -2.5832187e-06 -3.8284612e-05 1.6506523e-05
0.20175439 0.064326704 -0.44453815 -1 -1.1167411e-05 -3.1571075e-05 0
-0.20175439 0.073848933 -0.44340509 1 -0 -0 1.6536849e-05
0.20175439 0.074078567 -0.4420521 -1 9.5678797e-06 0.00010491021 8.2170955e-06
-0.20175439 0.089503229 -0.44889581 1 -1.4294029e-05 3.1072897e-05 7.7211544e-06
0.20175439 0.086698368 -0.44145536 -1 0 0 0
-0.20175439 0.093585864 -0.44635969 1 -9.0455133e-06 1.0265072e-06 1.6655016e-05
0.20175439 0.091687888 -0.44874501 -1 9.7396241e-06 -3.1091375e-05 0
-0.20175439 0.10455777 -0.44081247 1 -8.6275004e-06 8.7928572e-07 8.310124e-06
0.20175439 0.10274503 -0.44283134 -1 -6.911825e-06 3.5376903e-05 0
-0.20175439 0.11390623 -0.44481379 1 -0 -0 1.6499833e-05
0.20175439 0.11384296 -0.44599685 -1 1.3054134e-06 6.5482847e-05 0
-0.20175439 0.12630427 -0.44145912 1 -2.5810441e-06 0.00012156759 0
0.20175439 0.12385598 -0.44894463 -1 -1.9639926e-06 -3.3752363e-05 8.6930595e-06
-0.20175439 0.1342866 -0.44401476 1 -8.5761812e-06 -5.8435069e-07 0
0.20175439 0.13173132 -0.44539025 -1 9.2691344e-06 2.7380493e-05 7.8889634e-06
-0.20175438 0.1453315 -0.44449624 1 -2.9169036e-05 0.00012134849 7.9819065e-06
0.20175439 0.14669773 -0.4459821 -1 -2.2771774e-05 8.8802466e-07 8.0654427e-06
-0.20175439 0.15557127 -0.44457665 1 7.9179517e-06 4.2093447e-07 8.2497372e-06
0.20175438 0.15174343 -0.44479936 -1 6.8056052e-06 0.00010974669 8.0277787e-06
-0.20175438 0.1647137 -0.44464856 1 -2.0445617e-05 3.0358826e-05 1.6989206e-05
0.20175439 0.16661996 -0.44492587 -1 3.6004927e-05 -3.3792985e-05 3.6176538e-05
-0.20175439 0.17522478 -0.44370332 0.99847549 -0.054952905 -0.005181652 0.0069308253
0.20175438 0.17306884 -0.44641596 -0.99979657 -0.020161919 0.00064694241 0.0020696954
-0.20175439 0.18578781 -0.44180554 0.96561521 -0.2571989 0.037895281 0.048728302
0.20175439 0.18552537 -0.44557586 -0.96446574 -0.26363382 -0.017408799 0.054820277
-0.20175439 0.19573529 -0.44315562 0.93003613 -0.36744863 0.0038057894 0.05241444
0.20175439 0.19647123 -0.4457235 -0.8593834 -0.51100612 0.018246578 0.083840072
-0.20085928 0.20189694 -0.44579536 0.77405792 -0.63018048 -0.060885008 0.097749338
-0.19554098 0.20189695 -0.44605169 0.51352715 -0.85498631 -0.072721303 0.08293052
-0.18322535 0.20189694 -0.44213328 0.19596407 -0.98056799 0.0091938525 0.045508809
-0.16745877 0.20189694 -0.44185418 3.6612786e-05 -1 0.00010528912 0
-0.15242741 0.20189694 -0.44452944 -9.267168e-06 -1 7.1127819e-05 0
-0.14463751 0.20189695 -0.44884229 6.1685954e-05 -1 7.1141345e-05 0
-0.13609712 0.20189695 -0.44369909 0 -1 0 0
-0.12492621 0.20189694 -0.44807285 2.4016126e-05 -1 3.7058988e-05 0
-0.11327543 0.20189695 -0.44451153 -9.9731487e-08 -1 0.00010905098 0
-0.10578381 0.20189694 -0.44330817 1.6746373e-05 -1 0.00010604312 0
-0.093412362 0.20189694 -0.44716299 2.9747851e-05 -1 8.1766513e-05 0
-0.083632849 0.20189694 -0.44334793 -1.6257924e-06 -1 0.00017435507 0
-0.074570015 0.20189694 -0.44553798 -1.4418473e-06 -1 0.00016869837 0
-0.064463571 0.20189694 -0.44486299 4.0810257e-05 -1 0.00016179643 0
-0.054877765 0.20189694 -0.44028762 1.4558001e-05 -1 0.00012287342 0
-0.04127457 0.20189694 -0.44440767 -6.3059842e-06 -1 6.9341913e-05 0
-0.0374511 0.20189694 -0.4456282 2.0544539e-05 -1 0.0001462798 0
-0.024712034 0.20189694 -0.44606891 -1.1504479e-05 -1 0.00013581914 0
-0.014874633 0.20189694 -0.44806373 8.4874782e-06 -1 8.0524223e-05 0
-0.0038504526 0.20189694 -0.44047016 1.6734033e-05 -1 9.7414289e-05 0
0.0062261592 0.20189692 -0.44557509 -9.1368638e-06 -1 7.2592578e-05 0
0.013572109 0.20189694 -0.44264498 -7.3508431e-07 -1 0.0001549836 0
0.024354065 0.20189694 -0.44848117 -3.4178545e-06 -1 7.2856288e-05 0
0.033563301 0.20189694 -0.4450123 7.1526806e-06 -1 3.8085749e-05 0
0.045202233 0.20189694 -0.44582957 2.090004e-06 -1 6.0979473e-05 0
0.051030234 0.20189692 -0.44366276 3.2445778e-06 -1 9.549423e-05 0
0.063917473 0.20189692 -0.44326621 -2.7797656e-05 -1 7.4443771e-05 0
0.084437296 0.20189694 -0.44622245 0 -1 0 0
0.093790501 0.20189695 -0.44251838 -3.0381298e-05 -1 6.0643386e-05 0
0.10273839 0.20189695 -0.44439259 -2.6311875e-05 -1 0.00013897996 0
0.1139962 0.20189695 -0.44604146 -3.6239078e-05 -1 0.00014438154 0
0.12406266 0.20189695 -0.44592914 2.593963e-06 -1 7.3495212e-05 0
0.13161027 0.20189694 -0.4439761 8.8030074e-06 -1 8.8724715e-05 0
0.14489739 0.20189694 -0.4406448 -2.0145753e-05 -1 3.7053091e-05 0
0.15493077 0.20189695 -0.4441303 0 -1 0 0
0.16641627 0.20189695 -0.44685897 0 -1 0 0
0.17750704 0.20189695 -0.44518125 -0.097858287 -0.9951849 0.0055563981 0.020326909
0.18457153 0.20189694 -0.44283682 -0.17759424 -0.98403656 -0.011505754 0.035635285
0.19637309 0.20189694 -0.44499135 -0.63530046 -0.77141333 -0.036261331 0.091456525
-0.19656938 -0.20161183 -0.4345983 0.60704094 0.78405112 0.12948018 0.081162319
-0.18784213 -0.20161182 -0.43354487 0.3312394 0.94286311 0.035912205 0.066123635
-0.17332315 -0.20161185 -0.43443602 0.0021583575 0.99999762 -0.00044205584 6.0165589e-06
-0.16798723 -0.20161183 -0.43493992 1.7654254e-05 1 -9.9837018e-07 0
-0.15534024 -0.20161183 -0.43665186 2.1123487e-06 1 -3.0362658e-05 0
-0.14329639 -0.20161183 -0.43727499 -2.740994e-05 1 4.8893639e-07 0
-0.13384141 -0.20161183 -0.43305147 1.9766334e-05 1 2.7844483e-06 0
-0.12610942 -0.20161185 -0.43503726 1.6699631e-05 1 9.3575793e-05 0
-0.11329605 -0.20161182 -0.43479118 3.8570386e-05 1 0.00012800666 0
-0.094838232 -0.20161182 -0.43587571 3.0287219e-07 1 -3.2529137e-05 0
-0.085975036 -0.20161185 -0.43628365 -5.1404677e-06 1 7.0029026e-05 0
-0.076409683 -0.20161183 -0.4346081 -8.808026e-06 1 0.00013524831 0
-0.062844232 -0.20161182 -0.43176138 2.0155154e-05 1 6.8715417e-05 0
-0.056474388 -0.20161183 -0.4335269 6.8062004e-06 1 6.8749003e-05 0
-0.048402686 -0.20161183 -0.43255287 1.4198617e-06 1 3.7999063e-05 0
-0.038170531 -0.20161185 -0.43197668 3.2598905e-06 1 8.8338275e-05 0
-0.027790248 -0.20161183 -0.43601054 -5.8441395e-07 1 -6.8549678e-05 0
-0.016898144 -0.20161183 -0.43514568 -7.1927343e-07 1 3.6124486e-05 0
-0.0045666061 -0.20161183 -0.43672013 0.00055446569 0.99999976 -0.00038605419 0
0.0064821444 -0.20161182 -0.43655404 0.00012539707 0.99999988 -0.0003406865 0
0.025865996 -0.20161183 -0.43285036 -0.00030122124 0.99999976 -0.00060322566 0
0.035425495 -0.20161185 -0.43428054 -0.00040116065 0.99999976 -0.00063497614 0
0.043681756 -0.20161183 -0.43410605 1.6365166e-05 1 9.2984883e-05 0
0.054100163 -0.20161183 -0.43693608 -0.00019096244 0.99999863 -0.0016693159 0
0.06592752 -0.20161182 -0.43541712 0.0003467944 0.99999982 -0.00048724181 0
0.077352539 -0.20161182 -0.43708545 0.00076665706 0.99999624 -0.0026122481 0
0.084385514 -0.20161183 -0.43442419 0.00030968501 0.9999975 -0.0022233229 0
0.098458782 -0.20161183 -0.43292934 -0.00020551629 0.99999988 -0.0004532559 0
0.10327161 -0.20161185 -0.43784273 -0.00084820145 0.99999756 -0.0020289843 0
0.113786 -0.20161183 -0.43389517 -1.8760657e-06 1 -3.9907442e-05 0
0.12608281 -0.20161183 -0.43548685 0.00032329484 0.99999976 -0.00060689554 0
0.1332753 -0.20161182 -0.43475357 0.00020413716 0.99999964 -0.00079574442 8.7402532e-06
0.14605898 -0.20161182 -0.43766081 -0.00010786381 0.99999845 -0.0017684489 0
0.1547762 -0.20161183 -0.43484265 0.00013414824 0.99999952 -0.00096921809 0
0.16273974 -0.20161183 -0.43148735 2.2120012e-05 0.99999958 -0.00090577104 0
0.1858951 -0.20161183 -0.43692958 -0.24813108 0.96832931 0.027737275 0.053648997
0.19562972 -0.20161183 -0.43555605 -0.63968581 0.76833719 -0.021447975 0.10043084
0.20113653 -0.20084497 -0.435673 -0.73029935 0.67738724 -0.08837004 0.08668866
0.20175439 -0.19582124 -0.43521687 -0.82569283 0.56191742 -0.049801078 0.083665729
-0.20175439 -0.18610503 -0.43814939 0.96569222 0.25892907 0.019856842 0.041379217
0.20175439 -0.18466651 -0.43342054 -0.97924292 0.20229632 0.012625292 0.052117791
-0.20175439 -0.17556377 -0.43517765 0.9895739 0.14366043 -0.010252343 0.021779219
0.20175438 -0.17450371 -0.43503648 -0.99955499 0.029784955 0.0016470102 0.0023946511
-0.20175439 -0.16345291 -0.43673474 1 1.2575033e-05 3.420185e-05 1.5661853e-05
0.20175439 -0.16510084 -0.43403369 -1 3.1182586e-05 -2.4737926e-06 1.6161357e-05
-0.20175439 -0.15363967 -0.43907738 1 -8.121624e-07 -5.8109075e-05 3.0788127e-05
0.20175439 -0.15659268 -0.43446007 -1 -1.3011483e-05 -0.00016367283 3.4558412e-05
-0.20175439 -0.14205196 -0.43797073 1 -1.1162277e-06 -0.00011025869 3.3887805e-05
0.20175439 -0.1456335 -0.43651024 -1 -1.4498396e-05 -5.0910934e-05 3.8911316e-05
-0.20175439 -0.13405609 -0.43672657 1 -3.43147e-05 3.754329e-05 3.8477985e-05
0.20175439 -0.13577452 -0.43576211 -1 3.5057969e-06 -4.7129502e-05 4.1148654e-05
-0.20175439 -0.1258177 -0.43450829 1 1.3389135e-06 3.8562364e-05 1.8212429e-05
0.20175439 -0.12543128 -0.43250427 -1 9.4136631e-06 3.9478884e-05 1.7964327e-05
-0.20175439 -0.11277761 -0.43592292 1 8.5146767e-06 0.00016937785 0
0.20175439 -0.11646979 -0.43602794 -1 -6.2596473e-06 3.8619786e-05 7.9319097e-06
-0.20175439 -0.1011069 -0.43823656 1 -0 -0 8.8255629e-06
0.20175439 -0.10247432 -0.43862388 -1 8.362791e-06 -1.8591125e-07 0
-0.20175439 -0.09358269 -0.43907347 1 -1.2962718e-05 3.8402246e-05 8.8677189e-06
0.20175439 -0.099471852 -0.43618914 -1 -1.0006535e-06 4.4186039e-05 1.7698696e-05
0.20175438 -0.084844828 -0.43511257 -1 1.4625693e-05 -7.6937475e-05 0
-0.20175439 -0.079342164 -0.43571359 1 -2.9254819e-05 -4.4272143e-05 1.7475733e-05
0.20175439 -0.074166596 -0.43493697 -1 2.2114211e-06 -4.0062354e-05 1.7721244e-05
-0.20175439 -0.066853233 -0.43434092 1 -1.2946009e-05 3.4267243e-05 1.6763959e-05
0.20175439 -0.063138075 -0.43560329 -1 7.8619651e-06 -1.9937413e-07 0
0.20175439 -0.052773736 -0.43207657 -1 7.903137e-06 -9.5334167e-07 1.761328e-05
-0.20175438 -0.045039207 -0.43688878 1 9.2415175e-06 -3.530168e-05 1.6093147e-05
0.20175438 -0.044299252 -0.43590617 -1 1.9797562e-05 0.0001472657 0
-0.20175439 -0.034806777 -0.43517137 1 -4.0159812e-06 5.8967998e-05 0
0.20175439 -0.037746791 -0.43158016 -1 0 0 8.5860011e-06
-0.20175439 -0.023453051 -0.43465278 1 -5.0042536e-06 -3.2373515e-05 0
0.20175439 -0.025430284 -0.4349356 -1 4.1539251e-06 3.3063847e-05 0
-0.20175439 -0.012150039 -0.43406308 1 2.423862e-08 0.0001426072 1.7792881e-05
0.20175439 -0.018626072 -0.43956047 -1 -1.9209001e-06 6.9665606e-05 8.5159309e-06
-0.20175439 -0.0071637221 -0.43354613 1 -8.3455143e-06 9.842022e-05 8.2246615e-06
0.20175439 -0.0034617167 -0.43450418 -1 4.9948221e-07 1.2618143e-08 7.5833468e-06
-0.20175439 0.0036671311 -0.4322415 1 -8.0649755e-07 3.0320884e-08 8.2910974e-06
-0.20175439 0.016422907 -0.43607298 1 9.1280788e-07 1.2818295e-08 0
0.20175439 0.017292812 -0.43672755 -1 2.2576085e-06 -3.4880912e-05 1.6009793e-05
-0.20175439 0.026083022 -0.43151265 1 -5.4935258e-06 2.8637509e-05 8.5847914e-06
0.20175439 0.024741495 -0.43527576 -1 4.8004989e-07 3.3458349e-05 1.6532482e-05
-0.20175438 0.037775956 -0.43446264 1 -1.9240588e-06 3.8927075e-05 8.4006469e-06
0.20175439 0.033692285 -0.43586338 -1 -1.0079004e-05 3.3148266e-05 8.6002419e-06
-0.20175439 0.041856844 -0.43541929 1 -2.6850164e-06 -4.0850475e-05 1.7537517e-05
0.20175439 0.045202691 -0.4357183 -1 -1.6391117e-06 3.7976406e-05 0
-0.20175439 0.05706837 -0.43687347 1 1.4525067e-05 -0.00011533453 3.7251608e-05
0.20175439 0.053041011 -0.43464345 -1 -9.1102002e-06 0.00010685218 0
-0.20175438 0.065173708 -0.43401617 1 1.2685844e-06 6.0628936e-05 1.5599775e-05
0.20175438 0.062401123 -0.43550777 -1 -3.7751511e-06 3.4729641e-05 0
0.20175439 0.079210818 -0.43189436 -1 -2.4554152e-05 6.6552122e-05 0
-0.20175439 0.085214771 -0.43547532 1 8.4732192e-06 7.2402087e-05 1.7089809e-05
0.20175439 0.089429647 -0.43885705 -1 -2.2640308e-05 2.8213186e-05 0
-0.20175439 0.096650593 -0.43599176 1 -4.7760223e-06 -0.00017524528 3.7377926e-05
0.20175439 0.095737815 -0.43578261 -1 -1.7914821e-05 7.9228405e-05 0
-0.20175436 0.10590964 -0.43564311 1 1.2080468e-06 -4.1543368e-05 1.7566788e-05
0.20175439 0.10635497 -0.43421295 -1 -2.141951e-05 0.00014655403 0
-0.20175439 0.11561438 -0.43531787 1 -9.4603729e-06 -4.0794381e-05 0
0.20175439 0.11603414 -0.43435982 -1 -2.320254e-05 -2.9485238e-05 8.6221589e-06
-0.20175439 0.12524444 -0.43760988 1 -1.5302032e-05 -6.5006388e-05 0
0.20175439 0.12527604 -0.43834075 -1 2.1366885e-05 3.3643453e-05 7.7637851e-06
-0.20175439 0.13087495 -0.43003747 1 4.9449332e-06 -3.3424687e-05 0
0.20175438 0.1359008 -0.43381655 -1 1.0804995e-05 3.4471919e-05 1.8183358e-05
-0.20175439 0.14529601 -0.43409199 1 -2.528338e-05 0.00012734425 7.8567e-06
0.20175438 0.15575543 -0.4355897 -1 3.0366925e-06 8.7062115e-05 0
-0.20175439 0.16620252 -0.43541604 1 1.0625718e-05 -7.3808762e-05 3.6888949e-05
0.20175439 0.16101129 -0.43266964 -1 -0 -0 8.5990168e-06
-0.20175439 0.17401937 -0.43496197 0.99845213 -0.055469986 0.0040531191 0.0070538684
0.20175439 0.17401867 -0.43568334 -0.99938232 -0.034698326 0.0055732699 0.0029185116
-0.20175439 0.18490994 -0.43353635 0.97391373 -0.22477116 0.031144517 0.040432189
0.20175436 0.18519379 -0.43321973 -0.9787882 -0.20155516 0.036729984 0.042896956
0.20175439 0.19666965 -0.4360812 -0.86716825 -0.49560788 0.04890937 0.076952398
-0.19341712 0.20189695 -0.43680677 0.48803857 -0.87188721 0.040385626 0.1041204
-0.18615624 0.20189694 -0.43445125 0.24136615 -0.97023553 0.019635452 0.049747363
-0.17291403 0.20189694 -0.43535593 4.1890526e-05 -1 0.00019228013 0
-0.16390811 0.20189694 -0.43774432 1.1457601e-05 -1 9.7831267e-05 0
-0.15758616 0.20189694 -0.43740338 4.606443e-05 -1 2.3894923e-05 0
-0.14324799 0.20189694 -0.43633997 2.9975467e-05 -1 7.1058486e-05 0
-0.13973841 0.20189694 -0.43106726 2.4105224e-05 -1 0.00013680772 0
-0.12529379 0.20189694 -0.43560407 2.9947243e-05 -1 8.5147258e-05 0
-0.11569091 0.20189692 -0.43687949 1.1561146e-05 -1 5.5560842e-05 0
-0.10593376 0.20189695 -0.43533489 1.9337507e-05 -1 5.8710935e-05 0
-0.093940802 0.20189695 -0.43425322 1.319085e-05 -1 0.00017848673 0
-0.088892065 0.20189695 -0.43811789 1.591705e-05 -1 0.00014485499 0
-0.075770199 0.20189694 -0.43391943 1.3124016e-05 -1 6.9709764e-05 0
-0.064008616 0.20189694 -0.43434399 2.4109784e-05 -1 0.00014653566 0
-0.054856002 0.20189694 -0.43357521 1.1179723e-05 -1 0.00015523861 0
-0.046588618 0.20189695 -0.43804309 1.4778508e-05 -1 0.00014164629 0
-0.032424439 0.20189694 -0.43377215 4.0906193e-06 -1 3.6829944e-05 0
-0.027550507 0.20189694 -0.43426511 9.8609726e-06 -1 3.6637557e-05 0
-0.013224188 0.20189694 -0.43616164 6.2706931e-06 -1 8.3989522e-05 0
-0.0044705821 0.20189695 -0.43846288 3.5647083e-06 -1 0.00010488798 0
0.0062731677 0.20189695 -0.43597591 3.8388398e-06 -1 0.00013783567 0
0.013419904 0.20189694 -0.43544626 -2.1546291e-06 -1 2.9470608e-05 0
0.026129933 0.20189695 -0.43665886 -6.1631495e-06 -1 3.1498079e-05 0
0.034963857 0.20189694 -0.43487823 -9.1692427e-06 -1 8.1127774e-07 0
0.04472347 0.20189695 -0.43655524 -5.1314469e-06 -1 7.5378921e-05 0
0.076627098 0.20189694 -0.43710166 -1.5035334e-06 -1 9.1600952e-05 0
0.085237533 0.20189694 -0.43263799 -9.1690918e-06 -1 2.9471352e-05 0
0.095720336 0.20189694 -0.43388852 -3.0683641e-05 -1 3.1209947e-05 0
0.10494157 0.20189695 -0.43529272 -1.9839195e-05 -1 6.6042972e-05 0
0.11074699 0.20189694 -0.43735319 -2.9312661e-05 -1 0.00011463741 0
0.12869319 0.20189694 -0.4345578 -1.9705494e-05 -1 -6.622816e-05 0
0.13475242 0.20189694 -0.43374461 -5.4243548e-05 -1 8.3557556e-05 0
0.14573634 0.20189695 -0.4321779 -1.3722985e-05 -1 5.7035275e-05 0
0.15450566 0.20189694 -0.43545556 -1.7171991e-05 -1 0.00010575548 0
0.16643864 0.20189695 -0.43357578 -2.2773984e-05 -1 3.6663521e-05 0
0.17199415 0.20189694 -0.43366593 -4.4423239e-05 -1 6.4293345e-05 0
0.18431447 0.20189695 -0.43703404 -0.19243234 -0.98122358 -0.01303864 0.035981983
0.19626847 0.20189694 -0.43199065 -0.49415734 -0.86859882 0.036669329 0.099029876
0.20175439 0.20012024 -0.43922037 -0.86574841 -0.49912813 0.036753364 0.075039819
-0.20143685 -0.20113765 -0.42416197 0.71930045 0.68171561 0.13368142 0.098331958
-0.19403681 -0.20161183 -0.42382547 0.50182861 0.85557616 0.12711139 0.10653087
-0.18533739 -0.20161182 -0.4257369 0.23197465 0.97149903 0.048757192 0.040925942
-0.17250349 -0.20161183 -0.42600426 0.02563742 0.99966103 -0.0045295786 0.0019927667
-0.1648026 -0.20161183 -0.42534825 -1.5033562e-05 1 4.8660092e-07 0
-0.1518361 -0.20161182 -0.42643794 -4.9968089e-06 1 9.9766745e-05 0
-0.13497826 -0.20161182 -0.42213911 2.2965758e-05 1 3.4481469e-05 0
-0.12454657 -0.20161183 -0.42298844 -4.4104559e-06 1 5.8149093e-05 0
-0.11476281 -0.20161183 -0.42452347 3.5203208e-05 1 3.2323947e-05 0
-0.10485519 -0.20161182 -0.4280057 8.0307364e-06 1 -5.3133556e-07 0
-0.092191279 -0.20161182 -0.42080179 1.7540167e-05 1 6.5183769e-05 0
-0.086762987 -0.20161183 -0.42730194 -2.55129e-06 1 0.00014720988 0
-0.071423329 -0.20161183 -0.42581886 -5.1454049e-06 1 -4.4227723e-05 0
-0.062776029 -0.20161183 -0.4216412 1.2391168e-05 1 5.0528834e-05 0
-0.059169255 -0.20161185 -0.42846113 1.3611738e-05 1 0.0001183005 0
-0.045160696 -0.20161182 -0.42863029 5.8679439e-06 1 3.7212485e-05 0
-0.033738755 -0.20161183 -0.42436889 -3.7535426e-06 1 3.3837805e-05 0
-0.02671745 -0.20161183 -0.42470956 1.0567106e-06 1 -6.356262e-05 0
-0.014551249 -0.20161183 -0.42719498 -4.6986866e-06 1 -3.1827811e-05 0
-0.0034580603 -0.20161183 -0.42428529 -4.3658806e-06 1 6.3515763e-05 0
0.0036698456 -0.20161183 -0.42679134 -0 1 -0 0
0.014867947 -0.20161183 -0.4247216 7.2272144e-07 1 3.423895e-05 0
0.025300583 -0.20161182 -0.42468008 -0 1 -0 0
0.034795616 -0.20161182 -0.42472598 1.6326718e-05 1 0.00011420883 0
0.046103854 -0.20161183 -0.42815959 -4.6210112e-06 1 2.8741891e-07 0
0.057445679 -0.20161183 -0.4257085 -1.6003807e-05 1 9.7933778e-05 0
0.064847551 -0.20161185 -0.42471251 -1.6860384e-05 1 -2.9846953e-05 0
0.075337969 -0.20161183 -0.42414212 -4.2289592e-08 1 -3.866155e-05 0
0.085984848 -0.20161183 -0.4241668 2.0774361e-05 1 7.3665287e-05 0
0.095496617 -0.20161183 -0.42452669 1.1326743e-05 1 0.00011514562 0
0.10138918 -0.20161185 -0.42778254 1.6155451e-06 1 0.00014738044 0
0.11752111 -0.20161183 -0.42232823 -3.8427912e-05 1 3.0325589e-05 0
0.12402791 -0.20161182 -0.42522216 -1.8448402e-05 1 9.6602213e-05 0
0.13606264 -0.20161183 -0.42396876 3.2181235e-06 1 3.4856399e-05 0
0.14817503 -0.20161182 -0.42777327 1.1000444e-05 0.99999982 -0.00064583466 0
0.15482204 -0.20161183 -0.42339116 9.966885e-06 1 -0.00011504806 9.5232781e-06
0.16574746 -0.20161185 -0.42269731 1.1729456e-05 1 -0.00010862492 0
0.17585106 -0.20161183 -0.42176056 -0.040959857 0.99898666 0.018655853 0.0035747143
0.18411668 -0.20161183 -0.42628565 -0.19405285 0.98018318 -0.03980517 0.051062766
0.19760303 -0.20161183 -0.42014056 -0.50279391 0.86391598 -0.029111465 0.07778538
-0.20175439 -0.19655757 -0.4256849 0.81553316 0.57300127 0.081087992 0.085589454
0.20175439 -0.19593804 -0.4225421 -0.73189259 0.67720306 -0.075692393 0.090220153
-0.20175439 -0.18403907 -0.42846441 0.97475451 0.22324145 0.004108347 0.040824812
0.20175439 -0.18518695 -0.42466122 -0.97628248 0.2096018 -0.054218497 0.04486312
-0.20175439 -0.17507339 -0.42581281 0.99709487 0.074899264 -0.013853599 0.0097033158
-0.20175439 -0.16644162 -0.42536131 1 0 0 3.4729252e-05
0.20175439 -0.15239702 -0.42723784 -1 4.0306245e-06 9.525691e-05 1.7268785e-05
-0.20175439 -0.1432724 -0.42358857 1 1.5588863e-05 6.5656197e-05 7.8846215e-06
0.20175439 -0.14199987 -0.42131242 -1 4.8019024e-06 -6.2149913e-05 8.1768076e-06
-0.20175439 -0.13559508 -0.42471084 1 2.4498404e-05 4.6118043e-06 9.0959156e-06
0.20175439 -0.13282038 -0.42742938 -1 -1.2818974e-05 -3.1024851e-05 1.8131626e-05
-0.20175439 -0.1263292 -0.4230926 1 2.056003e-06 3.6295358e-05 1.8266193e-05
0.20175439 -0.12631395 -0.42409945 -1 -9.164246e-06 -7.6958757e-05 3.4211702e-05
-0.20175438 -0.11596682 -0.42433795 1 -1.2733864e-05 0.00017523917 0
0.20175439 -0.11479457 -0.42444745 -1 5.3129293e-06 2.9881336e-05 0
-0.20175439 -0.10534205 -0.42502522 1 -0 -0 0
0.20175439 -0.10234748 -0.42342097 -1 8.5876682e-06 8.9946581e-05 8.039081e-06
-0.20175439 -0.095184207 -0.42381144 1 -1.8954071e-05 3.2120486e-05 1.7972394e-05
0.20175438 -0.093111262 -0.42447624 -1 8.5530037e-06 8.7646822e-07 0
-0.20175439 -0.087803096 -0.4263092 1 1.852857e-05 7.12732e-05 8.7699927e-06
0.20175439 -0.085262008 -0.42253104 -1 -7.3333877e-06 6.0775597e-05 0
-0.20175439 -0.074548654 -0.42195711 1 6.5748804e-06 2.8812516e-05 3.3292461e-05
0.20175436 -0.074748494 -0.42382389 -1 4.0966634e-06 -8.1556424e-09 0
0.20175439 -0.065315552 -0.42344677 -1 1.9062676e-05 9.9642675e-05 8.3642608e-06
-0.20175439 -0.056521218 -0.42380187 1 1.0737212e-05 -2.7656926e-05 1.4911638e-05
0.20175439 -0.052704688 -0.42471156 -1 -1.4076746e-06 -4.4014789e-05 1.8082705e-05
-0.20175439 -0.044676498 -0.42246935 1 -8.0219497e-06 3.3434568e-05 3.1456566e-05
0.20175439 -0.031598724 -0.42447504 -1 4.5318234e-06 1.5235327e-07 8.4963967e-06
-0.20175439 -0.02714631 -0.42737216 1 2.4157525e-06 2.0032469e-07 1.6972797e-05
0.20175439 -0.026845831 -0.42283577 -1 2.1129833e-06 3.0361569e-05 8.30924e-06
-0.20175438 -0.013144339 -0.42362753 1 -4.2690021e-06 3.482851e-05 1.7432816e-05
0.20175439 -0.017236192 -0.42651549 -1 -5.0170019e-07 3.4911965e-05 1.76494e-05
-0.20175436 -0.0050366111 -0.42514318 1 1.9253841e-06 -3.3019009e-05 8.3694886e-06
0.20175439 -0.0077964216 -0.4280377 -1 8.6440775e-07 -2.8216227e-05 1.6886721e-05
-0.20175439 0.005338531 -0.42470402 1 1.2848323e-06 1.0326235e-07 2.9280443e-05
0.20175439 0.0038727522 -0.42558157 -1 5.9315039e-06 -5.704779e-05 3.1358166e-05
-0.20175439 0.014341088 -0.42521328 1 -1.2426693e-07 8.6696527e-05 8.3661344e-06
-0.20175439 0.022363935 -0.4258787 1 1.2197853e-05 3.7293517e-05 1.7718128e-05
0.20175439 0.026099201 -0.42631441 -1 -1.711911e-06 -3.4265464e-05 1.7474644e-05
-0.20175439 0.035548177 -0.42421854 1 -6.3246989e-06 2.9399704e-05 1.698817e-05
0.20175439 0.034287773 -0.42486876 -1 -0 -0 1.8950026e-05
-0.20175439 0.040835023 -0.426925 1 -1.0465729e-05 3.5175319e-05 7.9346364e-06
0.20175439 0.045434136 -0.42829657 -1 -3.1581674e-06 3.6043391e-05 8.8822544e-06
-0.20175439 0.054348726 -0.42863584 1 -1.4553362e-06 3.3306744e-05 8.7314465e-06
0.20175439 0.058224976 -0.42050579 -1 3.2473879e-06 -3.3756776e-05 0
-0.20175439 0.066619419 -0.42915756 1 -5.606234e-06 3.7800477e-05 3.465161e-05
0.20175439 0.066039979 -0.42619959 -1 -0 -0 8.4839494e-06
-0.20175439 0.076915905 -0.42550123 1 -6.6704306e-06 -3.5881651e-05 1.7467193e-05
0.20175438 0.074064754 -0.42297158 -1 9.4366269e-06 0.00010389864 0
-0.20175439 0.08456327 -0.42429143 1 0 0 1.6642671e-05
0.20175439 0.088223726 -0.42057866 -1 -1.6915748e-05 3.2360098e-05 0
-0.20175439 0.097460017 -0.42252702 1 8.7309063e-06 3.552183e-07 1.7022328e-05
0.20175439 0.095015191 -0.42432594 -1 -2.346027e-05 2.9077051e-05 0
-0.20175439 0.10372444 -0.42291936 1 -7.4823856e-06 -9.9911816e-08 0
0.20175439 0.10263886 -0.42416048 -1 -8.7086473e-06 -4.5082498e-07 0
-0.20175439 0.11027262 -0.4217172 1 -1.4662154e-05 0.00010493182 0
0.20175439 0.11621915 -0.42438322 -1 -9.7729626e-06 7.3669704e-05 1.8535571e-05
-0.20175436 0.12622838 -0.42352679 1 -2.2298989e-05 3.4158202e-05 0
0.20175439 0.12431284 -0.4244101 -1 1.17793e-05 -7.5990509e-05 1.7183811e-05
-0.20175439 0.13854916 -0.42635444 1 -1.4290195e-05 3.7696347e-05 1.622841e-05
0.20175439 0.13005722 -0.42538798 -1 -4.4193939e-06 8.4120926e-05 1.8035305e-05
0.20175439 0.14671215 -0.42747372 -1 -3.0682313e-06 4.4653985e-05 1.7088223e-05
-0.20175439 0.15539974 -0.42463967 1 1.1700089e-06 -9.5639974e-05 3.3145978e-05
0.20175439 0.15025558 -0.42435113 -1 1.9839445e-06 7.9732956e-05 0
-0.20175439 0.16712564 -0.42238545 1 -1.6984954e-05 3.2230244e-05 0
0.20175439 0.16534826 -0.42409089 -1 -2.1985727e-07 3.5129789e-05 1.7421784e-05
0.20175439 0.17616065 -0.42528614 -0.99899238 -0.044814598 0.0024275223 0.005428981
-0.20175438 0.18656012 -0.42371926 0.97477031 -0.22215547 0.021675209 0.04728419
0.20175439 0.18820997 -0.42141789 -0.96937841 -0.24449615 0.022958308 0.056015622
-0.20175439 0.19862983 -0.42708766 0.80814886 -0.58897293 -0.002496399 0.087893151
0.20175439 0.1929249 -0.4246048 -0.93438429 -0.35101983 0.060918055 0.06712456
-0.20146187 0.20189695 -0.42752573 0.60426432 -0.79636902 0.02571127 0.082504407
-0.19443376 0.20189694 -0.42961034 0.47988352 -0.87662369 0.035249807 0.077302217
-0.17950994 0.20189694 -0.42120463 0.11315348 -0.99347156 -0.014508595 0.027878268
-0.16200176 0.20189694 -0.42707354 4.6413214e-05 -1 3.9499799e-05 0
-0.15292451 0.20189694 -0.42324057 5.1644347e-05 -1 0.00013664663 0
-0.14547345 0.20189694 -0.42634618 3.4322857e-05 -1 6.5354085e-05 0
-0.13472809 0.20189694 -0.42306033 3.7305384e-05 -1 0.00011372161 0
-0.12723815 0.20189695 -0.42531291 4.6679263e-05 -1 6.5092841e-05 0
-0.11425978 0.20189695 -0.42634401 4.1225438e-05 -1 0.00013255881 0
-0.10497849 0.20189694 -0.42299443 2.8288798e-05 -1 3.2900494e-05 0
-0.095680699 0.20189692 -0.42317295 1.9140951e-05 -1 9.6887059e-05 0
-0.083617598 0.20189695 -0.42762741 2.0166877e-05 -1 5.9362068e-05 0
-0.072194099 0.20189694 -0.42382425 2.0059168e-05 -1 0.00016932822 0
-0.066420287 0.20189692 -0.42535022 2.1499787e-05 -1 0.00011081925 0
-0.047847696 0.20189694 -0.42230767 1.2321615e-05 -1 9.4200601e-05 0
-0.033429503 0.20189694 -0.42244464 4.8382267e-06 -1 6.3781772e-05 0
-0.02628747 0.20189694 -0.42467982 3.7954046e-06 -1 6.3450025e-05 0
-0.017035555 0.20189694 -0.42104679 1.8024797e-06 -1 3.2658671e-05 0
0.0039215274 0.20189694 -0.4226805 -1.7068375e-06 -1 3.1294265e-05 0
0.018041551 0.20189694 -0.42546386 1.1015945e-05 -1 8.9570611e-05 0
0.034031566 0.20189692 -0.42376482 -1.0877832e-05 -1 2.9727287e-05 0
0.049504101 0.20189694 -0.42528898 -1.7402466e-05 -1 6.2244049e-05 0
0.064658366 0.20189695 -0.42364931 -7.9072697e-06 -1 -3.4661618e-05 0
0.075210772 0.20189694 -0.42585915 -4.4182893e-06 -1 3.5755118e-05 0
0.084495366 0.20189695 -0.42406669 -9.1100919e-06 -1 -1.1592836e-06 0
0.094164588 0.20189695 -0.42474595 -1.0414547e-05 -1 -1.7488427e-06 0
0.11559182 0.20189694 -0.42425099 -5.2114192e-05 -1 0.00012841445 0
0.1242405 0.20189694 -0.42467541 -2.421412e-05 -1 0.00012588655 0
0.13084482 0.20189694 -0.42588672 -2.9189965e-05 -1 8.4296131e-05 0
0.15463288 0.20189692 -0.42229167 4.9054584e-06 -1 3.3973585e-05 0
0.16563135 0.20189695 -0.42469731 -4.4588596e-05 -1 3.3554352e-05 0
0.18550374 0.20189695 -0.42551211 -0.21099085 -0.97745305 0.008271304 0.035165571
0.19478267 0.20189694 -0.42578053 -0.32009977 -0.9457705 0.055265635 0.067562893
-0.20150878 -0.20143619 -0.4160718 0.65567219 0.75460207 0.025875149 0.087613665
-0.19334951 -0.20161183 -0.41604075 0.44214848 0.89515758 0.05654848 0.091659009
-0.18591167 -0.20161185 -0.41585666 0.17580844 0.98430043 0.015628116 0.033922948
-0.17202556 -0.20161182 -0.41710427 0.00092410384 0.99999964 4.9198648e-06 1.5857182e-05
-0.16461894 -0.20161183 -0.41476282 8.0747423e-06 1 3.0564861e-05 0
-0.15437496 -0.20161182 -0.41129208 -1.7172059e-06 1 5.6415753e-05 0
-0.14410983 -0.20161183 -0.41527051 2.173008e-05 1 0.00013619669 0
-0.13467699 -0.20161183 -0.41549602 2.0411391e-05 1 3.6641948e-05 0
-0.12946065 -0.20161185 -0.41656598 1.3435211e-05 1 6.895457e-05 0
-0.11500645 -0.20161182 -0.41744518 -6.6452008e-06 1 -1.5490581e-07 0
-0.10717256 -0.20161183 -0.41256618 5.083496e-06 1 3.5674399e-05 0
-0.093605697 -0.20161185 -0.41706899 2.4874838e-05 1 3.2628504e-05 0
-0.086943246 -0.20161183 -0.41406128 8.5200718e-06 1 3.6542788e-05 0
-0.074251175 -0.20161182 -0.41318882 5.4486841e-06 1 3.5865723e-05 0
-0.064299151 -0.20161185 -0.41504246 5.4141633e-06 1 7.6239281e-05 0
-0.055856746 -0.20161183 -0.41611934 9.8071951e-06 1 6.6782239e-05 0
-0.041914165 -0.20161183 -0.41347575 5.6450358e-06 1 3.1490028e-05 0
-0.032611579 -0.20161183 -0.41695052 1.2655338e-06 1 6.0565741e-05 0
-0.026971802 -0.20161182 -0.41403493 7.9843176e-06 1 0.0001565759 0
-0.014206001 -0.20161183 -0.41367555 3.7754642e-06 1 0.0001353352 0
-0.0081317201 -0.20161183 -0.41452003 -1.3624024e-05 1 0.00010063433 0
0.0037016645 -0.20161183 -0.41191468 -2.8832062e-07 1 -3.3760457e-09 0
0.013063564 -0.20161183 -0.41514173 4.4553208e-06 1 4.8835464e-05 0
0.024752211 -0.20161182 -0.41601041 -1.4915655e-05 1 -0.00010453111 0
0.035486192 -0.20161183 -0.4148944 2.9441692e-06 1 -2.8244862e-05 0
0.041764483 -0.20161185 -0.4141416 -1.476868e-06 1 3.3270931e-05 0
0.055970218 -0.20161183 -0.41480407 9.0081458e-06 1 -2.0545974e-07 0
0.077157341 -0.20161183 -0.41753554 -0 1 -0 0
0.084563427 -0.20161183 -0.41626701 -1.9850181e-06 1 5.8785252e-05 0
0.096874371 -0.20161185 -0.41207457 -1.7085664e-05 1 7.0093287e-05 0
0.10198259 -0.20161183 -0.41293991 -1.8571578e-05 1 3.8395327e-05 0
0.11490846 -0.20161185 -0.41189846 -3.8244116e-07 1 -3.1432559e-05 0
0.12561522 -0.20161183 -0.41626996 -2.193613e-05 1 9.028599e-05 0
0.13738379 -0.20161185 -0.41701502 -9.7198772e-06 1 0.0001017864 0
0.14625862 -0.20161183 -0.41821623 -1.7825319e-05 1 -1.6634133e-06 0
0.15370782 -0.20161183 -0.41500044 1.5721849e-05 1 -6.0348269e-05 0
0.17547807 -0.20161183 -0.41036198 -0.046972826 0.99878889 0.014639505 0.0034694339
0.18454199 -0.20161183 -0.41475701 -0.18037494 0.98317879 0.028710362 0.039216824
0.19749492 -0.20161183 -0.41283792 -0.67109919 0.74136537 -0.0017781187 0.096027233
-0.20175439 -0.19175701 -0.41870001 0.95597637 0.28978482 0.046194635 0.050538544
0.20175439 -0.19931123 -0.41563696 -0.6666984 0.74428087 -0.039487571 0.090536475
-0.20175441 -0.1899564 -0.41431239 0.9244929 0.38045889 0.02374539 0.075746141
0.20175439 -0.18302897 -0.4134891 -0.97436476 0.22448762 -0.014787342 0.045188159
-0.20175439 -0.17415141 -0.41494554 0.9987995 0.048587132 0.0062443553 0.006849295
0.20175439 -0.17577505 -0.41647208 -0.99881852 0.047252793 -0.01134505 0.0043930728
-0.20175439 -0.16722353 -0.41680035 1 -7.4183404e-06 -6.2391715e-05 3.234758e-05
0.20175439 -0.16190955 -0.41675434 -1 -4.334878e-05 -6.8632478e-05 3.7542006e-05
-0.20175439 -0.1537655 -0.41319522 1 -3.6873993e-05 3.5863173e-05 1.6697584e-05
0.20175439 -0.15854599 -0.4119983 -1 -1.6349071e-05 -6.0016981e-05 1.5981213e-05
-0.20175439 -0.14430061 -0.41398194 1 9.8298551e-06 0.0001233721 0
0.20175439 -0.1470475 -0.41880184 -1 0 0 1.5858628e-05
-0.20175439 -0.12461216 -0.41512328 1 9.9951558e-06 8.778608e-05 0
-0.20175439 -0.11589302 -0.41715908 1 -3.6677666e-06 8.4985913e-05 0
0.20175439 -0.1193063 -0.41030231 -1 -7.6764463e-06 -3.5244341e-07 1.5697629e-05
-0.20175439 -0.10470717 -0.4149268 1 1.5164643e-06 6.2460713e-05 8.6422906e-06
-0.20175439 -0.094021969 -0.41912079 1 -2.5549902e-05 8.9495014e-05 1.7283957e-05
0.20175438 -0.096580535 -0.41473174 -1 3.7428117e-06 -3.0833358e-05 1.6582992e-05
-0.20175439 -0.082275242 -0.41673666 1 -1.3568503e-05 3.1999574e-05 1.6910646e-05
0.20175439 -0.08549165 -0.41540945 -1 -8.8749639e-06 6.532322e-05 8.5995116e-06
-0.20175439 -0.070923612 -0.41693977 1 7.6218744e-06 3.1209398e-05 1.5570578e-05
0.20175439 -0.076155938 -0.41091293 -1 -1.4927038e-07 0.00010159978 8.4506582e-06
-0.20175439 -0.068587661 -0.41531038 1 -7.1927998e-06 3.6133013e-05 3.2721957e-05
0.20175439 -0.065775685 -0.41810808 -1 8.1147368e-07 6.8810426e-05 8.500353e-06
0.20175439 -0.056783531 -0.41674185 -1 1.0060149e-05 6.7887588e-05 8.3626719e-06
-0.20175439 -0.043447655 -0.41568935 1 -2.9464486e-06 -7.4500982e-05 2.4664711e-05
0.20175439 -0.043135002 -0.41622034 -1 8.9389905e-06 4.1198203e-07 8.2830884e-06
-0.20175439 -0.034975391 -0.41501337 1 -9.9673498e-06 -6.3509542e-05 3.6221092e-05
0.20175439 -0.036066167 -0.4145264 -1 2.7209146e-06 6.919873e-05 1.7683173e-05
-0.20175438 -0.025074059 -0.41729444 1 1.4442135e-05 3.3015633e-05 8.3673294e-06
0.20175438 -0.026230047 -0.41612682 -1 -3.1942748e-06 9.2186659e-05 0
-0.20175439 -0.013760727 -0.41422421 1 -3.0123502e-07 6.5931112e-05 8.1319358e-06
-0.20175439 -0.0036730338 -0.41717726 1 -3.7808775e-06 4.1374798e-05 9.5429159e-06
0.20175439 -0.0063682869 -0.41465926 -1 4.1457101e-06 -4.3106076e-05 3.6496494e-05
-0.20175439 0.005706057 -0.41238743 1 3.709041e-06 6.2091211e-05 8.6365808e-06
0.20175439 0.0037248656 -0.41573679 -1 2.1425707e-07 1.4474809e-08 3.3556498e-05
-0.20175438 0.015314053 -0.41566935 1 -6.9733396e-06 3.8118334e-05 8.0558757e-06
0.20175439 0.014515144 -0.41577163 -1 -1.019072e-05 -7.8649704e-05 3.808389e-05
-0.20175439 0.026552025 -0.41294706 1 -1.3226827e-05 8.3390471e-05 7.7773584e-06
0.20175439 0.026315782 -0.41755602 -1 -8.836806e-06 -8.5042913e-05 3.5722882e-05
-0.20175439 0.037256651 -0.41171122 1 -1.4914851e-05 5.8640187e-05 0
0.20175439 0.045410063 -0.41531166 -1 -7.4500795e-06 4.2540455e-07 8.1413318e-06
-0.20175439 0.056816805 -0.41480866 1 1.0777448e-05 7.592723e-05 1.7999057e-05
0.20175441 0.05289571 -0.41853368 -1 -1.5137083e-06 3.2666481e-05 0
-0.20175438 0.066534258 -0.41596112 1 1.8295977e-05 3.7277277e-05 1.6908194e-05
0.20175439 0.061852843 -0.41665888 -1 1.488922e-05 -1.6904768e-06 1.8780223e-05
-0.20175439 0.075636901 -0.4152588 1 4.5659322e-06 1.2749825e-07 1.6959813e-05
0.20175439 0.074567281 -0.41084152 -1 -1.5409783e-05 3.8439201e-05 0
-0.20175439 0.086886451 -0.41369691 1 7.9866169e-07 3.222033e-05 7.6841989e-06
0.20175439 0.081370145 -0.41376349 -1 -1.6492957e-05 7.1325303e-05 0
-0.20175439 0.092319667 -0.41844317 1 -7.2067555e-06 3.4825611e-05 1.7671669e-05
0.20175439 0.093407653 -0.41323343 -1 -1.0443955e-05 5.8181929e-05 9.1197553e-06
0.20175439 0.10370631 -0.41659436 -1 7.4659442e-06 4.2171505e-05 1.814907e-05
-0.20175439 0.11585421 -0.41455603 1 -1.5992659e-05 5.4672772e-05 0
0.20175439 0.11329558 -0.41362023 -1 1.0004665e-05 3.6626378e-05 1.8885999e-05
-0.20175439 0.12644522 -0.41511285 1 -1.8040002e-05 -5.3384007e-05 7.9801239e-06
0.20175439 0.1247538 -0.4133423 -1 -7.6043975e-06 3.4363147e-05 8.1577264e-06
-0.20175439 0.13393483 -0.41248524 1 -3.635752e-05 2.9384266e-05 8.1430371e-06
0.20175439 0.13372497 -0.4179742 -1 2.1898684e-05 -3.2925265e-05 3.7784226e-05
-0.20175438 0.14267384 -0.41582283 1 2.6669802e-06 2.7973585e-05 1.5756188e-05
0.20175439 0.14546102 -0.41440323 -1 -9.2983892e-06 -6.0289011e-07 3.6523234e-05
-0.20175439 0.1586968 -0.41840252 1 2.6865226e-07 -2.8421726e-05 1.5468404e-05
0.20175439 0.15827721 -0.41380447 -1 1.3649601e-05 -7.5083335e-05 3.3989258e-05
-0.20175439 0.16580702 -0.41468176 1 -3.4420118e-05 -2.9686538e-05 0
0.20175439 0.16316095 -0.41063836 -1 1.4875801e-05 -6.1201281e-05 3.5042991e-05
-0.20175439 0.17501752 -0.41098693 0.99911249 -0.041978408 -0.0034697885 0.0039085993
0.20175439 0.17360681 -0.41483358 -0.99989182 -0.014001556 0.0045128125 0.00090191583
-0.20175438 0.18623143 -0.41545191 0.97177762 -0.2336448 0.032533247 0.052967779
0.20175439 0.18471441 -0.41842046 -0.9814536 -0.18770596 -0.038927685 0.045861524
-0.20175439 0.19557695 -0.41432196 0.87242025 -0.48875412 0.0014990112 0.10270596
0.20175439 0.19407548 -0.41407934 -0.80978525 -0.58572644 -0.034239497 0.1068364
-0.20044044 0.20189694 -0.41315156 0.66008341 -0.75105393 0.014417653 0.11377171
-0.19657086 0.20189694 -0.41292715 0.65049219 -0.75950497 -0.003478718 0.102887
-0.18712367 0.20189694 -0.41651532 0.25182396 -0.96664399 0.046735182 0.055891309
-0.17551844 0.20189694 -0.41587174 0.042099416 -0.99906695 -0.0096352333 0.0039603929
-0.16553779 0.20189695 -0.41562995 -3.803829e-06 -1 3.1872056e-05 0
-0.15170074 0.20189694 -0.41413426 3.310902e-05 -1 3.7837945e-05 0
-0.14265168 0.20189695 -0.41272545 8.1691789e-05 -1 0.00016699467 0
-0.13531134 0.20189695 -0.41778564 2.1106292e-05 -1 7.1630391e-05 0
-0.12425885 0.20189692 -0.41586545 3.113236e-05 -1 0.00025489487 0
-0.11565389 0.20189694 -0.41612768 2.4859803e-05 -1 9.8441953e-05 0
-0.090555646 0.20189694 -0.41130486 3.3759265e-05 -1 0.00010146954 0
-0.084148765 0.20189695 -0.41693279 -8.8734187e-06 -1 0.0001740536 0
-0.071769826 0.20189694 -0.41615173 1.9276422e-05 -1 5.9150323e-05 0
-0.064344019 0.20189694 -0.41335627 1.7603632e-05 -1 5.5486277e-07 0
-0.053462319 0.20189694 -0.41583756 1.6770253e-05 -1 7.4000243e-05 0
-0.04676934 0.20189694 -0.41482177 2.7949432e-07 -1 6.9101741e-05 0
-0.035056334 0.20189694 -0.41509217 -2.6191135e-06 -1 8.7640544e-08 0
-0.02468536 0.20189694 -0.41327864 6.8065242e-06 -1 -1.2200385e-07 0
-0.011840184 0.20189695 -0.41663536 9.8658847e-07 -1 -1.0934927e-07 0
-0.0043788701 0.20189694 -0.41088486 5.0115568e-06 -1 8.4209889e-05 0
0.0061746798 0.20189694 -0.41011354 0 -1 0 0
0.013427533 0.20189694 -0.41146317 -6.6573434e-06 -1 0.00010638573 0
0.028042367 0.20189695 -0.41802871 -2.4518597e-06 -1 6.4318039e-05 0
0.032611974 0.20189694 -0.41258407 -7.278391e-06 -1 0.00010386422 0
0.047506966 0.20189694 -0.41603762 -2.1662996e-05 -1 3.3455879e-05 0
0.051743202 0.20189695 -0.41225445 -8.1173803e-06 -1 3.8755046e-05 0
0.060575947 0.20189694 -0.41054913 -8.4639232e-06 -1 9.9400662e-05 0
0.074612282 0.20189695 -0.41493616 1.8968205e-05 -1 0.00017424351 0
0.086820498 0.20189694 -0.41594028 -1.0651975e-05 -1 8.2113154e-05 0
0.096121162 0.20189694 -0.41615739 9.5947007e-06 -1 0.00017309353 0
0.10377596 0.20189694 -0.41799307 -6.9478897e-06 -1 9.9821147e-05 0
0.11355805 0.20189694 -0.41755646 -1.4344655e-05 -1 3.3981458e-05 0
0.12351947 0.20189694 -0.4144851 -2.4884022e-05 -1 3.5611851e-05 0
0.13361108 0.20189694 -0.41400319 -4.0012477e-05 -1 2.4925106e-05 0
0.14936003 0.20189694 -0.41458413 -3.9921688e-05 -1 6.5235297e-05 0
0.16771333 0.20189694 -0.41348264 -1.7965731e-05 -1 3.5506793e-05 0
0.17296295 0.20189694 -0.41496044 -0.033630431 -0.99943322 0.0014369325 0.0046605533
0.18399577 0.20189694 -0.41142002 -0.20694755 -0.97766954 0.036537874 0.045394938
0.19814163 0.20189694 -0.41706133 -0.68303251 -0.72582698 -0.081496023 0.091186941
0.20175439 0.20087491 -0.41363508 -0.73880559 -0.67342085 0.025897343 0.097106226
-0.20115992 -0.20136029 -0.40571347 0.73699272 0.67498136 -0.035240825 0.07465829
-0.18586721 -0.20161182 -0.40829006 0.13733304 0.99027628 -0.022191379 0.018407935
-0.17531683 -0.20161183 -0.40628257 0.077602558 0.99698043 0.0027956499 0.011001849
-0.16377558 -0.20161182 -0.40380847 8.4695512e-07 1 3.5948444e-05 8.3136629e-06
-0.15807769 -0.20161183 -0.40250111 3.1782798e-05 1 3.6079662e-05 0
-0.14248952 -0.20161183 -0.4075585 1.7559978e-05 1 2.4380274e-06 0
-0.13606234 -0.20161183 -0.40604663 2.9250339e-05 1 3.9804967e-05 0
-0.12569301 -0.20161183 -0.40254286 2.1279846e-05 1 3.9283914e-05 0
-0.11624613 -0.20161183 -0.40647888 3.5299151e-06 1 0.00011260601 0
-0.1040287 -0.20161183 -0.40206563 -7.3949781e-07 1 9.6933305e-05 0
-0.093227431 -0.2016118 -0.40513578 1.8126695e-05 1 -6.1013134e-07 0
-0.086132601 -0.20161185 -0.40618876 8.1674052e-06 1 1.3561875e-06 0
-0.074576214 -0.20161185 -0.40947831 7.8737476e-06 1 6.6054541e-05 0
-0.066040888 -0.20161183 -0.40601963 6.6459402e-06 1 7.504598e-05 0
-0.05404748 -0.20161185 -0.40551865 -8.4600351e-06 1 3.9251023e-07 0
-0.041243903 -0.20161183 -0.40055886 3.2226096e-06 1 -3.5554844e-05 0
-0.034945909 -0.20161183 -0.40628269 2.0036055e-06 1 2.93286e-08 0
-0.022507992 -0.20161183 -0.40504444 8.2562501e-06 1 3.9719198e-05 0
-0.010480199 -0.20161185 -0.40822667 -1.6412122e-06 1 3.1383028e-05 0
-0.0048023905 -0.20161183 -0.40537956 1.0494729e-06 1 1.2857286e-07 0
0.0047652605 -0.20161185 -0.40608546 -2.583341e-07 1 -2.2048734e-08 0
0.018662298 -0.20161183 -0.4032279 1.4744057e-06 1 3.6959271e-05 0
0.023394704 -0.20161183 -0.40396181 2.5658694e-06 1 -8.4660122e-08 1.8364217e-05
0.030516431 -0.20161185 -0.40239501 -3.6218061e-08 1 3.5453246e-05 0
0.055026252 -0.20161185 -0.40586683 -4.1967646e-06 1 -2.6107062e-07 0
0.064373463 -0.20161185 -0.40456975 -5.2432342e-06 1 3.4013057e-05 0
0.072835654 -0.20161183 -0.40644988 1.4094978e-05 1 -3.4743294e-05 0
0.085532829 -0.20161182 -0.40146136 -0 1 -0 0
0.093994163 -0.20161183 -0.40352735 -4.2101496e-05 1 6.038048e-05 0
0.10866058 -0.20161182 -0.40022743 8.2989573e-06 1 9.6272081e-05 0
0.11839262 -0.20161185 -0.40139669 -1.1011238e-05 1 3.2594176e-05 0
0.12439444 -0.20161183 -0.4055644 -3.9159895e-05 1 7.6839249e-05 0
0.13496867 -0.20161183 -0.40459287 1.3446949e-05 1 4.0252449e-05 0
0.14592311 -0.20161182 -0.40412691 9.7664788e-06 1 -2.9481011e-05 0
0.16279501 -0.20161182 -0.40291226 1.4150687e-05 1 -1.35904e-06 0
0.17944156 -0.20161183 -0.40423194 -0.10945828 0.99399132 0.00038484781 0.02267012
0.18388814 -0.20161182 -0.40518337 -0.1876671 0.98188925 0.025972012 0.044811636
0.19486839 -0.20161185 -0.40555194 -0.63586813 0.7714479 0.023234205 0.098098718
-0.20175439 -0.19417658 -0.40604728 0.91355783 0.40630743 -0.018065227 0.076132774
0.20175439 -0.19753264 -0.40531594 -0.81181443 0.58389592 0.0047976268 0.078996703
0.20175439 -0.17538351 -0.40578723 -0.99810266 0.060292274 -0.012483593 0.0045807175
-0.20175439 -0.16517727 -0.40757895 1 1.1820253e-05 2.8863415e-05 1.4472612e-05
0.20175441 -0.1650164 -0.40393981 -1 0 0 3.6445475e-05
-0.20175439 -0.15292706 -0.40461859 1 1.5275476e-05 -3.7606078e-05 3.6619378e-05
0.20175439 -0.15468943 -0.40310329 -1 -4.2389438e-06 -0.00010659818 3.7887934e-05
-0.20175439 -0.14570665 -0.40421906 1 6.3873781e-06 0.00010436947 1.7563107e-05
0.20175439 -0.14237964 -0.40582213 -1 -2.6858046e-05 -3.0860672e-05 3.5027697e-05
-0.20175439 -0.13195705 -0.40411121 1 5.4672128e-06 9.7530465e-05 9.0498743e-06
