# .PCD v0.7 - Point Cloud Data file format
VERSION 0.7
FIELDS x y z normal_x normal_y normal_z curvature
SIZE 4 4 4 4 4 4 4
TYPE F F F F F F F
COUNT 1 1 1 1 1 1 1
WIDTH 602
HEIGHT 1
VIEWPOINT 0 0 0 1 0 0 0
POINTS 602
DATA ascii
0.15332574 -0.12581924 0.35317239 1.6263062e-05 0.60148817 -0.79888171 0
0.16264051 -0.12583317 0.3531619 3.2740554e-05 0.60151517 -0.79886138 5.4851793e-05
0.17395478 -0.12553263 0.35338819 6.685259e-05 0.60148841 -0.79888153 0
0.18500918 -0.12463176 0.35406646 -3.5870098e-06 0.60147822 -0.79888916 3.4906079e-05
0.19879089 -0.12640148 0.35273406 1.8658084e-05 0.60149795 -0.79887432 4.0767387e-05
0.2056661 -0.12791643 0.35159343 -4.1437252e-05 0.60149944 -0.79887325 0
0.21463832 -0.1228592 0.35540104 -2.9296149e-05 0.60149586 -0.79887599 1.3890291e-05
0.22636037 -0.1273312 0.35203406 8.5106024e-07 0.60148495 -0.79888409 0
0.23345515 -0.12972815 0.35022938 2.7089279e-06 0.60149693 -0.79887503 9.8040127e-06
0.24467216 -0.12499953 0.35378957 -0.20222868 0.61428821 -0.76272774 0.034278475
0.25716567 -0.12589772 0.35311335 -0.40906966 0.58984017 -0.69624031 0.071539253
0.26411766 -0.12282461 0.35211661 -0.85331613 0.34524608 -0.39071313 0.058703646
-0.26411766 -0.11688945 0.35289431 0.76991349 0.38019705 -0.51252651 0.096214667
-0.25659445 -0.11698122 0.35982656 0.55140972 0.56320667 -0.61542326 0.082828268
-0.24413297 -0.11925249 0.35811651 0.19930667 0.6239329 -0.7556352 0.036300387
-0.23738489 -0.1187828 0.35847011 0.068504579 0.60826153 -0.79077488 0.0055060261
-0.22600219 -0.11760565 0.3593564 5.1812062e-06 0.6015017 -0.79887158 4.5627436e-05
-0.18541643 -0.11763553 0.3593339 7.5672601e-06 0.60147959 -0.79888809 2.7516848e-05
-0.16158308 -0.11704162 0.35978106 -2.8058295e-05 0.60146898 -0.79889619 9.1843691e-07
-0.14868157 -0.11770344 0.35928279 1.2724098e-05 0.60149884 -0.79887366 0
-0.1319534 -0.11759747 0.35936254 -2.2555612e-05 0.60148901 -0.79888105 1.6518268e-05
-0.11362841 -0.11888643 0.35839212 -1.5527487e-05 0.60146403 -0.79889983 3.0207846e-05
-0.096205711 -0.11825767 0.3588655 -3.1015155e-05 0.60151827 -0.79885906 3.7307593e-05
-0.024721824 -0.11836948 0.35878134 -6.5135407e-07 0.60149026 -0.79888016 0
-0.016455952 -0.11866612 0.35855794 -2.858289e-06 0.60144961 -0.7989108 0
-0.0038235132 -0.11743619 0.35948399 0.031585444 0.55184728 -0.83334678 0.0075222906
0.01402881 -0.1188163 0.3584449 0.12371915 0.34606028 -0.93001926 0.077317737
0.025453074 -0.11938719 0.35801506 0.12316769 0.21611571 -0.96856785 0.12256643
0.06701529 -0.11860797 0.35860178 -0.021753805 0.5874635 -0.80895823 0.0022753864
0.085113667 -0.11817657 0.35892656 -2.2240997e-06 0.60153991 -0.79884279 0
0.095477477 -0.11912097 0.35821551 -3.6767702e-05 0.60150445 -0.79886943 0
0.10520364 -0.11874449 0.35849896 1.7680896e-06 0.60148233 -0.79888612 1.3017996e-06
0.1174442 -0.11907423 0.35825068 4.9257946e-05 0.60148859 -0.79888141 3.4458565e-06
0.12793437 -0.1188038 0.35845429 2.7326789e-05 0.60149366 -0.7988776 3.5665485e-05
0.15722641 -0.11950871 0.3579236 -8.5839849e-05 0.60148621 -0.7988832 0
0.19530779 -0.11866152 0.35856143 5.9708884e-05 0.60148835 -0.79888159 8.5661513e-06
0.21695386 -0.11850889 0.35867634 -7.6995129e-05 0.60152698 -0.7988525 0
0.22441177 -0.11761723 0.35934767 -1.5388565e-05 0.60148388 -0.79888499 0
0.23039821 -0.11750705 0.35943061 -1.9168063e-05 0.60151356 -0.79886264 0
0.26411766 -0.11792309 0.35489693 -0.70741296 0.4378503 -0.55484599 0.081334122
-0.26411766 -0.10674734 0.35874969 0.78332388 0.42432842 -0.45425653 0.10003639
0.26411766 -0.091088384 0.35398453 -0.97597086 0.13798948 -0.16864063 0.048401855
-0.26411766 -0.08204788 0.35638547 0.99647593 0.050724193 -0.066803947 0.011631137
-0.26411766 -0.075010367 0.35340261 1 2.2242946e-06 -3.2283853e-05 0
0.26411766 -0.072068706 0.35301879 -1 -8.7826184e-06 -2.9011046e-05 0
-0.26411766 -0.050902799 0.3563357 1 -8.8709303e-06 -0.00011390656 0
0.26411766 -0.055497777 0.35327807 -1 4.803795e-06 -3.0800229e-07 0
-0.26411766 -0.042237751 0.35282284 1 2.4611374e-05 -0.00012582861 0
0.26411766 -0.047513638 0.35325673 -1 4.0086184e-06 -3.6011606e-05 0
-0.26411766 -0.037842106 0.35410163 1 1.0555923e-05 -4.4467968e-05 0
0.26411766 -0.031844176 0.35360575 -1 8.1545122e-06 -4.0872397e-05 0
-0.26411766 -0.023404347 0.35651782 1 1.956413e-05 -7.3876217e-05 0
-0.26411766 -0.012605534 0.35885879 1 -6.0791795e-06 -6.6231922e-05 0
0.26411766 -0.016442826 0.35226658 -1 3.0349299e-06 -5.637198e-05 0
-0.26411766 -0.0042139376 0.3554413 1 1.2582256e-05 6.6034823e-05 0
0.26411766 -0.0038208799 0.35709471 -1 -2.762148e-05 -0.000176299 0
-0.26411766 0.0063895313 0.35123149 1 4.0110212e-06 -3.1475192e-05 0
0.26411766 0.0027760144 0.35619411 -1 -2.4554043e-05 -0.00013497441 0
-0.26411766 0.014476401 0.35422364 1 0 0 0
-0.26411766 0.025432754 0.35679841 1 5.9937843e-06 -0.00010944776 0
0.26411766 0.0201391 0.35229933 -1 2.9395833e-06 -3.5234971e-05 0
-0.26411766 0.03664628 0.35670757 1 -8.6284899e-06 -1.2531784e-06 0
0.26411766 0.035485588 0.35489917 -1 -6.2691538e-06 -5.9845926e-05 0
-0.26411766 0.044662453 0.35538816 1 -1.5086454e-05 3.8900878e-05 0
0.26411766 0.040363923 0.3525002 -1 -8.6036162e-06 6.4984329e-07 0
-0.26411766 0.054113768 0.35422456 1 -1.3511665e-05 -1.1409189e-06 0
0.26411766 0.053112663 0.35306126 -1 -5.9319964e-06 -2.7932068e-05 0
-0.26411766 0.064908035 0.35186979 1 -1.5277401e-05 -3.1244798e-07 0
-0.26411766 0.07304538 0.3525027 1 -2.6729082e-05 3.5944799e-06 0
-0.26411766 0.088815041 0.35660741 0.98312914 -0.10128595 -0.15231009 0.031785693
0.26411766 0.083142608 0.35585499 -0.99648988 -0.066631012 -0.050678492 0.018478865
-0.26411766 0.097242817 0.35291478 0.95144719 -0.1622595 -0.26157209 0.060436293
0.26411766 0.096651696 0.3562786 -0.9497655 -0.17984234 -0.25612932 0.068172708
-0.26411766 0.10497574 0.35728204 0.83176291 -0.35251197 -0.42884243 0.09078607
0.26411766 0.10742483 0.35354656 -0.93002385 -0.21043257 -0.30128676 0.073066361
-0.26411766 0.11692755 0.35330233 0.72518891 -0.34664693 -0.59492594 0.063996293
-0.25266466 0.11765172 0.35998991 0.43481219 -0.50684142 -0.74434543 0.06935066
-0.22444561 0.11870898 0.35919392 2.7517599e-05 -0.6014573 -0.79890496 1.1807917e-06
-0.21221691 0.11843404 0.35940096 4.5024008e-06 -0.60148627 -0.79888314 2.2482724e-05
-0.20738935 0.11893556 0.35902333 -4.2065418e-05 -0.60146856 -0.79889649 0
-0.19453607 0.11916512 0.35885048 -4.5618141e-05 -0.60156113 -0.79882675 7.6877455e-05
-0.18723324 0.11797214 0.35974869 1.4950259e-05 -0.60154086 -0.79884207 7.6988144e-05
-0.17122337 0.11956385 0.35855031 9.8939527e-06 -0.60147667 -0.79889035 2.3340588e-05
-0.15608676 0.11816998 0.35959974 9.9598738e-06 -0.60148329 -0.79888535 2.232346e-05
-0.13025256 0.11989076 0.35830414 -1.3393676e-05 -0.60146022 -0.79890281 1.6210772e-05
-0.12451048 0.11910455 0.35889608 -1.7713468e-05 -0.60146976 -0.7988956 0
-0.11870734 0.1188493 0.35908827 1.1776989e-05 -0.60149449 -0.79887694 0
-0.10639631 0.1188456 0.35909104 -6.8813156e-06 -0.60149014 -0.79888016 3.7102953e-05
-0.051361986 0.11898794 0.3589839 4.4572107e-06 -0.60151023 -0.79886508 0
-0.032759935 0.11781886 0.35986412 3.6042575e-06 -0.60147721 -0.79888999 1.1537539e-07
-0.015357804 0.11824837 0.3595407 -7.9197989e-06 -0.60153109 -0.7988494 2.2994698e-05
-0.0014102533 0.11911032 0.35889176 2.231694e-06 -0.60150588 -0.7988683 0
0.004536693 0.11788256 0.35981613 1.2483621e-06 -0.60150778 -0.79886699 2.3839148e-05
0.021849357 0.11843171 0.35940266 -6.3571588e-06 -0.60151064 -0.79886484 1.8404487e-05
0.056560125 0.11912047 0.3588841 -2.2801514e-06 -0.60149723 -0.7988748 1.957592e-05
0.075053543 0.1178539 0.35983771 -7.5427488e-06 -0.60155612 -0.79883057 0.00015054565
0.12144394 0.11817765 0.35959399 1.7436656e-05 -0.60150206 -0.79887128 1.7702481e-05
0.16809961 0.11957705 0.35854039 -2.3385324e-05 -0.60152704 -0.79885244 0
0.18820214 0.11931071 0.3587409 -4.6351961e-05 -0.60144657 -0.798913 0
0.19795245 0.11819886 0.35957798 1.7589442e-06 -0.60150218 -0.7988711 1.9240237e-05
0.20577309 0.11775832 0.35990968 6.7326466e-05 -0.6014961 -0.79887575 0
0.23507401 0.11953822 0.35856956 -0.013195992 -0.60353649 -0.79722619 0.00053740531
0.25827694 0.11957701 0.35854039 -0.61999023 -0.42536002 -0.65930343 0.095340267
0.26347968 0.11739221 0.35655853 -0.75739026 -0.30128795 -0.57929748 0.085130006
-0.26411766 0.12033939 0.35103399 0.73656696 -0.3156364 -0.59819955 0.064412318
-0.25756478 0.1214827 0.35710558 0.58469093 -0.4229916 -0.69225335 0.060182538
-0.24611765 0.12550949 0.35407382 0.23283437 -0.57421416 -0.78489888 0.040006563
-0.2273241 0.12432359 0.3549667 -1.0278282e-05 -0.60147649 -0.79889047 0
-0.21572435 0.12665662 0.35321015 5.3680564e-05 -0.60148919 -0.79888093 0
-0.19431424 0.12374309 0.35540378 -3.8561138e-05 -0.60152102 -0.79885703 0
-0.18038918 0.12082133 0.35760355 -4.7077745e-05 -0.60145605 -0.79890591 0
-0.17137402 0.12982629 0.35082376 1.2018365e-05 -0.60152233 -0.79885602 5.4198259e-05
-0.16507524 0.12803571 0.35217187 -2.3951954e-05 -0.60153896 -0.79884344 9.2870432e-05
-0.1560196 0.12638628 0.35341373 6.4258461e-06 -0.60149777 -0.79887444 4.0693529e-05
-0.14335613 0.12416946 0.35508275 -9.548985e-07 -0.60149175 -0.79887897 4.2009844e-05
-0.13453943 0.12661472 0.35324171 -4.0722436e-05 -0.60148543 -0.79888374 9.6814911e-06
-0.12585196 0.12444942 0.35487196 2.7217186e-05 -0.60151541 -0.79886121 0
-0.117186 0.12307164 0.35590929 1.6878526e-05 -0.60151774 -0.79885936 0
-0.10503569 0.12511431 0.35437137 1.0154563e-05 -0.60150445 -0.79886949 0
-0.093972564 0.12342364 0.35564426 1.7941804e-05 -0.60151535 -0.79886127 0
-0.07368505 0.12288183 0.35605219 -6.2440522e-06 -0.6015262 -0.79885304 5.6704841e-05
-0.067387447 0.12311666 0.3558754 1.1958715e-05 -0.60152024 -0.79885757 0
-0.056377321 0.1253494 0.35419437 8.2967387e-07 -0.60151011 -0.79886526 4.5182998e-05
-0.044238739 0.12468861 0.35469186 7.4190716e-06 -0.6014905 -0.79887998 0
-0.023333643 0.12528518 0.35424271 -9.047821e-07 -0.60148782 -0.79888189 3.5807214e-05
-0.014152934 0.1232844 0.35574913 -6.2187728e-06 -0.60151607 -0.79886079 5.2496682e-05
-0.0068768561 0.12286328 0.35606617 7.021024e-06 -0.60153031 -0.79885 0
0.0044523655 0.12331335 0.35572731 1.4053592e-05 -0.60158151 -0.79881138 7.2985786e-05
0.014296077 0.1258301 0.35383248 -1.6723746e-08 -0.60151172 -0.79886407 0
0.025108283 0.12412691 0.35511476 -4.4401108e-06 -0.60149163 -0.79887915 3.5230778e-06
0.033869896 0.12677756 0.35311911 7.6225779e-06 -0.60149592 -0.79887581 0
0.046786748 0.1272954 0.3527292 9.8295895e-06 -0.60154247 -0.79884082 0
0.055905487 0.12733205 0.35270166 6.001876e-06 -0.60149008 -0.79888028 1.8434437e-05
0.064768851 0.12604904 0.35366762 1.5749816e-05 -0.60147524 -0.79889143 5.8269354e-05
0.075955503 0.12396178 0.35523909 1.1771173e-05 -0.60146904 -0.79889607 0
0.084817529 0.12788081 0.35228848 -2.4228731e-05 -0.60145378 -0.79890764 1.3733203e-06
0.098956883 0.12670594 0.35317302 -1.2239282e-05 -0.60147935 -0.79888839 0
0.1058061 0.12609182 0.3536354 -1.3671493e-06 -0.60147053 -0.79889494 0
0.12461883 0.12376142 0.35538995 4.3126169e-05 -0.60150456 -0.79886937 3.8124846e-05
0.13970143 0.12020671 0.35806629 -3.8201018e-05 -0.60148978 -0.79888046 0
0.14625867 0.12645534 0.35336173 -4.624388e-05 -0.60145116 -0.79890954 0
0.15451394 0.12812147 0.35210729 3.0390267e-05 -0.60149848 -0.7988739 2.7420234e-05
0.1634516 0.12511796 0.35436863 3.3845783e-06 -0.60148704 -0.7988826 0
0.17423834 0.12542416 0.35413808 -3.9857692e-05 -0.60151166 -0.79886401 0
0.18526122 0.12335165 0.3556985 1.7866301e-05 -0.60153651 -0.79884529 9.4939918e-05
0.19816756 0.12806857 0.3521471 -8.498034e-05 -0.60149926 -0.79887336 0
0.20365813 0.12708057 0.35289103 -0.00012669545 -0.60149533 -0.79887629 0
0.21593399 0.12563032 0.35398284 -3.1155236e-05 -0.60147381 -0.79889256 0
0.22547081 0.12508695 0.35439199 2.655449e-05 -0.60149837 -0.79887402 2.7162301e-05
0.23350412 0.12464527 0.3547245 -0.0019477224 -0.60142422 -0.79892755 0
0.24569267 0.12571067 0.35392237 -0.19801325 -0.57122225 -0.79655254 0.037272938
0.25512117 0.12183627 0.35683936 -0.31486589 -0.55646563 -0.76889884 0.056365259
0.2632989 0.12368071 0.35486516 -0.54369599 -0.47131202 -0.69444919 0.091148652
-0.21999505 0.13090083 0.35001472 2.6368434e-05 -0.60149038 -0.7988801 0
-0.17479342 0.13084324 0.35005808 -6.78379e-05 -0.6015107 -0.79886466 5.9509475e-05
-0.10067365 0.13024415 0.35050914 2.8717699e-05 -0.60149777 -0.7988745 0
-0.086162142 0.13000268 0.35069096 -8.9380683e-06 -0.6014967 -0.79887527 0
-0.0027641654 0.13014103 0.35058677 2.3485529e-06 -0.60152727 -0.79885232 0
0.018150955 0.13085905 0.35004619 2.722652e-07 -0.60148364 -0.79888517 0
0.026249908 0.1302602 0.35049704 3.2169503e-06 -0.60150588 -0.79886836 1.4611617e-05
0.062994175 0.13034008 0.3504369 -4.6671839e-06 -0.60148847 -0.79888147 1.1683655e-05
0.090900555 0.13072476 0.35014731 1.0841226e-05 -0.60149819 -0.7988742 3.0544266e-05
0.1039989 0.13038255 0.35040492 3.2575066e-05 -0.60148668 -0.79888278 5.4364969e-05
0.20326298 0.13048398 0.35032856 -6.4603475e-05 -0.60145998 -0.79890293 0
0.22288921 0.13049448 0.35032067 9.7881712e-05 -0.60153466 -0.79884666 0
0.025801446 -0.21290356 0.36906555 0.12056823 0.99238169 0.025336992 0.1000994
0.014491775 -0.20706907 0.36653975 0.41207913 0.89529496 0.16922699 0.075228751
0.020898025 -0.20750809 0.36297256 0.31472528 0.92526489 0.21173804 0.078895405
0.036951207 -0.20642656 0.3615903 -0.21956392 0.91296351 0.343932 0.073042221
0.006726604 -0.1966808 0.36189735 0.64486831 0.72156292 0.25197592 0.060210254
0.054271761 -0.19588915 0.36683935 -0.73171479 0.66539639 0.14778768 0.084718429
-0.0017623762 -0.18216956 0.36496651 -0.96890098 -0.20630234 -0.13663903 0.028934304
0.0011152618 -0.18863082 0.36199695 0.89857596 0.40991867 0.15661418 0.041282292
-0.0038216528 -0.1722528 0.36797833 -0.99850225 -0.010091859 -0.053772211 0.033124942
0.060653538 -0.17687112 0.36439359 -0.97875631 0.10430776 0.17651036 0.031092864
-0.0033507023 -0.16426484 0.36487103 -0.98215312 0.15610796 -0.10490768 0.037845187
0.06075117 -0.16365463 0.36659902 0.95876706 0.27309889 -0.078630857 0.044941064
-0.0018223132 -0.15608458 0.36514708 0.93303359 -0.32895595 -0.14572708 0.050076
0.0040898831 -0.15491119 0.3627072 -0.91022283 0.38088727 0.16254005 0.073522836
0.051161215 -0.15164137 0.36619827 -0.77221799 -0.50473005 -0.38591048 0.059909627
0.060642235 -0.15969267 0.36271235 -0.98563564 -0.095407359 -0.13935474 0.073702611
0.0090661542 -0.14761864 0.36654487 0.71681434 -0.58077192 -0.38585135 0.067225821
0.012517978 -0.14244053 0.36460647 0.61929917 -0.5347054 -0.57494235 0.10236415
0.044732738 -0.14361061 0.36640608 -0.59597218 -0.5749498 -0.56057996 0.090976737
0.051497679 -0.14985153 0.36309201 -0.80168992 -0.40959916 -0.43534103 0.067274772
0.017582089 -0.13827534 0.36417806 0.39204615 -0.64482713 -0.6561234 0.11606146
0.025488282 -0.1348577 0.36298689 0.10761297 -0.5602383 -0.82131141 0.16053367
0.032128245 -0.13810867 0.36766422 -0.10833994 -0.77402157 -0.62382138 0.10362196
-0.25054026 -0.11394956 0.36210904 0.32737213 0.60889888 -0.7225439 0.070535429
-0.24766679 -0.11247218 0.36322138 0.22527665 0.6029489 -0.76531243 0.057650838
-0.23710318 -0.1134081 0.36251673 0.054338545 0.60494393 -0.7944119 0.0046890802
-0.22556208 -0.11495012 0.36135575 3.052918e-05 0.60151035 -0.79886502 2.9773035e-05
-0.21910682 -0.11328006 0.36261308 -1.8018265e-05 0.60150629 -0.798868 1.0368214e-05
-0.20368744 -0.1124695 0.3632234 -3.9295115e-05 0.60152632 -0.79885292 4.8413338e-05
-0.19767746 -0.11262929 0.36310306 1.7821721e-05 0.60150087 -0.79887217 7.9528281e-06
-0.17449689 -0.11471033 0.36153626 3.7381626e-05 0.60148919 -0.79888093 0
-0.16447793 -0.11301951 0.3628093 -7.7826437e-05 0.60147697 -0.79889017 4.2064203e-05
-0.15111119 -0.11542717 0.36099657 6.6625885e-06 0.60147148 -0.79889429 0
-0.14499936 -0.11445336 0.36172977 -2.8699096e-05 0.60143316 -0.79892308 0
-0.12639597 -0.11352446 0.36242908 -3.6352772e-05 0.60148096 -0.79888713 4.2559943e-05
-0.11010265 -0.11608475 0.36050147 -2.9486871e-05 0.60147172 -0.79889411 0
-0.093537964 -0.11459827 0.3616206 -1.0645781e-05 0.60152698 -0.7988525 3.4537152e-05
-0.086905085 -0.11371453 0.36228603 -1.9796462e-05 0.6015054 -0.79886866 2.8303928e-06
-0.077200338 -0.11399136 0.36207756 2.1040358e-05 0.6015268 -0.79885268 0
-0.060200367 -0.11626202 0.36036795 -1.5092942e-05 0.60152268 -0.79885578 2.5960682e-05
-0.053690378 -0.11413303 0.3619709 5.2682532e-07 0.6015445 -0.79883927 3.6449885e-05
-0.043629002 -0.11452061 0.36167914 -1.6527416e-05 0.60158384 -0.79880971 6.8522691e-05
-0.025785487 -0.11254146 0.36316925 5.2444193e-06 0.60150146 -0.7988717 0
-0.013443353 -0.11291353 0.36288905 3.395236e-06 0.60151047 -0.79886484 2.1191232e-05
-0.0057937261 -0.11355051 0.36240947 0.025545446 0.57405847 -0.8184157 0.0030883171
0.0075860079 -0.11360481 0.36236861 0.094769627 0.42115659 -0.9020232 0.041437462
0.02708216 -0.115795 0.36071962 0.087991059 0.33838043 -0.93688643 0.0974131
0.037751593 -0.11382985 0.36219919 -0.066202909 0.45581701 -0.88760805 0.037273761
0.0457929 -0.11640272 0.36026207 -0.10886499 0.39101252 -0.91392428 0.051756591
0.057973187 -0.11302274 0.36280683 -0.028194375 0.56668127 -0.82345462 0.0054857773
0.061939303 -0.11572084 0.36077547 -0.031102102 0.56621754 -0.82366884 0.005311836
0.071680531 -0.11643867 0.36023498 -0.0046576243 0.59621304 -0.80281276 0.0001407534
0.086062111 -0.11432166 0.36182892 2.5612522e-05 0.60149145 -0.79887927 0
0.10403535 -0.11474618 0.36150926 -8.8833322e-06 0.60149443 -0.798877 0
0.11887082 -0.11304203 0.36279228 3.1079537e-05 0.60151392 -0.79886234 0
0.12629071 -0.11221349 0.36341614 -2.7797632e-05 0.60148281 -0.7988857 0
0.13432781 -0.11545295 0.36097711 3.3257027e-05 0.60150433 -0.79886955 1.2151694e-05
0.15401708 -0.11452827 0.36167333 1.6937502e-05 0.60147023 -0.79889524 1.1079841e-05
0.16352771 -0.11462648 0.36159939 -1.7269245e-05 0.60150522 -0.79886883 3.5055185e-05
0.1764929 -0.11060733 0.36462539 4.8172755e-05 0.60149378 -0.79887748 3.2995162e-05
0.19197114 -0.11289567 0.36290252 8.0612394e-05 0.60152382 -0.79885489 5.9602884e-05
0.20155188 -0.11294872 0.36286259 -1.0505864e-06 0.60149014 -0.79888028 0
0.21439624 -0.11349416 0.36245194 9.3450246e-05 0.60147417 -0.79889226 3.0630781e-05
0.22485 -0.11391363 0.3621361 6.1228848e-06 0.60147828 -0.79888928 0
0.23541147 -0.11432754 0.36182448 -0.02530558 0.60026383 -0.79940158 0.00088093191
0.24749988 -0.11092281 0.36438787 -0.25676069 0.58636224 -0.76827949 0.051257383
0.25590971 -0.1123598 0.36330599 -0.39726037 0.53892058 -0.74279797 0.066703804
0.26411766 -0.11080396 0.36234462 -0.46577057 0.50707191 -0.72521424 0.067852333
-0.26411766 -0.1057698 0.36379188 0.71483147 0.47007522 -0.51773089 0.099058405
-0.25236601 -0.1077321 0.36679015 0.30138302 0.60177529 -0.739618 0.065110616
-0.23493454 -0.10512945 0.36874968 0.015314531 0.60134006 -0.79884636 0.00085121125
-0.20203535 -0.10928147 0.36562365 -6.5840519e-05 0.60147756 -0.79888976 7.73384e-06
-0.19543527 -0.10722064 0.36717522 -1.9529782e-05 0.60151398 -0.79886228 3.3985569e-05
-0.18845269 -0.10660397 0.36763954 5.3948152e-06 0.60150701 -0.79886746 5.3508452e-06
-0.17299958 -0.10855222 0.3661727 1.4452694e-06 0.60149187 -0.79887891 0
-0.16629907 -0.10434899 0.36933729 2.3721993e-06 0.60147381 -0.7988925 0
-0.15601422 -0.10611949 0.36800426 1.283756e-05 0.60153049 -0.79884988 0
-0.14796557 -0.10669543 0.36757067 -5.7674457e-05 0.60151571 -0.79886097 2.6253689e-05
-0.13768585 -0.10945798 0.36549073 -4.412654e-05 0.60150814 -0.79886669 3.6455847e-05
-0.12794593 -0.10866116 0.36609066 -6.0507409e-05 0.60154933 -0.79883569 7.9043588e-05
-0.10666046 -0.10868537 0.36607242 -3.794685e-06 0.60148239 -0.79888612 0
-0.093302995 -0.10684597 0.3674573 4.4806152e-06 0.60151553 -0.79886115 2.8391056e-05
-0.075446382 -0.10583821 0.36821604 2.5504083e-05 0.60154593 -0.79883826 6.0219623e-05
-0.064821161 -0.10803469 0.36656234 -1.5993141e-05 0.6014812 -0.7988869 0
-0.055743486 -0.10556377 0.36842266 7.6048934e-07 0.60148084 -0.79888725 0
-0.040654816 -0.10645825 0.36774921 8.1868202e-06 0.60149652 -0.79887539 4.0468825e-05
-0.034024429 -0.10506806 0.36879587 6.5262848e-06 0.60150224 -0.7988711 0
-0.0040874411 -0.10674807 0.36753106 2.852644e-06 0.60154039 -0.79884243 7.3296389e-05
0.0054518897 -0.10432189 0.36935771 -4.1630705e-07 0.60149086 -0.79887962 3.5986155e-05
0.015493572 -0.10659796 0.36764401 0.013773675 0.56659496 -0.82388133 0.0054748971
0.028873036 -0.10819951 0.36643827 -0.0028592395 0.51271832 -0.8585521 0.018365711
0.034345247 -0.10707171 0.36728734 -0.0061366386 0.51719111 -0.85584795 0.015741272
0.044943959 -0.10537399 0.36856556 2.7783724e-06 0.60149711 -0.79887497 0
0.06746871 -0.10807452 0.36653236 -2.9512819e-05 0.60149652 -0.79887545 2.2651873e-05
0.072639599 -0.10542894 0.36852419 9.737224e-06 0.6014874 -0.79888225 0
0.088239655 -0.10480115 0.36899683 8.1083936e-06 0.60147095 -0.79889464 0
0.10348944 -0.10560425 0.36839223 -7.0389519e-06 0.60150355 -0.79887015 3.4813245e-05
0.11486223 -0.10444331 0.36926624 -1.5970248e-06 0.60153472 -0.79884672 4.7562487e-05
0.12445948 -0.10676913 0.36751515 -1.5252805e-05 0.60149437 -0.798877 4.3186669e-06
0.13655867 -0.10569888 0.36832094 2.8403003e-05 0.60153103 -0.79884952 3.8165097e-05
0.14445662 -0.10659324 0.36764759 1.5796404e-05 0.60147905 -0.79888856 0
0.15374774 -0.10889456 0.36591494 -1.9392699e-05 0.60152727 -0.79885232 8.7059207e-06
0.16282256 -0.10791832 0.36664993 -5.5436649e-05 0.60152572 -0.79885334 0
0.17216516 -0.10775688 0.36677146 2.558147e-05 0.6014784 -0.7988891 2.1068738e-05
0.18350315 -0.10655204 0.36767861 1.1063031e-05 0.60149777 -0.79887456 0
0.19657847 -0.1074371 0.36701226 4.9755763e-05 0.60152483 -0.79885411 3.6932153e-05
0.20843506 -0.10772015 0.36679915 1.5175028e-05 0.60151261 -0.79886335 4.5925844e-05
0.21643394 -0.1079765 0.36660612 4.6932691e-06 0.60149378 -0.79887754 2.8301685e-05
0.22543755 -0.10824265 0.36640579 3.9975163e-05 0.60156989 -0.7988202 7.8813042e-05
0.23556185 -0.10493333 0.36889732 -0.04561111 0.5936259 -0.8034476 0.0027245423
0.24543771 -0.10568575 0.36833084 -0.20301151 0.59569657 -0.77713066 0.038785767
0.25513414 -0.10806324 0.36654082 -0.34694758 0.57432675 -0.74146897 0.064484604
0.26238352 -0.104229 0.36718318 -0.45441011 0.51501697 -0.72682106 0.078053728
-0.26411766 -0.092147969 0.36386448 0.92267329 0.21955639 -0.3169685 0.062946707
0.26411766 -0.097013861 0.36687216 -0.76394743 0.33767882 -0.54987025 0.10256572
-0.26411766 -0.086019851 0.36531904 0.91377729 0.19444834 -0.35665238 0.072143912
0.26411766 -0.083320007 0.36926585 -0.94392514 0.21475759 -0.2507678 0.066369757
-0.26411766 -0.074308462 0.36202464 0.98921204 0.096280642 -0.11040601 0.02185984
0.26411766 -0.073914632 0.36623648 -0.98949718 0.054125946 -0.13403583 0.024949575
-0.26411766 -0.065527715 0.36486587 0.9991923 0.023742124 -0.032420423 0.0062013953
0.26411766 -0.064708486 0.36480615 -0.99671388 0.050974209 -0.062952451 0.0082758861
-0.26411766 -0.052988313 0.36358815 1 1.0062727e-05 -3.0091949e-05 0
0.26411766 -0.053940523 0.36462885 -1 4.8632774e-06 -3.62346e-05 0
-0.26411766 -0.046161696 0.36300912 1 6.5726977e-06 -2.9034038e-05 0
0.26411766 -0.04372967 0.36358544 -1 -3.8189928e-06 -3.0906409e-05 0
-0.26411766 -0.035239369 0.36414483 1 6.762794e-07 3.4990306e-05 0
0.26411766 -0.031687412 0.36340028 -1 1.1132423e-05 -0.00011668398 0
-0.26411766 -0.029250108 0.36821204 1 6.3756211e-06 -3.632022e-05 0
0.26411766 -0.020651771 0.36784166 -1 -8.5851188e-06 -8.0780635e-05 0
-0.26411766 -0.01581098 0.36257184 1 2.1764232e-05 -0.00019975443 0
0.26411766 -0.011958956 0.36687797 -1 -6.8676866e-07 -7.5591459e-05 0
-0.26411766 -0.0074667316 0.36697698 1 5.0422368e-06 -6.375368e-05 0
0.26411766 0.0051568793 0.36671472 -1 9.8347264e-06 -3.8276565e-05 0
-0.26411766 0.013935302 0.36284801 1 4.9546702e-06 9.2747287e-05 0
0.26411766 0.01277014 0.36546814 -1 -6.1209175e-06 3.4939432e-05 0
-0.26411766 0.029582595 0.36432612 1 0 0 0
0.26411766 0.024415987 0.36957857 -1 2.1414612e-06 2.8314729e-05 0
-0.26411766 0.03226706 0.36621231 1 1.5196775e-06 -9.6698328e-05 0
0.26411766 0.036731809 0.36589921 -1 -4.7456447e-06 -3.7207516e-07 0
-0.26411766 0.042625014 0.36548695 1 -6.8059476e-06 -8.2864513e-05 0
-0.26411766 0.054466516 0.36202613 1 4.2264492e-06 -1.1407045e-08 0
0.26411766 0.053490285 0.36416167 -1 4.6241953e-06 -0.00011755328 0
-0.26411766 0.06325116 0.36517715 0.99995458 -0.0071630809 -0.0062764254 0.00025129129
0.26411766 0.063269615 0.36091876 -1 1.5784666e-07 -6.1939587e-05 0
-0.26411766 0.070497677 0.36008802 0.99911839 -0.022984905 -0.035129819 0.0042553861
0.26411766 0.079097122 0.36269397 -0.97857547 -0.11227629 -0.17258063 0.050910644
-0.26411766 0.086582899 0.36922401 0.9437685 -0.19037779 -0.270291 0.066211946
0.26411766 0.083959572 0.36698878 -0.96433216 -0.15188155 -0.21678439 0.057073761
-0.26411766 0.093245693 0.36686084 0.87207001 -0.29782674 -0.38832086 0.088947929
-0.26190084 0.10814739 0.36714569 0.55114555 -0.54188228 -0.63450938 0.073076598
-0.24274325 0.10912926 0.36640644 0.15514608 -0.58402896 -0.79676837 0.025147028
-0.23546346 0.10969182 0.36598292 -1.5857269e-05 -0.60146314 -0.79890054 0
-0.22941579 0.10488855 0.36959925 -5.21904e-05 -0.60148096 -0.79888713 1.8483233e-05
-0.21006927 0.10684355 0.36812735 7.4252916e-05 -0.60147369 -0.79889262 0
-0.20601034 0.10595983 0.36879268 -7.722143e-06 -0.60148054 -0.79888743 0
-0.19514763 0.10632829 0.36851528 8.0328988e-08 -0.60150427 -0.79886967 6.8390582e-05
-0.18293798 0.10742272 0.36769128 -4.8109872e-05 -0.60154444 -0.79883939 8.7184075e-05
-0.17129552 0.10999851 0.36575198 -6.6900411e-06 -0.60148412 -0.79888475 0
-0.15613893 0.10583164 0.36888921 -6.8765148e-05 -0.60152566 -0.79885346 7.6217657e-05
-0.14441392 0.1060637 0.36871448 3.8172831e-05 -0.60149789 -0.79887444 3.8927075e-05
-0.1372665 0.10439936 0.36996758 2.1507023e-05 -0.60148615 -0.79888314 1.4836027e-05
-0.12417421 0.10735116 0.36774516 1.8676219e-05 -0.60151786 -0.79885936 2.5857233e-05
-0.11453019 0.1086625 0.36675787 -1.9567426e-06 -0.60148597 -0.79888332 6.1514229e-06
-0.10074449 0.10639258 0.36846688 -3.0529443e-06 -0.60151696 -0.79886001 4.4606662e-05
-0.093388945 0.10687557 0.36810324 4.7679455e-06 -0.60147911 -0.7988885 0
-0.082911059 0.10756325 0.36758548 -1.3522411e-05 -0.60154021 -0.79884255 0
-0.079458617 0.10477201 0.36968699 -1.7036276e-05 -0.60148525 -0.79888391 2.9136338e-05
-0.060890488 0.10524698 0.36932939 2.5879351e-06 -0.60144448 -0.79891461 0
-0.051581413 0.10659954 0.36831105 1.4738401e-05 -0.60147125 -0.79889446 0
-0.04673551 0.10731068 0.36777562 -4.4715583e-05 -0.60151982 -0.79885787 2.6800024e-05
-0.0080774371 0.10745259 0.36766881 -8.0533954e-07 -0.60147387 -0.79889244 2.2086715e-05
5.42216e-05 0.10558937 0.3690716 -3.9677625e-06 -0.60151702 -0.79885995 3.1504824e-05
0.02473315 0.10747594 0.36765122 -1.2663216e-06 -0.60150278 -0.79887074 0
0.045997281 0.10558531 0.36907467 3.2061239e-06 -0.60149276 -0.79887825 0
0.066810966 0.10753152 0.36760938 1.9287059e-05 -0.60148799 -0.79888189 4.0097519e-05
0.079407819 0.10520993 0.36935729 2.2159718e-05 -0.60159785 -0.7987991 0.00015019519
0.087924562 0.10851602 0.36686814 -1.3876358e-05 -0.60149419 -0.79887718 0
0.099262916 0.10668019 0.36825031 -2.2149225e-05 -0.60149664 -0.79887533 0
0.10454022 0.10891938 0.36656448 -1.2605214e-05 -0.60146409 -0.79889983 0
0.11109705 0.10941866 0.36618856 7.5995126e-06 -0.60145849 -0.79890406 0
0.13330585 0.10504915 0.36947832 -2.8620876e-05 -0.60152501 -0.79885399 0
0.1440731 0.109515 0.36611605 1.046983e-05 -0.60152644 -0.79885292 4.3885964e-05
0.15590343 0.10856234 0.36683327 -2.111e-05 -0.60153902 -0.79884338 1.8528192e-05
0.1653523 0.1080118 0.36724779 3.0399846e-05 -0.60145777 -0.7989046 2.4201161e-05
0.17098925 0.10778122 0.36742139 1.7811959e-05 -0.60151988 -0.79885787 2.3478249e-05
0.19380498 0.10776187 0.36743596 -2.2422244e-05 -0.6015358 -0.79884583 0
0.20277917 0.10648538 0.368397 7.2386327e-05 -0.60148197 -0.79888636 0
0.2120899 0.10805059 0.36721858 -6.6914734e-05 -0.60151565 -0.79886103 0
0.22513394 0.10561232 0.36905432 -3.5611843e-05 -0.6015138 -0.7988624 2.5399519e-05
0.23309821 0.10475074 0.36970305 -0.00010270969 -0.60146493 -0.79889923 0
0.24128264 0.10484527 0.36963186 -0.10604899 -0.6098187 -0.78541368 0.01848226
0.25022101 0.10496074 0.36954489 -0.25662085 -0.57196546 -0.77910292 0.054382496
0.26411766 0.10619608 0.36015213 -0.90505195 -0.23947942 -0.35146928 0.085922711
-0.25522718 0.11521146 0.36182719 0.54089797 -0.4544827 -0.70772505 0.076215312
-0.24305815 0.11689723 0.36055797 0.18408558 -0.60198849 -0.77699572 0.033431157
-0.2366392 0.11270319 0.36371565 0.059369702 -0.60430133 -0.79454076 0.0080842795
-0.22095197 0.11719503 0.36033374 3.5913679e-05 -0.60145915 -0.79890347 0
-0.21453777 0.11484927 0.36209989 2.5749425e-05 -0.60151666 -0.79886019 1.7656856e-05
-0.20347138 0.11364934 0.36300328 -1.1648108e-05 -0.60151112 -0.79886442 2.4524021e-05
-0.19882846 0.11005616 0.36570859 3.7285245e-05 -0.60147458 -0.7988919 0
-0.1888859 0.11263362 0.36376801 -0.00010841144 -0.60153025 -0.79885 8.093605e-05
-0.17750776 0.11376776 0.36291414 -1.1599077e-06 -0.60148823 -0.79888171 8.3560799e-06
-0.15719207 0.11607057 0.36118037 -3.296791e-05 -0.60150629 -0.79886806 5.4970878e-05
-0.14091846 0.11722516 0.36031109 -2.1642475e-06 -0.60148418 -0.79888475 1.4173241e-05
-0.13370675 0.11170443 0.36446762 -1.8285617e-05 -0.60145003 -0.79891038 0
-0.12252659 0.11714326 0.36037278 -1.3542954e-06 -0.60148948 -0.7988807 3.330873e-05
-0.1160547 0.11118121 0.36486155 -9.1567626e-06 -0.6015411 -0.79884195 6.4254848e-05
-0.10420948 0.11373612 0.36293796 -2.097972e-05 -0.60151219 -0.79886365 2.3360404e-05
-0.092052907 0.11375187 0.36292607 2.6811329e-05 -0.6015029 -0.79887068 0
-0.085512459 0.11464094 0.36225677 -2.0027885e-05 -0.60154331 -0.79884017 2.8355184e-05
-0.078835428 0.11377218 0.36291081 -5.1609727e-06 -0.60151196 -0.79886383 0
-0.064483903 0.11325745 0.36329833 1.1720969e-05 -0.60158318 -0.79881012 8.1959093e-05
-0.050539482 0.11561644 0.36152229 -1.2446046e-05 -0.60151118 -0.79886442 5.4623965e-06
-0.040521026 0.11356501 0.36306679 2.7495503e-06 -0.60148931 -0.79888088 0
-0.035100605 0.11204131 0.364214 2.2474917e-06 -0.60151505 -0.7988615 4.8751524e-05
-0.024237715 0.11472321 0.36219478 -2.7807966e-06 -0.60144526 -0.79891396 6.4823939e-06
-0.01121828 0.1172669 0.36027965 1.2536126e-05 -0.60152578 -0.79885346 3.3398057e-05
0.0050803516 0.11335645 0.36322382 -4.0982241e-06 -0.60149086 -0.79887962 0
0.024076678 0.11295775 0.36352396 4.5640272e-06 -0.60148782 -0.79888195 0
0.034874436 0.11186972 0.36434317 8.3327632e-06 -0.60151774 -0.79885954 0
0.044151083 0.11468177 0.36222601 -1.9549886e-06 -0.60148311 -0.79888552 0
0.057174388 0.11237039 0.3639662 5.5746204e-06 -0.60151726 -0.79885978 7.9531885e-05
0.067714401 0.11247737 0.36388564 -1.1480249e-05 -0.60151368 -0.79886246 2.5616819e-05
0.079091646 0.11062396 0.36528108 -1.2228144e-05 -0.60151196 -0.79886377 3.3799162e-05
0.08834251 0.11287865 0.36358356 -1.7384134e-05 -0.60151517 -0.79886138 0
0.10841243 0.11489399 0.36206621 -1.6550217e-05 -0.60153347 -0.79884756 8.8006018e-05
0.11848316 0.11237113 0.36396566 -4.8186776e-06 -0.60157067 -0.79881966 9.0449903e-05
0.13381229 0.11389545 0.362818 1.6273378e-05 -0.60148084 -0.79888719 0
0.15356533 0.11626457 0.36103433 9.9666122e-06 -0.6015172 -0.79885989 8.0981641e-05
0.16689183 0.11415473 0.3626228 3.9976989e-05 -0.60148573 -0.79888362 0
0.17913613 0.11000749 0.36574522 1.0010292e-05 -0.60152 -0.79885769 2.4892266e-05
0.18882555 0.11663198 0.36075768 3.334141e-05 -0.60147506 -0.79889154 3.0638388e-05
0.19723861 0.11312632 0.36339709 -2.2124523e-05 -0.6014834 -0.79888523 0
0.20374368 0.11261744 0.36378023 -9.2084221e-05 -0.60149372 -0.79887748 0
0.22415027 0.11255102 0.36383024 -8.5332227e-05 -0.60147321 -0.79889297 0
0.24426366 0.11248457 0.36388022 -0.19836994 -0.58527035 -0.7861985 0.037718318
0.25747815 0.11571418 0.36144868 -0.44341654 -0.53776699 -0.71706933 0.082775392
0.26267558 0.11037342 0.36546975 -0.58653319 -0.51570314 -0.62452298 0.096963502
0.029192055 -0.21084704 0.37162286 -0.012498733 0.99222732 -0.12380952 0.11287457
0.03195909 -0.2106723 0.37175444 -0.25253922 0.95581895 -0.15044653 0.10511372
0.0058617606 -0.20305483 0.37733081 0.61703724 0.76365298 -0.18999802 0.057158213
0.025801599 -0.20128527 0.37882188 0.16487695 0.80896747 -0.5642581 0.068219624
0.032528173 -0.20441924 0.37646237 -0.2188556 0.87670654 -0.42835483 0.085333042
0.046453342 -0.20644097 0.37360832 -0.44947794 0.87818587 -0.16358197 0.095234476
0.052719936 -0.20294669 0.37285092 -0.59502172 0.79695266 -0.10399817 0.095246039
0.058300663 -0.19602276 0.37795311 -0.74421507 0.61895412 -0.25107741 0.087260671
0.061029259 -0.17188388 0.37269664 -0.99511743 0.0039426754 -0.098619848 0.043927111
-0.0022042855 -0.16488299 0.37530005 0.95417494 -0.24905771 -0.16589291 0.041893192
-0.00054608262 -0.15817472 0.37304577 -0.88149947 0.45737162 0.11734476 0.037339836
0.0015453909 -0.15530658 0.37552679 -0.80198288 0.56141752 0.2040437 0.038565461
0.056946144 -0.15363435 0.37154248 -0.78968108 -0.58075792 -0.19779797 0.031972837
0.0083114076 -0.14906105 0.37972066 0.58619934 -0.7294544 -0.35251468 0.031920463
0.013936844 -0.14127868 0.37569287 0.46626538 -0.7112726 -0.52601117 0.043751482
0.024550755 -0.14222017 0.37449569 0.24630246 -0.76887161 -0.59006071 0.074085943
0.03652367 -0.14238325 0.37419063 -0.18331558 -0.86117375 -0.47410458 0.051554676
0.043342888 -0.14211904 0.37553111 -0.48301977 -0.76967418 -0.41748479 0.04075481
0.050020643 -0.149451 0.37930661 -0.61941868 -0.70142555 -0.35259408 0.025854668
0.026255917 -0.13984111 0.37948865 0.1156944 -0.8318041 -0.54287827 0.041141685
0.032384578 -0.13921513 0.37787208 -0.24110362 -0.81952554 -0.51985282 0.064065389
-0.26070327 -0.10141806 0.37154397 0.50168651 0.43888426 -0.74544704 0.083592474
-0.25599742 -0.10146157 0.37151119 0.44970474 0.47043073 -0.75925004 0.074536391
-0.2425113 -0.10143647 0.37153009 0.11325739 0.5855208 -0.80270672 0.018457541
-0.23317379 -0.1018852 0.37119225 -5.5865959e-05 0.60155958 -0.79882795 7.9003279e-05
-0.22370645 -0.10050133 0.3722342 3.7519305e-05 0.60154212 -0.79884106 4.4143097e-05
-0.21613452 -0.10338248 0.37006497 -4.6840392e-05 0.60150594 -0.79886836 5.014431e-05
-0.1948027 -0.10000107 0.37261081 2.1061123e-06 0.60148609 -0.79888332 7.939253e-06
-0.18573128 -0.10147724 0.37149942 9.8520677e-06 0.60154146 -0.79884154 6.8894042e-05
-0.17193906 -0.10123451 0.37168217 -1.3182565e-05 0.60149252 -0.79887849 6.1249419e-05
-0.16831616 -0.10023681 0.37243333 -1.2072288e-05 0.60149056 -0.79887986 0
-0.14633805 -0.10088621 0.3719444 -1.0144798e-05 0.60152286 -0.7988556 3.1247728e-05
-0.12662172 -0.10243595 0.37077761 -4.7190108e-05 0.60156947 -0.7988205 8.6059699e-05
-0.11809603 -0.10175623 0.37128937 -2.354808e-05 0.60147071 -0.79889482 0
-0.10367502 -0.10102636 0.37183887 -2.6279749e-05 0.60152447 -0.79885435 6.6612978e-05
-0.093155079 -0.10147387 0.37150195 -2.6298419e-05 0.60149157 -0.79887915 2.8395814e-05
-0.073795334 -0.10167229 0.37135255 1.4167516e-05 0.60147655 -0.79889041 3.597663e-06
-0.030379536 -0.10150562 0.37147802 -7.9921335e-07 0.60148919 -0.79888099 1.8407996e-05
-0.020298675 -0.10231621 0.37086776 1.0188275e-05 0.60148895 -0.79888111 0
-0.019174058 -0.10136287 0.37158555 4.8348664e-07 0.60148609 -0.79888326 0
0.0090651661 -0.10251166 0.3707206 -4.1067815e-06 0.60144192 -0.79891652 6.6455559e-06
0.01715529 -0.10176869 0.37127998 0.0013021366 0.5975703 -0.80181539 5.415365e-05
0.036888659 -0.10288559 0.37043905 3.1871059e-06 0.60147893 -0.79888862 2.6380538e-05
0.040814988 -0.10269392 0.37058336 8.3017034e-07 0.60147327 -0.79889297 3.7841041e-06
0.055801157 -0.10207632 0.37104836 6.5345744e-06 0.60152465 -0.79885423 0
0.06644389 -0.10170835 0.37132543 1.3770009e-05 0.60148823 -0.79888171 5.2657073e-05
0.089562371 -0.10069785 0.3720862 -1.8089861e-05 0.60148793 -0.79888189 0
0.094265513 -0.1017856 0.37126726 7.4941881e-06 0.60147488 -0.79889166 1.2334568e-06
0.10475621 -0.10120964 0.37170091 -3.2655505e-05 0.60149592 -0.79887587 0
0.11297277 -0.10120714 0.37170276 -3.894222e-05 0.60149735 -0.79887486 0
0.13763198 -0.10085457 0.37196818 -1.6234815e-05 0.60150445 -0.79886943 0
0.14169075 -0.10332286 0.37010983 -3.5243789e-05 0.60150415 -0.79886961 0
0.15652871 -0.10200584 0.37110141 -2.240327e-05 0.60149848 -0.79887396 0
0.1734485 -0.10177749 0.37127334 4.3068644e-06 0.6015048 -0.79886913 3.0831838e-05
0.18640891 -0.10011189 0.37252736 -4.7716974e-05 0.60147154 -0.79889423 0
0.20388874 -0.10112676 0.37176326 -1.83626e-05 0.60150862 -0.79886627 2.8866336e-05
0.21518315 -0.10090854 0.37192759 -4.4259414e-06 0.60148859 -0.79888135 0
0.23861611 -0.10109056 0.37179053 -0.056978412 0.5976274 -0.79974681 0.0036192019
-0.26125917 -0.095462762 0.37602767 0.5519188 0.46227902 -0.6940344 0.097313389
-0.2525456 -0.094414674 0.37681681 0.34470978 0.49703434 -0.79632407 0.064611673
-0.24422997 -0.094927832 0.37643045 0.1731544 0.56913841 -0.80380279 0.031730242
-0.23584825 -0.09625189 0.37543356 0.024727603 0.59659094 -0.80216444 0.002464646
-0.2259199 -0.091502532 0.37900934 -0.0001122108 0.60152459 -0.79885423 5.1689414e-05
-0.2167913 -0.095053777 0.37633562 3.2059248e-05 0.60150564 -0.79886854 0
-0.20256612 -0.09286993 0.37797984 -6.622701e-05 0.60147685 -0.79889023 9.8122064e-06
-0.19321133 -0.09447781 0.37676921 -2.657757e-06 0.60151136 -0.79886431 2.1090202e-05
-0.17614418 -0.099113807 0.37327886 -4.0178925e-06 0.60147035 -0.79889512 0
-0.16333345 -0.094590649 0.37668431 8.5626898e-06 0.60147423 -0.79889226 0
-0.15957338 -0.098376483 0.37383395 -3.9182982e-05 0.60143548 -0.79892141 1.0253444e-05
-0.14407596 -0.092930883 0.37793392 -5.0035291e-05 0.60154176 -0.79884142 5.0110437e-05
-0.13431522 -0.093632549 0.37740564 -2.9239064e-07 0.60146934 -0.79889596 0
-0.12778842 -0.094949275 0.3764143 4.6069948e-05 0.60148776 -0.79888207 1.2243755e-05
-0.11747324 -0.094774216 0.37654606 -3.2543667e-05 0.60144877 -0.79891133 0
-0.10553619 -0.093114816 0.37779543 1.5399566e-05 0.60149813 -0.7988742 0
-0.092421949 -0.094979182 0.37639177 1.8900024e-05 0.60148835 -0.79888153 0
-0.084419988 -0.097147547 0.3747592 7.4047347e-07 0.60148418 -0.79888475 0
-0.0747457 -0.095949486 0.37566125 -9.5030111e-07 0.60150081 -0.79887211 0
-0.06464301 -0.095012739 0.3763665 7.0388887e-06 0.60148847 -0.79888141 1.3430322e-05
-0.05398507 -0.09369459 0.37735894 4.0321911e-06 0.60147923 -0.79888839 0
-0.04608709 -0.096144199 0.37551463 -6.9244038e-06 0.60146737 -0.79889733 2.0189505e-05
-0.036499452 -0.097500503 0.37449345 -1.1544579e-06 0.60147399 -0.79889244 0
-0.027568843 -0.092885539 0.37796807 -9.1060474e-06 0.60147715 -0.79888999 0
-0.016696475 -0.098192997 0.37397212 3.57012e-06 0.60150862 -0.79886627 2.4055644e-05
0.002331242 -0.092896603 0.37795973 1.7008597e-06 0.60149956 -0.79887313 4.0093437e-05
0.011959015 -0.095256805 0.37618273 2.2983727e-06 0.60153443 -0.7988469 5.0639243e-05
0.031474605 -0.098514184 0.37373027 -1.2229666e-05 0.60147452 -0.79889196 0
0.044569507 -0.096746482 0.37506118 -5.77737e-06 0.6014505 -0.79891002 0
0.058140069 -0.094447672 0.37679195 -6.2801723e-06 0.60148424 -0.79888469 2.8049312e-06
0.063836858 -0.096531898 0.37522274 -1.7221833e-05 0.60148287 -0.7988857 0
0.076763779 -0.099224269 0.37319565 -7.288801e-06 0.60149217 -0.79887873 0
0.084435217 -0.093298912 0.37765679 1.5181008e-05 0.60148406 -0.79888481 0
0.097612664 -0.094397262 0.37682986 -1.6944616e-05 0.60150534 -0.79886889 0
0.10576097 -0.095648512 0.37588781 -3.702324e-06 0.60153604 -0.79884565 5.3243239e-05
0.11918987 -0.095287524 0.37615964 -2.8923048e-05 0.60149324 -0.79887789 0
0.12416098 -0.095401004 0.37607417 -2.5862402e-05 0.60148215 -0.79888624 0
0.13088734 -0.092261255 0.37843806 -7.6597407e-06 0.60147464 -0.7988919 0
0.14428084 -0.095298953 0.37615097 6.523286e-05 0.60152286 -0.7988556 1.8996903e-05
0.15276814 -0.099184819 0.37322536 8.1579428e-06 0.60151029 -0.79886502 0
0.16219261 -0.091949597 0.37867272 7.9584774e-05 0.60148567 -0.79888362 1.746632e-05
0.1735978 -0.098329484 0.3738693 -7.062548e-05 0.60149294 -0.79887819 4.3134687e-06
0.18477918 -0.093318716 0.37764192 -6.378126e-07 0.60145217 -0.79890877 0
0.19477931 -0.094924629 0.37643284 1.1962628e-05 0.60149032 -0.7988801 0
0.2155233 -0.094301008 0.37690234 -2.7986562e-05 0.60146666 -0.79889786 2.4392491e-06
0.22447334 -0.097277842 0.37466112 7.342016e-05 0.60154247 -0.79884088 0.00011301582
0.23930737 -0.090507798 0.37975827 -0.085539363 0.61054927 -0.78734535 0.010579662
0.24466948 -0.09575972 0.37580413 -0.17606425 0.59584504 -0.78356236 0.036187422
0.2559984 -0.093042277 0.37785006 -0.42340326 0.48415911 -0.76571518 0.061644468
0.26411766 -0.096071661 0.37057793 -0.71646005 0.41661769 -0.5595665 0.08485093
-0.26411766 -0.086283028 0.37434104 0.83421016 0.323769 -0.44639343 0.0977033
0.26411766 -0.086955339 0.3752431 -0.76963818 0.35326126 -0.53184915 0.08061076
-0.26411766 -0.073280424 0.3711347 0.96574962 0.17758164 -0.18918894 0.046191156
0.26411766 -0.074387103 0.37123871 -0.97245073 0.15409695 -0.17491065 0.051742062
-0.26411766 -0.06317395 0.37777856 0.9600153 0.20232332 -0.1934839 0.045588579
0.26411766 -0.066669963 0.37405634 -0.96821153 0.060941245 -0.24259573 0.049757998
-0.26411766 -0.053293016 0.37325442 0.9984529 0.030056108 -0.046781648 0.0066547743
0.26411766 -0.056101598 0.37524885 -0.99609417 0.04672657 -0.074920543 0.0087632081
0.26411766 -0.043934572 0.37587708 -0.99998844 0.0033124655 -0.0034805287 6.7789242e-06
0.26411766 -0.036122248 0.37338108 -1 5.998977e-06 -3.2792268e-05 0
-0.26411766 -0.024017751 0.37211865 1 -1.2506093e-06 -9.5989613e-05 0
0.26411766 -0.026068468 0.37601203 -1 2.2601514e-06 -2.9538e-05 0
-0.26411766 -0.010234511 0.37699556 1 3.2800435e-06 -7.0466194e-07 0
0.26411766 -0.013959533 0.3727144 -1 2.4761755e-06 -3.1396663e-05 0
-0.26411766 -0.0045063244 0.37764248 1 5.1740608e-07 -7.3059518e-08 0
0.26411766 -0.0056512821 0.37502626 -1 7.1630407e-06 -3.2446867e-05 0
-0.26411766 0.0082044033 0.37395003 1 -2.981591e-06 -6.1274943e-05 0
0.26411766 0.0048867012 0.37326312 -1 1.8232857e-06 -6.2345316e-05 0
-0.26411766 0.014289567 0.37993324 1 -1.3590744e-05 -8.2953673e-05 0
-0.26411766 0.024068922 0.37474507 1 -1.2841504e-05 -8.6333348e-05 0
0.26411766 0.024594828 0.37793535 -1 -1.4569565e-06 -3.4427885e-05 0
-0.26411766 0.031974997 0.3759478 1 -7.6304377e-06 -4.6894449e-05 0
0.26411766 0.033983361 0.37149918 -1 -4.482743e-06 -3.6479323e-05 0
-0.26411766 0.048995841 0.37603959 0.99999315 -0.00097664259 -0.0035730556 0
-0.26411766 0.058136478 0.37997779 0.98079097 -0.13603428 -0.13979913 0.045506682
0.26411766 0.053353779 0.37546539 -0.99480164 -0.031942882 -0.096692294 0.01023808
-0.26411766 0.063889898 0.37083966 0.99326634 -0.082134157 -0.081706069 0.02181484
0.26411766 0.065510571 0.37814602 -0.94329137 -0.14913647 -0.29657996 0.065241039
-0.26411766 0.074178055 0.37580961 0.93449688 -0.22408479 -0.27658936 0.073631808
0.26411766 0.07682576 0.37422359 -0.90272945 -0.19895621 -0.38143933 0.074921235
-0.26411766 0.080092102 0.37080404 0.94791174 -0.19486314 -0.2519756 0.061305609
0.26411766 0.089514449 0.37946105 -0.69259834 -0.43383798 -0.57627439 0.071975872
-0.26323363 0.095379189 0.37285948 0.70478612 -0.43961397 -0.55679095 0.092439659
-0.25286418 0.098591536 0.37434024 0.35960686 -0.55200112 -0.75231481 0.042557988
-0.23612098 0.099900089 0.37335506 0.051549796 -0.60119456 -0.79743826 0.0054676766
-0.21967374 0.097481817 0.37517577 -1.5557969e-05 -0.60146618 -0.79889822 8.8044944e-06
-0.1960339 0.097139321 0.37543359 2.0295407e-05 -0.60153443 -0.79884684 5.2853211e-05
-0.18372139 0.09531194 0.37680945 6.9303969e-06 -0.60148603 -0.79888338 7.4543668e-06
-0.17123732 0.093238816 0.37837029 -2.8459654e-05 -0.60147524 -0.79889148 0
-0.16659336 0.097513758 0.37515172 -7.2225166e-06 -0.60147166 -0.79889411 0
-0.15401116 0.096078157 0.37623259 3.2160231e-05 -0.60148978 -0.79888046 5.1886767e-05
-0.14683507 0.096835718 0.37566221 -8.1321623e-06 -0.60147959 -0.79888815 0
-0.13813682 0.095667876 0.37654147 -1.5403113e-05 -0.60151803 -0.79885918 0
-0.12750761 0.094838202 0.37716612 4.7010657e-05 -0.60149419 -0.79887718 0
-0.10052559 0.094637096 0.37731752 -9.5019386e-06 -0.60148603 -0.79888338 0
-0.096938491 0.095744118 0.37648407 2.4285027e-05 -0.60147911 -0.79888862 0
-0.083741032 0.096575923 0.37585783 -2.25116e-05 -0.60150754 -0.79886711 1.9506568e-05
-0.075235933 0.098881878 0.37412167 -1.4350419e-05 -0.60154659 -0.79883772 7.5271892e-05
-0.058146954 0.09741807 0.37522376 1.1431204e-06 -0.60149032 -0.79888004 0
-0.042978346 0.095758088 0.37647355 -6.27707e-06 -0.60148245 -0.798886 2.884166e-05
-0.038345754 0.095179386 0.37690926 -1.0655211e-05 -0.60149968 -0.79887301 4.2327978e-05
-0.026239583 0.098031066 0.37476221 -5.553487e-06 -0.60147905 -0.79888862 0
-0.01676327 0.091892354 0.37938404 1.6978824e-05 -0.60160464 -0.79879397 0.00011260525
-0.0066945055 0.096005201 0.37628749 1.1771535e-05 -0.60153013 -0.79885018 6.329015e-05
0.0036418531 0.094669335 0.37729326 -1.9882027e-06 -0.60149521 -0.7988764 0
0.018378071 0.09195818 0.37933451 -2.0386767e-06 -0.60148168 -0.79888648 0
0.02267091 0.095809899 0.37643453 4.8241977e-06 -0.6014716 -0.79889417 0
0.045614153 0.09594965 0.37632933 1.2296262e-05 -0.60145509 -0.79890662 2.3001116e-06
0.054512054 0.097795665 0.37493947 -5.2016412e-07 -0.60148859 -0.79888147 0
0.07575509 0.098405421 0.37448037 -3.4317552e-05 -0.60145223 -0.79890871 1.8592552e-06
0.083140679 0.09670645 0.37575951 3.3441804e-06 -0.60149944 -0.79887325 8.2755896e-06
0.094870999 0.093923599 0.3778547 1.1526524e-05 -0.60148692 -0.79888272 0
0.1120879 0.097588196 0.37509567 4.424253e-05 -0.60156733 -0.7988221 9.4645642e-05
0.12498419 0.09821406 0.37462446 -1.0678988e-05 -0.60149091 -0.79887956 0
0.14838374 0.093534946 0.37814733 1.3539712e-05 -0.60155809 -0.79882908 8.695299e-05
0.15399262 0.095555976 0.37662572 3.0117792e-05 -0.6014806 -0.79888743 7.6603801e-06
0.16188753 0.091561496 0.37963316 -7.4304022e-05 -0.60147935 -0.79888839 0
0.17980897 0.097984985 0.3747969 -2.4969633e-05 -0.60149586 -0.79887599 0
0.18443666 0.096030712 0.37626827 -5.9600654e-05 -0.60147768 -0.79888958 0
0.19795102 0.097587377 0.37509629 1.1193739e-06 -0.60146314 -0.7989006 0
0.20316744 0.096403852 0.37598738 8.5396914e-06 -0.60147756 -0.79888976 0
0.21691105 0.099273369 0.37382689 -2.0237907e-05 -0.60145396 -0.79890746 0
0.22207093 0.096509039 0.37590814 5.4464166e-05 -0.60152614 -0.7988531 5.4986358e-05
0.23430444 0.096655242 0.37579808 -0.014327858 -0.60077518 -0.79928958 0.00041663434
0.24450248 0.096092999 0.37622142 -0.19792958 -0.58293605 -0.78804153 0.042175855
0.25230581 0.098130986 0.37468699 -0.30368161 -0.55161715 -0.77685004 0.065291852
0.26348284 0.092403769 0.37615848 -0.61848587 -0.46798816 -0.6312387 0.077873565
-0.24384369 0.10174105 0.37196901 0.22414918 -0.56982255 -0.79060692 0.037303496
-0.23495781 0.10305116 0.37098262 0.014233376 -0.59815574 -0.80125344 0.00068750157
-0.21689034 0.10120922 0.37236941 -1.0271428e-05 -0.60148203 -0.79888636 0
-0.20235667 0.10173772 0.37197149 -2.1430254e-05 -0.60149366 -0.7988776 5.3628492e-06
-0.18632588 0.10382871 0.37039721 5.8790305e-05 -0.60144162 -0.7989167 0
-0.1749427 0.10343806 0.3706913 -2.7028289e-05 -0.60144556 -0.79891372 1.8211407e-05
-0.16251618 0.10156382 0.37210244 -0.00010116768 -0.60165155 -0.79875863 0.00014506448
-0.13945253 0.10016412 0.37315625 8.9078703e-06 -0.60148966 -0.79888052 0
-0.11825848 0.10280113 0.37117088 -5.3415051e-06 -0.60150588 -0.79886836 6.284622e-06
-0.093807966 0.10182534 0.37190554 -4.8605416e-05 -0.60147607 -0.79889077 0
-0.085894547 0.10137872 0.37224182 -4.2352956e-05 -0.60149771 -0.79887456 4.2596472e-05
-0.078492142 0.10202751 0.37175333 -3.0424069e-05 -0.60155296 -0.79883295 6.3306914e-05
-0.060635231 0.1030466 0.37098607 1.3387134e-05 -0.60146827 -0.79889667 0
-0.054052442 0.10210353 0.37169608 -4.4112071e-06 -0.60147864 -0.79888886 0
