# .PCD v0.7 - Point Cloud Data file format
VERSION 0.7
FIELDS x y z normal_x normal_y normal_z curvature
SIZE 4 4 4 4 4 4 4
TYPE F F F F F F F
COUNT 1 1 1 1 1 1 1
WIDTH 649
HEIGHT 1
VIEWPOINT 0 0 0 1 0 0 0
POINTS 649
DATA ascii
0.20017688 0.20189694 -0.45984226 -0.67254001 -0.73963177 0.025196625 0.089835137
-0.20175438 -0.20020562 -0.44663322 0.72395819 0.68776459 0.053519789 0.088910326
-0.19352807 -0.20161183 -0.44604531 0.36577222 0.93038827 -0.024257291 0.062966444
-0.18283285 -0.20161183 -0.44992268 0.20004049 0.97825307 -0.054815132 0.039655816
-0.17590316 -0.20161185 -0.44407773 0.066236094 0.99778324 -0.0064260936 0.00551139
-0.16458601 -0.20161183 -0.44242582 3.7384962e-05 1 3.5403616e-05 0
-0.15223978 -0.20161185 -0.44268858 1.0925117e-05 1 7.021756e-05 0
-0.14331695 -0.20161185 -0.44807768 2.9847994e-05 1 0.00014141378 0
-0.13581292 -0.20161183 -0.44437161 2.1208512e-05 1 9.5012641e-05 0
-0.12492817 -0.20161183 -0.44198123 -3.8127732e-06 1 3.084739e-05 0
-0.11498614 -0.20161185 -0.44430804 7.2440134e-06 1 7.0751003e-07 0
-0.1061385 -0.20161183 -0.44430444 -0 1 -0 0
-0.090496361 -0.20161183 -0.44469783 2.8911954e-06 1 4.0656349e-05 0
-0.083795294 -0.20161183 -0.44491926 -1.0091278e-05 1 6.5955948e-07 0
-0.075272202 -0.20161183 -0.44569525 4.8857864e-06 1 -2.5918217e-07 0
-0.063760772 -0.20161183 -0.44425982 1.2073805e-05 1 2.4031357e-07 0
-0.053062499 -0.20161182 -0.44995642 1.4600553e-05 1 6.1067469e-05 0
-0.044490468 -0.20161183 -0.44593731 4.6628652e-06 1 -3.9072784e-08 0
-0.036486637 -0.20161183 -0.44404373 4.8025386e-06 1 -3.8965318e-05 0
-0.02626498 -0.20161183 -0.44878793 4.1052663e-06 1 -3.9046448e-05 0
-0.017397694 -0.20161183 -0.44810119 7.6423776e-06 1 7.7195094e-05 0
-0.0055151037 -0.20161183 -0.44371462 -5.0464223e-06 1 7.3771254e-05 0
0.0043047778 -0.20161182 -0.44489434 0.0007211765 0.99999934 -0.00083190494 0
0.017680086 -0.20161182 -0.44645637 0.00038916722 0.99999684 -0.0024739031 0
0.025565909 -0.20161183 -0.44521427 0.00051738892 0.99999583 -0.0028334807 0
0.038087297 -0.20161183 -0.447274 8.7876964e-05 0.99999255 -0.0038449117 8.8935703e-06
0.047132976 -0.20161182 -0.4481521 -5.5096465e-05 0.99999487 -0.0031892806 0
0.05825913 -0.20161183 -0.44798845 0.00075754453 0.99999523 -0.0030000361 0
0.074609675 -0.20161183 -0.44613773 -0.00025808671 0.99999607 -0.002783831 3.7302075e-06
0.084955208 -0.20161183 -0.44433421 -0.00020001092 0.99999791 -0.0020414563 0
0.0967765 -0.20161183 -0.4449622 -0.0001472552 0.99999756 -0.0022082692 0
0.10854811 -0.20161182 -0.44184232 -0.00020167095 0.99999702 -0.0024498897 4.3063769e-06
0.11543347 -0.20161183 -0.44753459 0.00050752261 0.99999344 -0.0035971161 1.545852e-06
0.12008878 -0.20161183 -0.44291803 0.00056394871 0.99999738 -0.0022186367 0
0.13410647 -0.20161182 -0.44665146 -0.00037495693 0.99999321 -0.003670654 0
0.14405017 -0.20161183 -0.44505116 -0.00056754722 0.99999601 -0.0027624096 0
0.1543323 -0.20161183 -0.44414353 8.5411608e-05 0.99999887 -0.0015503577 0
0.16581535 -0.20161183 -0.44108748 -0.00036654738 0.99999946 -0.00093971408 0
0.18329966 -0.20161182 -0.44613588 -0.18203211 0.98291534 -0.02723448 0.034178294
0.19490311 -0.20161183 -0.44252101 -0.48761165 0.87295419 0.013632935 0.10770803
0.20121971 -0.20161183 -0.445158 -0.65969104 0.75112313 -0.024934279 0.10045966
-0.20175439 -0.19433852 -0.44218951 0.85225564 0.52213532 0.032173403 0.089432336
-0.20175439 -0.18449517 -0.44301867 0.97417134 0.22215267 0.040475577 0.040758695
0.20175439 -0.18686725 -0.44638142 -0.96910447 0.23475392 -0.075678259 0.049370676
-0.20175439 -0.17030068 -0.44883576 1 -7.6383748e-07 9.6658798e-05 0
0.20175439 -0.17400591 -0.44348598 -0.99954176 0.030240308 -0.0013598428 0.0031234242
-0.20175439 -0.16187665 -0.44820353 1 1.7720886e-05 6.4813677e-05 0
0.20175439 -0.16250275 -0.4479695 -1 1.6209806e-05 6.730864e-05 1.5707114e-05
-0.20175438 -0.15328467 -0.44185868 1 1.02545e-05 -3.3117805e-05 8.6713708e-06
-0.20175439 -0.14551283 -0.44738173 1 3.3301167e-05 8.1093065e-05 0
-0.20175439 -0.13281527 -0.44183806 1 3.6036654e-05 -6.1453611e-05 0
0.20175439 -0.13018298 -0.44435829 -1 2.2113147e-05 -3.2019696e-05 1.6968126e-05
-0.20175439 -0.12128011 -0.44594967 1 2.2507798e-05 -3.7232396e-05 8.2703846e-06
0.20175439 -0.12555176 -0.44333196 -1 1.6471422e-05 -5.0667052e-07 7.872115e-06
-0.20175439 -0.11842108 -0.44501343 1 1.3966359e-05 -3.7824477e-05 8.2677598e-06
0.20175439 -0.11552883 -0.44308516 -1 1.8533787e-05 6.3909058e-05 8.9866298e-06
-0.20175439 -0.10627937 -0.44628739 1 1.5675938e-05 -4.2616088e-05 3.6771475e-05
0.20175439 -0.10555828 -0.44478956 -1 2.0525327e-05 3.5649689e-05 8.894147e-06
-0.20175439 -0.096407473 -0.44384262 1 1.3557322e-05 3.6215457e-05 1.6784697e-05
0.20175438 -0.095248908 -0.44387534 -1 1.9621939e-05 3.4127032e-05 0
0.20175439 -0.081220143 -0.44750166 -1 -1.498295e-06 4.5259014e-05 1.8223072e-05
-0.20175439 -0.078061268 -0.44511765 1 -1.5867579e-05 -1.1246351e-08 3.2007363e-05
0.20175439 -0.074226528 -0.44381323 -1 1.1420906e-05 3.3175278e-05 1.5742262e-05
-0.20175439 -0.064695127 -0.4442187 1 -9.123808e-06 9.3116614e-07 3.478285e-05
0.20175439 -0.065163888 -0.4466424 -1 -5.6934136e-06 -0.0001121735 3.416562e-05
-0.20175439 -0.052387256 -0.44311598 1 -3.3350618e-06 4.120103e-05 1.7886709e-05
0.20175439 -0.0549822 -0.444262 -1 -5.8632741e-06 3.9316765e-05 1.6669852e-05
-0.20175439 -0.040969066 -0.44452018 1 -1.0023114e-05 -8.1198974e-05 8.6350319e-06
0.20175439 -0.045602698 -0.4452959 -1 1.8448989e-06 -3.5699373e-05 8.2269853e-06
-0.20175439 -0.03375183 -0.44505242 1 9.1609072e-06 7.602034e-05 1.9453048e-05
0.20175439 -0.030789047 -0.44227037 -1 4.0397113e-06 -3.3180433e-05 0
-0.20175439 -0.024175037 -0.44419539 1 2.6175801e-06 4.0779942e-05 1.7597991e-05
0.20175438 -0.023980509 -0.44294828 -1 3.5789528e-06 3.3490007e-05 0
-0.20175439 -0.019606821 -0.44191375 1 0 0 1.7974417e-05
0.20175436 -0.015369654 -0.4463222 -1 -4.0161244e-06 3.6387522e-05 9.040944e-06
0.20175439 -0.0065445751 -0.44471705 -1 2.3793847e-09 7.201502e-05 0
-0.20175439 0.0041974909 -0.44170985 1 -1.3823421e-06 7.1213399e-05 0
0.20175438 0.004489514 -0.44332257 -1 -5.8804318e-07 -1.8580517e-08 0
-0.20175439 0.016927652 -0.44255129 1 -1.3619311e-05 -3.4228335e-05 0
0.20175439 0.013678737 -0.44352585 -1 -3.4316577e-06 3.7863669e-05 9.1952161e-06
-0.20175439 0.022311606 -0.44064718 1 8.1007865e-06 7.3198193e-05 9.2731871e-06
0.20175439 0.024536975 -0.44658858 -1 -9.8610144e-06 6.2909719e-05 0
-0.20175439 0.036488205 -0.44447657 1 -6.671803e-06 3.2917626e-05 0
0.20175436 0.03609148 -0.44373083 -1 2.611265e-06 -2.1033335e-07 2.9476894e-05
-0.20175439 0.046149094 -0.44586477 1 -7.0015262e-06 -1.2585474e-07 0
-0.20175439 0.052134939 -0.44535252 1 4.3804489e-06 6.8625763e-05 0
0.20175438 0.050601989 -0.4485175 -1 -4.39429e-06 -0.00014745124 3.4152272e-05
-0.20175439 0.064649291 -0.44517142 1 -3.8040134e-06 3.2981236e-05 0
0.20175436 0.066789903 -0.44560045 -1 -1.159455e-05 5.7028894e-05 0
-0.20175439 0.073972546 -0.44722098 1 2.5646325e-06 7.1989081e-05 0
0.20175439 0.076234706 -0.4477168 -1 5.5301343e-06 5.9040485e-07 1.7176955e-05
-0.20175439 0.080869719 -0.44924822 1 -7.7815894e-06 6.6737717e-05 0
0.20175439 0.087078594 -0.44080859 -1 -1.6011329e-05 -3.2163942e-05 8.5492211e-06
-0.20175439 0.095049024 -0.44263563 1 -3.1129275e-05 3.3930108e-05 9.1147976e-06
0.20175439 0.094565846 -0.44532302 -1 -9.3647232e-06 3.2377393e-05 7.8075673e-06
-0.20175439 0.10450521 -0.44449866 1 -1.2547992e-05 -3.6604568e-05 0
0.20175439 0.10606269 -0.442105 -1 -2.5764304e-05 0.00014790701 1.7656472e-05
-0.20175439 0.11217774 -0.44998589 1 -3.3440392e-05 0.00010775474 8.3214336e-06
0.20175439 0.11380918 -0.44486654 -1 -8.4661415e-06 -1.4270604e-06 8.277596e-06
-0.20175439 0.12527476 -0.44536936 1 3.0969688e-05 -6.8491829e-07 8.5122865e-06
0.20175439 0.12342359 -0.44791335 -1 -1.6092101e-05 2.815239e-05 8.5229076e-06
-0.20175439 0.13049743 -0.44289911 1 -2.9380952e-05 3.6749385e-05 8.3499162e-06
0.20175439 0.13583784 -0.44496074 -1 6.8141271e-06 7.8043624e-05 0
-0.20175439 0.14544113 -0.44515815 1 -1.1426288e-05 6.0904127e-05 8.1979215e-06
0.20175439 0.14613564 -0.44413278 -1 -3.7667054e-05 6.2840096e-05 7.9942474e-06
-0.20175439 0.15555806 -0.44787839 1 -0 -0 0
0.20175439 0.15496224 -0.4446983 -1 -1.2729499e-06 2.9245119e-05 8.0516265e-06
-0.20175439 0.16355824 -0.44241002 1 -1.8753597e-05 9.4702031e-05 8.1949138e-06
0.20175439 0.1637436 -0.44246456 -1 -3.2687985e-05 2.9862165e-05 0
-0.20175439 0.17606005 -0.44650197 0.9966867 -0.081336044 -0.00026825091 0.010360301
0.20175439 0.17845623 -0.44472063 -0.9955498 -0.09418422 0.0031532226 0.018185616
0.20175438 0.18424773 -0.4458293 -0.98795485 -0.15451331 -0.0084187528 0.037326828
-0.20175438 0.19196516 -0.44437587 0.92324996 -0.38396403 0.013457903 0.075307943
0.20175439 0.1925777 -0.44401813 -0.96771049 -0.24458881 -0.060931753 0.050031371
-0.20155323 0.20184854 -0.44880283 0.79199195 -0.61052388 -0.0030359176 0.074474119
-0.19205822 0.20189695 -0.44538996 0.40411061 -0.91448087 0.020480515 0.081176579
-0.18424621 0.20189694 -0.44492164 0.19585466 -0.9806329 -0.00033986525 0.033792805
-0.17566939 0.20189692 -0.44574484 0.054422021 -0.9985078 0.0045185322 0.0074060271
-0.16380894 0.20189695 -0.4454495 6.5998861e-06 -1 0.00010413906 0
-0.15538956 0.20189694 -0.44242257 4.0254849e-06 -1 9.2282069e-05 0
-0.14612487 0.20189692 -0.44473967 2.86821e-05 -1 -2.1181165e-07 0
-0.13529214 0.20189694 -0.44379181 6.386594e-05 -1 6.2730483e-05 0
-0.12621519 0.20189694 -0.44561586 2.4930581e-05 -1 3.3190605e-05 0
-0.11707844 0.20189694 -0.44142023 2.2748902e-05 -1 9.9510136e-05 0
-0.10314173 0.20189694 -0.44543999 1.521738e-05 -1 3.7706712e-05 0
-0.089321986 0.20189694 -0.44423991 7.8943685e-06 -1 -1.4079653e-07 0
-0.074661143 0.20189695 -0.44502437 7.5088014e-06 -1 -1.5761259e-06 0
-0.060615063 0.20189694 -0.44505167 8.8608549e-06 -1 7.0015485e-05 0
-0.058690887 0.20189695 -0.4423174 9.7730299e-06 -1 3.8978651e-05 0
-0.046651073 0.20189694 -0.44218773 8.3908426e-06 -1 -3.2505847e-07 0
-0.033880308 0.20189694 -0.44287217 1.4905199e-05 -1 0.00010381242 0
-0.022803845 0.20189695 -0.44379494 0 -1 0 0
-0.018359054 0.20189694 -0.44613245 8.0490072e-06 -1 3.5719771e-05 0
-0.0045187175 0.20189694 -0.44745842 2.4085077e-06 -1 6.360987e-05 0
0.0039688647 0.20189694 -0.44437766 0 -1 0 0
0.023263782 0.20189694 -0.44398093 -1.1390753e-05 -1 0.00013554325 0
0.039675992 0.20189694 -0.44731057 1.2316004e-05 -1 0.00013003759 0
0.044391312 0.20189694 -0.44601154 1.6416665e-05 -1 0.00014395289 0
0.057439603 0.20189694 -0.44830829 -2.4251531e-05 -1 7.1231159e-05 0
0.064717859 0.20189692 -0.44717169 -2.8787001e-05 -1 0.00010399348 0
0.075678088 0.20189695 -0.44553372 -1.3485431e-05 -1 6.6616616e-05 0
0.086549759 0.20189694 -0.44231999 -3.9624942e-05 -1 0.00013011033 0
0.09419246 0.20189694 -0.44606942 -3.6178033e-05 -1 2.6730817e-05 0
0.10440449 0.20189695 -0.44616231 -2.3144497e-05 -1 0.00015629495 0
0.12494764 0.20189695 -0.44610882 1.4766789e-05 -1 4.0329975e-05 0
0.13313451 0.20189694 -0.44802928 -5.1824674e-05 -1 0.00014436891 0
0.14586367 0.20189695 -0.44839868 -4.3709031e-05 -1 7.6047938e-05 0
0.15704179 0.20189694 -0.44152051 -4.1347448e-05 -1 8.9105721e-05 0
0.16250747 0.20189694 -0.44343844 -7.8140794e-05 -1 0.00018590511 0
0.18666053 0.20189694 -0.44480878 -0.22884248 -0.97304541 -0.028527185 0.056554176
0.19668478 0.20189694 -0.44409549 -0.4934476 -0.86977512 -0.00086693384 0.085784644
0.20175438 0.20041853 -0.44163376 -0.77329862 -0.62924063 -0.077881731 0.097805165
-0.19562724 -0.20161183 -0.43504658 0.44398576 0.89406937 -0.059301622 0.069818817
-0.184168 -0.20161182 -0.43637383 0.22231694 0.97350085 -0.053583488 0.042870816
-0.17725115 -0.20161183 -0.43689957 0.07137154 0.99731845 -0.016183851 0.0060591232
-0.1665269 -0.20161183 -0.4356274 1.5835774e-05 1 -4.0669402e-05 0
-0.15586527 -0.20161183 -0.4332495 4.8156739e-06 1 9.4890158e-05 0
-0.14208965 -0.20161183 -0.43492922 1.3717747e-05 1 8.014364e-05 0
-0.13435318 -0.20161183 -0.43420884 -8.6866276e-06 1 3.4038483e-05 0
-0.1247389 -0.20161183 -0.43778417 3.7763091e-06 1 9.3169656e-05 0
-0.11529368 -0.20161185 -0.4352515 1.2578889e-05 1 3.6506357e-05 0
-0.10614001 -0.20161183 -0.43610364 7.0191959e-06 1 8.089043e-05 0
-0.089367978 -0.20161183 -0.43944088 1.3823403e-05 1 6.8480331e-05 0
-0.074404567 -0.20161185 -0.43206325 -4.3908235e-06 1 -4.783751e-08 0
-0.065100968 -0.20161183 -0.43544972 1.1488688e-05 1 6.7213667e-05 0
-0.053652868 -0.20161182 -0.43757236 8.2503575e-06 1 1.1424294e-06 0
-0.045750126 -0.20161183 -0.43922806 3.9379361e-06 1 3.6581379e-05 0
-0.031730946 -0.20161185 -0.43149191 4.3863529e-06 1 5.2953755e-08 0
-0.023191769 -0.20161185 -0.43763947 1.1375208e-05 1 6.4571344e-05 0
-0.015584365 -0.20161183 -0.43544495 6.0993984e-06 1 -2.9303403e-05 0
-0.001170814 -0.20161185 -0.43412602 3.8918151e-06 1 -4.2251064e-05 0
0.0035620667 -0.20161182 -0.43641326 -1.0187974e-06 1 3.2437652e-05 0
0.010874473 -0.20161183 -0.43308437 -0 1 -0 0
0.02364051 -0.20161183 -0.43480587 4.7389207e-05 0.99999994 -0.00043017269 0
0.034957707 -0.20161183 -0.43689629 -0.0001690792 0.99999958 -0.00089086045 0
0.04737303 -0.20161182 -0.43823606 0.00043880183 0.99999893 -0.0013770884 0
0.054389935 -0.20161185 -0.43525159 -1.2092812e-05 0.99999851 -0.0017243631 6.0373382e-06
0.062761016 -0.20161185 -0.43458164 0.00018860321 0.99999976 -0.00070036284 0
0.074807413 -0.20161183 -0.4332253 0.00029074031 0.99999988 -0.00050378585 0
0.082331374 -0.20161185 -0.43272758 5.8111007e-05 0.9999997 -0.00074544031 0
0.094720326 -0.20161183 -0.4334906 -0.00024864115 0.99999964 -0.00072926888 0
0.10701934 -0.20161182 -0.43414924 3.3218919e-05 0.99999994 -0.00021114624 0
0.11840659 -0.20161182 -0.4334054 -7.8927667e-05 0.99999994 -0.00023453204 0
0.12556501 -0.20161182 -0.43525794 0.00018725349 0.99999768 -0.0021299031 0
0.13399528 -0.20161183 -0.4365114 -0.0001936536 0.99999869 -0.0016092792 0
0.1461999 -0.20161183 -0.43572226 -2.8197954e-05 0.99999988 -0.00051493675 0
0.16823375 -0.20161183 -0.43522319 0.0001562855 0.99999988 -0.00050140807 0
0.17504647 -0.20161183 -0.43659028 -0.026441587 0.99960738 -0.0092754066 0.0034256682
0.18467844 -0.20161183 -0.43598208 -0.17781341 0.98404354 -0.0063962429 0.03377787
0.19491102 -0.20161183 -0.43392316 -0.45088884 0.89237118 -0.019313049 0.092242427
0.20120148 -0.20113496 -0.43281499 -0.77057308 0.63637018 -0.035358451 0.093488358
-0.20175439 -0.19648074 -0.43109286 0.80861545 0.58487701 0.063717671 0.091113001
0.20175439 -0.19462948 -0.4314115 -0.88211131 0.47091767 -0.01077773 0.083925538
-0.20175439 -0.1840291 -0.43722901 0.9838087 0.17814201 0.019643748 0.036704287
0.20175439 -0.18738674 -0.43726924 -0.9479568 0.31508294 -0.045833223 0.070520245
-0.20175439 -0.17041975 -0.4359768 1 1.6645661e-05 3.8815691e-05 8.4895864e-06
0.20175439 -0.17550184 -0.43860304 -0.99757195 0.068323523 -0.013494873 0.0074540111
-0.20175439 -0.16594177 -0.434652 1 0 0 8.5032598e-06
0.20175439 -0.16592258 -0.43148473 -1 1.0666389e-05 -7.2998329e-05 1.7156704e-05
-0.20175439 -0.15091087 -0.4325048 1 6.2678628e-05 3.3846864e-05 0
0.20175439 -0.15436976 -0.43655053 -1 3.495744e-05 0.00010659413 0
-0.20175439 -0.14511356 -0.43558145 1 1.6772139e-05 3.6134748e-05 0
0.20175439 -0.14698774 -0.43277818 -1 2.8727258e-05 0.00014066146 0
0.20175439 -0.13474047 -0.43714643 -1 -2.2561223e-06 8.70738e-05 8.1532371e-06
-0.20175439 -0.12666741 -0.43717128 1 7.2543571e-07 6.6098131e-05 8.4736148e-06
0.20175439 -0.12405225 -0.43673319 -1 -3.1731718e-06 9.1928625e-05 0
-0.20175439 -0.11856615 -0.43836004 1 -7.1222507e-06 6.5406362e-05 7.9373767e-06
0.20175439 -0.11531478 -0.43321657 -1 0 0 1.8640309e-05
-0.20175439 -0.10537994 -0.43164569 1 1.5558162e-05 6.1322935e-05 1.7464417e-05
-0.20175439 -0.094384089 -0.43381107 1 1.7637733e-05 1.6726602e-06 3.4929246e-05
0.20175439 -0.097872019 -0.43207622 -1 3.9182589e-05 3.4983805e-05 0
-0.20175439 -0.08772821 -0.43268454 1 2.3412782e-05 1.6177689e-06 1.5477633e-05
0.20175439 -0.086348221 -0.43817896 -1 -4.9683496e-07 6.1763014e-05 8.6112468e-06
0.20175439 -0.071504503 -0.43629253 -1 2.0570678e-05 -3.4199678e-05 1.5523605e-05
-0.20175439 -0.065040238 -0.43449214 1 -3.6885222e-06 -7.2700444e-05 3.3434768e-05
-0.20175439 -0.051281609 -0.43745705 1 -4.5146871e-06 3.760375e-05 8.59176e-06
0.20175438 -0.053469211 -0.43691927 -1 -3.7352493e-06 -7.6536242e-05 1.6257651e-05
-0.20175439 -0.047794625 -0.43379223 1 -1.0757054e-05 -8.8826862e-05 1.95049e-05
0.20175439 -0.04552421 -0.4369221 -1 1.7361356e-06 -7.947749e-05 1.7714607e-05
-0.20175439 -0.035544593 -0.43567383 1 -8.9770765e-06 -4.8506958e-05 4.5293364e-05
0.20175439 -0.03475938 -0.43492091 -1 1.0448112e-05 -3.6155441e-05 8.4967596e-06
-0.20175439 -0.023360694 -0.43752736 1 1.7683576e-06 3.700146e-05 8.3988061e-06
0.20175439 -0.026774166 -0.43509498 -1 2.0765297e-06 -1.7739957e-07 0
-0.20175439 -0.017175166 -0.43837917 1 -2.2147133e-06 3.6367554e-05 1.7798598e-05
0.20175439 -0.016924463 -0.43974996 -1 2.395986e-06 9.3611139e-05 0
-0.20175439 -0.0033219755 -0.43312231 1 -1.50157e-06 6.7700275e-05 8.2166771e-06
0.20175438 -0.0054551763 -0.43406558 -1 -1.9343254e-06 3.3479308e-05 0
-0.20175438 0.0065814378 -0.43326586 1 9.6912686e-07 -7.6011402e-09 1.7931023e-05
0.20175439 0.005178567 -0.43052965 -1 -1.8869925e-06 0.00010072286 0
-0.20175439 0.013619594 -0.43244028 1 2.8737384e-06 1.8165611e-07 1.9513747e-05
0.20175439 0.014779713 -0.43734163 -1 -3.6877718e-06 3.2952208e-05 8.6913187e-06
-0.20175439 0.02501433 -0.43768144 1 -1.9711449e-06 3.6248639e-05 0
0.20175439 0.0228379 -0.43525487 -1 -0 -0 1.8617986e-05
-0.20175439 0.032134868 -0.43643892 1 -4.0360246e-06 8.1599545e-05 8.9636051e-06
0.20175439 0.034482453 -0.43486398 -1 -8.2930637e-07 3.4550842e-05 8.1466569e-06
-0.20175439 0.047897868 -0.4354279 1 -3.743407e-06 4.3083051e-05 8.7037461e-06
0.20175439 0.047731712 -0.43390459 -1 -2.4466085e-06 3.1857853e-05 8.2079878e-06
-0.20175439 0.05456866 -0.43635768 1 3.5362107e-06 0.00015518238 0
0.20175439 0.056486957 -0.43384284 -1 -1.5833351e-06 3.2450193e-05 7.7065379e-06
-0.20175438 0.062280051 -0.43589377 1 -9.0820613e-06 8.1516923e-08 9.1050879e-06
0.20175439 0.064323068 -0.43311954 -1 1.4345874e-06 7.1805356e-05 8.5220199e-06
-0.20175439 0.071315147 -0.43291578 1 -1.1801329e-05 7.4081654e-05 0
0.20175439 0.076265946 -0.43206626 -1 0 0 1.7663198e-05
-0.20175439 0.080457449 -0.43468839 1 -2.1193646e-05 6.7823683e-05 0
0.20175436 0.083101116 -0.43437174 -1 5.6485896e-06 0.00010305436 0
-0.20175439 0.096294016 -0.43431878 1 1.4695329e-05 8.0327372e-05 0
0.20175439 0.092668712 -0.43796414 -1 -3.9637296e-05 0.00010747052 8.6318923e-06
-0.20175439 0.10829882 -0.43623814 1 -2.9331992e-05 6.8640336e-05 0
-0.20175439 0.11019008 -0.4312669 1 -1.7271837e-05 2.8868173e-05 0
0.20175439 0.11180661 -0.43641376 -1 1.9651447e-05 4.5869445e-05 1.8102697e-05
-0.20175439 0.12575515 -0.43264771 1 -1.834485e-05 9.3180985e-05 0
0.20175438 0.12249557 -0.43184447 -1 6.4199735e-06 -3.2885273e-05 1.7559578e-05
-0.20175439 0.13438551 -0.43314648 1 -3.6918682e-05 6.812936e-05 9.0962803e-06
0.20175439 0.13289034 -0.43615425 -1 -6.7313458e-06 9.3035342e-05 7.691594e-06
-0.20175439 0.14397341 -0.43606108 1 -6.6535845e-06 5.7328714e-05 0
-0.20175439 0.15618622 -0.43457788 1 -1.9986348e-05 -4.059598e-05 1.7382608e-05
0.20175438 0.1552051 -0.433323 -1 3.6292179e-06 0.00011198998 1.7177874e-05
-0.20175436 0.16458765 -0.43646336 1 -1.8142227e-05 3.3021399e-05 8.2704782e-06
0.20175439 0.16375309 -0.43919188 -1 -1.6753185e-05 1.9594368e-07 8.3172336e-06
-0.20175439 0.17410712 -0.43744683 0.99906003 -0.043152656 -0.0041094637 0.0066387719
0.20175439 0.17205255 -0.43648943 -1 1.9281111e-05 0.00011808529 0
-0.20175439 0.1846076 -0.43208963 0.97333008 -0.22918226 0.010202363 0.047226492
0.20175439 0.18883711 -0.43249017 -0.96670806 -0.25582132 -0.005573099 0.053652495
-0.20175439 0.19130906 -0.43530542 0.93230444 -0.36159885 0.0073968414 0.073814847
0.20175439 0.19546227 -0.43140069 -0.87579399 -0.4786576 -0.062223617 0.07437139
-0.20175439 0.20114261 -0.43379697 0.75548029 -0.65389097 0.040939495 0.099084266
-0.19403426 0.20189695 -0.43700147 0.57460326 -0.81839526 0.0077731148 0.094707467
-0.18442768 0.20189695 -0.43387175 0.20736246 -0.97826421 0.00022253566 0.037855707
-0.17473416 0.20189695 -0.43371591 0.045792099 -0.99894798 -0.0024745537 0.0066518248
-0.16405441 0.20189694 -0.4353677 5.949456e-05 -1 0.00016085214 0
-0.15216313 0.20189692 -0.43078461 1.3478923e-05 -1 6.5277345e-05 0
-0.14456451 0.20189695 -0.43716016 2.9016403e-05 -1 6.6919631e-05 0
-0.13506079 0.20189694 -0.4339087 3.9684539e-05 -1 -1.7466466e-06 0
-0.11458871 0.20189694 -0.43570361 2.2166774e-05 -1 2.9201346e-05 0
-0.10367357 0.20189694 -0.43702966 2.2414542e-05 -1 -1.5314631e-06 0
-0.09062542 0.20189694 -0.43714076 -6.9639605e-06 -1 6.3302097e-05 0
-0.086169586 0.20189694 -0.43651986 1.5723685e-06 -1 3.5803871e-05 0
-0.076247588 0.20189694 -0.43669406 9.5434762e-06 -1 3.520574e-05 0
-0.053430453 0.20189695 -0.43323198 1.6997932e-05 -1 0.00011779974 0
-0.043996196 0.20189695 -0.4353973 1.569236e-05 -1 9.3503702e-05 0
-0.034007803 0.20189695 -0.43627486 7.3253432e-06 -1 9.7842021e-05 0
-0.028203534 0.20189694 -0.43597758 1.1829685e-05 -1 8.8322056e-05 0
-0.016868323 0.20189694 -0.43085682 1.7235118e-06 -1 2.9165358e-05 0
0.0093487352 0.20189694 -0.432275 -1.0167378e-06 -1 5.5161209e-08 0
0.015546661 0.20189694 -0.43879163 -5.1515599e-06 -1 -3.4544239e-05 0
0.023190387 0.20189694 -0.43235698 0 -1 0 0
0.035224602 0.20189694 -0.431095 -8.1224744e-06 -1 -7.1636809e-05 0
0.044702239 0.20189694 -0.43308455 -1.1813772e-05 -1 3.1957738e-05 0
0.050336182 0.20189694 -0.43049529 -1.5151611e-05 -1 2.945467e-05 0
0.065553173 0.20189694 -0.43320805 -1.9074118e-05 -1 0.0001289529 0
0.07609389 0.20189695 -0.43385744 -1.1164989e-05 -1 6.4701329e-05 0
0.084661067 0.20189694 -0.43811691 2.5873235e-06 -0.99999994 0.00021621403 0
0.094010681 0.20189695 -0.43472314 -3.0506062e-05 -1 0.00010808212 0
0.10425103 0.20189694 -0.43218538 -2.7747948e-05 -1 0.0001567596 0
0.12410375 0.20189694 -0.43664962 -1.245584e-05 -1 6.6079105e-05 0
0.13175222 0.20189694 -0.43798804 2.8040038e-06 -1 6.4793283e-05 0
0.14433464 0.20189694 -0.43799537 -3.6452857e-05 -1 1.8944083e-06 0
0.15492938 0.20189694 -0.43161568 -3.5003937e-05 -1 -3.6663082e-06 0
0.16632512 0.20189694 -0.43714899 -1.7024353e-05 -1 9.1403788e-05 0
0.17195214 0.20189694 -0.43920159 -0.0063507096 -0.99997979 6.3569438e-05 0.00012895241
0.18422222 0.20189695 -0.43273059 -0.2102851 -0.9774434 0.019612867 0.048990794
0.19417255 0.20189694 -0.4337309 -0.37988049 -0.92475051 0.022964248 0.084760271
0.20175439 0.20126641 -0.43035805 -0.87630862 -0.48169392 -0.0073591555 0.081610791
-0.19630218 -0.20161182 -0.42321643 0.49154472 0.87056339 0.022432325 0.085677765
-0.17042448 -0.20161182 -0.42335919 2.6750888e-05 1 5.7740439e-05 0
-0.1663802 -0.20161183 -0.42492965 -0 1 -0 0
-0.15596308 -0.20161185 -0.42406133 3.0674644e-05 1 6.8196554e-05 0
-0.13488038 -0.20161182 -0.42576471 9.0620779e-06 1 3.1688833e-05 0
-0.12949388 -0.20161183 -0.42354935 1.3297667e-05 1 7.4790172e-05 0
-0.1150372 -0.20161185 -0.42415002 7.8815847e-06 1 -9.3482704e-08 0
-0.102651 -0.20161182 -0.42811435 2.9982604e-05 1 4.1444517e-05 0
-0.091434374 -0.20161183 -0.4296301 5.2039932e-06 1 -3.5014025e-05 0
-0.084876597 -0.20161183 -0.42789307 1.1137678e-05 1 -3.6111833e-05 0
-0.075165257 -0.20161183 -0.42465395 -2.8504653e-06 1 6.073395e-05 0
-0.066421971 -0.20161185 -0.42332935 1.1492931e-05 1 8.5242158e-05 0
-0.056619816 -0.20161183 -0.42557567 -8.6678534e-07 1 2.991986e-05 0
-0.044219151 -0.20161183 -0.42311496 5.4628463e-06 1 -2.6926589e-05 0
-0.0341115 -0.20161183 -0.42877975 5.138113e-06 1 -7.6226956e-07 0
-0.026154973 -0.20161182 -0.42623407 1.9001641e-06 1 1.183295e-07 0
-0.014281891 -0.20161185 -0.42524081 -5.9974086e-06 1 3.0792035e-05 0
-0.0015877709 -0.20161183 -0.42425299 -1.8446952e-06 1 3.3884269e-05 0
0.0085907727 -0.20161182 -0.42436835 4.7254525e-07 1 9.5766896e-05 0
0.02695284 -0.20161183 -0.4253695 5.4577617e-07 1 -3.4766912e-05 0
0.032999143 -0.20161183 -0.42449877 -1.0517688e-05 1 9.3943519e-05 0
0.044876546 -0.20161183 -0.42259774 -6.6407042e-06 1 6.1405604e-05 0
0.052676819 -0.20161183 -0.42629158 -1.5144728e-05 1 -7.1133851e-05 0
0.06627053 -0.20161183 -0.42529753 -8.2320284e-06 1 3.4347217e-05 0
0.074183784 -0.20161182 -0.42565665 -2.3323324e-05 1 7.6104533e-07 0
0.086880527 -0.20161183 -0.42356703 -8.910225e-06 1 6.4450476e-05 0
0.097006552 -0.20161183 -0.42587224 -8.1521821e-06 1 -4.7204335e-07 0
0.10755551 -0.20161183 -0.42362139 -4.1614476e-05 1 1.2526572e-06 0
0.11715847 -0.20161183 -0.42130283 -1.1034801e-05 1 4.0945768e-05 0
0.12284562 -0.20161183 -0.42653316 -4.2136908e-06 1 7.0427654e-05 0
0.13583265 -0.20161183 -0.42209703 -7.7250606e-06 1 9.8192992e-09 0
0.14527494 -0.20161182 -0.42700565 -7.6011056e-06 1 6.256409e-05 0
0.15321583 -0.20161183 -0.42646024 -0 1 -0 0
0.16547406 -0.20161183 -0.42604133 -3.4986635e-05 1 6.9281334e-05 0
0.17831455 -0.20161185 -0.4258264 -0.12218808 0.99235564 0.017332049 0.024935059
0.18467177 -0.20161182 -0.42695042 -0.24082111 0.97051215 0.010554221 0.04519885
0.19379485 -0.20161183 -0.42669427 -0.48182639 0.8757298 -0.030669555 0.091248967
-0.20175439 -0.19617951 -0.42655921 0.81739759 0.57342184 -0.055215228 0.092330471
0.20175439 -0.19491859 -0.42302039 -0.88413477 0.46470594 -0.048517793 0.08774405
-0.20175439 -0.18297803 -0.42639399 0.98220187 0.18772879 -0.0061118319 0.040853467
0.20175439 -0.18812552 -0.42979178 -0.92994773 0.36400905 -0.051909566 0.067714512
-0.20175439 -0.17570238 -0.42373872 0.9989298 0.045932133 0.0054412368 0.0036105886
0.20175439 -0.17562753 -0.42616686 -0.99839318 0.056066997 0.0082165534 0.0071997643
-0.20175439 -0.1605362 -0.42964184 1 3.3815275e-05 3.1042862e-05 8.7938988e-06
0.20175439 -0.16899765 -0.42269126 -1 1.5443738e-05 6.5095846e-05 8.116529e-06
-0.20175439 -0.15645638 -0.42561746 1 1.9281897e-05 1.5702356e-07 9.1268957e-06
0.20175439 -0.15284967 -0.42480159 -1 -1.6768208e-05 8.7505725e-07 8.680503e-06
-0.20175439 -0.14512071 -0.42545205 1 4.1418821e-06 6.4533473e-05 0
0.20175439 -0.14431822 -0.42309579 -1 2.4709499e-05 4.9977134e-05 8.61627e-06
-0.20175439 -0.13599387 -0.42539167 1 9.4755933e-06 8.5638806e-07 1.7977218e-05
0.20175439 -0.13843657 -0.42313462 -1 -8.1000908e-06 -1.5757665e-06 1.8671102e-05
0.20175439 -0.12509052 -0.42237109 -1 1.6116475e-05 0.00020642584 0
-0.20175439 -0.11634577 -0.42404246 1 3.2325326e-05 6.6542416e-05 0
0.20175439 -0.11533137 -0.4238627 -1 1.3265842e-05 6.8174173e-05 0
-0.20175439 -0.10505798 -0.42759901 1 -2.3547489e-06 -3.1551957e-05 3.8260852e-05
0.20175439 -0.10447022 -0.42589557 -1 -0 -0 1.8403509e-05
-0.20175439 -0.096613482 -0.42731732 1 -1.1028638e-05 -8.0532976e-05 3.4625617e-05
0.20175439 -0.097774222 -0.42762044 -1 2.108797e-05 3.4706085e-05 0
-0.20175439 -0.084283873 -0.42526412 1 -9.5450487e-06 -2.1636097e-08 3.4911223e-05
0.20175439 -0.085128285 -0.425818 -1 -0 -0 1.6972053e-05
0.20175439 -0.07659293 -0.42556405 -1 6.8222926e-06 3.2246113e-05 7.5863791e-06
-0.20175439 -0.064071774 -0.42627436 1 1.0836725e-06 -3.4506345e-05 1.7169112e-05
-0.20175439 -0.050575692 -0.42504889 1 5.3530243e-06 3.9901764e-07 8.9274936e-06
0.20175439 -0.058695778 -0.42061076 -1 -3.5669228e-07 -2.8717199e-05 1.5379146e-05
-0.20175439 -0.046083923 -0.42637733 1 1.4870853e-05 7.0890768e-05 9.1064048e-06
0.20175439 -0.046798792 -0.42243874 -1 0 0 7.7452023e-06
-0.20175439 -0.036312491 -0.42416903 1 7.7385548e-06 3.1785243e-05 0
0.20175439 -0.036055047 -0.42370281 -1 -6.8746372e-06 -2.7837699e-05 7.9207466e-06
-0.20175439 -0.021838613 -0.42801693 1 9.4912258e-07 7.5361109e-05 0
0.20175439 -0.023018695 -0.42625213 -1 4.0821665e-06 -2.6658134e-07 8.7101744e-06
0.20175439 -0.011129197 -0.42346501 -1 -4.5462029e-06 3.7447586e-05 0
-0.20175439 -0.0052335262 -0.42299753 1 -6.3891775e-07 2.2410241e-08 4.0582701e-05
0.20175439 -0.005731883 -0.42592907 -1 -0 -0 8.8278939e-06
-0.20175439 0.0062359404 -0.42486644 1 5.9047243e-06 4.9080551e-05 8.481411e-06
0.20175439 0.0051203296 -0.42579579 -1 5.4510929e-07 3.0973417e-05 0
-0.20175439 0.016414471 -0.42943564 1 -2.3438024e-06 3.1717202e-05 8.8415027e-06
0.20175439 0.012607629 -0.42448306 -1 4.0291497e-06 7.1988383e-05 0
-0.20175439 0.026341327 -0.42334962 1 1.6392253e-06 3.5534482e-05 8.6478312e-06
0.20175439 0.028404847 -0.42743391 -1 -2.123804e-05 0.0001113923 0
-0.20175439 0.033226848 -0.42362538 1 -1.8505385e-06 -1.2851558e-07 0
0.20175439 0.032536723 -0.42603236 -1 -1.6267906e-05 0.00013643724 0
-0.20175439 0.044737298 -0.42365599 1 -8.3345467e-06 -1.5332857e-07 8.3203913e-06
0.20175439 0.042343207 -0.42292279 -1 2.0335733e-06 8.7807603e-05 8.3508539e-06
-0.20175439 0.058394291 -0.42768371 1 -4.1955063e-06 3.9261809e-07 8.6488481e-06
0.20175439 0.054187648 -0.42746931 -1 -1.1377175e-06 6.8456531e-05 0
-0.20175439 0.065043762 -0.42741117 1 -9.93494e-06 -3.1814816e-05 9.1576921e-06
-0.20175438 0.075196676 -0.42680547 1 -1.8798743e-05 3.8289603e-05 9.240609e-06
0.20175438 0.074348196 -0.42375883 -1 -1.9447971e-05 -1.2560276e-06 0
-0.20175439 0.085416935 -0.42728937 1 -1.4703328e-05 0.00010293027 0
-0.20175439 0.097127892 -0.42315879 1 1.7800932e-05 -1.439934e-06 9.0529265e-06
0.20175439 0.093569636 -0.42541951 -1 -2.5100946e-05 2.6694341e-05 0
-0.20175438 0.1055373 -0.42475429 1 -1.6902259e-06 -3.7132355e-05 1.8133356e-05
0.20175439 0.10734352 -0.42815113 -1 1.7163604e-05 7.0202368e-05 1.7806255e-05
-0.20175439 0.11921233 -0.42150971 1 -1.5721806e-05 0.00012679562 0
0.20175439 0.1113968 -0.42137089 -1 3.6426911e-06 6.2420608e-05 8.1428443e-06
-0.20175439 0.12867719 -0.42190531 1 1.7655391e-05 0.00011243624 9.5134692e-06
0.20175441 0.12755443 -0.42465395 -1 4.9363655e-07 6.4525273e-05 7.9141846e-06
-0.20175438 0.13362849 -0.42287582 1 -1.9509989e-05 3.5578927e-05 0
0.20175438 0.1349192 -0.42402944 -1 1.4537468e-05 -6.4153664e-07 1.6133463e-05
-0.20175439 0.14316918 -0.42179522 1 -1.9646091e-05 0.0001212241 0
-0.20175439 0.15244374 -0.42246905 1 -1.5508362e-05 3.7012698e-05 0
0.20175439 0.15543056 -0.42185265 -1 3.115206e-05 7.86522e-05 1.8008937e-05
-0.20175439 0.16424011 -0.42361441 1 -1.4508615e-05 6.4144224e-05 0
0.20175439 0.16246788 -0.42659929 -1 -2.1108226e-05 -3.6170783e-05 1.6917764e-05
-0.20175439 0.17604846 -0.4267863 0.99636579 -0.084874064 0.0071857586 0.016500318
0.20175439 0.17322834 -0.42366329 -0.99992883 -0.011926472 -0.00010721404 0.000615214
-0.20175439 0.18824236 -0.42531613 0.95844603 -0.28238267 0.040511731 0.05092407
0.20175439 0.18156633 -0.42706275 -0.98614848 -0.16417326 -0.023630388 0.039186854
-0.20175439 0.19832091 -0.42129663 0.75438887 -0.65553451 0.03423335 0.10308447
0.20175438 0.1944464 -0.425558 -0.88967854 -0.45606616 0.021809343 0.085153043
-0.20175439 0.20110273 -0.42548415 0.71120048 -0.70291865 0.0099573052 0.10778159
-0.19413477 0.20189694 -0.42994997 0.61125636 -0.79035854 0.041218746 0.084211841
-0.18688479 0.20189694 -0.4241218 0.32013974 -0.94705242 -0.024541784 0.070423037
-0.17407826 0.20189694 -0.42213362 0.044533074 -0.99899906 -0.0041929926 0.0060187634
-0.1634644 0.20189694 -0.4201017 3.4129505e-05 -1 0.00010347377 0
-0.15272804 0.20189695 -0.42586771 1.0096303e-05 -1 -3.8503367e-05 0
-0.14751722 0.20189695 -0.42467129 3.6765428e-05 -1 0.00010101306 0
-0.1373587 0.20189694 -0.42481577 5.8859277e-05 -1 0.00012524573 0
-0.12184031 0.20189694 -0.42415351 7.6371598e-06 -1 0.00011982766 0
-0.1183385 0.20189694 -0.42244288 2.6339701e-05 -1 9.1833324e-05 0
-0.10361993 0.20189694 -0.42720312 2.6845373e-05 -1 7.0231232e-05 0
-0.095886 0.20189695 -0.42344114 3.1578682e-05 -1 9.4167553e-05 0
-0.087058514 0.20189694 -0.42402059 -1.6356948e-05 -1 3.9097176e-05 0
-0.074412748 0.20189694 -0.42812437 8.4333251e-06 -1 6.4654182e-07 0
-0.064556539 0.20189694 -0.42541826 1.5635509e-05 -1 -1.436163e-06 0
-0.054507311 0.20189694 -0.42613393 7.020371e-06 -1 4.2361105e-05 0
-0.045764137 0.20189694 -0.42755455 2.1145104e-05 -1 8.0289348e-05 0
-0.02580009 0.20189694 -0.42479047 0 -1 0 0
-0.012398588 0.20189694 -0.42375788 -1.5864019e-06 -1 5.3818705e-05 0
-0.0066151298 0.20189695 -0.42332426 -4.3472073e-06 -1 5.0002734e-05 0
0.006362373 0.20189694 -0.42385405 1.8358348e-06 -1 6.5465167e-05 0
0.014466166 0.20189695 -0.4241384 7.5993871e-06 -1 4.0595034e-05 0
0.027198335 0.20189694 -0.42723805 -1.4886249e-05 -1 0.00010596732 0
0.032087296 0.20189694 -0.42477357 -8.6859163e-06 -1 4.4628589e-05 0
0.045459185 0.20189694 -0.42723089 -1.849695e-05 -1 6.1824212e-05 0
0.059337687 0.20189694 -0.42573708 -1.7475442e-05 -1 9.6272015e-05 0
0.064778477 0.20189694 -0.42239419 9.0740208e-08 -1 0.00010893563 0
0.076442927 0.20189694 -0.4272404 -1.728082e-05 -1 8.8064226e-05 0
0.086516805 0.20189694 -0.42698163 -1.337924e-05 -1 2.8048193e-05 0
0.092668802 0.20189694 -0.42733505 -3.9752103e-06 -1 -7.5176802e-05 0
0.10501964 0.20189694 -0.42324686 -2.2035629e-05 -1 3.6721995e-05 0
0.1149162 0.20189695 -0.42288336 -1.5830516e-05 -1 6.1324096e-07 0
0.12450191 0.20189692 -0.42664307 -2.8430048e-05 -1 0.00011012885 0
0.13649185 0.20189695 -0.42482254 -4.7449062e-06 -1 2.6278371e-05 0
0.14821102 0.20189694 -0.42226321 -3.7162652e-05 -1 8.322941e-05 0
0.15457228 0.20189694 -0.42763871 -5.5262779e-05 -1 4.2798223e-05 0
0.16817516 0.20189694 -0.42417347 5.9173999e-06 -1 9.3972587e-05 0
0.17515834 0.20189694 -0.42646527 -0.053245906 -0.99857074 -0.0046221917 0.0065064095
0.18517143 0.20189694 -0.42540705 -0.2306397 -0.97200525 0.044845376 0.052956462
0.19860145 0.20189694 -0.42497 -0.7562902 -0.65423578 -0.00084360456 0.095184125
-0.20073637 -0.20161183 -0.41755277 0.70638788 0.70362008 -0.077038698 0.077516139
-0.18436161 -0.20161183 -0.41951227 0.18239965 0.98273748 0.030940941 0.037070613
-0.17568712 -0.20161183 -0.41604942 0.044099137 0.99898624 0.0090437857 0.0046352535
-0.16313404 -0.20161182 -0.41705093 5.3143613e-05 1 6.1435661e-05 0
-0.15160546 -0.20161183 -0.41955215 4.392401e-05 1 3.0007416e-06 0
-0.14065152 -0.20161183 -0.41235751 1.6072945e-05 1 0.00011280469 0
-0.1373641 -0.20161182 -0.41550714 4.9954419e-05 1 6.5120745e-05 0
-0.12375649 -0.20161183 -0.4138757 2.5686213e-05 1 6.3141691e-05 0
-0.11436233 -0.20161183 -0.41526267 1.2796359e-05 1 0.00010071429 0
-0.10478862 -0.20161183 -0.41475224 -4.5300776e-06 1 -3.1063591e-05 0
-0.091987059 -0.20161185 -0.41577491 -3.4689512e-07 1 -3.6433416e-05 0
-0.084704436 -0.20161183 -0.41331553 -1.9479428e-05 1 -0.0001154419 9.2319997e-06
-0.073663279 -0.20161183 -0.41717929 6.1099254e-06 1 5.6190631e-05 0
-0.06957636 -0.20161183 -0.4150691 -6.7458309e-06 1 3.2640321e-05 0
-0.053692352 -0.20161183 -0.41491112 -2.0316234e-06 1 3.8170772e-05 0
-0.043997005 -0.20161183 -0.41412991 3.627815e-06 1 2.9518136e-05 0
-0.034184806 -0.20161183 -0.41092467 -0 1 -0 0
-0.028081924 -0.20161183 -0.41646382 -1.7943879e-06 1 3.456284e-05 0
-0.013115637 -0.20161182 -0.41234764 2.0656748e-06 1 -1.3932801e-07 0
-0.0027615428 -0.20161183 -0.4100838 -1.3547897e-05 1 9.9860205e-05 0
0.0056681461 -0.20161183 -0.4150869 -4.2550406e-07 1 3.3279026e-05 0
0.015356317 -0.20161183 -0.41485023 -1.2953691e-06 1 6.2761181e-05 0
0.024646405 -0.20161183 -0.41671619 3.4188531e-06 1 0.00010297434 0
0.036096353 -0.20161182 -0.4156729 1.213592e-05 1 7.7828226e-05 0
0.045311719 -0.20161182 -0.41005093 -8.8045254e-06 1 2.9566903e-05 0
0.055773027 -0.20161185 -0.41495109 -1.1167135e-06 1 3.8461429e-05 0
0.062346846 -0.20161182 -0.4136923 -2.2407472e-05 1 9.9075129e-05 0
0.076864071 -0.20161183 -0.41270664 -1.2304125e-05 1 7.2005765e-05 0
0.083897159 -0.20161185 -0.41802439 -1.5844236e-05 1 6.4303953e-05 0
0.09615992 -0.20161182 -0.4148702 -1.8379649e-05 1 0.00011840754 0
0.10376215 -0.20161183 -0.41321605 -2.6298738e-05 1 3.3279281e-05 0
0.11576325 -0.20161182 -0.41180068 -3.9224851e-05 1 3.888187e-05 0
0.12293039 -0.20161183 -0.41653538 -1.2218637e-05 1 3.6066769e-05 0
0.13506858 -0.20161183 -0.41244543 -9.8453347e-07 1 3.357403e-05 0
0.14693815 -0.20161183 -0.41368508 2.4225774e-06 1 -3.8484777e-05 0
0.15498932 -0.20161183 -0.4131608 -0 1 -0 0
0.16427507 -0.20161182 -0.41562101 -1.5632166e-05 1 -1.2300467e-06 0
0.17337899 -0.20161182 -0.41717267 -0.032309014 0.99947149 0.0035719262 0.0030408131
0.18440139 -0.20161183 -0.41254967 -0.17100994 0.98470616 0.033307679 0.031013317
0.19812667 -0.20161183 -0.41139773 -0.55769926 0.830037 0.0031743404 0.069401354
-0.20175439 -0.19419757 -0.41644099 0.8791185 0.47308844 -0.0577765 0.071663223
0.20175439 -0.19938333 -0.41597545 -0.73023844 0.68163097 -0.046164051 0.086346321
-0.20175439 -0.18517368 -0.41424358 0.9751206 0.20797221 -0.076729074 0.034873948
0.20175439 -0.1837195 -0.41383296 -0.97201735 0.23416714 0.018653179 0.040323637
-0.20175439 -0.1768543 -0.41500527 0.99836004 0.056475744 -0.0093666008 0.0061390959
0.20175439 -0.17357184 -0.41704595 -0.99987632 0.01462801 -0.0057702758 0.00081908336
-0.20175439 -0.16705769 -0.41421309 1 -1.9555409e-05 -3.4761077e-05 1.8371988e-05
0.20175439 -0.16621205 -0.41604555 -1 9.049726e-06 7.2025709e-05 0
-0.20175438 -0.15280159 -0.4170607 1 1.1282755e-05 -4.3838587e-05 1.925156e-05
0.20175439 -0.15316688 -0.41554403 -1 -7.7758068e-06 -9.0978196e-05 1.9930454e-05
-0.20175438 -0.14509131 -0.41646653 1 -6.1281771e-06 7.192351e-05 1.7715973e-05
0.20175439 -0.14403546 -0.41533688 -1 2.4951172e-05 9.3168637e-05 8.9270088e-06
-0.20175439 -0.13677651 -0.4162184 1 1.4234464e-05 3.7663387e-05 1.70561e-05
0.20175439 -0.13654082 -0.41456488 -1 3.9794966e-05 -3.7779042e-05 0
-0.20175439 -0.12712497 -0.41671503 1 4.1969242e-06 3.1992753e-05 8.1223061e-06
0.20175439 -0.12066533 -0.41428119 -1 6.6489038e-06 5.965641e-05 0
-0.20175439 -0.1120504 -0.41385907 1 1.0306831e-05 -3.6971374e-05 1.6937656e-05
0.20175439 -0.11097667 -0.41569066 -1 1.116024e-05 3.4709727e-05 8.7678454e-06
-0.20175439 -0.1047377 -0.41430518 1 1.2207726e-05 6.6949338e-05 8.7767594e-06
0.20175439 -0.10481688 -0.41649207 -1 -5.5171364e-07 -3.040202e-05 8.3577124e-06
-0.20175439 -0.093029171 -0.41595757 1 2.6414753e-05 -6.7770197e-05 1.8759412e-05
0.20175439 -0.094257437 -0.41484714 -1 -7.003257e-06 -3.5389563e-05 3.7729653e-05
-0.20175439 -0.083999082 -0.41611564 1 -7.5765324e-06 6.7167542e-07 1.6517622e-05
0.20175438 -0.087184109 -0.41483679 -1 -5.370207e-06 -3.9669903e-05 1.6845424e-05
0.20175439 -0.075188115 -0.41412038 -1 8.2691158e-06 -1.3781859e-06 0
-0.20175438 -0.066585973 -0.41506225 1 -1.911072e-07 3.3207612e-05 1.593364e-05
0.20175439 -0.064230092 -0.41493598 -1 -1.054603e-05 -3.6579404e-05 3.47477e-05
-0.20175439 -0.054714944 -0.41653165 1 -0 -0 1.7023423e-05
-0.20175439 -0.04584619 -0.41710564 1 3.0635308e-06 3.5382836e-05 3.9358594e-05
0.20175439 -0.043326799 -0.41571614 -1 4.559281e-06 4.4911678e-07 8.1970438e-06
-0.20175439 -0.037830885 -0.41571081 1 3.7970674e-06 -6.0405903e-08 8.2288261e-06
0.20175439 -0.035940465 -0.41688892 -1 1.5333719e-05 9.8275967e-05 8.0918107e-06
-0.20175439 -0.021335043 -0.41846073 1 1.5243954e-06 3.0719835e-05 0
0.20175439 -0.02370875 -0.41301394 -1 1.0460587e-05 6.5206303e-05 8.4955564e-06
-0.20175439 -0.016379096 -0.41100955 1 3.3087039e-07 -3.5170979e-05 1.6604294e-05
0.20175439 -0.014872638 -0.41375777 -1 -5.5648297e-07 3.4769662e-05 0
-0.20175439 -0.0087682158 -0.41856673 1 -3.5338733e-06 -8.9792666e-05 7.6536107e-06
0.20175439 -0.0067113936 -0.41456443 -1 5.8605525e-07 -5.96782e-08 9.1047787e-06
-0.20175439 0.0075906739 -0.41784519 1 2.6365426e-06 3.2737415e-05 0
0.20175439 0.0049494952 -0.41421759 -1 -1.8842918e-06 -3.781341e-05 1.844508e-05
-0.20175439 0.012150973 -0.41759899 1 2.3273089e-06 2.8391818e-07 0
0.20175439 0.014084604 -0.41373187 -1 5.7379884e-07 6.6503853e-05 0
-0.20175439 0.026294762 -0.41888237 1 -4.7925737e-06 8.2467444e-08 8.7576036e-06
0.20175439 0.027150599 -0.4162004 -1 -4.3668233e-06 7.5849493e-05 0
0.20175439 0.036825635 -0.41815066 -1 4.2741631e-06 -2.1794544e-07 8.8096494e-06
-0.20175439 0.045125715 -0.41639435 1 -1.010164e-05 -1.0180861e-07 7.9859728e-06
0.20175439 0.046968818 -0.41343498 -1 -3.828497e-06 -3.5923942e-05 8.7540293e-06
-0.20175439 0.053750575 -0.41520134 1 -0 -0 7.9829288e-06
0.20175439 0.054935191 -0.41645509 -1 -1.3230746e-05 -8.3496218e-07 8.4781777e-06
-0.20175439 0.066143841 -0.41618627 1 -1.293516e-05 5.8960671e-07 8.396124e-06
0.20175439 0.066292629 -0.41956443 -1 -3.615359e-06 3.219716e-05 8.2032275e-06
-0.20175439 0.076506451 -0.41290104 1 -8.181747e-06 2.7502396e-05 8.0748223e-06
0.20175438 0.07542228 -0.41689238 -1 -9.5622261e-07 0.00010426188 8.1103917e-06
-0.20175439 0.082377046 -0.41773239 1 -1.1294594e-05 3.8660433e-05 1.6950868e-05
0.20175439 0.084396929 -0.41750222 -1 7.8994199e-06 6.7753172e-05 8.790561e-06
-0.20175438 0.09586899 -0.41336307 1 -1.2498687e-06 9.3677081e-05 0
0.20175439 0.096073531 -0.41593328 -1 -1.9512861e-05 2.8386574e-05 7.8020121e-06
-0.20175439 0.1065276 -0.41373849 1 4.7271556e-06 3.7179172e-05 9.1570037e-06
0.20175438 0.10225485 -0.4155609 -1 -1.6569518e-05 2.1220678e-06 7.8895491e-06
-0.20175439 0.11842123 -0.41208321 1 -4.1701947e-05 7.0852591e-05 0
0.20175439 0.11445828 -0.41477829 -1 0 0 1.7986727e-05
-0.20175439 0.1234739 -0.41846883 1 7.63974e-06 0.00012211892 0
0.20175439 0.12232293 -0.41976056 -1 -2.427913e-05 6.1734696e-05 8.2056449e-06
-0.20175438 0.13738358 -0.41354555 1 -0 -0 9.5284622e-06
0.20175439 0.13512206 -0.41476524 -1 1.3219997e-05 4.3180778e-05 1.7545595e-05
-0.20175439 0.14272565 -0.41559792 1 -2.4202332e-05 0.00011044276 0
0.20175439 0.14671804 -0.41993272 -1 -1.3735674e-05 -3.3441873e-05 1.6505619e-05
-0.20175439 0.15344875 -0.4179312 1 -5.743331e-05 3.4679724e-05 0
0.20175439 0.1541127 -0.41570535 -1 3.2897776e-06 6.4844389e-05 0
-0.20175439 0.16652988 -0.4163025 1 2.6552072e-05 0.00012099177 0
0.20175439 0.16425827 -0.41361192 -1 4.0962237e-05 -6.1773229e-05 3.836945e-05
-0.20175439 0.17554677 -0.41759217 0.99977636 -0.020871578 -0.0033987942 0.0024920297
0.20175439 0.17690103 -0.41845322 -0.99913573 -0.040273126 -0.01028938 0.003896829
-0.20175439 0.18091922 -0.41671309 0.99077404 -0.13495839 -0.012368473 0.031380031
-0.20175439 0.19198945 -0.41697222 0.89006388 -0.45468545 0.03236267 0.10317988
0.20175439 0.1953588 -0.41234165 -0.86226022 -0.50552535 -0.030846555 0.083518185
-0.20175439 0.20062709 -0.4116081 0.67463052 -0.73440415 0.074324504 0.093983769
-0.19559406 0.20189695 -0.4128516 0.49888638 -0.86530852 0.048513625 0.088835783
-0.18676989 0.20189694 -0.41654363 0.28585023 -0.9582727 -0.0017769104 0.056416295
-0.17399871 0.20189694 -0.41722614 0.046050597 -0.99892604 -0.0051170569 0.0061885007
-0.16246027 0.20189695 -0.41212249 1.7900738e-05 -1 0.00012553099 0
-0.15564606 0.20189694 -0.41649833 3.1011761e-05 -1 0.00010064566 0
-0.14343703 0.20189694 -0.41910923 2.5367144e-05 -1 3.5529731e-05 0
-0.13744956 0.20189694 -0.41877493 2.7172135e-05 -1 9.4002047e-05 0
-0.12717587 0.20189695 -0.41253376 2.320079e-05 -1 6.9023241e-05 0
-0.11555272 0.20189694 -0.41331136 1.0952124e-05 -1 6.1486397e-05 0
-0.10683289 0.20189694 -0.41082472 1.8962866e-05 -1 -4.5609897e-07 0
-0.09244854 0.20189694 -0.4165549 1.6514537e-05 -1 3.4847093e-05 0
-0.085147843 0.20189694 -0.41118726 1.927582e-05 -1 3.2250384e-05 0
-0.07604982 0.20189694 -0.41468301 -4.2659708e-06 -1 -1.7771242e-07 0
-0.063675001 0.20189694 -0.41530094 2.1935679e-05 -1 3.8223599e-05 0
-0.055412449 0.20189694 -0.41089121 3.1697007e-06 -1 3.3997047e-05 0
-0.045369148 0.20189694 -0.41396472 8.0356813e-06 -1 2.8320599e-05 0
-0.03699743 0.20189694 -0.41432911 1.3041898e-05 -1 6.0367871e-05 0
-0.027885772 0.20189694 -0.41801172 4.2430511e-06 -1 6.0276543e-05 0
-0.018290102 0.20189694 -0.41277957 6.0431785e-06 -1 -8.3990148e-05 0
-0.0061749443 0.20189694 -0.41398352 1.5123467e-07 -1 -4.8029036e-05 0
0.0034715831 0.20189694 -0.41138005 2.57038e-06 -1 6.3777297e-05 0
0.018200822 0.20189694 -0.41678536 7.9611334e-07 -1 3.9531387e-05 0
0.037666805 0.20189695 -0.41497087 -5.2660575e-06 -1 -4.6441699e-05 0
0.045728724 0.20189694 -0.41325036 -1.8549168e-05 -1 4.2380969e-05 0
0.050971132 0.20189695 -0.41558442 -1.208842e-05 -1 9.8615703e-05 0
0.063905939 0.20189694 -0.41067871 -1.060276e-05 -0.99999994 0.00018771138 0
0.077202991 0.20189694 -0.41650382 -1.9339122e-05 -1 -2.138335e-06 0
0.084187351 0.20189692 -0.41628945 -4.1823154e-05 -1 3.128457e-05 0
0.097095966 0.20189695 -0.41476512 -1.0451067e-05 -1 3.6100584e-05 0
0.11564383 0.20189695 -0.41713238 -1.4592415e-05 -1 1.3808303e-06 0
0.12345773 0.20189694 -0.41279596 -2.4713994e-05 -1 3.9287748e-05 0
0.13692109 0.20189695 -0.41353914 -1.0542413e-05 -1 8.56935e-07 0
0.14288622 0.20189694 -0.41061574 5.4897839e-07 -1 9.4763236e-05 0
0.18537973 0.20189692 -0.41476908 -0.26152009 -0.96415293 0.044903602 0.057149436
0.19408178 0.20189694 -0.41701201 -0.43627748 -0.89973891 -0.011484412 0.078023136
-0.20085339 -0.20161183 -0.40415338 0.71091062 0.7031436 0.013971767 0.10131188
-0.19355327 -0.20161183 -0.40619913 0.43106118 0.90053093 0.056835752 0.08618474
-0.18655559 -0.20161182 -0.40188223 0.16831186 0.98485988 0.041498855 0.035430796
-0.17412743 -0.20161183 -0.40523267 3.5987356e-05 1 8.2284081e-05 0
-0.16444845 -0.20161183 -0.405022 2.15367e-05 1 0.0001071361 0
-0.15443732 -0.20161183 -0.4073928 -9.5050282e-06 1 7.8785844e-05 1.9403955e-05
-0.13357198 -0.20161183 -0.40493 -2.3722952e-05 1 3.9725473e-05 0
-0.12257144 -0.20161183 -0.40688825 -1.0642608e-06 1 -2.8735372e-05 0
-0.11425695 -0.20161183 -0.40605891 -3.6421084e-06 1 2.8593156e-05 0
-0.10358813 -0.20161182 -0.40582344 -0 1 -0 0
-0.080866471 -0.20161183 -0.40199786 1.2992183e-05 1 5.6307126e-05 0
-0.075440459 -0.20161185 -0.40907612 4.5379334e-06 1 1.5471517e-07 0
-0.054307856 -0.20161182 -0.40426981 3.9165052e-06 1 -4.6805209e-05 0
-0.044534463 -0.20161182 -0.40583226 4.3264058e-06 1 6.7190605e-08 0
-0.018261975 -0.20161183 -0.4071416 3.8770531e-06 1 -2.6841808e-05 0
-0.0013767779 -0.20161183 -0.40005994 3.9003467e-06 1 3.2705884e-05 0
0.0030401852 -0.20161183 -0.40183267 -3.0631131e-07 1 8.8065901e-09 0
0.014752094 -0.20161185 -0.40726998 -1.2975628e-06 1 3.281004e-05 0
0.026053833 -0.20161183 -0.40562218 -1.7880412e-06 1 -8.8326779e-08 0
0.033635732 -0.20161182 -0.40493724 8.4160865e-06 1 4.0309358e-05 0
0.04819572 -0.20161185 -0.40804043 -1.5469419e-05 1 -2.519732e-07 0
0.053886525 -0.20161183 -0.40798888 -2.0875486e-05 1 -3.1039624e-05 0
0.066518024 -0.20161183 -0.40536851 -2.7612012e-05 1 5.2939791e-05 0
0.073613383 -0.20161183 -0.40464836 -2.0699641e-05 1 6.4017659e-05 0
0.083158568 -0.20161183 -0.4003562 -1.8313563e-05 1 -4.7983929e-07 0
0.095026009 -0.20161183 -0.40927476 -1.9988711e-05 1 7.3166644e-05 0
0.10361066 -0.20161183 -0.40557098 -1.6115053e-05 1 -3.169608e-05 0
0.11453262 -0.20161183 -0.40703225 -9.2734108e-06 1 1.4990568e-06 0
0.12309977 -0.20161185 -0.40868783 -1.2661228e-05 1 6.1809173e-05 0
0.13355216 -0.20161185 -0.4003998 -1.8489023e-05 1 6.8825851e-05 0
0.14408486 -0.20161183 -0.40831819 -2.3743924e-05 1 3.5661516e-05 0
0.1558063 -0.20161183 -0.40527725 -1.4293954e-05 1 3.9450575e-07 0
0.16750763 -0.20161185 -0.40652877 -3.8221227e-05 1 3.4506814e-07 0
0.17861016 -0.20161182 -0.40398827 -0.099696636 0.99492007 -0.013948824 0.016473103
0.18479472 -0.20161185 -0.40493906 -0.23818927 0.97115159 -0.011424856 0.041335594
0.19461671 -0.20161183 -0.40722454 -0.37354758 0.92660052 -0.043286514 0.049392771
0.20175439 -0.18805112 -0.40438953 -0.94068879 0.33923268 -0.0050732265 0.060283192
-0.20175439 -0.17485434 -0.40145686 0.99726552 0.073800258 -0.0038682881 0.0084752636
0.20175439 -0.1723941 -0.40334293 -1 3.8191254e-05 8.7256361e-05 0
-0.20175439 -0.16196696 -0.40466869 1 2.1606136e-05 7.8676137e-05 2.7115608e-05
0.20175439 -0.16559757 -0.40667981 -1 -1.9682579e-05 3.6947484e-05 4.193472e-05
-0.20175439 -0.15812817 -0.40844199 1 -2.005217e-05 -2.4805863e-06 3.8726543e-05
0.20175439 -0.15299478 -0.40346786 -1 2.5819863e-05 3.6032736e-05 9.0541917e-06
-0.20175439 -0.14518414 -0.40280941 1 -3.6277035e-07 3.0974348e-05 1.5867607e-05
