# .PCD v0.7 - Point Cloud Data file format
VERSION 0.7
FIELDS x y z normal_x normal_y normal_z curvature
SIZE 4 4 4 4 4 4 4
TYPE F F F F F F F
COUNT 1 1 1 1 1 1 1
WIDTH 670
HEIGHT 1
VIEWPOINT 0 0 0 1 0 0 0
POINTS 670
DATA ascii
-0.013415752 -0.17936507 -0.40457278 -2.4118374e-06 1 7.4513278e-05 0
-0.0069615683 -0.17936507 -0.40617016 -1.826824e-05 1 0.00012464361 0
0.0093892962 -0.17936507 -0.4051972 -5.827003e-06 1 0.00013169151 0
0.015563649 -0.17936508 -0.40306583 -9.7681436e-07 1 3.4742136e-08 0
0.023510899 -0.17936507 -0.40452227 7.8321491e-06 1 7.7921562e-05 0
0.034044929 -0.17936507 -0.40846023 1.0359973e-05 1 9.367329e-05 0
0.043904137 -0.17936505 -0.40572685 -1.1411942e-06 1 5.9738337e-05 0
0.055367358 -0.17936507 -0.40211877 -1.3723665e-05 1 -8.5642438e-07 0
0.064297535 -0.17936507 -0.40341091 -1.3967185e-05 1 7.0894406e-05 0
0.071914315 -0.17936508 -0.40356684 -7.7289214e-06 1 -3.7026137e-05 0
0.0850624 -0.17936507 -0.4051984 -2.4086014e-05 1 3.8097689e-05 0
0.096091308 -0.17936508 -0.40374291 -2.4272444e-05 1 0.00013424605 0
0.10204524 -0.17936507 -0.40896815 -2.285695e-05 1 3.1000993e-05 0
0.1185102 -0.17936507 -0.40487933 -5.2959267e-06 1 3.3098899e-05 0
0.12586352 -0.17936507 -0.40245777 -3.7114463e-05 1 2.8981127e-05 0
0.13219674 -0.17936507 -0.40299249 -2.6907999e-05 1 2.8177037e-05 0
0.1457037 -0.17936507 -0.40683833 -1.8166866e-05 1 3.4768451e-05 0
0.1574827 -0.17936507 -0.40556514 -4.5107709e-06 1 0.00013293503 0
0.16600479 -0.17936507 -0.40421817 -2.2602353e-05 1 0.00012209601 0
0.17559044 -0.17936508 -0.4084827 -1.8088742e-05 1 7.7351964e-05 0
0.18585356 -0.17936507 -0.40250361 -5.6883723e-06 1 4.1605552e-05 0
0.1949016 -0.17936507 -0.4041988 -3.0742867e-05 1 2.8550687e-05 0
0.20586368 -0.17936507 -0.40628949 -0 1 -0 0
0.21500075 -0.17936507 -0.40630764 -0 1 -0 0
0.22539613 -0.17936507 -0.40500441 -1.8376022e-05 1 -2.9650151e-05 0
0.23321883 -0.17936507 -0.40411457 1.1767923e-07 1 -3.7277725e-05 0
0.25383097 -0.17936507 -0.40580302 -0.11600587 0.99324447 0.0028301219 0.019195911
0.26922274 -0.17936507 -0.40448356 -0.48449427 0.87374955 -0.042744081 0.062902771
0.27653795 -0.17536752 -0.40311396 -0.76241803 0.64647037 -0.028190529 0.072745554
-0.2775974 -0.16364971 -0.40274945 0.95933831 0.28103003 0.026308468 0.062379524
0.27759731 -0.16799133 -0.40663829 -0.87321496 0.48258689 -0.067863941 0.063794717
-0.2775974 -0.1583669 -0.40531588 0.98848993 0.1504261 0.016116548 0.022193739
0.27759731 -0.15857397 -0.40367851 -0.98672038 0.16120738 0.019876977 0.016707659
-0.27759737 -0.14497215 -0.40524262 1 1.9122339e-05 7.7517012e-05 0
-0.2775974 -0.13598511 -0.40485153 1 -1.5063448e-05 4.7560647e-05 5.8936752e-05
0.27759731 -0.1357538 -0.40934891 -1 2.7175629e-05 8.8174747e-05 0
-0.2775974 -0.12589318 -0.40153059 1 -2.6146839e-05 -9.9302495e-05 5.2035426e-05
0.27759731 -0.12876332 -0.40806875 -0.99999994 6.4853717e-05 0.00016984863 0
-0.2775974 -0.11608113 -0.40490112 1 -6.3831558e-06 0.00011908739 3.2471195e-05
0.27759731 -0.11745061 -0.40468481 -0.99999994 4.6319161e-05 0.00019262657 0
-0.2775974 -0.10953242 -0.40844801 1 9.4139523e-06 3.4777448e-05 3.325392e-05
0.27759731 -0.10367257 -0.40560579 -1 -1.0947207e-05 0.00016437095 0
-0.2775974 -0.095562041 -0.40411568 1 -1.8478479e-05 -6.3851243e-05 1.6180067e-05
0.27759731 -0.09448348 -0.40390137 -1 5.4064669e-05 0.00014935914 0
-0.2775974 -0.082393527 -0.40570486 1 8.8028728e-06 8.7165239e-07 3.4268549e-05
0.27759731 -0.087324068 -0.40576783 -1 2.3722279e-05 0.00020977283 0
-0.2775974 -0.072353654 -0.4034988 1 -1.053073e-05 3.1412415e-05 4.7464986e-05
0.27759731 -0.079343721 -0.40269908 -1 5.8038582e-05 0.00016555107 0
-0.27759737 -0.066675022 -0.40637144 1 -1.1177252e-05 4.3786844e-05 5.0040846e-05
0.27759731 -0.064942248 -0.40381297 -0.99999994 4.7267578e-05 0.00032544383 0
-0.2775974 -0.053138752 -0.40794626 1 1.1977694e-05 4.1354586e-05 3.9621264e-05
-0.2775974 -0.042057395 -0.40482476 1 7.1401982e-06 -0.00010988163 4.8923459e-05
0.27759731 -0.047721721 -0.40040925 -1 1.3380067e-05 0.00025065016 0
0.27759731 -0.038743239 -0.40450484 -1 1.9882373e-05 8.6195221e-05 0
0.27759731 -0.024822082 -0.40446466 -1 1.7084665e-05 0.0001703731 0
-0.27759743 -0.016186129 -0.40286088 1 -1.2347443e-05 6.966506e-05 0
0.27759731 -0.013390705 -0.40564972 -1 -7.0697347e-06 0.00014603254 0
-0.2775974 -0.0049049146 -0.40218538 1 0 0 5.4745302e-05
0.27759731 -0.0026709884 -0.40964019 -1 -7.0224826e-07 0.00013849068 0
0.27759731 0.0072276765 -0.40607497 -1 -3.7187351e-06 0.00015890211 0
-0.2775974 0.016246662 -0.40748727 1 -1.9929097e-05 -7.7382276e-05 5.191287e-05
0.27759731 0.012923921 -0.40417945 -1 -4.9410255e-07 0.00014563858 0
-0.2775974 0.024861403 -0.40331614 1 5.5554788e-06 9.1805261e-05 5.0611197e-05
-0.2775974 0.032054391 -0.4077459 1 -8.8773058e-06 -3.1410793e-05 3.3241206e-05
0.27759731 0.034891509 -0.40791619 -1 -2.2746419e-05 0.00014237859 0
-0.2775974 0.04258021 -0.40583438 1 -9.0981412e-06 -0.0001019259 3.4375491e-05
0.27759731 0.045862198 -0.40580073 -1 -3.0185085e-05 9.9326768e-05 0
-0.2775974 0.054810259 -0.40453377 1 1.0643903e-05 5.9057969e-05 3.2540887e-05
0.27759731 0.055347964 -0.40040177 -0.99999994 -4.3839806e-05 0.00022991541 0
-0.2775974 0.065483615 -0.40463772 1 2.0218953e-05 -0.00014280237 5.251306e-05
0.27759731 0.067024074 -0.40211934 -1 -2.8755563e-05 0.00015778786 0
-0.2775974 0.07104034 -0.40917706 1 -1.4621249e-05 1.5382659e-06 0
0.27759731 0.076674305 -0.40526393 -1 -2.7516786e-05 3.7303045e-05 0
-0.2775974 0.0863958 -0.40185842 1 -1.9531497e-05 6.1436964e-05 5.2244555e-05
0.27759731 0.085960224 -0.40627581 -1 -4.3493495e-05 0.00017848244 0
-0.2775974 0.095478654 -0.40634662 1 -1.4960422e-05 8.592317e-07 3.2686148e-05
0.27759731 0.094321802 -0.40742064 -1 -3.3215165e-05 9.5027215e-05 0
-0.2775974 0.10554577 -0.40380549 1 1.9060737e-05 3.2493012e-05 5.0912855e-05
0.27759731 0.10517506 -0.40340686 -1 -2.9548122e-05 0.00012365327 0
-0.2775974 0.12633242 -0.40430057 1 1.9069977e-05 3.5855173e-05 5.3012001e-05
-0.2775974 0.13739015 -0.40264502 1 2.20358e-05 3.9050541e-05 1.632055e-05
0.27759731 0.13430795 -0.40773958 -1 -6.9132337e-05 5.6404777e-05 0
-0.2775974 0.14680435 -0.40502992 1 1.252194e-05 -9.397036e-05 3.6215984e-05
-0.2775974 0.15921263 -0.40534997 0.96928346 -0.24581884 -0.0079186894 0.037498254
0.27759731 0.15320508 -0.40398324 -0.99424964 -0.10702584 0.0036134501 0.013634728
-0.27759737 0.16551153 -0.40580714 0.91811323 -0.39557436 -0.024271369 0.062618501
0.27759731 0.16505128 -0.40504357 -0.91968143 -0.39140704 -0.031409893 0.056483679
-0.27232176 0.17936507 -0.40787333 0.64965975 -0.7601763 -0.0086141974 0.068808816
-0.26461276 0.17936507 -0.40540045 0.41437715 -0.91009724 0.0038147604 0.064199612
-0.25767106 0.17936508 -0.40534449 0.29236695 -0.95566219 0.035088871 0.05576361
-0.24533208 0.17936508 -0.40626577 3.2223637e-05 -1 3.4159482e-05 0
-0.23716892 0.17936505 -0.40416548 1.1365466e-05 -1 3.3325116e-05 0
-0.22576013 0.17936507 -0.40647572 4.7419115e-05 -1 4.1642936e-05 0
-0.21795297 0.17936507 -0.40214825 3.0070727e-05 -1 3.0543368e-05 0
-0.20468386 0.17936507 -0.40783054 2.4018225e-05 -1 6.8091918e-05 0
-0.19261937 0.17936508 -0.4042213 4.0094176e-07 -1 0.00014105493 0
-0.18668219 0.17936507 -0.40053472 3.8644474e-05 -1 6.318924e-05 0
-0.17098942 0.17936507 -0.40211689 4.6268255e-05 -1 3.7603051e-05 0
-0.16796735 0.17936507 -0.40691072 3.8823771e-05 -1 8.3188243e-06 0
-0.15315887 0.17936507 -0.4058376 -1.5495314e-05 -1 3.2618933e-05 0
-0.14519238 0.17936507 -0.40204448 1.7972721e-05 -1 3.262686e-05 0
-0.1337029 0.17936507 -0.40469539 9.2104874e-06 -1 3.7616908e-05 0
-0.12817651 0.17936508 -0.40625405 -9.9709314e-06 -1 7.102971e-05 0
-0.11535612 0.17936507 -0.40632167 -2.0893515e-06 -1 3.2171207e-05 0
-0.10469683 0.17936508 -0.40095147 7.6182878e-06 -1 0.00011677782 0
-0.096092515 0.17936507 -0.4098025 1.1031984e-06 -1 3.6961861e-05 0
-0.08380568 0.17936507 -0.40717459 2.2283115e-05 -1 7.333792e-05 0
-0.07856328 0.17936508 -0.40188622 2.5283982e-05 -1 9.288259e-05 0
-0.066474743 0.17936507 -0.40467906 3.191306e-05 -1 9.4313735e-05 0
-0.055237666 0.17936505 -0.40468347 -9.3582066e-06 -1 9.677263e-05 0
-0.045133922 0.17936508 -0.4040204 1.7059937e-06 -1 3.7931422e-05 0
-0.031477198 0.17936507 -0.40260226 -4.0230148e-05 -1 8.5484797e-05 0
-0.021408319 0.17936507 -0.40022492 -2.4598189e-06 -1 7.4755619e-05 0
-0.01656856 0.17936507 -0.40499461 -5.3593135e-06 -1 4.5202687e-05 0
0.0038429275 0.17936507 -0.40376732 9.4065422e-07 -1 8.8787943e-05 0
0.016028605 0.17936507 -0.40346062 3.2938938e-06 -1 6.5702166e-05 0
0.026928561 0.17936507 -0.40397343 -2.119865e-06 -1 -3.1965641e-07 0
0.038652904 0.17936507 -0.40048754 -4.1316825e-06 -1 3.0927313e-05 0
0.044261724 0.17936507 -0.40569893 2.1614905e-07 -1 7.4315147e-05 0
0.055194147 0.17936507 -0.40483314 -3.1949212e-06 -1 7.2674702e-05 0
0.06787511 0.17936507 -0.40513438 -3.4404793e-06 -1 8.4647741e-07 0
0.084637888 0.17936507 -0.40617025 -1.6891401e-05 -1 3.0307458e-05 0
0.092757724 0.17936508 -0.40567982 -2.2966871e-05 -1 3.4281493e-05 0
0.114062 0.17936507 -0.40427196 1.4120568e-06 -1 0.0001062778 0
0.12712218 0.17936507 -0.40210098 -1.4751718e-05 -1 0.00013112495 0
0.13686711 0.17936507 -0.40419152 -4.0678828e-05 -1 0.00012381036 0
0.14429939 0.17936507 -0.40273425 -2.4469116e-05 -1 7.107186e-05 0
0.15189417 0.17936507 -0.40316001 -4.8098209e-06 -1 6.1727427e-05 0
0.16614366 0.17936507 -0.40419373 -4.2253647e-05 -1 3.7852842e-05 0
0.1762874 0.17936508 -0.40446243 -4.5932688e-06 -1 7.7152392e-05 0
0.1856764 0.17936508 -0.40458059 -1.9847263e-05 -1 -1.9963059e-06 0
0.19641642 0.17936507 -0.40366328 -1.2144827e-05 -1 3.5309433e-05 0
0.20213111 0.17936508 -0.40373281 1.8731509e-05 -1 1.0995875e-06 0
0.21307118 0.17936508 -0.40900645 -6.0136084e-05 -0.99999994 0.00022502699 0
0.2228926 0.17936507 -0.40370196 -2.9498402e-05 -1 4.2429831e-05 0
0.23669885 0.17936507 -0.40311047 -2.8848273e-05 -1 6.5857166e-05 0
0.24206847 0.17936507 -0.40504423 -1.6408612e-05 -1 4.4759647e-05 0
0.2540063 0.17936507 -0.4047277 -0.1452478 -0.98938119 0.0052928608 0.021249916
0.26660481 0.17936508 -0.40767214 -0.55672145 -0.83057213 -0.014535118 0.095798671
0.27067721 0.17936507 -0.40465495 -0.545385 -0.83781403 0.02495892 0.084695302
-0.27462512 -0.17846167 -0.39437705 0.58603281 0.80993336 0.02394535 0.07735426
-0.26350361 -0.17936508 -0.39447117 0.30124596 0.95186323 0.05663278 0.050085861
-0.25434577 -0.17936507 -0.39531058 0.16064911 0.98701161 0.00034093912 0.021129144
-0.24548301 -0.17936507 -0.39760852 0.0055750627 0.99998403 -0.0008851731 3.9745828e-05
-0.23674248 -0.17936507 -0.39500779 -3.4794772e-05 1 8.1116428e-05 0
-0.22065721 -0.17936507 -0.39844185 4.9818453e-05 1 4.5736168e-05 0
-0.21288516 -0.17936507 -0.39123413 6.3437335e-05 1 3.8472528e-05 0
-0.20369861 -0.17936507 -0.39705104 -0 1 -0 0
-0.19421639 -0.17936507 -0.39726973 5.3214771e-05 1 1.5258248e-06 0
-0.18477914 -0.17936507 -0.39562967 1.9845003e-05 1 0.00011072342 0
-0.17251453 -0.17936507 -0.39712751 2.3315051e-05 1 7.6689917e-05 0
-0.16425256 -0.17936507 -0.39614713 3.695182e-05 1 -9.8493683e-06 0
-0.15654421 -0.17936508 -0.39378881 1.6538783e-05 1 -2.6681369e-06 0
-0.14337556 -0.17936507 -0.39309204 2.7150189e-05 1 3.4353892e-05 0
-0.13569818 -0.17936507 -0.39778838 2.5451516e-05 1 3.4103738e-05 0
-0.123781 -0.17936508 -0.39362249 1.4948274e-05 1 5.9255923e-05 0
-0.11244151 -0.17936507 -0.39485317 1.0334557e-05 1 3.1432894e-05 0
-0.10489438 -0.17936507 -0.39310384 2.6071562e-05 1 2.9563842e-05 0
-0.083335757 -0.17936508 -0.39385295 2.4740104e-05 1 6.6603861e-05 0
-0.070973873 -0.17936507 -0.39440435 -1.2405882e-06 1 4.3103813e-05 0
-0.061023876 -0.17936507 -0.39032364 5.0162816e-06 1 -1.2103757e-07 0
-0.058486767 -0.17936507 -0.39650396 2.312669e-06 1 3.5669105e-05 0
-0.048161425 -0.17936507 -0.39541385 1.0116302e-05 1 0.00013899796 0
-0.03528703 -0.17936507 -0.39374706 -6.9963789e-07 1 4.5842535e-05 0
-0.025258129 -0.17936505 -0.39417124 1.3744842e-05 1 4.2930023e-05 0
-0.013286099 -0.17936507 -0.39401245 -6.4398182e-06 1 6.8088775e-05 0
-0.006883793 -0.17936508 -0.39329818 -1.1189803e-05 1 6.8015506e-05 0
0.0058975937 -0.17936507 -0.39540356 4.6009077e-06 1 0.00011137443 0
0.015401032 -0.17936507 -0.39706171 -2.7889212e-06 1 -1.3826178e-07 0
0.020269223 -0.17936507 -0.39149141 -2.641988e-07 1 9.4133502e-05 0
0.034434453 -0.17936507 -0.39308852 5.5710725e-06 1 8.7424574e-05 0
0.047691084 -0.17936507 -0.39768806 -8.8222096e-06 1 5.9811849e-05 0
0.052987956 -0.17936507 -0.39564186 5.3907033e-06 1 2.9690756e-05 0
0.085818127 -0.17936507 -0.39248672 -2.9008972e-05 1 6.4263426e-05 0
0.096773252 -0.17936507 -0.39104062 -1.8681874e-05 1 5.5414999e-05 0
0.10802177 -0.17936507 -0.39294004 -2.2877508e-05 1 5.6645808e-07 0
0.12311058 -0.17936507 -0.39995691 3.7020527e-06 1 8.5161562e-05 0
0.13553321 -0.17936507 -0.39210093 -2.07066e-05 1 -2.2471863e-06 0
0.14268686 -0.17936507 -0.39414546 -7.0100097e-05 1 3.592027e-06 0
0.15441157 -0.17936507 -0.39925313 -1.3563347e-05 1 6.0997034e-05 0
0.17421751 -0.17936507 -0.39402193 -3.0220601e-05 1 2.6868109e-05 0
0.18443319 -0.17936507 -0.39361751 -1.5031999e-05 1 3.1062991e-05 0
0.19198202 -0.17936507 -0.39923951 -6.6711304e-06 1 3.531824e-05 0
0.2085392 -0.17936508 -0.39778617 -2.9556672e-05 1 3.0225236e-05 0
0.21345221 -0.17936507 -0.39593953 -1.0583646e-05 1 6.6026485e-05 0
0.22740893 -0.17936508 -0.39775148 -7.7341181e-05 1 7.1239592e-05 0
0.2394883 -0.17936507 -0.39304581 -5.6073524e-05 1 3.9204377e-05 0
0.24689913 -0.17936507 -0.39639583 -0.017173808 0.99984634 -0.0035077103 0.00044996649
0.25694489 -0.17936508 -0.39421451 -0.14772849 0.98878688 -0.021835469 0.020942595
0.26404449 -0.17936507 -0.3974553 -0.40253341 0.91484845 -0.031924136 0.061559066
0.27317679 -0.17766517 -0.39453828 -0.59225857 0.7982555 -0.10962638 0.077397205
-0.2775974 -0.16993389 -0.39231423 0.89498442 0.44394845 0.0437329 0.087817296
0.27759731 -0.16322526 -0.39459109 -0.95844001 0.28488454 -0.015280503 0.043488074
-0.2775974 -0.15911064 -0.39376706 0.9854303 0.17002566 -0.004299575 0.030789223
0.27759731 -0.15551755 -0.39452374 -0.99038112 0.137421 0.016146421 0.020620046
-0.2775974 -0.14121835 -0.39462772 1 0 0 3.2976248e-05
0.27759731 -0.14306271 -0.39071134 -1 1.5059372e-05 0.00024273043 0
-0.27759737 -0.13738415 -0.39675489 1 4.1832394e-05 -3.5667948e-05 5.1519564e-05
0.27759731 -0.13753624 -0.39440909 -1 4.9353464e-05 6.6804263e-05 0
-0.2775974 -0.12323252 -0.39589769 1 -1.4555982e-05 -3.7185851e-05 5.125994e-05
0.27759731 -0.12701321 -0.39646327 -1 7.56519e-05 8.3530555e-05 0
-0.2775974 -0.11565594 -0.39471018 1 -5.5164842e-06 -4.0096656e-05 5.4585318e-05
0.27759731 -0.11502037 -0.39676207 -1 4.6981935e-05 0.00016022379 0
-0.2775974 -0.10410088 -0.3959192 1 -2.1326834e-05 0.00015569229 3.6749887e-05
0.27759731 -0.10446068 -0.39642754 -1 -3.2094988e-06 0.00018533209 0
-0.2775974 -0.097534925 -0.39570117 1 -8.8411252e-06 -6.9739348e-05 5.3575382e-05
0.27759731 -0.096944928 -0.39502713 -1 3.0627663e-05 0.00016919497 0
-0.2775974 -0.089596033 -0.39445868 1 5.3474992e-06 3.4590874e-05 5.0965395e-05
0.27759731 -0.082268745 -0.39163575 -1 5.7416612e-05 9.9050289e-05 0
-0.2775974 -0.075216882 -0.39165589 1 5.4844841e-06 -9.1646689e-05 4.7381356e-05
0.27759731 -0.077226251 -0.39657259 -1 3.6424452e-05 0.0001226242 0
-0.2775974 -0.066575453 -0.3944343 1 3.9931169e-06 -3.7746122e-05 4.7417081e-05
0.27759731 -0.065531552 -0.39059138 -1 2.7274109e-05 0.00012238882 0
0.27759731 -0.054129586 -0.39512461 -1 2.1159065e-05 0.00016382321 0
-0.27759743 -0.046024706 -0.39649272 1 7.798114e-06 9.0143716e-05 0
0.27759731 -0.047983468 -0.39525956 -1 2.1722482e-05 0.00020414429 0
-0.2775974 -0.03955923 -0.39789891 1 4.5722136e-06 3.425558e-05 0
0.27759731 -0.036446333 -0.39163041 -1 -1.0592426e-05 0.0002320944 0
-0.2775974 -0.022160895 -0.39866811 1 -3.2160619e-06 3.3800752e-05 0
0.27759731 -0.024100352 -0.39087388 -1 2.2028538e-05 0.00012408388 0
-0.2775974 -0.014770396 -0.3974044 1 4.8642883e-06 -7.4660545e-07 0
0.27759731 -0.01426069 -0.39431876 -1 3.9488612e-05 0.00026437137 0
-0.2775974 -0.0025226139 -0.39505932 1 5.7028942e-06 0.00011921503 0
0.27759731 -0.0057441294 -0.39231834 -1 9.2849687e-06 0.00013971787 0
-0.2775974 0.0043363348 -0.39813405 1 7.3283413e-06 8.0749742e-05 5.2869611e-05
0.27759731 0.0052995551 -0.39690876 -1 -3.7985501e-05 0.00021972774 0
-0.2775974 0.014336132 -0.39484572 1 -5.2494875e-06 7.3767107e-05 4.8887392e-05
0.27759731 0.017194219 -0.39653653 -1 -1.8779963e-05 0.00015170839 0
-0.2775974 0.020456403 -0.39618784 1 -9.5362575e-06 -6.6706249e-05 4.7307629e-05
-0.2775974 0.034611356 -0.39362276 1 -3.3150784e-06 -3.3311546e-05 5.473588e-05
0.27759731 0.036452692 -0.39520025 -1 -1.4565205e-06 6.0912978e-05 0
-0.2775974 0.047193319 -0.393628 1 8.2492761e-06 -1.0133571e-06 3.146856e-05
0.27759731 0.044878386 -0.39447924 -0.99999994 -2.9461176e-05 0.0002077042 0
-0.2775974 0.05278356 -0.39303765 1 -7.9101155e-06 8.8279434e-05 3.1939591e-05
0.27759731 0.05631955 -0.39457908 -1 -2.8026261e-05 7.0589667e-05 0
-0.2775974 0.068433516 -0.39543718 1 -4.0339537e-06 -0.00011035904 1.6972936e-05
0.27759731 0.066060573 -0.39720404 -1 -1.3974107e-05 0.00012164217 0
-0.2775974 0.075133935 -0.39137512 1 1.9789375e-05 -3.315787e-05 3.5365025e-05
0.27759731 0.073626332 -0.39786738 -1 -1.5851107e-05 0.00015874369 0
-0.27759737 0.085577652 -0.39591637 1 5.1132247e-06 -6.2280211e-05 5.2512893e-05
0.27759731 0.089933544 -0.39164999 -1 -3.3845532e-05 8.9158348e-05 0
-0.2775974 0.09251301 -0.39311826 1 -2.0739297e-05 1.8073937e-06 1.497488e-05
0.27759731 0.093724519 -0.39699203 -1 -1.3020595e-05 0.00012641752 0
-0.2775974 0.10996246 -0.39244714 1 1.3377529e-05 -3.7008875e-05 5.1055009e-05
0.27759731 0.10600548 -0.39104247 -1 -7.1764844e-05 0.00018839381 0
-0.2775974 0.11788167 -0.39381436 1 2.5382396e-05 -8.8462592e-05 5.7162557e-05
-0.2775974 0.1223363 -0.3952949 1 1.4292516e-05 1.5001376e-06 3.1636329e-05
0.27759731 0.12546943 -0.39355481 -1 -4.5925357e-05 5.1765084e-05 0
-0.2775974 0.13097924 -0.39866522 1 4.3633001e-05 3.5214965e-05 5.0418599e-05
0.27759731 0.13426627 -0.3951005 -1 -1.7967104e-05 0.00016009252 0
-0.2775974 0.1432865 -0.39959019 1 -1.1223168e-05 -0.00010294573 5.3710941e-05
0.27759731 0.14758284 -0.39359629 -0.99994731 -0.010181316 0.0013229623 0.0001955574
-0.2775974 0.15951985 -0.3910957 0.97063023 -0.23886427 0.028650854 0.039503839
0.27759731 0.15317899 -0.3984195 -0.99368536 -0.11180042 0.0094884848 0.013768764
-0.2775974 0.16159227 -0.39963832 0.94883835 -0.31511936 -0.020136656 0.05226342
0.27759731 0.16902269 -0.39674646 -0.87089145 -0.48890239 -0.050224788 0.059239093
-0.2775974 0.17464852 -0.39335096 0.84321004 -0.53758425 0.00019978377 0.064592965
-0.26450399 0.17936508 -0.39641976 0.37175032 -0.92832899 -0.0026668794 0.057709206
-0.2558164 0.17936507 -0.39334223 0.22476323 -0.97436631 0.0095843067 0.042480692
-0.22626273 0.17936508 -0.39220521 1.9534995e-05 -1 2.660465e-05 0
-0.2124826 0.17936507 -0.39828002 1.4788544e-05 -1 3.2334756e-05 0
-0.20597507 0.17936507 -0.39696658 4.8237165e-05 -1 3.0862146e-05 0
-0.19347847 0.17936507 -0.39567164 6.3881336e-05 -1 7.5414471e-05 0
-0.1842266 0.17936507 -0.39515799 -2.4934702e-06 -1 0.00012327873 0
-0.17651597 0.17936507 -0.39156216 -6.7562718e-07 -1 5.9451544e-05 0
-0.16567387 0.17936507 -0.39712626 -7.4927704e-07 -1 3.3013854e-05 0
-0.12426912 0.17936507 -0.3945795 1.8761639e-05 -1 -1.2059158e-09 0
-0.1155084 0.17936508 -0.39466572 9.5854957e-06 -1 5.9116152e-05 0
-0.10599591 0.17936507 -0.39713484 1.4309282e-05 -1 3.7795733e-05 0
-0.096514702 0.17936508 -0.39447126 3.7929963e-06 -1 3.635346e-05 0
-0.087819941 0.17936505 -0.39356431 1.547695e-05 -1 6.7456e-05 0
-0.072933741 0.17936508 -0.39464799 1.5129168e-05 -1 7.8824574e-05 0
-0.044027671 0.17936507 -0.39694011 2.5020256e-06 -1 3.8270653e-05 0
-0.038564388 0.17936507 -0.39434046 6.9093308e-06 -1 7.3100455e-05 0
-0.027009241 0.17936508 -0.39463675 -1.6754246e-05 -1 8.6099717e-05 0
-0.016514311 0.17936508 -0.39305413 3.4578084e-06 -1 -7.5322123e-07 0
0.0058426857 0.17936507 -0.39639503 -4.7150384e-06 -1 4.0016446e-05 0
0.018935071 0.17936507 -0.39058727 7.8165012e-06 -1 3.6461977e-05 0
0.023984795 0.17936507 -0.39490166 1.7472696e-06 -1 7.3618787e-05 0
0.033514984 0.17936507 -0.39322817 -2.345191e-06 -1 3.6205274e-05 0
0.046869814 0.17936507 -0.39505655 -1.1586294e-05 -1 3.3270266e-05 0
0.05519177 0.17936507 -0.39612719 -1.6148359e-05 -1 3.7642039e-05 0
0.064273886 0.17936508 -0.39731541 -1.220289e-05 -1 7.866403e-05 0
0.089912683 0.17936507 -0.39458096 -1.8888793e-05 -1 3.7658934e-05 0
0.095831722 0.17936507 -0.39744568 -1.8588247e-05 -1 9.4018564e-05 0
0.10393303 0.17936508 -0.39490834 -1.6526903e-05 -1 0.00010387212 0
0.11585049 0.17936507 -0.39220047 -1.4010305e-05 -1 0.00011004513 0
0.12767765 0.17936507 -0.39192465 -2.5094079e-05 -1 9.4018193e-05 0
0.1334983 0.17936507 -0.39777923 -1.4433217e-05 -1 0.00010249372 0
0.14429946 0.17936505 -0.39757547 -3.4507309e-05 -1 8.7333225e-05 0
0.1652776 0.17936507 -0.39735273 -1.2555503e-05 -1 7.0484712e-05 0
0.17438053 0.17936508 -0.39319834 1.0146768e-05 -1 7.4093252e-05 0
0.18439505 0.17936508 -0.39338404 -7.6986862e-06 -1 4.2799806e-05 0
0.19424303 0.17936508 -0.39565361 -1.9094779e-05 -1 8.811547e-05 0
0.20348102 0.17936507 -0.39636368 1.6677301e-05 -1 4.4861514e-07 0
0.21356404 0.17936505 -0.39485648 -1.4633712e-05 -1 0.00011668687 0
0.225927 0.17936508 -0.39553085 1.671256e-05 -1 3.3279684e-05 0
0.23540407 0.17936508 -0.3931528 -6.3540348e-05 -1 0.0001222984 0
0.24560669 0.17936507 -0.39841715 -2.4551744e-05 -1 6.8559966e-05 0
0.2584047 0.17936507 -0.39014697 -0.19988094 -0.97949648 0.025183937 0.024179524
0.26661369 0.17936507 -0.39706084 -0.46315309 -0.8856585 -0.0331393 0.074589074
0.2756162 0.1751812 -0.39905798 -0.83152032 -0.55519396 -0.018263435 0.063330866
-0.2775974 -0.17467743 -0.38462719 0.79464597 0.60407984 0.060210347 0.091310978
-0.25067031 -0.17936508 -0.38650659 0.097097121 0.99527466 -0.00063694041 0.010050829
-0.24269852 -0.17936507 -0.38823771 3.6467125e-05 1 0.0001318445 0
-0.23583993 -0.17936507 -0.3857891 5.3561373e-05 1 -1.7992825e-06 0
-0.22135074 -0.17936508 -0.38280514 2.8668763e-05 1 -3.2877924e-07 0
-0.21242185 -0.17936508 -0.38478458 1.6251233e-05 1 2.8315222e-05 0
-0.20577052 -0.17936507 -0.38757786 4.0127397e-05 1 7.1400689e-05 0
-0.19572048 -0.17936508 -0.38811484 1.5565736e-05 1 3.4390687e-05 0
-0.1868628 -0.17936507 -0.38619077 4.3044518e-05 1 2.8732587e-05 0
-0.17294864 -0.17936507 -0.38642511 4.0389001e-05 1 3.4679968e-05 0
-0.16078509 -0.17936507 -0.38444328 5.6938668e-05 1 3.9011808e-05 0
-0.15472353 -0.17936508 -0.38501501 2.5012727e-05 1 8.2648301e-05 0
-0.14527409 -0.17936507 -0.38204244 3.6967351e-05 1 3.5237823e-05 0
-0.13438025 -0.17936507 -0.38841599 3.2184525e-05 1 0.00010844339 0
-0.12518735 -0.17936505 -0.38582978 1.7180793e-05 1 3.5849473e-05 0
-0.11388871 -0.17936507 -0.38431913 -7.6417391e-06 1 3.6217272e-05 0
-0.1029852 -0.17936507 -0.38532859 1.2140184e-05 1 3.608429e-05 0
-0.094471954 -0.17936507 -0.38404042 2.8686409e-05 1 6.2007413e-05 0
-0.076489441 -0.17936505 -0.38507569 5.9820632e-06 1 3.834971e-05 0
-0.065622814 -0.17936508 -0.38410223 3.0620424e-05 1 0.00010808881 0
-0.052803624 -0.17936507 -0.38277474 -0 1 -0 0
-0.041844316 -0.17936507 -0.38250864 -1.0615122e-05 1 9.1057038e-05 0
-0.013406327 -0.17936507 -0.38322359 -2.3822677e-06 1 9.3823546e-05 0
-0.0075137541 -0.17936508 -0.38319087 5.8405644e-06 1 6.0654264e-05 0
0.0057168398 -0.17936507 -0.38455564 -5.2225755e-07 1 3.5010689e-08 0
0.014636311 -0.17936507 -0.38602602 -3.7700468e-06 1 6.5876739e-05 0
0.026180539 -0.17936507 -0.38522953 -5.5928649e-07 1 7.3587813e-05 0
0.034425337 -0.17936508 -0.38252971 -8.6111422e-06 1 0.00011445934 0
0.044851687 -0.17936507 -0.38514701 -5.6026324e-06 1 6.1788371e-05 0
0.064559907 -0.17936507 -0.3863405 -1.1866739e-05 1 6.5469438e-05 0
0.070293486 -0.17936507 -0.38431069 -7.2480941e-07 1 0.00011918887 0
0.087293766 -0.17936507 -0.38496479 -1.3258413e-05 1 3.2216136e-05 0
0.095177844 -0.17936507 -0.38093388 -1.8285318e-05 1 6.5279084e-05 0
0.10376231 -0.17936508 -0.38442835 -1.8074017e-05 1 2.7545944e-05 0
0.11277015 -0.17936507 -0.38648549 -8.7266617e-06 1 3.8154227e-05 0
0.13662556 -0.17936507 -0.38440698 -3.4831297e-05 1 1.590744e-06 0
0.1464833 -0.17936507 -0.38161469 -2.1637799e-05 1 5.2560539e-05 0
0.15195277 -0.17936507 -0.38673052 -3.2591783e-05 1 2.9137615e-05 0
0.18380143 -0.17936507 -0.38546351 -1.8437024e-05 1 -2.3569137e-07 0
0.19121432 -0.17936507 -0.38347721 -1.7465693e-05 1 8.9990317e-07 0
0.20823668 -0.17936507 -0.38850346 -2.5812227e-05 1 9.0657297e-05 0
0.21365209 -0.17936507 -0.38437769 -1.6770773e-05 1 8.8858069e-05 0
0.22950655 -0.17936507 -0.38383073 -3.7923764e-05 1 0.00014608844 0
0.23427016 -0.17936508 -0.38604331 -1.5754609e-05 1 6.3475098e-05 0
0.24471493 -0.17936508 -0.38704073 -0.011734966 0.99992555 0.003349452 0.00025039617
0.25429186 -0.17936505 -0.38355911 -0.10973049 0.99395621 -0.0032002253 0.012163968
0.26289049 -0.17936507 -0.38503793 -0.37656227 0.9261598 -0.020707378 0.067992859
0.27467602 -0.17677787 -0.38611084 -0.7216624 0.69058239 0.047953758 0.084045045
-0.2775974 -0.16890898 -0.38065416 0.84964865 0.52734846 -0.00095669209 0.080357015
0.27759731 -0.16787161 -0.38266823 -0.91412419 0.40490162 -0.020778859 0.075222962
-0.2775974 -0.15106688 -0.38690093 0.99989444 0.014110208 0.0034548948 0.00060446002
0.27759731 -0.15392971 -0.38520664 -0.99688375 0.078862019 -0.0018968905 0.014279503
-0.27759743 -0.1447473 -0.38538054 0.99999994 2.7180522e-05 0.00020435658 0
0.27759731 -0.14739417 -0.38553205 -0.99991196 0.013267331 -0.00027035258 0.00048286907
-0.2775974 -0.13241908 -0.38823465 1 1.3652562e-05 4.0344301e-05 5.3043328e-05
0.27759731 -0.13808462 -0.38218862 -1 2.8663173e-05 0.00025857874 0
-0.2775974 -0.12058743 -0.38999265 1 1.7600154e-05 4.0329937e-06 3.4940265e-05
0.27759731 -0.12411427 -0.38673693 -0.99999994 8.4735671e-05 0.00021347156 0
-0.2775974 -0.11072183 -0.38317981 1 7.0610586e-06 3.4170163e-05 5.0323673e-05
0.27759731 -0.1175631 -0.38795891 -1 4.2422216e-05 0.00010411374 0
0.27759731 -0.10094173 -0.38440546 -0.99999994 4.058288e-05 0.0002107256 0
-0.2775974 -0.090982214 -0.38165727 1 -1.8412724e-05 -3.3310407e-05 4.9942832e-05
0.27759731 -0.092094988 -0.38363171 -1 1.7516239e-05 0.00019281871 0
-0.2775974 -0.08733891 -0.38460881 1 -1.0624819e-05 -3.4056942e-05 5.6557154e-05
0.27759731 -0.08701162 -0.38543195 -1 1.0235649e-05 0.00013893437 0
0.27759731 -0.077062435 -0.38163197 -1 5.0896771e-05 0.00011026017 0
0.27759731 -0.065125994 -0.38595083 -1 1.7945182e-05 -4.071759e-05 0
-0.2775974 -0.054581448 -0.38566208 1 5.1167663e-06 -2.7545011e-05 3.5244739e-05
0.27759731 -0.05273369 -0.38545823 -1 1.2401126e-05 0.00015645176 0
-0.2775974 -0.045378484 -0.3841576 1 -2.0795856e-05 2.8517354e-05 3.3197201e-05
0.27759731 -0.046377283 -0.38669434 -1 8.2756087e-06 0.00018919224 0
0.27759731 -0.035053883 -0.38404235 -1 1.3220438e-05 0.00016310341 0
-0.2775974 -0.021560399 -0.38752586 1 -4.0262312e-06 -5.2686686e-05 0
0.27759731 -0.025594972 -0.38582438 -1 9.9588642e-06 0.00015341662 0
-0.2775974 -0.011290424 -0.38576716 1 -1.39722e-06 3.0983643e-05 5.5070952e-05
0.27759731 -0.014174826 -0.3810547 -1 7.1987633e-06 6.9536713e-05 0
-0.2775974 -0.0073089488 -0.38907334 1 9.111176e-06 -0.00011978281 5.1785853e-05
-0.2775974 0.0040612034 -0.38786441 1 2.2506831e-06 4.1057549e-05 5.7484765e-05
0.27759731 0.0064259954 -0.38537312 -1 -1.8102854e-05 7.9271595e-05 0
-0.2775974 0.014216567 -0.38431814 1 2.0269017e-06 5.6959384e-09 4.8140766e-05
0.27759731 0.012759653 -0.3854875 -1 -3.1276024e-05 0.00019633114 0
0.27759731 0.026305089 -0.38613439 -1 -4.6738573e-05 0.00017846799 0
-0.2775974 0.03679461 -0.3822135 1 1.2988875e-06 -7.4236319e-05 5.1883642e-05
0.27759731 0.030928228 -0.38592303 -1 -1.0365746e-05 0.00010918214 0
-0.2775974 0.042168174 -0.38384497 1 1.1518729e-05 -2.257101e-06 4.9942759e-05
0.27759731 0.045272958 -0.38342202 -1 2.4974765e-06 0.00015339705 0
-0.2775974 0.052659176 -0.38433319 1 4.8253696e-06 3.9289149e-05 6.1332008e-05
-0.2775974 0.064737223 -0.38466847 1 -1.3395713e-05 -0.00011909003 3.4079545e-05
0.27759731 0.065048054 -0.38429102 -1 -2.7103206e-05 0.0001707636 0
-0.2775974 0.072216228 -0.38339305 1 -1.4286585e-05 -3.6952541e-05 1.7966548e-05
0.27759731 0.073163077 -0.38463554 -1 -1.5833231e-05 2.9666673e-05 0
-0.2775974 0.084195726 -0.38853407 1 -9.7286265e-06 3.4623379e-05 3.4903267e-05
0.27759731 0.084933013 -0.38633487 -1 -3.0858249e-05 5.1661093e-05 0
-0.2775974 0.096953809 -0.38062736 1 -9.2838964e-06 -7.2903742e-05 1.610574e-05
0.27759731 0.098031789 -0.38312069 -1 -3.6684749e-05 0.0001528256 0
-0.2775974 0.10490389 -0.38370293 1 2.1276812e-05 3.6369158e-05 5.564226e-05
0.27759731 0.10323492 -0.38372374 -1 -0.00010724186 0.00019171082 0
-0.2775974 0.11241078 -0.38214287 1 7.1331901e-06 3.3268687e-05 4.7508322e-05
0.27759731 0.11576027 -0.38746476 -1 -7.006013e-05 0.00025131289 0
-0.2775974 0.12094168 -0.38402849 1 4.7902195e-06 -0.00010605434 4.9343063e-05
0.27759731 0.12509972 -0.38096178 -1 -3.3642564e-06 0.00020000244 0
-0.2775974 0.13685882 -0.38393891 1 2.5701858e-05 3.972312e-05 5.0062739e-05
0.27759731 0.13518581 -0.382902 -1 -8.1130574e-06 0.00016510811 0
-0.27759737 0.14782619 -0.38674408 0.99998748 -0.0049181711 -0.00097230298 0.00011864892
0.27759731 0.14778119 -0.38523552 -0.9999997 -0.00079695531 -1.8711555e-05 0
-0.2775974 0.15342684 -0.38543227 0.99751943 -0.070054002 -0.0068847206 0.011391618
0.27759731 0.15622197 -0.38347733 -0.98533475 -0.17056292 0.004867122 0.027746828
0.27759731 0.16545519 -0.38103777 -0.90260857 -0.42671713 -0.056659035 0.058038127
-0.27638471 0.1739949 -0.38681749 0.80442542 -0.59051597 -0.064735167 0.056199022
-0.26537347 0.17936505 -0.38529208 0.52010775 -0.85377574 -0.023556985 0.06834475
-0.256001 0.17936508 -0.384534 0.1080697 -0.9936012 -0.032826133 0.014617478
-0.24452199 0.17936507 -0.38039178 5.2984615e-05 -1 -7.0730603e-06 0
-0.23368151 0.17936508 -0.38589272 1.80193e-05 -1 3.2142747e-05 0
-0.22596848 0.17936508 -0.38265958 4.2875381e-05 -1 4.090818e-05 0
-0.21518287 0.17936507 -0.38677126 2.377642e-05 -1 6.4105145e-05 0
-0.20439528 0.17936508 -0.38457847 4.0414707e-05 -1 4.0744602e-05 0
-0.1930062 0.17936508 -0.38603666 2.058443e-05 -1 0.00011472298 0
-0.1842072 0.17936505 -0.38425672 2.358858e-06 -1 3.9631308e-05 0
-0.17262195 0.17936507 -0.38801533 2.4626872e-05 -1 6.8828398e-05 0
-0.15815739 0.17936508 -0.38735679 7.4245904e-06 -1 3.3266463e-07 0
-0.13430557 0.17936507 -0.38542756 2.2882647e-05 -1 2.8388546e-05 0
-0.1254051 0.17936507 -0.3859067 3.284456e-05 -1 8.9700596e-05 0
-0.11383557 0.17936507 -0.38583475 1.9058414e-05 -1 3.401528e-05 0
-0.10342121 0.17936508 -0.38669789 3.9458337e-06 -1 3.2431217e-05 0
-0.095976532 0.17936507 -0.38490325 -9.0299463e-06 -1 9.9822515e-05 0
-0.085956238 0.17936505 -0.38394821 3.1931581e-06 -1 7.465863e-05 0
-0.070153907 0.17936507 -0.38385582 9.2638702e-06 -1 0.00011500472 0
-0.066025332 0.17936507 -0.38536936 5.1717029e-06 -1 9.0262496e-05 0
-0.057394117 0.17936507 -0.3845768 1.6528995e-05 -1 5.5413631e-05 0
-0.033893678 0.17936508 -0.38625321 3.0524009e-06 -1 3.4507546e-05 0
-0.019552283 0.17936507 -0.3897835 3.3236986e-06 -1 -8.5399984e-07 0
-0.0058114734 0.17936507 -0.38748631 -3.9449883e-06 -1 3.2815646e-05 0
0.0051407679 0.17936505 -0.38470605 2.4653218e-06 -1 7.497333e-05 0
0.024623888 0.17936508 -0.38844094 4.9656701e-06 -1 9.5327683e-05 0
0.036266133 0.17936507 -0.3835907 -1.0188677e-06 -1 6.2272651e-05 0
0.040446583 0.17936507 -0.38552731 -1.0673231e-05 -1 -3.9005921e-05 0
0.053936824 0.17936508 -0.38544193 -1.3916203e-05 -1 -4.9539921e-07 0
0.069662519 0.17936507 -0.38723174 6.270152e-06 -1 0.00011017785 0
0.07855805 0.17936507 -0.38701916 5.5246983e-06 -1 4.0581919e-05 0
0.08859688 0.17936507 -0.38803491 -2.9270848e-05 -1 8.0762125e-05 0
0.092389554 0.17936507 -0.38837481 -1.6110622e-05 -1 3.2705524e-05 0
0.10453209 0.17936508 -0.38434124 1.2149084e-05 -1 4.1417075e-05 0
0.11217717 0.17936507 -0.38615739 -3.964004e-06 -1 0.0001159355 0
0.12805209 0.17936507 -0.38317424 -2.1813101e-05 -1 7.4291245e-05 0
0.1348501 0.17936508 -0.38427234 -4.0000516e-05 -1 0.00013753182 0
0.14568101 0.17936505 -0.3853021 -6.4781289e-06 -1 4.2698506e-05 0
0.15423742 0.17936507 -0.38316977 -6.0835323e-06 -1 6.9427741e-05 0
0.16250436 0.17936507 -0.38053471 -4.9810893e-05 -1 0.00010174185 0
0.17483911 0.17936507 -0.38461095 -2.8419117e-05 -1 9.2034606e-05 0
0.1842947 0.17936508 -0.38691366 4.5622983e-06 -1 3.1733791e-05 0
0.19485116 0.17936507 -0.38498551 -7.8426947e-06 -1 9.2083923e-05 0
0.20643325 0.17936507 -0.38906243 -3.5821591e-05 -1 9.3766394e-05 0
0.21469659 0.17936508 -0.38308263 -4.0648702e-05 -1 5.9933045e-05 0
0.22629991 0.17936507 -0.38382679 -1.829527e-05 -1 -8.2049092e-07 0
0.24328874 0.17936507 -0.38432387 9.4134043e-07 -1 2.885405e-05 0
0.25474262 0.17936507 -0.38563216 -0.13450783 -0.9908188 -0.013624802 0.018167373
0.26742694 0.17936507 -0.38775331 -0.43427661 -0.89815158 -0.068757132 0.04839864
0.27744892 0.17568949 -0.38474447 -0.86655432 -0.49541283 -0.060413513 0.069141611
-0.27073547 -0.17936507 -0.37237856 0.41084927 0.90999544 -0.055777781 0.049623765
-0.26333839 -0.17936507 -0.37766021 0.32636002 0.94472545 -0.031352706 0.051852595
-0.25358364 -0.17936508 -0.37691435 0.1135755 0.99331164 -0.020797625 0.011539439
-0.242465 -0.17936507 -0.37473738 3.6715446e-05 1 5.5412922e-05 0
-0.22513875 -0.17936507 -0.37409186 -2.6135478e-06 1 2.9552568e-05 0
-0.20529632 -0.17936507 -0.37353122 2.9933384e-05 1 8.017051e-05 0
-0.19629858 -0.17936505 -0.37526354 3.7460119e-05 1 3.4141154e-05 0
-0.18804297 -0.17936507 -0.37405038 4.6946083e-05 1 9.0297654e-05 0
-0.17874847 -0.17936507 -0.37991837 6.7325171e-05 1 3.5133977e-05 0
-0.16575018 -0.17936505 -0.37385008 8.1063499e-06 1 -2.847362e-05 0
-0.15402468 -0.17936507 -0.37498173 3.8174046e-05 1 2.8502642e-05 0
-0.14526559 -0.17936508 -0.37586603 2.8066579e-05 1 2.9158704e-05 0
-0.13529591 -0.17936507 -0.377141 3.224277e-05 1 6.4079628e-05 0
-0.12591323 -0.17936507 -0.37053901 1.7940753e-05 1 0.00010116323 0
-0.11482787 -0.17936505 -0.37538478 3.2749198e-05 1 3.9631718e-06 0
-0.10106356 -0.17936507 -0.37373236 1.3475286e-05 1 0.00012604838 0
-0.094988182 -0.17936507 -0.37485498 2.169041e-05 1 0.00011763006 0
-0.086585179 -0.17936507 -0.37532553 1.9457981e-05 1 7.2849798e-05 0
-0.073364891 -0.17936508 -0.37503859 2.8774386e-05 1 9.9732155e-05 0
-0.052837323 -0.17936508 -0.37511924 1.8753693e-05 1 7.7245088e-05 0
-0.04736311 -0.17936507 -0.37757465 1.2405602e-06 1 8.3649713e-05 0
-0.037926339 -0.17936508 -0.37866664 4.1598109e-06 1 9.2822636e-05 0
-0.02326002 -0.17936507 -0.37416956 -4.8903798e-06 1 0.00012028151 0
-0.017677039 -0.17936507 -0.37581125 3.1564025e-06 1 -5.6650766e-08 0
-0.0034366387 -0.17936508 -0.37198523 1.474411e-07 1 6.0919745e-09 0
0.0060925656 -0.17936508 -0.37407646 -6.4553228e-07 1 8.2403596e-05 0
0.016245306 -0.17936507 -0.37433612 -2.8922686e-06 1 9.1791415e-05 0
0.026386622 -0.17936507 -0.37410432 -1.5959675e-05 1 0.00017553283 0
0.04468108 -0.17936507 -0.37593961 -4.5388142e-06 1 2.8646264e-05 0
0.053709347 -0.17936508 -0.37279835 -1.4375988e-05 1 6.8350204e-07 0
0.064957619 -0.17936508 -0.37480012 -4.924781e-06 1 5.0590483e-05 0
0.08495874 -0.17936505 -0.37296858 -9.2461014e-06 1 0.00010241004 0
0.094044603 -0.17936508 -0.37464604 -1.0613072e-05 1 -7.1340082e-07 0
0.10736401 -0.17936507 -0.37505317 2.1375459e-07 1 3.9724975e-05 0
0.11593828 -0.17936507 -0.37780559 1.6927137e-05 1 0.00010522531 0
0.1271221 -0.17936507 -0.37426561 -2.3284689e-05 1 8.3372346e-05 0
0.13346799 -0.17936507 -0.37719363 -3.7484857e-05 1 0.00010555064 0
0.14581549 -0.17936507 -0.37843248 -8.6426471e-06 1 3.0424535e-05 0
0.15268147 -0.17936507 -0.37383553 -1.689139e-05 1 -1.1723897e-06 0
0.16474321 -0.17936507 -0.37742022 -2.0596721e-05 1 3.3139317e-05 0
0.17306155 -0.17936507 -0.37158823 -4.0660456e-05 1 7.7994875e-05 0
0.18646279 -0.17936507 -0.37659347 -1.8451628e-05 1 -2.3924551e-06 0
0.1943942 -0.17936507 -0.37546548 -5.7887726e-05 1 8.3249564e-05 0
0.20351939 -0.17936507 -0.37247258 -1.2865654e-06 1 6.1512095e-05 0
0.21217325 -0.17936507 -0.37428686 -3.5503504e-05 1 7.7972836e-05 0
0.22467028 -0.17936507 -0.377581 -2.780298e-05 1 8.844112e-05 0
0.23713656 -0.17936507 -0.37403935 -1.7518249e-05 1 7.9332793e-05 0
0.24431436 -0.17936507 -0.37466118 -3.9141745e-05 1 8.482804e-05 0
0.25324261 -0.17936507 -0.3719489 -0.13487865 0.99067724 0.019141464 0.01684789
0.26404023 -0.17936507 -0.37511453 -0.29413071 0.95575714 -0.003928089 0.045156617
0.27613205 -0.17817025 -0.37607834 -0.67818624 0.73482364 0.0098760109 0.070903577
0.27759731 -0.16897559 -0.37348416 -0.85210937 0.51746678 0.078343995 0.077121504
-0.27759743 -0.15778679 -0.37634423 0.99204034 0.12435534 -0.019793538 0.019233169
0.27759731 -0.15597562 -0.37455937 -0.98472244 0.17289349 0.020725826 0.025680056
-0.2775974 -0.14592803 -0.37450519 1 1.3226656e-05 6.7788569e-05 0
0.27759731 -0.14458136 -0.37727585 -0.99999994 2.7309017e-05 0.00029264568 0
-0.2775974 -0.13076183 -0.3735404 1 5.8184623e-06 6.0706661e-05 4.9468385e-05
0.27759731 -0.13420111 -0.37497085 -1 5.1517818e-05 0.00020009914 0
-0.2775974 -0.12696022 -0.37421346 1 -4.471506e-05 2.65814e-05 5.2884243e-05
0.27759731 -0.12527707 -0.37444767 -1 9.3348586e-05 0.00018371017 0
-0.2775974 -0.11135238 -0.37234157 1 2.1012182e-05 -9.539444e-05 4.9415186e-05
-0.2775974 -0.10619142 -0.37745941 1 -6.8153531e-06 7.9349855e-05 5.3213364e-05
0.27759731 -0.10208901 -0.3768909 -1 2.6444817e-05 0.00014163008 0
-0.2775974 -0.092520319 -0.37485325 1 1.9327967e-05 6.6236316e-05 0
0.27759731 -0.094969109 -0.37640464 -1 6.1312145e-05 0.00014236948 0
-0.2775974 -0.087819815 -0.37899226 1 9.4359602e-06 1.0207204e-06 5.199977e-05
0.27759731 -0.087156445 -0.37424341 -1 6.8370056e-05 0.00014877005 0
-0.2775974 -0.076815873 -0.37380296 1 1.8252233e-07 -0.00012496347 3.8740727e-05
-0.2775974 -0.066873431 -0.37539256 1 -1.1860013e-05 -3.7005353e-05 4.8210124e-05
0.27759731 -0.061837424 -0.37382951 -1 3.0632094e-05 0.00015479082 0
-0.2775974 -0.055666395 -0.37456536 1 5.4595484e-06 2.2506332e-07 3.982395e-05
0.27759731 -0.054454148 -0.37402543 -1 3.7148042e-05 8.4408559e-05 0
-0.2775974 -0.043765247 -0.37505567 1 0 0 4.624654e-05
0.27759731 -0.045197871 -0.3756375 -1 3.5135403e-05 0.00027148385 0
0.27759731 -0.034585606 -0.37501213 -1 7.4811255e-06 0.00029420806 0
-0.2775974 -0.022154199 -0.37538931 1 -2.4793485e-06 2.8669301e-05 4.472744e-05
0.27759731 -0.023418069 -0.37386087 -1 1.6707554e-05 0.00013819362 0
-0.2775974 -0.016445633 -0.37242955 1 -1.8513714e-06 -3.1624442e-08 4.8490994e-05
0.27759731 -0.014727629 -0.37348703 -1 5.7567636e-06 3.3381002e-05 0
-0.2775974 0.0072992295 -0.37029201 1 0 0 3.0309004e-05
0.27759731 0.005145736 -0.37573326 -1 -1.5193183e-06 0.0001119541 0
-0.2775974 0.013023132 -0.37560332 1 0 0 5.132037e-05
0.27759731 0.015397375 -0.37396756 -1 -1.1382213e-05 7.7566301e-07 0
0.27759731 0.027774617 -0.37313145 -1 -1.2506835e-05 -4.8999897e-07 0
-0.2775974 0.03397914 -0.37362656 1 4.0190398e-06 1.2502277e-08 4.7686448e-05
0.27759731 0.033249293 -0.37386262 -1 -2.7584407e-05 0.0001432476 0
-0.2775974 0.045881521 -0.37679404 1 4.2225101e-06 6.2050101e-05 0
0.27759731 0.04447173 -0.37652275 -1 4.0111945e-06 8.8936147e-05 0
-0.2775974 0.052274354 -0.37348306 1 7.5135376e-06 4.1810166e-05 0
0.27759731 0.056947958 -0.37648988 -1 -1.3675304e-05 6.959428e-05 0
-0.2775974 0.067224108 -0.37692866 1 -3.7924581e-06 6.8222296e-05 1.6437478e-05
0.27759731 0.065388501 -0.37558228 -1 -3.7891801e-05 0.00015974988 0
-0.2775974 0.075786695 -0.3751007 1 5.9229496e-06 -3.4242574e-05 5.4463781e-05
0.27759731 0.0749266 -0.3736881 -1 -3.5442896e-05 5.2903575e-05 0
-0.2775974 0.083409041 -0.3766031 1 -2.1784772e-05 7.6817196e-05 0
-0.2775974 0.09251155 -0.37516212 1 0 0 5.1458206e-05
0.27759731 0.093890637 -0.37822726 -1 -3.9310862e-06 0.0001169938 0
-0.2775974 0.10855889 -0.3754918 1 2.2183931e-05 -6.5549437e-05 5.0190669e-05
0.27759731 0.10494924 -0.37452006 -0.99999994 -0.00010411034 0.00020667475 0
0.27759731 0.11584905 -0.3771942 -1 -8.8530454e-05 0.00020598641 0
-0.2775974 0.12414862 -0.3764208 1 2.1289599e-05 2.8377963e-06 5.3382006e-05
0.27759731 0.12436548 -0.37264141 -1 -4.9809925e-05 0.00017301351 0
-0.2775974 0.13604029 -0.37432379 1 1.5092238e-05 3.1508553e-05 4.4054173e-05
0.27759731 0.13665223 -0.3756828 -1 -3.1503179e-05 0.00014194983 0
-0.2775974 0.14016557 -0.37655845 1 1.5759531e-05 -6.32487e-07 4.7998914e-05
-0.2775974 0.15480334 -0.37663603 0.99177384 -0.12800221 -0.00010876192 0.016400943
0.27759731 0.15271839 -0.3775059 -0.99999964 -0.00076759572 0.00037795253 0
-0.2775974 0.16543411 -0.37520212 0.94353592 -0.33126926 -0.00078122021 0.050994731
0.27759731 0.16140066 -0.37472478 -0.95898318 -0.28312343 -0.013869133 0.053812385
-0.27742404 0.17803642 -0.37450606 0.75470185 -0.65595251 -0.012308524 0.063154437
-0.26570815 0.17936507 -0.37560734 0.51915848 -0.85326844 -0.049066234 0.073972829
-0.25564751 0.17936508 -0.37251863 0.14662535 -0.98911703 -0.012187142 0.027347663
-0.24210377 0.17936508 -0.3789463 4.6016452e-05 -1 4.0181272e-05 0
-0.23459584 0.17936507 -0.37101108 1.6743235e-05 -1 3.9672014e-07 0
-0.22752778 0.17936507 -0.37611324 -1.4951977e-05 -1 3.8974631e-05 0
-0.21523339 0.17936507 -0.37495816 3.9412633e-05 -1 8.837651e-05 0
-0.20529225 0.17936507 -0.37243533 1.3532431e-05 -1 3.0718806e-05 0
-0.19442126 0.17936507 -0.37523898 3.6812828e-05 -1 2.726528e-05 0
-0.18105221 0.17936507 -0.37560606 1.8013321e-05 -1 2.5385773e-07 0
-0.17489807 0.17936507 -0.37813845 4.4119381e-05 -1 2.4896834e-05 0
-0.16729672 0.17936508 -0.37587404 4.8945338e-05 -1 2.0010868e-05 0
-0.15724908 0.17936508 -0.37529722 2.0781086e-05 -1 3.7542097e-05 0
-0.14431803 0.17936508 -0.37741014 5.7918482e-05 -1 5.8424095e-05 0
-0.13348474 0.17936508 -0.37201545 1.6112774e-05 -1 1.4643746e-06 0
-0.10477644 0.17936507 -0.3749319 2.6760637e-05 -1 7.6004311e-05 0
-0.096382275 0.17936507 -0.37576741 -2.1939863e-06 -1 7.1358052e-05 0
-0.085426584 0.17936507 -0.37350929 2.9734365e-05 -1 5.0661748e-07 0
-0.075253017 0.17936507 -0.37657908 7.775222e-06 -1 6.4831453e-05 0
-0.066133857 0.17936505 -0.3750551 -4.8246091e-07 -1 6.1951781e-05 0
-0.055032481 0.17936507 -0.37519759 3.0015468e-05 -1 9.9944264e-05 0
-0.048854705 0.17936508 -0.37553558 3.9352462e-06 -1 2.8797929e-05 0
-0.020765707 0.17936507 -0.37495857 -6.6591329e-06 -1 2.9411469e-05 0
-0.01273945 0.17936507 -0.37279192 2.3825203e-06 -1 -3.1173648e-05 0
-0.0023366408 0.17936507 -0.37430799 -2.9513762e-07 -1 -5.1412576e-09 0
0.0055466415 0.17936507 -0.37545744 4.3831881e-07 -1 0.00012137366 0
0.015510321 0.17936507 -0.37222993 2.5342775e-05 -1 0.00017699967 0
0.022207893 0.17936507 -0.37741104 -1.60588e-06 -1 9.6702846e-05 0
0.031762723 0.17936508 -0.37239194 -6.3128414e-06 -1 2.2146386e-07 0
0.044686615 0.17936507 -0.37374675 -1.0458675e-05 -1 6.4708656e-05 0
0.053935088 0.17936507 -0.37693065 -9.5185178e-06 -1 6.3576023e-05 0
0.065702662 0.17936507 -0.37513289 -1.5674765e-05 -1 3.4230245e-05 0
0.076895803 0.17936507 -0.37796694 -3.7743941e-06 -1 5.947546e-05 0
0.083034925 0.17936507 -0.37482768 -1.2975289e-06 -1 3.0419498e-05 0
0.099301279 0.17936508 -0.37445676 -1.1316756e-05 -1 3.6836285e-05 0
0.10565282 0.17936507 -0.3771199 -1.4524848e-05 -1 6.7905326e-05 0
0.11379322 0.17936507 -0.37582862 -2.0923553e-05 -1 6.2155661e-05 0
0.12517861 0.17936507 -0.37248653 -2.3091861e-05 -1 6.295761e-05 0
0.13573143 0.17936505 -0.37732092 -2.2842356e-05 -1 0.00010637337 0
0.14915985 0.17936507 -0.37552604 -2.1624772e-05 -1 7.400773e-05 0
0.15463248 0.17936507 -0.37219822 -4.1303174e-06 -1 7.1028728e-05 0
0.16002378 0.17936507 -0.37853706 -2.4601266e-05 -1 9.9413111e-05 0
0.17309892 0.17936508 -0.37651601 -3.2356758e-05 -1 3.3255052e-05 0
0.18350743 0.17936508 -0.37357047 -5.1961077e-05 -1 3.9061197e-05 0
0.19755609 0.17936508 -0.37277472 2.348967e-06 -1 3.3945773e-05 0
0.21644063 0.17936508 -0.37547675 -1.6319396e-05 -1 5.9846872e-05 0
0.22797976 0.17936507 -0.37035286 -8.9372697e-06 -1 6.3661973e-05 0
0.23583496 0.17936505 -0.37366679 -3.3877059e-05 -1 2.6437023e-05 0
0.24773587 0.17936505 -0.373961 -4.1887914e-05 -1 -4.2403708e-06 0
0.25512356 0.17936507 -0.3748284 -0.20457841 -0.97850227 -0.026093602 0.027076332
0.26323339 0.17936507 -0.37424427 -0.33160976 -0.94325542 -0.017439293 0.047713768
0.27759731 0.17441176 -0.37610093 -0.80934441 -0.58526546 -0.049253549 0.069228083
-0.2775974 -0.17522453 -0.36613035 0.66867757 0.73649001 -0.10223828 0.058827639
-0.26471454 -0.17936507 -0.36509252 0.40974686 0.91214335 -0.010096845 0.051955424
-0.25713399 -0.17936507 -0.36191797 0.21034846 0.97758543 -0.008967598 0.023339242
-0.2451131 -0.17936507 -0.36693275 3.3023109e-05 1 8.8767658e-05 0
-0.23459122 -0.17936507 -0.36977133 -2.0152227e-06 1 3.0977342e-05 0
-0.22798921 -0.17936507 -0.36210501 3.5994206e-05 1 0.00010794398 0
-0.21480927 -0.17936507 -0.36396307 5.4181241e-05 1 5.9382892e-05 0
-0.19641772 -0.17936507 -0.36869273 2.7994351e-05 1 5.0872746e-05 0
-0.18232343 -0.17936507 -0.36507306 1.0239511e-05 1 7.848462e-05 0
-0.17705029 -0.17936507 -0.36586297 2.6959699e-05 1 0.00014411747 0
-0.16724983 -0.17936507 -0.36451641 3.7514103e-05 1 -6.7885005e-05 0
-0.15249336 -0.17936507 -0.36003971 3.4999157e-05 1 -6.6383956e-07 0
-0.14486611 -0.17936508 -0.36784768 2.7220976e-05 1 0.00011704606 0
-0.13661927 -0.17936507 -0.36404324 4.3767439e-05 1 9.1802322e-05 0
-0.12638359 -0.17936507 -0.36437234 2.8827331e-05 1 7.0867209e-05 0
-0.11576001 -0.17936508 -0.36558107 7.3559581e-06 1 0.00013606763 0
-0.10680388 -0.17936507 -0.36578321 3.4089018e-05 1 0.00011801251 0
-0.097069331 -0.17936508 -0.36864993 9.6331514e-06 1 4.2347307e-05 0
-0.087189272 -0.17936507 -0.36626178 2.6141231e-06 1 3.5445417e-05 0
-0.079734072 -0.17936507 -0.36344534 1.5646348e-05 1 3.701877e-05 0
-0.06311933 -0.17936508 -0.36518821 7.1911154e-06 1 9.5320378e-05 0
-0.053483032 -0.17936507 -0.36426207 5.5422229e-06 1 -4.7731288e-07 0
-0.043122146 -0.17936507 -0.36237657 6.3831371e-06 1 3.8965623e-05 0
-0.032861143 -0.17936507 -0.36370593 1.4088098e-06 1 7.5972166e-05 0
-0.02284269 -0.17936507 -0.36230642 -4.2244287e-06 1 7.7187957e-05 0
-0.01713038 -0.17936507 -0.36407959 4.3454947e-06 1 4.204017e-05 0
-0.0027721599 -0.17936507 -0.36808282 -7.687906e-06 1 0.00010011216 0
0.002413529 -0.17936507 -0.36490786 -1.9179897e-05 1 0.00014099132 0
0.0157202 -0.17936507 -0.36495781 -1.0695148e-06 1 9.2074653e-05 0
0.025007118 -0.17936507 -0.36494511 -2.8942736e-07 1 5.887818e-05 0
0.033061024 -0.17936508 -0.36788085 -6.4198607e-06 1 9.7981298e-05 0
0.0496668 -0.17936507 -0.36876753 -7.4127056e-06 1 8.9136382e-05 0
0.055498935 -0.17936507 -0.36304134 -1.0161851e-05 1 6.3586769e-05 0
0.077746347 -0.17936507 -0.36048847 -2.6055321e-05 1 7.6646502e-05 0
0.08862628 -0.17936507 -0.36342299 -1.1000896e-05 1 5.6129483e-07 0
0.096155263 -0.17936508 -0.36230746 1.6627204e-05 1 5.8211164e-05 0
0.10416133 -0.17936508 -0.36681923 -8.3204623e-06 1 0.00010692854 0
0.11624219 -0.17936507 -0.3642424 -3.7847647e-05 1 0.00010606233 0
0.12963273 -0.17936507 -0.36269456 -2.7685472e-05 1 8.9969464e-05 0
0.13416591 -0.17936507 -0.36676198 -3.3689077e-05 1 6.6505374e-05 0
0.1439624 -0.17936507 -0.36111429 -3.010872e-05 1 8.8644292e-08 0
0.15720022 -0.17936507 -0.36412036 -9.6034291e-06 1 1.4595329e-06 0
0.16516815 -0.17936508 -0.36691555 -3.3812688e-05 1 4.3658624e-06 0
0.17517853 -0.17936507 -0.36747444 -3.892212e-05 1 -2.0815253e-06 0
0.19669427 -0.17936507 -0.36564353 -6.1214964e-06 1 0.00013266984 0
0.20865645 -0.17936508 -0.36535618 -3.1329182e-05 1 0.00011432047 0
0.21541595 -0.17936507 -0.36753216 -1.1676178e-05 1 3.681608e-05 0
0.22380871 -0.17936507 -0.3632856 -1.6059485e-05 1 3.540613e-05 0
0.23535621 -0.17936508 -0.36927471 -3.0953513e-05 1 3.2338572e-05 0
