# .PCD v0.7 - Point Cloud Data file format
VERSION 0.7
FIELDS x y z normal_x normal_y normal_z curvature
SIZE 4 4 4 4 4 4 4
TYPE F F F F F F F
COUNT 1 1 1 1 1 1 1
WIDTH 654
HEIGHT 1
VIEWPOINT 0 0 0 1 0 0 0
POINTS 654
DATA ascii
-0.064334303 0.054607809 -0.40182239 4.0465825e-06 -1 4.0582177e-05 0
-0.055078156 0.054607816 -0.40408069 4.0864538e-06 -1 1.3723284e-06 0
-0.044576272 0.054607809 -0.40550667 3.2223707e-06 -1 1.2375648e-05 0
-0.030646682 0.054607809 -0.40339756 0 -1 0 0
-0.025420468 0.054607809 -0.40610725 0 -1 0 0
-0.012351459 0.054607816 -0.40449387 2.8293698e-06 -1 -9.554481e-06 0
-0.0044006165 0.054607812 -0.4022738 6.6985407e-08 -1 -9.9554642e-10 0
0.0022987649 0.054607812 -0.40338042 -1.3692897e-06 -1 1.5004467e-05 0
0.011550877 0.054607816 -0.40536118 2.6517819e-06 -1 3.0616902e-05 0
0.021157198 0.054607812 -0.40201387 -5.4952176e-07 -1 -1.1066215e-08 0
0.036084782 0.054607809 -0.40664315 -5.6293766e-06 -1 1.7584491e-05 0
0.045629732 0.054607812 -0.40845042 -3.4308421e-06 -1 -5.0421357e-07 0
0.052679844 0.054607809 -0.40523115 -2.4774542e-07 -1 2.3521738e-05 0
0.063067235 0.054607812 -0.40378091 -7.9403389e-06 -1 -1.4574023e-07 0
0.089192674 0.054607809 -0.40478981 -2.7539215e-06 -1 1.4945506e-05 0
0.094922625 0.054607809 -0.40598437 -8.3579363e-07 -1 1.7694108e-05 0
0.10089737 0.054607809 -0.40787116 -1.6261122e-07 -1 4.1490486e-05 0
0.12379416 0.054607809 -0.4055593 1.8779544e-06 -1 1.5423258e-05 0
0.14322308 0.054607816 -0.4043029 -4.832938e-06 -1 1.6746604e-05 0
0.15505393 0.054607809 -0.40568745 0 -1 0 0
0.16616213 0.054607816 -0.40223634 -4.6517448e-06 -1 1.706789e-05 0
0.17276974 0.054607812 -0.40369448 -9.1343423e-07 -1 3.4819204e-05 0
0.18508893 0.054607812 -0.40742224 1.1102898e-05 -1 9.9685867e-06 0
0.19493636 0.054607816 -0.40120962 -4.2263009e-06 -1 1.9255582e-05 0
0.20887455 0.054607812 -0.40441334 -4.9161281e-06 -1 -2.070257e-05 0
0.21605569 0.054607816 -0.40485728 -0.098297738 -0.99514228 0.0054195691 0.016593389
0.22855586 0.054607816 -0.40740573 -0.33565941 -0.9414469 -0.03178864 0.06004148
0.23604396 0.054607816 -0.40092063 -0.56555402 -0.82128811 -0.075063244 0.07540822
-0.23721883 -0.42511678 -0.39679447 0.63189018 0.77487004 -0.017068863 0.094049737
-0.22479367 -0.42527914 -0.39965498 0.3081359 0.95059896 0.037601769 0.063128233
-0.21243967 -0.42527911 -0.39550731 0.039760184 0.99920529 -0.0027949559 0.006041572
-0.20877601 -0.42527908 -0.39689314 0.00084862043 0.99999958 -0.00026069974 0.00019042991
-0.18887924 -0.42527911 -0.39554781 -0.00011237075 1 -9.6952441e-05 0.0001321866
-0.16684437 -0.42527914 -0.3965393 -2.3561857e-05 1 -7.789486e-05 0.00015227152
-0.15514924 -0.42527908 -0.39720285 -4.861872e-05 1 -0.00013431354 0.00020019404
-0.14667471 -0.42527914 -0.39601123 -8.2529463e-05 1 -0.00024281767 0.00029265764
-0.13487339 -0.42527914 -0.3946991 -0.00014613225 0.99999994 -0.00038934356 0.00036526538
-0.12635659 -0.42527908 -0.39926046 -3.2283231e-05 1 -7.3020492e-05 0.00017906513
-0.11251077 -0.42527908 -0.39683953 -6.1873718e-05 1 -0.00028295952 0.00032764667
-0.10807952 -0.42527911 -0.39753425 -6.6028042e-05 1 -0.00028420851 0.00025214223
-0.096327327 -0.42527911 -0.39232099 -9.0892354e-05 0.99999994 -0.000203776 0.00025465936
-0.086801857 -0.42527908 -0.39466667 -4.9930793e-05 1 -6.7115034e-05 0.00016341782
-0.073907174 -0.42527914 -0.39368376 8.7374847e-06 0.99999994 -0.00025635195 0.00025426366
-0.064528584 -0.42527914 -0.39618018 -2.9305706e-05 0.99999994 -0.00025907223 0.00010239741
-0.053692184 -0.42527914 -0.39606708 -6.3025807e-05 1 -8.2850194e-05 0.00030428631
-0.044564031 -0.42527914 -0.39420637 -4.1371964e-05 0.99999994 -0.0003598888 0.00030951857
-0.034227721 -0.42527914 -0.39355356 4.8571087e-06 1 9.1355162e-07 0
-0.023657288 -0.42527914 -0.39184588 -5.5273602e-05 0.99999988 -0.00042826202 0.00035155076
-0.011535116 -0.42527914 -0.39593333 -9.8484441e-07 1 -0.00010376562 0.00019259565
-0.0079917498 -0.42527914 -0.39610392 7.0244437e-06 1 -0.00017108116 0.00018760853
0.0016102288 -0.42527911 -0.39672774 2.7498006e-06 1 0.00019007079 0
0.010646639 -0.42527911 -0.39045206 1.1488393e-05 1 -0.00020168818 6.3623796e-05
0.024327237 -0.42527908 -0.3967832 8.0104974e-06 1 -0.00024242185 0.00021875452
0.059483543 -0.42527911 -0.39375752 6.5610744e-05 1 -0.00014039178 0.00024860995
0.069450095 -0.42527911 -0.39755419 7.2750576e-05 1 -0.00013964863 0.00031543555
0.075976968 -0.42527911 -0.39628649 4.3376534e-05 1 1.9603165e-06 0.00017945448
0.082572594 -0.42527908 -0.39812961 4.4733046e-05 1 -6.2090912e-05 0.00021589844
0.093698308 -0.42527911 -0.39479217 2.3809735e-05 1 -6.6702523e-05 0.0001673334
0.11884775 -0.42527908 -0.399113 0.00010996233 1 -0.00027764583 0.00020253364
0.12611157 -0.42527908 -0.39331466 -3.0398265e-05 1 5.5428245e-05 0.00012042728
0.13405868 -0.42527911 -0.3930397 4.5469384e-05 1 -0.00012456262 0.0001778407
0.14053105 -0.42527908 -0.39634675 -1.0552874e-05 0.99999994 -0.00038579002 0.00017916513
0.15564328 -0.42527908 -0.39848727 1.0119142e-05 0.99999994 -0.00022475862 0.00011369669
0.16468036 -0.42527908 -0.39609876 2.9896184e-05 1 -7.8106132e-05 0
0.17446765 -0.42527908 -0.3962028 3.5049696e-05 1 -0.00030262832 0.00025830281
0.18637513 -0.42527911 -0.39444783 8.3581954e-06 1 -0.00017016406 0.00024545085
0.19405533 -0.42527914 -0.39475358 2.2924318e-05 1 -0.00012657289 0.00016989467
0.21428876 -0.42527914 -0.39540827 -0.080634616 0.99674195 -0.0018673977 0.012893966
0.22677419 -0.42527914 -0.39595091 -0.25420433 0.96613175 -0.044379156 0.068828538
0.23384809 -0.42527911 -0.39309332 -0.30351734 0.9528259 0.00011446328 0.077837124
0.24001928 -0.42513335 -0.39858192 -0.6023646 0.79783475 -0.024832567 0.10396352
-0.23986763 -0.41598186 -0.39458647 0.91014463 0.41414058 0.011146812 0.079101235
0.24001929 -0.41745105 -0.39095831 -0.89144611 0.45094684 0.044393618 0.10230932
-0.23986763 -0.40340349 -0.39915708 0.98751241 0.15750925 -0.0031726805 0.032120191
0.24001929 -0.40247846 -0.39466387 -0.98229331 0.17156941 0.075258732 0.030629581
-0.23986763 -0.39311546 -0.3938719 1 7.8392579e-05 -9.7630973e-06 0
0.24001929 -0.39325386 -0.39718843 -1 2.7235521e-06 2.7113267e-05 0
-0.23986763 -0.38642666 -0.3947258 1 0.00012930835 -1.5094607e-05 0
0.24001929 -0.38717362 -0.39238688 -1 7.5406613e-05 2.4678975e-05 0
0.24001928 -0.376019 -0.39712262 -1 5.1361126e-06 6.0536804e-05 8.370137e-06
-0.23986763 -0.36302862 -0.39474046 1 7.2628434e-05 6.6274391e-05 0
0.24001929 -0.36005542 -0.39116144 -1 6.9329406e-05 3.3116714e-05 0
-0.23986763 -0.35724783 -0.39632097 1 8.4840845e-05 2.8169712e-05 0
0.24001929 -0.35135627 -0.39658302 -1 9.0023037e-05 1.8276789e-06 0
-0.23986763 -0.34220523 -0.39911926 1 -5.0805797e-06 0.00010865388 0
0.24001929 -0.34324726 -0.39408994 -1 3.7160557e-05 6.9560367e-05 0
-0.23986763 -0.33321089 -0.3964954 1 1.4037069e-05 0.00011628127 0
0.24001928 -0.33434284 -0.39220905 -1 3.7281221e-05 3.053776e-06 0
-0.23986763 -0.32805574 -0.39637861 1 -1.5845011e-05 6.1960352e-05 0
0.24001929 -0.32494551 -0.39636186 -1 0.00012416772 4.2652984e-05 0
-0.23986763 -0.31341004 -0.39877877 1 2.0562306e-05 9.3643612e-05 0
0.24001928 -0.31457648 -0.39543694 -1 1.6417927e-06 3.8529557e-05 0
-0.23986763 -0.3039889 -0.39891437 1 -1.2727494e-06 3.5131387e-05 0
0.24001929 -0.30082297 -0.39693862 -1 2.8011744e-05 7.0073082e-05 0
-0.23986763 -0.29734674 -0.39104548 1 8.4576903e-05 2.5529494e-05 0
0.24001929 -0.29695418 -0.39015278 -1 -3.0973331e-06 -2.8537133e-05 0
-0.23986763 -0.28557536 -0.39462706 1 -7.8427956e-06 7.6917575e-05 0
-0.23986763 -0.27460989 -0.39544699 1 4.0674866e-05 0.00011222436 0
0.24001929 -0.27401859 -0.39457831 -1 3.347647e-05 -1.543223e-06 0
-0.23986763 -0.26444915 -0.39670786 1 1.0247792e-05 0.00013520624 0
0.24001928 -0.26551479 -0.39760247 -1 1.9436211e-05 -6.2336847e-05 0
-0.23986763 -0.25526276 -0.39759618 1 1.7073713e-05 0.00012545835 0
0.24001929 -0.25408769 -0.39387244 -1 -3.3469893e-05 -9.2994975e-05 8.9191308e-06
-0.23986763 -0.2441013 -0.39721331 1 -1.5726564e-06 9.1216963e-05 0
0.24001929 -0.24437328 -0.39398676 -1 -6.8180261e-06 7.0581584e-05 0
-0.23986763 -0.23209579 -0.39297107 1 9.0155423e-05 0.00010938239 0
0.24001929 -0.23423319 -0.39701197 -1 -1.9288127e-05 9.8857628e-05 0
-0.23986763 -0.22233862 -0.39212245 1 4.4107444e-05 6.3832435e-05 0
-0.23986763 -0.21742068 -0.39199609 1 4.4347718e-05 7.122888e-07 0
0.24001929 -0.21131477 -0.39206544 -1 3.98062e-06 4.6555873e-05 1.0511505e-05
-0.23986763 -0.20440868 -0.39460728 1 -1.1174343e-05 0.000110643 0
0.24001928 -0.20560507 -0.39577571 -1 -6.6601715e-06 -3.4629695e-05 0
-0.23986763 -0.19660604 -0.39246407 1 4.1384414e-05 0.00011457845 0
0.24001929 -0.19601762 -0.39395469 -1 8.5398206e-06 3.0447834e-05 0
-0.23986763 -0.18777421 -0.39098546 1 5.4355343e-05 4.1456722e-05 0
-0.23986763 -0.1762567 -0.39532346 1 3.9449085e-05 0.00010661373 0
0.24001931 -0.17342699 -0.39673758 -1 -2.4726237e-06 3.493742e-05 0
-0.23986763 -0.16575648 -0.39607638 1 1.1206363e-05 -7.1922135e-05 0
-0.23986763 -0.15514825 -0.39688912 1 2.4082305e-05 3.5253895e-05 0
0.24001931 -0.15531501 -0.39559498 -1 -0 -0 0
-0.23986763 -0.14003086 -0.39113909 1 3.4848876e-05 0.00014312626 0
0.24001929 -0.14475641 -0.39404011 -1 -9.2808668e-06 6.9899608e-05 0
-0.23986763 -0.13704953 -0.39861712 1 3.3509157e-05 0.00011310924 0
-0.23986763 -0.12368608 -0.39927623 1 3.6053974e-05 2.9103439e-05 0
0.24001928 -0.12582457 -0.39316782 -1 -7.2723928e-06 3.2889311e-05 0
-0.23986763 -0.11346616 -0.39533487 1 -8.4955527e-06 0.00019998578 0
0.24001929 -0.11713322 -0.3941375 -1 -7.7607574e-06 1.2679334e-06 0
-0.23986763 -0.10010754 -0.39806738 1 2.9382565e-05 0.00021293956 0
0.24001929 -0.10402768 -0.39694861 -1 2.9684265e-05 6.2785948e-05 0
-0.23986763 -0.093125239 -0.39807758 1 -1.084565e-05 5.8920235e-05 0
0.24001931 -0.09964785 -0.39628136 -1 4.7382368e-06 -9.0686794e-05 0
-0.23986764 -0.081918158 -0.39427015 1 3.39457e-05 9.5754403e-05 0
-0.23986763 -0.073346592 -0.39586961 1 1.7107273e-05 3.0758325e-05 0
-0.23986763 -0.066650882 -0.39523658 1 1.7408038e-05 3.3436954e-05 0
0.24001929 -0.065768942 -0.39217776 -1 -0 -0 0
0.24001929 -0.058665261 -0.39500332 -1 1.2210236e-07 -2.7924047e-05 0
-0.23986764 -0.040729251 -0.39268488 1 -1.0535132e-05 7.4958043e-05 0
0.24001929 -0.044295929 -0.39496821 -1 -6.4294968e-06 3.5883222e-05 8.2783308e-06
-0.23986763 -0.034661252 -0.39865062 1 1.0266934e-05 -8.2928963e-08 0
0.24001929 -0.032495197 -0.39566585 -1 8.6383006e-06 3.6152138e-05 0
-0.23986763 -0.023317475 -0.39765319 1 -5.7872774e-07 -3.7384194e-05 0
0.24001928 -0.025471672 -0.39572453 -1 3.0464544e-06 5.2812011e-05 0
-0.23986763 -0.012935886 -0.39730176 1 1.8200038e-06 1.5463074e-07 0
-0.23986763 -0.004078039 -0.39547217 1 5.5895134e-06 3.242668e-05 0
0.24001929 -0.002854161 -0.39884421 -1 -1.1510037e-06 8.891218e-05 0
-0.23986763 0.0053658746 -0.39692757 1 -9.3187809e-06 6.7798748e-05 0
0.24001929 0.00086690986 -0.39601472 -1 1.8451937e-06 -2.9600762e-05 0
-0.23986763 0.015384335 -0.39119548 1 -1.0166066e-05 7.8248646e-05 0
0.24001929 0.01560696 -0.39977285 -1 1.9621064e-06 4.1357605e-05 0
-0.23986763 0.022669744 -0.3966397 1 -6.1310693e-06 -1.183211e-07 0
0.24001929 0.029172618 -0.39263555 -0.99890751 -0.046398077 0.0055772597 0.0025824944
-0.23986764 0.035142247 -0.39537716 0.98518467 -0.17111604 0.011422608 0.024834823
0.24001929 0.035105269 -0.39497185 -0.98475069 -0.17341562 0.013898372 0.030655013
-0.23986763 0.044651881 -0.39859891 0.92219597 -0.38341421 -0.050478075 0.062076509
0.24001928 0.047988672 -0.39349103 -0.78062904 -0.62402672 -0.034770783 0.070063382
-0.22522478 0.054607812 -0.39428598 0.23891748 -0.97016412 0.041231897 0.040781796
-0.21442552 0.054607812 -0.39191332 0.091731071 -0.99578351 -0.00083402084 0.014352488
-0.20890902 0.054607809 -0.39456505 4.8414772e-06 -1 7.1281484e-06 0
-0.19786739 0.054607809 -0.39346212 5.7738898e-06 -1 1.8009485e-05 0
-0.18788427 0.054607812 -0.39398545 1.0464033e-05 -1 1.6072174e-05 0
-0.1694133 0.054607812 -0.39234364 9.6570029e-06 -1 2.2543047e-05 0
-0.15407577 0.054607809 -0.39174014 -5.7301645e-06 -1 7.2905609e-06 0
-0.1460807 0.054607809 -0.3936438 7.9555093e-07 -1 2.9724179e-05 0
-0.13569632 0.054607812 -0.39593309 7.2040962e-06 -1 2.4956931e-05 0
-0.12408806 0.054607816 -0.39387766 1.7406981e-06 -1 1.3744201e-05 0
-0.10437026 0.054607809 -0.3955735 3.0790127e-06 -1 8.8097277e-06 0
-0.089905322 0.054607809 -0.39560187 1.2128636e-06 -1 2.7772538e-05 0
-0.074038729 0.054607816 -0.39263791 4.1466214e-06 -1 9.0252988e-06 0
-0.068617225 0.054607812 -0.39570212 2.6248301e-06 -1 1.0756778e-05 0
-0.05045142 0.054607812 -0.39746895 0 -1 0 0
-0.042171765 0.05460782 -0.39559528 1.9167646e-06 -1 7.8938938e-06 0
-0.03460655 0.054607816 -0.39567989 0 -1 0 0
-0.014789757 0.054607812 -0.39635503 5.5726656e-07 -1 8.2931265e-06 0
0.004376784 0.054607812 -0.39025781 -1.5073914e-07 -1 4.9607745e-09 0
0.01593899 0.054607809 -0.39569727 -2.6931452e-06 -1 1.5819416e-05 0
0.02410751 0.054607816 -0.39681455 1.6823871e-06 -1 2.9819126e-05 0
0.032676138 0.054607809 -0.39453033 4.7793628e-07 -1 8.288308e-06 0
0.045518033 0.054607812 -0.39311391 -3.9932629e-06 -1 1.6168667e-07 0
0.055715322 0.054607812 -0.39934441 -1.1597455e-06 -1 2.262409e-05 0
0.063439213 0.054607809 -0.39614329 -1.1766534e-05 -1 3.4094868e-05 0
0.074101172 0.054607812 -0.3947123 -2.3661055e-06 -1 2.6850317e-05 0
0.08553756 0.054607816 -0.39505461 -4.9068422e-06 -1 2.5502946e-05 0
0.095724277 0.054607816 -0.39523187 -7.5825451e-06 -1 1.5981803e-05 0
0.10380608 0.054607809 -0.39239886 -9.6776839e-06 -1 1.5844311e-05 0
0.11723858 0.054607812 -0.39406213 -2.308738e-06 -1 1.497516e-05 0
0.12294132 0.054607816 -0.39402658 1.782753e-07 -1 2.7010155e-05 0
0.13545869 0.054607812 -0.39452627 -1.4667986e-06 -1 -1.7518849e-05 0
0.146626 0.054607812 -0.39742321 -6.0589018e-06 -1 3.2559914e-05 0
0.15475444 0.054607809 -0.39530936 -5.5664027e-06 -1 1.8965424e-05 0
0.16238943 0.054607809 -0.39528826 -2.1497699e-06 -1 3.014116e-05 0
0.17632146 0.054607809 -0.39690557 -7.9392785e-06 -1 1.6922209e-05 0
0.19524805 0.054607812 -0.39654258 -1.3954132e-05 -1 1.9394955e-05 0
0.20458874 0.054607812 -0.39866805 3.1069847e-06 -1 2.2262324e-05 0
0.21077916 0.054607809 -0.39033619 4.4759945e-06 -1 6.6572892e-07 0
0.22287422 0.054607812 -0.39679727 -0.28301322 -0.95909226 -0.0067423782 0.058751851
0.23551443 0.054607809 -0.39691085 -0.61419094 -0.78714395 -0.056336865 0.08694341
-0.2390642 -0.42481384 -0.38615936 0.70863003 0.69831628 -0.10098425 0.087242939
-0.22385859 -0.42527911 -0.38954186 0.31751776 0.94735634 -0.041211132 0.059849583
-0.21289657 -0.42527911 -0.38246718 0.0026920352 0.99999636 0.00021972775 0.0001879507
-0.20004798 -0.42527911 -0.38135767 1.4068923e-05 1 0.00018694841 7.9773432e-05
-0.18459606 -0.42527911 -0.3845996 -2.1485845e-05 1 -0.00015330469 0.00010211383
-0.17391147 -0.42527911 -0.38598809 -6.6599467e-05 1 -0.00013029574 0.00012542801
-0.15639357 -0.42527911 -0.3834672 4.3895766e-06 1 0.00011599311 0.00012630584
-0.14547004 -0.42527908 -0.38358629 -3.5046403e-05 1 -6.0869228e-05 0.00018911848
-0.13418287 -0.42527908 -0.38524759 -7.0259288e-05 1 -0.00015685166 0.00021362348
-0.12694919 -0.42527914 -0.38446712 -9.2984483e-05 1 -5.2638848e-06 0.00029950312
-0.11723859 -0.42527914 -0.38877419 -8.6602151e-05 0.99999994 -0.00034246664 0.00036935331
-0.10340674 -0.42527914 -0.38759691 -7.2912204e-05 0.99999994 -0.00038006922 0.00030824603
-0.097139999 -0.42527908 -0.38646388 1.687123e-05 1 -1.4421566e-06 7.0982504e-05
-0.084631987 -0.42527911 -0.38598973 -6.359908e-05 1 -0.00014034666 0.00022081948
-0.071696848 -0.42527914 -0.38093683 -7.1524773e-05 1 -0.00025557843 0.00026670707
-0.062980056 -0.42527911 -0.38168061 -6.7533911e-06 0.99999994 -0.00026822271 0.00018840018
-0.056892436 -0.42527914 -0.38415876 -2.6621232e-05 1 -6.5318278e-07 0.00020312928
-0.048560508 -0.42527908 -0.38335529 -1.204326e-05 1 -6.9962545e-05 0.00014536864
-0.039665546 -0.42527914 -0.38566771 -1.2487753e-05 0.99999994 -0.00032788352 0.00035154718
-0.025134914 -0.42527914 -0.38515782 -1.6699887e-05 1 -0.00017618411 0.00031814069
-0.015734036 -0.42527914 -0.38512665 -1.8668223e-05 1 -0.00012802059 0.00024652528
-0.0028095718 -0.42527914 -0.38321996 -2.622709e-07 1 -6.7734232e-05 0.00010562642
0.0013847481 -0.42527908 -0.38628024 -8.933211e-07 1 -5.6345318e-08 9.693137e-05
0.011157091 -0.42527911 -0.38475305 -1.4052114e-06 1 6.4002648e-05 0
0.024369821 -0.42527914 -0.38587323 -1.0146224e-05 1 0.00016674104 0
0.038551517 -0.42527908 -0.38696301 3.1846004e-05 1 -0.00015923135 0.00019003394
0.046292316 -0.42527911 -0.38565049 2.022196e-05 1 -6.5821208e-05 0.00013991704
0.051107049 -0.42527911 -0.38919607 2.2306927e-05 1 -6.1095852e-05 9.2519906e-05
0.067006648 -0.42527914 -0.38283443 4.0336556e-05 1 -0.00025453945 0.00031020941
0.076607727 -0.42527908 -0.38361272 6.4937652e-05 1 -0.00015531252 0.00025965594
0.085586801 -0.42527914 -0.38724378 4.4255241e-05 1 -7.4643969e-05 0.00017761084
0.092388541 -0.42527911 -0.38218546 3.4887522e-05 1 -7.6969591e-05 0.00016778435
0.10434934 -0.42527911 -0.38333952 3.6491772e-05 1 -0.00012518074 0.00024727243
0.11870568 -0.42527914 -0.38801152 4.7694397e-05 0.99999994 -0.00035536737 0.00033322515
0.131006 -0.42527911 -0.38045681 2.9262517e-05 1 -8.1452243e-05 0.00014362142
0.14162642 -0.42527914 -0.38787529 -1.4259371e-05 1 5.7699781e-05 3.3389082e-05
0.15378851 -0.42527911 -0.38435435 7.26172e-05 1 -0.00012856483 0.00028356904
0.17332193 -0.42527914 -0.38469285 3.0804684e-05 1 -0.00013608727 0.00010834721
0.18474708 -0.42527914 -0.38621601 3.9284645e-05 1 -0.00022911931 0.0002035404
0.19296575 -0.42527914 -0.38833952 8.2603816e-05 1 -0.00017594012 0.00024528647
0.21514082 -0.42527911 -0.38344657 -0.096830159 0.99529767 -0.0025327615 0.014216179
0.22453991 -0.42527908 -0.38489917 -0.3161394 0.94856972 0.016475566 0.067182101
0.23852624 -0.42527908 -0.38378054 -0.51941806 0.85195458 -0.066168331 0.099686094
0.24001929 -0.42117634 -0.38480395 -0.68716443 0.72317982 -0.069398306 0.12216934
0.24001929 -0.41572353 -0.38378641 -0.88820314 0.45896092 0.021213312 0.10703096
-0.23986763 -0.40315124 -0.38519382 0.99156773 0.12885836 -0.013746543 0.021777913
0.24001928 -0.40640208 -0.38570347 -0.98932791 0.14269844 0.029451752 0.0334659
-0.23986764 -0.3957091 -0.38517046 0.99999082 0.0042848173 7.0732567e-05 0
-0.23986763 -0.38658258 -0.3827123 1 -7.8211066e-05 6.7473273e-05 0
0.24001929 -0.38406092 -0.38502663 -1 -4.9487312e-06 -5.332131e-05 0
-0.23986763 -0.37368467 -0.38114265 1 -9.5967971e-06 0.00010820563 0
0.24001929 -0.37142599 -0.38906643 -1 6.1054663e-05 -6.6462048e-06 0
-0.23986763 -0.36874104 -0.38286388 1 2.9412491e-05 6.2500185e-05 0
0.24001931 -0.36501965 -0.38635412 -1 6.7995337e-05 6.5390981e-05 0
-0.23986763 -0.35445562 -0.38870555 1 7.9386176e-05 7.0844122e-05 0
-0.23986763 -0.34538558 -0.38440147 1 6.9428592e-05 4.9195878e-05 0
0.24001929 -0.34269047 -0.38722274 -1 -2.4187459e-05 2.7518337e-05 0
-0.23986763 -0.3346273 -0.38066223 1 -4.7102541e-05 0.00012221525 0
0.24001929 -0.3349084 -0.38490838 -1 -2.6285639e-05 2.5961412e-05 0
-0.23986763 -0.32909101 -0.38628983 1 7.7142322e-06 6.8408895e-05 0
0.24001928 -0.32318655 -0.38801691 -1 6.1925115e-05 6.580363e-05 0
-0.23986763 -0.31693253 -0.38553569 1 6.1190076e-05 0.00010501056 0
0.24001929 -0.31569189 -0.38505989 -1 7.1460185e-05 3.385427e-05 0
0.24001928 -0.30596921 -0.38556632 -1 3.2606444e-05 2.681644e-05 0
-0.23986763 -0.29454571 -0.38230971 1 3.6322366e-05 5.2785923e-05 0
-0.23986763 -0.28501052 -0.38380861 1 2.9253661e-05 7.5747499e-05 0
-0.23986763 -0.27485338 -0.38427225 1 3.0713887e-05 5.6231227e-05 0
-0.23986763 -0.26188028 -0.38228637 1 4.2234701e-06 3.3486958e-05 0
-0.23986763 -0.25136748 -0.38620478 1 3.238198e-05 3.8513881e-05 0
0.24001929 -0.25376499 -0.38426051 -1 2.273575e-05 -6.9428963e-05 8.4213034e-06
-0.23986763 -0.24474402 -0.38575509 1 7.2923911e-05 0.00011137476 0
0.24001929 -0.24137852 -0.38414037 -1 -5.9697551e-05 0.0001009284 0
-0.23986763 -0.23639464 -0.38272312 1 3.5521236e-05 7.5787968e-05 0
0.24001929 -0.23487332 -0.3824057 -1 -1.335267e-05 -4.6830388e-05 0
0.24001929 -0.22627324 -0.38400856 -1 1.5332431e-05 -3.4340446e-05 0
-0.23986763 -0.21843405 -0.38587293 1 6.4215819e-05 0.00010408339 0
0.24001928 -0.21355748 -0.38388419 -1 1.9162162e-05 7.85394e-05 9.3634162e-06
-0.23986763 -0.20567295 -0.38369378 1 5.0006656e-05 4.0692983e-05 0
0.24001928 -0.2061706 -0.3881788 -1 -1.5637415e-05 4.4560227e-05 1.0575463e-05
-0.23986763 -0.19290929 -0.384543 1 2.8874128e-05 8.4672392e-05 0
0.24001929 -0.19583979 -0.38421243 -1 -7.5595822e-06 6.9779948e-05 0
-0.23986763 -0.18333587 -0.383356 1 8.2300328e-05 3.3917284e-05 0
0.24001929 -0.18560743 -0.38363677 -1 4.4427026e-05 -3.6839563e-06 0
-0.23986763 -0.17700739 -0.38311663 1 1.8087365e-05 3.9897888e-05 0
0.24001929 -0.1754311 -0.38929009 -1 -1.8763383e-05 3.078147e-05 0
-0.23986763 -0.16716254 -0.38488948 1 4.1310152e-05 0.00011149322 0
0.24001929 -0.16023552 -0.3820498 -1 3.8810114e-05 7.3863674e-05 0
-0.23986763 -0.15357232 -0.38529396 1 1.1167347e-05 7.2573028e-05 0
0.24001928 -0.15277156 -0.38558409 -1 -2.3235141e-06 6.6144748e-05 0
-0.23986763 -0.14492792 -0.38615173 1 2.5115147e-05 6.9775568e-05 0
0.24001929 -0.14566666 -0.38716173 -1 1.4949221e-05 6.7963134e-05 0
-0.23986763 -0.13579284 -0.38565168 1 2.6727204e-05 0.00012647237 0
0.24001929 -0.13747188 -0.38493776 -1 -0 -0 0
-0.23986763 -0.12317779 -0.38647652 1 2.6638447e-05 3.8602037e-05 0
0.24001928 -0.12420776 -0.38320437 -1 5.783264e-06 3.9128936e-05 0
-0.23986763 -0.11329264 -0.38542256 1 1.9341716e-05 4.4517063e-05 0
0.24001928 -0.11579234 -0.38418651 -1 2.9700548e-05 3.7216e-06 0
-0.23986763 -0.10539348 -0.38496739 1 2.1238582e-05 9.9241028e-05 0
0.24001929 -0.10411191 -0.38510317 -1 -2.7641026e-06 9.2450566e-05 0
-0.23986763 -0.091258384 -0.38480306 1 1.4134002e-05 0.00011100642 0
0.24001929 -0.095791526 -0.38449675 -1 1.0406981e-05 3.3901815e-05 0
-0.23986763 -0.084574074 -0.38548076 1 4.1972555e-05 0.00013950367 0
0.24001929 -0.08534576 -0.38376841 -1 9.3983726e-06 3.0005362e-05 7.8144722e-06
-0.23986763 -0.07485278 -0.38379881 1 4.2030126e-05 5.942128e-05 0
-0.23986763 -0.051427908 -0.38933259 1 6.9501207e-06 0.00011361359 0
-0.23986763 -0.046456058 -0.3869471 1 2.0754967e-05 0.00011953159 0
0.24001929 -0.049806245 -0.38596621 -1 1.8625386e-05 5.8309841e-05 0
-0.23986763 -0.035543915 -0.38231206 1 7.9188467e-06 6.0713468e-05 0
0.24001928 -0.034259919 -0.38226283 -1 -9.4079915e-06 3.7181577e-05 9.189549e-06
-0.23986763 -0.023325484 -0.38202447 1 -6.6033799e-06 8.2477323e-05 0
0.24001928 -0.02260193 -0.38662532 -1 4.030479e-06 1.7126385e-07 0
-0.23986766 -0.013684328 -0.38625404 1 2.4235826e-05 0.00015179157 0
-0.23986763 -0.0056353593 -0.38805002 1 1.0328283e-05 9.8321929e-05 0
0.24001928 -0.0016552806 -0.38438475 -1 6.9091323e-07 3.140113e-05 0
-0.23986763 0.0055090375 -0.38685691 1 2.8877314e-05 0.00018402665 0
0.24001931 0.0034375002 -0.38384104 -1 1.3215354e-05 0.00010607803 0
-0.23986763 0.014154725 -0.38229281 1 -3.3555939e-06 6.8071771e-05 0
0.24001928 0.013715197 -0.38364753 -1 3.1410532e-06 3.7154674e-05 0
-0.23986763 0.024272775 -0.38558197 1 -6.481263e-06 3.1440639e-05 0
0.24001928 0.02727201 -0.38633475 -0.99943393 -0.032012779 0.010341212 0.0020459942
0.24001929 0.036562953 -0.38366336 -0.96617049 -0.25782394 -0.006428197 0.041093715
-0.23986763 0.043971166 -0.38821605 0.92650622 -0.37615135 0.009810471 0.079708412
0.24001929 0.046808671 -0.38083699 -0.86409301 -0.50194079 0.037398715 0.057908151
-0.23765182 0.054593097 -0.38456893 0.51594532 -0.85631073 0.023072256 0.05250695
-0.22638251 0.054607812 -0.38628 0.23435061 -0.97188109 -0.022955483 0.048510425
-0.21813993 0.054607812 -0.38393652 0.13259883 -0.99071586 0.029992273 0.019071369
-0.20288531 0.054607812 -0.3864589 8.9865207e-06 -1 2.7889799e-05 0
-0.19852661 0.054607812 -0.38846639 4.5677498e-06 -1 1.751422e-05 0
-0.18512784 0.054607812 -0.38461939 4.6153505e-06 -1 -8.635497e-07 0
-0.15092483 0.054607816 -0.38180608 5.4410257e-06 -1 3.7605656e-05 0
-0.14962733 0.054607812 -0.38862365 -1.2535177e-06 -1 2.8643441e-05 0
-0.13474299 0.054607809 -0.38627437 -7.922753e-06 -1 -2.0554161e-07 0
-0.12206322 0.054607809 -0.38188809 4.2869274e-06 -1 1.9339232e-05 0
-0.11622403 0.054607816 -0.38933533 2.4502281e-06 -1 7.5555236e-06 0
-0.10339481 0.054607809 -0.38204852 1.0339738e-05 -1 3.2516549e-05 0
-0.092539035 0.054607809 -0.38679504 6.5262084e-06 -1 2.4864567e-05 0
-0.084620319 0.054607812 -0.38579157 0 -1 0 0
-0.07427641 0.054607809 -0.38502967 9.4367397e-06 -1 4.191498e-05 0
-0.068891242 0.054607816 -0.38443673 2.4784222e-06 -1 2.3260891e-05 0
-0.055811442 0.054607812 -0.38275123 3.7516832e-06 -1 1.5231769e-05 0
-0.046329364 0.054607812 -0.38675359 1.0727598e-06 -1 2.0182433e-05 0
-0.013515558 0.054607816 -0.38527751 -7.1583491e-07 -1 8.1914332e-06 5.6757756e-07
-0.0042169131 0.054607816 -0.38460308 3.3401368e-06 -1 2.4238851e-05 0
0.0057528149 0.054607816 -0.38345307 -7.9327532e-07 -1 2.7546383e-05 0
0.025044776 0.054607809 -0.38653207 -2.7992112e-06 -1 3.105112e-05 0
0.035359707 0.054607809 -0.38491979 2.0546106e-06 -1 2.9249881e-05 0
0.049969349 0.054607809 -0.38997 -2.7445071e-07 -1 -1.7012091e-05 0
0.0652095 0.054607809 -0.38556337 -6.1779574e-06 -1 1.7659655e-05 0
0.073692106 0.054607809 -0.38322687 -4.5089027e-06 -1 1.843447e-05 0
0.087844327 0.054607816 -0.3848246 -1.7551686e-06 -1 -9.703539e-06 0
0.09553989 0.054607812 -0.38707924 -8.5921956e-06 -1 2.1116621e-05 0
0.10017396 0.054607816 -0.38607824 -1.4555907e-05 -1 5.3956952e-05 0
0.11714344 0.054607812 -0.38037986 2.5864037e-07 -1 2.0711723e-05 0
0.1243628 0.054607812 -0.38394284 -5.0410013e-06 -1 4.1080169e-05 0
0.13377918 0.054607812 -0.38748312 1.1319224e-07 -1 2.2508111e-05 0
0.14303374 0.05460782 -0.38696265 -3.6401434e-06 -1 8.2443212e-06 0
0.15191735 0.054607812 -0.38000771 -4.9104265e-06 -1 2.3343806e-05 0
0.16461946 0.054607812 -0.38492864 6.5229988e-06 -1 -1.0026007e-05 0
0.17607453 0.054607816 -0.38608488 0 -1 0 0
0.18446469 0.054607812 -0.38405311 -6.3436682e-06 -1 2.060937e-05 0
0.19410905 0.054607812 -0.385167 0 -1 0 0
0.20445538 0.054607809 -0.38282144 8.402717e-06 -1 -1.7337572e-05 0
0.21404448 0.054607812 -0.38515604 -0.05445211 -0.9985007 -0.0055940109 0.0064428188
0.22472033 0.054607816 -0.38729534 -0.30481783 -0.95235246 -0.010531056 0.0430828
0.23613441 0.054607812 -0.38370875 -0.7002942 -0.71060336 0.06805072 0.077073805
-0.2367889 -0.42527911 -0.37654841 0.55819106 0.82179475 -0.11435107 0.073762827
-0.22605038 -0.42527911 -0.37496307 0.36845243 0.92941779 -0.020627934 0.067971282
-0.21308239 -0.42527911 -0.37144813 0.054102119 0.99852794 0.0038643668 0.0076247365
-0.20577744 -0.42527908 -0.37237111 -7.427956e-05 1 5.8819728e-06 0.00010817325
-0.1938704 -0.42527914 -0.375494 -6.0982762e-05 1 -0.00012460635 0.00014509317
-0.18797445 -0.42527911 -0.37263677 3.3207791e-05 1 -5.7000361e-06 0.00017624545
-0.16804264 -0.42527911 -0.37350199 -3.6397298e-05 1 -1.8412289e-06 0.00010647713
-0.15464346 -0.42527911 -0.37535545 -5.6967936e-05 1 -0.00013681824 0.00024253855
-0.14635348 -0.42527911 -0.37403664 -6.4285952e-05 1 -8.2200982e-05 0.00014851621
-0.13823342 -0.42527911 -0.37931597 -0.00010973129 1 -6.2308165e-05 0.00025300463
-0.12589529 -0.42527911 -0.3708052 -2.3047034e-05 1 7.231535e-05 6.7823734e-05
-0.11341437 -0.42527911 -0.3774617 3.7869722e-05 1 6.1857863e-05 0
-0.10771053 -0.42527914 -0.37347364 -1.8412951e-05 1 -7.0306734e-05 0.00022870675
-0.096672915 -0.42527908 -0.37113094 9.9545154e-08 1 -0.0001386675 6.7298701e-05
-0.084364355 -0.42527914 -0.37531468 -1.3940523e-05 1 -6.961198e-07 6.7830835e-05
-0.079147935 -0.42527914 -0.37586424 -2.4400599e-05 0.99999994 -0.00020469209 0.00028848625
-0.06365703 -0.42527911 -0.37692738 -2.4066037e-05 0.99999994 -0.00029115853 0.00027670056
-0.056954671 -0.42527914 -0.37693238 -2.3588067e-05 1 -8.1687198e-05 0.0001940026
-0.042131923 -0.42527911 -0.37504414 -2.7819317e-05 1 -0.00020157197 0.00020322877
-0.039382584 -0.42527911 -0.37744534 -1.3679822e-05 0.99999994 -0.0002540265 0.00023007252
-0.024312418 -0.42527914 -0.3753376 -0 1 -0 0.00019133279
-0.017457105 -0.42527914 -0.37989801 -3.173199e-05 0.99999994 -0.00019861691 0.00022755022
0.011718319 -0.42527911 -0.37642515 -0 1 -0 0
0.027725572 -0.42527914 -0.37043974 1.337947e-05 1 8.4334584e-07 0.00010064201
0.035502192 -0.42527914 -0.37393966 2.0034428e-05 1 -0.00014092035 0.00015327036
0.04679428 -0.42527911 -0.37132031 1.0369854e-05 1 -0.00017028399 7.7494689e-05
0.058360942 -0.42527914 -0.37661511 3.9306338e-05 1 -0.00011986592 0.00015416756
0.064589098 -0.42527908 -0.37399241 5.7190686e-05 1 -0.00027748782 0.0002284599
0.079808354 -0.42527911 -0.37368569 5.3680502e-05 0.99999994 -0.00024602993 0.00033466014
0.085583031 -0.42527914 -0.37618589 5.1024886e-05 0.99999994 -0.00033208271 0.00030279302
0.094653778 -0.42527914 -0.37725562 1.6403299e-05 1 -4.9343259e-07 3.2670829e-05
0.10457141 -0.42527914 -0.37540898 1.5686988e-05 1 -0.00014068815 0.00013122907
0.11470588 -0.42527908 -0.37314537 -0 1 -0 3.3121811e-05
0.12114594 -0.42527908 -0.37447482 -3.3226952e-05 1 6.207858e-05 0.00012947353
0.13503754 -0.42527914 -0.37261873 4.95926e-05 0.99999994 -0.00020412436 0.00017157433
0.1461685 -0.42527908 -0.37299007 7.9158759e-05 1 -6.4321859e-05 0.0001951938
0.15723372 -0.42527911 -0.37764144 -5.2372015e-05 1 -6.8257687e-05 0
0.16754906 -0.42527914 -0.37830943 -5.4166617e-06 1 -8.0176425e-05 6.9815906e-05
0.17252503 -0.42527911 -0.37904239 -3.5051209e-05 1 -7.8016137e-06 6.9642316e-05
0.18492329 -0.42527914 -0.37234464 3.5992522e-05 1 -0.00015374419 0.00019887017
0.19481032 -0.42527914 -0.37389088 4.1617797e-05 1 -6.3302767e-05 9.657639e-05
0.20835529 -0.42527911 -0.37575391 0.00013944405 1 -0.00018121977 0.00024978211
0.21412635 -0.42527911 -0.37432694 -0.070454158 0.99747699 0.0087185865 0.010155419
0.22502667 -0.42527911 -0.37618333 -0.33151868 0.94246596 -0.043049227 0.06497965
0.23572776 -0.42527914 -0.37842727 -0.47550002 0.8770799 -0.068048283 0.083210602
0.24001928 -0.42284384 -0.3740975 -0.75865221 0.63122898 -0.16123544 0.10594948
-0.23986763 -0.4159922 -0.37202394 0.88226718 0.46810821 -0.049792677 0.075717188
0.24001928 -0.41458192 -0.37441584 -0.78212684 0.59419441 -0.18764509 0.10069573
-0.23986763 -0.40585172 -0.37701097 0.979509 0.20139611 0.0013175058 0.034640223
0.24001929 -0.40453488 -0.37149623 -0.99052566 0.13669381 0.013178107 0.033966687
-0.23986763 -0.39500365 -0.3796595 1 7.0649839e-05 9.8713455e-05 0
0.24001929 -0.39399159 -0.37340832 -1 -0.00012454168 4.9797149e-05 0
-0.23986763 -0.38345489 -0.3717154 1 0 0 0
0.24001929 -0.38187522 -0.3708607 -1 -3.2509623e-05 -3.6084923e-06 0
-0.23986763 -0.37083033 -0.37848333 1 -4.0803279e-05 0.00013810363 0
0.24001929 -0.37964973 -0.37108237 -1 6.4783802e-05 -2.4556115e-05 0
-0.23986764 -0.36885276 -0.37048948 1 7.6283824e-05 7.4551346e-05 0
0.24001929 -0.36753601 -0.37416023 -1 6.8331829e-05 -3.4184228e-05 1.6874359e-05
-0.23986761 -0.35629088 -0.37944955 1 4.2859127e-05 7.3695213e-05 0
0.24001928 -0.35421011 -0.37491384 -1 0.00015201812 -5.8223909e-06 0
-0.23986763 -0.34735116 -0.37395167 1 6.2732739e-05 0.00010186417 0
0.24001929 -0.34766722 -0.37075186 -1 5.7428224e-05 4.7800527e-06 0
-0.23986763 -0.33606005 -0.37276435 1 0.00015895136 9.8405173e-05 0
0.24001928 -0.33471194 -0.37465826 -1 8.403488e-05 -1.4782656e-05 0
0.24001928 -0.31899542 -0.37191144 -1 5.4736192e-05 3.3239121e-05 7.5982548e-06
-0.23986763 -0.30748576 -0.37234676 1 2.667556e-05 6.8483496e-05 0
0.24001929 -0.30132547 -0.37476134 -1 -1.3514533e-05 -5.7901609e-05 0
-0.23986763 -0.29510224 -0.3737613 1 0.00016929259 4.3224354e-05 0
0.24001928 -0.29599532 -0.37802795 -1 6.3143474e-05 -1.942684e-05 0
0.24001929 -0.28329071 -0.37340474 -1 3.3992346e-05 3.0538446e-05 9.1353604e-06
-0.23986763 -0.27351865 -0.37602577 1 7.0141388e-05 3.3332883e-05 0
0.24001929 -0.27076143 -0.37141714 -1 3.1232925e-05 6.424345e-06 0
-0.23986763 -0.26482731 -0.3767539 1 6.8612469e-05 0.00010242277 0
0.24001928 -0.26351985 -0.37362 -1 -2.5349691e-05 2.5058282e-05 8.0498749e-06
-0.23986763 -0.25497836 -0.37265736 1 4.702104e-05 3.3633787e-05 0
0.24001929 -0.25546002 -0.37389278 -1 4.8029422e-05 -2.9081735e-05 0
-0.23986763 -0.24143791 -0.37708965 1 2.319345e-05 0.00011843477 0
0.24001929 -0.24308746 -0.37515903 -1 -1.7757543e-06 -3.9140818e-05 8.1883927e-06
-0.23986763 -0.23241809 -0.37066847 1 5.6094348e-05 3.8207287e-05 0
-0.23986763 -0.22445206 -0.37698388 1 5.3534168e-05 0.00011989346 0
0.24001929 -0.22775905 -0.37782168 -1 3.0489366e-05 1.5606017e-06 0
-0.23986763 -0.21400167 -0.37392288 1 2.7385274e-06 0.0001393542 0
0.24001929 -0.2167438 -0.37519699 -1 4.3045489e-05 0.00018131625 0
-0.23986763 -0.20670596 -0.37342715 1 3.5390338e-05 3.7661368e-05 0
0.24001929 -0.2065078 -0.37730134 -1 2.4459086e-05 2.94896e-05 9.3246326e-06
-0.23986763 -0.19650453 -0.37820533 1 9.4937146e-05 2.3212553e-05 0
0.24001929 -0.19469237 -0.37333852 -1 -0 -0 0
-0.23986763 -0.1855157 -0.3770265 1 -0 -0 0
0.24001929 -0.18831787 -0.37369224 -1 6.5236745e-06 6.022078e-05 1.4339115e-05
-0.23986763 -0.17616308 -0.37343764 1 3.0752675e-05 2.9936653e-05 0
-0.23986763 -0.16429193 -0.37151167 1 3.6525093e-05 0.0001602875 0
0.24001929 -0.16808939 -0.37843639 -1 1.1830571e-05 6.5687032e-05 0
-0.23986764 -0.15275998 -0.37575215 1 2.9260871e-05 0.00010689792 0
0.24001929 -0.15345445 -0.3732022 -1 -2.1045353e-05 4.0799125e-05 0
-0.23986763 -0.14623505 -0.37530851 1 7.9018146e-06 9.7730219e-05 0
0.24001928 -0.14316128 -0.37301764 -1 6.39588e-07 7.0568407e-05 0
-0.23986763 -0.13925183 -0.37783575 1 3.7266698e-05 0.000114109 0
0.24001929 -0.1339052 -0.37535989 -1 -4.897408e-06 4.2223877e-05 0
-0.23986763 -0.1271899 -0.37268233 1 5.9045074e-06 3.0341467e-05 0
0.24001929 -0.1275472 -0.37327057 -1 8.4547173e-06 -1.2794214e-06 0
-0.23986763 -0.11415702 -0.37514582 1 5.8785763e-06 3.5046618e-05 0
0.24001929 -0.11093463 -0.37330261 -1 3.8230897e-07 7.6889992e-05 0
-0.23986763 -0.10819784 -0.37584686 1 1.3169672e-05 0.00010512911 0
0.24001929 -0.10475098 -0.37517095 -1 1.014889e-05 4.1537845e-05 0
-0.23986764 -0.095817946 -0.37585473 1 2.0636073e-05 3.0098305e-05 0
0.24001929 -0.095090359 -0.37766403 -1 -1.0417687e-05 4.55439e-05 0
-0.23986763 -0.084572099 -0.37527609 1 3.1087518e-06 7.2851981e-05 0
0.24001929 -0.081193313 -0.37571284 -1 1.0680344e-06 -5.7233068e-05 9.0901813e-06
-0.23986763 -0.077042826 -0.3768793 1 1.6723966e-06 0.00018360198 0
0.24001928 -0.07467977 -0.37391809 -1 7.7348896e-06 4.5889075e-05 0
-0.23986763 -0.068397306 -0.37454364 1 -5.2717965e-06 7.3730211e-05 0
0.24001929 -0.066451207 -0.37541199 -1 1.0989655e-05 4.868476e-05 0
-0.23986764 -0.053284466 -0.37691274 1 7.9345918e-06 3.8910841e-07 0
0.24001928 -0.053163212 -0.37562349 -1 0 0 0
-0.23986763 -0.046339452 -0.37359592 1 4.9514292e-06 7.5799711e-05 0
0.24001929 -0.044588573 -0.37636355 -1 7.2491648e-06 3.6700767e-05 0
-0.23986763 -0.035031386 -0.37701708 1 1.1189879e-05 6.0699407e-05 0
0.24001929 -0.032514587 -0.37282884 -1 3.892269e-06 3.3596556e-05 0
-0.23986763 -0.022580482 -0.37699807 1 7.8735784e-06 0.00010617169 0
0.24001929 -0.028485637 -0.37618282 -1 -1.956864e-06 9.3826377e-05 9.5813712e-06
-0.23986763 -0.015844868 -0.3730599 1 9.8168157e-06 3.9102692e-05 0
0.24001929 -0.014941531 -0.374228 -1 1.8649534e-06 -7.3089192e-05 8.2728438e-06
-0.23986764 -0.0053866655 -0.37515369 1 1.277611e-05 0.00014752072 0
0.24001931 -0.0065061077 -0.37471533 -1 -6.2771498e-08 4.0222152e-05 0
-0.23986763 0.0030596789 -0.37349787 1 -4.9861291e-07 6.4645356e-08 0
-0.23986763 0.016005345 -0.37303382 1 -5.601999e-06 7.7394325e-05 0
0.24001929 0.015040169 -0.37516493 -1 -9.187695e-07 -3.8356993e-05 0
-0.23986763 0.025540499 -0.3763772 0.99994588 -0.010348056 0.0010567401 0.00028466806
0.24001928 0.029749854 -0.37092179 -0.99553865 -0.092704497 -0.01756718 0.015563956
-0.23986763 0.03632817 -0.37418389 0.98517829 -0.17135318 -0.0078674071 0.034589991
0.24001928 0.039937824 -0.37589797 -0.97201133 -0.23385897 0.02244734 0.037577357
-0.23986763 0.046990898 -0.37403846 0.88203067 -0.47056413 0.024317058 0.075028747
0.24001929 0.04242748 -0.37302226 -0.93776464 -0.3470889 0.011252104 0.070566431
-0.23802429 0.054607812 -0.37567052 0.65650874 -0.75429845 -0.0054832101 0.07948786
-0.22734806 0.054607809 -0.37377986 0.27320379 -0.96161008 -0.025801281 0.038672328
-0.20321858 0.054607816 -0.37398124 1.8421732e-05 -1 1.3535311e-05 0
-0.19139051 0.054607816 -0.37487781 1.2977586e-05 -1 2.2468623e-05 0
-0.18531527 0.054607816 -0.3754614 5.1139527e-06 -1 -7.0946699e-06 0
-0.17666897 0.054607816 -0.37421376 1.3738801e-05 -1 2.5746733e-05 0
-0.16353412 0.054607812 -0.37169623 5.0752433e-06 -1 1.0885037e-05 0
-0.15612252 0.054607809 -0.37724283 1.2600519e-05 -1 9.4953457e-06 0
-0.14201406 0.054607809 -0.37079668 7.5039602e-06 -1 2.8719049e-07 0
-0.13546756 0.054607809 -0.37991053 1.148186e-05 -1 9.6907706e-06 0
-0.12755933 0.054607812 -0.37326562 2.8726804e-06 -1 3.0796957e-05 0
-0.11339715 0.054607812 -0.37696943 8.0562069e-07 -1 2.8436149e-05 0
-0.105667 0.054607816 -0.37617159 2.4178118e-07 -1 1.7846205e-05 0
-0.098200358 0.054607809 -0.37095547 6.5454396e-06 -1 2.8970448e-05 0
-0.085339159 0.054607816 -0.37697133 5.3533531e-06 -1 1.4150164e-06 0
-0.075181469 0.054607816 -0.37495565 1.9969939e-06 -1 8.9134846e-06 0
-0.064922094 0.054607812 -0.37049788 -4.6677646e-06 -1 2.2825065e-05 5.6216356e-07
-0.046838544 0.054607812 -0.37246355 -9.7494478e-07 -1 6.4214497e-08 0
-0.030516494 0.054607816 -0.37365019 2.0662617e-06 -1 7.6657971e-06 0
-0.024581293 0.054607809 -0.37655538 1.7643474e-06 -1 -1.6021716e-07 0
-0.016593561 0.054607816 -0.3756887 2.7172225e-06 -1 9.3778308e-06 0
-0.0067012087 0.054607812 -0.37491858 1.193727e-07 -1 -1.8407111e-09 0
0.0055245534 0.054607816 -0.37422007 -2.5806958e-06 -1 1.5341475e-05 0
0.015746634 0.054607816 -0.37333006 -1.2489371e-06 -1 -8.0317532e-06 0
0.020744398 0.054607809 -0.37023658 -1.5446295e-06 -1 3.7290089e-08 0
0.037749946 0.054607816 -0.37539208 3.2229389e-07 -1 9.2536793e-06 0
0.045484316 0.054607809 -0.37130997 -1.702617e-07 -1 3.0575065e-05 0
0.056962829 0.054607816 -0.37922794 -4.4887479e-06 -1 1.6697179e-05 0
0.061297953 0.054607809 -0.37826809 -6.1001319e-06 -1 2.5471896e-05 0
0.078286886 0.054607816 -0.37598455 7.7736367e-08 -1 3.0216959e-05 0
0.084329605 0.054607809 -0.37696892 -6.4719913e-08 -1 2.7541992e-05 0
0.095322669 0.054607812 -0.37556958 -3.371189e-06 -1 1.9092819e-05 0
0.10647394 0.054607812 -0.3781836 -5.5449127e-06 -1 3.5964193e-05 0
0.11494981 0.054607809 -0.37248099 -1.6494429e-05 -1 6.4380773e-05 0
0.12428007 0.054607809 -0.37629476 -7.9445017e-06 -1 2.9462486e-05 0
0.1318384 0.054607809 -0.37501961 -6.3392404e-06 -1 3.2937551e-05 0
0.14629021 0.054607816 -0.37641019 -4.3305727e-06 -1 5.9942202e-08 0
0.15304244 0.054607809 -0.37375107 0 -1 0 0
0.16602874 0.054607812 -0.3747142 -8.0249538e-06 -1 2.1620681e-05 0
0.17395858 0.054607816 -0.37445039 -1.255193e-05 -1 2.0809135e-05 0
0.19534817 0.054607812 -0.37467477 -9.7952197e-06 -1 1.4423156e-05 0
0.2006962 0.054607812 -0.37048629 -1.2646997e-05 -1 3.5585024e-05 0
0.22105777 0.054607809 -0.37527761 -0.20745395 -0.97821248 -0.0079481425 0.035002597
0.23079416 0.054607816 -0.37087867 -0.45270854 -0.89165848 -0.00028208402 0.065323137
-0.23709215 -0.42381576 -0.36395261 0.73019642 0.68107235 0.054347105 0.087441042
-0.22467288 -0.42527911 -0.36921152 0.32317385 0.94612974 0.019932287 0.069380857
-0.21141022 -0.42527911 -0.36449549 0.008749743 0.99995816 -0.0026958454 0.00037254315
-0.1973958 -0.42527911 -0.36689281 -3.3725686e-05 1 8.898096e-05 0.00014000695
-0.18387087 -0.42527908 -0.36273292 -8.6980996e-05 1 -0.00013771121 0.00016939672
-0.17443843 -0.42527914 -0.36429927 3.8920698e-05 1 -0.00017320576 0.00015351242
-0.16426837 -0.42527911 -0.362315 -5.718899e-06 1 -7.7483535e-05 0.00018179028
-0.15684292 -0.42527911 -0.36476076 -0.00012412407 0.99999994 -0.00028974828 0.00015538468
-0.14566618 -0.42527911 -0.36571512 8.2388033e-06 0.99999988 -0.00029763026 7.1775707e-05
-0.1332227 -0.42527908 -0.36505711 -5.0543127e-05 1 5.8069199e-06 0.00010046801
-0.12194635 -0.42527908 -0.36509916 -5.2560808e-05 1 -7.6073164e-05 0.00017002891
-0.11650956 -0.42527911 -0.36168423 -7.0592301e-05 1 -0.00024463126 0.00029165114
-0.10616527 -0.42527908 -0.36694291 -0.00012738809 0.99999994 -0.00026180648 0.00029366542
-0.095310055 -0.42527914 -0.3667179 -0.00010045292 1 -0.00018537663 0.00028372052
-0.084699064 -0.42527911 -0.36399031 -3.6030411e-05 1 -7.2634131e-05 0.00012751989
-0.063658863 -0.42527908 -0.36253691 -2.1362323e-05 1 -0.00012479782 0.0002502719
-0.055926412 -0.42527911 -0.3643955 -8.9935857e-06 0.99999994 -0.00025692704 0.00019836213
-0.043776214 -0.42527911 -0.36524174 -1.351195e-05 1 -0.00011547719 9.964269e-05
-0.037417553 -0.42527908 -0.36742455 -8.5988816e-08 1 -0.00013470573 0.00015467475
-0.024960041 -0.42527908 -0.36320791 -1.4340239e-05 0.99999994 -0.00022771803 0.00015000408
-0.012683181 -0.42527908 -0.36331731 2.1794201e-06 1 -7.3010779e-05 3.6228306e-05
-0.0061176158 -0.42527914 -0.36560515 -7.7981458e-06 1 -7.1158152e-05 0.00020801576
0.0027552452 -0.42527908 -0.36503041 -3.3362057e-06 1 -0.0001562055 0.00010472636
0.013654065 -0.42527908 -0.36682653 -1.3756924e-06 1 -7.5988566e-05 3.4721212e-05
0.035076462 -0.42527914 -0.36320058 -4.5091601e-06 1 -3.8779197e-07 0
0.047014896 -0.42527914 -0.36433181 1.6885748e-05 1 -0.00013754486 0.00010631977
0.061829615 -0.42527908 -0.36397716 1.8656103e-05 1 -6.9804264e-05 9.7387361e-05
0.073163778 -0.42527914 -0.36519012 4.4694993e-05 0.99999988 -0.000276818 0.00022067982
0.085194379 -0.42527908 -0.3641063 3.0820306e-07 1 -7.3698895e-05 0.00013655827
0.092212901 -0.42527908 -0.3609975 9.1787886e-05 1 -0.00025571111 0.00033676089
0.10728458 -0.42527911 -0.367778 1.3243605e-05 1 -7.0343918e-07 3.3413569e-05
0.1187042 -0.42527911 -0.36718455 -2.1598503e-06 0.99999994 -0.00023821444 0.00014039192
0.12526983 -0.42527911 -0.36456278 5.1950825e-05 0.99999994 -0.00031363289 0.0002450617
0.13294995 -0.42527908 -0.36247861 6.4903754e-05 0.99999988 -0.00034806979 0.0002673355
0.14569177 -0.42527911 -0.36630514 -6.4266708e-08 1 -0.00022902511 0.00026430128
0.15472509 -0.42527914 -0.3657639 0.00011203781 0.99999994 -0.0003082621 0.00018324684
0.16138409 -0.42527911 -0.36202654 6.7053763e-05 0.99999988 -0.00027779417 0.00017481916
0.17753725 -0.42527914 -0.36274078 7.0342867e-05 0.99999994 -0.00020375874 0.00018984864
0.18503414 -0.42527914 -0.36826941 -1.8318602e-05 1 -0.00013489528 0.00016007603
0.20455293 -0.42527911 -0.36317819 4.7186692e-05 1 -0.00025945448 0.00019508472
0.21365172 -0.42527911 -0.3671785 -0.046731491 0.99889672 0.0046457862 0.0073517771
0.2233444 -0.42527911 -0.36416554 -0.32975444 0.94226563 -0.058288239 0.058632202
0.23941424 -0.42527908 -0.3685329 -0.55493599 0.83001906 -0.055806316 0.079354115
0.24001929 -0.42267108 -0.3619267 -0.76354104 0.63208449 -0.13219064 0.095503986
-0.23986763 -0.41109511 -0.3656266 0.95855057 0.26982757 -0.09150891 0.055358209
-0.23986764 -0.40428963 -0.36530361 0.9832167 0.1820735 -0.011582842 0.0347884
0.24001929 -0.40647185 -0.36663246 -0.98654026 0.15472607 -0.052898064 0.037458494
-0.23986763 -0.39144769 -0.36387956 1 0.00012964263 9.6708478e-05 0
0.24001929 -0.39497495 -0.36486599 -1 3.2462856e-05 6.8436661e-05 0
-0.23986763 -0.38442892 -0.36455184 1 5.2014057e-05 8.7146451e-05 0
0.24001928 -0.38473168 -0.36782226 -1 -3.893688e-05 4.3384189e-05 0
-0.23986761 -0.37683675 -0.36636367 1 -1.0163217e-05 8.6463624e-05 0
0.24001928 -0.37541899 -0.36565948 -1 5.1372615e-05 -4.2395073e-05 2.4952986e-05
-0.23986763 -0.36681238 -0.3662084 1 3.8024311e-05 2.6136056e-06 0
0.24001928 -0.36360988 -0.36473691 -1 3.8263959e-05 -5.7737161e-06 0
-0.23986764 -0.35577396 -0.36894211 1 0.00011473151 8.2055762e-05 0
0.24001929 -0.35476846 -0.36503094 -1 3.3128588e-05 -2.1733563e-06 8.6961954e-06
-0.23986763 -0.34525102 -0.36444345 1 5.2259089e-05 5.5063007e-05 0
0.24001931 -0.34624746 -0.36465013 -1 -0 -0 0
-0.23986763 -0.33103582 -0.36863056 1 4.7173082e-05 0.0001568044 0
0.24001929 -0.33906588 -0.36403173 -1 0 0 0
-0.23986761 -0.32938361 -0.36991459 1 1.4816084e-05 0.00012376755 0
0.24001929 -0.32167679 -0.36955732 -1 5.6872381e-05 2.8491504e-05 0
-0.23986763 -0.31470573 -0.36610126 1 -5.0564854e-06 7.9167243e-05 0
-0.23986761 -0.30252337 -0.36519653 1 -2.5206196e-05 7.0261471e-05 0
0.24001928 -0.30500773 -0.36655605 -1 -9.1116221e-05 1.6255104e-05 0
-0.23986764 -0.29446825 -0.36447513 1 7.1014118e-05 0.00012735165 0
0.24001929 -0.29516929 -0.36175025 -1 6.5799817e-05 5.8858459e-05 0
-0.23986763 -0.28545535 -0.36575574 1 3.6247417e-05 1.9096663e-06 0
0.24001929 -0.28918126 -0.36196995 -1 -0 -0 0
-0.23986763 -0.27692047 -0.36035016 1 7.0897651e-05 -1.9027195e-06 0
0.24001929 -0.27464536 -0.36842212 -1 0 0 9.5196783e-06
-0.23986763 -0.26312697 -0.36334482 1 -2.9166355e-05 0.0001177842 0
0.24001929 -0.26843894 -0.36655149 -1 -1.1533207e-05 -9.0185604e-05 0
-0.23986763 -0.25402251 -0.36642873 0.99999994 0.00014275145 0.00013913396 0
-0.23986763 -0.24507365 -0.36546329 1 0.0001287451 0.00013192778 0
-0.23986763 -0.23748031 -0.36420894 1 3.1812324e-05 9.6450312e-05 0
-0.23986763 -0.22076786 -0.3647626 1 3.2178737e-05 0.00015670146 0
0.24001929 -0.22278479 -0.36065257 -1 -3.7801512e-06 2.8793669e-05 0
-0.23986763 -0.21495545 -0.367733 1 3.7608814e-05 3.012291e-05 0
0.24001929 -0.21631269 -0.36651975 -1 4.3198001e-05 0.00013288815 0
-0.23986763 -0.20142354 -0.3656466 1 7.5370852e-05 3.0450097e-05 0
0.24001931 -0.20554613 -0.36573032 -1 4.2109183e-05 -4.1470371e-06 1.6612879e-05
-0.23986763 -0.19308937 -0.361494 1 1.7452357e-05 1.1195619e-06 0
-0.23986763 -0.1848826 -0.3620306 1 2.2216856e-05 3.1499218e-05 0
-0.23986763 -0.17499673 -0.36284184 1 5.9518707e-06 0.00015964363 0
0.24001929 -0.17230502 -0.36271456 -1 8.5480651e-06 9.5740608e-05 0
-0.23986763 -0.1638568 -0.36524189 1 3.4916065e-05 7.3769668e-05 0
0.24001928 -0.16672377 -0.36469257 -1 -1.5469808e-05 -1.5236439e-07 8.2938077e-06
-0.23986763 -0.15593 -0.36106724 1 2.8966469e-05 0.000143691 0
0.24001928 -0.15744093 -0.36313894 -1 -9.2881937e-06 -3.2990924e-05 8.7122698e-06
-0.23986763 -0.14394371 -0.3662008 1 2.0855965e-05 3.2353935e-05 0
0.24001929 -0.14285091 -0.36517233 -1 -0 -0 8.1332746e-06
-0.23986763 -0.13112952 -0.36817205 1 1.2454161e-05 0.0001403753 0
0.24001928 -0.1259314 -0.36494508 -1 -5.6394297e-06 -2.6207772e-05 0
-0.23986763 -0.11798244 -0.36885345 1 3.2004926e-05 0.00015212045 0
0.24001929 -0.11580736 -0.36147082 -1 7.6913402e-06 3.0496543e-07 0
0.24001929 -0.10378724 -0.36770195 -1 9.0718158e-06 3.5411187e-05 0
-0.23986763 -0.091811009 -0.36562645 0.99999994 -9.4191837e-06 0.00017323425 0
0.24001929 -0.094451621 -0.3658672 -1 -1.0097381e-07 9.0694884e-05 0
-0.23986763 -0.08507663 -0.36934036 1 1.1676002e-05 5.9170332e-05 0
0.24001929 -0.086691454 -0.36555481 -1 -2.3762197e-05 0.00012598011 0
-0.23986763 -0.078869313 -0.36615932 1 -2.7953424e-06 7.7119024e-05 0
0.24001929 -0.071591653 -0.36678806 -1 1.4123875e-05 -1.4288926e-06 0
-0.23986763 -0.064170338 -0.36394972 1 2.0620213e-05 3.279476e-05 0
0.24001929 -0.063364968 -0.36467826 -1 -3.9506026e-06 3.4577755e-05 0
-0.23986763 -0.059350438 -0.36397427 1 1.1025785e-05 0.0001127125 0
0.24001931 -0.052238271 -0.36061504 -1 1.0746411e-05 3.9914317e-05 0
-0.23986763 -0.048372198 -0.36054063 1 7.8353369e-06 5.790159e-05 0
-0.23986763 -0.034001678 -0.36490318 1 8.3212433e-07 0.00015201236 0
0.24001929 -0.033828549 -0.36483589 -1 -3.945815e-06 -5.5435549e-07 0
-0.23986763 -0.026868371 -0.36510611 1 1.125573e-05 4.2788095e-05 0
0.24001929 -0.025194552 -0.36448684 -1 1.3251533e-05 0.00014571293 9.6328322e-06
-0.23986763 -0.016292175 -0.36536548 1 1.5507118e-06 3.7094997e-05 0
0.24001929 -0.012649722 -0.36974087 -1 2.645203e-06 3.9282375e-05 0
-0.23986763 -0.0048736297 -0.36423889 1 -5.3860126e-06 8.8467437e-05 0
