# .PCD v0.7 - Point Cloud Data file format
VERSION 0.7
FIELDS x y z normal_x normal_y normal_z curvature
SIZE 4 4 4 4 4 4 4
TYPE F F F F F F F
COUNT 1 1 1 1 1 1 1
WIDTH 624
HEIGHT 1
VIEWPOINT 0 0 0 1 0 0 0
POINTS 624
DATA ascii
-0.0051013664 -0.14784388 -0.096351162 -1.0919312e-06 0.96987462 0.2436045 0
0.0074989088 -0.14849176 -0.093771785 1.525203e-07 0.969872 0.24361511 2.3377588e-05
0.014246213 -0.14881259 -0.092494547 9.1665527e-07 0.96987009 0.24362248 0
0.025827423 -0.14803779 -0.095579177 -4.9456203e-06 0.96987116 0.24361861 3.4557472e-06
0.036181573 -0.14846365 -0.093883812 -1.5378617e-06 0.96987164 0.24361649 0
0.046435524 -0.14817098 -0.095048919 2.8475238e-06 0.96987134 0.24361779 1.7610228e-05
0.053304553 -0.14838597 -0.094193019 -2.0444536e-06 0.96987277 0.24361201 0
0.061482329 -0.14795408 -0.095912434 2.7480826e-06 0.9698745 0.24360515 2.3740575e-05
0.074789785 -0.1489493 -0.091950312 -3.4846505e-06 0.969872 0.24361493 2.4749349e-06
0.084231496 -0.14855181 -0.093532763 -1.0205601e-05 0.96986908 0.24362692 0
0.092998095 -0.14798065 -0.095806658 1.0752075e-05 0.96986848 0.24362895 1.7665893e-06
0.10576522 -0.14761114 -0.097277783 -3.887701e-06 0.96986818 0.24363016 0
0.11510053 -0.14785917 -0.096290231 -7.776408e-06 0.96986789 0.24363151 0
0.12530977 -0.1485087 -0.09370444 2.1706379e-05 0.96987236 0.2436135 4.327328e-06
0.14416486 -0.14801636 -0.095664449 -0.15347899 0.94536918 0.287613 0.025284233
0.16585141 -0.14415888 -0.093354523 -0.83575797 0.52169895 0.17128573 0.076862507
-0.16686225 -0.13223073 -0.096307188 0.96652108 0.25489819 0.029392086 0.052267261
0.16686225 -0.13559619 -0.096075796 -0.88801861 0.42104939 0.184771 0.067850955
-0.16686225 -0.12816654 -0.095044024 0.97996205 0.19432342 0.043734659 0.038275264
0.16686225 -0.12688899 -0.093568139 -0.99058288 0.12257688 0.060995489 0.018917745
-0.16686225 -0.11533797 -0.095391311 0.99998999 0.0044497857 0.00050627365 3.9283052e-05
0.16686225 -0.11521971 -0.094556093 -0.99997753 0.006700784 -0.00023014762 6.7878849e-05
-0.16686225 -0.10504798 -0.096665911 1 8.6615055e-06 -9.4955294e-06 0
0.16686225 -0.104906 -0.092735656 -1 -7.8994481e-06 8.0449017e-06 0
-0.16686225 -0.094787255 -0.097064853 1 9.4809193e-06 -1.2222511e-05 0
0.16686225 -0.094130516 -0.094904378 -1 -9.8151513e-06 9.7354896e-06 0
-0.16686225 -0.085127562 -0.093707956 1 5.8411865e-06 2.4622213e-05 0
0.16686225 -0.085943282 -0.095147431 -1 -1.1616888e-05 1.865354e-05 0
-0.16686225 -0.074509807 -0.093740784 1 3.0575036e-05 1.3367769e-05 0
0.16686225 -0.075461209 -0.094123192 -1 3.7513396e-07 4.0109326e-06 0
-0.16686225 -0.065470956 -0.096173577 1 5.9392432e-06 1.7489641e-05 0
0.16686225 -0.065669507 -0.096491113 -1 7.3449328e-06 -6.8199802e-06 0
-0.16686225 -0.057248913 -0.090213656 1 1.0656267e-05 3.0655148e-05 0
-0.16686225 -0.043527227 -0.092540048 1 6.7235674e-06 2.1050664e-05 0
0.16686225 -0.04107663 -0.092530839 -1 5.9830481e-06 3.2777388e-07 0
-0.16686225 -0.034916695 -0.095501281 1 2.414225e-06 6.7547039e-06 0
0.16686225 -0.036717981 -0.096271433 -1 7.434493e-06 1.6165748e-05 0
-0.16686225 -0.021228299 -0.09669324 1 3.2879714e-06 9.1175998e-06 0
0.16686225 -0.021393184 -0.095889494 -1 -6.1042789e-07 1.0179937e-05 0
-0.16686225 -0.01413377 -0.094867446 1 -1.0535168e-06 8.7472035e-06 0
0.16686225 -0.013498998 -0.092437185 -1 1.4110263e-06 1.4847571e-05 0
-0.16686225 -0.0040421188 -0.095463172 1 5.322841e-07 6.7333189e-10 0
0.16686225 -0.00019585434 -0.098771594 -1 9.3922023e-07 8.0691971e-06 0
-0.16686225 0.0045429636 -0.096251033 1 1.8862396e-06 9.4242541e-06 0
0.16686225 0.0060076453 -0.095242575 -1 -6.0156276e-06 3.1829659e-05 0
-0.16686225 0.015819484 -0.096540064 1 1.4131373e-06 -1.0809158e-05 0
0.16686225 0.013594587 -0.095115654 -1 -2.3799334e-06 1.5320238e-07 0
-0.16686225 0.02848535 -0.091160178 1 -4.5699735e-06 1.4571813e-05 0
0.16686225 0.024192603 -0.096037142 -1 -2.4377712e-06 1.6319142e-05 0
-0.16686225 0.034599382 -0.094126225 1 -1.1455791e-06 9.8945338e-06 0
0.16686225 0.035507895 -0.09396404 -1 1.3644778e-07 9.2863356e-06 0
-0.16686225 0.04683283 -0.095736727 1 -0 -0 0
-0.16686225 0.05397867 -0.095225446 1 -9.4974475e-06 8.8254737e-06 0
0.16686225 0.057695389 -0.098889157 -1 -7.509479e-06 2.57479e-07 0
-0.16686225 0.068091795 -0.091992177 1 -1.3410357e-05 5.1557518e-06 0
0.16686225 0.067433238 -0.092426613 -1 -4.5324368e-06 -3.8254725e-06 0
-0.16686225 0.073938228 -0.093868487 1 -1.474594e-05 -3.4052402e-06 0
0.16686225 0.075927846 -0.097103074 -1 -8.3691375e-06 8.3098248e-06 0
-0.16686225 0.084444053 -0.094117373 1 -8.1473927e-06 1.2500921e-05 0
0.16686225 0.086069271 -0.09663745 -1 2.0897708e-06 1.5481712e-05 0
-0.16686225 0.096740969 -0.092632249 1 -1.4945485e-05 1.5292146e-05 0
0.16686225 0.098924249 -0.091767743 -1 -1.6169257e-05 2.1365759e-05 0
-0.16686225 0.10323052 -0.096258223 1 -5.6121048e-06 1.4606885e-05 0
0.16686225 0.10182904 -0.095169187 -1 2.4442686e-06 2.2204984e-05 0
-0.16686225 0.11677901 -0.091347747 1 -3.3169341e-05 1.2520742e-05 0
0.16686225 0.1150004 -0.096324265 -1 -2.453106e-05 3.7619393e-06 0
-0.16686225 0.12274344 -0.096145093 1 -1.724522e-05 3.7269845e-05 0
0.16686225 0.12407409 -0.092800826 -1 -1.790571e-05 1.709923e-05 0
-0.16686225 0.13741416 -0.095368482 1 -8.5502215e-06 3.0360839e-05 0
0.16686225 0.13881284 -0.097263701 -1 -5.0667062e-05 1.6169939e-05 0
-0.16686225 0.14283442 -0.094568692 1 1.0532219e-06 1.6941523e-05 0
0.16686225 0.14059232 -0.099412873 -1 -1.7370503e-05 1.920827e-05 0
0.16686225 0.15532669 -0.097067013 -1 -5.4421369e-05 2.2919903e-05 0
-0.16686225 0.16590647 -0.097116433 0.99998683 -0.0046326998 -0.0021969774 3.7321512e-05
0.16686225 0.16455156 -0.095029652 -1 -2.3920718e-05 1.2500035e-05 0
-0.16686225 0.17343226 -0.094260767 0.99454552 -0.09062469 -0.051636837 0.013238598
0.16686225 0.1704112 -0.094119385 -0.99704385 -0.068680421 -0.034445666 0.0077822055
-0.16686225 0.18042767 -0.096587986 0.95413983 -0.2887499 -0.078998566 0.060624763
0.16686225 0.18302394 -0.095398031 -0.92916399 -0.3633759 -0.067913756 0.068620801
-0.16612819 0.19484012 -0.096249618 0.69147903 -0.70392239 -0.16232683 0.079665996
-0.15616743 0.19569826 -0.094165139 0.41995212 -0.87580061 -0.23793574 0.057107396
-0.14405744 0.19649947 -0.097354859 0.12680465 -0.9624505 -0.24002008 0.018929817
-0.13649155 0.19620919 -0.096199147 0.0064329118 -0.96983182 -0.24369028 9.3376788e-05
-0.12345981 0.19578397 -0.094506264 -1.2623393e-05 -0.96987325 -0.24361016 0
-0.11470621 0.1958297 -0.094688401 -5.8557497e-08 -0.96987367 -0.24360831 4.7052927e-06
-0.1014653 0.19600698 -0.095394164 1.1749456e-05 -0.96987158 -0.24361673 2.6611579e-06
-0.095977664 0.19623406 -0.096298173 -1.7028671e-06 -0.96987343 -0.24360929 0
-0.08765731 0.19642054 -0.097040497 4.6237909e-07 -0.96987331 -0.24360964 0
-0.073765628 0.19618289 -0.096094489 -7.9279989e-06 -0.96986413 -0.24364631 2.6591788e-05
-0.065999202 0.19547437 -0.093273699 -3.632467e-06 -0.96987832 -0.24359015 0
-0.058188435 0.19544213 -0.093145333 1.4678997e-05 -0.96987623 -0.24359825 0
-0.045683987 0.1958929 -0.094940022 -1.9624852e-06 -0.96987861 -0.24358882 0
-0.039374225 0.19711527 -0.099806458 1.3071347e-06 -0.96987683 -0.24359575 0
-0.025531018 0.19570318 -0.094184682 -3.824829e-06 -0.96986842 -0.24362908 0
-0.01409933 0.19608404 -0.095700905 1.826994e-06 -0.96987355 -0.2436087 0
-0.0026456797 0.19603235 -0.095495105 1.654201e-06 -0.9698658 -0.24364015 2.0071522e-05
0.0045400769 0.19568874 -0.094127201 -1.3977929e-07 -0.96986806 -0.24363056 7.5729995e-06
0.01248363 0.1959978 -0.095357634 2.8831039e-07 -0.96987301 -0.24361114 0
0.02613448 0.19577876 -0.094485521 -3.7745037e-06 -0.9698689 -0.24362774 0
0.034510147 0.19587485 -0.094868146 -5.9263057e-06 -0.96987224 -0.24361406 0
0.046370305 0.19631487 -0.096619919 2.4264273e-06 -0.96986526 -0.24364202 8.2182323e-06
0.053382471 0.19613831 -0.095916964 -2.4484982e-06 -0.96986842 -0.2436294 0
0.066401951 0.19580941 -0.094607577 -1.565588e-05 -0.96987545 -0.24360153 0
0.07351172 0.19573662 -0.094317824 -1.3704503e-05 -0.96987325 -0.24361029 0
0.094466634 0.19551972 -0.093454264 1.5196899e-06 -0.96987253 -0.24361283 0
0.10190563 0.19524732 -0.092369817 2.3927309e-05 -0.96987242 -0.24361329 2.7174636e-05
0.11263613 0.19596511 -0.09522751 -1.6534128e-05 -0.96987253 -0.24361293 6.7591495e-06
0.12120837 0.19589721 -0.094957143 7.3551801e-06 -0.96986723 -0.24363412 0
0.13983008 0.19582336 -0.094663084 -0.049136844 -0.96829224 -0.24494006 0.0096204551
0.14786033 0.19679993 -0.098551005 -0.17109486 -0.9556163 -0.23984177 0.028539399
0.1519465 0.1964868 -0.097304381 -0.35049349 -0.91115081 -0.21669945 0.05861567
0.16468975 0.19471654 -0.095126793 -0.64081001 -0.75322509 -0.14837296 0.081858076
-0.16367455 -0.15153547 -0.081654333 0.72338325 0.66425109 0.18838044 0.086927652
-0.15797871 -0.15178916 -0.08064431 0.52606273 0.81234246 0.25170958 0.091778748
-0.13419445 -0.15062943 -0.085261434 1.6062262e-05 0.96987343 0.24360919 0
-0.11575951 -0.15136221 -0.082344115 1.4479328e-05 0.96987128 0.24361786 0
-0.10500261 -0.15115087 -0.083185494 2.9161984e-06 0.96987748 0.24359322 1.089095e-05
-0.094922006 -0.15061691 -0.085311264 -3.2319942e-06 0.96987349 0.24360888 4.4790095e-06
-0.085360587 -0.1510189 -0.083710887 2.8254324e-06 0.9698717 0.24361585 1.7395628e-07
-0.077043146 -0.15097587 -0.083882198 -8.8726692e-06 0.96987271 0.24361229 1.8548108e-05
-0.065707996 -0.15072119 -0.08489611 -7.8971675e-07 0.96987355 0.24360895 0
-0.054806024 -0.15070845 -0.084946781 6.3517297e-07 0.96987408 0.24360691 0
-0.042943358 -0.15095541 -0.083963633 2.0615651e-07 0.96987605 0.24359898 2.3769974e-07
-0.034879696 -0.1513107 -0.082549155 -5.7803036e-06 0.96987253 0.24361318 1.2089335e-05
-0.021966679 -0.15179957 -0.080602877 -3.5034429e-06 0.96987098 0.2436192 0
-0.012190975 -0.15146175 -0.081947826 2.2584915e-07 0.9698717 0.24361646 4.9066034e-06
-0.0055978931 -0.15128206 -0.082663223 6.6523512e-07 0.96987224 0.2436142 4.907266e-06
0.013093347 -0.15100472 -0.083767354 -1.5067876e-07 0.96987015 0.24362245 0
0.024839979 -0.15118128 -0.0830644 3.2244022e-06 0.96987337 0.2436095 2.3234037e-05
0.037716389 -0.15127122 -0.082706347 -4.3205864e-06 0.96987152 0.24361704 5.1368152e-06
0.046230413 -0.15077886 -0.084666476 -1.5671591e-06 0.96986938 0.2436257 6.9835273e-06
0.052825846 -0.15042266 -0.086084604 -6.5836707e-07 0.96987236 0.2436135 0
0.064914547 -0.1506047 -0.085359849 2.5709495e-08 0.96986818 0.2436303 0
0.074104019 -0.15090571 -0.084161498 6.2730765e-06 0.9698711 0.24361891 4.6824325e-06
0.081563227 -0.15062423 -0.085282132 5.4388425e-07 0.96986854 0.24362884 6.8987915e-06
0.096392535 -0.15146029 -0.081953667 -6.6252863e-07 0.96987271 0.24361229 1.7946157e-06
0.10313687 -0.15190846 -0.08016941 2.7578124e-06 0.96987021 0.2436222 0
0.11677405 -0.15094838 -0.083991677 8.897925e-06 0.9698714 0.2436174 0
0.12920386 -0.15028039 -0.086651042 -2.1296066e-06 0.96986836 0.24362952 0
0.15688926 -0.15182315 -0.080509037 -0.50992548 0.82293755 0.25049889 0.079833724
0.16517848 -0.15077646 -0.084530041 -0.6663723 0.70655906 0.23816451 0.078759611
-0.1661467 -0.14538978 -0.087964199 0.83082944 0.5460192 0.10763636 0.073382959
-0.12632273 -0.14966616 -0.089096352 -1.0358181e-05 0.96986681 0.24363574 0
-0.11982886 -0.14946219 -0.089908399 -3.1730506e-06 0.96987247 0.24361323 1.3954098e-05
-0.10402548 -0.14971963 -0.088883512 -3.2312785e-06 0.96987355 0.24360876 8.4120222e-07
-0.082494527 -0.14976275 -0.088711813 -1.0578075e-05 0.96987075 0.24361993 0
-0.073750339 -0.14973928 -0.088805296 -4.3875093e-06 0.96986943 0.24362533 7.2224875e-06
-0.061336651 -0.14991984 -0.088086411 4.5523839e-06 0.96987057 0.24362071 0
-0.045911282 -0.14967421 -0.089064315 -1.4788625e-06 0.96987265 0.24361248 0
-0.023888256 -0.14980422 -0.088546678 -2.0476534e-06 0.96987182 0.2436157 0
-0.017755199 -0.14986216 -0.088316113 -4.8553129e-06 0.96987599 0.24359915 4.7647823e-06
0.023550704 -0.14984691 -0.088376768 2.2223612e-06 0.96987182 0.24361573 1.9220473e-05
0.034579098 -0.14972918 -0.088845514 -2.61585e-06 0.96987027 0.24362198 0
0.049152195 -0.14965561 -0.089138389 -4.7830222e-06 0.96986765 0.24363236 0
0.063503765 -0.14983281 -0.088432878 -1.118064e-06 0.96987134 0.24361755 0
0.079921022 -0.14993513 -0.088025585 9.4347015e-06 0.96987432 0.24360573 8.6297614e-06
0.083188191 -0.14972751 -0.088852122 1.1435315e-05 0.96987259 0.24361265 8.6961472e-06
0.11383654 -0.14987126 -0.088279821 1.4762196e-06 0.96987057 0.24362072 4.4262683e-06
0.16686225 -0.14857054 -0.081022069 -0.81306934 0.56507802 0.14001851 0.066655517
-0.16686225 -0.13815215 -0.08497414 0.95064127 0.28366482 0.12575909 0.061035648
0.16686225 -0.13403061 -0.084620498 -0.97974819 0.19007225 0.062976889 0.039081756
-0.16686225 -0.12509692 -0.085253403 0.99213147 0.11501725 0.049459442 0.014479533
0.16686225 -0.12741134 -0.088239864 -0.9956848 0.090850651 0.018917026 0.011688364
-0.16686225 -0.11277324 -0.08983925 1 -8.7479093e-06 9.3223844e-06 0
0.16686225 -0.1161832 -0.084701695 -0.99998564 0.0051166359 0.0015964635 7.3107665e-05
-0.16686225 -0.10473987 -0.083430506 1 1.5519656e-05 1.6893342e-05 0
0.16686225 -0.10507238 -0.085706748 -1 1.7346523e-05 4.4327426e-06 0
-0.16686225 -0.092220426 -0.084689036 1 -2.7244243e-07 4.5528341e-06 0
0.16686225 -0.094350845 -0.081367254 -1 8.2644719e-06 -6.4977525e-07 0
-0.16686225 -0.081844047 -0.089261599 1 8.325248e-06 8.8134493e-06 0
0.16686225 -0.084895186 -0.08676523 -1 -1.2343769e-05 1.2132778e-05 0
-0.16686225 -0.076929413 -0.082991295 1 1.9478211e-05 1.6732161e-05 0
0.16686225 -0.07431145 -0.08607316 -1 -9.6295435e-07 8.2869055e-06 0
-0.16686225 -0.064903781 -0.08621677 1 8.5851862e-06 1.6718499e-05 0
0.16686225 -0.066769108 -0.08001864 -1 8.0089403e-06 4.0855498e-06 0
-0.16686225 -0.055311989 -0.087005861 1 1.036687e-05 2.4813082e-05 0
0.16686225 -0.055649336 -0.085736692 -1 -3.4825794e-06 -4.7387374e-07 0
-0.16686225 -0.04399031 -0.085983276 1 6.4842188e-06 7.5616113e-06 0
0.16686225 -0.043591928 -0.084310465 -1 2.1154297e-06 -2.5618283e-07 0
-0.16686225 -0.031635318 -0.085678548 1 3.0910091e-06 1.8909081e-05 0
0.16686225 -0.034738339 -0.083728701 -1 2.8802533e-06 7.3966971e-06 0
-0.16686225 -0.027497707 -0.085630827 1 1.6360893e-06 5.168863e-06 0
0.16686225 -0.025479073 -0.084692098 -1 4.2287329e-06 9.0812573e-06 0
0.16686225 -0.015108461 -0.082169056 -1 2.4492776e-06 7.7009663e-06 0
-0.16686225 -0.0043817991 -0.084638759 1 2.1312267e-06 1.0674124e-05 0
0.16686225 -0.0070480718 -0.084138177 -1 3.9842385e-07 9.9872404e-06 0
-0.16686225 0.0045845476 -0.082345486 1 -1.1569471e-06 1.1431918e-05 0
0.16686225 0.0057355557 -0.084890135 -1 -2.6659649e-07 1.0218547e-08 0
0.16686225 0.015511733 -0.085570037 -1 -5.4610682e-06 2.4285811e-05 0
-0.16686225 0.025471691 -0.08546187 1 1.3145082e-06 -9.2730033e-06 0
0.16686225 0.024406061 -0.083639242 -1 -6.4292926e-06 1.6914932e-05 0
-0.16686225 0.037555806 -0.084122963 1 -4.230355e-06 5.6133967e-08 0
0.16686225 0.034542248 -0.086404778 -1 -5.327026e-06 1.280913e-05 0
-0.16686225 0.046609096 -0.086737439 1 0 0 0
0.16686225 0.045034606 -0.085492387 -1 -8.9669538e-06 1.5689022e-05 0
-0.16686225 0.057406522 -0.086810865 1 -1.3440108e-05 1.029278e-05 0
0.16686225 0.055191163 -0.08531791 -1 -8.5424172e-06 1.1559231e-05 0
-0.16686225 0.065954931 -0.083606593 1 -4.8314446e-06 -4.1877156e-06 0
0.16686225 0.06058313 -0.082417458 -1 -4.3281343e-06 8.3145223e-06 0
-0.16686225 0.078143783 -0.083478503 1 -2.2926582e-05 8.4388903e-06 0
0.16686225 0.073928848 -0.080832809 -1 -6.8162217e-06 1.2024844e-05 0
-0.16686225 0.082216971 -0.085230313 1 -2.2431168e-06 -1.503457e-05 0
0.16686225 0.084060945 -0.085705332 -1 2.2750239e-06 1.9028479e-05 0
-0.16686225 0.097031668 -0.084248461 1 -7.0852393e-06 1.3292916e-05 0
0.16686225 0.09402819 -0.084799148 -1 -4.5187795e-07 4.986608e-06 0
-0.16686225 0.10506123 -0.085058577 1 -2.577214e-05 5.9336176e-06 0
0.16686225 0.10003784 -0.082131118 -1 -1.1741614e-07 8.0438822e-06 0
-0.16686225 0.11509584 -0.08734718 1 -2.9867373e-05 1.8442065e-06 0
0.16686225 0.11531397 -0.086051963 -1 -1.6188018e-05 1.3150939e-05 0
-0.16686225 0.12759112 -0.08222305 1 -4.5983827e-05 2.8794116e-06 0
0.16686225 0.12487736 -0.083317302 -1 -2.4638315e-05 2.2487122e-05 0
-0.16686225 0.13377759 -0.085859232 1 -2.747783e-05 1.0986796e-05 0
0.16686225 0.13643894 -0.085405499 -1 -4.0161834e-05 7.0943242e-06 0
-0.16686225 0.14786991 -0.082908675 1 -1.7436199e-05 9.5041878e-06 0
0.16686225 0.14270529 -0.084575206 -1 -2.6435389e-05 3.3334243e-06 0
-0.16686225 0.15665032 -0.085000321 0.99999636 -0.0025154229 -0.00095757813 0
0.16686225 0.15782863 -0.085383371 -1 -1.7847527e-05 2.4145651e-05 0
-0.16686225 0.16202021 -0.084851421 0.99999678 -0.0021001445 -0.0014064822 0
0.16686225 0.16597815 -0.082349546 -0.99129844 -0.12757964 -0.032418795 0.018306475
-0.16686225 0.17531382 -0.086936496 0.95757091 -0.25638866 -0.13161641 0.051805817
0.16686225 0.1745424 -0.086430833 -0.9791227 -0.19149642 -0.068175077 0.031108025
-0.16686225 0.18571115 -0.085541219 0.83995408 -0.51407248 -0.17380056 0.075033292
0.16686225 0.18116985 -0.086440422 -0.93383271 -0.33654776 -0.12121145 0.061349478
-0.16686225 0.19167913 -0.084337831 0.78188431 -0.59250247 -0.19390161 0.07708016
-0.14457464 0.1933369 -0.084764145 0.14502892 -0.95990944 -0.23987569 0.029001873
-0.13584137 0.19308384 -0.0837567 2.4896337e-05 -0.96987408 -0.24360707 0
-0.12967345 0.19248575 -0.081375554 -5.1718425e-06 -0.96986777 -0.24363187 2.4061423e-05
-0.11589068 0.19309607 -0.083805405 1.1217249e-06 -0.96987534 -0.24360165 4.0035707e-06
-0.10754061 0.19296129 -0.083268791 -1.4624301e-05 -0.96986914 -0.24362631 9.1340744e-06
-0.094942108 0.19296885 -0.083298884 5.1333118e-06 -0.96987408 -0.24360672 0
-0.082923248 0.19342804 -0.085127011 -7.9267147e-06 -0.96986699 -0.24363503 2.4157527e-05
-0.074487515 0.19357003 -0.085692272 1.254478e-06 -0.96987426 -0.24360622 0
-0.064091988 0.19325206 -0.084426336 2.0607115e-06 -0.96987569 -0.24360022 0
-0.054222699 0.19387257 -0.086896755 -1.1120206e-06 -0.9698692 -0.24362619 0
-0.043274868 0.19320305 -0.084231257 -8.1483058e-06 -0.96987337 -0.24360974 0
-0.035497595 0.19289103 -0.082989052 4.9017735e-06 -0.96987563 -0.24360079 0
-0.024727454 0.19313094 -0.083944127 -2.4907825e-07 -0.96986949 -0.24362499 0
-0.015527244 0.19319952 -0.084217161 1.5408519e-08 -0.96986914 -0.24362613 1.0581016e-05
-0.0056913993 0.19355047 -0.085614383 5.0366316e-07 -0.96987212 -0.24361449 0
0.0057181302 0.19346841 -0.085287668 8.4317952e-07 -0.96986747 -0.24363342 1.8189354e-05
0.012910418 0.19252992 -0.081551328 -1.2445852e-07 -0.9698683 -0.24362984 6.0261591e-06
0.024940059 0.19333613 -0.084761031 1.5412299e-07 -0.96986824 -0.24363005 0
0.036505062 0.1940967 -0.087789036 -3.4056345e-06 -0.96987134 -0.24361765 0
0.045906939 0.19381341 -0.08666116 -2.4967424e-06 -0.96986914 -0.24362642 9.810482e-06
0.057088822 0.19319193 -0.084186889 9.358434e-06 -0.9698686 -0.24362856 1.8541275e-05
0.067086525 0.19350588 -0.085436888 -1.4952037e-05 -0.96987134 -0.2436178 0
0.074257553 0.19370404 -0.086225748 8.8860925e-06 -0.96986908 -0.24362685 0
0.085866511 0.19273378 -0.082363017 -1.2779531e-05 -0.96987426 -0.24360631 0
0.099643521 0.19378471 -0.086546868 3.4017703e-06 -0.96987593 -0.24359941 5.6659401e-06
0.10566537 0.19348975 -0.085372649 -1.9213288e-05 -0.96987045 -0.24362123 8.6449209e-06
0.11409024 0.19347227 -0.085303031 8.7778399e-06 -0.96986753 -0.2436329 1.5940144e-05
0.12520333 0.19315752 -0.084049992 8.6605714e-06 -0.96987146 -0.24361703 3.9928132e-06
0.13364947 0.19310589 -0.08384452 -1.2315831e-05 -0.96987396 -0.24360725 2.0800553e-07
0.1564087 0.19367544 -0.086111918 -0.4886775 -0.82747996 -0.27653435 0.077299707
0.16463138 0.19338208 -0.0859892 -0.64576113 -0.72878087 -0.22775203 0.073586851
-0.16471574 -0.15253593 -0.074242376 0.80702877 0.57540148 0.13273183 0.089933291
-0.1546683 -0.15323162 -0.07490164 0.30732468 0.93379599 0.18323858 0.061920147
-0.14188078 -0.15376514 -0.072777674 0.06795577 0.96567506 0.25070655 0.0074589108
-0.13383341 -0.15325624 -0.07480368 1.3939942e-05 0.96987057 0.24362056 0
-0.12530029 -0.15211602 -0.079343028 -9.6833344e-07 0.96987063 0.24362065 0
-0.11085276 -0.15441701 -0.070182443 -5.7874189e-07 0.96987355 0.24360876 0
-0.10365785 -0.15263581 -0.077273652 4.421493e-06 0.96987236 0.24361387 4.0245368e-07
-0.095174164 -0.15430661 -0.070621982 5.838981e-06 0.96987087 0.24361983 0
-0.080720603 -0.15299684 -0.075836346 5.1416691e-06 0.9698723 0.24361408 0
-0.075061202 -0.15310813 -0.075393267 8.5014008e-06 0.9698723 0.24361376 0
-0.067217201 -0.15314502 -0.075246483 1.044706e-05 0.9698714 0.24361727 0
-0.055931229 -0.15359792 -0.073443383 -6.0008824e-06 0.96987391 0.24360734 2.1353433e-05
-0.046093218 -0.15314575 -0.075243577 -4.7119324e-06 0.96987224 0.24361427 1.1155214e-05
-0.035113886 -0.15261173 -0.077369504 2.7238545e-06 0.96987098 0.24361907 0
-0.025390569 -0.15285474 -0.076402038 -9.4610486e-06 0.96987313 0.24361077 2.470875e-05
-0.017439447 -0.15354308 -0.073661678 -1.6962766e-06 0.96987206 0.24361485 0
0.0068779662 -0.15438829 -0.070296749 -1.4483946e-06 0.96987122 0.24361806 0
0.018823482 -0.15379837 -0.072645396 -1.1695805e-06 0.96987462 0.24360472 8.6547843e-06
0.025554862 -0.1533412 -0.074465342 2.9249813e-06 0.96986967 0.24362449 2.1659034e-07
0.033495065 -0.15210408 -0.07939063 -2.7383692e-06 0.96987063 0.24362056 0
0.048010044 -0.15347314 -0.073940136 3.9998031e-06 0.96987194 0.24361518 2.0596897e-07
0.056995641 -0.15264955 -0.077219032 -3.6806696e-06 0.96987391 0.24360746 4.2262272e-06
0.064604715 -0.15254548 -0.077633284 -5.9970421e-06 0.96986949 0.24362493 0
0.07310012 -0.15312392 -0.075330488 6.6286025e-06 0.96987122 0.24361803 1.0861102e-05
0.086512305 -0.15270814 -0.076985687 -2.0763284e-06 0.96987307 0.24361105 0
0.097321019 -0.15416434 -0.071188346 -5.2456048e-06 0.96987116 0.24361861 0
0.10656027 -0.15352264 -0.073743045 -2.1884396e-05 0.96987027 0.24362177 0
0.11538623 -0.15286294 -0.076369502 -5.8800202e-07 0.96987325 0.24361031 0
0.12565614 -0.15271692 -0.076950833 6.2347208e-06 0.96986991 0.24362345 1.335414e-05
0.13698864 -0.1519791 -0.079888135 -0.0023692253 0.96986824 0.2436188 3.7401664e-05
0.14447445 -0.15289539 -0.076240227 -0.11501004 0.95704514 0.26615274 0.019505437
0.15398802 -0.15320408 -0.075011283 -0.37182122 0.89360422 0.25143683 0.085515782
0.16344349 -0.15291245 -0.074244268 -0.65924662 0.70843595 0.25201657 0.079773434
-0.16686225 -0.14565089 -0.076218776 0.8653748 0.49294046 0.090200864 0.071832977
0.16686225 -0.14588907 -0.074600637 -0.90620661 0.42126739 0.036378257 0.063329853
-0.16686225 -0.13384825 -0.076570913 0.98934674 0.14336717 0.025276747 0.022309974
0.16686225 -0.13770026 -0.074437603 -0.96391064 0.26590562 -0.013059666 0.057257004
-0.16686225 -0.12452453 -0.074969448 0.99836838 0.05572626 0.012459106 0.0058067134
0.16686225 -0.12652807 -0.075289525 -0.99528766 0.09696576 0.00015963589 0.014328283
-0.16686225 -0.11372785 -0.073743358 1 1.7359291e-05 7.0754486e-06 0
-0.16686225 -0.10473748 -0.075385019 1 7.9672727e-06 1.4053226e-05 0
0.16686225 -0.10806662 -0.076941378 -1 1.6684609e-05 1.550068e-05 0
-0.16686225 -0.091139786 -0.078418322 1 7.0708152e-06 1.625868e-05 0
0.16686225 -0.09513732 -0.074582532 -1 1.7782142e-05 1.0624136e-05 0
-0.16686225 -0.08186467 -0.07078965 1 4.9527453e-06 -4.5171109e-06 0
0.16686225 -0.082507648 -0.073687837 -1 1.2651585e-05 -1.2361106e-06 0
-0.16686225 -0.076646701 -0.077822171 1 1.2948647e-05 9.0963958e-06 0
0.16686225 -0.076150425 -0.076241888 -1 -5.0007698e-06 1.3517813e-05 0
-0.16686225 -0.063127138 -0.078734927 1 1.6201166e-05 5.5634955e-06 0
0.16686225 -0.06604588 -0.07516779 -1 -1.4156217e-06 9.8073915e-06 0
-0.16686225 -0.052722443 -0.078561097 1 -3.8217618e-07 2.0411506e-05 0
0.16686225 -0.056740139 -0.076715276 -1 2.1052838e-06 9.5776977e-06 0
-0.16686225 -0.044305317 -0.073329434 1 6.7530755e-06 8.6462333e-06 0
0.16686225 -0.045461297 -0.073788293 -1 -4.1972844e-06 -5.3932463e-06 0
-0.16686225 -0.033573952 -0.07122124 1 1.3502319e-07 1.1774008e-05 0
0.16686225 -0.036760144 -0.072389834 -1 -5.0877857e-06 4.2697829e-06 0
-0.16686225 -0.024995601 -0.078125484 1 2.1566041e-06 4.0131415e-08 0
0.16686225 -0.029149722 -0.077617727 -1 1.5457066e-06 2.1842177e-05 0
-0.16686225 -0.017455604 -0.078398228 1 3.5596315e-06 2.5954532e-05 0
0.16686225 -0.016115913 -0.074496605 -1 3.2522253e-06 1.3232057e-05 0
-0.16686225 -0.0048225163 -0.076984406 1 1.2516624e-06 8.4064977e-06 0
0.16686225 -0.0055146995 -0.073846295 -1 2.9518944e-06 1.05462e-05 0
-0.16686225 0.0056947442 -0.077083543 1 2.9198492e-07 -1.6052812e-05 0
0.16686225 0.0039212233 -0.074800737 -1 4.549704e-07 1.0650465e-05 0
-0.16686225 0.011977553 -0.075795308 1 8.3002578e-07 4.8508591e-06 0
0.16686225 0.01756284 -0.073239043 -1 -1.9323911e-06 4.3682544e-06 0
-0.16686225 0.027647503 -0.074341707 1 -2.9953974e-06 -1.893503e-05 0
0.16686225 0.026111096 -0.074264258 -1 -6.9990078e-06 1.0707479e-05 0
0.16686225 0.035869014 -0.075579189 -1 -1.1727719e-05 1.8211738e-05 0
-0.16686225 0.044907272 -0.071846619 1 -6.1835422e-06 1.3583292e-05 0
0.16686225 0.043685202 -0.074710868 -1 -3.5240032e-06 2.0357942e-05 0
-0.16686225 0.052678816 -0.076659977 1 -4.6516857e-06 1.3760635e-05 0
0.16686225 0.053878356 -0.0759103 -1 -1.3693408e-05 5.2905048e-06 0
-0.16686225 0.062746026 -0.075241208 1 1.1053517e-07 1.0588475e-05 0
0.16686225 0.065398328 -0.076404467 -1 -1.4650119e-05 4.6149521e-06 0
-0.16686225 0.075362377 -0.077181809 1 -1.7540895e-05 3.6902079e-06 0
0.16686225 0.07377407 -0.075109169 -1 -5.1036868e-06 1.8569852e-05 0
-0.16686225 0.085066065 -0.074495599 1 -1.8175228e-05 1.3570575e-05 0
0.16686225 0.087894022 -0.071549632 -1 -1.0551548e-05 2.1909173e-05 0
-0.16686225 0.097795971 -0.078412861 1 8.8439101e-06 4.9672635e-06 0
0.16686225 0.094557494 -0.076748222 -1 -1.7070759e-05 4.5152938e-06 0
-0.16686225 0.10453342 -0.073820502 1 -1.739345e-05 2.5643143e-05 0
0.16686225 0.10575438 -0.073340781 -1 -8.6711561e-06 8.7863707e-09 0
-0.16686225 0.11763023 -0.073560916 1 -1.9067336e-05 1.5644639e-05 0
0.16686225 0.11437718 -0.074328773 -1 -8.3534337e-07 5.4948896e-06 0
-0.16686225 0.12365949 -0.077653743 1 -8.8376037e-06 1.6890519e-05 0
0.16686225 0.12570405 -0.071493685 -1 -2.2928105e-05 1.1554641e-05 0
-0.16686225 0.13490853 -0.07899949 1 -1.0705188e-05 4.1645017e-06 0
0.16686225 0.13671851 -0.075036898 -1 -2.0236985e-05 1.3881808e-05 0
-0.16686225 0.14313559 -0.075252563 1 -2.9471839e-05 4.9338123e-06 0
0.16686225 0.14660782 -0.079008803 -1 -1.821154e-05 6.0946613e-06 0
-0.16686225 0.15666702 -0.074678808 0.9999944 -0.0033578102 1.0513291e-05 0
0.16686225 0.15367103 -0.077489369 -1 -2.1388265e-05 1.7336639e-05 0
-0.16686225 0.16414872 -0.071770109 0.98550081 -0.16223574 -0.049676526 0.021800656
0.16686225 0.16115776 -0.073096976 -0.99925089 -0.03755204 -0.0093552852 0.0040969439
-0.16686225 0.17407846 -0.076721884 0.93757844 -0.32088137 -0.13409631 0.05766286
0.16686225 0.17690948 -0.076352417 -0.91510284 -0.35647956 -0.1884388 0.077789322
-0.16618797 0.18403932 -0.073432267 0.84226191 -0.52844697 -0.10648344 0.088375546
-0.15244761 0.1898206 -0.070765138 0.3029581 -0.91681284 -0.26013556 0.06892588
-0.14588016 0.18989414 -0.071057938 0.18074739 -0.94966269 -0.25587332 0.028532507
-0.12318999 0.18980677 -0.070710093 1.3036477e-05 -0.96987134 -0.24361785 1.6664761e-06
-0.079717636 0.18983595 -0.070826277 4.4701928e-06 -0.96987337 -0.24360958 9.2969285e-06
-0.048009735 0.18972863 -0.070398986 -2.6389862e-06 -0.96987462 -0.24360465 7.6180113e-06
-0.0010755481 0.18966728 -0.070154786 4.9738684e-09 -0.96987307 -0.24361108 0
0.098674454 0.18986361 -0.070936352 -1.4568714e-05 -0.96987331 -0.24360994 0
0.11140066 0.18974197 -0.070452094 9.8059372e-06 -0.96986985 -0.24362382 8.1502576e-06
0.1221782 0.18971291 -0.070336342 -4.3598473e-05 -0.96987236 -0.24361381 0
0.14062363 0.18977135 -0.070569083 -0.065661177 -0.9682669 -0.2411387 0.012002301
0.15892512 0.18985149 -0.070888117 -0.56009036 -0.80302167 -0.20360497 0.1037201
0.16686225 0.18462844 -0.075880237 -0.86380899 -0.47813827 -0.15880132 0.085579991
-0.1630872 0.19198066 -0.079364747 0.51631975 -0.82848597 -0.21685256 0.071911037
-0.15612061 0.19092199 -0.075150043 0.46776146 -0.86590892 -0.17720337 0.07734175
-0.14581716 0.19109872 -0.075853631 0.16277944 -0.96237981 -0.21754958 0.035623297
-0.13736184 0.19172987 -0.078366339 2.5595578e-05 -0.96987343 -0.24360956 0
-0.12554494 0.19079682 -0.074651606 -4.0433215e-06 -0.96986938 -0.24362548 1.2531458e-05
-0.11459549 0.19095859 -0.075295709 2.1569078e-06 -0.96987063 -0.24362062 1.3074286e-05
-0.10426804 0.19141109 -0.077097163 5.8141964e-06 -0.96987331 -0.24361014 4.0293312e-06
-0.092976414 0.19140168 -0.077059656 1.1343072e-06 -0.96986574 -0.24364018 2.1119069e-05
-0.083355583 0.19149773 -0.077442028 5.8701135e-06 -0.96987176 -0.24361624 7.1465129e-06
-0.074924767 0.19109945 -0.075856455 7.9583078e-06 -0.96987504 -0.24360307 0
-0.065003581 0.19150934 -0.077488288 5.2144096e-06 -0.96987385 -0.24360779 1.4543688e-06
-0.055302765 0.19125952 -0.076493703 1.340026e-06 -0.969877 -0.24359527 0
-0.044143945 0.1910183 -0.075533412 -1.901614e-06 -0.96987098 -0.24361907 9.150237e-06
-0.03477075 0.19117677 -0.076164305 6.1630881e-06 -0.96987289 -0.24361165 0
-0.022996686 0.19131149 -0.07670071 -2.1476355e-06 -0.96987164 -0.2436166 3.6178851e-06
-0.016135061 0.19083425 -0.074800678 -3.6158981e-06 -0.96986598 -0.24363911 1.504854e-05
-0.00229083 0.19032624 -0.072778195 -5.3749682e-07 -0.96986896 -0.24362707 1.3341706e-05
0.0071964725 0.19087374 -0.074957885 8.1367276e-08 -0.96986848 -0.24362911 2.011841e-05
0.014118353 0.19060336 -0.073881418 1.6430739e-07 -0.96987033 -0.24362189 6.9275866e-06
0.023681888 0.19105069 -0.07566236 3.5876835e-07 -0.96986663 -0.24363637 1.9615625e-05
0.0309749 0.19076133 -0.074510366 -2.9716007e-06 -0.96987349 -0.24360906 0
0.040306754 0.19198464 -0.079380542 7.9938582e-06 -0.96986717 -0.24363413 7.031018e-06
0.052970141 0.19117716 -0.07616581 2.5008524e-06 -0.96987265 -0.24361247 8.1721242e-07
0.063052006 0.19088866 -0.075017296 -2.2125778e-06 -0.96987104 -0.24361901 0
0.076859206 0.19109088 -0.075822338 -1.0564455e-05 -0.96987051 -0.2436213 0
0.083050057 0.19084185 -0.074830912 8.394707e-06 -0.96986771 -0.24363209 1.4323633e-05
0.097653136 0.19022974 -0.072394043 -2.4686628e-05 -0.96987331 -0.24360989 0
0.10538686 0.19032376 -0.072768249 -1.8332115e-05 -0.96987504 -0.24360316 0
0.11248507 0.19101629 -0.075525396 1.2060146e-06 -0.96987182 -0.24361582 1.0715922e-06
0.12861687 0.19078986 -0.074623965 -3.6222456e-05 -0.96987301 -0.2436109 2.1133544e-06
0.13168789 0.19100265 -0.075470991 7.6878605e-06 -0.96987218 -0.2436146 7.6485736e-07
0.14232242 0.19129246 -0.0766249 -0.10361222 -0.96089274 -0.25680676 0.017005173
0.15269095 0.1910457 -0.075642444 -0.29159907 -0.92771989 -0.23303603 0.071448132
0.16009299 0.19187713 -0.078952551 -0.49870157 -0.83371657 -0.23709369 0.086769558
-0.16668501 -0.15521237 -0.065433756 0.7996822 0.58957005 0.11364704 0.067850441
-0.15462612 -0.15607518 -0.06358096 0.36264762 0.89272392 0.26745242 0.062687151
-0.14641216 -0.15613806 -0.063330606 0.18350959 0.95290428 0.24144924 0.0405748
-0.13556069 -0.1555201 -0.065790877 8.8574125e-06 0.96987236 0.24361381 0
-0.12278093 -0.15592553 -0.064176798 -1.4052562e-06 0.96987408 0.24360682 6.2158083e-06
-0.11662121 -0.15571597 -0.065011024 2.3811643e-07 0.96987242 0.24361362 0
-0.103867 -0.15567392 -0.065178454 6.8910504e-06 0.96987164 0.24361634 0
-0.095658019 -0.15587839 -0.064364411 -1.0785961e-05 0.96986777 0.24363196 0
-0.086789533 -0.15570742 -0.065045148 -9.0022388e-07 0.96987236 0.24361387 0
-0.07294184 -0.15551537 -0.065809689 -3.9296449e-07 0.9698717 0.24361603 0
-0.066825971 -0.15654166 -0.061723869 2.3854141e-06 0.96987003 0.24362272 0
-0.054966114 -0.15581819 -0.064604029 -3.0113231e-06 0.96987486 0.24360372 3.590239e-06
-0.046456888 -0.15528135 -0.066741355 -1.3698442e-06 0.96987373 0.24360806 2.3674836e-06
-0.037387598 -0.15616018 -0.063242614 -3.8445157e-07 0.96986914 0.24362637 0
-0.024534246 -0.15568055 -0.065152086 -2.1737483e-06 0.96987557 0.24360079 1.3490555e-05
-0.015775409 -0.15602356 -0.063786462 2.4550502e-06 0.9698714 0.24361756 5.3390472e-06
-0.0060110539 -0.15499596 -0.067877494 -1.2005934e-06 0.96987087 0.24361965 0
0.0099250479 -0.15487346 -0.068365283 5.4098609e-07 0.96987182 0.24361587 7.8006669e-06
0.016696669 -0.1548887 -0.068304487 -1.8247654e-07 0.96987236 0.24361373 0
0.02637054 -0.15464951 -0.069256842 2.2628078e-06 0.9698723 0.24361372 1.0466002e-05
0.035627257 -0.155655 -0.065253831 -4.0815016e-06 0.96987057 0.24362068 0
0.045113333 -0.15491602 -0.068195827 1.4892686e-06 0.96987212 0.24361451 0
0.055250917 -0.15625376 -0.062869988 3.3255083e-06 0.96987057 0.24362074 8.0419186e-06
0.066407174 -0.15599145 -0.063914292 1.4467644e-05 0.969872 0.24361518 2.8970659e-05
0.072658308 -0.15564129 -0.065308318 -5.8108699e-06 0.96987051 0.24362083 0
0.083129942 -0.15634215 -0.062518157 1.3121851e-05 0.96987337 0.24360943 7.3575648e-06
0.097116105 -0.15564585 -0.06529019 -2.0071953e-05 0.96987236 0.24361366 0
0.10436005 -0.15663117 -0.061367519 2.595157e-06 0.96987164 0.24361657 7.0667083e-06
0.11576499 -0.15556109 -0.065627702 -1.7704122e-05 0.96987075 0.24361996 0
0.12622775 -0.15569578 -0.065091453 3.2859971e-06 0.96987116 0.24361828 3.2520444e-07
0.13589035 -0.15628855 -0.062731482 -0.0076265382 0.9699648 0.24312568 0.00014071242
0.14745447 -0.15532012 -0.066587038 -0.25538662 0.92727512 0.27374899 0.062382836
0.15702455 -0.15605102 -0.06367714 -0.43354791 0.88096285 0.18958074 0.081106313
0.16370636 -0.15509281 -0.065260947 -0.57134068 0.7997793 0.18418153 0.084154777
-0.16686225 -0.14531015 -0.065002613 0.9301877 0.36142817 0.064191088 0.06419836
0.16686225 -0.14352483 -0.066954643 -0.93339658 0.35486168 0.053328637 0.07013616
-0.16686225 -0.1373682 -0.063329175 0.97855985 0.20219989 0.039189067 0.03746511
0.16686225 -0.13514774 -0.064213619 -0.9798032 0.19963287 0.011503426 0.031021681
-0.16686225 -0.12792557 -0.063614577 0.99976099 0.01739932 0.013239862 0.00077315915
0.16686225 -0.1217926 -0.064090006 -1 3.5647703e-05 4.1268322e-06 0
-0.16686225 -0.11539999 -0.0653532 1 6.6297912e-07 1.0188386e-05 0
0.16686225 -0.11434752 -0.065425448 -1 3.8215821e-05 1.2593515e-05 0
-0.16686225 -0.10239232 -0.062948123 1 7.2265047e-06 1.4352029e-05 0
0.16686225 -0.10178263 -0.064198256 -1 8.5299289e-06 7.8636731e-06 0
-0.16686225 -0.096351452 -0.063254818 1 1.5304582e-05 1.040237e-05 0
0.16686225 -0.094229653 -0.064217582 -1 4.8956949e-06 4.5898578e-06 0
-0.16686225 -0.084015422 -0.065917924 1 6.1042765e-06 4.8803631e-06 0
-0.16686225 -0.072528891 -0.064510055 1 1.5341377e-05 1.870171e-05 0
0.16686225 -0.076807179 -0.064770199 -1 2.8377374e-07 3.9935671e-06 0
-0.16686225 -0.064368844 -0.067616791 1 4.7025387e-06 8.2733723e-06 0
0.16686225 -0.069725186 -0.069278866 -1 8.2337656e-06 2.7869617e-06 0
-0.16686225 -0.054088484 -0.062579557 1 4.0072323e-06 1.1837269e-05 0
-0.16686225 -0.04387483 -0.065390341 1 3.3443462e-06 1.298702e-05 0
0.16686225 -0.044004254 -0.06521751 -1 6.0515708e-06 8.7330654e-06 0
-0.16686225 -0.035236426 -0.066610783 1 2.5631098e-06 -8.5515794e-08 0
0.16686225 -0.035945132 -0.062770709 -1 7.0849096e-06 1.3747781e-05 0
-0.16686225 -0.029212061 -0.061881464 1 4.3083369e-06 3.9861566e-06 0
0.16686225 -0.026703058 -0.062829167 -1 2.4763444e-06 3.8582874e-07 0
-0.16686225 -0.015008715 -0.063350499 1 1.0691591e-06 4.0894129e-06 0
0.16686225 -0.019160405 -0.062020808 -1 3.380565e-06 4.3332434e-06 0
-0.16686225 -0.0048501389 -0.067527115 1 1.1918498e-06 -4.0420282e-06 0
0.16686225 -0.0063756024 -0.066521429 -1 6.4390861e-07 1.3336889e-05 0
-0.16686225 0.0047582751 -0.064089119 1 -7.9791442e-07 -5.2053451e-08 0
0.16686225 0.0066141398 -0.063314565 -1 -3.564696e-07 4.1724152e-06 0
-0.16686225 0.019923849 -0.065100193 1 -3.6427454e-07 7.9639558e-06 0
0.16686225 0.015015769 -0.066937469 -1 -2.1874923e-06 4.3243663e-06 0
-0.16686225 0.024989108 -0.063794419 1 2.4794122e-06 -2.1657277e-08 0
0.16686225 0.026502231 -0.062411852 -1 2.6961598e-06 -8.4409894e-06 0
-0.16686225 0.034343809 -0.063841358 1 -6.0758002e-06 3.8445905e-06 0
0.16686225 0.035136957 -0.06521675 -1 -8.7149365e-06 1.3042269e-05 0
0.16686225 0.043626003 -0.065001629 -1 -8.8908582e-06 1.0012919e-05 0
-0.16686225 0.056013215 -0.066265263 1 -1.1247449e-07 8.4234698e-06 0
0.16686225 0.054955855 -0.064748921 -1 -1.2068745e-05 6.5201825e-06 0
-0.16686225 0.063529342 -0.064136051 1 -1.2212045e-05 7.2164949e-06 0
0.16686225 0.063869186 -0.064259209 -1 -7.324335e-06 5.3259496e-06 0
-0.16686225 0.073966809 -0.06688229 1 -2.1431888e-05 1.8975903e-05 0
0.16686225 0.073755868 -0.066381626 -1 -6.9852558e-07 9.3571107e-06 0
-0.16686225 0.082273439 -0.068477906 1 -2.3109174e-05 9.5400746e-06 0
0.16686225 0.085942253 -0.066021122 -1 -5.9345384e-06 1.7456983e-05 0
-0.16686225 0.094671741 -0.064739712 1 -9.5069663e-06 9.876182e-06 0
0.16686225 0.098016955 -0.066370517 -1 0 0 0
-0.16686225 0.10583349 -0.067512289 1 -2.099085e-05 4.805087e-06 0
0.16686225 0.10651541 -0.065159671 -1 -2.6951398e-05 8.6568452e-06 0
-0.16686225 0.1139457 -0.06271223 1 -4.3409585e-05 7.0084111e-06 0
0.16686225 0.11527852 -0.064767905 -1 -6.7477336e-06 3.9999259e-06 0
-0.16686225 0.12227435 -0.060553767 1 -3.2572159e-05 1.5931477e-05 0
0.16686225 0.12878685 -0.062004797 -1 -2.3765628e-05 6.9957532e-06 0
-0.16686225 0.13796675 -0.065387234 1 -8.324535e-06 8.1354337e-06 0
0.16686225 0.13385956 -0.065102629 -1 -2.5824247e-05 6.3976213e-06 0
-0.16686225 0.14321795 -0.063889116 1 -4.5709268e-05 2.0605257e-05 0
0.16686225 0.14344709 -0.069543555 -1 -3.2996864e-05 1.4649055e-06 0
-0.16686225 0.1542538 -0.06191523 1 -2.1037322e-05 1.2189977e-05 0
0.16686225 0.15073133 -0.064487919 -1 -1.0157038e-05 -4.6734675e-07 0
-0.16686225 0.16477317 -0.065392211 0.98537278 -0.16897891 -0.022058181 0.023359844
0.16686225 0.16586769 -0.06563729 -0.98846465 -0.14521448 -0.043016855 0.020463951
-0.16686225 0.17334329 -0.062772892 0.90639776 -0.41252169 -0.090934083 0.07117819
-0.16183411 0.18785316 -0.062932476 0.58830959 -0.79487014 -0.14857021 0.081563294
-0.15495768 0.18856183 -0.065753698 0.36773825 -0.90351909 -0.22004932 0.074690156
-0.14352559 0.1891218 -0.067983031 0.15517393 -0.95817608 -0.24045712 0.028231215
-0.13946198 0.18863042 -0.066026822 0.028124865 -0.97042012 -0.23977856 0.0026751081
-0.12696996 0.1887075 -0.066333711 1.6314856e-05 -0.96987504 -0.24360289 0
-0.11322695 0.18845014 -0.065309107 -8.9822042e-06 -0.96987534 -0.24360159 1.4521538e-06
-0.10703738 0.18844284 -0.065280102 1.9812955e-05 -0.96987575 -0.24359998 0
-0.093688056 0.1877332 -0.062454894 -7.8018356e-06 -0.96987176 -0.24361588 0
-0.083960339 0.18861559 -0.065967783 2.044674e-05 -0.96987367 -0.24360833 0
-0.077393971 0.18833643 -0.06485638 1.2366531e-05 -0.96986908 -0.24362694 3.127107e-06
-0.066446833 0.18814665 -0.064100839 -2.3558086e-06 -0.96986902 -0.24362697 1.4333172e-05
-0.055304591 0.18849067 -0.065470494 -1.1937657e-06 -0.96987259 -0.24361245 0
-0.044643834 0.18716492 -0.060192451 1.1544673e-05 -0.96987206 -0.24361472 0
-0.032886222 0.18865231 -0.066113979 -5.4427765e-06 -0.96987242 -0.24361344 1.9093936e-06
-0.02481392 0.18830481 -0.064730555 5.9658178e-06 -0.96987218 -0.24361449 0
-0.014904835 0.18844755 -0.065298855 1.115805e-06 -0.96986973 -0.24362411 0
-0.0049164179 0.18830736 -0.064740695 6.0763574e-07 -0.96987092 -0.2436194 5.0482304e-06
0.0059588631 0.18908803 -0.06784869 9.2861143e-07 -0.96987224 -0.24361412 0
0.0160792 0.188453 -0.065320536 -9.6236397e-07 -0.96986693 -0.24363537 2.2162538e-05
0.023758916 0.18799458 -0.063495435 -4.8547049e-06 -0.96987176 -0.24361593 0
0.036148962 0.18868758 -0.066254385 -1.5661778e-06 -0.96986949 -0.24362499 0
0.048127253 0.18910189 -0.067903802 5.716236e-06 -0.96987146 -0.24361722 0
0.054375984 0.1883429 -0.064882234 2.9559517e-06 -0.96986967 -0.24362433 1.03443e-05
0.068642378 0.18882215 -0.066790134 1.8285928e-06 -0.96987164 -0.24361645 1.0241691e-05
0.076827593 0.18847792 -0.065419696 -1.310484e-05 -0.96987027 -0.24362174 0
0.086019993 0.18744981 -0.061326589 -1.0736976e-05 -0.96987247 -0.24361317 0
0.092955485 0.18950318 -0.069501393 1.7472174e-05 -0.96987122 -0.24361828 0
0.11299148 0.1885161 -0.065571703 2.508228e-05 -0.96986443 -0.24364524 2.5032785e-05
0.12546274 0.18776733 -0.062590696 -3.1665739e-05 -0.96987349 -0.24360922 0
0.13733159 0.18806237 -0.06376531 -0.0106415 -0.96950591 -0.24483681 0.00048134293
0.14287196 0.18869041 -0.066265643 -0.07790722 -0.96939909 -0.2328003 0.014061572
0.15346216 0.18869589 -0.06628751 -0.28847694 -0.92785376 -0.2363652 0.062290967
0.16681138 0.18517926 -0.063624166 -0.6865533 -0.7118727 -0.14792527 0.085621729
-0.16514757 -0.15791844 -0.053009063 0.68466306 0.71283823 0.15198076 0.078638688
-0.15441194 -0.1582178 -0.055050828 0.33091718 0.92541885 0.18464495 0.069259748
-0.14824867 -0.15895191 -0.05212824 0.21979527 0.94199258 0.25365326 0.044953935
-0.13706231 -0.15708436 -0.059563279 0.0044461656 0.96994346 0.24328966 5.1338888e-05
-0.12531531 -0.1583398 -0.054565169 -1.0958543e-06 0.96986991 0.2436233 0
-0.11629622 -0.15827152 -0.054836955 7.059944e-06 0.96987152 0.24361677 0
-0.10379847 -0.15787973 -0.056396801 -1.271669e-05 0.96987069 0.24362001 1.1645989e-06
-0.091956019 -0.15899459 -0.051958352 -1.1358168e-05 0.96987116 0.24361838 0
-0.082649291 -0.15906593 -0.051674362 -1.4435004e-06 0.96987134 0.2436175 7.9819456e-06
-0.074216112 -0.15828238 -0.054793693 -6.2451313e-06 0.96987063 0.24362056 7.022993e-07
-0.064122997 -0.15744381 -0.058132261 -1.7088831e-05 0.96987361 0.24360867 3.204563e-06
-0.056654543 -0.15767053 -0.057229623 2.3177927e-06 0.96987218 0.24361445 0
-0.045589007 -0.1582375 -0.054972421 4.1332819e-06 0.96987134 0.24361771 0
-0.036382966 -0.1590005 -0.051934779 -1.9127122e-06 0.96987104 0.24361877 0
-0.023914246 -0.15823045 -0.055000443 -1.4714919e-06 0.9698714 0.24361755 1.9389852e-05
-0.015079446 -0.15883523 -0.052592762 -5.8480487e-07 0.96987242 0.24361362 0
-0.0033936433 -0.15817066 -0.055238593 -6.9254838e-07 0.96987069 0.24362046 1.1650187e-05
0.0038432078 -0.15756637 -0.057644293 2.7875518e-07 0.9698723 0.24361414 1.0289941e-05
0.015215807 -0.15870476 -0.053112227 3.7695138e-06 0.96987057 0.2436209 2.0105357e-05
0.022691263 -0.15830816 -0.054691162 -2.3868125e-07 0.96987063 0.24362059 2.0260028e-05
0.032547373 -0.15861244 -0.053479653 -3.782746e-06 0.9698717 0.24361622 1.3198326e-05
0.047368821 -0.15848713 -0.053978637 5.4189977e-06 0.9698711 0.24361856 1.1663027e-05
0.065854877 -0.15894541 -0.052154105 1.4139779e-05 0.96987307 0.24361068 1.3742753e-05
0.071811706 -0.15835752 -0.054494627 1.4964865e-05 0.96987182 0.24361579 1.5090589e-05
0.084394895 -0.15789984 -0.056316711 -6.7556102e-06 0.96987158 0.24361679 0
0.093221225 -0.15908299 -0.051606406 -2.5421798e-06 0.96986878 0.24362779 1.1139205e-05
0.10376274 -0.15829913 -0.054727022 -7.451752e-06 0.96987164 0.24361685 0
0.12716097 -0.15768468 -0.057173297 -1.5154241e-05 0.96986997 0.24362317 0
0.13486889 -0.15801977 -0.0558393 -0.0069482336 0.96994632 0.24321967 0.00014389868
0.14483811 -0.15819386 -0.055146128 -0.156333 0.96424836 0.21397473 0.031937245
0.15455091 -0.15845412 -0.054110032 -0.35447347 0.90532482 0.23395643 0.066433929
0.16342868 -0.15653463 -0.0558693 -0.55046433 0.82147652 0.14888065 0.08830896
-0.16686225 -0.14497662 -0.050643086 0.92767125 0.36441496 0.081412047 0.06652768
0.16686225 -0.14015777 -0.058002159 -0.96688014 0.25312439 0.03272314 0.044566993
-0.16686225 -0.13712388 -0.057610337 0.97131401 0.22863896 0.065371014 0.045530505
0.16686225 -0.13563333 -0.055084188 -0.98438692 0.16698658 0.055658605 0.029597702
-0.16686225 -0.12555815 -0.056029554 1 3.3416288e-07 4.5017105e-06 0
0.16686225 -0.12255242 -0.052868366 -1 1.290226e-07 4.2475804e-06 0
-0.16686225 -0.11996421 -0.058609683 1 1.6680848e-05 1.0895117e-05 0
0.16686225 -0.11541419 -0.051833693 -1 -1.054071e-05 1.0100499e-05 0
-0.16686225 -0.10433691 -0.055579502 1 1.2682416e-07 8.654255e-06 0
0.16686225 -0.1070186 -0.052374192 -1 7.4221962e-06 4.714952e-06 0
-0.16686225 -0.096256062 -0.050851807 1 7.6154706e-06 1.136379e-05 0
-0.16686225 -0.082325287 -0.055444226 1 8.1970893e-06 7.9912543e-06 0
0.16686225 -0.081505015 -0.05526207 -1 1.3292401e-05 8.9064952e-06 0
-0.16686225 -0.07500428 -0.057708412 1 1.1114554e-05 1.7246934e-05 0
0.16686225 -0.078345917 -0.053433273 -1 1.6024591e-05 7.1324353e-06 0
-0.16686225 -0.062416762 -0.056064524 1 7.6016031e-06 -5.7599232e-07 0
0.16686225 -0.062328421 -0.053668573 -1 8.0662985e-06 1.0628234e-05 0
-0.16686225 -0.054183241 -0.056246109 1 1.0983046e-05 -4.0679856e-06 0
0.16686225 -0.054554641 -0.055176578 -1 2.3164105e-07 4.8751381e-06 0
-0.16686225 -0.04715082 -0.055022668 1 -3.4594536e-06 -5.1051138e-06 0
0.16686225 -0.044922184 -0.05721486 -1 3.6757722e-06 8.6257332e-06 0
-0.16686225 -0.033253789 -0.053373978 1 2.3226619e-06 4.4658045e-06 0
0.16686225 -0.03619004 -0.056042496 -1 1.3312635e-05 -7.6905752e-07 0
-0.16686225 -0.025791815 -0.051330697 1 5.6846438e-06 7.6548449e-06 0
0.16686225 -0.024728242 -0.055361141 -1 2.7044928e-06 4.3503483e-06 0
-0.16686225 -0.018170938 -0.056055989 1 1.0873438e-06 5.2655673e-06 0
0.16686225 -0.015434826 -0.054508217 -1 8.3165196e-07 4.0256982e-06 0
-0.16686225 -0.005160071 -0.055193637 1 1.3024809e-06 7.3434985e-06 0
0.16686225 -0.0051169652 -0.054183185 -1 1.8827209e-06 4.3832538e-06 0
-0.16686225 0.004153348 -0.056210469 1 -6.7012468e-07 -3.7289685e-06 0
-0.16686225 0.015129091 -0.055221599 1 2.5723589e-06 -5.7731029e-07 0
0.16686225 0.013504669 -0.055193048 -1 3.8616739e-07 -4.3511636e-06 0
0.16686225 0.024114411 -0.056926452 -1 -4.7981398e-06 3.5377172e-06 0
-0.16686225 0.036091123 -0.057111673 1 4.2405459e-06 4.9815026e-07 0
0.16686225 0.036526483 -0.05418491 -1 -8.4663543e-06 1.4103676e-05 0
-0.16686225 0.045134619 -0.057698794 1 4.0892355e-06 3.3849121e-06 0
0.16686225 0.043988448 -0.052288845 -1 -5.2914211e-06 7.8328467e-06 0
-0.16686225 0.055899069 -0.057593584 1 -8.2081406e-06 5.7159623e-06 0
0.16686225 0.057295173 -0.05674893 -1 -1.4168672e-05 1.1339149e-05 0
-0.16686225 0.065519653 -0.054654673 1 -1.2410803e-05 7.0894725e-06 0
0.16686225 0.063365757 -0.053208645 -1 -1.181378e-05 1.1608834e-05 0
-0.16686225 0.073559858 -0.052464601 1 -1.697142e-05 8.7729604e-06 0
0.16686225 0.076482505 -0.058786057 -1 4.6532155e-06 1.30813e-05 0
-0.16686225 0.086927071 -0.054796886 1 -1.1275062e-05 1.1963414e-05 0
0.16686225 0.082964063 -0.055791266 -1 -1.4122598e-05 2.1281843e-05 0
-0.16686225 0.094693214 -0.053965382 1 -1.6638223e-05 1.7655333e-05 0
0.16686225 0.091949306 -0.053791754 -1 -1.156483e-05 9.3878007e-06 0
-0.16686225 0.1089547 -0.056935042 1 -1.0492799e-05 1.0233417e-05 0
0.16686225 0.10451807 -0.054426283 -1 -2.43983e-05 2.1664278e-05 0
-0.16686225 0.11586028 -0.052984234 1 -7.4452787e-06 4.0374807e-06 0
0.16686225 0.11657566 -0.057096146 -1 -6.8761879e-06 1.2348822e-05 0
-0.16686225 0.12856847 -0.0563934 1 -2.6865606e-05 9.7235297e-06 0
0.16686225 0.12665284 -0.055390511 -1 -8.1278886e-06 5.1241514e-06 0
-0.16686225 0.13477819 -0.055894122 1 -8.4224957e-06 1.4899142e-05 0
0.16686225 0.13788196 -0.057546183 -1 -2.4392875e-05 1.6802433e-05 0
-0.16686225 0.14458168 -0.053775165 1 -1.8087494e-05 6.2134495e-06 0
0.16686225 0.14500719 -0.055756509 -1 -2.1276841e-05 -3.9935931e-06 0
-0.16686225 0.15540539 -0.05552391 0.99989074 -0.014174683 -0.0041890363 0.00039189658
0.16686225 0.15448961 -0.053728711 -0.99996287 -0.0086042285 0.00049158646 0.00012221279
-0.16686225 0.16103861 -0.058479652 0.99647641 -0.08334177 -0.0094291484 0.0092171375
0.16686225 0.16582608 -0.055611394 -0.97605109 -0.21109357 -0.052572157 0.036647066
-0.16686225 0.17449525 -0.056431398 0.8748011 -0.476944 -0.085131854 0.083086826
-0.16622761 0.18381996 -0.055788927 0.66981667 -0.70821583 -0.22310527 0.085787535
-0.15517041 0.18617964 -0.056269843 0.48929536 -0.85253471 -0.18377866 0.083923846
