# .PCD v0.7 - Point Cloud Data file format
VERSION 0.7
FIELDS x y z normal_x normal_y normal_z curvature
SIZE 4 4 4 4 4 4 4
TYPE F F F F F F F
COUNT 1 1 1 1 1 1 1
WIDTH 570
HEIGHT 1
VIEWPOINT 0 0 0 1 0 0 0
POINTS 570
DATA ascii
-0.1159115 -0.2243714 0.20313045 0.98793972 0.15412325 0.014871257 0.058185719
0.33852693 -0.22457244 0.20475312 -0.99931324 0.036619686 0.0056551467 0.035440627
-0.11459372 -0.21404028 0.20571919 0.99537998 -0.095183201 0.012601506 0.00089963479
0.33721271 -0.21418381 0.20295878 -0.99488622 -0.097333483 0.026973916 0.0013802688
-0.11333191 -0.20303623 0.20485456 0.99832374 -0.028329141 0.05047011 0.003032706
0.33624068 -0.20611237 0.20452945 -0.99672157 -0.057503823 0.056915887 0.0029804418
-0.11236604 -0.19310987 0.20186271 0.99822885 0.006815963 0.059098084 0.0024664879
0.33539313 -0.19748893 0.20363361 -0.99723411 -0.019926274 0.071603797 0.0032786736
-0.11403888 -0.18478025 0.20466591 0.9970839 0.033192359 0.068716407 0.0016822272
0.33666375 -0.18498909 0.20557688 -0.99633354 0.020629819 0.083029442 0.0021465491
-0.11580307 -0.17535365 0.20278017 0.99648666 0.037474558 0.074899398 0.0017072994
0.33833101 -0.174301 0.20380592 -0.99622452 0.034348339 0.07972943 0.0024644029
-0.11522491 -0.16591793 0.20382951 0.99759907 0.0312838 0.061784647 0.0023500388
0.33775792 -0.16438018 0.20531711 -0.99872851 0.0049424581 0.050168499 0.0025108845
-0.11484431 -0.1568642 0.20730942 0.99959654 -0.017966395 0.021999395 0.0012860554
0.33741945 -0.15624237 0.20518076 -0.99957746 -0.013899007 0.025529735 0.0013157167
-0.11451706 -0.14812325 0.20523727 0.99832994 -0.057765197 0.00068179308 0.00074361626
0.3370747 -0.14507069 0.20360121 -0.9978857 -0.064979799 -0.0013159392 0.00063940434
-0.11424093 -0.13407741 0.20482083 0.99729264 -0.073524803 0.0012227278 0.00070579146
0.3368361 -0.13522746 0.20620017 -0.99773699 -0.067235276 0.00061073713 0.00067376177
-0.11194897 -0.12442332 0.20719938 0.99903697 -0.043874793 -0.0003644083 0.0010730588
0.33453983 -0.12515341 0.20666552 -0.99858117 -0.053090315 -0.0041244081 0.0011305211
0.33466983 -0.115773 0.20573096 -0.99929988 -0.037348237 0.0022133309 0.0013052562
-0.11233404 -0.10623219 0.20506661 0.99992752 0.0012755884 0.01197174 0.00092141837
0.33492956 -0.10636365 0.20125943 -0.99993688 -0.0038662092 0.010548088 0.00099759945
-0.11269449 -0.097566143 0.20522925 0.99951041 0.015597031 0.027121656 0.00054680102
0.33537757 -0.095593244 0.20273161 -0.99924386 0.014734101 0.035981365 0.0005416128
-0.1132611 -0.087101042 0.20601882 0.99909431 0.0196562 0.03773845 0.00056741072
0.33598331 -0.085354075 0.20443323 -0.99930894 0.015024994 0.033998564 0.00056629046
-0.11287226 -0.075238928 0.205275 0.99850982 0.02947114 0.04593078 0.00050528452
0.33494344 -0.074590184 0.20296426 -0.99893302 0.020636925 0.041315716 0.00074469717
-0.1126247 -0.064718723 0.2061487 0.99799448 0.05203731 0.036043875 0.00074828183
0.33520025 -0.064980388 0.20318823 -0.99780929 0.059326895 0.029273981 0.0011574834
-0.11367371 -0.054126292 0.20491278 0.99666178 0.078080572 0.023848873 0.00080348924
0.33610982 -0.055715412 0.2031012 -0.99642116 0.081856459 0.021079838 0.00098054914
-0.11468909 -0.0456862 0.20647927 0.99488395 0.1004911 0.010369357 0.00054365891
0.3374815 -0.044159286 0.20569798 -0.99606383 0.088322207 -0.0074930456 0.0056226114
-0.1159284 -0.035917811 0.20557025 0.98943359 -0.14131139 -0.032439336 0.057378668
0.33846766 -0.036292851 0.20330314 -0.9992252 -0.020411151 -0.033651859 0.044545338
-0.1177509 -0.023627594 0.20541438 0.91640794 -0.39782462 0.043956202 0.0921259
-0.047793001 -0.020052191 0.204515 0.057758078 0.99833053 0.00041648236 5.9377726e-06
-0.03545301 -0.020727592 0.20753711 0.053162817 0.99858582 8.4062005e-05 6.1452774e-06
-0.025069105 -0.021232475 0.20647785 0.049484231 0.99877489 7.283788e-05 3.4369928e-06
-0.014219123 -0.021760011 0.20295005 0.045000229 0.99898696 0.00015450381 4.1274366e-06
-0.0056301625 -0.022168171 0.20667431 0.042328138 0.99910378 8.3453742e-05 6.6185266e-06
0.004876106 -0.022565259 0.20599198 0.038859073 0.99924475 7.2064933e-05 3.9095403e-06
0.015279812 -0.022926431 0.20401469 0.035350565 0.99937499 -0.00013853003 1.5655216e-06
0.025316363 -0.023274859 0.20370983 0.030944152 0.99952102 -0.00034036217 4.3489194e-06
0.035807014 -0.023610612 0.2031624 0.026682787 0.99964398 0.00010703766 6.3825673e-06
0.046845965 -0.023849817 0.20658207 0.022839306 0.99973917 -4.7344627e-05 3.9375163e-06
0.056948867 -0.02406021 0.20565641 0.019296363 0.9998138 -0.00024880478 1.9995218e-06
0.065614432 -0.024240669 0.2065874 0.016217826 0.99986839 0.00028087318 4.9963619e-06
0.073678978 -0.024387592 0.20432048 0.013537128 0.99990833 0.00025566985 7.2621328e-06
0.084317632 -0.024471123 0.20557907 0.009359871 0.99995619 0.00011804373 3.5284997e-06
0.094860196 -0.024544291 0.20376581 0.0070065293 0.99997544 1.9299614e-05 1.573077e-06
0.10280086 -0.024599403 0.20443177 0.0034500924 0.99999404 -0.00020200718 4.8419406e-06
0.11395577 -0.024639972 0.20528415 -0.00041021433 0.99999994 -8.9397567e-05 6.7121987e-06
0.12563737 -0.024558891 0.20465028 -0.0057802447 0.99998325 0.00018646407 2.6044747e-06
0.13532062 -0.024491683 0.20441157 -0.0088108853 0.9999612 -5.2974909e-05 2.8953079e-06
0.14254855 -0.024441516 0.20280281 -0.010397845 0.99994588 -0.00031415102 5.0991753e-06
0.15463638 -0.024289619 0.20228676 -0.015402367 0.99988139 -0.00011434292 5.7924349e-06
0.16453092 -0.024083572 0.20503998 -0.018923678 0.99982089 -0.00039037259 3.8762032e-06
0.1740662 -0.023885012 0.20462771 -0.022213846 0.99975324 1.2138446e-05 1.8391546e-06
0.18703246 -0.023607288 0.20487843 -0.027950577 0.99960935 0.00015507455 7.9280926e-06
0.19549249 -0.023337087 0.20591764 -0.030775158 0.99952632 4.2531483e-06 6.1915434e-06
0.20716941 -0.022931708 0.20284323 -0.034655478 0.99939936 -5.5633554e-05 1.785492e-06
0.21592753 -0.022627659 0.20424394 -0.037635937 0.99929154 8.4614738e-05 3.5227577e-06
0.22563644 -0.022282511 0.20668356 -0.041809764 0.9991256 0.00012024099 5.383286e-06
0.23381858 -0.021905949 0.2046458 -0.044555217 0.99900687 0.00030302926 4.7573526e-06
0.24381632 -0.021419846 0.20422181 -0.048202079 0.99883765 8.6115842e-06 2.4805959e-06
0.25550139 -0.020851705 0.2077491 -0.052148886 0.99863929 0.00027848227 4.3843074e-06
0.2625322 -0.020507056 0.20590541 -0.05374375 0.99855477 7.366213e-05 6.3483103e-06
0.27059639 -0.020039532 0.20336996 -0.057512563 0.99834472 -0.00043121492 6.1923811e-06
0.33993721 -0.026326999 0.20007786 -0.97303289 -0.22474183 -0.051943917 0.11196589
0.34039259 -0.023362592 0.20414713 -0.88804662 -0.45957071 0.012958844 0.13057001
-0.11599662 -0.015364002 0.20469598 0.64450735 -0.76407939 -0.028160676 0.079745375
-0.10635386 -0.016032228 0.20505568 0.35740784 -0.93371487 -0.020883678 0.071806222
-0.093777783 -0.016994221 0.20470257 -0.10917348 0.99358457 -0.029512066 0.041722037
-0.085020386 -0.017664103 0.20610121 0.071338952 0.99745208 0.00027900888 4.3524742e-06
-0.075339682 -0.018329281 0.20230506 0.067118041 0.99774498 -2.8253131e-05 5.7570624e-06
-0.063418888 -0.01907487 0.2068239 0.062641867 0.99803603 -0.00031672069 1.8264038e-06
-0.054075584 -0.019659245 0.20516551 0.059648361 0.99821943 -5.057318e-05 3.1308812e-06
-0.049850542 -0.019923503 0.2072075 0.058424201 0.99829179 0.00030179904 4.9154478e-06
0.27387366 -0.019834556 0.20526133 -0.058790371 0.99827033 5.8328118e-05 5.5585951e-06
0.28481391 -0.019150296 0.20514373 -0.062743545 0.99802977 8.7585295e-06 1.5894537e-06
0.29635811 -0.018428264 0.20503935 -0.066638373 0.99777716 -0.00020484587 4.7349622e-06
0.30588102 -0.017791888 0.20509063 -0.070411459 0.99751794 0.00021784878 4.9132714e-06
0.31445709 -0.017141214 0.20448683 0.050976057 0.99804425 -0.03618063 0.014842266
0.32323247 -0.016469955 0.20603497 -0.14529717 -0.98807788 0.050900824 0.050129011
0.33705112 -0.015412916 0.20133591 -0.57807308 -0.81300265 -0.069701418 0.12802845
0.34118032 -0.018234741 0.20416275 -0.86187851 -0.50559986 -0.039169095 0.12703183
-0.11402515 -0.24381411 0.21431145 0.54223293 0.83924103 -0.040719409 0.10703841
-0.10322285 -0.24421535 0.21551235 0.2694892 0.96273744 -0.022633713 0.065230317
-0.094585977 -0.24355467 0.21416217 0.065162435 0.9974066 -0.030558463 0.031756971
-0.0849448 -0.24281783 0.21575706 -0.065612286 0.99784523 -0.00018715153 0.00012167898
-0.073216021 -0.24202497 0.21565485 -0.066053726 0.99781597 -0.00037567 1.8949599e-05
-0.063261643 -0.24140239 0.21528532 -0.062479004 0.99804628 7.6348886e-05 3.2215452e-05
-0.056022394 -0.24094959 0.21642375 -0.060933057 0.99814183 -0.00011010216 4.1489053e-05
-0.045126691 -0.24026974 0.21465905 -0.057538513 0.99834311 -0.00055816956 0
0.26708698 -0.2402366 0.21615763 0.057004768 0.99837393 0.0001627462 2.1825012e-05
0.27508575 -0.24072833 0.2158564 0.059587441 0.99822307 -0.00028264607 0
0.2843211 -0.24130595 0.21538807 0.06232442 0.99805593 -0.00030128277 1.7266252e-06
0.29297903 -0.24184747 0.21413052 0.065079406 0.99788004 0.0003330053 0
0.30446279 -0.24258421 0.21581979 0.069246359 0.9975996 0.00022580031 0
0.31674704 -0.24352102 0.21425654 -0.083067745 0.99651605 -0.0074519799 0.032751825
0.32469127 -0.24412872 0.21484111 -0.25232485 0.96732271 -0.024881022 0.068820305
0.3333109 -0.24478805 0.21537745 -0.31429681 0.94927239 0.0099623688 0.074097268
-0.11745193 -0.23491323 0.2141583 0.95278764 0.30362988 -0.0021558653 0.089313872
-0.040392578 -0.23999964 0.21593833 -0.054511048 0.99851286 -0.00074831495 2.5269846e-05
-0.035229001 -0.23974858 0.21408786 -0.052822668 0.9986037 -0.00054184266 2.2234e-05
-0.027183648 -0.2393574 0.21529445 -0.050586171 0.99871969 -7.9247409e-05 1.8070394e-05
-0.014232653 -0.23872772 0.21422967 -0.044860516 0.99899328 0.00019267085 2.3671497e-05
-0.0058104713 -0.23833242 0.21215355 -0.043163683 0.99906802 2.1605521e-05 0
0.0051480588 -0.23791236 0.21522523 -0.037610389 0.99929249 -2.256418e-05 0
0.01469859 -0.23758081 0.21646073 -0.035512861 0.99936926 3.2955599e-05 1.3328921e-05
0.026731079 -0.23716311 0.21683051 -0.030151738 0.99954522 -0.0005216194 1.5019637e-05
0.032177113 -0.2369802 0.21788758 -0.028755376 0.99958646 -0.00012062356 1.1999262e-05
0.047313619 -0.23662749 0.21429715 -0.022588879 0.99974483 6.0745366e-05 0
0.05571254 -0.23645258 0.21477699 -0.020474244 0.99979037 6.8754918e-05 0
0.064426959 -0.23627111 0.21489292 -0.017182793 0.9998523 -7.4707873e-07 2.0547612e-05
0.07402695 -0.23609525 0.2138292 -0.013590585 0.99990761 0.00033152121 2.9281264e-05
0.086201631 -0.23600286 0.21278684 -0.0083900904 0.99996477 5.0429582e-05 6.0679095e-06
0.096226819 -0.2359333 0.2137779 -0.0055294996 0.99998468 -1.9086727e-05 0
0.10429727 -0.23587726 0.21482858 -0.002336127 0.9999972 0.00040659713 0
0.11493221 -0.23585388 0.21398208 0.0013144228 0.99999911 0.00031009613 7.5915814e-06
0.12647429 -0.23593399 0.21229538 0.0061735208 0.99998093 0.00021415278 0
0.13332279 -0.23598151 0.21367747 0.006888031 0.99997628 -7.5745855e-05 0
0.14404736 -0.23605596 0.21526358 0.011386854 0.99993509 0.00029615674 2.0172845e-05
0.15436238 -0.23619175 0.21658854 0.015745217 0.99987602 9.1176691e-05 1.9799059e-05
0.16614127 -0.23643702 0.21524017 0.019604741 0.99980783 0.00015493884 0
0.17662279 -0.23665531 0.21278413 0.024035135 0.99971116 -0.00013689441 3.0073814e-05
0.18465278 -0.23682365 0.21526346 0.026151873 0.99965787 -0.000412611 0
0.20462199 -0.23746693 0.21840441 0.032506242 0.99947155 -2.4048319e-05 0
0.21609621 -0.23786527 0.21590573 0.038766488 0.99924833 8.9834699e-05 3.9085888e-05
0.23552887 -0.23866427 0.21618582 0.04584216 0.99894857 0.00042567411 2.6070571e-05
0.24443038 -0.23909707 0.21668573 0.047730263 0.99886024 2.112758e-05 0
0.25418067 -0.23957114 0.21611488 0.051340181 0.99868125 0.00010524197 0
0.26129076 -0.23991685 0.21654133 0.053716388 0.99855614 0.00031202441 1.2094551e-06
0.33986488 -0.23368916 0.21545517 -0.9462235 0.30224374 0.11536829 0.10454161
0.34064305 -0.23875479 0.21855515 -0.86395854 0.49989673 0.060654022 0.10450759
-0.1160211 -0.2253332 0.21480037 0.97601247 0.21707124 0.016727414 0.084968641
0.33879474 -0.22655654 0.21536696 -0.99201584 0.12427339 0.02146621 0.056529813
-0.11454108 -0.21362033 0.21586995 0.99634713 -0.068035252 0.051609114 0.0025543275
0.3371627 -0.21378493 0.21449997 -0.99707544 -0.056798104 0.05113342 0.0034964266
-0.11367092 -0.20652036 0.21490297 0.99714875 -0.036867347 0.065841801 0.0025785661
0.33611429 -0.20468026 0.21682388 -0.99792695 -0.012262659 0.063177586 0.0037447899
-0.11409324 -0.19399235 0.2160935 0.99599558 0.029582428 0.084365629 0.0016575038
0.33587226 -0.19506979 0.21500045 -0.99721956 0.020924482 0.071521103 0.0028618616
-0.11633486 -0.18301688 0.21733998 0.99734318 0.017046858 0.070823066 0.0016640458
0.33898711 -0.1837554 0.21533096 -0.99710381 0.013086814 0.07491833 0.0031582746
-0.11565738 -0.17325428 0.21486731 0.99860656 0.0063153799 0.052392632 0.0020410328
0.33805481 -0.17032084 0.21766922 -0.99940562 -0.016085831 0.03049016 0.0020641347
-0.11514298 -0.16404481 0.21582602 0.99968112 -0.02258968 0.011287143 0.00068459025
0.33767277 -0.1623327 0.21464944 -0.9994871 -0.031409424 0.0062435023 0.00026083883
-0.11472948 -0.15410373 0.21448815 0.99859762 -0.052941725 0.00031832216 0.00042108254
0.3373827 -0.15535907 0.21743937 -0.99919009 -0.040228512 -0.00098096393 2.8484323e-05
-0.11447141 -0.14490733 0.21685895 0.99754 -0.070096932 -0.00053488358 0.00052487722
0.33706978 -0.14471681 0.21439674 -0.99771768 -0.067338653 -0.0050044456 0.00059961941
-0.11420282 -0.13474543 0.21499471 0.99759662 -0.068960421 -0.0067434032 0.00058915577
0.3369256 -0.13431233 0.21589223 -0.99751377 -0.070465364 -0.00094627921 0.00055982673
-0.11192783 -0.12594889 0.21703951 0.99860805 -0.052015647 -0.008736304 0.0011035393
0.3345429 -0.12493408 0.2139025 -0.99855292 -0.053764448 0.0011957395 0.001158372
-0.11206234 -0.11624172 0.21166964 0.99986786 -0.01608761 0.0023336157 0.0011995729
0.33469847 -0.11376617 0.21130763 -0.99995393 -0.0095225424 0.0012137801 0.0013950027
-0.11237242 -0.10530905 0.2151012 0.99987555 0.012763842 0.0092700375 0.00080413482
0.33490658 -0.10691568 0.2138238 -0.99994826 0.0097184069 0.0029915224 0.00087995164
-0.11273569 -0.096575834 0.21460146 0.99933761 0.033317432 0.014641481 0.00039303754
0.33530504 -0.09733656 0.21405907 -0.99940223 0.027299125 0.021212548 0.00061487639
-0.11325306 -0.087216683 0.21489193 0.99905109 0.036026955 0.024475625 0.00054586923
0.3359907 -0.08524812 0.21432342 -0.99932563 0.023440553 0.02826184 0.0007293403
-0.1140165 -0.076215647 0.21657252 0.99893314 0.031966597 0.033327691 0.00048638185
0.3367756 -0.074133649 0.21493435 -0.99902284 0.020638734 0.039083052 0.00057832571
-0.1143233 -0.067690499 0.2171672 0.99849218 0.033815812 0.043241732 0.00042362619
0.33520398 -0.064942196 0.21603477 -0.99832529 0.035714928 0.045508604 0.00068001309
-0.11344457 -0.056490406 0.21322525 0.99766523 0.060911868 0.030883558 0.00080899976
0.33619466 -0.054900192 0.21345049 -0.99697381 0.070180669 0.033435639 0.00079701369
-0.11460741 -0.046337605 0.21519832 0.99659282 0.081003621 0.015531778 0.0010141052
0.33761537 -0.043091528 0.21276389 -0.99884421 0.04804102 0.0015025514 0.017965415
-0.11616458 -0.034128588 0.21548522 0.99046803 -0.13773614 0.0013761533 0.043996628
0.33881211 -0.033829819 0.21432893 -0.99940705 -0.034387328 -0.0017647338 0.040086113
-0.11748506 -0.025358163 0.21401949 0.90643311 -0.41950443 -0.048939668 0.08736302
-0.043474633 -0.020315092 0.21423821 0.055305086 0.99846947 -0.00024491551 6.6465659e-06
-0.035991151 -0.020701427 0.21635859 0.053500004 0.99856776 0.00041681225 4.9660271e-06
-0.025012875 -0.021235209 0.21492448 0.050165858 0.99874085 0.00020968616 2.0713028e-06
-0.015670033 -0.021689471 0.21413091 0.046165168 0.99893379 6.2185427e-05 2.6849959e-06
-0.0052445345 -0.022181746 0.21262376 0.041488115 0.99913895 0.00026141209 5.00637e-06
0.0062607303 -0.022613328 0.21581574 0.037228562 0.99930662 0.00040455989 2.9855553e-06
0.014967531 -0.022915594 0.2155706 0.034818791 0.99939358 -1.2712777e-05 2.4003339e-07
0.020390475 -0.023103857 0.21515512 0.032837477 0.9994607 0.00018091971 3.160231e-06
0.035947286 -0.02361875 0.21540822 0.027379718 0.99962503 -0.0003788757 6.7149672e-06
0.04531661 -0.023817971 0.21444224 0.023496766 0.99972391 7.6443685e-05 3.4759325e-06
0.053652354 -0.023991559 0.21248397 0.02137449 0.99977154 -0.00015375209 2.8893317e-06
0.065162785 -0.024231263 0.21560355 0.016803084 0.99985868 0.00053104444 5.1430934e-06
0.072588563 -0.024372427 0.21571966 0.014783657 0.99989074 0.00021146056 6.8181503e-06
0.086591557 -0.024486903 0.21481264 0.0086047137 0.99996293 8.4884974e-05 1.8512582e-06
0.094422258 -0.024541249 0.21526405 0.0067346063 0.99997729 -8.7855994e-07 1.8474194e-06
0.10457855 -0.024611743 0.2137527 0.0028051857 0.99999601 -0.00041006299 2.8421621e-06
0.11321883 -0.024637263 0.21545631 0.00019891054 1 -0.00015270186 5.4686839e-06
0.12636593 -0.024553832 0.21553719 -0.0062403972 0.99998051 -1.3058856e-05 2.2782833e-06
0.13635419 -0.02448451 0.21314432 -0.0087650754 0.99996156 0.00018834799 2.5439986e-06
0.14897121 -0.024396941 0.21354377 -0.01402287 0.99990159 -0.0003397635 7.5532348e-06
0.15475963 -0.024287052 0.21355611 -0.015675005 0.99987704 -0.00032642719 7.1141303e-06
0.16653436 -0.024041856 0.21241803 -0.020749923 0.99978471 0.00016736756 2.4825631e-06
0.17569858 -0.02385102 0.21445052 -0.023374984 0.99972671 -0.0002335826 3.5229682e-06
0.18299623 -0.023699051 0.21552239 -0.026219299 0.9996562 9.459271e-05 6.3822154e-06
0.19289662 -0.023427201 0.21357965 -0.029051699 0.99957782 -0.00035636977 6.6015127e-06
0.2051872 -0.023000518 0.2164388 -0.033385579 0.99944258 0.00012732772 2.3242644e-06
0.21193972 -0.022766098 0.21215674 -0.035778515 0.99935979 -0.00014764302 2.4296792e-06
0.22387034 -0.022346867 0.21464279 -0.039646864 0.99921381 -8.6863183e-05 5.882614e-06
0.23560952 -0.021818869 0.21506602 -0.045410641 0.99896836 0.00017991872 3.7510406e-06
0.24579716 -0.021323534 0.21383409 -0.049470779 0.99877554 0.00020923636 1.1577595e-06
0.25399548 -0.020924924 0.21729574 -0.051528178 0.99867153 -0.00013908587 4.0423561e-06
0.26537004 -0.020352527 0.2141583 -0.054973274 0.99848783 -0.0001389859 5.6045192e-06
0.27104026 -0.02001177 0.21565139 -0.057806175 0.99832785 0.00020561679 6.2688327e-06
0.34070045 -0.021358412 0.21287414 -0.79192704 -0.60815251 -0.054790936 0.12139235
-0.11351926 -0.015484122 0.21570474 0.49458772 -0.86890554 -0.019652305 0.080552809
-0.10742564 -0.015950242 0.2130066 0.38492334 -0.92293179 0.0055524246 0.074807085
-0.097072259 -0.016742215 0.21497476 0.18513724 -0.98245919 -0.022318905 0.056768708
-0.086170308 -0.017576141 0.21568441 0.071608894 0.99743283 -6.0392718e-05 5.0356275e-06
-0.076063633 -0.018284004 0.21465871 0.066411436 0.9977923 -0.00025136306 4.4352878e-06
-0.063801669 -0.01905093 0.21490401 0.062361136 0.99805361 -5.3010641e-05 2.4905805e-06
-0.054470651 -0.019634537 0.21415827 0.059668195 0.9982183 0.00010927631 3.9423267e-06
0.28306109 -0.01925993 0.21424523 -0.061837699 0.99808621 -0.0001732829 4.0622399e-06
0.29551667 -0.018480893 0.2148751 -0.06685812 0.99776244 0.00038256519 5.6251529e-06
0.30548656 -0.017825859 0.21453707 -0.070359208 0.99752176 -5.081468e-05 6.7252763e-06
0.31277797 -0.017269656 0.2166543 -0.027522016 0.9996208 -0.0009203045 0.0034648296
0.32458058 -0.016366834 0.2130799 -0.24223788 -0.96786296 0.067542553 0.082078658
0.33196363 -0.015802076 0.21237139 -0.4132804 -0.91012269 -0.029599516 0.1051498
0.34066856 -0.017464085 0.21560529 -0.7856136 -0.61710089 -0.044696592 0.11999892
-0.11321061 -0.24492501 0.22473992 0.54481226 0.83835101 -0.018632133 0.11681733
-0.10710483 -0.2445123 0.22511321 0.40137821 0.91561776 0.023229077 0.10613497
-0.095057301 -0.24359073 0.22529723 0.14676613 0.9884097 0.038808241 0.05086996
-0.085146219 -0.24283354 0.22232433 -0.066627361 0.99777633 0.0017833952 6.2889252e-05
-0.073643595 -0.24205171 0.22329365 -0.066232994 0.99780416 -0.00022618598 3.2851549e-05
-0.06740211 -0.24166134 0.22593872 -0.064870968 0.99789357 -0.00041751136 0
-0.053625319 -0.24079965 0.22565956 -0.058928408 0.99826223 4.2972348e-05 2.3181607e-05
-0.04306576 -0.24014148 0.22635527 -0.055644199 0.9984507 -0.00010299683 0
0.26588672 -0.24015796 0.22259514 0.056904212 0.99837965 0.00015960932 0
0.2769857 -0.24084716 0.22531779 0.060575482 0.99816358 -0.00033854865 2.8693614e-06
0.28833237 -0.24155684 0.22336371 0.063923322 0.99795479 9.9891658e-05 0
0.29473215 -0.24195713 0.22403067 0.065794818 0.99783313 0.00036181032 0
0.30463022 -0.24260332 0.22454607 0.070220858 0.99753141 0.00028174496 0
0.31524521 -0.24340615 0.22603753 -0.081848703 0.99661314 0.0079340115 0.028215148
0.32318276 -0.24401332 0.22546783 -0.20595497 0.97856152 -6.7716996e-05 0.054391976
0.33396673 -0.24483822 0.22512515 -0.30342364 0.95169091 0.047100466 0.074215628
0.34103668 -0.24269558 0.22579505 -0.74918622 0.66123188 0.038632631 0.090611339
-0.11715444 -0.23297669 0.22668642 0.96473157 0.26060387 0.03713141 0.08244279
-0.035976697 -0.23978493 0.22518206 -0.05298667 0.998595 -0.00066046318 0
-0.024865499 -0.2392447 0.22470812 -0.049667355 0.99876583 0.00011236126 4.0360206e-05
-0.014576395 -0.23874442 0.22398742 -0.045529824 0.998963 0.00015478391 0
-0.0066189542 -0.2383631 0.2246054 -0.042562947 0.99909383 -4.9693328e-05 1.8344457e-05
0.0062930295 -0.2378726 0.22586842 -0.037185427 0.99930829 -0.000311715 0
0.015239954 -0.23756202 0.22292204 -0.035056066 0.99938536 0.00014698262 4.6800351e-06
0.025319666 -0.23721211 0.22624628 -0.031651918 0.9994989 -4.2279276e-05 4.3349637e-06
0.035562847 -0.23688708 0.22674032 -0.027963104 0.99960893 -0.00018879927 3.7462538e-05
0.043730251 -0.23670211 0.22509494 -0.02420353 0.9997071 -0.00017904823 6.8511986e-06
0.055716615 -0.2364525 0.22612059 -0.019220766 0.99981523 0.00011865619 2.7234497e-05
0.066092782 -0.23623644 0.22647458 -0.015852205 0.99987435 -4.2004729e-05 1.646073e-05
0.079698026 -0.23604801 0.22976923 -0.011491569 0.99993396 -6.7344721e-05 5.4085773e-05
0.084175624 -0.23601691 0.22449984 -0.0094696814 0.99995518 0.0001010099 1.9411364e-05
0.09451998 -0.23594514 0.22810909 -0.0071007982 0.99997479 -7.0444694e-05 0
0.1045116 -0.2358758 0.22451659 -0.0032507046 0.99999475 0.00017651868 0
0.11405697 -0.23584978 0.22661164 0.00024324762 0.99999994 -0.0002732698 2.6091384e-05
0.12453878 -0.23592055 0.22373177 0.0054141325 0.99998534 -0.00010003442 2.7983463e-06
0.1357694 -0.23599851 0.22391805 0.0078348685 0.99996924 0.00014107107 2.6599668e-05
0.1454775 -0.23606588 0.22152098 0.011888131 0.99992937 -4.1211428e-05 2.3594952e-05
0.15185225 -0.23613946 0.22235222 0.014516955 0.99989462 -0.00011216781 2.5452329e-05
0.16631065 -0.23644055 0.22659117 0.020044558 0.99979907 -3.6352694e-06 2.9948571e-05
0.17596009 -0.23664151 0.22550887 0.02389985 0.99971437 -1.0971384e-05 2.1633005e-05
0.18529403 -0.23683587 0.22069168 0.027364919 0.9996255 0.00017475654 0
0.19712806 -0.23720676 0.22588754 0.031386212 0.99950737 -3.920065e-06 0
0.20483536 -0.23747437 0.22578175 0.033837873 0.99942726 -0.00023899329 2.2996617e-05
0.21418621 -0.23779896 0.22589642 0.036425967 0.9993363 -0.0002630254 2.3402345e-05
0.22499026 -0.23818754 0.22385879 0.040416397 0.99918288 -0.00034875085 0
0.23473932 -0.23862588 0.22651914 0.044844817 0.99899375 -0.00051307777 0
0.24414976 -0.23908342 0.22512187 0.047560409 0.99886835 -0.00018736001 0
0.2569226 -0.23970446 0.22543848 0.05218203 0.99863756 -4.6354635e-05 2.0326422e-06
0.26116714 -0.23991084 0.22414476 0.053804956 0.99855137 0.00035715054 1.5400946e-07
0.33990079 -0.23392309 0.22362433 -0.94167924 0.33425286 -0.038925819 0.1032666
0.34050667 -0.23786706 0.22837244 -0.92745805 0.36894643 0.060828257 0.095457271
-0.11607888 -0.22572178 0.22743994 0.97621876 0.21558088 0.022844028 0.062492318
0.33856004 -0.22485903 0.22529382 -0.98842615 0.13553916 0.068138711 0.054543972
-0.1148866 -0.21637645 0.22314203 0.99903405 0.015171091 0.041241877 0.0093039237
0.33721167 -0.21417513 0.22307076 -0.99802697 -0.039370816 0.048908658 0.0038176668
-0.114184 -0.20591244 0.22497256 0.99686319 -0.0072252317 0.078813665 0.0020387634
0.33807555 -0.20187573 0.22744595 -0.99655694 0.0079854587 0.082525544 0.0030381193
0.34024245 -0.20198554 0.22944093 -0.99720687 0.011484958 0.073801063 0.0031400495
-0.11520538 -0.19490306 0.22359017 0.99692035 0.025238922 0.074249029 0.0018583297
0.33960041 -0.19117159 0.22426288 -0.99662107 0.012934137 0.081111327 0.0030447524
-0.11622037 -0.18136692 0.22530681 0.99863601 -0.005329601 0.051939312 0.0020345012
0.33909649 -0.18524377 0.22648594 -0.998514 -0.012165438 0.053120624 0.0029390685
-0.11573417 -0.17436083 0.22365829 0.99925119 -0.018136002 0.034176126 0.0017237003
0.33833021 -0.17428987 0.22473429 -0.99905503 -0.037504263 0.021964101 0.0013411127
-0.11504171 -0.16161005 0.22323602 0.99921972 -0.038994074 0.0062766387 0.00033346633
0.3377558 -0.16432941 0.22699174 -0.99896872 -0.044702247 0.0079549076 0.00033834137
-0.11480629 -0.15595041 0.22681069 0.99863786 -0.052148197 0.0017339935 0.00024996727
0.33732671 -0.15401249 0.22704129 -0.99925458 -0.038596548 -0.00078069244 9.5898933e-05
-0.11445844 -0.14397112 0.22630784 0.99739653 -0.072077692 -0.0022362911 0.00066783692
0.33710825 -0.1473588 0.22632842 -0.99799258 -0.063302092 0.0019361334 0.00055021408
-0.11384881 -0.13345584 0.22407718 0.99751389 -0.070275873 -0.0052299234 0.00066179945
0.33694839 -0.135958 0.22426903 -0.99744725 -0.071295872 -0.0039878604 0.00044971218
-0.11191147 -0.12713058 0.22553052 0.99824369 -0.059058089 -0.004653383 0.0008174259
0.33455265 -0.12422907 0.22436354 -0.99885631 -0.047809921 -0.0005146417 0.0011446746
-0.11208358 -0.11470961 0.2253962 0.99972808 -0.022107385 -0.0074135363 0.0012612222
0.33469477 -0.11461968 0.22735119 -0.99966937 -0.025506614 -0.0032390924 0.0012565553
-0.11246538 -0.10307445 0.22677271 0.99921286 0.039663948 -0.00064391294 6.2427222e-05
0.33500013 -0.10466724 0.2220986 -0.99930519 0.037267718 0.00053541438 2.3103612e-05
-0.11274378 -0.096381217 0.22514594 0.99889588 0.046765473 0.0044657439 0.00011314122
0.33530426 -0.097355172 0.22477397 -0.99901915 0.044277526 -0.00042598764 3.4339835e-05
-0.11346086 -0.084222309 0.22127816 0.9991079 0.034497254 0.024358045 0.00055295625
0.33604017 -0.08453501 0.22719893 -0.99875468 0.047943298 0.013804703 0.00052083458
-0.11429127 -0.072745815 0.22598174 0.99861729 0.038882013 0.035379481 0.00055505458
0.33674541 -0.07452441 0.223616 -0.99852514 0.039314747 0.037441891 0.00064294139
-0.11433437 -0.064904541 0.22665448 0.99870354 0.037968677 0.033905528 0.00046025726
0.33712697 -0.062018294 0.22533807 -0.99821782 0.044100169 0.040204711 0.00052326481
-0.11410564 -0.054691155 0.22530821 0.99792373 0.053836934 0.035352007 0.00069455174
0.33630005 -0.054004721 0.22347616 -0.9973743 0.060622904 0.039614525 0.00092041306
-0.11458705 -0.046500091 0.22687918 0.99705148 0.06966728 0.032167356 0.00085278088
0.33739355 -0.044861 0.22696629 -0.99698073 0.068517372 0.036533933 0.0027864906
-0.11602856 -0.035113756 0.22394046 0.98290402 -0.18376932 0.011342624 0.067435324
0.3384881 -0.036132168 0.22408661 -0.99910986 -0.037014756 0.020232771 0.038501434
-0.1172443 -0.026925391 0.22877304 0.95492339 -0.2954905 0.028402861 0.081787825
-0.04426986 -0.020271888 0.2232215 0.055847179 0.99843925 -0.00039860679 4.9846517e-06
-0.035739388 -0.020713668 0.22483391 0.05337787 0.99857438 0.00019474239 4.5445477e-06
-0.024804389 -0.021245345 0.22523165 0.049395632 0.9987793 6.2454208e-05 1.1187841e-06
-0.013673065 -0.021786565 0.22837801 0.045056395 0.99898446 0.00019017703 4.3116111e-06
-0.0050969403 -0.022188338 0.22445916 0.041318864 0.99914598 -0.00023166307 5.9456561e-06
0.0056174635 -0.022590995 0.22560805 0.037488069 0.99929702 1.7869612e-05 3.5531409e-06
0.015327357 -0.022928085 0.22718582 0.035472188 0.99937069 3.9513565e-05 1.3189655e-06
0.026583852 -0.023318863 0.22281642 0.030039784 0.99954867 0.00013262384 5.0860881e-06
0.036439773 -0.023630871 0.22513108 0.026946723 0.99963677 0.00048681456 5.1456168e-06
0.047067169 -0.023854431 0.22268155 0.023193885 0.999731 6.2474122e-05 3.458066e-06
0.056888781 -0.024058957 0.22663675 0.01936603 0.99981242 -9.1217022e-05 1.3734167e-06
0.064485729 -0.024217162 0.22474323 0.017264828 0.99985081 -0.00052206934 4.1764874e-06
0.079522029 -0.024437837 0.22241399 0.01087724 0.99994087 0.0001238234 4.9753385e-06
0.084277265 -0.024470843 0.2230763 0.0093654813 0.99995607 -0.00028768645 3.4333907e-06
0.095614098 -0.024549525 0.22597067 0.0046488736 0.99998915 -0.00023490217 2.5576605e-06
0.10594904 -0.024621256 0.22515464 0.002311642 0.99999732 0.00035893865 4.9995547e-06
0.11887314 -0.02460584 0.22390243 -0.0022869289 0.99999738 8.7347471e-05 4.6430887e-06
0.12338705 -0.024574514 0.22436154 -0.0047540059 0.99998868 0.00014219488 3.0926378e-06
0.13358334 -0.02450374 0.22520941 -0.0072057457 0.99997407 9.4228402e-05 1.1460835e-06
0.14563863 -0.024420068 0.22385189 -0.011905541 0.99992901 -0.00047331909 7.0614724e-06
0.15333773 -0.024316659 0.22499605 -0.014883887 0.99988919 0.00039885248 7.0456772e-06
0.16627488 -0.024047256 0.22384393 -0.021214675 0.99977487 -0.00028111602 1.5764238e-06
0.17543088 -0.023856591 0.22483794 -0.022716276 0.99974197 -0.00012666512 4.2014981e-06
0.18903999 -0.023559982 0.22350501 -0.028369177 0.99959737 -0.0004317922 6.6188422e-06
0.19613646 -0.023314722 0.22423837 -0.030069688 0.99954772 0.00039956611 6.0140451e-06
0.20434821 -0.023029648 0.22338368 -0.03343213 0.99944103 9.8865539e-06 2.3026469e-06
0.21554983 -0.02264077 0.22617693 -0.036933534 0.99931771 0.00017237566 2.2852626e-06
0.22687754 -0.02222541 0.22331688 -0.042367216 0.99910212 8.4634439e-06 5.9962149e-06
0.23470151 -0.021863017 0.22496538 -0.045668826 0.99895662 0.0002157367 3.4798695e-06
0.24632339 -0.021297947 0.2243264 -0.049351647 0.99878144 0.00020733448 1.710755e-06
0.25492772 -0.020879596 0.22390413 -0.052139249 0.99863982 3.680529e-05 5.7805478e-06
0.26458555 -0.020395324 0.22356066 -0.054539949 0.99851161 -6.3501197e-05 5.9847098e-06
0.34081727 -0.020598182 0.22305918 -0.86389649 -0.5035882 -0.0090484275 0.11792606
-0.11480036 -0.015654005 0.22480813 0.43201014 -0.90186632 0.0021162911 0.0872612
-0.10508994 -0.016128911 0.22534053 0.30235776 -0.95304984 0.016610269 0.080552235
-0.093443215 -0.01701981 0.22567463 -0.092529334 0.99569744 0.0049951929 0.039352369
-0.087034941 -0.017509997 0.22425628 0.068678126 0.99763715 0.0018793228 4.3970605e-05
-0.076464012 -0.018258959 0.22290137 0.067451142 0.99772251 -0.00024474214 5.7816587e-06
-0.065726183 -0.018930558 0.22415456 0.064303443 0.99793041 -6.473402e-05 1.7637657e-06
-0.055062622 -0.019597512 0.22683139 0.060432442 0.99817228 -0.00013813321 1.8041943e-06
-0.04947494 -0.019946992 0.22202995 0.058010999 0.99831587 -0.00031120653 6.2730437e-06
0.2755281 -0.019731078 0.22315411 -0.059036642 0.99825579 -0.00014150131 3.6741142e-06
0.28425887 -0.01918501 0.22580996 -0.062170804 0.99806553 0.00020638198 1.9502836e-06
0.29677281 -0.018402325 0.22511354 -0.066664703 0.99777538 -0.00042825338 5.8066148e-06
0.30734903 -0.017684937 0.22851282 -0.071426645 0.99744582 4.51454e-05 5.4083343e-06
0.31470942 -0.017121911 0.22471142 0.023837024 0.99963111 0.013014671 0.011910439
0.32735252 -0.0161548 0.22155786 -0.25060451 -0.96741807 0.036049377 0.067890719
0.33502489 -0.015567907 0.22620691 -0.42263409 -0.90630037 0.0002305713 0.10107848
0.3411164 -0.01635547 0.22401315 -0.74339533 -0.667584 0.041170903 0.12550254
-0.11738837 -0.24481654 0.2334792 0.59213215 0.80517548 0.032741107 0.085716069
-0.10917515 -0.24467066 0.2375249 0.37405312 0.92738628 -0.0062362594 0.086923331
-0.094802551 -0.24357125 0.23476873 0.098463625 0.99512213 0.0060675293 0.043320764
-0.084028035 -0.24274749 0.23608905 -0.070495896 0.99751204 -0.00029875233 3.8794842e-06
-0.076655418 -0.2422401 0.23383769 -0.066729017 0.99777114 6.4712527e-05 3.5608566e-05
-0.064978249 -0.24150972 0.2352528 -0.063664138 0.99797136 -0.00022762516 0
-0.053591572 -0.24079755 0.23591915 -0.059365753 0.99823624 -0.00021578373 0
-0.045452416 -0.2402885 0.23531246 -0.056234311 0.99841762 3.3005912e-05 0
0.26785663 -0.24027617 0.23450141 0.056883283 0.99838084 4.6967787e-05 2.3836301e-05
0.2759276 -0.24078096 0.2366312 0.059482984 0.99822932 -0.00013292886 1.6787352e-06
0.28698301 -0.24147245 0.23527342 0.063167304 0.99800289 -0.00018622611 0
0.30657721 -0.24274312 0.23276895 0.071016081 0.99747515 -0.00030530957 3.6336674e-05
0.31720152 -0.24355578 0.23568113 -0.10698156 0.9941963 -0.011341696 0.031945165
0.32670474 -0.24428272 0.23600301 -0.30648032 0.95186979 -0.0037079905 0.07210236
0.3344827 -0.2448777 0.2355649 -0.41603994 0.90929908 0.0092742434 0.099259272
0.34116688 -0.24216487 0.23603606 -0.8219983 0.56947255 -0.0044593452 0.10526177
-0.11796325 -0.23824179 0.23395188 0.89265448 0.45017648 0.022561589 0.092912897
-0.036175519 -0.23979461 0.23539189 -0.053272009 0.99858004 5.9041096e-05 4.4000812e-05
-0.025589537 -0.2392799 0.23564687 -0.050119832 0.99874318 -3.4179353e-05 5.2269563e-05
-0.016030857 -0.23881514 0.23491208 -0.046459634 0.99892008 -0.00019577878 3.1815187e-05
-0.0048229648 -0.23828036 0.23595153 -0.04181182 0.99912542 0.00030237337 0
0.0054178569 -0.237903 0.23305053 -0.037594352 0.99929309 6.3853062e-05 2.4097384e-05
0.015005079 -0.23757017 0.23667353 -0.03397258 0.99942279 -0.00010773864 0
0.02682462 -0.23715985 0.23814164 -0.030098638 0.99954689 0.00028597694 0
0.035760354 -0.236883 0.23454399 -0.027127298 0.99963182 -0.00049175497 0
0.044734776 -0.23668119 0.2340457 -0.024058992 0.9997105 -0.00022255103 1.569975e-05
0.054886334 -0.23646979 0.23553261 -0.020147044 0.99979705 -0.00012635833 1.6588503e-05
0.067731217 -0.23620233 0.23535821 -0.01565996 0.99987733 -0.00019235189 1.2152883e-05
0.076404065 -0.23607087 0.23391104 -0.011962807 0.99992841 0.0002841746 1.6739152e-05
0.083109707 -0.23602432 0.23341395 -0.010395247 0.99994588 0.00034166095 0
0.094641022 -0.23594429 0.23423332 -0.0066878321 0.99997765 4.6898636e-05 1.0464255e-05
0.10601744 -0.23586532 0.23583603 -0.0035021144 0.99999392 0.00011285824 2.850537e-05
0.11453945 -0.23585254 0.2356476 0.0012261835 0.99999923 8.0103587e-07 0
0.12539908 -0.23592652 0.2336849 0.0058438201 0.99998295 0.00016122208 1.4630063e-05
0.14476557 -0.23606093 0.23350286 0.012201946 0.99992555 0.00017443375 0
0.1529457 -0.23616223 0.23355046 0.015223746 0.99988413 9.1878748e-05 0
0.16371937 -0.23638658 0.23580025 0.020023251 0.99979949 -9.1651476e-05 0
0.17395338 -0.23659971 0.23520541 0.021754103 0.99976331 0.00020567546 0
0.18473931 -0.23682432 0.23507954 0.027431225 0.99962366 -6.2026687e-05 5.2310799e-05
0.19350299 -0.23708092 0.23378728 0.029700883 0.99955887 -0.00020740044 0
0.20646167 -0.2375308 0.23691252 0.034730352 0.99939668 -2.4984742e-05 0
0.21458112 -0.23781265 0.23515399 0.03744043 0.99929875 0.00041678059 0
0.22299032 -0.23810461 0.23374169 0.039933834 0.99920237 0.00015036765 3.4591478e-05
0.23612078 -0.23869304 0.23639774 0.044900887 0.99899137 -0.00037995074 7.8407347e-06
0.24318309 -0.23903643 0.23640554 0.047184959 0.99888611 -0.00020867867 5.1334005e-06
0.25508356 -0.23961504 0.23402488 0.051435921 0.9986763 2.8371493e-05 1.2594811e-05
0.261673 -0.23993544 0.23617993 0.053938735 0.99854428 -8.7509739e-05 2.4689267e-05
0.33997586 -0.2344116 0.23923337 -0.93989789 0.33397907 0.071062535 0.095509842
0.34063432 -0.23869777 0.23748697 -0.89582878 0.44365975 0.025630178 0.09828949
-0.11620184 -0.2265791 0.23499565 0.95571315 0.27809745 0.096302189 0.068519987
0.33878687 -0.22651087 0.23433411 -0.98762208 0.14572768 0.058018327 0.050998889
-0.11457066 -0.21385622 0.23443595 0.99563771 -0.033442464 0.087103993 0.0027573535
0.33730164 -0.21489315 0.23702276 -0.9983505 -0.017458523 0.05469463 0.0039008905
-0.11601374 -0.20633742 0.23509069 0.9960025 -0.0051812078 0.089174479 0.0021729325
0.33676654 -0.20691645 0.23263067 -0.99790102 0.0090069259 0.064128257 0.0036580195
0.34083405 -0.20389183 0.23285015 -0.99774337 0.017231271 0.064894535 0.00405887
-0.11740338 -0.1953232 0.23417459 0.99751258 0.0024695792 0.07044559 0.0022459261
0.33952007 -0.19034584 0.23269498 -0.99843353 -0.012360846 0.054567624 0.003028122
0.34015283 -0.19684882 0.23645483 -0.99868041 0.0024466356 0.051298633 0.0036192851
-0.11634074 -0.18304904 0.23433039 0.99885517 -0.028981674 0.038057826 0.0015497484
0.33905339 -0.1847107 0.23472486 -0.99833822 -0.040454593 0.041039601 0.0024481418
-0.11589012 -0.17660813 0.23373508 0.99884272 -0.042571049 0.022381766 0.00091861509
0.33826575 -0.17336054 0.23550619 -0.99881154 -0.04584479 0.016546048 0.00095205527
-0.11516745 -0.16463283 0.23864894 0.99874187 -0.050141662 -0.00074571575 1.7115914e-05
0.33771607 -0.16337419 0.23656671 -0.99867249 -0.051509187 -0.00021740832 4.960188e-05
-0.11475048 -0.15460838 0.2343916 0.99839336 -0.056663342 -9.8242461e-05 0.00031687619
0.33739036 -0.15554336 0.23510072 -0.99911022 -0.042169686 -0.00062198855 8.1262493e-05
-0.11451634 -0.14814913 0.23858722 0.99778593 -0.066466473 -0.0023279602 0.00053630257
0.33706602 -0.14444569 0.23450725 -0.99763852 -0.068655789 -0.0019241155 0.00060067506
-0.11379298 -0.13342004 0.23461415 0.99723029 -0.074326649 -0.0026792435 0.00071422703
0.33613211 -0.13302474 0.23617415 -0.99707508 -0.0764222 -0.00098694093 0.00058959698
-0.11192624 -0.12606342 0.23716159 0.9984839 -0.054972995 -0.0028213847 0.00093857379
0.33454964 -0.1244472 0.23512805 -0.99887711 -0.047367159 0.00094274379 0.0010651459
-0.11207056 -0.11564922 0.23387876 0.99970013 -0.023787018 -0.0058243196 0.0011749665
0.33473349 -0.1117857 0.23387377 -0.99997705 -0.006765414 0.00038700819 0.0011763476
-0.11236864 -0.10540026 0.23733597 0.99971151 0.023727141 -0.0037402106 0.000410782
0.33511999 -0.10178539 0.234092 -0.9990626 0.043284845 -0.00062275858 7.4432282e-05
-0.11274583 -0.096332058 0.23692083 0.99888492 0.047210246 0.00039772061 5.9241222e-05
0.33523756 -0.098958462 0.23803988 -0.99900621 0.044547133 -0.0014468936 0
-0.11337413 -0.085472085 0.23393904 0.99814427 0.06083484 0.0026786893 4.8812821e-05
0.33599705 -0.085156061 0.23364024 -0.99855566 0.052879799 0.0095016947 0.00034265238
-0.11409083 -0.075259469 0.23540469 0.99854618 0.051639389 0.015453744 0.00040514895
0.33674765 -0.07448294 0.23451497 -0.99838519 0.050166629 0.026652979 0.00058096321
-0.11497518 -0.065340869 0.23348057 0.99857664 0.042778291 0.031854976 0.00055444305
0.33769575 -0.064112 0.23912789 -0.99765444 0.057178944 0.037633441 0.00069007248
-0.11451904 -0.055319458 0.2332052 0.99774039 0.056138858 0.036913138 0.00065205613
0.33763841 -0.054278962 0.23527718 -0.997361 0.059023242 0.042276643 0.00070546463
-0.11476108 -0.045111824 0.2340813 0.99848634 0.048744485 0.025475994 0.0016366573
0.33723769 -0.046104193 0.2362432 -0.99635065 0.072827861 0.044513553 0.00077791081
-0.11596536 -0.035627186 0.23582697 0.98647326 -0.16301243 0.017244678 0.060654726
0.33850297 -0.036011282 0.23240669 -0.995188 -0.093877532 0.028069591 0.051905267
-0.11745311 -0.025566095 0.23462602 0.93017989 -0.36483851 0.040721454 0.093757994
-0.045169588 -0.020216271 0.23442125 0.056179691 0.99842066 -0.00012933137 5.3373187e-06
-0.034052301 -0.020795695 0.23234127 0.05176954 0.99865907 5.6945104e-05 3.9734864e-06
-0.024869021 -0.021242201 0.23777449 0.050017279 0.99874836 0.00027422581 1.6360168e-06
-0.018976478 -0.021528706 0.23524351 0.047303315 0.99888057 8.2772385e-05 2.6088912e-06
-0.0051966482 -0.022197952 0.23394637 0.042584103 0.99909288 7.4195763e-05 5.6877698e-06
0.0059131458 -0.022601262 0.23349459 0.037795477 0.99928546 -0.00026900662 3.838421e-06
0.016801724 -0.022979265 0.23347835 0.033854455 0.99942678 -0.0001023758 1.9311096e-06
0.024901381 -0.023260448 0.23509084 0.030369602 0.99953872 -0.00021198884 4.6676314e-06
0.033575419 -0.023554385 0.23547213 0.028922893 0.99958163 -7.5304473e-05 5.5731975e-06
0.04533197 -0.023818295 0.23519792 0.024090899 0.99970973 -0.00020647042 5.2215951e-06
0.051853627 -0.023954101 0.23638211 0.021908371 0.99975997 2.4924024e-05 2.2686963e-06
0.066060327 -0.024249954 0.23468432 0.016088037 0.9998706 8.9081717e-05 5.6490753e-06
0.074983522 -0.024399569 0.23387642 0.012966518 0.9999159 -0.00031415236 6.5489407e-06
0.087262429 -0.024491558 0.2363591 0.0087544834 0.99996161 0.00017917957 1.3553587e-06
0.095067963 -0.024545737 0.23649414 0.005254861 0.99998617 -6.102501e-05 3.0214565e-06
0.10411263 -0.024608511 0.23638193 0.0037489668 0.99999291 -0.0002223323 3.1379307e-06
0.11921109 -0.024603495 0.23677531 -0.003351985 0.99999428 0.00041998364 4.2145657e-06
0.12136316 -0.024588561 0.23408337 -0.0033480416 0.99999434 -0.00021561999 4.1670496e-06
0.13594772 -0.024487328 0.2353608 -0.0090129348 0.99995947 3.1028627e-05 2.9758412e-06
0.14792855 -0.024403242 0.23559895 -0.012961696 0.99991596 0.00041074434 7.0582919e-06
0.15237945 -0.024336616 0.23353601 -0.016126193 0.99986994 0.00038257809 4.7782178e-06
0.1644727 -0.024084784 0.23586546 -0.01939871 0.99981183 7.3043819e-05 1.9845336e-06
0.17592038 -0.023846397 0.23623164 -0.023692949 0.9997192 -0.00047250764 4.4310655e-06
0.18527806 -0.02364786 0.23571485 -0.027202344 0.99962986 0.00052141357 5.5917039e-06
0.19600639 -0.023319237 0.23580031 -0.031495854 0.99950391 3.8020684e-05 3.6900492e-06
0.20354658 -0.023057474 0.23559853 -0.033392228 0.99944234 6.5131782e-05 2.0804223e-06
0.21363005 -0.022707418 0.23313935 -0.036335561 0.99933964 -0.00012584179 2.3779141e-06
0.22394744 -0.022347789 0.23652141 -0.03992182 0.99920279 -0.00021185653 6.0851494e-06
0.23623462 -0.021788476 0.23355119 -0.046056807 0.99893874 -0.00024453094 2.8088889e-06
0.24801306 -0.021215795 0.23582484 -0.049240474 0.99878693 -0.00032754312 1.5933268e-06
0.25610164 -0.020822519 0.23714042 -0.052822612 0.99860388 -0.00018244126 3.8067255e-06
0.26309791 -0.020479038 0.23297998 -0.054292988 0.99852508 -7.0481772e-05 5.3486242e-06
0.33970308 -0.02785131 0.23514967 -0.95837021 -0.28096619 0.050837751 0.11115588
0.34033242 -0.023754532 0.23735116 -0.86918795 -0.49256417 0.043506935 0.11840165
-0.11369831 -0.016272688 0.23504162 0.64043039 -0.76514757 0.066317908 0.1144084
-0.105434 -0.016102595 0.23551166 0.39138022 -0.92009109 0.015933108 0.094306126
-0.096631311 -0.016775941 0.23148742 -0.16361794 0.98650551 -0.0059950831 0.050043691
-0.087020598 -0.017511094 0.23586209 0.06760256 0.99771225 -0.00045789778 3.8496688e-05
-0.075555511 -0.018315783 0.23438324 0.067282394 0.99773389 0.00048399172 5.421949e-06
-0.064612612 -0.019000208 0.23625386 0.06367135 0.99797088 0.00022068618 7.8865799e-07
-0.054363109 -0.019641262 0.23411334 0.059326116 0.99823862 -9.2026647e-05 3.8572398e-06
0.27458948 -0.019789785 0.2380605 -0.059367396 0.99823612 0.00044027632 4.4303965e-06
0.28605387 -0.019072743 0.23567742 -0.063401356 0.9979881 5.396445e-06 1.309211e-06
0.29402262 -0.018574338 0.2326638 -0.065278567 0.99786711 -0.00011557205 3.0540411e-06
0.30343392 -0.01796329 0.23471747 -0.06862089 0.99764258 -0.00076915201 5.9949775e-06
0.31605217 -0.017019203 0.23462927 -0.098271787 -0.99466628 -0.031330597 0.041763462
0.32444239 -0.016377404 0.23454732 -0.16375901 -0.98650032 -0.00024561404 0.057880975
0.33448699 -0.015609056 0.23530924 -0.36038771 -0.93130881 0.05277013 0.086707339
0.34076828 -0.016184455 0.23757577 -0.46610108 -0.88349164 0.046822239 0.082220487
-0.11593057 -0.24457005 0.24586327 0.74239916 0.66883546 -0.038763624 0.097891539
-0.10541001 -0.24438265 0.24307385 0.32792979 0.94441223 -0.02340054 0.085031524
-0.095509008 -0.24362528 0.24510609 0.12665705 0.99183196 0.015075311 0.056258041
-0.082244791 -0.24261355 0.24478711 -0.069555119 0.99757797 0.00048558516 0
-0.076232716 -0.24221365 0.24414343 -0.067984641 0.99768633 0.00024492285 0
-0.064942002 -0.24150747 0.24534787 -0.062812239 0.99802536 0.00028693257 1.6379514e-05
-0.055841915 -0.24093831 0.24315609 -0.06070682 0.99815565 4.1609463e-05 2.620725e-05
-0.045005601 -0.24026135 0.24392974 -0.056933295 0.99837786 0.00046292855 0
0.26924431 -0.24036297 0.24394529 0.056893658 0.99838012 0.00057146611 0
0.2727114 -0.24057981 0.24604879 0.058029734 0.9983148 0.00026872769 9.2255941e-06
0.2836659 -0.24126497 0.24703912 0.062660255 0.99803489 0.00020327522 2.8759414e-05
0.29510143 -0.24198021 0.2458327 0.066026241 0.99781781 -0.00032262778 0
0.30610114 -0.24270952 0.24434344 0.071504168 0.99744028 -0.00024569492 2.8904244e-05
0.31587875 -0.24345462 0.24542132 -0.10900528 0.9934094 -0.035436507 0.033892814
0.32504463 -0.24415573 0.24534647 -0.3131364 0.94644761 -0.078628764 0.091609754
0.33482912 -0.24490419 0.24436502 -0.54197711 0.83749932 -0.06968262 0.10901095
0.34129548 -0.24360567 0.24373019 -0.83403552 0.55064631 -0.034254652 0.10369617
-0.1174114 -0.23464936 0.24631763 0.88665974 0.46059179 0.041106094 0.08964397
-0.036024064 -0.23978724 0.24321167 -0.05306118 0.99859107 0.00060175825 9.6253843e-06
-0.026802456 -0.23933887 0.24687336 -0.050675891 0.9987151 1.1963566e-05 3.8936767e-05
-0.013514556 -0.23869281 0.24676727 -0.045101091 0.99898231 -0.00035274649 0
-0.0049077854 -0.23828624 0.24573585 -0.041761335 0.99912763 -1.3279758e-05 1.0545814e-05
0.0065919724 -0.23786223 0.24267614 -0.037277862 0.99930489 9.8112854e-05 9.1272677e-06
0.01512152 -0.23756611 0.24480778 -0.03463424 0.99940002 -2.6218746e-05 0
0.026361622 -0.2371759 0.24502395 -0.03073938 0.99952739 6.0265396e-05 0
0.036466453 -0.23685798 0.24502559 -0.02699146 0.99963552 0.00053164299 0
0.044009939 -0.23669629 0.24542329 -0.024112951 0.99970925 -7.0927003e-05 0
0.054654393 -0.23647462 0.24544327 -0.020974513 0.99977988 -0.00054224388 8.9770019e-06
0.064290136 -0.23627399 0.24465211 -0.017226117 0.99985152 0.00018854449 2.3558861e-05
0.074477002 -0.23608425 0.24414149 -0.013080002 0.99991441 0.00015783492 2.0375164e-05
0.085091345 -0.23601057 0.24340148 -0.0091357166 0.99995828 0.00011699029 1.8674848e-05
0.093024813 -0.23595551 0.24526355 -0.0067321365 0.99997729 6.1431987e-05 0
0.10530438 -0.23587029 0.24567492 -0.0021041355 0.99999768 -0.000289093 1.4704191e-05
0.11915445 -0.23588319 0.24546528 0.0028415066 0.99999595 -8.0002857e-05 0
0.12370187 -0.23591475 0.2450075 0.0043726563 0.9999904 0.00026346414 0
0.1348967 -0.23599243 0.24569052 0.0082955062 0.99996561 -1.3790392e-05 0
0.14619118 -0.23607087 0.24620979 0.012895908 0.99991685 -7.3196832e-05 0
0.15406339 -0.23618552 0.24391712 0.016818209 0.99985856 0.00027404763 0
0.16478528 -0.23640877 0.24594884 0.019381398 0.99981219 8.0765531e-05 2.2375194e-05
0.17594692 -0.23664123 0.24579453 0.023211934 0.99973059 -0.00011089374 1.5118932e-05
0.18622942 -0.23685534 0.24286945 0.027769579 0.9996143 0.00027415823 4.9330602e-06
0.19466211 -0.23712116 0.24495119 0.029812079 0.99955553 0.00013945614 0
0.20585386 -0.23750967 0.24643034 0.033145186 0.99945062 3.4471988e-05 3.8386593e-06
0.21523124 -0.23783524 0.24373287 0.037809692 0.99928498 -0.00010926388 0
0.22617728 -0.23822117 0.24583498 0.041738331 0.99912858 0.00024838644 2.0428221e-05
0.23998559 -0.23888098 0.24699074 0.046685964 0.99890953 -0.00021921957 7.5224307e-06
0.2458801 -0.23916756 0.2454706 0.049061731 0.99879581 -0.0001163955 0
0.25302288 -0.23951487 0.24550389 0.050469562 0.99872559 0.00021298121 0
0.26269227 -0.239985 0.24905267 0.054267284 0.99852645 -0.0002698774 3.3407043e-05
0.33967647 -0.23246257 0.24219753 -0.94933283 0.31262752 0.032111447 0.086210951
0.34031123 -0.23659486 0.2449393 -0.85068417 0.52478731 -0.030572096 0.1079568
-0.11556171 -0.22176173 0.24290618 0.98560661 0.15528253 0.066834971 0.039440952
0.33830893 -0.22286734 0.24780741 -0.99192107 0.10611959 0.069506973 0.033353932
-0.11754788 -0.21525192 0.24560945 0.99648273 -0.0016348134 0.083781831 0.0029985085
0.33749366 -0.21642458 0.24292213 -0.99784786 0.0094488859 0.06488803 0.0053982544
0.34104598 -0.21382309 0.24596238 -0.99818331 -0.0088377474 0.059597991 0.0034092539
-0.11836333 -0.20504414 0.2426959 0.99564123 -0.016144412 0.091857731 0.0019102937
0.34110704 -0.20622121 0.24468537 -0.99817681 0.0035626167 0.060252175 0.0033698799
