# .PCD v0.7 - Point Cloud Data file format
VERSION 0.7
FIELDS x y z normal_x normal_y normal_z curvature
SIZE 4 4 4 4 4 4 4
TYPE F F F F F F F
COUNT 1 1 1 1 1 1 1
WIDTH 642
HEIGHT 1
VIEWPOINT 0 0 0 1 0 0 0
POINTS 642
DATA ascii
-0.28181818 0.11997114 0.13931246 1 -2.6821199e-05 -3.5473662e-05 0
0.28181818 0.11435659 0.13631696 -1 -3.9012557e-05 -3.4044351e-05 0
-0.28181818 0.12322978 0.13636565 1 4.1809735e-06 -1.9134286e-05 0
0.28181818 0.12631169 0.13599947 -1 -5.6962504e-05 -6.8308429e-05 0
-0.28181818 0.13644546 0.13748041 1 -7.9929727e-05 -7.8359721e-05 0
0.28181818 0.13462104 0.13527912 -1 -3.3181939e-05 -4.7368056e-05 0
-0.28181818 0.14567018 0.13608779 1 1.429064e-07 -1.703638e-05 0
0.28181818 0.14466718 0.13322079 -1 -1.9734411e-05 -9.0923379e-08 0
-0.28181818 0.15468346 0.13824126 1 -0.00010377458 -0.00010541623 0
0.28181818 0.15397674 0.1327633 -1 -7.0967661e-05 -8.8911998e-05 0
-0.28181818 0.16632155 0.13525216 0.99936253 -0.035679374 -0.0012338014 0.0046132491
0.28181818 0.16558574 0.13308978 -0.99970651 -0.023785098 0.0045993626 0.0027816209
-0.28181818 0.17666991 0.13698368 0.9724046 -0.23236689 0.020857088 0.038945969
0.28181818 0.17601085 0.13191049 -0.98089963 -0.19448851 -0.0031674842 0.041616607
-0.28181818 0.18388815 0.13748957 0.89280355 -0.45038548 0.0073946835 0.086033322
0.28181815 0.18665437 0.1351406 -0.9014172 -0.43284535 -0.0095921615 0.083262078
-0.27236903 0.19393942 0.13193998 0.44508302 -0.89543128 -0.010189624 0.080467373
-0.2651487 0.19393942 0.13871028 0.24043328 -0.97064155 -0.0068417555 0.041212916
-0.25645003 0.19393939 0.1360999 0.085580148 -0.99630797 -0.0068149767 0.0094216075
-0.24550673 0.1939394 0.13566382 -3.6492518e-05 -1 1.9232799e-05 3.0493085e-05
-0.23583324 0.1939394 0.1360157 -5.981894e-05 -1 1.1627167e-05 1.5495874e-05
-0.22679245 0.1939394 0.1328164 0 -1 0 1.631787e-05
-0.21271528 0.1939394 0.13807037 -2.2779923e-05 -1 -5.1138895e-06 8.814035e-06
-0.20508654 0.1939394 0.13859425 1.796389e-05 -1 -2.7431272e-05 0
-0.19051288 0.1939394 0.1378496 -3.2249904e-05 -1 -1.1152862e-05 3.1203763e-05
-0.17540476 0.19393939 0.13372636 5.7824476e-05 -1 -1.8325652e-05 0
-0.15618241 0.1939394 0.13471892 4.5966306e-05 -1 -3.7129961e-05 0
-0.14458749 0.1939394 0.13997883 -1.5063952e-06 -1 -3.6672274e-05 0
-0.13819538 0.1939394 0.13552216 1.4633331e-05 -1 1.5902977e-05 0
-0.12372665 0.19393939 0.13537295 2.6752228e-05 -1 -5.5494202e-06 0
-0.11553299 0.19393939 0.13517627 1.2110269e-06 -1 -8.6049813e-06 8.5850643e-06
-0.10559658 0.19393939 0.13462508 9.358504e-06 -1 -1.9898767e-05 0
-0.092350915 0.1939394 0.1342777 7.6027673e-06 -1 -6.0982109e-07 0
-0.082655057 0.1939394 0.13523023 5.4360653e-06 -1 -2.7707267e-05 0
-0.076896593 0.1939394 0.13474894 -1.0329784e-05 -1 -7.5669386e-06 0
-0.063147791 0.19393939 0.13944532 1.1661449e-05 -1 2.4813515e-05 2.3952196e-05
-0.044157621 0.19393939 0.13238567 0 -1 0 1.8377925e-05
-0.035457093 0.1939394 0.13363194 -2.1421749e-06 -1 9.1480206e-06 1.6674096e-05
-0.024773898 0.1939394 0.13747981 7.5228681e-06 -1 5.849397e-07 0
-0.010251509 0.1939394 0.1326137 6.4109361e-07 -1 -1.8026016e-05 8.2371535e-06
-0.0071485341 0.1939394 0.13365008 -1.1498882e-06 -1 -9.4569723e-06 8.4315079e-06
0.0061614304 0.1939394 0.1343921 2.0747018e-06 -1 -8.3297246e-06 8.4126177e-06
0.017957315 0.1939394 0.13115013 7.3547318e-07 -1 -1.5706184e-05 8.1677399e-06
0.028569456 0.19393942 0.13494179 -7.7395879e-07 -1 8.5175207e-06 8.3660716e-06
0.034682564 0.1939394 0.13323008 -8.1030821e-06 -1 2.0887321e-05 1.6877824e-05
0.05362089 0.1939394 0.1349519 -2.9333179e-07 -1 -8.0316986e-06 1.6158036e-05
0.064600147 0.19393939 0.13685139 5.6126976e-07 -1 1.6666963e-05 1.7334763e-05
0.07855092 0.1939394 0.1377728 8.7897697e-06 -1 3.2479209e-05 1.5382335e-05
0.09134353 0.1939394 0.13353957 4.2348943e-06 -1 3.1043357e-05 8.4727908e-06
0.13280086 0.1939394 0.13905017 1.0308798e-05 -1 3.9946221e-07 8.7098688e-06
0.14440218 0.1939394 0.1342593 -1.79364e-05 -1 -1.6770984e-05 8.3264085e-06
0.15427473 0.1939394 0.13429549 9.1909187e-06 -1 -1.3942504e-06 1.8004348e-05
0.16462444 0.1939394 0.13578688 1.8833223e-05 -1 -3.0262569e-05 8.9755004e-06
0.17487934 0.1939394 0.13507575 -1.3640209e-06 -1 8.1494391e-06 8.6088903e-06
0.1953557 0.1939394 0.13483167 4.4543591e-05 -1 2.5641915e-05 3.0098583e-05
0.20353933 0.19393939 0.13735905 3.5085908e-05 -1 1.4474381e-05 2.9250215e-05
0.21395405 0.1939394 0.13473511 6.6049455e-05 -1 -1.2901968e-06 1.7066379e-05
0.22415788 0.19393939 0.13482809 -6.3139625e-05 -1 8.2329525e-06 0
0.23533171 0.19393939 0.13592972 -7.9099442e-07 -1 1.4095024e-05 7.5173389e-06
0.25502032 0.1939394 0.13190936 -0.071467333 -0.99744141 0.0017582593 0.0078157168
0.26297635 0.19393942 0.13783449 -0.24391726 -0.96966988 -0.015639771 0.052778121
0.28181818 0.19045126 0.13874732 -0.86130261 -0.50444412 0.06077759 0.076414108
-0.28181815 -0.18486266 0.14595337 0.82388413 0.56618851 0.02540591 0.073806874
-0.2751748 -0.18787879 0.1480376 0.46853706 0.88210541 0.048611686 0.067531586
-0.26963881 -0.18787879 0.14445968 0.42103285 0.90686077 0.018301396 0.063455299
-0.25678489 -0.18787879 0.14494188 0.093278952 0.99561131 0.0075639817 0.013697695
-0.23645815 -0.18787879 0.14331526 4.451118e-05 1 -2.6549026e-06 0
-0.22589488 -0.18787879 0.14676744 8.0316408e-07 1 -1.4515937e-05 0
-0.21659315 -0.18787879 0.14504719 1.6831009e-05 1 6.4153332e-06 2.2337519e-05
-0.20680396 -0.18787879 0.14341301 4.0969462e-05 1 2.5266118e-05 8.846343e-06
-0.19181213 -0.18787879 0.14870209 -1.545381e-05 1 -6.1232713e-06 3.9562106e-05
-0.18315668 -0.18787879 0.14388283 -1.5643849e-05 1 1.4444553e-05 3.9583967e-05
-0.17664357 -0.18787879 0.14330487 -3.5037287e-05 1 1.5576037e-05 4.154913e-05
-0.16365705 -0.18787879 0.14479731 -2.4882598e-05 1 8.0573018e-06 3.9117229e-05
-0.15363716 -0.18787879 0.14333218 2.6584478e-06 1 2.0601281e-05 2.6413778e-05
-0.14836377 -0.18787879 0.14210561 -7.682298e-06 1 7.9142092e-06 4.0563693e-05
-0.13951325 -0.18787879 0.14077263 -0 1 -0 3.9549752e-05
-0.12461196 -0.18787879 0.14134246 -9.710624e-06 1 2.4886837e-09 2.5468682e-05
-0.11417657 -0.18787879 0.14482327 2.2747598e-05 1 -9.7158363e-06 1.7600622e-05
-0.10619875 -0.18787879 0.14375071 9.0761432e-06 1 -8.1211274e-06 1.7502109e-05
-0.094494298 -0.18787879 0.14479619 -0 1 -0 3.8436468e-05
-0.081341736 -0.18787879 0.14797334 2.8036914e-06 1 -1.6533369e-05 2.4167437e-05
-0.06271293 -0.18787879 0.14487156 2.37725e-07 1 -8.832988e-06 0
-0.056819003 -0.18787879 0.14903498 8.6166747e-06 1 -2.6938467e-05 0
-0.034666974 -0.18787879 0.14382258 0.055580027 0.99845141 0.002362743 0.0057315505
-0.02121211 -0.18854426 0.14505985 0.014202724 0.99968112 0.020876402 0.0075878566
-0.01204172 -0.18787879 0.14955388 -0.024355439 0.99961638 0.01318448 0.007947945
-0.0054208473 -0.18836088 0.14683211 -0.048955724 0.99878019 0.0064368877 0.0064106751
0.0067964783 -0.18787879 0.14774558 -0.05686016 0.99837929 -0.0023951556 0.0035427799
0.015624839 -0.18787879 0.14373349 -0.016594552 0.99984521 -0.005860887 0.00065683282
0.025648676 -0.18787879 0.14752972 -7.8244584e-06 1 -3.6198366e-05 1.9137662e-05
0.036043301 -0.18787879 0.14329718 2.0776183e-06 1 1.7469299e-07 2.5861826e-05
0.040975504 -0.18787879 0.14434281 -2.0654497e-06 1 -4.9168662e-08 2.593974e-05
0.054422352 -0.18787879 0.14489225 8.3353125e-06 1 -1.4867103e-06 2.4632382e-05
0.068314135 -0.18787879 0.14619005 7.7976874e-06 1 -8.2853021e-06 2.6040439e-05
0.07571847 -0.18787879 0.14436114 5.5913756e-06 1 -7.5728231e-06 2.575194e-05
0.088477544 -0.18787879 0.14361921 -8.4081839e-06 1 5.6312393e-07 2.4814028e-05
0.095364027 -0.18787879 0.14520746 1.6187527e-05 1 -1.3505597e-07 2.4358169e-05
0.10671207 -0.18787879 0.14995927 -9.3493154e-06 1 8.6653445e-06 1.7345976e-05
0.1135782 -0.18787879 0.14382099 3.8024441e-06 1 -3.812759e-05 8.1552089e-06
0.12410627 -0.18787879 0.1450935 -2.6597641e-05 1 -1.9470028e-05 0
0.13733101 -0.18787879 0.14142066 -1.8767621e-05 1 -1.5256383e-05 1.7646544e-05
0.14406037 -0.18787879 0.14299522 -3.0991607e-05 1 -2.9258492e-06 8.808126e-06
0.15589489 -0.18787879 0.14660598 -8.6859391e-06 1 -3.2842814e-05 9.0519616e-06
0.16789721 -0.18787879 0.14603178 -9.2382646e-07 1 2.8138726e-05 8.5627535e-06
0.17684521 -0.18787879 0.14741616 -1.523449e-05 1 6.3378175e-06 2.3877772e-05
0.18465483 -0.18787879 0.14204925 2.7043943e-05 1 3.8144721e-05 3.9634833e-05
0.19660337 -0.18787879 0.14397736 3.3317676e-06 1 -1.7701519e-05 9.12424e-06
0.20484419 -0.18787879 0.14721297 -1.6681885e-05 1 -6.3097672e-05 0
0.21448895 -0.18787879 0.14106151 -1.8007791e-05 1 -3.3389649e-06 8.1264761e-06
0.23077802 -0.18787879 0.14370744 -1.654357e-05 1 -2.0477262e-05 0
0.24560012 -0.18787879 0.14260939 -5.2402967e-05 1 -2.073456e-05 0
0.25381511 -0.18787879 0.14727081 -0.016356735 0.99986547 -0.0011947254 0.0008288917
0.26344359 -0.18787879 0.14860564 -0.3117955 0.95002377 0.015441594 0.057418525
0.2742784 -0.18787879 0.14465177 -0.46655306 0.88440704 0.012345619 0.074587658
0.28099808 -0.18757515 0.14510812 -0.57281584 0.81968379 0.00059457315 0.081419915
-0.28181815 -0.17399411 0.14413086 0.92791718 0.37190357 0.025637086 0.070358925
0.28181818 -0.17427212 0.14281528 -0.95249176 0.30366331 -0.023410467 0.054712016
-0.28181818 -0.16744575 0.1478425 0.98525047 0.17036447 -0.016049657 0.028724616
0.28181818 -0.1673556 0.14766094 -0.98675287 0.16025233 -0.025259184 0.040786128
-0.28181815 -0.15539476 0.1460501 1 6.2393898e-05 -3.1345076e-05 0
0.28181818 -0.15181607 0.14324984 -1 4.5105102e-05 -6.2372063e-05 0
0.28181818 -0.14552879 0.14006406 -1 8.302588e-06 -7.3787087e-05 0
-0.28181818 -0.13666856 0.14564808 1 6.7412642e-05 -3.7759364e-05 0
0.28181818 -0.13649926 0.14459549 -1 6.2739848e-05 -1.8352934e-05 1.9703193e-05
-0.28181818 -0.12526058 0.14436625 1 1.7003316e-05 -3.2277956e-05 0
0.28181818 -0.12601984 0.14145406 -1 3.773726e-05 -2.7256732e-05 0
-0.28181818 -0.11773939 0.1433911 1 3.6451762e-05 -6.0864957e-05 0
0.28181818 -0.1168035 0.14697528 -1 5.2734737e-05 -5.7446206e-05 0
0.28181818 -0.10736705 0.14306492 -1 5.897457e-06 -7.1664988e-05 0
-0.28181818 -0.094170392 0.14524631 1 2.960641e-05 -1.5987947e-05 1.7425529e-05
0.28181818 -0.092741348 0.14394824 -1 4.0941009e-06 -7.1475333e-05 0
-0.28181818 -0.085867375 0.14882696 1 3.1874006e-05 -7.3138428e-05 0
0.28181818 -0.081359126 0.14333788 -1 1.2544222e-05 -4.7428908e-05 0
0.28181818 -0.079149827 0.14860037 -1 1.4415697e-05 -4.7029622e-05 0
-0.28181818 -0.069027051 0.14509314 1 1.5203094e-05 -3.2623277e-05 0
-0.28181818 -0.051626664 0.14351471 1 1.0980446e-05 -5.3807722e-05 0
0.28181818 -0.05543353 0.14733271 -1 1.3491009e-05 -8.278028e-05 0
-0.28181818 -0.040382773 0.14569965 1 1.5573858e-05 -5.8105255e-05 0
0.28181815 -0.043030519 0.14302337 -1 1.0650394e-05 -1.6753562e-05 0
-0.28181818 -0.039352462 0.14540967 1 1.5357244e-05 -3.8807852e-05 0
0.28181821 -0.039080538 0.14912263 -1 4.0208356e-06 -1.5827545e-07 0
-0.28181818 -0.024256192 0.14258607 1 -2.4816716e-06 -0.00010143883 0
0.28181818 -0.02672296 0.1458267 -1 1.3848589e-06 -3.5409183e-05 0
-0.28181818 -0.014442227 0.14691931 1 -3.5125051e-06 -8.5720276e-05 0
0.28181818 -0.015928436 0.14624673 -1 -5.5023224e-07 -2.09794e-05 0
0.28181818 -0.0030878722 0.14309013 -1 -3.1612726e-07 -3.7705642e-05 0
0.28181818 0.0052335188 0.14397109 -1 -4.5380469e-07 -2.0406525e-05 0
-0.28181818 0.012125827 0.14452432 1 -5.1496404e-06 -4.8484828e-05 0
0.28181818 0.02373434 0.14514644 -1 -7.3800931e-07 -3.6756399e-05 0
-0.28181818 0.030177895 0.14679311 1 -3.9822489e-06 -3.315548e-05 1.8605693e-05
0.28181818 0.035768524 0.14095935 -1 -1.4727613e-05 -1.5833619e-05 0
-0.28181821 0.044267323 0.14589876 1 -3.8745555e-05 -3.5406545e-05 0
0.28181818 0.047583282 0.14509214 -1 -1.5366017e-05 -3.8890321e-05 0
0.28181818 0.055075843 0.14346142 -1 2.0692282e-06 -1.8260516e-05 0
-0.28181821 0.067029923 0.14388517 1 -2.6700769e-05 -5.2417072e-05 0
0.28181818 0.061333038 0.1488882 -1 -6.8347858e-06 -1.9043862e-05 0
-0.28181815 0.075977661 0.14966175 1 -3.8856411e-05 -3.3465039e-05 0
0.28181818 0.074339159 0.14579774 -1 -2.8910314e-05 -4.2086565e-05 1.9688476e-05
-0.28181818 0.088717476 0.14626801 1 -2.0443153e-05 -3.3225038e-05 0
0.28181815 0.086919919 0.14579281 -1 -3.5362031e-05 -3.3468761e-05 0
-0.28181818 0.093707204 0.14534971 1 -2.9727296e-05 -6.2949017e-05 0
0.28181818 0.090920568 0.1435411 -1 -3.8783004e-05 -1.605408e-05 0
-0.28181815 0.10604473 0.14585887 1 -4.382887e-05 -3.6403646e-05 0
0.28181818 0.10818277 0.14743349 -1 -6.2244697e-05 -9.9336619e-05 0
-0.28181818 0.11165066 0.14798382 1 -4.7474292e-05 -7.305757e-05 0
0.28181818 0.11423426 0.14615422 -1 -1.835783e-05 -4.1068859e-05 0
-0.28181818 0.12123329 0.14500333 1 -1.9231831e-05 -0.00010531216 0
0.28181818 0.12761782 0.14275695 -1 -2.1085505e-05 -5.5204058e-05 0
-0.28181818 0.1376704 0.14263891 1 -6.0653369e-05 -1.213798e-05 0
0.28181818 0.13334112 0.1471478 -1 -2.8408056e-05 -7.032085e-05 0
-0.28181818 0.14535974 0.14517859 1 1.4367719e-06 -1.7681059e-05 0
0.28181818 0.14321017 0.14652169 -1 -5.406695e-05 -5.6971239e-05 0
0.28181818 0.1516903 0.14693394 -1 -6.8491296e-05 -9.0100868e-05 0
-0.28181818 0.1636478 0.14246807 1 -3.1596181e-05 -4.2035801e-05 0
0.28181818 0.16283007 0.14658216 -1 -3.3626136e-05 -4.2517699e-05 0
-0.28181818 0.17434281 0.1443515 0.98329008 -0.18035172 0.024777003 0.034063578
0.28181818 0.17355694 0.1417364 -0.97985119 -0.19808769 -0.02555115 0.043999501
-0.28181818 0.18654853 0.14566547 0.84742081 -0.53091413 -0.0028807414 0.086064368
0.28181818 0.18453118 0.14579253 -0.93539417 -0.35217351 -0.031804819 0.083863065
-0.27754921 0.1939394 0.14990391 0.56868464 -0.82200551 -0.030078636 0.065812245
-0.26443022 0.19393942 0.1414125 0.2234197 -0.97471756 -0.0030699924 0.03713331
-0.25737762 0.19393939 0.14425589 0.075662807 -0.99709302 0.0089811468 0.0096325185
-0.24667303 0.19393939 0.14864883 -1.0859327e-06 -1 2.8708882e-05 1.8042774e-05
-0.23376413 0.1939394 0.14240167 -1.4341546e-05 -1 4.1949501e-05 1.6610426e-05
-0.22079356 0.1939394 0.14559184 -1.2733274e-06 -1 3.1564858e-05 1.8791887e-05
-0.21043123 0.19393939 0.14719392 -1.908498e-06 -1 1.9170791e-05 1.7677459e-05
-0.20554255 0.19393942 0.14457817 2.4653715e-05 -1 -4.7913891e-05 9.0068461e-06
-0.19314487 0.19393939 0.14674979 1.5476105e-06 -1 2.8297107e-05 3.3892644e-05
-0.18356656 0.1939394 0.14799754 2.0720534e-05 -1 4.0772397e-06 9.2025493e-06
-0.1753861 0.19393942 0.14381966 6.1253435e-05 -1 -2.3025534e-05 0
-0.16388182 0.19393939 0.14429048 2.9893887e-05 -1 -1.7108483e-05 0
-0.12923679 0.1939394 0.14589083 1.5977335e-05 -1 -2.1823033e-05 0
-0.11532477 0.19393942 0.14537545 8.7844373e-06 -1 -1.4091667e-05 0
-0.10760673 0.1939394 0.14241099 9.8085948e-06 -1 -4.2103587e-05 0
-0.094551973 0.1939394 0.14508666 1.7843533e-05 -1 1.0310215e-05 0
-0.084255077 0.19393939 0.14304185 -1.7323138e-05 -1 -5.5482465e-06 9.2855107e-06
-0.076107368 0.1939394 0.14689037 1.2752989e-05 -1 -1.8348259e-05 0
-0.064283632 0.1939394 0.14230376 7.4840223e-06 -1 -8.0166346e-06 8.1552125e-06
-0.057416476 0.19393942 0.14863943 -6.5112026e-06 -1 9.1278453e-06 1.5266254e-05
-0.045554992 0.1939394 0.14631101 1.0410017e-05 -1 5.8182781e-07 0
-0.037065856 0.19393942 0.14670455 4.3864753e-07 -1 -7.7177574e-06 0
-0.02783259 0.19393942 0.14683281 -5.4438647e-07 -1 -2.018007e-05 0
-0.012590948 0.1939394 0.14588629 3.0601816e-06 -1 -2.9331872e-05 0
0.0085851047 0.1939394 0.14470705 2.3313148e-06 -1 -9.1988222e-06 7.9962474e-06
0.02504522 0.1939394 0.14481303 -3.443915e-08 -1 -1.7723652e-05 8.5979136e-06
0.035821993 0.1939394 0.14433278 5.4674847e-06 -1 1.9540697e-05 8.6929285e-06
0.047200833 0.1939394 0.14525859 -4.5898969e-06 -1 4.6954312e-07 2.6326186e-05
0.051434018 0.1939394 0.14232183 -5.0566205e-06 -1 1.4926715e-05 2.3730101e-05
0.065238945 0.1939394 0.14502332 4.3525411e-06 -1 1.4933191e-05 3.0529245e-05
0.076955676 0.19393942 0.1465739 1.8578904e-06 -1 2.629194e-05 4.0096649e-05
0.08789359 0.1939394 0.14166039 0 -1 0 8.7845101e-06
0.097046763 0.19393942 0.14862843 8.5872016e-06 -1 6.9459666e-06 1.6670398e-05
0.10670962 0.1939394 0.1408218 1.0129515e-05 -1 1.7848493e-05 8.4007979e-06
0.1111249 0.1939394 0.14220732 -1.8797689e-06 -1 1.5052628e-05 8.1584203e-06
0.1248761 0.1939394 0.14508519 0 -1 0 1.5835469e-05
0.14446969 0.1939394 0.14347066 -1.2063857e-05 -1 -5.8873667e-07 8.3803207e-06
0.15309379 0.1939394 0.14307189 1.944506e-06 -1 1.5864458e-05 1.6015778e-05
0.16789217 0.1939394 0.14066841 1.5879808e-05 -1 -8.4515032e-06 1.5575552e-05
0.17804718 0.1939394 0.14740838 0 -1 0 1.7193906e-05
0.18746442 0.1939394 0.14301819 2.1893027e-06 -1 -2.8651952e-05 9.0807634e-06
0.19302014 0.1939394 0.14553091 2.9353196e-05 -1 2.0690188e-05 3.1779913e-05
0.20577618 0.1939394 0.140807 0 -1 0 1.7199747e-05
0.21434328 0.19393939 0.14670028 1.5428443e-05 -1 -1.8041848e-05 1.913638e-05
0.22004074 0.1939394 0.14618357 -1.2238338e-05 -1 -3.7349113e-05 9.3128047e-06
0.23643291 0.1939394 0.14600471 -1.6687076e-05 -1 -2.8555256e-05 0
0.26570758 0.1939394 0.14268737 -0.30491883 -0.95104778 0.050324649 0.066627517
0.2753222 0.1939394 0.14784759 -0.50521427 -0.86211628 0.038910788 0.078171223
0.28105044 0.19352877 0.14276581 -0.7048794 -0.70792955 0.044506498 0.10726545
-0.020780684 -0.19335733 0.15282787 0.01697595 0.99985451 -0.0016506551 0.0097944522
-0.015156108 -0.19220912 0.15716965 -0.019062929 0.99967849 0.016721807 0.0099835014
-0.28130233 -0.18569639 0.15451095 0.74955344 0.66030651 0.046528488 0.094649948
-0.26403242 -0.18787879 0.15266052 0.24819399 0.96726435 0.052907865 0.050419141
-0.24817556 -0.18787879 0.15536147 4.7801332e-05 1 -8.3795767e-06 0
-0.23879364 -0.18787879 0.15835923 7.847161e-05 1 -1.9811971e-05 0
-0.22767851 -0.18787879 0.15496095 1.6465772e-05 1 1.7999075e-06 7.8844751e-06
-0.21830122 -0.18787879 0.15577978 4.1809493e-05 1 -1.9399411e-05 1.626288e-05
-0.2050503 -0.18787877 0.15358563 1.6402601e-05 1 2.9633188e-07 1.674639e-05
-0.19448888 -0.18787879 0.15497595 -1.8554583e-05 1 1.5677106e-05 2.4890482e-05
-0.17573135 -0.18787879 0.15502121 1.5928015e-05 1 9.946117e-07 1.6257349e-05
-0.16383082 -0.18787879 0.15232159 -2.5267756e-05 1 -2.8924798e-05 2.5838841e-05
-0.15529041 -0.18787879 0.15257074 -1.1273849e-05 1 1.6989507e-05 2.4974395e-05
-0.14539893 -0.18787879 0.15531059 7.9496649e-06 1 -3.8955528e-07 2.5489806e-05
-0.13520095 -0.18787879 0.15181842 -2.4228917e-05 1 1.6810522e-05 4.0011095e-05
-0.1221834 -0.18787879 0.15344322 -9.8498076e-06 1 9.5831501e-06 4.1260468e-05
-0.11546596 -0.18787879 0.15514481 -1.5036013e-05 1 -6.5864806e-06 3.8139911e-05
-0.1088225 -0.18787879 0.15660927 2.5260077e-05 1 -2.6561345e-05 2.507007e-05
-0.086342946 -0.18787879 0.15694122 1.6536515e-05 1 -6.5393084e-07 1.6960168e-05
-0.076906167 -0.18787879 0.15879779 2.2796898e-05 1 -8.5415795e-06 0
-0.067207873 -0.18787879 0.15532935 1.122628e-06 1 -7.1229406e-06 8.2337338e-06
-0.054027531 -0.18787879 0.15572509 3.4181253e-06 1 7.4231712e-06 1.5083172e-05
-0.046053637 -0.18787879 0.15519559 0.043817457 0.99903917 0.0009321972 0.0029538192
-0.036528513 -0.18787879 0.15539959 0.071514852 0.99736911 0.011854113 0.0069161146
-0.026151191 -0.18787879 0.1510701 0.043864716 0.99898398 0.010334937 0.0073309271
-0.014151083 -0.18787879 0.15320504 -0.020402716 0.9997918 -0.0003214711 0.0094161006
-0.0046532913 -0.18871047 0.15552223 -0.05923634 0.99824333 -0.0011502642 0.0071913018
0.0036333802 -0.18787879 0.15205257 -0.065647312 0.99782449 0.0060504647 0.0046413769
0.015609158 -0.18787879 0.15491125 -0.012508842 0.99991101 -0.0046314015 0.00045080137
0.025151497 -0.18787879 0.15439583 -0.0046317475 0.99998927 -0.00023520396 5.741265e-05
0.036092956 -0.18787879 0.15530224 4.343653e-06 1 -1.5819403e-05 2.5394598e-05
0.042818185 -0.18787879 0.15659653 -3.1250438e-06 1 -2.2087372e-05 2.3648985e-05
0.055710763 -0.18787879 0.15579277 -9.8831315e-06 1 -2.1000071e-05 8.4938656e-06
0.063803054 -0.18787879 0.15610723 4.4544722e-06 1 1.7303259e-07 1.6729557e-05
0.075080879 -0.18787879 0.15795322 -7.2965731e-06 1 -2.5120597e-05 1.7460417e-05
0.086215869 -0.18787879 0.15342027 6.8254253e-06 1 2.2861987e-05 3.9948409e-05
0.096059278 -0.18787879 0.15990305 -8.5478513e-07 1 1.6624497e-05 2.7087654e-05
0.11527555 -0.18787879 0.15701707 -0 1 -0 1.6847061e-05
0.12586196 -0.18787879 0.15572464 1.0254251e-06 1 8.6390282e-06 2.4271174e-05
0.13514695 -0.18787879 0.15837644 -8.3537161e-06 1 1.5277246e-05 2.4898183e-05
0.14543325 -0.18787879 0.15027694 -2.3265336e-05 1 -7.8409848e-06 0
0.15067035 -0.18787879 0.15943223 2.9325343e-05 1 -4.5491078e-07 3.7591533e-05
0.1759394 -0.18787879 0.15363948 -9.9674651e-08 1 1.6806543e-05 2.3690069e-05
0.18752427 -0.18787879 0.15779319 -1.8219222e-05 1 -1.0796183e-05 1.7483269e-05
0.19988608 -0.18787879 0.15475208 -2.8882374e-07 1 -1.8449649e-05 0
0.20583159 -0.18787879 0.1559152 -5.2212545e-05 1 -3.3470351e-05 0
0.21032386 -0.18787879 0.150462 -7.1415132e-05 1 -4.1405081e-05 0
0.22620487 -0.18787879 0.15481827 -2.3190009e-06 1 -4.4927066e-05 0
0.24343836 -0.18787879 0.15603684 -1.7165075e-05 1 7.0799556e-06 8.5679385e-06
0.25495359 -0.18787879 0.15282342 -0.052845515 0.99860007 0.0022724976 0.0074346159
0.26597953 -0.18787879 0.15474132 -0.33765918 0.94109941 0.017840754 0.063053809
0.28169951 -0.1843867 0.15475705 -0.70893663 0.70375085 0.046300273 0.10081174
-0.28181818 -0.17205702 0.15471177 0.97243875 0.23129581 -0.029412143 0.038744807
0.28181818 -0.1777118 0.15217976 -0.83783615 0.54567838 -0.016297875 0.094411515
0.28181818 -0.16652644 0.15623644 -0.98221147 0.18756901 -0.0088590486 0.042630669
-0.28181818 -0.15402336 0.155542 1 2.0903652e-05 -3.2037817e-05 0
0.28181818 -0.15633112 0.15501362 -0.99999982 0.00065837213 -0.0001177844 0
-0.28181818 -0.14583772 0.15939787 1 5.2468262e-05 -5.485586e-05 0
0.28181818 -0.14212683 0.15545046 -1 3.2242468e-05 -7.5687145e-05 0
-0.28181818 -0.13471377 0.15592742 1 2.0696096e-05 -1.7486807e-05 0
0.28181818 -0.13631637 0.15642479 -1 2.4437057e-05 2.6614819e-07 0
0.28181818 -0.12654291 0.15963902 -1 2.9185421e-06 -5.4034881e-05 2.0354069e-05
-0.28181818 -0.1120673 0.15442204 1 1.5200187e-05 -8.4582403e-05 0
0.28181815 -0.11408605 0.15322098 -1 3.4360772e-05 1.0044577e-06 2.0252781e-05
-0.28181818 -0.10392559 0.1574104 1 2.7281076e-05 -6.0727238e-05 0
0.28181818 -0.10261172 0.15518147 -1 6.7396264e-05 -0.00012082894 0
-0.28181818 -0.09472277 0.15399887 1 1.9169742e-05 -5.1392646e-05 0
0.28181818 -0.093804017 0.15502147 -1 4.3100827e-05 -3.3885302e-05 0
-0.28181818 -0.087560669 0.15307237 1 3.6401969e-05 -5.5987977e-05 0
-0.28181818 -0.073444948 0.15431751 1 1.0663874e-05 -4.7466747e-05 0
0.28181818 -0.075042233 0.15383229 -1 2.0812282e-05 -2.9602779e-05 0
-0.28181818 -0.062671155 0.15307403 1 -1.1710329e-06 -8.0834929e-05 0
0.28181818 -0.061483242 0.15651742 -1 1.2970257e-05 -7.8579891e-05 0
-0.28181818 -0.051167846 0.15539917 1 6.1600135e-06 -9.5787393e-05 0
-0.28181818 -0.044576887 0.15725879 1 8.2635319e-07 -5.8405967e-05 0
-0.28181818 -0.033734582 0.15378369 1 1.6545986e-05 -4.0071289e-05 0
0.28181818 -0.03496585 0.15991609 -1 1.5427169e-05 -3.3755157e-05 0
-0.28181815 -0.024845751 0.15331888 1 1.6989803e-05 -5.4954973e-05 0
0.28181818 -0.026601715 0.15493105 -1 3.7974919e-06 -3.1483112e-05 0
-0.28181818 -0.016105589 0.15183993 1 -1.0844841e-06 -8.6580083e-05 0
0.28181818 -0.015856061 0.15369484 -1 4.5926017e-06 -4.69566e-05 1.5763777e-05
-0.28181818 -0.0044772071 0.15829746 1 1.7555706e-06 -4.7591122e-05 0
-0.28181818 0.0052026762 0.15605415 1 -3.1989557e-06 -6.7993475e-05 1.7072245e-05
0.28181818 0.005760171 0.15517186 -1 -5.4634725e-06 -2.8953535e-05 0
-0.28181818 0.019451952 0.15541892 1 -8.6189457e-06 -1.5961037e-05 0
0.28181818 0.016846312 0.15162958 -1 -6.6569287e-06 -2.6495358e-05 0
-0.28181818 0.02355499 0.15678406 1 -1.483293e-05 -7.1049071e-05 0
0.28181818 0.025657415 0.15088539 -1 -2.2309239e-06 -4.2446161e-05 0
-0.28181815 0.037614331 0.15305175 1 -5.3610993e-06 -5.6682624e-05 0
0.28181818 0.033515792 0.1574209 -1 -7.4559116e-06 -1.6782569e-05 0
-0.28181818 0.042011525 0.15878819 1 -1.4213502e-05 -3.5070185e-05 0
-0.28181818 0.054683492 0.15580207 1 -4.3618966e-05 -6.2545645e-05 0
0.28181818 0.056873646 0.15273386 -1 -1.534956e-05 -1.6239712e-05 0
-0.28181818 0.064197689 0.15260468 1 -1.9349089e-05 -5.592659e-05 0
0.28181818 0.062992409 0.15701349 -1 1.8183327e-06 1.7691156e-05 1.7103115e-05
-0.28181818 0.076292142 0.15644512 1 -1.7662442e-05 -3.457061e-05 0
0.28181818 0.076293796 0.15704276 -1 -3.3930599e-05 -8.0351092e-05 0
-0.28181818 0.083992206 0.15682009 1 -2.837608e-05 -1.5699274e-05 0
0.28181818 0.085469067 0.15683021 -1 -7.1114428e-06 -3.4185013e-07 0
-0.28181818 0.098774254 0.15756582 1 -3.2163582e-05 -5.5914486e-05 0
0.28181818 0.097462028 0.15577903 -1 -4.4432568e-06 -6.1939747e-05 0
0.28181815 0.10514256 0.15771505 -1 -1.8858733e-05 -2.5587102e-05 0
-0.28181818 0.11673355 0.15579753 1 -5.1751969e-05 -8.9250992e-05 0
0.28181818 0.11499031 0.15502855 -1 -4.7571641e-05 -8.9838468e-05 0
0.28181818 0.12506782 0.1535337 -1 -2.1986009e-05 -6.1705949e-05 0
-0.28181818 0.13570525 0.15387681 1 -1.8473153e-05 -1.830474e-05 0
-0.28181821 0.14761886 0.15759903 1 -6.7640816e-05 -6.4910992e-06 0
0.28181818 0.14562529 0.1565294 -1 -4.5142675e-05 -4.5127683e-05 0
-0.28181818 0.15360771 0.1535513 1 -5.2072712e-05 -5.2629373e-05 0
0.28181818 0.1568034 0.1553771 -1 -8.7544715e-05 -5.5230837e-05 0
-0.28181818 0.16131809 0.15310191 1 -6.5673536e-05 -5.0785009e-05 0
0.28181818 0.16390681 0.15761335 -0.99999058 -0.0042308462 -0.00099658279 0
-0.28181818 0.1723713 0.15965556 0.98997885 -0.13937329 -0.022734599 0.029604338
0.28181818 0.17660253 0.15557481 -0.98515129 -0.17133702 -0.010982116 0.03188026
-0.28181821 0.182702 0.15904033 0.91621768 -0.39253718 0.080372602 0.079495989
0.28181818 0.18565074 0.15504263 -0.94036341 -0.33882838 0.030198868 0.076072499
-0.28158489 0.19245279 0.15427125 0.70283747 -0.71134406 -0.0030149776 0.08151897
-0.26733914 0.19393942 0.15915522 0.35863546 -0.93179256 0.056064412 0.066304781
-0.25472569 0.19393939 0.15677842 0.089508682 -0.99596554 -0.0063812891 0.012993195
-0.24379525 0.19393939 0.15701085 -3.9727958e-05 -1 4.3576962e-05 3.2465268e-05
-0.23571333 0.19393939 0.15450351 -3.1165924e-05 -1 2.4733231e-07 1.7047361e-05
-0.22406897 0.19393939 0.15438254 -4.7932612e-05 -1 2.0100129e-05 3.3799024e-05
-0.21769714 0.19393942 0.15613416 -5.0567603e-05 -1 2.6145672e-05 2.4823445e-05
-0.20508377 0.19393939 0.155781 -5.7875237e-05 -1 -1.8098955e-05 3.6783222e-05
-0.19448213 0.19393939 0.15569872 -3.118239e-05 -1 9.6882368e-06 4.5138346e-05
-0.18431039 0.1939394 0.1543919 2.5055346e-05 -1 2.1922315e-05 9.7040502e-06
-0.17520121 0.1939394 0.15788311 1.3093951e-07 -1 -1.8038903e-05 9.331271e-06
-0.16394097 0.1939394 0.15243199 3.7624213e-05 -1 -2.2405708e-05 0
-0.14555675 0.1939394 0.15144564 3.8700429e-05 -1 -2.0550053e-05 0
-0.12928849 0.19393939 0.15959306 8.0248474e-06 -1 -1.4398227e-05 0
-0.11790932 0.1939394 0.15848164 6.9097536e-07 -1 -1.4992893e-05 0
-0.099375933 0.19393939 0.15598243 2.9090102e-06 -1 2.3765306e-05 1.6296664e-05
-0.083090015 0.1939394 0.15256025 8.3307359e-06 -1 -7.1269903e-07 0
-0.073820889 0.19393942 0.15478784 1.0683386e-06 -1 -5.2311319e-05 9.069382e-06
-0.068433799 0.19393942 0.15811154 -7.8455596e-06 -1 -1.6840459e-05 8.8793968e-06
-0.059446082 0.19393942 0.154531 -3.9640167e-06 -1 5.3360191e-07 8.5133825e-06
-0.046062209 0.1939394 0.15479559 -4.2673259e-06 -1 -7.5320504e-06 0
-0.015659869 0.1939394 0.15566888 -8.3571018e-07 -1 -6.6564398e-06 7.2021894e-06
0.0055102478 0.1939394 0.15426987 -1.8791048e-06 -1 -1.443097e-05 0
0.011675466 0.19393942 0.15953001 2.5044264e-06 -1 7.2780522e-06 7.3620581e-06
0.026259162 0.1939394 0.15328224 -2.710025e-06 -1 -1.6819886e-05 0
0.035376776 0.19393942 0.15454535 5.0327217e-06 -1 -1.9007733e-05 1.5682921e-05
0.048315294 0.19393942 0.15120593 -2.3087692e-07 -1 1.708164e-05 1.7141767e-05
0.056273639 0.19393942 0.15339622 1.1108246e-05 -1 -1.8948256e-05 1.7859682e-05
0.064687505 0.1939394 0.15811794 -3.6286535e-06 -1 -6.5491356e-08 1.8002464e-05
0.07437785 0.19393939 0.1552029 -1.879931e-06 -1 -2.2503022e-05 1.7607405e-05
0.083311334 0.19393939 0.15434223 9.5456244e-06 -1 4.7221536e-05 3.500333e-05
0.092010692 0.19393939 0.15320364 -1.2907326e-07 -1 7.6781307e-06 1.6223959e-05
0.10498871 0.19393939 0.15335152 -2.5399571e-05 -1 1.502478e-05 8.8478155e-06
0.11502491 0.1939394 0.15492521 1.5785239e-06 -1 1.8650493e-05 9.7521697e-06
0.12272207 0.19393939 0.15446213 -1.2830181e-05 -1 3.6323709e-05 8.3389177e-06
0.13431092 0.19393942 0.15769887 0 -1 0 1.7068054e-05
0.14530998 0.19393939 0.15748116 1.8707866e-05 -1 9.9406934e-06 1.5897192e-05
0.1545897 0.1939394 0.15581796 3.302117e-05 -1 -4.1873227e-06 1.6007274e-05
0.16422358 0.19393939 0.15356633 -3.7119997e-07 -1 -7.8818184e-06 7.8559588e-06
0.17391507 0.19393942 0.15343732 8.0025679e-08 -1 -1.8028963e-05 0
0.18643835 0.1939394 0.15477167 3.1972242e-05 -1 2.7240912e-05 3.2809839e-05
0.1966493 0.1939394 0.15287024 -5.4606076e-05 -1 5.6907943e-06 9.9080089e-06
0.2150086 0.19393939 0.15556814 2.6805017e-05 -1 3.2848871e-07 1.6459477e-05
0.2265228 0.1939394 0.15576689 -4.6511479e-05 -1 -9.5998039e-06 0
0.23324457 0.1939394 0.15482421 -2.6562831e-05 -1 -4.9742262e-05 0
0.25562659 0.19393939 0.15515269 -0.065889314 -0.99774832 0.012529329 0.010328826
0.26689598 0.19393942 0.15628441 -0.33923188 -0.94029909 0.02755608 0.06986209
0.27009881 0.19393942 0.15992641 -0.3372246 -0.93896139 0.068052411 0.072090663
0.28043219 0.19393939 0.15422916 -0.70411283 -0.70483649 0.086200722 0.076533481
-0.020894118 -0.19230621 0.16279009 0.024642896 0.99927616 0.028980393 0.0099542607
-0.013207123 -0.19165225 0.16472518 -0.039546944 0.99909741 0.015508328 0.010785
-0.28124598 -0.18580814 0.16396488 0.7822755 0.62293071 0.0015105159 0.08863505
-0.27496761 -0.18787879 0.16258234 0.53285098 0.84493542 0.046410542 0.081047215
-0.25296158 -0.18787879 0.16359191 0.018708354 0.99982357 0.0016901228 0.00057585124
-0.24475588 -0.18787879 0.1645478 3.5891335e-05 1 5.5563951e-06 0
-0.23129043 -0.18787879 0.16733125 2.7233154e-05 1 -1.1948756e-05 7.898082e-06
-0.21675573 -0.18787879 0.16785014 4.1752006e-05 1 -4.1702642e-05 0
-0.20432229 -0.18787879 0.16176413 -1.7215036e-05 1 8.9426512e-06 2.5298645e-05
-0.19389422 -0.18787879 0.1638906 -1.8687968e-05 1 -1.8254301e-05 2.520311e-05
-0.18433344 -0.18787879 0.16635619 2.6133346e-05 1 -2.1482625e-05 0
-0.17418 -0.18787879 0.16752189 -0 1 -0 0
-0.16730805 -0.18787879 0.16342843 -1.5433799e-05 1 1.0537729e-05 1.6680142e-05
-0.15450065 -0.18787879 0.16724616 2.9215764e-06 1 -1.5804071e-05 8.3622854e-06
-0.1427308 -0.18787879 0.16415493 -1.9169487e-05 1 -3.2274937e-05 1.6949032e-05
-0.1357014 -0.18787879 0.16908932 3.9073407e-06 1 -2.9269859e-05 2.3164184e-05
-0.12609258 -0.18787879 0.16495952 2.2109957e-06 1 1.6589258e-05 2.4615932e-05
-0.11213735 -0.18787879 0.16677003 1.8230467e-05 1 -2.0032265e-05 2.561257e-05
-0.10361762 -0.18787879 0.16420938 7.7344339e-06 1 -7.517925e-06 2.6063279e-05
-0.096034095 -0.18787879 0.16370085 2.7942975e-05 1 -9.9935896e-06 1.8354514e-05
-0.08392781 -0.18787879 0.16690716 2.4591734e-05 1 -6.3871354e-05 0
-0.07809712 -0.18787879 0.16496587 2.5398576e-05 1 -3.2809017e-05 0
-0.068039678 -0.18787879 0.16464345 -3.0798187e-06 1 -5.0860875e-05 9.3641411e-06
-0.046970729 -0.18787879 0.16521075 0.067533985 0.99767584 0.009061954 0.0044042137
-0.035211861 -0.18787879 0.16448593 0.059329629 0.99812341 0.015156601 0.0075524887
-0.027525138 -0.18787879 0.16202417 0.049789906 0.99874479 0.0054574255 0.0084917648
-0.013634837 -0.18787879 0.16928929 -0.020359075 0.99933779 0.030157303 0.0099641401
-0.0040937513 -0.18815859 0.16711998 -0.068701342 0.99728197 0.026625292 0.0072278562
0.0031236745 -0.18787879 0.1644482 -0.067672491 0.99767423 -0.0081523899 0.0044722045
0.015108255 -0.18787879 0.16550705 -0.029151822 0.99957448 -0.0009912611 0.0014053414
0.025405822 -0.18787879 0.16562632 -0.0015397024 0.99999881 0.00016872586 1.736679e-05
0.033129528 -0.18787879 0.16408432 -4.5212241e-06 1 -1.9933404e-05 1.7806431e-05
0.054861248 -0.18787879 0.16597046 -6.741674e-06 1 -4.3843982e-05 0
0.060835954 -0.18787879 0.16815935 -1.0085527e-05 1 -1.6451871e-05 1.5746449e-05
0.07898847 -0.18787879 0.16062143 8.0685659e-06 1 2.1641323e-05 3.7612648e-05
0.085410886 -0.18787879 0.16419007 8.381362e-06 1 -5.6969617e-07 2.4468542e-05
0.095506631 -0.18787879 0.16597794 -4.6679165e-06 1 3.261949e-05 2.6219743e-05
0.10529571 -0.18787879 0.16997205 -1.6986151e-05 1 -1.8674848e-05 2.674699e-05
0.11491872 -0.18787879 0.16606911 -0 1 -0 2.5047646e-05
0.12251411 -0.18787879 0.16381438 -6.192929e-06 1 7.814735e-06 2.3981984e-05
0.13436452 -0.18787879 0.16564067 3.1848977e-05 1 3.0910232e-05 2.4218334e-05
0.14646904 -0.18787879 0.16187687 1.5460553e-05 1 1.3262066e-05 1.6704034e-05
0.15267186 -0.18787879 0.16369326 4.6830301e-06 1 2.7216915e-05 2.3975024e-05
0.1661745 -0.18787879 0.16227035 -1.5439331e-05 1 -2.2262218e-05 2.4086414e-05
0.17330526 -0.18787879 0.16359247 -1.8849498e-05 1 1.3147826e-06 8.8900342e-06
0.18695906 -0.18787879 0.16201468 -3.5775211e-05 1 -2.617865e-05 1.7748916e-05
0.19527508 -0.18787879 0.16385758 1.7074852e-05 1 1.5016734e-05 1.6874226e-05
0.20747636 -0.18787879 0.16011702 -5.9748876e-05 1 -2.5633999e-05 0
0.21500823 -0.18787879 0.1644024 -1.0395585e-05 1 -2.7784241e-05 0
0.2248985 -0.18787879 0.16507712 -1.2263357e-05 1 -1.1162604e-05 1.5205629e-05
0.23732045 -0.18787879 0.16480647 -5.669261e-05 1 -2.8313723e-05 0
0.24725738 -0.18787879 0.16710804 -0 1 -0 8.6477476e-06
0.25772646 -0.18787879 0.16594249 -0.13649724 0.99063754 0.0024056816 0.020921474
0.26808798 -0.18787879 0.16570953 -0.35698861 0.93410689 0.0018587282 0.069246314
0.27679551 -0.18787879 0.16651592 -0.51914769 0.85288072 0.055499721 0.09034469
0.28181818 -0.18441646 0.16605848 -0.71414346 0.69988865 -0.012452334 0.098524742
-0.28181818 -0.17319579 0.16361001 0.97366744 0.22532764 0.034630477 0.042465646
0.28181818 -0.17246349 0.1654007 -0.91802198 0.39642623 0.0090565197 0.070248723
-0.28181818 -0.16437592 0.16663729 0.99784768 0.063350916 -0.016930915 0.0062200138
0.28181818 -0.16762385 0.16117312 -0.98923105 0.14633943 0.0025877776 0.02587348
-0.28181818 -0.15770474 0.16200778 0.99998671 0.0051420955 0.00015999597 0
-0.28181818 -0.1465375 0.16450225 1 4.4564873e-05 -3.5244113e-05 0
-0.28181818 -0.13688596 0.1692819 1 2.8758901e-05 -4.9872699e-05 0
0.28181818 -0.13497931 0.16716233 -1 3.9896175e-05 -4.530209e-06 0
-0.28181818 -0.12397356 0.16339405 1 2.0209422e-05 -3.1410153e-05 0
0.28181818 -0.12430225 0.16582842 -1 2.8122215e-05 -5.9440594e-05 0
-0.28181818 -0.11544365 0.1669599 1 -1.5197635e-05 -3.5926598e-05 0
0.28181818 -0.11757009 0.16520905 -1 5.5054694e-05 -4.302934e-05 0
-0.28181818 -0.10180891 0.16716525 1 2.7531132e-05 -1.6863542e-05 0
0.28181818 -0.1057452 0.16373473 -1 3.812505e-05 -5.7894824e-05 0
-0.28181818 -0.099782959 0.16960202 1 4.8888181e-05 -2.9622128e-05 0
0.28181818 -0.096139804 0.16375338 -1 3.8818984e-05 -5.5232893e-05 0
-0.28181818 -0.085421637 0.16534323 1 3.2143813e-05 -3.3093271e-05 0
0.28181821 -0.086781144 0.16790664 -1 5.7598732e-05 -9.7928132e-05 0
-0.28181815 -0.076328576 0.16883084 1 6.520671e-05 -9.1185546e-05 0
0.28181818 -0.074712403 0.16567633 -1 2.6471878e-05 -3.1030046e-05 0
-0.28181818 -0.064923868 0.16072822 1 1.0018712e-05 -5.9917373e-05 0
0.28181818 -0.066863962 0.16710515 -1 1.7195995e-05 -4.0851428e-05 1.7170345e-05
-0.28181815 -0.057011321 0.16591226 1 -1.0506276e-05 -0.00010574149 0
0.28181818 -0.05723653 0.1657259 -1 1.6980995e-05 -5.6813384e-05 1.6033366e-05
0.28181818 -0.044406306 0.16623454 -1 3.9980782e-06 -1.6923661e-05 0
-0.28181818 -0.034392301 0.16592759 1 5.4008051e-06 -1.7044264e-05 0
-0.28181818 -0.027609028 0.16568172 1 1.2586393e-05 -1.669454e-09 0
0.28181821 -0.022266589 0.16262478 -1 9.7375314e-06 -4.8813068e-05 0
-0.28181818 -0.019544479 0.16376595 1 1.0344015e-05 -2.1893689e-05 0
0.28181815 -0.016785027 0.16577496 -1 1.2228096e-06 -7.9846272e-05 0
-0.28181818 -0.0044602058 0.16638316 1 5.7178619e-07 -2.1250438e-05 0
0.28181818 -0.0021938551 0.16597597 -1 2.0206405e-06 -1.9408852e-05 1.7164792e-05
-0.28181818 0.0013205353 0.16604111 1 -4.936764e-07 4.8413209e-08 0
-0.28181818 0.013932154 0.16403474 1 -8.8186925e-06 -1.8123192e-05 0
0.28181818 0.014953211 0.16596973 -1 -7.9916063e-06 -4.8460279e-05 0
-0.28181818 0.02535928 0.16791165 1 -1.6865633e-05 -7.7477416e-05 0
0.28181818 0.023602491 0.16628219 -1 -4.7173935e-06 -4.2902549e-05 0
-0.28181818 0.036584962 0.16530001 1 -1.414004e-05 -1.7922703e-05 0
0.28181818 0.032351203 0.16825686 -1 -8.3201858e-06 -5.0321312e-05 0
-0.28181818 0.04201429 0.16765343 1 -1.790376e-05 -5.9439644e-05 0
0.28181818 0.040024869 0.16680059 -1 -4.3480068e-07 -1.5756201e-05 0
-0.28181818 0.056208778 0.16839133 1 -1.6310281e-05 -3.6295711e-05 1.8024302e-05
0.28181815 0.058314893 0.16263634 -1 -1.537656e-05 -7.4623385e-05 0
-0.28181818 0.062518805 0.16657013 1 -7.017024e-06 -3.8456601e-05 0
-0.28181818 0.075007066 0.16493416 1 -2.7993294e-05 -6.2499974e-05 0
0.28181818 0.073709719 0.16477653 -1 -2.0294501e-05 -1.5829588e-05 0
-0.28181818 0.086544834 0.16431396 1 -2.9687142e-05 -5.4867178e-05 0
0.28181818 0.088452213 0.16870244 -1 -2.0023755e-05 -6.9996771e-05 0
-0.28181818 0.093944855 0.16360039 1 0 0 0
0.28181818 0.096204735 0.16768159 -1 -3.136713e-05 -5.3961292e-05 0
-0.28181815 0.10949498 0.1636904 1 -3.4588451e-05 -5.2352381e-05 0
0.28181818 0.10628804 0.1681357 -1 -1.4563299e-05 -3.4012395e-05 0
-0.28181818 0.11041315 0.1683588 1 -6.4920023e-05 -6.2674721e-05 0
0.28181818 0.11937481 0.16882302 -1 -4.2805594e-05 -0.00010185999 0
-0.28181818 0.1250364 0.16080937 1 -3.6519163e-05 -5.9519465e-05 0
0.28181818 0.12057485 0.16212556 -1 -6.6524117e-05 -0.00012052852 0
-0.28181818 0.13738516 0.16134442 1 -3.090395e-05 -8.8809356e-05 0
0.28181818 0.13557167 0.16465494 -1 -2.7428352e-05 -7.9158082e-05 0
-0.28181821 0.14275631 0.16108143 1 -7.29815e-05 -5.1732506e-05 0
-0.28181818 0.15530983 0.16438791 1 -7.6934521e-05 -3.5732319e-05 0
0.28181818 0.15429363 0.16480061 -1 -6.134624e-05 -5.1847313e-05 0
-0.28181818 0.16628355 0.16321553 0.99944222 -0.030571502 -0.013439861 0.0030166483
0.28181818 0.16058078 0.1669831 -1 -9.179255e-05 -8.5715234e-05 0
-0.28181821 0.17364137 0.16669117 0.98282439 -0.18112098 -0.035374403 0.037644144
0.28181821 0.17175268 0.16334379 -0.99305022 -0.11573973 0.021344477 0.019948158
-0.28181815 0.18338864 0.16411459 0.91492736 -0.40294358 -0.023330208 0.090760894
0.28181818 0.1879424 0.16311038 -0.89844304 -0.43414387 -0.06572067 0.084876202
-0.28181818 0.19088767 0.16428319 0.74210799 -0.66703326 0.065896608 0.089103833
-0.27527642 0.19393939 0.16527745 0.66900176 -0.73892421 0.080172934 0.086323999
-0.2632547 0.19393942 0.16566364 0.19894648 -0.97970611 0.024417162 0.046392463
-0.24515983 0.1939394 0.16399173 -5.3483956e-05 -1 1.84867e-05 1.6324786e-05
-0.23466842 0.1939394 0.16264206 -4.8384485e-05 -1 3.074425e-06 3.3779543e-05
-0.22245741 0.1939394 0.16424605 -3.3883658e-05 -1 1.9487872e-05 3.4291952e-05
-0.21534948 0.19393942 0.16878375 0 -1 0 1.8033881e-05
-0.20590898 0.19393939 0.16266879 -6.8638321e-05 -1 1.0319281e-05 4.5588582e-05
-0.19727117 0.19393939 0.16720545 -5.3428375e-05 -1 3.9052182e-05 3.4372446e-05
-0.18693101 0.1939394 0.16687764 -1.838929e-05 -1 -1.9771767e-06 8.9494124e-06
-0.17863245 0.19393939 0.16309853 -1.6710381e-05 -1 1.0068221e-06 1.722291e-05
-0.15666567 0.1939394 0.16685142 3.3811579e-05 -1 -4.8801099e-05 0
-0.13280669 0.1939394 0.1645391 -9.7926568e-07 -1 -1.5478439e-05 7.9730862e-06
-0.12356491 0.19393942 0.16835374 4.290367e-05 -1 -4.1581541e-05 0
-0.11682392 0.1939394 0.16696133 3.5154655e-05 -1 -2.0217736e-05 0
-0.10668221 0.19393939 0.16797248 7.8661069e-06 -1 2.4232881e-07 8.6932732e-06
-0.097198643 0.19393939 0.1655852 -2.391869e-05 -1 3.2031625e-05 4.4428991e-05
-0.083019637 0.1939394 0.16303015 -4.0985306e-06 -1 -1.5888387e-05 8.2996139e-06
-0.065973625 0.19393939 0.16406898 -8.2756401e-08 -1 1.5636158e-05 1.6165188e-05
-0.046100464 0.19393942 0.16375419 -2.4563251e-06 -1 1.7769695e-05 8.3679934e-06
-0.036310848 0.1939394 0.1677205 -2.0455795e-06 -1 2.1646339e-07 2.4166595e-05
-0.029767659 0.1939394 0.16479334 2.6541964e-06 -1 3.9954969e-08 0
-0.016930606 0.19393939 0.16934769 -4.6355922e-06 -1 -2.2696313e-05 8.7361768e-06
-0.0069342069 0.19393939 0.16444817 -5.005881e-07 -1 -2.3105562e-05 0
0.0056514628 0.1939394 0.16509408 2.286336e-06 -1 -4.3247983e-05 0
0.010422483 0.1939394 0.16204973 4.1296914e-07 -1 -1.4071415e-09 0
0.02593269 0.1939394 0.1677061 2.3522866e-06 -1 -2.0953148e-07 1.7195915e-05
0.037944596 0.1939394 0.1603038 -1.0156816e-06 -1 3.3613414e-05 2.5313344e-05
0.04413224 0.19393939 0.16358748 -2.0908576e-05 -1 -4.3798122e-05 0
0.057267394 0.19393942 0.16671868 -3.4771683e-06 -1 -6.9343128e-07 8.732005e-06
0.063322857 0.1939394 0.16530262 -9.932678e-06 -1 -8.9207224e-06 0
0.077049427 0.19393939 0.16558798 -7.1256641e-06 -1 2.3649549e-05 1.9132776e-05
0.084405936 0.1939394 0.16622184 -1.8216922e-05 -1 4.7655107e-05 1.869994e-05
0.094818562 0.1939394 0.16488278 -9.8629507e-06 -1 -3.8625822e-05 1.8715806e-05
0.10261357 0.19393939 0.16385157 1.4990327e-05 -1 2.0287611e-05 4.1398194e-05
0.11993647 0.19393939 0.16136682 1.8331299e-05 -1 3.9464674e-05 3.4604207e-05
0.12722456 0.1939394 0.16605124 2.9316036e-06 -1 3.7562972e-05 2.4002424e-05
0.13264078 0.1939394 0.16396618 0 -1 0 9.6162858e-06
0.14475068 0.19393942 0.16497856 -1.5350763e-05 -1 -1.4767641e-05 8.9305413e-06
0.15317872 0.1939394 0.16610852 -1.7322476e-05 -1 1.6672092e-07 1.6988917e-05
0.17614862 0.19393939 0.16382653 -3.5829929e-05 -1 -1.8218783e-05 1.5871676e-05
0.18639033 0.19393939 0.1642174 1.7405451e-05 -1 1.7567375e-07 1.7577546e-05
0.19551364 0.1939394 0.16227314 -2.0054033e-05 -1 7.5962262e-06 9.2500113e-06
0.20202057 0.19393939 0.16551052 2.4480994e-05 -1 3.0526637e-05 8.6524351e-06
0.21503089 0.1939394 0.16372369 -2.9682513e-05 -1 -5.9961771e-08 1.5535185e-05
0.22149375 0.19393942 0.16075832 -1.731066e-05 -1 3.3801368e-07 1.6164569e-05
0.2372663 0.19393939 0.16671154 -6.3978259e-05 -1 1.3587618e-05 0
0.24289478 0.19393939 0.16280316 -4.563835e-05 -1 -1.1971967e-05 0
0.25148731 0.19393942 0.16332889 -0.0050021401 -0.9999873 -0.00052108214 6.777572e-05
0.27681792 0.1939394 0.16669212 -0.48656791 -0.87318546 0.028262304 0.082835823
0.2809639 0.19290411 0.16462082 -0.68182552 -0.73110855 0.024378877 0.11629765
-0.02121211 -0.19368201 0.17358172 0.010287838 0.9997319 0.020744616 0.011445181
-0.013302814 -0.1916796 0.17152552 -0.01896592 0.99939626 0.029108062 0.010657199
-0.2815668 -0.18540096 0.17612612 0.68762374 0.7260589 -0.0034714655 0.079550542
-0.27514488 -0.18787879 0.1725942 0.52042323 0.85259616 -0.047322679 0.083552651
-0.26331073 -0.18787879 0.17009538 0.25951266 0.9656108 0.015775476 0.049233414
-0.25657141 -0.18787879 0.17492849 0.084577896 0.99640763 0.0042774174 0.011914321
-0.24647504 -0.18787879 0.17747511 3.5807563e-05 1 -1.0557803e-05 0
-0.2333793 -0.18787879 0.17257549 4.3127664e-05 1 2.0300107e-05 0
-0.2216389 -0.18787879 0.17339897 2.7849714e-05 1 1.673115e-05 7.8221292e-06
-0.21328485 -0.18787879 0.17378166 2.1434083e-05 1 -2.4961006e-05 1.6391525e-05
-0.20374539 -0.18787879 0.17821579 2.0412081e-05 1 -1.7793207e-06 0
-0.19445026 -0.18787879 0.17663597 1.6161728e-05 1 -3.3208184e-05 0
-0.18511437 -0.18787879 0.17328803 1.2806488e-05 1 -3.018073e-05 0
-0.16487364 -0.18787879 0.17264241 9.3234758e-06 1 -3.1503499e-05 0
-0.15398598 -0.18787879 0.17552745 5.6096043e-05 1 -5.6464219e-06 0
-0.14418489 -0.18787879 0.17753743 2.7303271e-05 1 -2.0008854e-05 1.7337861e-05
-0.13383518 -0.18787879 0.17339292 1.6174665e-05 1 4.2701186e-07 2.5381722e-05
-0.12400581 -0.18787879 0.17578888 -9.4746929e-06 1 -2.0438152e-07 2.4991503e-05
-0.11442647 -0.18787879 0.17427912 -8.1153912e-06 1 4.1071786e-08 2.5570516e-05
-0.10440945 -0.18787879 0.17287068 -1.3280464e-06 1 1.6776023e-05 2.5811658e-05
-0.093337633 -0.18787879 0.1724584 -1.4837507e-05 1 -4.0132287e-05 9.2287592e-06
-0.086460821 -0.18787879 0.17297857 2.2860327e-06 1 -3.7519327e-05 8.7577491e-06
-0.065879948 -0.18787879 0.17522997 1.3545201e-06 1 -1.5941076e-05 0
-0.055830672 -0.18787879 0.17149404 2.3749602e-05 1 -6.6875531e-05 0
-0.042397372 -0.18787879 0.17550707 0.059809811 0.99813145 0.012504279 0.0062577976
-0.035633788 -0.18787879 0.17443419 0.080591813 0.99674702 0.00047355256 0.0075169522
-0.02508259 -0.18862447 0.17267844 0.028063767 0.99948037 0.015853908 0.010333794
-0.0075937738 -0.18787879 0.17531714 -0.055359907 0.998375 0.013515996 0.0090913298
0.0070826532 -0.18787879 0.17605816 -0.066429399 0.99779105 0.00031104978 0.0034120728
0.019683911 -0.18787879 0.17166759 -0.0046938639 0.99998778 -0.001546073 7.932735e-05
0.026414245 -0.18787879 0.17576256 -0 1 -0 2.5900112e-05
0.033923142 -0.18787879 0.1790387 2.3165614e-06 1 1.6661506e-05 2.5496905e-05
0.045416653 -0.18787879 0.17498894 -9.697379e-06 1 -5.8422087e-05 1.6593633e-05
0.055235665 -0.18787879 0.17857639 -5.4661209e-06 1 -1.5955808e-05 1.4935174e-05
0.070435017 -0.18787879 0.17291974 4.0281579e-06 1 -1.7298162e-05 1.7766428e-05
0.08357437 -0.18787879 0.17169961 3.2065605e-06 1 1.5071911e-05 3.8065835e-05
0.094419263 -0.18787879 0.17591619 1.0284077e-05 1 4.221026e-07 2.5608993e-05
0.10606033 -0.18787879 0.1737151 1.0143251e-05 1 -1.7625895e-05 2.6683436e-05
0.11173406 -0.18787879 0.17644784 -9.4294946e-06 1 3.1198586e-05 3.9813462e-05
0.12575974 -0.18787879 0.17429601 -2.6032619e-06 1 3.1132353e-05 2.4901297e-05
0.14608449 -0.18787879 0.1764123 5.930639e-06 1 3.0334568e-05 1.5356665e-05
0.15606941 -0.18787879 0.17750694 9.6981721e-06 1 -1.8346e-05 1.6252137e-05
0.16810104 -0.18787879 0.17609271 -1.4898582e-06 1 -2.0055913e-05 9.2716873e-06
0.17544468 -0.18787879 0.17491628 -1.4461307e-05 1 -3.2052234e-05 1.7091628e-05
0.18014701 -0.18787879 0.17290431 -4.9025701e-05 1 -2.626447e-05 1.6938804e-05
0.20830627 -0.18787879 0.17615542 -2.9127366e-05 1 -1.0755602e-05 1.4224651e-05
0.22722238 -0.18787879 0.17424786 -2.5784668e-05 1 -2.9773621e-05 0
0.23437779 -0.18787879 0.17689164 -5.7984871e-05 1 -3.9187937e-05 0
0.24502182 -0.18787879 0.17409499 -6.82846e-05 1 -6.8744193e-05 0
0.25736183 -0.18787879 0.17640358 -0.046341613 0.99892306 0.0022679006 0.002769667
0.27685985 -0.18787879 0.17224544 -0.54499441 0.8383559 -0.01185281 0.072305866
0.28181818 -0.18183887 0.17493862 -0.85410589 0.51996726 -0.011710487 0.089166775
-0.28181818 -0.17501359 0.17331226 0.94584221 0.31927162 -0.058720719 0.057853464
-0.28181818 -0.16626398 0.1731962 0.98977011 0.14267038 0.00050896057 0.029678114
0.28181818 -0.16654691 0.17491767 -0.9948085 0.10044417 0.016342286 0.018881794
0.28181818 -0.15488024 0.1769141 -1 1.4923472e-05 -7.7583863e-05 0
-0.28181818 -0.14356525 0.17370863 1 3.3412249e-05 -3.4959361e-05 0
0.28181818 -0.14199509 0.17013499 -1 7.4972122e-05 2.3121834e-06 0
-0.28181818 -0.13476032 0.17836028 1 7.7565477e-05 -7.5265212e-05 0
0.28181818 -0.13500561 0.17086174 -1 2.5813584e-05 -1.6074348e-05 1.8785755e-05
-0.28181818 -0.12097888 0.17362016 1 3.7901089e-05 -7.7326433e-05 0
0.28181818 -0.12105904 0.17373946 -1 6.6339715e-05 -4.6449561e-05 0
-0.28181818 -0.11443865 0.17630136 1 4.4105895e-05 -9.3608694e-05 0
0.28181818 -0.11356474 0.17718993 -1 5.8148169e-05 -0.00010305988 0
-0.28181818 -0.10245862 0.17568678 1 4.518883e-05 -5.0061863e-05 0
0.28181818 -0.10484695 0.17104316 -1 4.332461e-05 -6.4301399e-05 0
-0.28181818 -0.092794433 0.17463338 1 3.6093723e-05 -0.00013708288 0
0.28181815 -0.094509855 0.17670512 -1 4.370508e-05 -0.00010019887 0
-0.28181818 -0.084628716 0.17436379 1 2.0850597e-05 -8.287259e-05 0
0.28181818 -0.084111832 0.1739925 -1 2.6861082e-05 -6.9469264e-05 0
-0.28181818 -0.075866513 0.17154005 1 3.8277962e-05 -4.9843708e-05 0
0.28181818 -0.073283449 0.17335895 -1 3.1994732e-05 -3.6594807e-05 0
-0.28181818 -0.065596364 0.17421694 1 2.0178195e-05 -6.9073532e-05 0
-0.28181818 -0.059077997 0.17574494 1 3.2460252e-05 -5.205112e-05 0
