# .PCD v0.7 - Point Cloud Data file format
VERSION 0.7
FIELDS x y z normal_x normal_y normal_z curvature
SIZE 4 4 4 4 4 4 4
TYPE F F F F F F F
COUNT 1 1 1 1 1 1 1
WIDTH 664
HEIGHT 1
VIEWPOINT 0 0 0 1 0 0 0
POINTS 664
DATA ascii
0.1522267 0.18389963 0.29300839 -1.7781362e-05 -1 -2.0197422e-05 8.786742e-06
0.16746539 0.18389963 0.29523411 -1.0921001e-05 -1 -2.0025964e-05 0
0.177338 0.18389964 0.29619756 -1.9612919e-05 -1 1.7304666e-05 0
0.18425016 0.18389963 0.29422954 -1.7618593e-05 -1 -1.3974321e-05 0
0.21039386 0.18389961 0.29802731 -1.382472e-05 -1 1.5236501e-05 8.1107401e-06
0.22979954 0.18389963 0.2911424 -5.8988193e-05 -1 -1.2298598e-05 0
0.23649698 0.18389963 0.29609129 1.8953448e-05 -1 -1.9772307e-05 0
0.24705774 0.18389963 0.29786348 1.5885827e-05 -1 1.5400803e-05 9.176576e-06
0.26718113 0.18389963 0.29651594 2.010637e-05 -1 1.9942463e-05 9.2493046e-06
0.27373463 0.18389963 0.29824108 5.3646345e-05 -1 6.668007e-05 3.9079034e-05
0.2827661 0.18389961 0.29340708 1.6613094e-05 -1 -3.15014e-05 8.4255789e-06
0.29906958 0.18389963 0.29803482 -0.0052873949 -0.99998593 0.00049778633 4.5123754e-05
0.3027426 0.18389963 0.29619721 -0.086986378 -0.99620908 0.00092923437 0.015742444
0.3125425 0.18389961 0.2950497 -0.26536798 -0.96412158 0.0070226719 0.054991148
0.32478365 0.18361793 0.29471573 -0.58458209 -0.80858308 -0.066761792 0.088399857
-0.3315773 -0.18477547 0.30699116 0.74472481 0.66563153 0.048163418 0.08410313
-0.32808104 -0.18609762 0.30480954 0.63131899 0.77540183 0.013728377 0.082794063
-0.31481743 -0.18609762 0.30810645 0.21670675 0.97617495 -0.01098528 0.046085741
-0.30917096 -0.18609762 0.30531913 0.11179803 0.99372882 -0.0020742458 0.01864312
-0.2946375 -0.18609762 0.30099744 -1.8067615e-06 1 -2.9914623e-05 0
-0.2875981 -0.18609762 0.30258256 5.4430406e-05 1 1.6352774e-06 0
-0.27321196 -0.18609762 0.30461758 1.2911994e-05 1 2.8779343e-05 0
-0.26730949 -0.18609762 0.30478844 -1.5126712e-05 1 -2.9410216e-05 0
-0.25575483 -0.18609762 0.30833721 -0 1 -0 0
-0.23481253 -0.18609762 0.30530497 -1.8305023e-08 1 1.6828239e-05 0
-0.22357954 -0.18609762 0.3046042 1.7797658e-05 1 3.3680884e-05 0
-0.20050767 -0.18609762 0.30404523 1.5728108e-05 1 3.4371282e-05 0
-0.1835162 -0.18609762 0.3081027 -0 1 -0 0
-0.1759398 -0.18609762 0.30358988 -2.9298772e-06 1 -3.4158758e-05 0
-0.16362235 -0.18609762 0.30583251 4.2892247e-05 1 -5.8808064e-06 0
-0.15839233 -0.18609762 0.30041376 1.6167498e-05 1 -4.8249356e-05 0
-0.1405676 -0.18609762 0.3089928 5.448504e-06 1 -2.7422808e-05 0
-0.13033964 -0.18609762 0.30118972 1.426633e-05 1 -1.2259275e-05 0
-0.12534128 -0.18609762 0.30480859 -1.0762436e-05 1 2.8835269e-05 0
-0.10276954 -0.18609762 0.30970421 1.6190598e-06 1 -3.547989e-05 0
-0.092679091 -0.18609762 0.30210462 -8.8581046e-06 1 1.0031923e-06 0
-0.081987046 -0.18609762 0.30469581 1.4191904e-05 1 1.9764982e-05 0
-0.074120849 -0.18609762 0.30426624 5.0803933e-06 1 1.932432e-07 0
-0.064483002 -0.18609762 0.30802813 4.6057194e-06 1 2.8152384e-05 0
-0.049100522 -0.18609762 0.30444801 1.2765123e-05 1 2.956493e-05 0
-0.023995033 -0.18609762 0.30351031 2.6256193e-06 1 -2.7596518e-05 0
-0.017234534 -0.18609762 0.30345869 -3.6607832e-06 1 1.4657719e-05 0
-0.0048552081 -0.18609762 0.30723536 -1.5835374e-07 1 1.5672965e-08 0
0.0035875812 -0.18609762 0.3042593 -2.9671082e-06 1 -5.4189823e-05 0
0.015601367 -0.18609762 0.30373663 -1.2753364e-06 1 -1.5878351e-05 0
0.021812215 -0.18609762 0.3000766 -2.2916231e-06 1 -1.5902424e-05 0
0.033849411 -0.18609762 0.30526528 1.1190567e-05 1 -1.7443486e-05 0
0.048924699 -0.18609762 0.30777103 5.0401795e-06 1 3.2732223e-05 0
0.065940045 -0.18609762 0.30496767 1.7789633e-05 1 4.9993156e-05 0
0.071519628 -0.18609762 0.30174661 8.5704534e-07 1 1.8568498e-05 0
0.08495944 -0.18609762 0.30397239 -6.6745642e-06 1 4.1040945e-05 0
0.095191233 -0.18609762 0.30504137 -1.9360617e-05 1 5.104022e-06 0
0.10167539 -0.18609762 0.3005856 -9.1434949e-06 1 1.0731198e-06 0
0.11440275 -0.18609762 0.30410162 9.3956515e-07 1 5.1919851e-05 0
0.12797798 -0.18609762 0.30751598 6.7606643e-06 1 -3.4186822e-05 0
0.13841754 -0.18609762 0.30104274 1.1651722e-05 1 -2.9022511e-05 0
0.14642751 -0.18609762 0.30497503 8.7674498e-06 1 2.4588487e-06 0
0.15927243 -0.18609762 0.30809024 -5.0032969e-07 1 4.0199327e-05 0
0.16797161 -0.18609762 0.30693579 -1.6313063e-05 1 -2.6591767e-06 0
0.1744433 -0.18609762 0.30732045 -1.4621515e-05 1 -1.0518571e-06 0
0.18658692 -0.18609762 0.3044824 -3.5381447e-05 1 -8.9307367e-05 0
0.19530225 -0.18609762 0.30425605 -1.5321899e-05 1 1.9705034e-05 0
0.20505488 -0.18609762 0.30488268 -1.6651038e-05 1 -1.5561742e-05 0
0.21650934 -0.18609762 0.30399936 1.7853357e-06 1 -6.6330074e-05 0
0.22834945 -0.18609762 0.30655259 -5.6080485e-06 1 3.7271071e-05 0
0.23163362 -0.18609762 0.30515984 1.5093729e-06 1 -1.6504186e-05 0
0.25444904 -0.18609762 0.30380496 -4.5644141e-05 1 3.5354802e-05 0
0.26102847 -0.18609762 0.30360278 -0 1 -0 0
0.27703899 -0.18609762 0.30856505 -3.5805751e-05 1 -3.7645059e-05 0
0.28553352 -0.18609762 0.30357707 1.5197864e-05 1 3.3034568e-05 0
0.29668707 -0.18609762 0.30631715 -0.0064693703 0.99997866 -0.00094723207 5.9111091e-05
0.30920911 -0.18609762 0.30861259 -0.25830793 0.96534938 0.037115596 0.053155113
0.31257069 -0.18609762 0.30563614 -0.28036091 0.95958298 0.024458993 0.065551169
0.32620728 -0.18516472 0.30732834 -0.6749655 0.73706973 0.033907626 0.06717144
-0.3315773 -0.17386431 0.30505005 0.93625367 0.35013932 -0.028835652 0.076354399
0.32873815 -0.17366965 0.3028003 -0.92279857 0.38155144 0.053490374 0.077040821
0.32873815 -0.1648425 0.30457819 -0.98157936 0.1910547 -0.00018753833 0.041329138
0.32873815 -0.15455672 0.3084372 -1 -9.4375747e-07 -2.9032248e-05 0
0.32873815 -0.14574504 0.3090896 -1 5.4929886e-05 -4.2493488e-05 0
-0.3315773 -0.13414678 0.30285704 1 0 0 0
0.32873815 -0.13652158 0.30376709 -1 -2.6421915e-06 -5.2315972e-05 0
-0.3315773 -0.11656369 0.30201274 1 -2.4040658e-06 3.3109071e-05 0
0.32873815 -0.11787053 0.30313557 -1 -7.2510234e-06 -6.0726161e-05 0
-0.3315773 -0.10272168 0.30143094 1 -1.55698e-05 6.591867e-05 0
0.32873815 -0.10739331 0.30630511 -1 2.1225083e-05 -0.00011851209 0
-0.3315773 -0.093794927 0.30505571 1 -3.2092597e-05 3.7219437e-05 0
0.32873815 -0.099606767 0.30255333 -1 3.7520324e-06 -7.2101247e-05 0
-0.3315773 -0.084528297 0.3047868 1 -1.3534982e-06 -3.0452937e-05 0
0.32873815 -0.082789317 0.30431473 -1 -2.554371e-05 -0.00010630234 0
0.32873815 -0.074639618 0.30443707 -1 -2.1535288e-06 -0.0001472997 0
-0.3315773 -0.067671329 0.30781582 1 -0 -0 0
0.32873815 -0.064297423 0.30298179 -0.99999768 0.0013519956 0.0016777301 0
-0.3315773 -0.055737384 0.30430681 0.99993396 0.0085590016 0.0076713907 4.7700109e-05
0.32873815 -0.055843029 0.30444482 -0.99962234 0.020427829 0.018381434 0.00096068531
-0.3315773 -0.042956866 0.30700043 0.99970859 0.0091452654 0.022340266 0.00017367456
0.32873815 -0.045160584 0.30521953 -0.9986077 0.040840343 0.033387017 0.0015408054
-0.3315773 -0.033616219 0.30473185 0.99970663 0.0084050372 0.022715397 0.00014497696
0.32873815 -0.034386091 0.30200964 -0.99783361 0.034664959 0.05591407 0.002273503
-0.33184025 -0.023131007 0.30204111 0.99958163 0.0057493011 0.028346384 0.00014761723
0.33131343 -0.025898993 0.30577359 -0.99470782 0.052733094 0.088178806 0.0027487595
-0.33157733 -0.015840692 0.30205122 0.99953169 0.0063858079 0.029925751 0.00012863905
0.32873815 -0.011867067 0.30101487 -0.99510771 0.013965045 0.097803392 0.0028674086
0.33172774 -0.018099545 0.30401134 -0.99405295 0.033316031 0.10367616 0.0028619263
-0.3315773 -0.0090990765 0.30131695 0.99952507 0.0069332542 0.030026531 2.0192074e-05
0.32873815 -0.0082418611 0.30266857 -0.99526221 0.017232118 0.095687181 0.0026517638
0.33159167 -0.0023248326 0.30401134 -0.99449974 -0.009162223 0.1043375 0.0026166094
-0.33249313 0.0050404319 0.3059811 0.99956632 0.004784192 0.029057635 0.000100167
0.33265716 0.0013486939 0.30496228 -0.99497527 -0.0043903925 0.1000246 0.0025275508
-0.33267629 0.0159468 0.30787688 0.99962783 -0.0073401243 0.026275823 0.00019774864
0.32873815 0.017955506 0.3015275 -0.99633169 -0.02536859 0.081729457 0.0028783828
0.3326309 0.012651007 0.30627096 -0.99565983 -0.026483165 0.089219347 0.002936899
-0.33267629 0.028537661 0.30653232 0.99962991 -0.015837984 0.022118194 0.00014009683
0.32884237 0.027055422 0.30258244 -0.99648911 -0.053648423 0.064275756 0.0026974902
-0.3321268 0.033626996 0.30869758 0.99963892 -0.019271847 0.018724125 0.00016410202
0.32873815 0.038562488 0.30115572 -0.99797058 -0.051445652 0.037523687 0.0027235285
-0.3315773 0.040303353 0.30360523 0.99977821 -0.015907977 0.013801349 0.00012916485
0.32873815 0.044185728 0.30502498 -0.99837029 -0.047411121 0.031764325 0.0024650821
-0.3315773 0.0572403 0.30647153 0.99996489 -0.0082335994 0.0015456546 3.8691851e-05
0.32873815 0.054844894 0.3027401 -0.99964362 -0.02467639 0.010185181 0.0013464064
-0.3315773 0.06335941 0.30657005 0.99998921 -0.0046067592 0.0005877401 4.0070804e-06
0.32873818 0.065689616 0.30440733 -1 -2.354382e-05 -3.2592601e-05 0
-0.3315773 0.084251501 0.30533594 1 2.7111781e-05 6.9264883e-05 0
0.32873818 0.086589776 0.30370107 -1 -4.559771e-05 -3.768436e-05 0
-0.3315773 0.095760606 0.30556616 1 2.1452406e-05 -3.5265891e-06 0
0.32873815 0.099946253 0.30770186 -1 -3.6518439e-05 -9.0508984e-05 0
-0.3315773 0.10421014 0.30743977 1 0 0 0
0.32873815 0.1010313 0.30248123 -1 -4.4112927e-05 -5.7836129e-05 0
-0.3315773 0.11621788 0.30665791 1 1.4712775e-05 4.1312687e-05 0
0.32873815 0.11516429 0.30878019 -1 -3.1630479e-05 -9.4238392e-05 0
-0.3315773 0.12796322 0.30436346 1 1.4341378e-05 9.2763952e-07 0
0.32873815 0.1223796 0.30754358 -1 -3.0810152e-05 4.9369351e-06 0
-0.3315773 0.13607903 0.30456442 1 4.3586031e-05 3.9326889e-05 0
-0.3315773 0.14044791 0.30505124 1 -1.4616044e-05 4.0457384e-05 0
0.32873815 0.14442185 0.30241671 -1 -3.0784948e-05 -1.0316742e-06 0
-0.3315773 0.15394115 0.30377269 1 -3.3605033e-05 -3.6523692e-05 0
-0.3315773 0.16522577 0.30861592 0.99204028 -0.12171835 -0.032261293 0.018591933
0.32873815 0.1684916 0.3052125 -0.96434742 -0.25563133 0.068459019 0.053069297
-0.3315773 0.17369701 0.30606201 0.93025702 -0.36663064 0.014276137 0.054523069
0.32873815 0.17437547 0.3050302 -0.88699204 -0.45750114 0.062752135 0.090681642
-0.32275021 0.18609762 0.30868313 0.49772409 -0.86732823 -0.0035178105 0.064187944
-0.3100943 0.18609762 0.3027828 0.17027609 -0.98539144 -0.0031351489 0.020142259
-0.30205637 0.18609762 0.30450022 3.7171674e-05 -1 -5.2922206e-07 0
-0.28533739 0.18609762 0.30285043 1.8147501e-05 -1 -2.4223561e-06 0
-0.27696848 0.18609762 0.30782071 -1.6377868e-05 -1 2.0966039e-05 0
-0.26458639 0.18609762 0.30847555 -3.2658559e-07 -1 1.7240771e-05 0
-0.25467694 0.18609762 0.30439705 -2.0809503e-05 -1 1.2798353e-05 0
-0.24935734 0.18609762 0.30950612 -3.7188445e-05 -1 -2.9869241e-07 0
-0.2353726 0.18609762 0.30121285 -1.6405605e-05 -1 -1.6592005e-05 0
-0.21086125 0.18609762 0.30034056 3.2007967e-05 -1 -4.823666e-07 0
-0.2027832 0.18609762 0.30222464 -2.5370266e-05 -1 4.5006334e-05 0
-0.19418573 0.18609762 0.30518243 0 -1 0 0
-0.18303293 0.18609762 0.3056908 1.8246617e-05 -1 -1.8889799e-05 0
-0.17718077 0.18609762 0.30409986 2.5263866e-05 -1 -2.927083e-05 0
-0.16454536 0.18609762 0.30410227 -8.9904079e-06 -1 1.9961155e-05 0
-0.15162717 0.18609762 0.30282405 9.1003614e-07 -1 -2.8282157e-05 0
-0.14509813 0.18609762 0.30728069 -1.6356607e-05 -1 -4.51632e-05 0
-0.13570768 0.18609762 0.30332649 -9.8783048e-06 -1 1.9190948e-05 0
-0.12477344 0.18609762 0.30414096 -1.1526168e-05 -1 1.7085667e-05 0
-0.1177507 0.18609762 0.30095077 -2.2592099e-06 -1 3.024141e-05 0
-0.10796069 0.18609762 0.3052327 -1.0301837e-05 -1 -2.0006186e-05 0
-0.09438318 0.18609762 0.30446506 0 -1 0 0
-0.084659301 0.18609762 0.30436257 0 -1 0 0
-0.076748319 0.18609762 0.30478832 8.7633816e-06 -1 -4.8218681e-07 0
-0.065953158 0.18609762 0.30607903 5.4001721e-06 -1 3.3922835e-05 0
-0.054067031 0.18609762 0.30468976 -2.2394802e-06 -1 3.8047696e-05 0
-0.049769357 0.18609762 0.30147493 5.3591871e-06 -1 1.710892e-05 0
-0.033105057 0.18609762 0.30471984 -0.0016138769 -0.99999875 -0.00016031358 1.4823639e-05
-0.025318675 0.18609762 0.30432898 -0.0098667005 -0.99995017 -0.0015207073 0.00012828523
-0.013615211 0.18609762 0.30732113 -0.046613432 -0.99891222 0.0012602683 0.00067461241
-0.0054961392 0.18573867 0.30421066 -0.05969752 -0.99821204 -0.002982096 0.00052774942
0.0048164031 0.18389963 0.30284798 -0.06097351 -0.99813306 -0.0035566231 0.0005520308
0.012200085 0.18389963 0.30890352 -0.040022448 -0.99919009 -0.0041779079 0.00067336223
0.02469318 0.18389963 0.30690223 -0.010404731 -0.99994427 -0.001775438 0.00019477359
0.036438022 0.18389964 0.30427712 4.2822244e-06 -1 4.4977261e-07 8.5939391e-06
0.045042295 0.18389961 0.30576965 -9.7486445e-06 -1 3.2492997e-05 0
0.051011231 0.18389964 0.30984473 -4.4318003e-06 -1 1.3382404e-06 0
0.072207436 0.18389961 0.30568469 1.3548585e-05 -1 8.0158126e-05 6.9628995e-06
0.086018637 0.18389963 0.3080112 2.3188513e-05 -1 3.6228816e-05 3.3800363e-05
0.0943771 0.18389963 0.30473977 4.2410105e-05 -1 4.6396926e-05 1.7644956e-05
0.10163752 0.18389963 0.30624071 1.6132859e-05 -1 7.6152304e-05 3.3542805e-05
0.11362574 0.18389963 0.30205345 1.7601575e-05 -1 -1.2088133e-06 9.3829804e-06
0.12140291 0.18389963 0.30591536 3.6668986e-05 -1 1.596461e-05 3.2754026e-05
0.13208985 0.18389963 0.30647993 1.4504425e-05 -1 5.1570831e-05 3.4780624e-05
0.14675447 0.18389963 0.30362481 1.7834605e-05 -1 3.1435226e-05 3.4612782e-05
0.15453187 0.18389963 0.30443686 8.006934e-06 -1 3.6197649e-05 9.5173737e-06
0.16637386 0.18389964 0.30654898 7.0684237e-06 -1 3.4761044e-05 8.6273485e-06
0.17255245 0.18389963 0.30412346 9.540183e-08 -1 2.0051966e-05 1.6768163e-05
0.18968005 0.18389964 0.30186835 -1.0635264e-05 -1 5.1260369e-05 1.68684e-05
0.1964446 0.18389961 0.30251217 -5.0195949e-06 -1 3.6220426e-05 1.8177154e-05
0.20057157 0.18389961 0.30645669 -2.6524725e-05 -1 5.2489602e-05 1.7855091e-05
0.21454954 0.18389961 0.30648097 -2.0211299e-05 -1 -1.7364873e-05 8.0897153e-06
0.23384684 0.18389963 0.3037841 1.5638248e-05 -1 1.6966502e-05 8.5445927e-06
0.24577513 0.18389963 0.30023441 1.6216611e-05 -1 1.3537349e-05 1.6564203e-05
0.26198032 0.18389963 0.30399522 1.3941522e-05 -1 3.3312499e-05 4.0241408e-05
0.2736772 0.18389963 0.30468178 1.2367062e-06 -1 1.759696e-05 1.7313292e-05
0.28531983 0.18389964 0.30227217 6.375853e-06 -1 3.4356006e-05 1.7331711e-05
0.29305974 0.18389963 0.30166456 -1.8400406e-05 -1 9.7056429e-08 0
0.30498102 0.18389964 0.30389574 -0.15826216 -0.98738396 0.0051005133 0.027039979
0.31928748 0.18389963 0.30255717 -0.45120776 -0.88866651 0.081751786 0.091765426
0.32719797 0.18335666 0.30641875 -0.67817581 -0.71916789 0.15124474 0.091553748
-0.3315773 -0.1854779 0.31208384 0.73025793 0.68123084 -0.051457047 0.10173618
-0.32271266 -0.18609762 0.31999007 0.36517447 0.92735314 -0.081631571 0.067065522
-0.31516457 -0.18609762 0.31841379 0.22101547 0.97521532 -0.010359294 0.038637631
-0.30090389 -0.18609762 0.31957728 1.7056691e-05 1 -1.6964344e-06 0
-0.29609585 -0.18609762 0.31685087 3.6855977e-06 1 -3.5254856e-05 0
-0.28529134 -0.18609762 0.31509119 -6.2253799e-05 1 -8.3713752e-07 0
-0.27199638 -0.18609762 0.31806183 -1.7217619e-05 1 1.9004585e-05 0
-0.26355195 -0.18609762 0.31567919 -1.600695e-05 1 -1.8009538e-05 0
-0.25534439 -0.18609762 0.31221917 -2.0104184e-05 1 -1.5761589e-05 0
-0.24690698 -0.18609762 0.31470031 1.4572357e-05 1 -1.5319582e-05 0
-0.23906179 -0.18609762 0.31135938 -1.0486533e-05 1 -3.206879e-05 0
-0.22338611 -0.18609762 0.3163332 7.6364659e-06 1 4.060808e-05 0
-0.21265846 -0.18609762 0.31363785 -1.4436041e-05 1 7.1559833e-07 0
-0.20854338 -0.18609762 0.31323224 -1.4799549e-05 1 1.3273189e-05 0
-0.19720486 -0.18609762 0.31621861 1.3144796e-05 1 -1.3825676e-05 0
-0.1839754 -0.18609762 0.31067854 -0 1 -0 0
-0.17088635 -0.18609762 0.31672344 1.7184566e-05 1 3.4680324e-05 0
-0.16384032 -0.18609762 0.31329775 -7.4988957e-06 1 1.4993935e-05 0
-0.15353197 -0.18609762 0.31586537 3.8408439e-06 1 3.7983427e-05 0
-0.14606655 -0.18609762 0.3147226 6.3179291e-06 1 -1.9631156e-05 0
-0.12068063 -0.18609762 0.31302249 1.0833598e-06 1 -1.6464352e-05 0
-0.11969568 -0.18609762 0.31731039 -1.6126052e-06 1 -3.946964e-05 0
-0.097391598 -0.18609762 0.31385043 6.0997054e-06 1 -1.5862246e-05 0
-0.08557377 -0.18609762 0.31665257 9.4365787e-06 1 1.5698295e-05 0
-0.07671617 -0.18609762 0.31400675 2.1550657e-06 1 1.6928903e-05 0
-0.066989899 -0.18609762 0.3126055 6.3323137e-07 1 -1.6825836e-05 0
-0.044675581 -0.18609762 0.3156274 -4.2227789e-06 1 -1.704484e-05 0
-0.027979687 -0.18609762 0.3117184 -2.0003899e-06 1 1.8668287e-07 0
-0.0011161454 -0.18609762 0.31517598 3.5405571e-06 1 3.1689055e-05 0
0.00071794167 -0.18609762 0.31710193 1.8829044e-07 1 2.111452e-08 0
0.016146176 -0.18609762 0.3137967 4.5584352e-06 1 -5.3584761e-05 0
0.024572348 -0.18609762 0.31639042 -2.4751103e-06 1 1.7023489e-05 0
0.036114585 -0.18609762 0.31137735 -4.848916e-06 1 -1.4253553e-05 0
0.046428263 -0.18609762 0.31426826 -0 1 -0 0
0.055225834 -0.18609761 0.31416053 -0 1 -0 0
0.064331651 -0.18609762 0.31302884 3.7038976e-06 1 1.8595678e-05 0
0.079808794 -0.18609762 0.31372172 -1.5392261e-05 1 -4.0960102e-05 0
0.096884273 -0.18609762 0.31470209 -0 1 -0 0
0.106629 -0.18609762 0.31335348 2.7348331e-06 1 5.6430508e-05 0
0.11506542 -0.18609762 0.31466734 -9.2303871e-06 1 2.2845745e-05 0
0.12274131 -0.18609762 0.31770104 -8.4951917e-06 1 5.0512114e-07 0
0.13339025 -0.18609762 0.31703526 -2.5949689e-06 1 -2.2083239e-05 0
0.14564624 -0.18609762 0.31126711 7.507791e-06 1 -1.7648588e-05 0
0.154915 -0.18609762 0.31319249 1.6370597e-05 1 1.9166609e-05 0
0.16753834 -0.18609762 0.31197533 -1.1188782e-05 1 -1.7198014e-05 0
0.17538185 -0.18609762 0.31479767 -1.2786824e-05 1 2.8865721e-05 0
0.18377705 -0.18609762 0.31542102 -1.5956304e-05 1 -2.5963775e-06 0
0.19869888 -0.18609762 0.31458542 -3.5926849e-05 1 -1.0799808e-05 0
0.21684776 -0.18609762 0.31530106 2.4391828e-05 1 5.0683208e-05 0
0.22668537 -0.18609762 0.31851783 -2.3400617e-06 1 -3.5302426e-05 0
0.23044097 -0.18609762 0.31302696 -5.0168978e-07 1 1.5266143e-05 0
0.24363479 -0.18609762 0.31592625 1.6751645e-05 1 1.840348e-06 0
0.25349429 -0.18609762 0.31451502 -1.5585325e-05 1 1.6205646e-05 0
0.2664538 -0.18609762 0.31351835 3.5478104e-05 1 1.7043092e-05 0
0.27461034 -0.18609762 0.3149038 -4.2990145e-05 1 1.439069e-05 0
0.29424751 -0.18609762 0.31576693 4.1249725e-05 1 6.957171e-05 0
0.32692748 -0.18609762 0.31415164 -0.78548127 0.61787397 0.035368904 0.067390889
-0.3315773 -0.17672771 0.31538647 0.91571212 0.40183088 0.0017879064 0.071465656
0.32873815 -0.16407138 0.31825197 -0.99478871 0.099785469 -0.020933768 0.014135621
-0.3315773 -0.15604442 0.31247425 1 1.4124407e-05 -2.2379024e-07 0
-0.3315773 -0.14484236 0.31732821 1 1.7649319e-05 -1.0944421e-07 0
0.32873815 -0.14594185 0.31459478 -1 4.6701574e-05 -6.4603781e-05 0
-0.3315773 -0.13675289 0.31523764 1 3.689565e-05 3.2498414e-05 0
0.32873815 -0.13829666 0.31856146 -1 -1.4882518e-05 -6.4289852e-05 0
-0.3315773 -0.12436926 0.31693548 1 -1.3568181e-06 -3.2699707e-05 0
0.32873815 -0.12277435 0.31861007 -1 -4.0726527e-06 -3.1374293e-05 0
-0.3315773 -0.11021545 0.3136552 1 3.2977905e-06 9.8311342e-05 0
-0.3315773 -0.10426707 0.31420755 1 4.0899213e-06 3.5529287e-05 0
0.32873815 -0.1037674 0.31603953 -1 1.2758785e-05 -6.1154657e-05 0
-0.3315773 -0.095171973 0.31805527 1 2.4730846e-06 -3.3950746e-05 0
0.32873815 -0.090188339 0.31920463 -1 2.7732319e-06 -6.7745023e-05 0
-0.3315773 -0.084458195 0.31579578 1 2.1584352e-05 -3.0240417e-05 0
0.32873815 -0.088683777 0.31348291 -1 -1.0764135e-05 2.1456189e-07 0
-0.3315773 -0.072466351 0.31570196 1 -2.991575e-06 6.6150475e-05 0
0.32873815 -0.075316451 0.31681022 -0.99999827 0.0018359498 7.0993723e-05 0
0.32873815 -0.069957882 0.31173885 -0.99999815 0.0016711467 0.00097972888 0
-0.3315773 -0.053380825 0.31775892 0.99954498 0.021315683 0.021341952 8.4218053e-05
-0.3315773 -0.046546899 0.31376892 0.99966478 0.016937368 0.019577503 0.00014031099
0.32873815 -0.046808008 0.3126041 -0.99764556 0.048402935 0.048584953 0.0017913078
-0.33257854 -0.035061955 0.31583673 0.99950647 0.012266058 0.02891924 9.2464812e-05
0.32873815 -0.03289447 0.31101942 -0.99551141 0.05936674 0.073706582 0.0025453705
0.33204469 -0.034558371 0.31709194 -0.99571043 0.066234894 0.064603895 0.0020327712
-0.33267629 -0.021894714 0.31841928 0.99964821 0.0065479581 0.025701862 8.7131382e-05
0.33243561 -0.025224313 0.31599036 -0.99591082 0.055192217 0.071522027 0.002670934
-0.33267629 -0.01031644 0.31761393 0.99965012 0.0066734077 0.02559394 6.6515589e-05
0.3325088 -0.011872036 0.31234711 -0.99637175 0.027643338 0.080492921 0.0026717752
-0.33267629 -0.0060185469 0.31712142 0.99967188 0.0054496457 0.025028788 9.8263503e-05
0.33250779 -0.0083107632 0.31239718 -0.99626923 0.012660586 0.08536616 0.0027102779
0.33245188 0.006466609 0.31517917 -0.99620175 4.4979599e-05 0.087074913 0.0027816531
-0.33267629 0.017205564 0.31624189 0.99969167 -0.010604348 0.022450401 0.00027144919
0.33242601 0.017998621 0.31646723 -0.99612767 -0.057580363 0.066439241 0.0036865477
-0.33267629 0.026858658 0.3150785 0.99957085 -0.02025817 0.021158472 0.00020178352
0.33259186 0.028929114 0.31030518 -0.99560088 -0.072282866 0.059615921 0.0034112956
-0.3321268 0.034557436 0.3144761 0.99964905 -0.02257313 0.013862981 9.7823649e-05
0.32873815 0.038609616 0.31875432 -0.99586892 -0.089281052 0.01655555 0.0027958555
0.33137035 0.033264235 0.31484115 -0.99607706 -0.078689188 0.040478472 0.0027342024
-0.3315773 0.045953557 0.31779903 0.99971062 -0.023137404 0.0065789106 0.000175341
0.32873815 0.047237918 0.31647301 -0.99785608 -0.064502068 0.011079301 0.0025771221
-0.3315773 0.057333976 0.3162604 0.99995482 -0.0088954419 0.0033510863 7.3890187e-05
0.32873815 0.05683187 0.31851751 -0.99905503 -0.043335907 0.0033224991 0.0019085485
-0.3315773 0.06394767 0.31629354 0.99999559 -0.0029804111 5.7737067e-05 4.7133806e-05
0.32873815 0.064264596 0.31510881 -1 -2.2914093e-05 -2.9460203e-05 0
-0.3315773 0.075063631 0.31338015 1 1.4219495e-05 0.00010963534 0
0.32873815 0.072922006 0.31748378 -1 0 0 0
-0.3315773 0.084522173 0.31731737 1 1.9764597e-05 0.00011202006 0
-0.3315773 0.09597218 0.31484735 1 1.9809233e-05 -8.5994117e-07 0
0.32873815 0.098502293 0.31203717 -1 -3.840687e-05 -5.9748549e-05 0
-0.3315773 0.10582905 0.31753463 1 2.1794251e-06 -4.0868024e-05 0
0.32873815 0.10050736 0.31164283 -1 -2.1774944e-05 -3.5307801e-07 0
-0.3315773 0.11607326 0.31256706 1 2.4972869e-06 4.0901854e-05 0
0.32873815 0.11377058 0.31986862 -1 -6.6515472e-06 -9.2341186e-05 0
-0.3315773 0.12292118 0.31493485 1 -0 -0 0
0.32873815 0.12477591 0.31506711 -1 -4.3781645e-05 -0.00011323125 0
0.32873815 0.13857256 0.31200185 -1 -2.8213528e-05 2.7331438e-05 0
-0.3315773 0.14316112 0.3196708 1 -3.2568491e-06 3.3867691e-05 0
0.32873815 0.14622061 0.31478673 -1 -3.1865515e-05 2.7548613e-05 0
-0.3315773 0.15474622 0.31249166 1 1.7018663e-05 -3.6921461e-05 0
0.32873815 0.15635677 0.31664392 -0.99962258 -0.027429581 0.0015399017 0.00094019924
-0.3315773 0.16472751 0.31672275 0.98256904 -0.17728472 -0.055930298 0.027412649
0.32873815 0.16680515 0.31474844 -0.97417063 -0.22540839 0.013514391 0.057555098
-0.3315773 0.17483582 0.3157295 0.88579887 -0.46355766 -0.021784244 0.070499994
0.32873815 0.17307007 0.31353283 -0.91456276 -0.40423781 0.012911828 0.077946462
-0.3315773 0.18471308 0.31398126 0.72466284 -0.68906623 0.0071811504 0.054267954
-0.32255039 0.18609762 0.31547129 0.53833616 -0.84182328 0.039088048 0.074496113
-0.31809333 0.18609762 0.31730992 0.46150061 -0.88713557 -0.0027617537 0.069541849
-0.30541387 0.18609764 0.31423423 0.096186996 -0.99513042 -0.021529747 0.019030442
-0.29661512 0.18609762 0.31701416 -1.2143621e-05 -1 -1.4407976e-05 0
-0.28451845 0.18609762 0.31532621 7.3142466e-05 -1 -4.7858157e-05 0
-0.27384514 0.18609762 0.3163259 3.3932385e-05 -1 2.5230822e-06 0
-0.26543206 0.18609762 0.31667244 4.3730244e-05 -1 6.5064305e-05 0
-0.25304815 0.18609762 0.31678873 0 -1 0 0
-0.24634732 0.18609762 0.31419149 0 -1 0 0
-0.23189837 0.18609762 0.31817549 -3.2804262e-05 -1 3.5227997e-05 0
-0.22677369 0.18609762 0.31647098 -4.1576255e-05 -1 1.8937582e-05 0
-0.212936 0.18609762 0.31266904 1.9893037e-05 -1 2.4691986e-05 0
-0.20122908 0.18609762 0.31505996 -2.7045346e-05 -1 -5.4393826e-05 0
-0.19733921 0.18609762 0.31545553 -1.619411e-05 -1 -3.087048e-05 0
-0.17226315 0.18609762 0.31566036 2.4175477e-05 -1 5.0638107e-05 0
-0.16841315 0.18609762 0.31701031 -1.6937048e-06 -1 6.4344844e-05 0
-0.15437458 0.18609762 0.3162539 -8.2420511e-06 -1 -3.0787589e-05 0
-0.14044869 0.18609762 0.31857389 -4.5155613e-07 -1 -3.1560936e-05 0
-0.1344192 0.18609762 0.31261638 -1.7323799e-05 -1 3.2131931e-05 0
-0.12327422 0.18609762 0.31308284 -1.1137585e-05 -1 1.0435155e-06 0
-0.11838414 0.18609762 0.31454891 7.4828044e-06 -1 5.9588434e-05 0
-0.10020345 0.18609762 0.31988356 8.3445584e-06 -1 -3.1962089e-05 0
-0.090516262 0.18609762 0.31067175 -1.0308298e-05 -1 1.6639338e-05 0
-0.082935087 0.18609762 0.31171304 -4.6550454e-06 -1 3.1810945e-05 0
-0.077916548 0.18609762 0.31493372 -1.1834046e-05 -1 3.438667e-05 0
-0.067297496 0.18609762 0.31796068 -7.4138152e-06 -1 1.8367133e-05 0
-0.055000447 0.18609762 0.31328791 4.5792267e-06 -1 -4.4219021e-05 0
-0.044960279 0.18609762 0.31495333 -4.3844502e-06 -1 3.6248105e-07 0
-0.035391357 0.18609762 0.31134114 1.0339646e-06 -1 -3.247305e-05 0
-0.025421476 0.18609762 0.31341103 -0.014918881 -0.9998877 0.0014324053 0.00030978007
-0.014007743 0.18609762 0.31509495 -0.048651922 -0.99880826 -0.0038936459 0.00064788671
-0.0030642787 0.18505077 0.31410161 -0.060375173 -0.99817252 -0.0025465554 0.00055897975
0.0054220175 0.18389963 0.31441355 -0.060698386 -0.99815583 0.00081628573 0.00069199956
0.01855216 0.18389963 0.3140251 -0.024461364 -0.9996838 -0.0058188057 0.00049678219
0.023141909 0.18389961 0.31541672 -0.011842635 -0.99992895 0.0013539987 0.00034311795
0.03586068 0.18389963 0.31423545 -4.4662033e-06 -1 -3.8299986e-05 9.7380707e-06
0.044813324 0.18389963 0.31207657 9.9061781e-06 -1 0.00010009374 3.567931e-05
0.057963878 0.18389963 0.31692201 -3.7503471e-06 -1 4.9135528e-05 1.673611e-05
0.068032235 0.18389964 0.31767401 1.0738799e-05 -1 -1.526196e-05 2.2989454e-05
0.076034866 0.18389964 0.31563342 6.9792613e-06 -1 2.6263715e-05 0
0.085573412 0.18389963 0.31344104 -1.0887251e-05 -1 -2.2650223e-05 0
0.10361638 0.18389963 0.31528008 9.607932e-06 -1 4.2836971e-05 3.4836834e-05
0.11425295 0.18389964 0.31451735 1.086365e-05 -1 3.952211e-05 8.6001037e-06
0.12335338 0.18389964 0.31889534 -9.4626239e-06 -1 -1.616159e-05 8.8460156e-06
0.13180955 0.18389963 0.31133837 9.1341035e-06 -1 6.4800537e-05 1.614513e-05
0.14701635 0.18389963 0.31684014 2.9797884e-05 -1 5.0544757e-05 3.3469238e-05
0.15451173 0.18389963 0.31430638 1.9031117e-05 -1 9.4284544e-05 3.4618119e-05
0.17634988 0.18389964 0.31283811 4.7870094e-06 -1 4.1049887e-05 1.7518194e-05
0.1830117 0.18389964 0.31506896 1.5179466e-05 -1 -1.880062e-05 1.7062166e-05
0.19186604 0.18389963 0.31316084 -1.531972e-05 -1 -3.5145713e-05 0
0.20439087 0.18389963 0.31472468 -2.3772564e-05 -1 5.9174413e-06 1.8474988e-05
0.21488996 0.18389964 0.31759036 -2.0167361e-05 -1 2.3650982e-05 0
0.2388331 0.18389961 0.31125033 -1.1589624e-06 -1 -1.7729291e-05 0
0.25399852 0.18389964 0.31419516 -9.1725485e-07 -1 -1.6680653e-05 0
0.2677218 0.18389963 0.31919307 -8.3251143e-07 -1 1.7315131e-05 1.5760776e-05
0.27078018 0.18389963 0.31714132 -2.9794367e-06 -1 -3.4867964e-05 0
0.28230876 0.18389963 0.31081334 -3.7095513e-05 -1 1.3834387e-05 8.5756083e-06
0.29395404 0.18389963 0.31841031 5.0947983e-05 -1 6.5183493e-05 5.3083633e-05
0.30507922 0.18389963 0.31676629 -0.12386622 -0.99229759 -0.0016113885 0.025622521
0.31423375 0.18389963 0.31522515 -0.28547728 -0.95822012 0.017801214 0.046750218
0.3251543 0.18361674 0.3161239 -0.63218749 -0.77481526 0.00053980126 0.074587628
-0.3315773 -0.1819745 0.32305694 0.78202915 0.62322038 0.0051719612 0.09390229
-0.3222886 -0.18609762 0.32894704 0.3338232 0.94157183 -0.044770654 0.068163194
-0.31489995 -0.18609762 0.32273203 0.22530796 0.97292095 -0.051587254 0.04076777
-0.30381024 -0.18609762 0.32300049 0.019481914 0.99980831 0.0019144864 0.0011629491
-0.29661596 -0.18609762 0.32486907 -0 1 -0 0
-0.28598332 -0.18609762 0.32504353 3.0641091e-05 1 -1.4810573e-05 0
-0.27402425 -0.18609762 0.32336169 6.000153e-06 1 4.9772098e-05 0
-0.2681632 -0.18609762 0.32476074 -0 1 -0 0
-0.25260177 -0.18609762 0.32398784 1.6722446e-05 1 -3.2565558e-07 0
-0.24123761 -0.18609762 0.32682204 -1.4119268e-05 1 3.7503112e-05 0
-0.23593707 -0.18609762 0.32151714 -4.4511424e-07 1 1.8814268e-05 0
-0.22418195 -0.18609762 0.32511598 1.111621e-05 1 -4.6271438e-05 0
-0.21631542 -0.18609762 0.32833523 1.6200196e-05 1 2.0554762e-05 0
-0.19332331 -0.18609762 0.32097265 1.8416433e-05 1 3.0407633e-05 0
-0.18496755 -0.18609762 0.32879874 3.3683569e-05 1 -2.6340231e-07 0
-0.16493104 -0.18609762 0.3226088 8.9875257e-06 1 1.0322334e-06 0
-0.15833203 -0.18609762 0.32986823 1.2772148e-05 1 -3.045751e-05 0
-0.14519444 -0.18609762 0.3233543 1.4554215e-05 1 -3.6315971e-08 0
-0.13413079 -0.18609762 0.3231611 -9.720884e-06 1 3.294833e-07 0
-0.12264468 -0.18609762 0.32485431 1.3663845e-05 1 -4.7450812e-05 0
-0.11077007 -0.18609762 0.32655951 6.3679465e-07 1 -3.8268572e-05 0
-0.10752805 -0.18609762 0.32438126 9.0460708e-06 1 -1.7719423e-05 0
-0.093962833 -0.18609762 0.32139158 4.103531e-06 1 -3.1036139e-05 0
-0.075785853 -0.18609762 0.32511216 9.2040573e-06 1 3.4847133e-05 0
-0.064666532 -0.18609762 0.32423657 5.4043807e-07 1 -1.6948021e-05 0
-0.057723057 -0.18609762 0.32381964 -0 1 -0 0
-0.04537357 -0.18609762 0.32792056 1.622643e-05 1 -5.6170273e-05 0
-0.033202264 -0.18609762 0.3257958 -1.8461449e-06 1 -1.7156872e-05 0
-0.026520841 -0.18609762 0.32843971 -0 1 -0 0
-0.013294525 -0.18609762 0.32463303 -2.3524544e-06 1 -1.3982905e-05 0
-0.0047367737 -0.18609762 0.32715157 -5.9035733e-07 1 -7.4173251e-08 0
0.0065686516 -0.18609762 0.32736498 4.3476106e-07 1 -5.1048748e-05 0
0.020723082 -0.18609762 0.32896948 1.8927032e-06 1 1.1447527e-07 0
0.03273689 -0.18609762 0.32254067 5.2273604e-06 1 -2.0673235e-05 0
0.043520022 -0.18609762 0.32451752 2.6458827e-06 1 2.3543367e-05 0
0.053202115 -0.18609762 0.32515597 9.9510744e-06 1 3.8622486e-05 0
0.064764537 -0.18609762 0.32351264 5.6960207e-06 1 -1.8088867e-05 0
0.088928409 -0.18609762 0.32583597 9.0296508e-06 1 7.4751508e-05 0
0.093618974 -0.18609762 0.32112014 -6.2138083e-06 1 1.8702125e-05 0
0.1076695 -0.18609762 0.32270923 2.0668205e-05 1 -2.3097457e-05 0
0.11499076 -0.18609762 0.3250075 5.6485851e-06 1 -3.4136654e-05 0
0.1241836 -0.18609762 0.32264122 1.1680018e-05 1 6.6828921e-05 0
0.13516521 -0.18609762 0.32432052 -1.7938244e-06 1 3.4003424e-05 0
0.15570101 -0.18609762 0.32533747 2.6692578e-05 1 1.335142e-05 0
0.1966095 -0.18609762 0.32115129 -1.8933391e-05 1 -1.5612528e-05 0
0.20322601 -0.18609762 0.32602718 -1.7721404e-05 1 -3.3806722e-05 0
0.21710335 -0.18609762 0.32503441 1.7452432e-05 1 2.1524596e-05 0
0.23174962 -0.18609762 0.32856476 1.325764e-07 1 -3.2237815e-05 0
0.2470226 -0.18609762 0.32635447 1.7579971e-05 1 -1.7580231e-05 0
0.2549614 -0.18609762 0.32016638 -3.6128964e-05 1 4.0911746e-05 0
0.27962017 -0.18609762 0.32290494 -1.930038e-05 1 -9.3256835e-07 0
0.28753227 -0.18609762 0.32423174 -3.9126793e-05 1 -4.1463762e-05 0
0.29923156 -0.18609762 0.32750407 -0.010737004 0.99994093 0.001666331 0.00018071762
0.31469741 -0.18609762 0.3268117 -0.38624293 0.92164469 -0.037249487 0.074876554
0.3260271 -0.18521999 0.3254436 -0.73392206 0.67839283 -0.033788364 0.077456467
-0.3315773 -0.17371744 0.32546005 0.9577269 0.28747776 -0.010755078 0.061995406
0.32873815 -0.17472942 0.32478651 -0.88951612 0.45644519 -0.020465326 0.0518694
-0.3315773 -0.16383278 0.32406914 0.98740685 0.15778388 -0.011485472 0.030672265
0.32873815 -0.16334112 0.32207477 -0.99104506 0.12694675 -0.041403312 0.016257321
-0.3315773 -0.15372702 0.32681042 1 -1.8647988e-05 3.6946924e-05 0
-0.3315773 -0.14600621 0.32455713 1 3.2690121e-05 7.5791875e-05 0
0.32873815 -0.14234476 0.32763052 -1 3.27526e-05 3.4245804e-05 0
0.32873815 -0.13294604 0.32666248 -1 3.962687e-05 -5.7417688e-05 0
-0.3315773 -0.12870139 0.3296448 1 1.9790627e-05 7.4560943e-05 0
0.32873815 -0.12550451 0.32632774 -1 -2.0701353e-05 -6.5997585e-05 0
-0.3315773 -0.11654682 0.32530943 1 0 0 0
0.32873815 -0.11600374 0.32589826 -1 -3.5547389e-06 -3.5263514e-05 0
-0.3315773 -0.10414283 0.32465094 1 1.2429784e-05 -3.0219355e-05 0
0.32873815 -0.10757635 0.32412431 -1 2.0230298e-05 2.352112e-06 0
0.32873815 -0.095493488 0.32545024 -1 -1.8163426e-05 -6.5131164e-05 0
-0.3315773 -0.083917826 0.32462636 1 -4.1746051e-07 -3.2018492e-05 0
0.32873815 -0.081486836 0.32150453 -1 4.8804708e-05 -3.6166181e-05 0
-0.3315773 -0.074327096 0.32518017 0.99994433 0.0087880213 0.0058416715 0.00013139345
0.32873815 -0.07608705 0.32617596 -0.99964172 0.023695411 0.012448237 0.00096757634
-0.3315773 -0.068746492 0.32666096 0.99980831 0.01706207 0.0096008116 0.00014264711
0.32873815 -0.063913383 0.32263717 -0.99924719 0.032197192 0.021644173 0.0015283427
-0.3315773 -0.055636443 0.32421249 0.99945986 0.024777327 0.021587405 0.00016945445
0.32873815 -0.055861067 0.32230312 -0.99791378 0.046510365 0.044774968 0.0019943663
-0.33267629 -0.041691769 0.32401597 0.99946785 0.021519963 0.024512393 0.00018427403
0.32915026 -0.047850333 0.32524115 -0.99657166 0.067304358 0.048113544 0.001851806
-0.33267629 -0.033532064 0.32470647 0.99957156 0.013147447 0.026150975 0.00013664388
0.33139443 -0.036427598 0.325243 -0.99561256 0.077081084 0.053048249 0.0018037318
0.33228996 -0.018498218 0.32323793 -0.99802196 0.03957377 0.048846412 0.0025393611
-0.33267629 -0.0055374019 0.32800519 0.99992305 0.0046218513 0.011509814 5.7767382e-05
0.33221307 -0.0076500475 0.32706439 -0.9997558 0.014429579 0.016736774 0.0013735079
-0.33267629 0.005730005 0.32401699 0.99988693 0.0011837677 0.014987467 0.00015095364
0.33225456 0.0068012122 0.32500005 -0.99966455 -0.0054285843 0.025326878 0.0025782515
-0.33267629 0.015477046 0.32557017 0.99994564 -0.009415918 0.004479955 9.3030161e-05
0.3323023 0.012771137 0.32545143 -0.9987936 -0.04412194 0.021553911 0.0028965895
-0.33267629 0.026919894 0.32397789 0.99962294 -0.026268447 0.0079956176 0.00011511776
0.33252838 0.025386967 0.32588035 -0.99523836 -0.092507809 0.030706119 0.0031202689
-0.33182895 0.035081014 0.32619661 0.99949574 -0.030777203 0.0078113787 7.3093426e-05
0.32885122 0.035423521 0.32338989 -0.99481148 -0.097540125 0.028913483 0.0029381306
0.33264601 0.031950697 0.32786366 -0.99482942 -0.10000727 0.017689098 0.0024641717
-0.3315773 0.040966056 0.32150817 0.99959207 -0.027932163 0.0059648999 8.2217404e-05
0.32873815 0.042696588 0.32797 -0.99600667 -0.088513106 0.011670945 0.0027013205
-0.3315773 0.054133326 0.32465836 0.99976885 -0.021174248 0.0037363493 0.00012500999
0.32873815 0.055052418 0.32602063 -0.99893117 -0.046060592 0.0038633139 0.0019502471
0.32873815 0.069714457 0.32404989 -1 1.2654536e-05 -4.124521e-05 0
-0.3315773 0.071474254 0.32372063 1 4.2491729e-06 7.1784008e-05 0
0.32873815 0.073281646 0.32504225 -1 -1.3341083e-05 -7.8786092e-05 0
-0.3315773 0.087297626 0.32074475 1 8.0133295e-06 3.7205373e-05 0
0.32873815 0.088949136 0.3251293 -1 -3.4201443e-05 -4.5615041e-05 0
-0.3315773 0.095140085 0.32472968 1 1.7964636e-05 1.9268903e-06 0
0.32873815 0.094245762 0.32172799 -1 -9.7354769e-06 -1.8535121e-06 0
-0.3315773 0.10478719 0.32339928 1 -1.2660847e-06 -3.7703725e-05 0
0.32873815 0.10104185 0.3286455 -1 1.9486586e-05 -9.5309362e-05 0
-0.3315773 0.11116053 0.32197961 1 -1.5866279e-05 4.5868099e-05 0
0.32873815 0.11365382 0.32100958 -1 1.4331616e-05 -9.4732823e-05 0
-0.3315773 0.12638302 0.32378113 1 3.7420054e-05 0.00010299947 0
0.32873815 0.12732932 0.32906559 -1 -5.4987711e-05 -4.9890099e-05 0
-0.3315773 0.13380957 0.32437235 1 4.9857474e-05 2.8676317e-05 0
0.32873815 0.13205586 0.32748449 -1 1.9852836e-05 3.6472848e-06 0
-0.3315773 0.14332087 0.3229416 1 3.3338267e-05 6.759719e-05 0
0.32873815 0.14715941 0.32218784 -1 1.2094925e-05 -3.0874544e-05 0
-0.3315773 0.1506553 0.32081854 1 -1.7653176e-06 3.9120128e-05 0
0.32873815 0.15524638 0.32791293 -0.99985105 -0.01722993 -0.00097432832 0.00062081334
-0.3315773 0.16612116 0.32183382 0.97902745 -0.20249382 -0.022394132 0.02964524
0.32873815 0.16877343 0.3290472 -0.95057464 -0.30461302 -0.060156219 0.056953102
-0.3315773 0.17325819 0.32133129 0.95059514 -0.30954096 -0.023520382 0.054980371
0.32873815 0.17915478 0.32522652 -0.80946195 -0.58601105 -0.036910992 0.068492278
-0.32585901 0.18609762 0.32845956 0.70137942 -0.71148545 0.043073345 0.054798722
-0.31534141 0.18609762 0.32814598 0.34792191 -0.93686503 0.035129108 0.065834872
-0.29087973 0.18609762 0.32429427 1.7222634e-05 -1 -1.3516668e-06 0
-0.28107762 0.18609762 0.32479042 1.7560451e-05 -1 1.8331351e-05 0
-0.27513522 0.18609762 0.32453921 -3.9967257e-05 -1 -6.8872005e-06 0
-0.26094148 0.18609762 0.32836139 -1.8957051e-05 -1 1.5152126e-05 0
-0.25819156 0.18609762 0.32401502 -1.4860607e-05 -1 5.0294613e-05 0
-0.24640566 0.18609762 0.32223061 -1.6478451e-05 -1 2.0673497e-05 0
-0.22556943 0.18609762 0.32488775 -4.9931555e-07 -1 5.8540249e-05 0
-0.21767719 0.18609762 0.32126707 -2.8318917e-05 -1 -4.2975567e-05 0
-0.20470364 0.18609762 0.32683694 1.9101672e-05 -1 -2.3701394e-05 0
-0.19394596 0.18609762 0.32854885 1.5900048e-07 -1 -1.8228267e-05 0
-0.18799534 0.18609762 0.32477781 -1.6328859e-05 -1 -3.2621938e-05 0
-0.17713191 0.18609762 0.32315382 -3.984567e-08 -1 -1.481929e-05 0
-0.16160361 0.18609762 0.32902211 -6.3854436e-06 -1 1.412181e-05 0
-0.15655407 0.18609762 0.32969701 9.4243042e-06 -1 2.2901922e-06 0
-0.14057937 0.18609762 0.3234902 -1.6703076e-05 -1 -2.0033551e-05 0
-0.13704112 0.18609762 0.32801896 -2.8411647e-05 -1 -4.6455415e-07 0
-0.12649797 0.18609762 0.32563058 6.9667199e-06 -1 1.6630258e-05 0
-0.11276033 0.18609762 0.32716179 -1.1161262e-06 -1 1.5076143e-05 0
-0.10458452 0.18609762 0.32567549 6.9764496e-06 -1 -1.5248963e-05 0
-0.092772372 0.18609762 0.32382929 5.5020068e-06 -1 -3.169863e-05 0
-0.080931284 0.18609762 0.32433528 4.522014e-06 -1 5.1932068e-07 0
-0.076099187 0.18609762 0.32604831 -9.9466588e-06 -1 -1.6749429e-05 0
-0.067757808 0.18609762 0.32387805 -1.0192473e-06 -1 -1.5688847e-05 0
-0.054802161 0.18609762 0.32373187 -4.5260626e-06 -1 -1.7211478e-05 0
-0.045785423 0.18609762 0.32373613 -2.9758689e-07 -1 -4.0886902e-05 0
-0.03683807 0.18609762 0.32475853 -9.8256214e-07 -1 -5.011473e-05 0
-0.027614683 0.18609762 0.32522729 -0.0052839946 -0.99998087 0.0032159868 7.942332e-05
-0.014240935 0.18609762 0.32416412 -0.048577949 -0.99881798 0.0016856168 0.00061792351
-0.001419546 0.18596293 0.32642215 -0.059513923 -0.99822527 -0.002092869 0.00052821293
0.002382746 0.18389963 0.32134545 -0.060563188 -0.99816316 -0.0015530488 0.00058983907
0.01470048 0.18389964 0.3243072 -0.038835473 -0.99924493 -0.0012218879 0.00077363267
0.024112439 0.18389964 0.32991004 -0.010114511 -0.99994397 -0.0031279877 0.00035365578
0.04758735 0.18389961 0.32719791 7.3065248e-06 -1 -3.8629874e-05 1.7863498e-05
0.054070264 0.18389963 0.32603744 -8.9221312e-06 -1 4.7979309e-05 1.8226403e-05
0.07385546 0.18389963 0.32581544 4.3947275e-06 -1 9.2040221e-07 8.8550341e-06
0.089881279 0.18389964 0.3246544 7.2164062e-07 -1 -3.4741483e-05 0
0.091152124 0.18389963 0.32496706 -5.1057214e-07 -1 1.5134643e-05 1.679566e-05
0.10594181 0.18389963 0.32363611 -1.8470334e-06 -1 2.0449572e-05 9.0783205e-06
0.11948744 0.18389961 0.3261013 3.7796446e-05 -1 7.4254596e-05 3.7248185e-05
0.13545226 0.18389963 0.32376695 -1.8092009e-05 -1 1.8715609e-05 8.7657181e-06
0.14814106 0.18389963 0.32384741 3.6446596e-07 -1 4.7574311e-05 3.9325063e-05
0.15580763 0.18389963 0.32637954 2.2550795e-07 -1 1.830835e-05 8.7097851e-06
0.16237092 0.18389963 0.3226127 -1.4924363e-05 -1 3.7593574e-05 8.9301502e-06
0.17649728 0.18389964 0.32766125 1.9272429e-06 -1 -1.7805598e-05 0
0.18324474 0.18389964 0.32448626 -1.9504752e-05 -1 -7.1570656e-05 0
0.19837554 0.18389963 0.32471588 -1.8202278e-05 -1 -5.6995912e-05 9.3591316e-06
0.20690867 0.18389964 0.32240802 -2.2060474e-05 -1 3.6270167e-06 1.0412658e-05
0.21179815 0.18389964 0.32020891 -1.5820495e-05 -1 5.5875563e-07 0
0.22272316 0.18389961 0.32592201 -5.683441e-06 -1 4.1107734e-05 8.9046098e-06
0.2333737 0.18389961 0.3262012 5.5526544e-07 -1 -1.5650163e-05 7.782869e-06
0.24241517 0.18389964 0.32508108 -2.7466873e-05 -1 3.0414098e-05 1.5539446e-05
0.25338003 0.18389964 0.32075739 1.7218439e-05 -1 4.0781597e-05 1.6368611e-05
0.26626346 0.18389963 0.32154629 5.1992007e-05 -1 2.2694399e-05 1.625687e-05
0.28417534 0.18389963 0.3237417 3.932527e-05 -1 4.3728905e-05 4.1157356e-05
0.29618096 0.18389961 0.32712626 3.3188717e-05 -1 5.2719213e-05 3.9318991e-05
0.31380111 0.18389961 0.32632285 -0.27888292 -0.96031773 -0.0037588559 0.049658738
0.32685286 0.18297945 0.32522082 -0.81623554 -0.57754129 -0.014339077 0.064407654
-0.33146733 -0.18327408 0.33576864 0.71828866 0.68180913 -0.1385556 0.084919907
-0.32556832 -0.18609762 0.3362782 0.43909013 0.89409143 -0.088319816 0.079338767
-0.30716044 -0.18609764 0.33187056 0.13569887 0.99052465 -0.021133943 0.015545771
-0.29594123 -0.18609762 0.33751062 -1.8473842e-05 1 -1.3562612e-06 0
-0.28790203 -0.18609762 0.33770081 -3.5010577e-05 1 -3.3314311e-05 0
-0.27522027 -0.18609762 0.33195826 1.1096514e-06 1 -4.6432222e-05 0
-0.26562327 -0.18609762 0.3326534 -1.662417e-05 1 2.7806422e-05 0
-0.2435559 -0.18609762 0.33798796 -1.7824923e-05 1 -6.9769322e-07 0
-0.23876758 -0.18609762 0.33580327 -0 1 -0 0
-0.22349669 -0.18609762 0.33658823 1.6388094e-06 1 5.6033423e-05 0
-0.20194392 -0.18609762 0.33504117 -0 1 -0 0
-0.19404452 -0.18609762 0.33557618 1.8506465e-05 1 -1.359139e-05 0
-0.18575962 -0.18609762 0.33373815 2.7969027e-05 1 2.5046402e-05 0
-0.17077716 -0.18609762 0.33788726 -0 1 -0 0
-0.16339912 -0.18609762 0.33381519 -2.9454895e-05 1 -2.4992452e-05 0
-0.15568388 -0.18609762 0.33422521 -8.5700249e-06 1 3.3573746e-05 0
-0.13675267 -0.18609762 0.33570439 2.5374351e-07 1 -1.5912572e-05 0
-0.12724742 -0.18609762 0.33629769 -7.0329147e-06 1 -3.2260257e-05 0
-0.11394421 -0.18609762 0.33461559 -1.2132634e-05 1 -5.1304629e-05 0
-0.10507115 -0.18609762 0.33156031 -4.0121952e-07 1 -1.9006569e-05 0
-0.095383599 -0.18609762 0.33957574 -0 1 -0 0
-0.085299805 -0.18609762 0.33829433 2.1687667e-06 1 6.5826061e-05 0
-0.075011693 -0.18609762 0.33549991 1.5339047e-06 1 -3.0193149e-05 0
-0.061387002 -0.18609762 0.3304584 2.9221394e-07 1 1.4509447e-05 0
-0.059371971 -0.18609762 0.33590305 6.0649877e-06 1 -3.355043e-05 0
-0.046762373 -0.18609762 0.33553013 -4.2962579e-06 1 7.6108728e-07 0
-0.035028215 -0.18609762 0.33669391 5.9916661e-06 1 -4.4383207e-05 0
-0.024070997 -0.18609762 0.33322722 -1.9702618e-06 1 -1.9524347e-07 0
-0.015203204 -0.18609762 0.33685407 3.4273417e-06 1 3.7489383e-05 0
0.004961723 -0.18609762 0.33576566 -2.1769506e-06 1 -3.4505352e-05 0
0.010884173 -0.18609762 0.33191806 3.7850334e-06 1 -4.3871099e-05 0
0.026609264 -0.18609762 0.3336888 1.1327304e-05 1 3.9061622e-05 0
0.034417048 -0.18609762 0.33622727 3.3550809e-06 1 1.704289e-05 0
0.044293277 -0.18609762 0.33304712 -0 1 -0 0
0.052458912 -0.18609762 0.33569205 -3.0087533e-06 1 -2.8580613e-05 0
0.060928654 -0.18609761 0.33005676 3.6853896e-06 1 -7.7063106e-08 0
0.072704218 -0.18609762 0.33176577 -0 1 -0 0
0.089290068 -0.18609762 0.33609954 9.127496e-06 1 2.7978533e-05 0
0.10440658 -0.18609762 0.33645529 2.1401162e-05 1 2.3594905e-06 0
0.11989769 -0.18609762 0.33606413 2.0567799e-05 1 -2.9908751e-05 0
0.12561803 -0.18609762 0.33414307 -2.4963474e-05 1 2.0987303e-05 0
0.13515559 -0.18609762 0.33508506 5.4410766e-06 1 2.6721766e-05 0
0.15874699 -0.18609762 0.33597019 -1.2878394e-05 1 5.9368755e-05 0
0.16654253 -0.18609762 0.3320269 -2.8905039e-05 1 3.8462316e-05 0
0.17757684 -0.18609762 0.336831 -8.4322232e-07 1 -3.0825548e-05 0
0.18409297 -0.18609762 0.33869028 -1.9378047e-05 1 -3.7752943e-05 0
0.19991064 -0.18609762 0.33937964 1.9081766e-05 1 3.1464966e-05 0
0.20682925 -0.18609762 0.3388072 -2.9695606e-05 1 -4.3403948e-06 0
0.21476531 -0.18609762 0.33216968 -2.0466008e-05 1 -1.625585e-05 0
0.22455308 -0.18609762 0.3367812 -0 1 -0 0
0.23637564 -0.18609762 0.33437315 -1.4342433e-05 1 1.581254e-06 0
0.24416214 -0.18609762 0.33533862 3.888128e-06 1 -2.0829304e-05 0
0.25655043 -0.18609762 0.33529496 -3.425668e-06 1 -3.1343054e-05 0
0.26131633 -0.18609762 0.33367199 -0 1 -0 0
0.2737653 -0.18609762 0.33524621 3.1626729e-05 1 -1.8490278e-05 0
0.29335815 -0.18609762 0.33582962 -0 1 -0 0
0.30661777 -0.18609762 0.33656716 -0.18314347 0.98298156 0.014341502 0.028739827
0.31754696 -0.18609762 0.33539876 -0.41998121 0.90684336 -0.035368413 0.085271113
0.3256008 -0.18465021 0.33573252 -0.70913559 0.70507121 0.0011602344 0.097413689
-0.3315773 -0.17572343 0.3358632 0.88237071 0.47054946 -0.0022720161 0.10346504
0.32873815 -0.17204434 0.33410397 -0.9501611 0.28283229 -0.13114765 0.054371908
-0.3315773 -0.16348384 0.33530939 0.99488759 0.10001723 0.013970045 0.016341053
0.32873815 -0.16331971 0.3363269 -0.9845193 0.17464754 -0.014830188 0.022319913
-0.3315773 -0.1508327 0.33469078 1 2.0245514e-05 8.7266621e-05 0
0.32873815 -0.15789431 0.33121762 -0.99944913 0.032856341 -0.004676559 0.0010926854
-0.3315773 -0.14237043 0.33304346 1 -1.9701558e-05 -4.2583291e-05 0
0.32873815 -0.14478025 0.3318072 -1 3.7164384e-05 -4.5148321e-05 0
-0.3315773 -0.13543564 0.33731961 1 -4.67975e-06 8.1164369e-05 0
0.32873815 -0.13553922 0.33519945 -1 5.5968063e-05 -8.9957954e-05 0
-0.3315773 -0.12634429 0.33440372 1 2.7986075e-06 0.00014044817 0
0.32873815 -0.12189206 0.33551207 -1 2.1385429e-06 3.9142775e-05 0
-0.3315773 -0.11599743 0.336541 1 -0 -0 0
-0.3315773 -0.1051708 0.3336435 1 9.3877479e-06 7.239094e-05 0
0.32873815 -0.10192019 0.33585942 -1 2.0160938e-05 -0.00015296668 0
-0.3315773 -0.097721219 0.33623677 1 -1.9173517e-06 -3.3465258e-05 0
0.32873815 -0.096902452 0.33881211 -1 1.2655494e-05 -9.8993834e-05 0
-0.3315773 -0.088302761 0.33169186 1 -8.5599877e-06 1.0401947e-06 0
0.32873815 -0.085588977 0.33383545 -0.99999863 0.0012756358 0.0010162214 0
-0.3315773 -0.073713504 0.33354595 0.99982244 0.015999664 0.0099505754 0.00016365941
0.32873815 -0.078646719 0.3365207 -0.99931616 0.031832378 0.018814946 0.0012705129
-0.3315773 -0.065354578 0.33704141 0.99961019 0.0226337 0.016346646 0.00013874086
0.32873815 -0.064409703 0.33386278 -0.99850106 0.04579201 0.029977487 0.0019237493
-0.33267632 -0.052402914 0.3396557 0.99955636 0.024597768 0.01679071 0.00014254854
0.32873815 -0.05571463 0.33694059 -0.99662519 0.072601222 0.038305659 0.0016137414
0.33191651 -0.051687144 0.33849642 -0.99659282 0.071842246 0.040515233 0.0013986873
-0.33267629 -0.04529373 0.33628932 0.99961519 0.022792939 0.01580994 0.00011286102
0.33003318 -0.04963449 0.33381945 -0.99631882 0.069385551 0.050344143 0.0017087697
-0.33267629 -0.035417009 0.33678621 0.99983639 0.013837447 0.011654631 0.0001172639
0.33205625 -0.034000576 0.33486804 -0.99827075 0.050451234 0.03017009 0.0022840614
-0.33267629 -0.025794404 0.33800668 0.99999988 0.00020933738 0.00030734498 0
0.33203116 -0.025529969 0.33611751 -0.99949092 0.029947767 0.010999746 0.0016666861
-0.33267629 -0.010234268 0.33033738 0.99992728 0.00091716985 0.012025712 7.2220435e-05
-0.33267629 -0.0051062303 0.33559635 1 -4.3766304e-06 -9.7970194e-05 0
0.33197278 -0.0068599265 0.33902293 -0.99991846 0.0068863276 -0.010747829 0
-0.33267629 0.0008214768 0.33485192 0.99999952 -8.5193642e-05 0.00097890897 0
0.33215582 0.0045983223 0.33460003 -0.99989939 0.01076606 -0.009232197 5.1395808e-05
-0.33267629 0.015488724 0.33198181 0.99995297 -0.0086509921 0.0043711369 7.5189237e-05
0.33233887 0.014813481 0.33106887 -0.99830836 -0.056533638 0.013576465 0.0032222397
-0.33267629 0.024495577 0.33702344 0.99977797 -0.019186364 0.0087054595 0.0001352422
0.33254588 0.026362395 0.33444163 -0.99527568 -0.096567199 0.010053594 0.0030932885
