# .PCD v0.7 - Point Cloud Data file format
VERSION 0.7
FIELDS x y z normal_x normal_y normal_z curvature
SIZE 4 4 4 4 4 4 4
TYPE F F F F F F F
COUNT 1 1 1 1 1 1 1
WIDTH 629
HEIGHT 1
VIEWPOINT 0 0 0 1 0 0 0
POINTS 629
DATA ascii
0.22981507 -0.014008053 -0.40427217 -1 -1.0047233e-05 -9.0964037e-05 3.5021607e-05
-0.22981507 -0.0067004152 -0.40237996 1 5.5554251e-06 -9.3073781e-05 3.2855882e-05
0.22981507 -0.0023194004 -0.40595111 -1 -3.1840511e-07 -0.00011031533 4.0127801e-05
-0.22981504 0.0053819418 -0.40598497 1 -5.6552362e-06 3.9582177e-05 3.8507005e-05
0.22981507 0.0061068684 -0.403447 -1 2.4162563e-07 -6.1774015e-05 4.287179e-05
-0.22981507 0.017810047 -0.40280855 1 -5.6699258e-07 -3.6102199e-05 3.1388321e-05
0.22981507 0.013863653 -0.40115976 -1 -4.63278e-06 -0.00011729267 3.9611998e-05
-0.22981507 0.025397211 -0.40525225 1 1.2595123e-07 -5.9485181e-05 4.0173374e-05
0.22981507 0.020892218 -0.40677837 -1 5.8372586e-07 -8.7690263e-05 3.0203448e-05
-0.22981507 0.038657583 -0.40280899 1 -6.7269534e-06 -3.6582023e-05 4.1881889e-05
0.22981507 0.039935939 -0.40691778 -1 3.5090111e-06 -3.2646509e-05 3.9990773e-05
-0.22981507 0.046260808 -0.40554997 1 -3.9649558e-06 -6.4169173e-05 3.3512977e-05
0.22981507 0.043498959 -0.40434784 -1 3.4710831e-06 -8.0505066e-05 3.8051607e-05
-0.22981507 0.054828938 -0.40278062 1 2.5090237e-06 -5.8939728e-05 3.1621748e-05
0.22981507 0.053954408 -0.40483296 -1 -1.7720636e-06 -5.3599204e-05 3.0031868e-05
-0.22981507 0.065407917 -0.40718281 1 1.7358926e-07 -0.00011315285 4.0941373e-05
0.22981507 0.068493463 -0.40097556 -0.99999994 -2.048127e-05 -0.00023162011 3.3495708e-05
-0.22981507 0.072958171 -0.40588772 1 2.682203e-05 2.8700451e-05 3.259506e-05
0.22981507 0.075730562 -0.40492356 -1 2.1367543e-05 -0.0001193215 3.1854834e-05
-0.22981505 0.086563289 -0.40463337 1 1.2127164e-05 -7.0611597e-05 3.3439479e-05
0.22981507 0.082221642 -0.4052707 -1 -1.2294185e-05 -0.00013349448 4.7621568e-05
-0.22981507 0.095986195 -0.40452871 1 1.8498973e-05 -0.00010040102 3.3512955e-05
0.22981505 0.09293548 -0.40254137 -1 1.9294588e-05 -3.717007e-05 3.1445394e-05
-0.22981507 0.10429305 -0.40330827 1 3.2045798e-05 -3.3857934e-05 4.7022815e-05
0.22981507 0.10690557 -0.40499401 -1 4.6570942e-05 -0.00013544368 4.4836506e-05
-0.22981507 0.11577727 -0.4020673 1 1.0395042e-05 -0.00016264114 4.1162537e-05
0.22981507 0.11997682 -0.40778226 -1 3.4153949e-05 -3.1953376e-05 3.3667922e-05
-0.22981507 0.12630945 -0.40658256 1 3.3121639e-06 -0.000102126 4.4622582e-05
0.22981507 0.12236601 -0.40522528 -1 2.2081347e-05 -9.7313932e-05 3.3757362e-05
-0.22981507 0.13487995 -0.40716356 1 4.6302619e-05 2.0438026e-06 3.5009591e-05
0.22981505 0.13427143 -0.40347838 -1 2.0113053e-05 -3.1942385e-05 3.1781998e-05
-0.22981507 0.14204594 -0.40487123 1 4.357061e-05 -2.9938879e-05 3.0315803e-05
-0.22981507 0.15940604 -0.40396225 1 3.31833e-05 -9.9819874e-07 3.4386976e-05
0.22981507 0.15546823 -0.40581059 -1 4.1475585e-05 -5.4271677e-05 4.2358795e-05
-0.22981505 0.16639911 -0.40428951 1 3.7911988e-05 -0.00010296533 3.3583423e-05
-0.22981507 0.17514743 -0.40133959 1 1.5838581e-05 3.0610339e-05 3.4657282e-05
0.22981507 0.17675389 -0.4049387 -1 -5.3958433e-06 -0.00011580239 3.0660638e-05
-0.22981507 0.18651909 -0.40393391 0.99998796 -0.0048928419 -0.00019719046 0.0001488846
0.22981507 0.18685962 -0.40358776 -0.99999458 -0.00330516 3.9763323e-05 6.1844956e-05
-0.22981507 0.19481556 -0.40156314 0.99805284 -0.061471827 -0.010571578 0.0087922718
0.22981507 0.19610125 -0.40574911 -0.99961817 -0.02758253 -0.001640992 0.00096818287
-0.22981507 0.20897365 -0.40306503 0.9181307 -0.39621484 0.0070483498 0.07582847
0.22981507 0.20563076 -0.40749624 -0.94958383 -0.31329 -0.011823334 0.055456933
-0.22855528 0.21370567 -0.40513161 0.82949299 -0.55021125 -0.095963389 0.07642094
-0.20387971 0.21893923 -0.401189 0.10780225 -0.99354839 0.035216674 0.0056536947
-0.18358643 0.21893923 -0.40648502 2.6584265e-05 -1 -3.7240206e-05 0
-0.1695172 0.21893923 -0.40585643 9.8984256e-06 -1 0.00019065922 0
-0.15565866 0.21893923 -0.40274614 6.1013802e-06 -1 7.502157e-05 0
-0.14743277 0.21893924 -0.40347695 0 -1 0 0
-0.13542549 0.21893923 -0.40884697 3.5998107e-06 -1 8.54104e-05 0
-0.1116648 0.21893924 -0.40498051 1.6338177e-05 -1 -1.0616856e-06 0
-0.093273379 0.21893923 -0.40540767 3.0269746e-05 -1 4.5259258e-05 0
-0.072872162 0.21893923 -0.40481165 8.3233899e-06 -1 5.3126922e-05 0
-0.061409734 0.21893923 -0.40454075 4.1511244e-06 -1 -4.3419372e-05 2.2010669e-05
-0.046831653 0.21893923 -0.40554088 0 -1 0 0
-0.015954288 0.21893921 -0.40872431 1.9318272e-06 -1 4.6407294e-07 0
-0.009509217 0.21893924 -0.40647376 4.0427203e-06 -1 3.3358028e-05 0
0.0055613946 0.21893921 -0.40540925 -3.2527441e-05 -1 0.0001855406 0
0.016410163 0.21893924 -0.40449843 -3.7765451e-06 -1 -4.749576e-05 0
0.023329495 0.21893921 -0.40753371 -3.6616887e-06 -1 4.4893561e-05 0
0.03614369 0.21893921 -0.40608478 -3.5720684e-06 -1 4.2650136e-05 0
0.047084652 0.21893923 -0.4030211 -1.8304559e-06 -1 3.4169541e-05 0
0.059612703 0.21893923 -0.40040991 5.9938975e-06 -1 3.8228427e-05 0
0.074961789 0.21893924 -0.40491721 -3.0606459e-06 -1 0.00011502123 0
0.092367232 0.21893923 -0.40683886 3.0959973e-06 -1 5.2385545e-05 0
0.11582878 0.21893923 -0.40332091 9.2048494e-06 -1 5.3826432e-05 0
0.13490945 0.21893923 -0.40241829 -6.5214772e-05 -1 3.9122082e-05 0
0.14955096 0.21893923 -0.40195328 7.4515242e-06 -1 9.4126764e-05 0
0.15442339 0.21893923 -0.40954289 9.630761e-07 -1 9.0324058e-05 0
0.1651585 0.21893921 -0.40760082 -9.1850861e-06 -1 8.9437344e-05 0
0.18976122 0.21893923 -0.40632463 -1.2804118e-05 -1 3.3583648e-05 0
0.19409777 0.21893923 -0.40806174 -7.4551881e-06 -1 5.625789e-05 0
0.22919112 0.21565172 -0.40682024 -0.89654219 -0.44294697 -0.0031763446 0.056543365
-0.22625406 -0.21638484 -0.39804152 0.66011202 0.74674445 -0.081393301 0.076851048
-0.21074049 -0.21893921 -0.39801401 0.29233229 0.95531601 -0.043739703 0.052766424
-0.20543639 -0.21893923 -0.3940739 0.11290101 0.99347031 -0.016431298 0.01402186
-0.19692838 -0.21893924 -0.39625746 0.017912278 0.99983686 -0.002339504 0.00049357861
-0.18276544 -0.21893923 -0.39384642 5.1514879e-05 1 0.00011658076 0
-0.17450802 -0.21893921 -0.39498621 3.1758825e-07 1 3.7936064e-05 0
-0.16643834 -0.21893923 -0.39476889 3.7201531e-05 1 0.00010420319 0
-0.15565383 -0.21893921 -0.39481473 3.6060155e-05 1 7.1227143e-05 0
-0.14434591 -0.21893923 -0.39311025 3.6487163e-05 1 0.00011691453 0
-0.13455257 -0.21893921 -0.39214391 1.5560367e-05 1 6.2491847e-05 0
-0.12524576 -0.21893923 -0.39723098 1.8098639e-05 1 9.5709627e-05 0
-0.11708174 -0.21893923 -0.39421913 5.2498235e-05 1 7.6623954e-05 0
-0.10507285 -0.21893923 -0.39672291 3.7121976e-05 1 0.00010575664 0
-0.094315931 -0.21893924 -0.39461437 2.9311259e-05 1 5.1931245e-05 0
-0.082499377 -0.21893921 -0.39618707 -2.0151629e-06 1 9.2685521e-05 0
-0.075745389 -0.21893921 -0.39767823 2.3081282e-05 1 6.3514781e-05 0
-0.067088187 -0.21893921 -0.39347467 4.1576973e-06 1 5.8920585e-05 0
-0.055036582 -0.21893923 -0.39435464 9.3088056e-06 1 3.0415338e-05 0
-0.045140307 -0.21893923 -0.39312208 2.4683736e-06 1 6.1794715e-05 0
-0.034907278 -0.21893923 -0.39382625 8.9496216e-06 1 3.055048e-05 0
-0.022727519 -0.21893923 -0.39592931 2.019998e-06 1 7.0700713e-05 0
-0.017101238 -0.21893923 -0.3952443 -5.3699846e-06 1 0.00011166353 0
-0.0041497294 -0.21893923 -0.39503953 8.5967085e-06 1 -9.5502015e-05 0
0.011375925 -0.21893923 -0.39390463 -2.0634618e-06 1 2.8969029e-07 0
0.021971617 -0.21893923 -0.39522457 -2.2225563e-06 1 6.8206791e-05 0
0.033189554 -0.21893923 -0.39405754 -8.6584096e-06 1 -6.1398685e-05 0
0.046276443 -0.21893923 -0.39649504 -2.6637255e-05 1 0.00011759065 0
0.059538968 -0.21893923 -0.39613828 -5.352088e-06 1 7.3443887e-05 0
0.068552911 -0.21893923 -0.39459038 -1.8273906e-05 1 -1.0269353e-06 0
0.074076809 -0.21893923 -0.39232492 -6.6902116e-06 1 3.1614709e-05 0
0.085340105 -0.21893923 -0.39541689 -1.7166085e-05 1 -7.6329371e-07 0
0.095034212 -0.21893924 -0.39838576 -2.7719736e-05 1 0.00019893727 0
0.10609142 -0.21893923 -0.39762154 -7.4407937e-05 1 8.1851256e-05 0
0.11508986 -0.21893923 -0.39757958 -4.2809784e-06 1 7.0393929e-05 0
0.12119634 -0.21893923 -0.39561501 -4.1246647e-05 1 4.156262e-05 0
0.13719875 -0.21893923 -0.39764732 -3.699938e-05 1 7.9213554e-05 0
0.14458455 -0.21893923 -0.39546442 -5.1887939e-05 1 0.00012251001 0
0.1550146 -0.21893923 -0.39610046 -1.8803697e-05 1 6.653351e-05 0
0.16506584 -0.21893924 -0.39436817 -3.13645e-05 1 7.045822e-05 0
0.17308979 -0.21893923 -0.39594805 -2.2227032e-05 1 6.606798e-05 0
0.1864706 -0.21893921 -0.39302611 -1.562965e-05 1 2.9533026e-05 0
0.19642957 -0.21893923 -0.39357051 1.1847386e-05 1 9.9944737e-05 0
0.20761183 -0.21893924 -0.39521641 -0.16112222 0.98639703 0.032565586 0.027337156
0.21701786 -0.21893923 -0.39514425 -0.38997245 0.92073023 0.013318161 0.063374035
0.22847879 -0.21571648 -0.39739928 -0.78080845 0.623344 -0.042195272 0.075379185
-0.22981507 -0.20145902 -0.39061037 0.9742077 0.22206609 0.040075108 0.038296659
0.22981507 -0.20241401 -0.39798874 -0.9599424 0.28005978 -0.0087886024 0.044471212
-0.22981507 -0.19771844 -0.39570969 0.97332525 0.22937493 0.0050136968 0.037788562
0.22981507 -0.1940899 -0.39179924 -0.99124354 0.13171907 0.0092972312 0.018462928
-0.22981507 -0.18844241 -0.39322764 0.99941915 0.03407336 -0.0005033309 0.0012311726
0.22981507 -0.18220192 -0.39532769 -1 -3.2367254e-05 -3.3458116e-05 3.6828169e-05
-0.22981507 -0.17406461 -0.39410588 1 -9.0184994e-06 -0.00013558452 4.0246905e-05
0.22981507 -0.17813222 -0.39517367 -1 -3.2366195e-05 -3.3451455e-05 4.6046516e-05
-0.22981507 -0.16538481 -0.39552522 1 -4.3172691e-05 -6.212444e-05 4.5287223e-05
0.22981507 -0.16417325 -0.39898708 -1 -3.8369479e-05 -2.8677638e-05 4.1554158e-05
-0.22981507 -0.15449521 -0.39607131 1 -1.8835635e-05 -9.5031057e-05 3.3677439e-05
0.22981507 -0.15349986 -0.39437646 -1 -2.5702633e-05 -0.00015013214 4.229819e-05
-0.22981505 -0.1435764 -0.39709476 1 -2.0593214e-05 -0.00015306474 3.4796463e-05
0.22981507 -0.14708458 -0.3950986 -1 -4.5428857e-05 -6.1207946e-05 3.3783894e-05
-0.22981505 -0.13453366 -0.39421025 1 -3.2435481e-05 -5.8262885e-05 3.2760679e-05
0.22981507 -0.13378304 -0.39517632 -1 -4.9673981e-05 5.5201434e-07 3.4854264e-05
-0.22981505 -0.12427954 -0.39381734 1 -1.2831786e-05 -0.00013066699 3.5363417e-05
0.22981505 -0.12343967 -0.39800709 -1 -1.7752358e-05 6.0842035e-07 3.3685916e-05
-0.22981505 -0.11758073 -0.39502347 1 -5.7965963e-06 -3.6921869e-05 3.7138641e-05
0.22981505 -0.11319467 -0.39517033 -1 -7.7789773e-06 -7.0199174e-05 3.4513272e-05
-0.22981507 -0.10288613 -0.3973453 1 -2.4374616e-05 -0.00010300487 4.3302334e-05
0.22981507 -0.10820632 -0.39454624 -1 -2.0923902e-05 -0.00011422481 3.450958e-05
-0.22981507 -0.096209675 -0.39343765 1 3.1060458e-06 -0.00010272582 4.2140742e-05
0.22981507 -0.095682383 -0.39806327 -1 -8.7962571e-06 -6.8765432e-05 3.4243443e-05
-0.22981507 -0.086114019 -0.39335626 1 8.4054373e-06 -6.4586471e-05 3.390287e-05
0.22981507 -0.085482731 -0.39543766 -1 -1.2714459e-05 -3.7541569e-05 3.3754364e-05
-0.22981507 -0.073021829 -0.39385211 1 -1.2579344e-05 -0.00010295364 3.3680601e-05
0.22981507 -0.07135354 -0.39264798 -1 2.5407649e-06 -0.00014757694 3.4447654e-05
-0.22981505 -0.06312529 -0.39373755 1 -2.1787097e-05 3.3720309e-05 3.4819543e-05
0.22981507 -0.064024046 -0.39697662 -1 -2.1339897e-06 -7.483059e-05 3.3909946e-05
-0.22981507 -0.055983406 -0.39714882 1 -1.5277332e-05 -0.00012774683 3.7487422e-05
0.22981505 -0.054451715 -0.39490563 -1 -6.7932096e-06 -6.7433648e-05 3.7504531e-05
-0.22981507 -0.045904517 -0.3971298 1 -6.9502985e-06 -0.00013714317 4.3309898e-05
0.22981507 -0.040985975 -0.39112329 -1 -3.068121e-06 -6.0944432e-05 4.0619401e-05
-0.22981507 -0.036845088 -0.399611 1 -1.9707055e-05 -3.2807351e-05 3.0655054e-05
0.22981507 -0.031316891 -0.39178824 -1 -3.5091168e-06 -3.4861136e-05 3.3540204e-05
-0.22981507 -0.02211988 -0.39000192 1 6.7790575e-07 -6.3544721e-05 3.1599542e-05
0.22981507 -0.022556469 -0.39299917 -1 -1.6815518e-05 -0.00013680528 4.4906872e-05
-0.22981507 -0.0107667 -0.39654961 1 -2.70898e-06 3.3492579e-05 3.1736297e-05
0.22981507 -0.011293776 -0.39932525 -1 -2.349567e-06 1.0210478e-08 4.0786694e-05
-0.22981507 -0.0022819366 -0.39333341 1 2.1356468e-06 -0.00017888028 3.336848e-05
0.22981507 -0.0044089011 -0.39373568 -1 -3.3921435e-06 -3.5746423e-05 4.0041985e-05
-0.22981507 0.0036147945 -0.39461213 1 7.9479596e-06 -6.4440013e-05 3.4998109e-05
0.22981507 0.0038521513 -0.39434752 -1 -1.1302377e-05 -0.0001636888 3.583531e-05
-0.22981507 0.013945803 -0.39319789 1 -7.4532517e-07 -0.00016856473 3.6678608e-05
0.22981507 0.019067518 -0.39222175 -1 1.0033261e-05 -7.3295931e-05 3.3330674e-05
-0.22981507 0.025805561 -0.39865065 1 2.7053795e-06 -3.0617743e-05 2.9398592e-05
0.22981507 0.026439397 -0.39351094 -1 2.9422645e-06 -6.8611771e-05 3.1947056e-05
-0.22981507 0.035212021 -0.39380437 1 1.401165e-05 -0.00010752772 4.1501309e-05
-0.22981505 0.043245673 -0.39422646 1 -7.4144809e-06 -9.5919189e-05 3.0971489e-05
0.22981507 0.046016399 -0.39296782 -1 1.4040014e-05 -0.00011670194 3.4211702e-05
-0.22981507 0.054350302 -0.39309716 1 3.4970415e-06 -0.00012047427 3.3605593e-05
0.22981507 0.05242686 -0.39465198 -1 9.1700349e-06 -0.00011405928 4.9314876e-05
-0.22981507 0.068078101 -0.39488986 1 3.298717e-06 -0.00010885889 3.025174e-05
0.22981507 0.062367633 -0.39472881 -1 6.1909441e-06 -9.995461e-05 4.5216013e-05
0.22981507 0.071555555 -0.39264411 -1 -2.1796548e-06 -0.00010495137 4.1984455e-05
-0.22981507 0.088804752 -0.39408034 1 7.9771744e-06 -0.00015652884 3.6129964e-05
0.22981507 0.085131668 -0.39579496 -1 3.3153807e-05 -8.5399835e-05 3.6074482e-05
-0.22981507 0.097317964 -0.39628494 1 1.6722899e-05 -0.00012560617 3.7333237e-05
0.22981507 0.096019879 -0.39887008 -1 3.2458636e-05 -0.00012656508 3.2805965e-05
-0.22981507 0.10280916 -0.39193368 1 1.4972325e-05 -0.00010991027 4.4068034e-05
0.22981507 0.10196469 -0.39615953 -1 4.2127536e-05 -4.9066407e-06 3.4724446e-05
-0.22981507 0.1138508 -0.39757884 1 1.4677215e-05 -0.00015899057 3.4771652e-05
0.22981507 0.11477189 -0.3939341 -1 3.3721379e-05 -0.0001463026 3.5855152e-05
-0.22981507 0.12348585 -0.39949751 1 2.6821575e-05 -3.8538787e-05 4.3684915e-05
0.22981507 0.12352103 -0.3939229 -1 3.6749876e-05 -3.7655311e-05 3.5373429e-05
-0.22981507 0.13154924 -0.3967815 1 3.3949909e-05 -9.8884346e-05 4.551138e-05
0.22981507 0.13688058 -0.39534581 -1 -0 -0 3.4590281e-05
-0.22981507 0.14653744 -0.39167625 1 4.5638422e-05 -3.3983863e-05 3.2795157e-05
0.22981505 0.14516976 -0.39625919 -1 -1.7059318e-05 -7.5069227e-05 3.4867091e-05
-0.22981507 0.15515694 -0.39746979 1 2.1666714e-05 -7.5252829e-05 4.5277637e-05
0.22981507 0.15757555 -0.39643452 -1 4.0433217e-05 -0.00013468174 3.4033867e-05
-0.22981507 0.16825995 -0.39134923 1 3.0351803e-05 -7.0287038e-05 3.2579999e-05
0.22981507 0.16381153 -0.39426833 -1 9.0039262e-05 -4.1533291e-05 4.3513748e-05
-0.22981507 0.17356035 -0.3943072 1 4.015091e-05 -3.7936301e-05 4.7773621e-05
-0.22981507 0.18171152 -0.39190394 1 5.0283747e-05 -0.00012574326 3.4323464e-05
0.22981505 0.18373278 -0.39921197 -1 4.2389493e-05 -6.6031898e-05 3.334348e-05
-0.22981507 0.1939265 -0.39242154 0.99827898 -0.057615541 0.010937947 0.0088272132
0.22981507 0.19457701 -0.39526725 -0.99417567 -0.10749711 0.0076890946 0.019566152
-0.22981507 0.20422047 -0.39684492 0.98126161 -0.19268021 0.00020011397 0.041273523
0.22981505 0.20450985 -0.39445701 -0.96068376 -0.2752524 -0.036369368 0.058182955
-0.22981505 0.21363094 -0.39836559 0.77366447 -0.63171566 -0.048771225 0.081702195
-0.21804114 0.21893923 -0.39809728 0.50667435 -0.86064094 -0.050775371 0.078120299
-0.20730786 0.21893924 -0.39789692 0.20651554 -0.97829938 0.016783144 0.020243384
-0.19463244 0.21893923 -0.39183933 3.6701666e-05 -1 7.6899094e-05 0
-0.18288101 0.21893924 -0.39884692 1.0906562e-05 -1 -4.2879034e-05 0
-0.17665969 0.21893921 -0.39126211 2.7307693e-05 -1 8.4030235e-06 8.1904354e-06
-0.16471142 0.21893921 -0.39842957 1.0957127e-05 -1 0.00011526354 0
-0.1526596 0.21893923 -0.39476401 1.6385618e-05 -1 7.1158746e-07 0
-0.1474493 0.21893923 -0.39615384 -1.715166e-05 -1 -6.7340407e-05 0
-0.13982588 0.21893921 -0.39650783 -4.1375943e-06 -1 0.00012843827 0
-0.1279988 0.21893923 -0.39731273 1.3838497e-05 -1 -3.0537929e-06 0
-0.10660467 0.21893921 -0.39724296 2.7674319e-05 -1 5.7842744e-06 0
-0.058594078 0.21893923 -0.39439264 -3.8322428e-06 -1 -3.2405485e-05 1.9136129e-05
-0.042030551 0.21893923 -0.39561665 0 -1 0 0
-0.03400087 0.21893923 -0.3907018 1.0945331e-05 -1 3.0381843e-05 0
-0.028706536 0.21893921 -0.3987332 1.9385468e-05 -1 3.2599844e-05 0
-0.0042439173 0.21893923 -0.39611903 -8.0548152e-06 -1 7.4636526e-05 0
0.017178457 0.21893921 -0.39333862 8.6672862e-06 -1 0.0001204063 0
0.028020514 0.21893921 -0.39656144 -2.1556004e-07 -1 3.9256774e-05 0
0.052039281 0.21893923 -0.39413744 -1.1531298e-05 -1 3.3340082e-05 0
0.09712185 0.21893923 -0.39543411 -2.323286e-05 -1 2.7949794e-05 0
0.10340088 0.21893921 -0.39119101 0 -1 0 0
0.12960795 0.21893924 -0.39729583 -3.2221713e-05 -1 6.1365194e-05 0
0.14432546 0.21893923 -0.3983674 -1.9611098e-05 -1 2.9344446e-05 0
0.15310293 0.21893924 -0.39622447 -2.7556614e-05 -1 5.8406898e-05 0
0.17829637 0.21893924 -0.39429048 -1.4138567e-05 -1 3.5897274e-06 0
0.18520363 0.21893921 -0.39548257 -9.1392722e-06 -1 3.9801042e-05 0
0.19310491 0.21893923 -0.3945297 -2.5861505e-05 -1 -3.7231843e-05 0
0.21283177 0.21893924 -0.39500773 -0.34414312 -0.93839347 -0.031355496 0.062868752
0.2269745 0.21617202 -0.39147219 -0.71129328 -0.70287836 0.0049049431 0.070591189
-0.22712141 -0.21633826 -0.38512671 0.80291772 0.58382374 0.12030378 0.064715728
-0.21503717 -0.21893924 -0.38516176 0.38583165 0.92211384 -0.02898331 0.068901636
-0.20405646 -0.21893923 -0.38780069 0.095489897 0.99534857 -0.012764229 0.01104222
-0.19391306 -0.21893921 -0.38523632 7.3321258e-05 1 7.7999197e-05 0
-0.18531902 -0.21893923 -0.38730022 3.7717222e-05 1 4.2268195e-05 0
-0.17567468 -0.21893923 -0.38568455 1.8883118e-05 1 0.0001069329 0
-0.16313118 -0.21893923 -0.385717 4.6779449e-05 1 0.00014311909 0
-0.15341812 -0.21893923 -0.38307983 1.9494513e-05 1 0.00010510531 0
-0.14681949 -0.21893924 -0.38388771 2.4817624e-05 1 7.0084185e-05 0
-0.13515884 -0.21893923 -0.38285947 2.555912e-05 1 6.3686394e-07 0
-0.12769289 -0.21893924 -0.38346064 2.524063e-05 1 3.6500394e-05 0
-0.11509936 -0.21893923 -0.38390428 3.6023808e-05 1 6.5426553e-05 0
-0.1039811 -0.21893923 -0.3856926 2.855512e-05 1 3.0906482e-05 0
-0.093946874 -0.21893924 -0.38567948 3.3655659e-05 1 0.00010197209 0
-0.086285174 -0.21893923 -0.38533631 3.2033338e-05 1 0.00012610303 0
-0.074672982 -0.21893924 -0.38336974 -1.2265002e-06 1 9.5180927e-05 0
-0.062993102 -0.21893921 -0.38478351 1.2937686e-05 1 3.8715581e-05 0
-0.056483239 -0.21893924 -0.3831495 1.4632797e-05 1 6.6519497e-05 0
-0.045361329 -0.21893923 -0.38471135 4.1797921e-06 1 -3.5247176e-05 0
-0.035638172 -0.21893923 -0.38420284 1.4569849e-05 1 3.7223082e-05 0
-0.02427173 -0.21893921 -0.38607311 4.2843071e-06 1 -4.0509485e-07 0
-0.018387213 -0.21893924 -0.38011557 -5.6368781e-06 1 0.0001223471 0
-0.008030789 -0.21893924 -0.38722992 6.2514044e-07 1 9.3297407e-05 0
0.0038985093 -0.21893923 -0.38561946 -4.5930447e-06 1 7.7776647e-05 0
0.013309636 -0.21893924 -0.38642475 -7.9281499e-06 1 -3.8331502e-05 0
0.02515547 -0.21893923 -0.38410938 -7.8010735e-06 1 -3.3805972e-07 0
0.03431496 -0.2189392 -0.38683566 -3.1108113e-06 1 6.5249405e-05 0
0.046525322 -0.21893923 -0.38586646 -4.2145998e-06 1 6.6333334e-05 0
0.05644463 -0.21893923 -0.38422114 -1.5004041e-05 1 6.3299653e-05 0
0.067459069 -0.21893924 -0.38444886 -2.5494795e-05 1 -3.6655914e-05 0
0.076598264 -0.21893923 -0.38454321 -3.880664e-05 1 1.6258517e-06 0
0.087262012 -0.21893921 -0.38380343 -1.0433298e-05 1 6.4832224e-05 0
0.093847647 -0.21893921 -0.38750497 -1.5107224e-05 1 2.9698784e-05 0
0.10368563 -0.21893921 -0.387335 -1.5785185e-05 1 8.961706e-05 0
0.11440715 -0.21893921 -0.38504907 -2.8128637e-05 1 0.00013023207 0
0.12871163 -0.21893923 -0.38440108 -3.4669654e-05 1 6.9738475e-05 0
0.13595682 -0.21893924 -0.38840544 -5.247465e-05 1 0.00014209223 0
0.14659463 -0.21893923 -0.38478065 -1.3923069e-05 1 7.3418145e-05 0
0.15657353 -0.21893921 -0.38603953 -2.7334545e-05 1 0.00012555016 0
0.16362493 -0.21893924 -0.38608232 -2.8921673e-05 1 8.9867945e-06 0
0.17182687 -0.21893923 -0.3870298 -2.5621965e-05 1 0.00013062191 0
0.18308824 -0.21893921 -0.38351744 -1.4496446e-05 1 8.2087798e-05 0
0.19210026 -0.21893923 -0.38338259 -6.7180031e-06 1 7.4819793e-05 0
0.20062906 -0.21893923 -0.38378519 -0.031283848 0.99951023 0.00073979236 0.0010273695
0.2158931 -0.21893921 -0.38417709 -0.40717545 0.91331989 -0.0074112285 0.072023332
0.22877789 -0.21533933 -0.38561401 -0.73090869 0.68070042 -0.049187366 0.071246579
-0.22981507 -0.20484442 -0.38710549 0.90742868 0.41836128 0.039333642 0.079777054
-0.22981507 -0.19375153 -0.38236809 0.99515814 0.098278828 0.0012309359 0.013248822
0.22981507 -0.19281037 -0.38096154 -0.99695128 0.077497341 0.0090729641 0.010973359
-0.22981507 -0.18415803 -0.38312662 1 -6.5278749e-05 3.8888884e-06 4.8593542e-05
0.22981507 -0.18399222 -0.38271084 -1 -7.0730959e-05 -0.0001285124 3.5065885e-05
-0.22981507 -0.17591973 -0.38626236 1 -1.8109613e-05 -0.00014121152 4.173124e-05
0.22981507 -0.17718837 -0.38484466 -1 1.1887611e-06 -8.9012879e-05 4.2347776e-05
-0.22981507 -0.16784981 -0.3878603 1 -9.5994037e-06 -6.0161194e-05 3.3056451e-05
0.22981507 -0.16374405 -0.38207036 -1 -2.5498985e-05 -9.0398702e-05 3.2424909e-05
-0.22981507 -0.15415788 -0.38342208 1 -5.02728e-05 -0.00013648761 4.2783515e-05
0.22981507 -0.15629171 -0.38250709 -1 -2.3333854e-05 -9.6512274e-05 3.152962e-05
-0.22981507 -0.14651404 -0.38483161 1 -3.1840707e-05 -0.00011594511 3.3212698e-05
0.22981505 -0.14566636 -0.38374695 -1 -3.2479697e-05 -0.00011934574 3.5937235e-05
-0.22981507 -0.13216743 -0.38418955 1 2.0300869e-05 -0.00017867443 3.6189329e-05
0.22981507 -0.13338335 -0.38674456 -1 -5.4930784e-05 -3.3991419e-05 3.2984826e-05
-0.22981507 -0.12311526 -0.38387498 1 -1.7192706e-05 -0.00012178798 3.467263e-05
0.22981507 -0.12395123 -0.38722822 -1 -2.9417375e-05 -9.1410766e-05 4.6426965e-05
-0.22981507 -0.11525035 -0.38442624 1 -1.1964221e-05 -0.00013068081 3.7763832e-05
0.22981507 -0.1169799 -0.38441175 -1 0 0 4.5419281e-05
-0.22981507 -0.1047453 -0.38547683 1 9.2695427e-06 -0.00018766242 4.4440789e-05
0.22981507 -0.10552618 -0.38821942 -1 -1.447619e-05 -0.00012870348 3.3997236e-05
-0.22981507 -0.097756624 -0.38559166 1 -1.0680593e-05 -3.9839859e-05 4.3016087e-05
-0.22981507 -0.085942432 -0.38462555 1 -1.51438e-05 -8.4580941e-05 3.6064055e-05
0.22981507 -0.086798221 -0.38405845 -1 -2.0240259e-06 -0.00013201237 3.1363441e-05
-0.22981505 -0.075392231 -0.38494146 1 -3.3784672e-05 -0.00012266346 3.138819e-05
0.22981505 -0.074322045 -0.38693586 -1 -8.4216745e-06 -3.6080888e-05 3.5099361e-05
-0.22981507 -0.06575229 -0.3864294 1 -5.9506024e-06 -6.1707746e-05 3.4070788e-05
0.22981507 -0.060503021 -0.38137138 -1 1.2386238e-05 -0.00010008199 3.2253341e-05
-0.22981507 -0.056914747 -0.38194281 1 -1.1852628e-05 -5.2757776e-05 3.3450164e-05
0.22981507 -0.053481698 -0.38329577 -1 -7.9887504e-06 -6.4685475e-05 3.7784645e-05
-0.22981505 -0.0495199 -0.38557133 1 4.9315299e-06 -0.00014444902 3.593244e-05
0.22981507 -0.04388614 -0.38777131 -1 8.252553e-06 -9.3348448e-05 3.295211e-05
-0.22981507 -0.036241639 -0.38348731 1 -1.655987e-06 -7.2037394e-05 4.0576084e-05
0.22981507 -0.035730641 -0.38263255 -1 -6.3750831e-06 -8.3954088e-05 4.2939075e-05
-0.22981507 -0.026326213 -0.38253111 1 -1.2917415e-05 3.1153382e-07 3.0693031e-05
0.22981507 -0.028681196 -0.38126689 -1 -1.9978437e-05 -8.5567262e-05 3.673356e-05
-0.22981504 -0.017025428 -0.38435072 1 6.8261425e-06 -0.00010229255 3.5216952e-05
0.22981507 -0.0180161 -0.38160068 -1 -5.5848318e-06 -6.6626737e-05 3.3260614e-05
-0.22981505 -0.0032383217 -0.38702428 1 -6.0541311e-07 -2.713987e-09 3.7966911e-05
0.22981507 -0.0082832724 -0.38235295 -1 -9.1899501e-06 -9.7010241e-05 3.819718e-05
-0.22981504 0.0047446787 -0.38501382 1 -2.2861749e-07 3.5950416e-05 3.5624787e-05
0.22981507 0.005554013 -0.3813374 -1 -1.6400546e-06 -3.1667525e-05 3.3693934e-05
-0.22981507 0.01456603 -0.38720769 1 1.0714299e-05 -0.00010840728 3.3791144e-05
0.22981507 0.016632088 -0.38648292 -1 2.0469441e-05 -9.8222888e-05 4.3585635e-05
-0.22981504 0.02346715 -0.3841458 1 1.8584957e-05 -0.00012493394 3.5621924e-05
0.22981507 0.021627681 -0.38465557 -1 -2.9709394e-08 -9.4724259e-05 3.971254e-05
-0.22981507 0.034892485 -0.38726655 1 6.5484555e-06 -6.7964567e-05 3.7436581e-05
0.22981504 0.035693359 -0.38430357 -1 1.625856e-05 -0.00011443861 3.1145391e-05
-0.22981507 0.045627028 -0.38543367 1 1.7084127e-05 -0.00011042871 3.6564619e-05
0.22981507 0.042948775 -0.38827807 -1 1.1404556e-05 -3.1876243e-05 3.1108422e-05
0.22981507 0.056005724 -0.38279015 -1 -7.6086161e-07 -0.00012993843 4.6243116e-05
-0.22981507 0.065469772 -0.38652426 1 1.9330759e-05 -0.00013481335 2.9579211e-05
0.22981507 0.06690684 -0.38436502 -1 4.2018851e-06 -0.00013937506 4.4414348e-05
-0.22981507 0.078151189 -0.38836384 1 2.1624566e-05 -3.2197731e-05 3.2725828e-05
0.22981507 0.076950155 -0.38644463 -1 2.1334528e-05 -3.1939653e-05 3.0775343e-05
-0.22981505 0.085434489 -0.38430259 1 -1.0480278e-05 -8.1430087e-05 3.3708431e-05
-0.22981505 0.094139136 -0.38567176 1 2.3922956e-05 -7.2038689e-05 3.3517743e-05
0.22981505 0.094935358 -0.38576236 -1 5.2317573e-06 -6.1743784e-05 2.9821424e-05
-0.22981507 0.10444133 -0.38389874 1 1.1073591e-05 -3.6220485e-05 4.5603781e-05
0.22981505 0.10516267 -0.38470435 -1 1.8494562e-05 -8.4092469e-05 3.1675525e-05
-0.22981507 0.1182999 -0.38808846 1 -1.103325e-09 3.4933888e-05 4.1475323e-05
0.22981507 0.11780347 -0.38794357 -1 1.7424387e-05 -0.00013544604 4.1313946e-05
0.22981507 0.12315635 -0.38765547 -1 5.9876227e-05 -0.00014668162 4.4379434e-05
-0.22981507 0.13217385 -0.38995773 1 -8.7303051e-06 -9.9737474e-05 4.1807139e-05
0.22981507 0.13921225 -0.38432753 -1 3.8539409e-05 -0.0001522681 4.1409861e-05
-0.22981507 0.14400488 -0.38383463 1 5.1488114e-05 -9.8542614e-07 3.2617754e-05
0.22981508 0.14488421 -0.38385686 -1 3.5790033e-06 -3.9733266e-05 4.63367e-05
-0.22981505 0.15568601 -0.38290823 1 -9.0742351e-06 -0.00011291421 3.3649623e-05
0.22981507 0.15738459 -0.38665271 -1 3.1470048e-05 -0.00010096235 3.9973635e-05
-0.22981505 0.16656604 -0.38430315 1 3.3152501e-05 -3.3543896e-05 3.6193258e-05
0.22981507 0.1635502 -0.38307691 -1 4.9585917e-05 3.0418538e-05 4.2864362e-05
-0.22981507 0.17436214 -0.38447905 1 4.0920393e-05 -0.00013779764 3.5311459e-05
0.22981507 0.17895478 -0.38340104 -1 3.3403565e-05 4.2956322e-06 3.6382535e-05
-0.22981505 0.18368605 -0.38605037 1 3.9905499e-05 -0.00014124422 4.0573239e-05
0.22981507 0.18240324 -0.38506442 -1 4.6511046e-05 -3.1161107e-05 3.3331457e-05
-0.22981507 0.19702981 -0.38412568 0.99442881 -0.10533133 0.0040720734 0.020026857
0.22981507 0.19643557 -0.38526005 -0.98708785 -0.15807679 0.025870364 0.03747122
-0.22981507 0.20400453 -0.38770771 0.97332573 -0.22938883 -0.0041990811 0.048733499
0.22981507 0.20214659 -0.38377401 -0.96374023 -0.26612553 -0.01954098 0.06495063
-0.22647123 0.21638751 -0.38673863 0.62215751 -0.78044999 0.061787862 0.081471726
-0.2035464 0.21893923 -0.38622391 0.059170064 -0.99793583 0.024958415 0.0022636782
-0.19372784 0.21893923 -0.3839781 5.8591559e-05 -1 -4.2449155e-05 0
-0.15819143 0.21893923 -0.38739547 1.8289678e-05 -1 6.7372901e-05 0
-0.13381712 0.21893921 -0.3830272 3.7241975e-06 -1 2.8026878e-05 0
-0.11274361 0.21893923 -0.38802513 1.0949052e-05 -1 1.3410078e-06 0
-0.10525402 0.21893921 -0.38041747 -1.6965034e-05 -1 3.1546071e-05 0
-0.093658455 0.21893923 -0.38767132 -3.9666861e-06 -1 2.4695346e-05 0
-0.07429491 0.21893921 -0.3835873 1.2765461e-05 -1 -1.908752e-06 8.8369252e-06
-0.024672635 0.21893921 -0.38768783 2.5782133e-06 -1 -2.8262122e-07 0
0.01791442 0.21893924 -0.3865782 1.6286896e-05 -1 8.8099034e-05 0
0.042027 0.21893921 -0.38695985 -2.273592e-05 -1 6.1743049e-05 0
0.056404639 0.21893924 -0.38111258 2.2103532e-06 -1 -3.1538246e-05 0
0.061938614 0.21893923 -0.38643435 -6.9991179e-06 -1 3.4149874e-05 0
0.088239379 0.21893923 -0.38277295 -9.6154936e-06 -1 -8.4296079e-07 0
0.092303097 0.21893924 -0.38238633 -1.8737564e-05 -1 6.7075111e-05 0
0.11394863 0.21893924 -0.38631448 -1.3298425e-05 -1 8.6712299e-07 0
0.12868315 0.21893924 -0.38215888 -2.6958423e-05 -1 -2.8512429e-06 0
0.13321815 0.21893923 -0.38512805 -1.0156991e-05 -1 7.3121824e-05 0
0.14669636 0.21893923 -0.38320714 -1.1466257e-08 -1 3.050827e-05 0
0.1585919 0.21893923 -0.38929674 4.1761555e-06 -1 3.3912664e-05 0
0.19819576 0.21893923 -0.38212717 -3.9612951e-06 -1 3.5145262e-05 0
0.20505606 0.21893924 -0.38710135 -0.14876367 -0.98860562 0.022985395 0.015273201
0.21195719 0.21893921 -0.38859549 -0.29036203 -0.95682162 0.013498923 0.04279121
0.22981507 0.21517606 -0.38531947 -0.75981855 -0.65000159 -0.013179727 0.086820431
-0.22717609 -0.21708372 -0.37567663 0.69476056 0.71699065 0.056851096 0.074314393
-0.19408557 -0.21893923 -0.37224114 -1.6336253e-05 1 8.879129e-05 0
-0.18750253 -0.21893924 -0.3748154 -0 1 -0 0
-0.17853391 -0.21893921 -0.37600172 6.7053646e-05 1 3.0691914e-05 0
-0.16212261 -0.21893924 -0.37921733 2.782708e-05 1 6.5082815e-05 0
-0.15345049 -0.21893921 -0.37252158 3.1835756e-05 1 3.5820234e-05 0
-0.14444736 -0.21893923 -0.37136754 3.9163784e-05 1 -8.5197757e-07 0
-0.13243881 -0.21893924 -0.37563646 4.4338442e-05 1 0.00014509488 0
-0.12519287 -0.21893923 -0.37416384 3.3504217e-05 1 7.5857286e-05 0
-0.1124319 -0.21893924 -0.37132451 2.494937e-05 1 2.828288e-06 0
-0.10527134 -0.21893923 -0.37649718 2.4281728e-05 1 6.7711044e-05 0
-0.095320113 -0.21893923 -0.37818232 -7.4020481e-06 1 0.00018497471 0
-0.080940977 -0.21893923 -0.37416086 1.8236513e-05 1 -3.5088873e-05 0
-0.07831993 -0.21893923 -0.37413409 8.5289439e-06 1 -7.5395508e-07 0
-0.066312306 -0.21893923 -0.37335971 1.1624007e-06 1 9.2806455e-05 0
-0.05547291 -0.21893923 -0.37549025 1.9789348e-05 1 3.5719663e-06 0
-0.04786744 -0.21893923 -0.37647495 -1.4467275e-06 1 4.8467711e-05 0
-0.03636739 -0.21893923 -0.37210286 -7.5920889e-06 1 6.7786503e-05 0
-0.024919912 -0.21893924 -0.37530053 9.3396393e-06 1 -3.4835859e-05 0
-0.014392815 -0.21893923 -0.37510335 4.4472254e-06 1 6.6647175e-05 0
-0.0046170787 -0.21893923 -0.37361637 9.3591979e-07 1 6.7721849e-05 0
0.0018946519 -0.21893923 -0.3741602 2.5448253e-06 1 3.0939711e-05 0
0.015736084 -0.21893921 -0.37208498 -2.0766677e-06 1 2.9129304e-05 0
0.026440695 -0.21893924 -0.3774949 -1.061877e-05 1 3.1957898e-05 0
0.038248852 -0.21893923 -0.37525338 -1.5115068e-05 1 9.7574928e-05 0
0.041985024 -0.21893923 -0.3754065 -1.5770174e-05 1 0.00013399513 0
0.055902094 -0.21893923 -0.37838116 -1.2990858e-05 1 9.7680211e-05 0
0.065335691 -0.21893923 -0.37425533 -1.0173989e-06 1 0.0001042451 0
0.073915273 -0.21893924 -0.37492669 -1.0934858e-05 1 2.1414719e-06 0
0.082386963 -0.2189392 -0.37461871 -2.1932845e-05 1 0.00010723744 0
0.094020762 -0.21893923 -0.37653589 -3.8041937e-05 1 0.00014058482 0
0.10698984 -0.21893923 -0.37705246 -4.4391541e-05 1 8.850835e-05 0
0.11440036 -0.21893923 -0.37439713 -1.9751405e-06 1 7.3210904e-05 0
0.12773104 -0.21893924 -0.37695557 3.5177395e-06 1 6.0914444e-05 0
0.13968274 -0.21893924 -0.37374535 9.2293631e-06 1 0.00010380675 0
0.14511316 -0.21893923 -0.37467122 1.2077299e-05 1 6.5013934e-05 0
0.16196057 -0.21893923 -0.37437242 -2.1041256e-05 1 6.3497158e-05 0
0.17098556 -0.21893923 -0.37871319 -2.5588319e-05 1 8.2977058e-05 0
0.18751562 -0.21893923 -0.3723999 -7.6788601e-06 1 3.7395854e-05 0
0.19772708 -0.21893921 -0.37433684 -0.011519765 0.99993211 0.0017210139 0.00034638066
0.20386989 -0.21893923 -0.37435037 -0.10216048 0.99471849 0.0099188061 0.012727149
0.21551216 -0.21893921 -0.37391406 -0.34822163 0.93707687 -0.02507296 0.062462147
0.22739451 -0.21687491 -0.37650526 -0.62543881 0.77937323 -0.037463337 0.077850118
-0.22981505 -0.20322119 -0.37698555 0.98747981 0.15739457 -0.010515701 0.019625025
0.22981507 -0.20592733 -0.37337875 -0.92642826 0.37563074 0.025142211 0.062041782
-0.22981505 -0.19597146 -0.37808222 0.9947598 0.10033315 0.019652359 0.011586724
0.22981505 -0.19310741 -0.37497604 -0.99632668 0.085618235 -0.0016418556 0.011369342
-0.22981507 -0.18092801 -0.3776153 1 -0.00010050739 -0.0001025856 4.5693512e-05
-0.22981507 -0.17338747 -0.3756142 1 -5.7250199e-05 -0.00012769944 3.973885e-05
0.22981507 -0.17771691 -0.37340066 -1 -7.0763635e-05 -3.1058273e-05 4.0885581e-05
-0.22981507 -0.16564582 -0.37640655 1 -1.3278925e-05 -2.8719829e-05 4.0096664e-05
0.22981507 -0.16458091 -0.37236378 -1 5.2570631e-06 -9.5360294e-05 3.8080394e-05
-0.22981507 -0.15343665 -0.37608686 1 -5.2298707e-05 -0.00010238857 4.0309733e-05
-0.22981507 -0.14877106 -0.37412649 1 -2.3569626e-05 -0.00011753141 4.2813674e-05
0.22981507 -0.14367269 -0.37754741 -1 -4.534714e-05 -0.00011123182 3.3463235e-05
-0.22981507 -0.13608731 -0.37753391 1 -4.0682164e-05 -0.00012726808 3.2678894e-05
0.22981507 -0.13642278 -0.37575623 -1 -4.8972321e-05 -7.9300975e-05 3.5778961e-05
-0.22981507 -0.12056692 -0.37454489 1 -8.2438773e-06 -8.1280057e-05 3.5365152e-05
0.22981507 -0.12299448 -0.37466875 -1 -3.8736322e-05 -6.4879919e-07 4.5082536e-05
-0.22981505 -0.11679171 -0.37484038 1 -3.5672998e-05 -0.00010694252 3.5287379e-05
0.22981507 -0.11593276 -0.37717834 -1 -1.5639118e-05 -0.00010221359 3.3322944e-05
-0.22981507 -0.10751176 -0.37510595 1 -1.3491677e-05 -3.5299887e-05 3.2812877e-05
0.22981507 -0.10241783 -0.37826723 -1 -1.5560727e-05 -8.7754459e-05 4.1280582e-05
-0.22981507 -0.09469372 -0.37457135 1 7.0801771e-06 -0.00011726862 4.2456442e-05
0.22981507 -0.093478292 -0.3750827 -1 -4.3076026e-05 -7.7154429e-05 3.6251549e-05
-0.22981507 -0.08584094 -0.37341678 1 -2.577431e-05 -6.6324894e-05 4.649501e-05
0.22981507 -0.086031079 -0.37656498 -1 -5.5529399e-06 -6.0084243e-05 3.9997925e-05
-0.22981507 -0.077421375 -0.37415996 1 -3.4705956e-06 -0.00012400026 4.6904617e-05
0.22981507 -0.072096385 -0.37641335 -1 -3.7144338e-05 -3.549183e-05 3.5853816e-05
-0.22981507 -0.065100096 -0.37298641 1 -1.6813037e-05 1.096906e-06 3.5382738e-05
0.22981505 -0.063044831 -0.37772554 -1 -1.2336643e-05 -0.00015800912 3.3176359e-05
-0.22981507 -0.055215672 -0.37819368 1 8.6546942e-07 2.8340031e-05 3.2623306e-05
0.22981505 -0.054205686 -0.37395945 -1 9.7485099e-06 -7.2745592e-05 3.7014288e-05
-0.22981507 -0.044204045 -0.37199798 1 -4.3152363e-06 -1.6624136e-07 3.0417239e-05
0.22981507 -0.045942597 -0.37689292 -1 -7.1278118e-06 -8.5240332e-05 3.4964953e-05
0.22981507 -0.032955199 -0.37167278 -1 -6.3060469e-08 -3.6155991e-05 3.3845368e-05
-0.22981507 -0.027452821 -0.3749001 1 -5.6361314e-06 7.1396691e-08 2.9729294e-05
0.22981504 -0.023186648 -0.37547746 -0.99999994 -9.7187194e-06 -0.00020494305 3.4264453e-05
-0.22981505 -0.013682839 -0.37375924 1 -9.3098788e-06 -8.4378524e-05 3.5614172e-05
0.22981507 -0.016989347 -0.37412226 -1 -7.4764134e-06 -9.6360389e-05 3.2950873e-05
-0.22981504 -0.0059287869 -0.37491724 1 -2.1134068e-07 -9.3682655e-05 3.5558911e-05
0.22981507 -0.0073474441 -0.37503064 -1 1.2042183e-05 -0.000100993 3.3530858e-05
-0.22981505 0.0049304874 -0.37531403 1 1.0096936e-05 -6.0875573e-05 3.6309153e-05
0.22981507 0.0057044551 -0.37588719 -1 1.5069968e-06 -1.5887954e-08 3.2282729e-05
-0.22981507 0.011725795 -0.37287778 1 2.7821573e-06 -6.3439475e-05 3.3335557e-05
0.22981505 0.01423973 -0.37285906 -1 -0 -0 3.513031e-05
-0.22981505 0.025782345 -0.37573197 1 2.3338389e-06 4.2062965e-08 3.3522047e-05
0.22981507 0.024879726 -0.37276158 -1 -5.1243101e-06 -7.2055351e-05 4.6708454e-05
-0.22981507 0.036395047 -0.37111017 1 1.3270416e-05 -5.8883332e-05 3.2626787e-05
0.22981507 0.034207027 -0.37036407 -0.99999994 -1.4975084e-06 -0.00021814569 3.2311749e-05
-0.22981507 0.046047546 -0.376966 1 1.6686772e-05 -3.0596893e-05 3.0793446e-05
0.22981507 0.048594519 -0.37541401 -1 -1.0669304e-05 -0.00010586999 3.3047425e-05
-0.22981507 0.05376415 -0.37423313 1 2.3658124e-05 -3.1721003e-05 3.3219654e-05
0.22981507 0.055675637 -0.37696111 -1 1.3673919e-05 -9.2476192e-05 4.3130771e-05
-0.22981507 0.065012842 -0.37620676 1 2.2581005e-05 -0.00011536352 3.3742141e-05
0.22981507 0.063402802 -0.37684461 -1 2.4614668e-05 -3.4016859e-05 4.55308e-05
-0.22981505 0.073557109 -0.37592396 1 1.9530646e-05 -0.00011213191 3.3557568e-05
0.22981505 0.073838912 -0.37520409 -1 4.0118575e-05 -9.1768583e-05 3.4256151e-05
-0.22981507 0.090479851 -0.37681827 1 4.169239e-05 -9.2726543e-05 3.2308675e-05
0.22981507 0.094408348 -0.37518549 -1 8.5473339e-06 -8.8346758e-05 3.0566658e-05
-0.22981507 0.1037448 -0.37390509 1 3.1098301e-05 -0.00010846313 4.3153716e-05
0.22981507 0.10453669 -0.3760083 -1 5.766221e-06 -0.00010096892 3.4170058e-05
-0.22981507 0.11637954 -0.37688556 1 1.5902217e-05 -0.00013371864 3.1643041e-05
0.22981507 0.11335164 -0.37551865 -1 1.8748064e-05 -8.518064e-05 3.649986e-05
-0.22981507 0.12048502 -0.37539127 1 1.6442189e-05 -6.2277475e-05 3.1701835e-05
0.22981507 0.12452187 -0.37737682 -1 4.7487192e-05 -0.0001301733 4.7464931e-05
-0.22981507 0.13656247 -0.37563309 1 1.7221335e-05 -8.5273285e-05 3.3023938e-05
0.22981507 0.13243073 -0.37617767 -1 2.889309e-05 -7.5707532e-05 4.5128098e-05
-0.22981507 0.14593142 -0.37574282 1 2.7085638e-05 -0.00010742348 4.0083836e-05
0.22981507 0.14066438 -0.3740449 -1 5.7272514e-06 -0.00016816023 4.3009499e-05
-0.22981507 0.15449287 -0.37691939 1 -1.1203207e-05 -0.0001228831 3.4732089e-05
0.22981507 0.15605363 -0.37614679 -1 1.4554464e-05 -0.00011620004 3.1892516e-05
0.22981507 0.16564834 -0.3725774 -1 6.7132576e-05 -8.2262632e-05 3.5285051e-05
-0.22981505 0.17530921 -0.37438321 1 1.8331908e-05 3.4468565e-05 3.4949615e-05
0.22981504 0.17443936 -0.37669769 -1 -7.838614e-05 -0.0001136205 3.4699005e-05
-0.22981505 0.18813679 -0.37334177 0.99996847 -0.0079168621 -0.00054507126 0.00013153726
0.22981507 0.18282114 -0.3767426 -1 3.3196466e-05 -3.3335742e-05 3.4400491e-05
-0.22981507 0.19719128 -0.37568122 0.99705994 -0.076491624 -0.0045265239 0.0134714
0.22981507 0.19667503 -0.37547454 -0.99973166 -0.022650324 0.0048490968 0.00083814783
-0.22981505 0.2065147 -0.37601981 0.94427377 -0.32880753 -0.015252131 0.060467493
0.22981507 0.20448828 -0.37157127 -0.93181461 -0.35822222 0.058294535 0.070114478
-0.22887683 0.21690631 -0.37514162 0.78328776 -0.62155706 0.011271802 0.093515798
-0.2159951 0.21893921 -0.37433308 0.38272735 -0.92385364 0.0037629688 0.063494593
-0.20327899 0.21893923 -0.37267101 0.15054286 -0.98824626 -0.026574323 0.018306484
-0.19165264 0.21893923 -0.37665263 5.9744965e-05 -1 -8.4618623e-06 0
-0.1724377 0.21893921 -0.37420556 4.2596046e-05 -1 1.1403534e-06 0
-0.12183635 0.21893921 -0.37597677 2.7122518e-05 -1 -3.0521667e-05 0
-0.11531568 0.21893924 -0.37814766 1.234897e-05 -1 1.6645017e-06 0
-0.082415752 0.21893923 -0.37585488 1.5532474e-05 -1 -1.6188776e-06 0
-0.071911603 0.21893923 -0.37489828 2.2781229e-05 -1 9.7597956e-05 0
-0.056498747 0.21893921 -0.37392813 6.2533982e-06 -1 7.1342947e-05 0
-0.031244926 0.21893924 -0.37311202 6.9917733e-06 -1 6.4175969e-05 0
-0.020900197 0.21893924 -0.37371004 1.6880077e-06 -1 6.5917724e-05 0
-0.012398522 0.21893923 -0.37904972 -1.3867824e-06 -1 2.7629116e-05 0
-0.0011683758 0.21893923 -0.37541553 4.871858e-06 -1 6.9395879e-05 0
0.0014630035 0.21893924 -0.37502512 4.8719171e-06 -1 6.9395886e-05 0
0.010261105 0.21893923 -0.37477124 3.0013705e-06 -1 0.00014620667 0
0.024483792 0.21893923 -0.37636584 -5.2870982e-06 -1 7.1538314e-05 0
0.04249138 0.21893923 -0.3790192 0 -1 0 0
0.053638425 0.21893923 -0.37396955 2.9959567e-06 -1 -2.6900219e-05 0
0.085160784 0.21893924 -0.37904295 1.4037671e-05 -1 9.162369e-05 0
0.096227191 0.21893924 -0.37591571 -2.0884883e-05 -1 9.2909242e-05 0
0.10871987 0.21893924 -0.37624055 -8.1304879e-06 -1 7.2778908e-05 0
0.12142261 0.21893921 -0.37391552 -5.7667394e-06 -1 0.00010423768 0
0.13571137 0.21893921 -0.37621903 -1.8460438e-05 -1 -3.2878938e-06 0
0.14058201 0.21893921 -0.37772834 -1.1833449e-05 -1 -7.3111704e-07 0
0.15484391 0.21893924 -0.37162352 -2.5742984e-05 -1 7.2527502e-05 0
0.1606721 0.21893923 -0.37796438 -7.5387188e-06 -1 5.6614816e-05 0
0.17339662 0.21893924 -0.37459731 -2.4922096e-05 -1 6.1484367e-05 0
0.18776494 0.21893923 -0.37541926 -5.8317532e-05 -1 2.5656656e-05 0
0.19437154 0.21893923 -0.37715155 -2.204878e-05 -1 2.7759177e-05 0
0.2069995 0.21893921 -0.37632623 -0.22545804 -0.97421044 0.0090992721 0.032736033
0.22981504 0.21352276 -0.37494567 -0.73225337 -0.67517805 0.089104332 0.07269828
-0.22559144 -0.21774882 -0.36527786 0.69053417 0.72052062 0.06334544 0.081421807
-0.2172026 -0.21893923 -0.36345035 0.31987041 0.94744557 -0.0054607298 0.052788742
-0.20330501 -0.21893923 -0.36551616 0.073962398 0.99724591 -0.0054854583 0.0087104719
-0.19195771 -0.21893924 -0.36212787 2.2894174e-05 1 5.990345e-05 0
-0.18299207 -0.21893921 -0.36685729 1.8942701e-05 1 8.8268956e-05 0
-0.17409401 -0.21893923 -0.36462715 3.0098587e-07 1 7.3644544e-05 0
-0.16477504 -0.21893923 -0.36500713 -1.0377163e-05 1 0.00010242794 0
-0.15459485 -0.21893924 -0.36116016 3.6405432e-05 1 6.415206e-05 0
-0.14383271 -0.21893921 -0.3643997 4.7506364e-05 1 9.3742288e-05 0
-0.1302419 -0.21893921 -0.36535406 2.8570086e-05 1 3.0400513e-05 0
-0.12846002 -0.21893923 -0.36436591 3.7254493e-05 1 0.00010145298 0
-0.11564583 -0.21893921 -0.36662462 1.7929335e-05 1 0.0001041928 0
-0.10359666 -0.21893924 -0.36710519 2.4206216e-05 1 3.1139782e-05 0
-0.095253855 -0.21893923 -0.36506683 1.5821475e-05 1 3.0995627e-05 0
-0.083375871 -0.21893923 -0.36677787 4.3015598e-06 1 0.00010027026 0
-0.077325493 -0.21893921 -0.3627795 1.0416884e-05 1 6.7780791e-05 0
-0.063831329 -0.21893921 -0.36386245 4.5520978e-06 1 2.9994362e-07 0
-0.052973419 -0.21893923 -0.36737087 5.0991171e-06 1 3.3863755e-05 0
-0.042565726 -0.21893924 -0.36802894 2.0498576e-06 1 3.4411576e-05 0
-0.033264954 -0.21893923 -0.36621112 6.1525661e-06 1 -1.6279495e-06 0
-0.026407255 -0.21893924 -0.36359954 2.0089101e-06 1 0.00010312942 0
-0.014492045 -0.21893923 -0.36256644 5.9257663e-06 1 7.1123941e-05 0
-0.0057387962 -0.21893923 -0.36599091 -3.0418962e-06 1 7.1430426e-05 0
0.0029978864 -0.21893921 -0.3676284 2.9841651e-06 1 6.918647e-05 0
0.016409263 -0.21893923 -0.36606452 -4.2244515e-06 1 -3.9081624e-07 0
0.024098039 -0.21893924 -0.36926734 -2.2413835e-06 1 9.7014706e-08 0
0.035536651 -0.21893923 -0.36529493 1.811844e-06 1 6.4310902e-05 0
0.041547358 -0.21893923 -0.36188808 5.1607553e-06 1 0.00015708094 0
0.059587579 -0.21893923 -0.36849049 -2.0833061e-06 1 3.4375022e-05 0
0.063729353 -0.21893923 -0.365183 -4.0226118e-06 1 3.6665304e-05 0
0.074320666 -0.21893921 -0.36562744 1.2402627e-06 1 0.00010518995 0
0.088170148 -0.21893921 -0.36343759 -5.288076e-06 1 6.8750924e-05 0
0.094118297 -0.21893923 -0.36543533 1.1890047e-05 1 3.708568e-05 0
0.1035064 -0.21893924 -0.36404225 -2.4700141e-05 1 9.7564342e-05 0
0.11351871 -0.21893923 -0.36834893 -1.7445122e-05 1 -3.4090026e-05 0
0.12302577 -0.21893923 -0.36742669 -1.8029246e-05 1 -3.2107873e-06 0
0.13454404 -0.2189392 -0.36441293 -8.9420864e-06 1 6.207548e-05 0
0.14581478 -0.21893923 -0.36522827 6.1058781e-06 1 8.9382185e-05 0
0.16540791 -0.21893923 -0.36606154 -1.9852561e-05 1 3.9659488e-05 0
0.17473915 -0.21893923 -0.36541826 -2.9427867e-05 1 3.465229e-05 0
0.18244666 -0.21893923 -0.36484843 -2.5145049e-05 1 0.00010847509 0
0.19838829 -0.21893923 -0.36144122 -0.022393467 0.99974918 -0.00040766943 0.00056791335
0.20293871 -0.21893923 -0.36480477 -0.090869404 0.99582916 0.0081839189 0.01131881
0.21184389 -0.21893921 -0.36509457 -0.29075605 0.95672643 -0.011632237 0.050201885
0.22760499 -0.21619664 -0.36408803 -0.66600055 0.74590731 -0.0080976151 0.089913256
-0.22981505 -0.20706296 -0.3621732 0.92085636 0.38986477 0.0053837043 0.054425154
0.22981505 -0.2056461 -0.36447883 -0.91696459 0.39892423 -0.0059478986 0.070790432
-0.22981507 -0.19682434 -0.36431357 0.99535275 0.096214436 0.0039582294 0.0095529212
0.22981507 -0.19626951 -0.36424649 -0.97988445 0.19950056 -0.0051008323 0.032194708
-0.22981507 -0.18117617 -0.36640891 0.99999994 -5.2531585e-05 -0.0001687107 3.3640765e-05
0.22981507 -0.18538131 -0.36277699 -1 -5.2498177e-05 -0.00015712965 3.4911594e-05
-0.22981507 -0.17686407 -0.3620179 1 -4.5557503e-05 -8.7733162e-05 3.641894e-05
0.22981507 -0.17676753 -0.36589515 -1 -6.4818734e-05 -7.1181479e-05 3.5787005e-05
-0.22981507 -0.16683371 -0.36105499 1 -5.5371984e-05 -0.00011861315 4.3993172e-05
0.22981507 -0.16586703 -0.36603704 -1 -5.277864e-05 -4.5544268e-05 4.6611549e-05
-0.22981507 -0.15529202 -0.36169344 1 -1.8862778e-05 -3.2446336e-05 4.2011248e-05
0.22981507 -0.15644881 -0.36810917 -1 -1.8354945e-05 -3.5682246e-05 3.3598964e-05
-0.22981507 -0.14220315 -0.36765036 1 -5.199324e-05 -0.00010759411 3.3668239e-05
0.22981507 -0.14476499 -0.36557162 -1 -1.9482704e-05 -5.8743819e-05 4.2663811e-05
-0.22981507 -0.13440971 -0.36526814 1 -4.4770921e-05 -3.5903206e-05 4.1446674e-05
0.22981507 -0.13278216 -0.36496112 -1 1.1428683e-05 -9.3182236e-05 3.9659826e-05
-0.22981507 -0.12505378 -0.36297673 1 -1.4924888e-05 -8.7326975e-05 4.6298177e-05
0.22981507 -0.12274951 -0.36498123 -1 -3.9726288e-05 -9.1553113e-05 4.0784427e-05
-0.22981507 -0.11600021 -0.36499032 1 -1.8147185e-06 -0.00014735697 3.1215361e-05
0.22981507 -0.11399059 -0.36478078 -1 3.0828815e-07 -0.00018116785 4.3593413e-05
0.22981507 -0.10615078 -0.36759385 -1 -1.5457203e-05 -3.0698779e-05 3.5834626e-05
-0.22981508 -0.093650959 -0.36494559 1 -9.8354294e-06 -0.00011419818 3.7023488e-05
0.22981507 -0.092326522 -0.36263859 -1 -4.9910886e-06 -6.8870955e-05 3.467736e-05
-0.22981507 -0.08899945 -0.36234316 1 -3.2676693e-05 -6.1797429e-05 4.1594063e-05
0.22981507 -0.085252039 -0.36512086 -1 -3.8474853e-05 -0.00012312345 3.164565e-05
-0.22981507 -0.074421123 -0.36513689 1 -1.5981137e-05 -0.00010043856 3.4106946e-05
-0.22981507 -0.065556049 -0.36551696 1 -2.1997828e-05 -3.2573018e-05 3.3730143e-05
0.22981505 -0.06671983 -0.36495581 -1 -7.7763871e-06 -0.00013559042 3.398371e-05
-0.22981504 -0.055665724 -0.36539039 1 -1.908305e-06 -5.8591366e-05 3.3706052e-05
0.22981507 -0.055486284 -0.36586744 -1 -2.6327276e-05 -1.8058803e-06 3.1221374e-05
-0.22981507 -0.047047704 -0.36397851 1 -1.8571225e-05 -6.670622e-05 3.3384422e-05
0.22981507 -0.049215991 -0.36756092 -1 -1.0913024e-05 -6.480702e-05 3.5672958e-05
0.22981507 -0.039412826 -0.36092594 -1 -3.1283839e-06 -5.801849e-05 2.8741741e-05
-0.22981507 -0.023958933 -0.36467078 1 4.6776095e-06 -0.00018322581 3.3986867e-05
0.22981505 -0.025547348 -0.36760628 -1 -6.9866564e-06 -3.6463345e-05 3.525873e-05
-0.22981507 -0.011472329 -0.36492324 1 2.2328759e-06 3.3373668e-05 3.516335e-05
0.22981507 -0.014245306 -0.36661991 -1 -5.5861565e-06 -8.2245948e-05 3.6105219e-05
-0.22981507 -0.0053490698 -0.36203369 1 -5.7492489e-06 3.5042376e-05 3.3738044e-05
0.22981507 -0.0039525609 -0.36283192 -1 7.6556562e-06 -0.00012863292 3.98802e-05
-0.22981507 0.0045218803 -0.36609685 1 -1.1558128e-06 -3.1386215e-05 3.562259e-05
0.22981505 0.0066515938 -0.36166796 -1 -3.9869678e-06 -7.3950236e-05 3.2760094e-05
-0.22981507 0.018595647 -0.36150748 1 1.561713e-05 -9.2962742e-05 3.3939974e-05
0.22981507 0.013334762 -0.36102128 -1 5.7657962e-06 -6.7664783e-05 3.5258541e-05
-0.22981507 0.024304865 -0.36344543 1 8.2664201e-06 -9.1707843e-05 3.8863309e-05
0.22981507 0.028292703 -0.36659098 -1 4.5266115e-06 -0.00011190006 3.2258646e-05
-0.22981507 0.035645809 -0.36601329 1 1.0812295e-05 -8.7523978e-05 3.3211818e-05
0.22981505 0.033980578 -0.36405176 -1 6.7981682e-06 -0.00010903376 3.479372e-05
-0.22981504 0.044303082 -0.36614799 1 1.7326169e-05 -6.456249e-05 3.077327e-05
0.22981507 0.044202108 -0.36228833 -1 2.4664398e-06 -6.7655616e-05 3.7762584e-05
-0.22981507 0.055007737 -0.36664906 1 2.8390625e-05 -7.4416062e-07 3.7635571e-05
0.22981507 0.055985004 -0.36594 -1 2.0680476e-05 -3.2670625e-05 3.4346962e-05
-0.22981507 0.067387201 -0.36477211 1 1.7471466e-05 -0.00013198449 3.7030273e-05
