# .PCD v0.7 - Point Cloud Data file format
VERSION 0.7
FIELDS x y z normal_x normal_y normal_z curvature
SIZE 4 4 4 4 4 4 4
TYPE F F F F F F F
COUNT 1 1 1 1 1 1 1
WIDTH 633
HEIGHT 1
VIEWPOINT 0 0 0 1 0 0 0
POINTS 633
DATA ascii
-0.025293505 0.21893923 -0.27489591 1.7931719e-05 -1 9.4856077e-05 0
0.0046909885 0.21893923 -0.27230236 -7.5970461e-06 -1 5.633969e-05 0
0.014104609 0.21893923 -0.27527383 -1.4522792e-07 -1 7.3038711e-05 0
0.024413928 0.21893923 -0.27398166 2.614408e-06 -1 1.7926015e-05 0
0.035743356 0.21893921 -0.276126 -1.2495574e-06 -1 1.5397938e-05 0
0.044014856 0.21893923 -0.27692619 -8.8203115e-06 -1 7.0726455e-05 0
0.055408791 0.21893924 -0.27460578 -2.0341395e-05 -1 0.00011170071 0
0.062018298 0.21893921 -0.27658719 -2.0992855e-05 -1 5.3025062e-05 0
0.075492717 0.21893923 -0.27349824 -4.0895939e-05 -1 7.5996279e-05 0
0.084367208 0.21893924 -0.27688155 -1.4183814e-06 -1 9.2027491e-05 0
0.092980735 0.21893923 -0.27541581 -7.9919573e-06 -1 3.2622571e-05 0
0.10676202 0.21893923 -0.27414256 -1.7416094e-05 -1 7.1604831e-05 0
0.11402611 0.21893921 -0.27692458 -9.2500259e-06 -1 0.00014283083 0
0.12349582 0.21893923 -0.276324 -3.2827331e-05 -1 5.6761372e-05 0
0.13388377 0.21893924 -0.27557355 -2.366938e-05 -1 9.6084907e-05 0
0.14585298 0.21893923 -0.27422005 -1.1257785e-05 -1 4.4885281e-05 0
0.15772587 0.21893923 -0.274939 -3.939688e-05 -1 9.2480899e-05 0
0.16632056 0.21893923 -0.27311862 -7.1385133e-05 -1 1.5857289e-05 0
0.17287968 0.21893923 -0.2735801 -2.1318288e-05 -1 1.7531989e-05 0
0.1838697 0.21893921 -0.27408504 -3.0518484e-05 -1 6.8356305e-05 0
0.20366973 0.21893923 -0.27335262 -0.043260079 -0.99899662 -0.011587298 0.001560841
0.21753216 0.21893921 -0.27511632 -0.5765875 -0.81659961 0.026681809 0.083252996
0.22756553 0.21688187 -0.27418888 -0.77448291 -0.62848562 0.071986422 0.060181003
-0.22598909 -0.21796693 -0.26863956 0.65193468 0.75767052 -0.030273527 0.078493364
-0.21602778 -0.21893923 -0.26485521 0.46572042 0.88486499 0.010883951 0.066957243
-0.20686406 -0.21893924 -0.26607677 0.18162079 0.98333228 0.0084643951 0.028578794
-0.19621535 -0.21893924 -0.26942536 0.004871489 0.99998808 -0.00034189696 4.6285593e-05
-0.1826304 -0.21893923 -0.26576558 3.7032336e-05 1 5.2619667e-05 0
-0.17171088 -0.21893923 -0.26248014 3.5222889e-05 1 0.00013424628 0
-0.16610637 -0.21893923 -0.26634899 2.8077728e-05 1 4.8710848e-05 0
-0.15220669 -0.21893924 -0.26110095 3.4335735e-05 1 -1.8149189e-05 0
-0.14573444 -0.21893924 -0.26472139 1.7289078e-05 1 3.9777653e-05 0
-0.13226445 -0.21893924 -0.26812384 4.892845e-05 1 0.00010060942 0
-0.12625617 -0.21893924 -0.26160765 1.5590049e-05 1 1.0721978e-06 0
-0.115841 -0.21893923 -0.26677391 3.079755e-05 1 5.298265e-05 0
-0.10509577 -0.21893923 -0.2674222 -2.1819345e-05 1 3.9462844e-05 0
-0.09967047 -0.21893921 -0.26091406 -1.1971055e-06 1 9.5858217e-05 0
-0.085025564 -0.21893923 -0.26344717 2.0481968e-05 1 3.3329914e-05 0
-0.076216429 -0.21893924 -0.26520181 1.4418653e-05 1 3.7963036e-05 0
-0.069838494 -0.21893921 -0.2667253 -1.0048891e-05 1 8.2229009e-05 0
-0.05213381 -0.21893921 -0.26676965 1.3707605e-05 1 1.5583879e-05 0
-0.047812056 -0.21893923 -0.26305389 3.5624337e-06 1 8.2325641e-05 0
-0.037855551 -0.21893923 -0.26781109 8.3347641e-06 1 2.784599e-05 0
-0.02517933 -0.21893923 -0.26284236 1.9034245e-06 1 3.0693722e-05 0
-0.015834691 -0.21893923 -0.26615411 1.0353636e-05 1 1.6180451e-05 0
-0.004617183 -0.21893924 -0.2653704 1.2730031e-07 1 3.5074801e-05 0
0.018278854 -0.21893923 -0.26691812 -3.4804111e-06 1 5.0982249e-05 0
0.027504314 -0.21893924 -0.26604378 -9.0849071e-06 1 3.3498651e-05 0
0.038735203 -0.21893924 -0.26612532 1.0686123e-06 1 8.5201085e-05 0
0.051636267 -0.21893923 -0.26650736 -6.4408728e-06 1 7.8736921e-05 0
0.062884726 -0.21893921 -0.26489025 -1.0420198e-05 1 -1.2899144e-05 0
0.086183749 -0.21893923 -0.26438507 -0 1 -0 0
0.092921555 -0.21893923 -0.26491389 -1.3403001e-05 1 6.8266556e-05 0
0.10630205 -0.21893923 -0.26475808 -2.1809552e-05 1 2.8435181e-05 0
0.11398973 -0.21893923 -0.26790148 -4.4779648e-05 1 3.3118115e-05 0
0.12228605 -0.21893923 -0.26458246 -2.6159616e-05 1 5.0119255e-05 0
0.13563593 -0.21893923 -0.26253429 -3.9917337e-05 1 5.6332952e-05 0
0.14789192 -0.21893923 -0.26321322 -4.7060978e-05 1 4.5237408e-05 0
0.15645599 -0.21893923 -0.26740021 -3.3757759e-05 1 1.771994e-05 0
0.16207014 -0.21893921 -0.265836 -5.7268408e-05 1 3.4744975e-05 0
0.17835928 -0.21893923 -0.26150998 -2.8280467e-05 1 3.401607e-05 0
0.1862691 -0.21893921 -0.26087633 -1.9402389e-05 1 1.7608712e-05 0
0.1956656 -0.21893923 -0.2620303 -2.0988677e-05 1 1.3281148e-07 0
0.20538156 -0.21893923 -0.26332223 -0.12661889 0.99192685 -0.0069905962 0.018352075
0.21450388 -0.21893923 -0.26572034 -0.36131099 0.93201041 -0.028478768 0.057416182
0.22767293 -0.21526791 -0.26410881 -0.65305454 0.75463527 -0.06360285 0.069424555
-0.22981507 -0.20441027 -0.26324493 0.92672533 0.36672184 -0.081824414 0.059294637
0.22981507 -0.20628716 -0.2657885 -0.8801676 0.4712739 -0.056621026 0.067125514
-0.22981507 -0.19436505 -0.26435426 0.9899646 0.13875072 -0.026802218 0.018072598
-0.22981507 -0.18504286 -0.26671934 1 -6.0466336e-05 -7.706022e-05 5.0325743e-05
0.22981507 -0.18299487 -0.26373476 -1 1.0922518e-06 -1.4518675e-05 2.8382039e-05
-0.22981507 -0.17609093 -0.26617414 1 -2.3055431e-05 -6.1938568e-05 3.7750899e-05
-0.22981507 -0.16649258 -0.26319313 1 -3.2797656e-05 -8.981867e-05 3.3377193e-05
-0.22981507 -0.15368058 -0.26538396 1 -5.6043944e-05 -2.4030351e-05 3.5305166e-05
0.22981507 -0.15688874 -0.26377138 -1 -6.6811386e-05 -6.7491317e-05 4.3212098e-05
-0.22981507 -0.14366466 -0.26680028 1 -2.8555643e-05 -5.1548894e-05 4.3836459e-05
0.22981507 -0.14520602 -0.26441446 -1 -3.732452e-05 -5.4830907e-05 3.4388882e-05
-0.22981507 -0.13622987 -0.2644881 1 -2.713767e-05 -5.9865364e-05 4.7786063e-05
0.22981505 -0.13421671 -0.26630536 -1 -2.4957135e-05 -3.0778712e-05 3.2342261e-05
-0.22981507 -0.12137227 -0.26189262 1 -2.9857794e-05 1.8233059e-05 3.2331227e-05
0.22981507 -0.12500247 -0.26496524 -1 -4.4702465e-05 -1.3378689e-05 3.2894714e-05
-0.22981507 -0.11488171 -0.26092082 1 -2.9955052e-05 -4.7501639e-05 3.2686985e-05
0.22981507 -0.11484989 -0.26793393 -1 -3.0089983e-05 -4.552316e-05 3.5683512e-05
-0.22981508 -0.10680373 -0.26515388 1 -1.6925729e-05 -6.517522e-07 3.8019374e-05
0.22981507 -0.10606755 -0.26640266 -1 -1.7140324e-05 -3.7162255e-05 3.4732999e-05
-0.22981505 -0.094585478 -0.2646482 1 -3.1947551e-05 -7.8487035e-05 3.8073642e-05
0.22981507 -0.09529224 -0.26234254 -1 -2.145329e-05 -9.6492389e-05 4.348714e-05
-0.22981507 -0.08391431 -0.26740724 1 -8.3833402e-06 -5.7292928e-05 3.5718214e-05
0.22981507 -0.083761483 -0.26387471 -1 -3.2340231e-05 -4.9842725e-05 4.3835418e-05
-0.22981507 -0.077388741 -0.26892138 1 -6.9520497e-06 -7.6970719e-05 3.0579184e-05
0.22981507 -0.075792708 -0.26267707 -1 -2.0852547e-05 -6.5781976e-05 4.2742948e-05
0.22981507 -0.065312453 -0.26350239 -1 -2.8192626e-05 -2.1398419e-05 4.2610049e-05
-0.22981507 -0.057250034 -0.26579335 1 -6.5327345e-06 -1.7602515e-05 4.0692878e-05
-0.22981507 -0.04272788 -0.26620504 1 -2.214704e-05 -1.4319405e-05 3.5521363e-05
0.22981507 -0.043684114 -0.2657184 -1 -3.3071448e-08 -6.450159e-05 3.5250174e-05
-0.22981507 -0.03967303 -0.26777256 1 -1.1899207e-05 -3.0684503e-05 4.120246e-05
0.22981508 -0.039759591 -0.26401109 -1 -1.510688e-05 -9.3712777e-05 3.1092441e-05
-0.22981507 -0.023678472 -0.26514554 1 -2.3673556e-07 -0.00010662826 4.5009572e-05
0.22981507 -0.024609923 -0.26367557 -1 2.3399352e-07 -1.4068934e-05 3.8383401e-05
-0.22981507 -0.016272984 -0.2665222 1 -6.0381296e-07 -5.1122195e-05 3.4612513e-05
-0.22981507 -0.0017931983 -0.26437861 1 1.4003622e-06 -9.34571e-05 3.4428445e-05
0.22981507 -0.0048371181 -0.26361811 -1 -5.0551512e-07 -1.5583561e-05 3.3228545e-05
-0.22981507 0.0041235285 -0.2653589 1 2.8045902e-06 1.4464747e-05 3.0737454e-05
0.22981507 0.0047878139 -0.26504591 -1 4.1062931e-06 -3.3813478e-05 4.5160894e-05
-0.22981507 0.015825864 -0.26847631 1 7.7867452e-07 -5.5754408e-05 3.3719763e-05
0.22981507 0.01706844 -0.26645195 -1 5.9923632e-06 -3.3922202e-05 4.7244786e-05
-0.22981507 0.029181488 -0.26999158 1 9.416829e-06 -4.8594629e-05 4.0250383e-05
0.22981507 0.024158712 -0.26719645 -1 -8.1052787e-07 -4.9023405e-05 3.1257972e-05
-0.22981507 0.036411222 -0.26656812 1 1.1402695e-05 -6.4914668e-05 4.4205059e-05
0.22981507 0.036178406 -0.2654525 -1 6.7808145e-07 -4.8874874e-05 3.2697179e-05
-0.22981507 0.044759937 -0.26682949 1 -5.1973589e-06 -4.0887382e-05 3.949958e-05
0.22981508 0.049244285 -0.26134858 -1 8.3765608e-06 -1.4408216e-05 3.9471477e-05
-0.22981507 0.058295727 -0.26622844 1 3.1245792e-05 -7.8215075e-05 3.8345279e-05
0.22981507 0.055367727 -0.26829684 -1 8.2601546e-06 -8.6578017e-05 4.0351519e-05
0.22981507 0.06689322 -0.26926613 -1 1.1396631e-05 -6.4385837e-05 3.2770957e-05
-0.22981505 0.076308079 -0.26395279 1 2.4082541e-05 -3.0296016e-05 3.5246157e-05
0.22981507 0.074510798 -0.26692739 -1 3.9186591e-05 -6.4358239e-05 4.286972e-05
-0.22981507 0.084868371 -0.26206061 1 2.0948482e-05 -5.5001259e-05 3.0016581e-05
0.22981507 0.083014198 -0.26431721 -1 7.9334013e-06 1.5756792e-05 3.9851326e-05
0.22981507 0.092766866 -0.26459193 -1 1.5896278e-05 -3.051796e-05 4.2073349e-05
-0.22981507 0.1080557 -0.26709014 1 2.820123e-05 -5.664934e-05 3.4422814e-05
0.22981507 0.10744233 -0.26295656 -1 7.4301615e-06 -7.1121001e-05 4.0886705e-05
-0.22981505 0.11679295 -0.26343149 1 3.2156771e-05 -6.3286469e-05 3.0243926e-05
0.22981507 0.11426761 -0.2651152 -1 3.5593446e-06 -8.23316e-05 3.8747956e-05
-0.22981507 0.12498726 -0.26493362 1 4.8061782e-05 -5.9119622e-05 3.8308619e-05
0.22981505 0.12470405 -0.26415259 -1 1.2803947e-05 -6.0225426e-05 3.5111152e-05
-0.22981505 0.13572529 -0.26556727 1 3.449613e-05 -7.034259e-05 3.5593221e-05
0.22981507 0.13556087 -0.26352948 -1 1.3366402e-05 -1.6051032e-05 3.7626131e-05
-0.22981505 0.14394586 -0.26260877 1 5.3350774e-05 -4.156326e-05 3.7118873e-05
0.22981507 0.14383292 -0.26479363 -1 4.3835455e-05 -2.8850316e-05 3.0582076e-05
-0.22981507 0.15316546 -0.26433372 1 2.0160473e-05 -1.9204421e-05 3.5071804e-05
0.22981504 0.15372483 -0.26450178 -1 1.1299562e-05 -6.7404348e-05 3.5994468e-05
-0.22981507 0.16842097 -0.26139775 1 1.5114445e-05 -2.3135381e-07 3.1653635e-05
0.22981507 0.16092673 -0.26296753 -1 2.3176684e-05 -3.2710253e-05 3.4989684e-05
-0.22981507 0.17554873 -0.26532215 1 2.066355e-05 -4.4903019e-05 4.7258665e-05
0.22981507 0.17119431 -0.26594806 -1 1.8916282e-05 -5.356134e-05 4.2241707e-05
-0.22981507 0.18575683 -0.26939937 1 6.2137784e-05 -4.6456062e-05 4.5546636e-05
0.22981507 0.18389419 -0.26670015 -1 -1.7157063e-06 -2.8613196e-05 3.0837982e-05
-0.22981507 0.19472045 -0.26609305 0.99066019 -0.13347931 0.027852438 0.023053734
0.22981507 0.197281 -0.26701576 -0.9879331 -0.15425353 -0.013928077 0.030361041
-0.22981507 0.20413223 -0.26223135 0.97921813 -0.20197791 0.0183484 0.03175972
0.22981507 0.20441991 -0.26770592 -0.95862174 -0.28399205 -0.019825486 0.040295728
-0.22570133 0.21758483 -0.26777077 0.67013514 -0.74222594 0.0044112406 0.094457872
-0.21225935 0.21893923 -0.268354 0.27389097 -0.96170241 0.010593526 0.050608642
-0.20275907 0.21893921 -0.26347134 0.034315854 -0.99941009 -0.001326311 0.00078635645
-0.19974455 0.21893921 -0.26939189 0.024847852 -0.99969107 -0.00062429166 0.0006415252
-0.18654223 0.21893921 -0.2665098 -2.1914582e-05 -1 5.213455e-05 0
-0.17545216 0.21893923 -0.26289585 3.5857844e-05 -1 1.4242669e-05 0
-0.16403989 0.21893924 -0.26302031 1.6990738e-05 -1 1.6030373e-05 0
-0.15565559 0.21893923 -0.26697719 2.0190582e-05 -1 6.7394626e-07 0
-0.14479239 0.21893921 -0.26648912 6.5507737e-07 -1 -1.5339303e-05 0
-0.13564062 0.21893924 -0.26727498 4.9509148e-05 -1 5.0762039e-05 0
-0.12385117 0.21893923 -0.2646167 3.6269994e-06 -1 0.00010870687 0
-0.11457497 0.21893923 -0.26610166 2.419046e-05 -1 -1.9126499e-05 0
-0.1054405 0.21893924 -0.26450393 1.5189909e-05 -1 3.726787e-05 0
-0.096958071 0.21893923 -0.26475617 5.1694687e-06 -1 4.504983e-05 0
-0.085010618 0.21893921 -0.26496512 5.9927547e-06 -1 5.4364969e-05 0
-0.075265244 0.21893924 -0.26398149 6.2657034e-07 -1 1.5163233e-05 0
-0.06833557 0.21893924 -0.2624315 7.6925608e-06 -1 7.4520241e-05 0
-0.056572318 0.21893923 -0.26290011 4.4791414e-06 -1 3.4983659e-05 0
-0.041543268 0.21893921 -0.26421553 2.0360798e-05 -1 4.9561892e-05 0
-0.036265712 0.21893923 -0.26571101 9.5037249e-06 -1 1.6999762e-05 0
-0.024579404 0.21893924 -0.26744094 7.3868478e-06 -1 3.5432542e-05 0
-0.018269427 0.21893923 -0.26958755 -5.2193682e-06 -1 9.1801172e-05 0
-0.0090702437 0.21893924 -0.26846278 1.8591086e-06 -1 1.5150208e-05 0
0.0037288591 0.21893923 -0.264878 1.8942287e-06 -1 4.0140538e-05 0
0.016027544 0.21893923 -0.26512402 -5.5328583e-06 -1 1.670319e-05 0
0.023094201 0.21893923 -0.26572624 -6.908569e-06 -1 6.6247747e-05 0
0.039245546 0.21893924 -0.26428029 -1.4431116e-06 -1 5.2780426e-05 0
0.042017523 0.21893923 -0.26597613 -6.3164816e-06 -1 1.4809517e-05 0
0.057897225 0.21893923 -0.26218754 -6.3972102e-06 -1 8.0841477e-05 0
0.065500714 0.21893923 -0.26230562 -1.2922472e-05 -1 0.00010299405 0
0.074651286 0.21893921 -0.2651177 1.4611506e-06 -1 5.6937493e-05 0
0.081719168 0.21893923 -0.26754877 -2.0205174e-05 -1 3.5038418e-05 0
0.093201466 0.21893924 -0.26330364 -2.711474e-05 -1 5.4762608e-05 0
0.10689484 0.21893924 -0.26450256 -3.7405334e-06 -1 7.3172909e-05 0
0.11794806 0.21893923 -0.26914901 -2.7344871e-05 -1 3.4640696e-05 0
0.12272232 0.21893923 -0.2649053 -8.5868196e-06 -1 5.3848686e-05 0
0.13454117 0.21893923 -0.26686814 -5.3588294e-05 -1 5.696102e-05 0
0.15444028 0.21893921 -0.26239279 -1.850728e-05 -1 2.8106862e-05 0
0.16573672 0.21893924 -0.26953119 -0.00011103261 -1 2.3944469e-05 0
0.17763877 0.21893921 -0.26755089 -3.5946534e-05 -1 6.5221939e-05 0
0.18708399 0.21893921 -0.26634496 -5.7460144e-05 -1 3.6441128e-05 0
0.21374309 0.21893924 -0.26638812 -0.39803061 -0.91736305 0.004087944 0.059815757
0.22981507 0.21477407 -0.26245946 -0.79729372 -0.60180014 0.046467308 0.061160203
-0.22801413 -0.21545407 -0.25498754 0.72560138 0.68807191 -0.0077198679 0.064224206
-0.2158609 -0.21893921 -0.25783789 0.3826485 0.9233247 0.032429352 0.062463425
-0.20599666 -0.21893923 -0.25291106 0.14637244 0.98913604 0.013602216 0.025528219
-0.19676599 -0.21893921 -0.25572294 2.535191e-05 1 7.1365284e-05 0
-0.18605195 -0.21893923 -0.25528872 4.4159813e-05 1 7.1930001e-05 0
-0.17581947 -0.21893923 -0.25676736 1.8388226e-05 1 3.6959627e-05 0
-0.16602676 -0.21893923 -0.25592229 1.7244591e-05 1 5.6548786e-05 0
-0.15288962 -0.21893923 -0.25681716 -1.6653592e-06 1 1.9218895e-05 0
-0.14503218 -0.21893923 -0.25701848 1.4019563e-05 1 2.1129001e-05 0
-0.13365765 -0.21893924 -0.25168914 3.5534511e-05 1 5.326137e-05 0
-0.12583694 -0.21893924 -0.25556254 3.1891854e-05 1 5.8001926e-05 0
-0.11540365 -0.21893924 -0.25684366 2.8775539e-05 1 5.5123055e-05 0
-0.10777272 -0.21893923 -0.25172991 4.5041697e-06 1 7.4858748e-05 0
-0.086001247 -0.21893923 -0.25406116 1.8117255e-05 1 1.6365459e-06 0
-0.076812617 -0.21893924 -0.256441 -7.7340437e-06 1 -2.9936695e-07 0
-0.069635741 -0.21893924 -0.25655353 7.3794087e-07 1 3.9098104e-05 0
-0.055590816 -0.21893924 -0.2521596 -9.8255202e-07 1 9.5087496e-05 0
-0.04390756 -0.21893923 -0.25564808 4.1590647e-06 1 6.7347144e-05 0
-0.03386835 -0.21893921 -0.25589693 1.1463751e-05 1 5.1023148e-05 0
-0.025510538 -0.21893921 -0.25514269 7.4374448e-06 1 3.6150959e-05 0
-0.015887765 -0.21893923 -0.25418565 -3.3948686e-06 1 2.9058037e-05 0
-0.0057525234 -0.21893923 -0.25233579 -1.6942283e-06 1 4.5506888e-05 0
0.0043316856 -0.21893923 -0.2558291 -2.7832925e-06 1 4.1374758e-05 0
0.016933553 -0.21893924 -0.25201696 2.2239599e-06 1 3.1278596e-05 0
0.024381986 -0.21893924 -0.25551215 3.3022764e-06 1 7.4005227e-05 0
0.031847961 -0.21893921 -0.25299692 -8.0110021e-06 1 9.0140958e-05 0
0.044271074 -0.21893923 -0.25498658 -3.8011362e-06 1 2.5982939e-07 0
0.054834045 -0.21893923 -0.25558695 7.7629611e-06 1 -3.7526108e-05 0
0.066876188 -0.21893923 -0.25275934 -1.1954291e-05 1 7.8282152e-05 0
0.077085227 -0.21893923 -0.25624761 -1.3936565e-05 1 -1.6665279e-05 0
0.085133314 -0.21893923 -0.25449264 -1.2159652e-05 1 6.8948975e-05 0
0.095014811 -0.21893921 -0.2577475 -1.4985167e-05 1 -2.6698365e-06 0
0.10431708 -0.21893923 -0.25531939 -3.4978453e-05 1 1.6700298e-05 0
0.11672018 -0.21893923 -0.25479585 -4.5611573e-06 1 3.3389173e-05 0
0.12468453 -0.21893923 -0.25513053 -3.3999506e-05 1 1.7327121e-06 0
0.1312248 -0.21893921 -0.25175899 -1.8154797e-05 1 5.1342977e-05 0
0.14479207 -0.21893924 -0.25641418 -2.2000439e-05 1 4.9424405e-05 0
0.15504779 -0.21893923 -0.25493762 -1.4500411e-05 1 6.1414037e-05 0
0.16578431 -0.21893923 -0.25610241 -3.376411e-05 1 7.5402168e-05 0
0.172906 -0.21893923 -0.25260136 -4.2236254e-05 1 5.2395641e-05 0
0.18355091 -0.21893923 -0.25612772 -5.3904972e-05 1 6.2677733e-05 0
0.19622082 -0.21893923 -0.25331235 -3.6469755e-05 1 2.8971619e-05 0
0.20501995 -0.21893921 -0.25688589 -0.14839406 0.98889756 -0.0078017046 0.018709358
0.215947 -0.21893921 -0.25502834 -0.41433218 0.90872043 -0.050556004 0.058671139
0.22700922 -0.21719824 -0.25564581 -0.68006587 0.73251504 -0.030528771 0.065578215
-0.22981507 -0.20366752 -0.25460744 0.92575145 0.37684295 -0.031202035 0.066300318
0.22981507 -0.20441629 -0.25448766 -0.92764503 0.37345186 -0.0029125242 0.061723284
-0.22981505 -0.19542406 -0.25538668 0.99244809 0.12230226 0.0094335275 0.018216511
0.22981507 -0.19563891 -0.25510943 -0.98201388 0.18745585 -0.022564255 0.030751912
-0.22981507 -0.184706 -0.25486252 1 -4.0531653e-05 -5.1870837e-05 5.1690658e-05
-0.22981507 -0.17483768 -0.25412986 1 -2.6422316e-05 -9.7812888e-05 4.1603802e-05
0.22981505 -0.17525081 -0.25602958 -1 -2.3700353e-05 -6.9204754e-05 3.1042302e-05
-0.22981507 -0.16634257 -0.25503391 1 -5.7118803e-05 -0.00013624197 4.3228196e-05
0.22981507 -0.16612084 -0.25555667 -1 -4.3269443e-05 -5.7458885e-05 2.6386497e-05
-0.22981507 -0.15299 -0.25091058 1 -4.5178975e-05 -8.8002555e-05 4.0819607e-05
0.22981507 -0.15456587 -0.25763446 -1 -5.6452489e-05 -3.1188392e-05 4.1122668e-05
-0.22981507 -0.14626707 -0.25687337 1 -1.6246175e-05 7.9196531e-07 3.3164855e-05
0.22981507 -0.1460017 -0.25766742 -1 -7.5066484e-05 -6.7440851e-05 4.2357115e-05
0.22981507 -0.13509995 -0.25527707 -1 -3.328624e-05 -5.1154107e-05 3.4043416e-05
-0.22981507 -0.12557757 -0.25706387 1 -2.8625698e-05 -6.9345413e-05 4.1075629e-05
0.22981504 -0.12447535 -0.25407776 -1 -1.0075754e-05 -5.1525432e-05 3.6961515e-05
-0.22981507 -0.11217819 -0.25853729 1 -2.1777094e-05 -4.9353315e-05 4.0046489e-05
0.22981507 -0.11165369 -0.25035411 -1 -2.4816589e-05 -3.3844706e-05 3.3692675e-05
-0.22981507 -0.10419109 -0.25289443 1 -2.8968165e-05 -3.2368476e-05 4.2353025e-05
0.22981507 -0.10514469 -0.25667307 -1 -3.2173316e-06 -5.3637443e-05 4.1469706e-05
-0.22981507 -0.094479047 -0.25544408 1 -2.6202437e-05 -4.5941084e-05 3.4498495e-05
0.22981507 -0.094458617 -0.25657156 -1 -3.0876225e-05 -4.542723e-05 3.3933124e-05
-0.22981507 -0.084304713 -0.25435612 1 -1.3308012e-05 -3.438949e-05 3.1903845e-05
0.22981507 -0.085113995 -0.2545619 -1 -1.8865737e-06 -2.0981883e-05 4.5038323e-05
-0.22981507 -0.074049197 -0.25787181 1 -4.6790769e-06 -6.2888954e-05 4.0870364e-05
0.22981507 -0.072848476 -0.25576645 -1 -2.160001e-05 -0.0001043907 4.6723864e-05
-0.22981507 -0.063268185 -0.25614205 1 -9.3411454e-06 -7.3048752e-05 3.1947366e-05
0.22981507 -0.062903628 -0.25315273 -1 -2.5469999e-05 -0.00010523017 4.1097108e-05
-0.22981505 -0.05588308 -0.25409269 1 -9.3672488e-06 -6.6748311e-05 3.0636234e-05
0.22981507 -0.059246756 -0.25782895 -1 -2.2321869e-05 -3.5449753e-05 4.2802036e-05
-0.22981507 -0.046812631 -0.25938177 1 -5.0885797e-06 -8.1458151e-05 3.1702737e-05
0.22981507 -0.048056729 -0.25723946 -1 -1.4078705e-05 -7.2435731e-05 4.1797746e-05
-0.22981507 -0.034217268 -0.25710011 1 -1.860832e-06 -5.2564705e-05 4.2885895e-05
0.22981507 -0.033913512 -0.25089714 -1 6.4080896e-06 -7.1706425e-05 3.4597557e-05
-0.22981507 -0.02361118 -0.25496829 1 -1.1155847e-06 -6.5431886e-05 3.8673654e-05
0.22981507 -0.023234434 -0.25323758 -1 8.7852277e-06 -8.1901686e-05 4.0764648e-05
0.22981507 -0.014981151 -0.25270388 -1 -1.4790221e-05 -8.068583e-05 4.2751872e-05
-0.22981507 -0.0023943763 -0.25594392 1 -5.2122477e-06 -6.9795569e-05 4.4909109e-05
0.22981505 -0.0042286715 -0.25825766 -1 -1.4118978e-05 -8.0503494e-05 3.2836579e-05
-0.22981507 0.0044287629 -0.25939268 1 -9.4431709e-07 -6.2710948e-05 4.0514118e-05
0.22981507 0.0059236973 -0.2529957 -1 -1.289392e-06 -2.8665419e-05 3.0541101e-05
-0.22981507 0.014998625 -0.25846595 1 -4.6804294e-06 -5.1441551e-05 3.7137037e-05
0.22981507 0.010934414 -0.25316158 -1 1.4511475e-06 -1.590194e-05 3.457594e-05
-0.22981505 0.027033608 -0.25525147 1 3.9675397e-06 -4.7569651e-05 3.2190543e-05
0.22981507 0.023912054 -0.25687918 -1 3.7212353e-06 -1.8377996e-05 3.3701141e-05
-0.22981507 0.036523268 -0.25346047 1 1.1239027e-05 -2.9428438e-05 3.1645148e-05
0.22981507 0.03477525 -0.25463051 -1 1.1066949e-05 -7.7955287e-05 4.2627216e-05
-0.22981507 0.04917644 -0.25045097 1 2.1702899e-05 -1.9887948e-05 3.3939126e-05
0.22981507 0.044931814 -0.25179318 -1 1.499478e-05 -1.382123e-05 3.9339608e-05
-0.22981507 0.057490952 -0.25665742 1 1.6940943e-05 -6.1461018e-05 3.7100388e-05
-0.22981507 0.064309359 -0.25416476 1 1.090664e-05 -4.0074134e-05 3.514659e-05
0.22981507 0.067675121 -0.25529873 -1 9.9589206e-06 -3.4840887e-05 4.6114623e-05
-0.22981507 0.076857008 -0.25631228 1 1.1062918e-06 -5.7514397e-05 3.2227945e-05
0.22981507 0.076244049 -0.25346589 -1 7.2418247e-06 -3.3285134e-05 3.2081294e-05
-0.22981507 0.085730836 -0.25629485 1 5.8756837e-06 -5.853831e-05 3.2446373e-05
0.22981507 0.082552813 -0.25387713 -1 2.7680413e-05 -7.3854288e-05 4.3796961e-05
-0.22981507 0.096317589 -0.2549001 1 2.4013225e-05 1.6642591e-05 3.8595288e-05
0.22981507 0.096522532 -0.25830814 -1 -2.5349157e-06 -0.00013083035 4.0713297e-05
0.22981507 0.10526308 -0.25506854 -1 3.7432324e-05 -1.4509868e-05 4.2419291e-05
-0.22981507 0.11302144 -0.2536163 1 7.9957472e-06 -6.9174203e-05 3.2183951e-05
0.22981507 0.11339933 -0.2526865 -1 1.426777e-05 -6.6660112e-05 4.5802488e-05
-0.22981505 0.12439912 -0.25462747 1 2.8512153e-05 -8.7048487e-05 3.4325731e-05
0.22981507 0.12438766 -0.25049797 -1 2.5543737e-05 -6.7952526e-05 3.0783754e-05
-0.22981507 0.13853931 -0.25463384 1 5.417626e-05 -1.910611e-05 3.4069591e-05
-0.22981507 0.14531356 -0.25440156 1 6.8859576e-05 -5.1329847e-05 4.065155e-05
-0.22981507 0.15505996 -0.25537536 1 5.6517554e-05 1.5494792e-05 4.0763665e-05
0.22981507 0.15262637 -0.25469667 -1 3.7553138e-05 -8.2848986e-05 3.0242212e-05
-0.22981507 0.1661405 -0.25276658 1 1.5722125e-06 1.9550313e-05 3.3897144e-05
0.22981507 0.16434462 -0.2516644 -1 4.394323e-05 -2.599069e-05 3.2373697e-05
-0.22981507 0.17611752 -0.25510687 1 6.8231719e-05 -1.0455864e-05 4.2789648e-05
0.22981505 0.17594905 -0.25457254 -1 4.9301503e-05 -3.639637e-05 3.4932455e-05
-0.22981507 0.18339822 -0.25302568 1 4.0839663e-05 -3.0792638e-05 4.490573e-05
0.22981507 0.18527418 -0.25323841 -1 3.3320724e-05 -1.1708858e-05 3.2972486e-05
-0.22981507 0.19455329 -0.25526184 0.99609143 -0.087281547 -0.013559083 0.012315919
0.22981507 0.19778468 -0.25868338 -0.98128217 -0.19214328 0.012891594 0.031415921
-0.22981507 0.20324099 -0.25402695 0.97548431 -0.21651499 0.039390646 0.033641309
0.22981507 0.20389691 -0.25481284 -0.96846807 -0.24897763 0.008930672 0.039394651
-0.22821671 0.21691689 -0.25526062 0.81103325 -0.58426523 0.02931032 0.07835681
-0.19594747 0.21893924 -0.25668555 -1.6345097e-05 -1 -2.3941533e-07 0
-0.18624711 0.21893921 -0.25601006 -2.1734044e-05 -1 2.8870113e-06 0
-0.1742246 0.21893923 -0.25294697 -2.6247142e-06 -1 3.2762873e-05 0
-0.16671643 0.21893924 -0.25559288 5.0346069e-05 -1 4.3817512e-05 0
-0.15620416 0.21893923 -0.25579348 1.6428798e-05 -1 1.5558273e-05 0
-0.14454517 0.21893923 -0.25633442 4.3179057e-06 -1 4.0921186e-05 0
-0.1329654 0.21893923 -0.25495878 3.3572138e-05 -1 7.8467827e-05 0
-0.1265935 0.21893921 -0.25583726 2.5300909e-05 -1 5.970589e-05 0
-0.11361813 0.21893923 -0.25553384 1.6415599e-05 -1 4.3055035e-05 0
-0.10361205 0.21893923 -0.25200129 -3.9677525e-06 -1 4.7950383e-05 0
-0.095169723 0.21893923 -0.2541014 1.6973689e-05 -1 5.3568256e-05 0
-0.086323619 0.21893921 -0.25572425 1.6257987e-05 -1 6.2665218e-05 0
-0.072446577 0.21893923 -0.25576133 4.1034086e-06 -1 5.987948e-05 0
-0.066956788 0.21893923 -0.25447434 -2.7880847e-06 -1 5.7730969e-05 0
-0.052675962 0.21893924 -0.2573809 5.0568829e-06 -1 2.3099477e-05 0
-0.040989861 0.21893924 -0.2565586 7.6860479e-06 -1 2.0940375e-05 0
-0.034125149 0.21893923 -0.2564638 1.1678861e-05 -1 3.4188452e-05 0
-0.023291428 0.21893924 -0.25705737 -5.2928231e-06 -1 4.0694293e-05 0
-0.016632672 0.21893923 -0.25140667 9.3131966e-06 -1 -3.762919e-05 0
-0.0039561926 0.21893923 -0.25369304 -4.2728965e-07 -1 -1.3493422e-08 0
0.0057854 0.21893923 -0.25296009 3.327194e-06 -1 7.7777309e-05 0
0.015826352 0.21893921 -0.25459874 2.2383661e-06 -1 6.1880208e-05 0
0.022503506 0.21893921 -0.25250563 -6.9900175e-06 -1 5.7780027e-05 0
0.033459254 0.21893923 -0.25479832 -3.01763e-06 -1 7.9842684e-05 0
0.046182349 0.21893921 -0.25038949 -1.00968e-05 -1 1.7709355e-05 0
0.054131623 0.21893921 -0.25163752 -1.9037602e-06 -1 6.6850713e-05 0
0.064071827 0.21893924 -0.25599787 3.243436e-07 -1 6.3307176e-05 0
0.074599653 0.21893921 -0.25523323 -5.2785463e-06 -1 4.8401551e-05 0
0.087695204 0.21893923 -0.25509998 -1.3232824e-05 -1 3.1538504e-05 0
0.094019555 0.21893923 -0.25711551 -5.5261053e-06 -1 4.8549322e-05 0
0.11452709 0.21893924 -0.25461283 -1.1811256e-05 -1 9.6023054e-05 0
0.12497617 0.21893924 -0.25398895 -2.9647877e-05 -1 8.2703751e-05 0
0.13733809 0.21893923 -0.25681645 -1.7377075e-05 -1 5.8661622e-05 0
0.14284489 0.21893923 -0.25730667 -1.5357609e-05 -1 1.9649327e-05 0
0.15549251 0.21893923 -0.25533208 -3.4502526e-05 -1 -1.8031838e-05 0
0.16509914 0.21893923 -0.25468138 -4.2825253e-05 -1 9.1836584e-05 0
0.17867352 0.21893921 -0.25411865 -3.4966255e-05 -1 4.1603002e-05 0
0.18397942 0.21893923 -0.25554338 -2.446802e-05 -1 2.2135817e-05 0
0.19415669 0.21893923 -0.25457096 -3.4461547e-05 -1 4.8966522e-05 0
0.21672285 0.21893923 -0.25228071 -0.4903565 -0.87151909 -0.0022270358 0.07246846
0.22981507 0.21256939 -0.25348961 -0.91787672 -0.39645791 0.017981566 0.052122433
-0.22626729 -0.2175196 -0.24378324 0.6498962 0.75818461 0.052831434 0.061793473
-0.21270661 -0.21893923 -0.24669828 0.26521727 0.96418852 0.0005720295 0.045906954
-0.20848982 -0.21893924 -0.24144316 0.16345762 0.98626977 0.023526603 0.02438551
-0.19341686 -0.21893924 -0.24520577 2.6130638e-05 1 -1.4315797e-05 0
-0.18341511 -0.21893924 -0.24476981 2.3857185e-05 1 3.3887674e-05 0
-0.16464479 -0.21893923 -0.24555837 2.9994293e-05 1 1.3985868e-05 0
-0.15373924 -0.21893923 -0.24176434 2.9874032e-05 1 3.2225991e-05 0
-0.1367287 -0.21893923 -0.24645448 1.7309249e-05 1 5.446728e-05 0
-0.12724748 -0.21893921 -0.24451375 5.9410522e-06 1 3.4955494e-05 0
-0.1124092 -0.21893924 -0.2461829 2.6245349e-05 1 2.9008916e-05 0
-0.10372224 -0.21893921 -0.24415509 2.1663684e-05 1 4.3728545e-05 0
-0.095133781 -0.21893924 -0.24885328 2.5711293e-05 1 6.7341687e-05 0
-0.084322192 -0.21893923 -0.24638546 8.5242418e-06 1 0.00011494019 0
-0.078165874 -0.21893923 -0.24518096 7.0596748e-06 1 -1.7243523e-05 0
-0.065143272 -0.21893923 -0.24529031 1.4604675e-05 1 3.3756252e-05 0
-0.056710761 -0.21893924 -0.24556616 2.9701439e-06 1 1.493643e-05 0
-0.046980675 -0.21893923 -0.24470977 8.8904808e-06 1 1.6755861e-05 0
-0.035417531 -0.21893923 -0.24551646 1.6148937e-05 1 9.2738112e-05 0
-0.025460115 -0.21893923 -0.24356799 4.254849e-06 1 3.2748078e-05 0
-0.016546668 -0.21893924 -0.24560721 4.5181114e-06 1 5.8610167e-05 0
-0.0031679482 -0.21893923 -0.24295589 -7.8687126e-06 1 4.4851695e-05 0
0.0057807863 -0.21893923 -0.24487293 1.8143236e-06 1 7.7742778e-05 0
0.012324095 -0.21893921 -0.2421909 -1.8611464e-06 1 6.6349101e-05 0
0.021597404 -0.21893924 -0.24940094 1.2406653e-06 1 1.5990927e-05 0
0.035156704 -0.21893923 -0.24437085 -1.7760936e-05 1 1.3003169e-05 0
0.04589561 -0.21893923 -0.24229693 -3.2533851e-06 1 1.5227811e-05 0
0.055552356 -0.21893921 -0.24773541 -1.3962437e-05 1 4.2818425e-07 0
0.071952574 -0.21893924 -0.24367984 -2.2717119e-05 1 5.9477592e-05 0
0.085645482 -0.21893923 -0.24598095 -3.4731147e-05 1 2.8086008e-05 0
0.1024676 -0.21893923 -0.2436544 -1.506012e-05 1 4.9089624e-05 0
0.1144929 -0.21893923 -0.24690235 9.600969e-06 1 1.8754285e-05 0
0.12417058 -0.21893923 -0.24562663 -2.8216444e-05 1 1.5771104e-05 0
0.13890083 -0.21893923 -0.24514532 -1.6823467e-05 1 7.4897303e-05 0
0.14735049 -0.21893923 -0.24590318 -1.5795586e-05 1 1.8219489e-05 0
0.15522535 -0.21893923 -0.24538922 -3.3948066e-07 1 7.1512193e-05 0
0.16563188 -0.21893923 -0.24270537 -3.0157318e-05 1 0.00010903209 0
0.17363217 -0.21893921 -0.24576429 -4.3510969e-05 1 9.4723058e-05 0
0.18408725 -0.21893923 -0.24085681 -4.8359772e-05 1 7.3584801e-05 0
0.19731265 -0.21893923 -0.24445973 -1.6967013e-05 1 3.0766103e-05 0
0.20580438 -0.21893921 -0.24193336 -0.095057011 0.99546117 -0.0045989235 0.0097388439
0.21348251 -0.21893923 -0.24570335 -0.37304637 0.92737544 0.028480433 0.062410407
0.22981507 -0.21345113 -0.24663877 -0.75336719 0.65327108 -0.075331144 0.066849418
0.22981507 -0.2008262 -0.24598742 -0.97809011 0.20813105 -0.0045992183 0.031791221
-0.22981507 -0.19417077 -0.24614099 0.99942786 0.033821248 0.00032214305 0.0010469883
0.22981507 -0.19507913 -0.24445921 -0.9807409 0.19506587 0.0098261051 0.033215754
-0.22981507 -0.18552537 -0.24630648 1 -2.6314761e-05 -2.6398282e-05 4.3867989e-05
0.22981507 -0.18064824 -0.24182098 -1 -3.7266134e-05 -8.7860019e-05 3.9457402e-05
-0.22981507 -0.17279108 -0.24365598 1 -1.142218e-05 -5.6639863e-05 3.6325466e-05
0.22981507 -0.17966709 -0.24579662 -1 -5.1247593e-05 -4.490971e-05 3.5438694e-05
-0.22981507 -0.16638757 -0.24295983 1 -3.3164895e-05 -2.9818526e-05 4.182446e-05
0.22981507 -0.16402869 -0.24672405 -1 -1.4845437e-05 3.5484882e-05 3.0368195e-05
-0.22981507 -0.15155193 -0.2499387 1 -2.7442267e-05 -8.9341156e-05 3.2701369e-05
0.22981505 -0.15323232 -0.24511804 -1 -1.6812282e-05 -5.6885863e-05 3.1967586e-05
-0.22981505 -0.14541054 -0.24590746 1 -4.7755857e-05 -4.4533183e-05 3.2387583e-05
0.22981504 -0.14624555 -0.24470899 -1 -6.3846863e-05 -5.8181358e-05 3.6644367e-05
-0.22981507 -0.1346098 -0.24552976 1 -3.9144506e-05 -6.0245755e-05 3.5327525e-05
0.22981507 -0.1319699 -0.24342746 -1 -2.301028e-05 -4.9972048e-05 4.0342911e-05
-0.22981505 -0.12782913 -0.24306783 1 -3.237278e-05 -3.2960263e-05 3.2680557e-05
0.22981507 -0.12503929 -0.24634857 -1 -1.9873083e-05 -8.4995489e-05 3.5089899e-05
-0.22981507 -0.1182445 -0.24642372 1 -2.4673302e-05 -3.9970429e-05 3.2224831e-05
0.22981504 -0.11476038 -0.24273661 -1 8.6675072e-06 -1.550454e-05 3.3976845e-05
-0.22981507 -0.10314521 -0.24245179 1 -8.7900526e-06 -1.558943e-05 3.3444485e-05
0.22981507 -0.10524616 -0.24353567 -1 -2.464403e-05 -9.7748634e-05 3.5324167e-05
-0.22981507 -0.093265131 -0.24379003 1 -7.5988951e-06 3.034031e-05 3.2180073e-05
0.22981504 -0.094808534 -0.2443089 -1 -3.0906615e-06 -3.2450909e-05 3.6692651e-05
0.22981507 -0.0836813 -0.2449978 -1 -2.2676728e-05 -4.5674333e-05 3.9623956e-05
-0.22981507 -0.077778995 -0.24580698 1 -1.8040999e-05 -6.0532479e-05 3.8758189e-05
0.22981507 -0.073550284 -0.24065965 -1 -2.0158139e-05 -1.5977281e-05 4.5250519e-05
-0.22981507 -0.066549167 -0.24187404 1 -1.4877871e-05 -3.1232015e-05 4.2615473e-05
0.22981507 -0.064007595 -0.24332911 -1 -1.8087336e-05 4.2132888e-07 4.6843921e-05
-0.22981507 -0.053904947 -0.24324493 1 -2.7803551e-05 -9.2384056e-05 4.2584314e-05
0.22981507 -0.053288996 -0.2474573 -1 -1.78113e-05 -4.7020971e-05 4.2067331e-05
-0.22981507 -0.045256093 -0.24166144 1 -1.291975e-05 -8.6082386e-05 3.801861e-05
-0.22981507 -0.032987617 -0.2483158 1 -1.2870823e-05 -2.852997e-05 4.134246e-05
0.22981505 -0.033718169 -0.24794099 -1 1.8819152e-05 -8.7220425e-05 3.3279433e-05
-0.22981507 -0.025851186 -0.24259385 1 5.2356554e-06 -4.4022974e-05 3.8002221e-05
0.22981507 -0.02527982 -0.24311277 -1 -6.8016101e-07 -1.8141687e-05 3.2511962e-05
-0.22981507 -0.013267351 -0.24467084 1 -6.6014395e-06 -2.7888649e-05 3.33918e-05
0.22981507 -0.011671131 -0.24362476 -1 -3.5305845e-06 -3.9372218e-05 3.6206842e-05
-0.22981505 -0.0066298381 -0.2459586 1 -9.618775e-07 -3.1600703e-05 3.2536467e-05
0.22981507 -0.0056209438 -0.24324889 -1 -9.6435974e-07 -4.033398e-05 3.3661374e-05
-0.22981507 0.0031837113 -0.24546526 1 -3.87093e-06 -3.7128975e-05 3.6430654e-05
0.22981507 0.0029911771 -0.24925666 -1 -1.9645404e-06 -3.729944e-05 3.5451532e-05
-0.22981505 0.014295745 -0.24420698 1 5.0015728e-07 -6.8538655e-05 3.1147287e-05
0.22981507 0.014830342 -0.24881999 -1 2.1801277e-06 -4.9199716e-05 4.4345332e-05
-0.22981507 0.026707789 -0.24829203 1 1.4959784e-05 -5.8110971e-05 3.0644165e-05
0.22981507 0.022884091 -0.24335554 -1 7.8371613e-06 -1.8670326e-05 3.3885441e-05
-0.22981507 0.036049575 -0.24398971 1 3.5889504e-06 -4.9554681e-05 4.3628868e-05
0.22981507 0.03492349 -0.24640018 -1 5.0020358e-06 -5.1284813e-05 3.9362738e-05
-0.22981507 0.045301832 -0.24549691 1 2.1646678e-05 -3.1059953e-05 3.6270998e-05
0.22981507 0.049741328 -0.24369268 -1 6.81745e-06 -6.9992151e-05 4.2036732e-05
-0.22981507 0.054348059 -0.24101549 1 1.8521425e-05 -7.3270414e-05 3.8112576e-05
0.22981507 0.056188304 -0.2448394 -1 1.2747652e-05 -5.5132721e-05 3.1908596e-05
-0.22981505 0.063592151 -0.24731846 1 6.6819553e-06 -3.9374427e-05 3.4694534e-05
0.22981507 0.061197195 -0.24653453 -1 1.6050702e-05 3.1174584e-06 4.2400694e-05
-0.22981507 0.073137857 -0.24507344 1 1.3748725e-05 -8.6225496e-05 3.602264e-05
0.22981507 0.077696636 -0.2465156 -1 1.4299088e-05 -1.9283765e-05 3.4399029e-05
-0.22981507 0.089294799 -0.24071664 1 4.0976116e-05 -9.9657431e-05 3.2586282e-05
0.22981505 0.086071059 -0.24530725 -1 2.1056543e-05 -1.6686163e-05 3.3777564e-05
-0.22981507 0.097260743 -0.24275947 1 1.577767e-05 -5.3153024e-05 3.0548683e-05
0.22981507 0.097827546 -0.24689688 -1 1.234317e-05 -5.2089203e-05 3.5140994e-05
0.22981505 0.10557554 -0.24388066 -1 2.0890006e-05 -4.818054e-05 3.3371129e-05
-0.22981505 0.11425656 -0.24447146 1 2.0199834e-05 -6.8929054e-05 3.5471247e-05
-0.22981507 0.12332153 -0.24492742 1 2.2175891e-05 -1.7026632e-05 3.3629043e-05
0.22981507 0.12262183 -0.24230994 -1 3.7825754e-05 -8.7456589e-05 4.2881034e-05
-0.22981507 0.13855149 -0.2432017 1 4.7454618e-05 -6.8594542e-05 3.0836829e-05
0.22981507 0.1303964 -0.24668209 -1 3.3188371e-05 -5.6679262e-05 3.3327429e-05
-0.22981507 0.14656566 -0.24767381 1 5.5305889e-05 -4.4608173e-06 3.4003941e-05
0.22981507 0.14664863 -0.24094567 -1 1.6727248e-05 -3.2280095e-05 3.3680746e-05
-0.22981507 0.15151304 -0.24734664 1 3.3364249e-05 -6.4993839e-07 3.3464585e-05
0.22981507 0.15340555 -0.24433386 -1 2.191083e-06 -5.3940959e-05 4.1973472e-05
-0.22981504 0.16439614 -0.24470662 1 6.7211709e-05 8.268863e-06 3.3171887e-05
0.22981505 0.16410235 -0.2452019 -1 3.922806e-05 1.8151739e-05 3.7443646e-05
-0.22981507 0.17498176 -0.24684982 1 5.1265499e-05 3.1350115e-07 3.8854898e-05
0.22981507 0.17658377 -0.24373817 -1 3.0584153e-05 -6.4618587e-05 3.3508168e-05
-0.22981507 0.18372892 -0.24454825 1 8.0440033e-05 -5.6947697e-06 4.1921408e-05
-0.22981507 0.194103 -0.24726237 0.9975099 -0.070003241 -0.008574036 0.013121207
0.22981507 0.19441921 -0.24558724 -0.98463178 -0.17139833 -0.033511642 0.026212839
-0.22981507 0.20565888 -0.2466373 0.97474974 -0.21831958 -0.046898153 0.029585974
0.22981508 0.20738685 -0.24870189 -0.95545614 -0.29432762 0.021790352 0.039967444
-0.22981507 0.21659195 -0.24635246 0.89168906 -0.45230901 0.017526465 0.04322869
-0.21535942 0.21893923 -0.2465003 0.49631026 -0.868132 0.0047975713 0.076277517
-0.18020709 0.21893924 -0.24748211 4.3043663e-05 -1 -2.0119798e-05 0
-0.17399409 0.21893924 -0.24758476 1.7286453e-05 -1 3.181096e-05 0
-0.16359591 0.21893923 -0.24482435 4.4069351e-05 -1 -1.7542665e-05 0
-0.15383592 0.21893923 -0.24420044 4.7710397e-05 -1 7.8141733e-05 0
-0.14749275 0.21893923 -0.24158925 2.7664384e-05 -1 5.8359921e-05 0
-0.13341893 0.21893924 -0.2448789 -1.3968842e-07 -1 -1.7956283e-05 0
-0.12339171 0.21893923 -0.24601392 3.5490124e-05 -1 -1.1961837e-05 0
-0.11182775 0.21893921 -0.24851888 4.2032252e-06 -1 6.0619546e-05 0
-0.095273159 0.21893924 -0.24398763 7.1343811e-06 -1 6.885051e-05 0
-0.08411634 0.21893923 -0.24337864 3.0001536e-05 -1 3.7534726e-05 0
-0.074524738 0.21893923 -0.24745373 -1.0821943e-05 -1 0.00010903383 0
-0.066113114 0.21893923 -0.24761653 1.2628595e-05 -1 5.6330366e-05 0
-0.057470821 0.21893921 -0.24546212 1.5981281e-05 -1 4.2032192e-05 0
-0.046445042 0.21893923 -0.2449965 1.3710983e-05 -1 2.1197884e-05 0
-0.036000296 0.21893924 -0.24171276 8.6614309e-06 -1 4.5706627e-05 0
-0.024713652 0.21893923 -0.2445209 2.3341497e-06 -1 1.0127489e-07 0
-0.01056169 0.21893923 -0.24037024 2.0796415e-06 -1 6.1718347e-05 0
-0.0047437977 0.21893924 -0.24569726 2.9281981e-07 -1 -3.7301824e-08 0
0.0069477856 0.21893921 -0.24955201 2.7014153e-06 -1 3.7493599e-05 0
0.014213622 0.21893921 -0.24519914 -2.0209275e-06 -1 2.1133128e-05 0
0.029068239 0.21893923 -0.24099156 -6.0610214e-06 -1 5.3637646e-05 0
0.037133977 0.21893924 -0.24443504 -9.3227428e-08 -1 -4.6187619e-05 0
0.04438987 0.21893921 -0.24550843 -2.7001349e-06 -1 4.555413e-05 0
0.05554685 0.21893924 -0.24283299 -2.3914376e-05 -1 5.9263984e-05 0
0.068680182 0.21893923 -0.24691278 -3.2974597e-06 -1 6.080425e-05 0
0.075990587 0.21893923 -0.24620362 -3.2444688e-05 -1 8.0681995e-05 0
0.084761493 0.21893923 -0.24948929 -2.5910969e-05 -1 4.8049831e-05 0
0.091780514 0.21893921 -0.2446495 -1.8257986e-05 -1 2.0671514e-05 0
0.10307703 0.21893923 -0.24408369 -5.218757e-06 -1 1.6289503e-05 0
0.11261147 0.21893921 -0.24309312 -2.1626251e-05 -1 8.8839566e-05 0
0.12627962 0.21893924 -0.24488214 -2.8777076e-05 -1 3.8748029e-05 0
0.13220631 0.21893923 -0.24589837 2.1104162e-05 -1 5.4696182e-05 0
0.14788477 0.21893924 -0.24755006 -3.7384765e-05 -1 4.5684286e-05 0
0.15386495 0.21893923 -0.24853796 -3.4734712e-05 -1 4.2552998e-05 0
0.16646788 0.21893921 -0.24541861 -3.2265554e-05 -1 1.0029303e-05 0
0.1767333 0.21893923 -0.24233715 -3.8724778e-05 -1 6.7365967e-05 0
0.18450037 0.21893923 -0.24526632 -0.00013736787 -1 6.6516703e-05 0
0.21669933 0.21893923 -0.24506223 -0.49286151 -0.86831313 0.055855602 0.075630851
0.2283418 0.21740176 -0.24497652 -0.77082765 -0.63296318 -0.071988344 0.061460357
-0.22804077 -0.21656685 -0.23509264 0.69800216 0.71373695 0.058074336 0.062507331
-0.21231647 -0.21893923 -0.2357005 0.30003962 0.95391512 0.0047087641 0.048787855
-0.20811494 -0.21893923 -0.23624213 0.14414874 0.98895085 -0.034602541 0.017230086
-0.19434217 -0.21893924 -0.23482552 1.952875e-05 1 7.6530768e-07 0
-0.16970956 -0.21893923 -0.23886855 3.6593141e-05 1 -1.5081106e-05 0
-0.15660937 -0.21893921 -0.2335155 3.5557106e-05 1 1.8749477e-06 0
-0.14441028 -0.21893923 -0.2394321 1.9487583e-05 1 5.077622e-05 0
-0.13543464 -0.21893923 -0.2357087 3.1536307e-05 1 5.0077808e-05 0
-0.12134619 -0.21893923 -0.23820277 9.9318813e-06 1 -3.3249693e-05 0
-0.11881544 -0.21893923 -0.23206915 1.6992164e-05 1 6.5014479e-05 0
-0.10335403 -0.21893923 -0.2352978 1.375057e-05 1 3.3305052e-05 0
-0.090128697 -0.21893921 -0.23610219 2.1106884e-05 1 4.5906079e-05 0
-0.08474157 -0.21893923 -0.23644072 -4.3164168e-06 1 6.9862836e-05 0
-0.056010291 -0.21893923 -0.23584364 6.504587e-06 1 6.7735316e-05 0
-0.046027344 -0.21893923 -0.23511326 6.5336853e-06 1 1.6300502e-05 0
-0.036044538 -0.21893923 -0.23278861 9.6500316e-06 1 7.3996569e-05 0
-0.028291674 -0.21893923 -0.2334121 8.5963529e-06 1 4.5179975e-05 0
-0.016187893 -0.21893924 -0.23671551 2.9471328e-06 1 1.9796636e-05 0
-0.0024350248 -0.21893923 -0.23515499 -6.4217643e-06 1 0.00012243971 0
0.0039852993 -0.21893923 -0.23527724 -1.2575838e-05 1 0.00010525227 0
0.016097199 -0.21893923 -0.23585679 -0 1 -0 0
0.024631567 -0.21893923 -0.23484206 -1.0033895e-05 1 4.0644161e-05 0
0.031258471 -0.21893923 -0.23676513 -7.5775301e-06 1 5.4832781e-05 0
0.046739597 -0.21893923 -0.23601656 -3.6379643e-07 1 6.59457e-05 0
0.05505611 -0.21893923 -0.23541823 -2.6466745e-05 1 4.1230047e-05 0
0.064708099 -0.21893923 -0.23567697 -1.7244198e-05 1 3.3598328e-05 0
0.076132506 -0.21893924 -0.23770779 4.4716444e-06 1 7.3534036e-05 0
0.083293885 -0.21893924 -0.23637088 -1.1549148e-05 1 9.8308439e-05 0
0.09130837 -0.21893924 -0.23963639 -1.8091767e-05 1 6.3699059e-05 0
0.10635219 -0.21893923 -0.23215052 -5.2549376e-06 1 4.6237627e-05 0
0.11426388 -0.21893924 -0.23609707 -1.3059783e-05 1 6.0578037e-05 0
0.12719375 -0.21893923 -0.23645611 -3.1917334e-05 1 4.8628339e-05 0
0.13528101 -0.21893924 -0.23018265 -2.7462334e-05 1 5.7239824e-05 0
0.14539377 -0.21893923 -0.23429978 -7.2427545e-05 1 5.9703794e-05 0
0.15908799 -0.21893921 -0.23656134 -3.9555398e-05 1 4.4830242e-05 0
0.16688192 -0.21893921 -0.23374635 -4.1924934e-05 1 8.678477e-05 0
0.17583995 -0.21893923 -0.23254979 -8.4608757e-05 1 5.0860137e-05 0
0.18935092 -0.21893924 -0.23169887 3.6380329e-06 1 4.6558656e-05 0
0.19556434 -0.21893923 -0.2365406 -7.0254398e-05 1 3.0827276e-05 0
0.20428626 -0.21893923 -0.2329305 -0.085113488 0.99631506 0.010581216 0.010869718
0.21605396 -0.21893923 -0.23533878 -0.39790708 0.91670054 0.036468368 0.054450016
0.22710258 -0.21665607 -0.23112257 -0.75603783 0.65450561 0.0054226918 0.065217622
-0.22981507 -0.20607045 -0.23213762 0.86289638 0.50291497 0.049862012 0.069004864
0.22981507 -0.20650434 -0.23062938 -0.87960541 0.47478694 0.029523568 0.068739995
-0.22981507 -0.19749786 -0.2356557 0.9786073 0.20486879 0.018880682 0.038206276
0.22981505 -0.19691446 -0.23318243 -0.9902938 0.13898765 -0.00079559797 0.020124689
0.22981507 -0.18654114 -0.23523864 -1 -3.2564378e-05 -1.9659006e-05 3.4035696e-05
-0.22981507 -0.17605655 -0.23577188 1 -2.0148422e-05 -3.3648004e-05 4.2110583e-05
0.22981505 -0.17511931 -0.23574832 -1 -5.6676112e-05 -1.1942699e-05 3.6494475e-05
0.22981507 -0.16515784 -0.23485918 -1 -4.0253071e-05 -9.294568e-07 3.5660974e-05
-0.22981507 -0.15615128 -0.23581919 1 -5.4063014e-05 -4.4609249e-05 3.4386558e-05
0.22981505 -0.15782933 -0.23595214 -1 -3.1589807e-05 -1.6829323e-05 3.2790897e-05
-0.22981507 -0.14469685 -0.23364025 1 -2.999659e-05 -2.2623382e-05 3.4948574e-05
0.22981505 -0.14495929 -0.23348211 -1 -2.032571e-05 -1.6263615e-05 3.5612538e-05
-0.22981507 -0.138386 -0.23258054 1 0 0 3.5600831e-05
0.22981507 -0.13499594 -0.23858513 -1 -3.4290068e-05 -4.107333e-05 3.2332322e-05
-0.22981507 -0.12375294 -0.23534635 1 -4.712589e-05 -6.4958251e-05 3.3678534e-05
0.22981507 -0.1268218 -0.23577148 -1 -2.7016555e-05 -9.0462243e-05 3.4317749e-05
-0.22981507 -0.11858163 -0.23322289 1 -2.1592879e-05 -9.9047122e-07 2.9132389e-05
0.22981507 -0.11315748 -0.23164855 -1 2.9385083e-06 -5.4407305e-05 3.7600552e-05
-0.22981507 -0.10540752 -0.23460746 1 -9.583895e-06 -3.0646799e-05 3.37163e-05
0.22981505 -0.10551158 -0.23427027 -1 -1.405832e-06 -1.5634096e-05 3.0063302e-05
-0.22981507 -0.093315244 -0.23432994 1 -3.1011423e-05 -5.4845976e-05 3.539733e-05
0.22981507 -0.096363969 -0.23443341 -1 -3.2837819e-05 -6.1170991e-05 3.5894278e-05
-0.22981505 -0.085669421 -0.23409934 1 -7.254162e-06 -5.1501866e-05 3.5433561e-05
0.22981507 -0.082751721 -0.23574698 -1 -1.9005971e-05 9.9658713e-08 4.1974807e-05
-0.22981507 -0.079120472 -0.23443639 1 -1.5609125e-05 -8.8332301e-05 3.2973639e-05
0.22981507 -0.07629358 -0.23792545 -1 -1.2662303e-05 3.1285363e-05 4.221201e-05
-0.22981507 -0.063444704 -0.2311298 1 -2.0084723e-05 -3.5083223e-05 3.6757061e-05
0.22981507 -0.062319469 -0.23684117 -1 -2.2370089e-07 -5.9510028e-05 4.0020881e-05
-0.22981507 -0.056065783 -0.23332994 1 -3.2525604e-05 -3.6749247e-05 3.4543638e-05
0.22981507 -0.053045053 -0.23468944 -1 -3.9688971e-06 -7.162596e-05 3.1109998e-05
-0.22981505 -0.044380739 -0.23124808 1 -1.7003622e-05 -4.9666727e-05 3.5798239e-05
0.22981505 -0.042783048 -0.23762186 -1 1.3996616e-06 -6.7444584e-05 3.3361899e-05
-0.22981507 -0.034288816 -0.23635393 1 -6.0997409e-06 -3.9677449e-05 3.2281394e-05
0.22981507 -0.034578469 -0.23664397 -1 -1.2892689e-05 -5.9688926e-05 3.4859702e-05
-0.22981507 -0.02626125 -0.23359504 1 -5.8457495e-06 8.7654314e-07 3.6066045e-05
0.22981507 -0.021377241 -0.23533082 -1 3.4068303e-06 5.2225962e-05 3.625474e-05
-0.22981507 -0.013129992 -0.23320732 1 -3.1046366e-06 -6.3041269e-05 3.5832407e-05
0.22981507 -0.015429188 -0.23363946 -1 -3.7784551e-07 -1.6765998e-05 4.2481075e-05
-0.22981507 -0.0030631677 -0.231705 1 -1.7820666e-06 -1.655405e-05 3.8123333e-05
0.22981505 -0.0053720679 -0.23614523 -1 -2.2056909e-06 -2.094752e-05 3.7656693e-05
-0.22981507 0.0050513307 -0.23555151 1 -7.6375027e-06 -3.9455834e-05 4.1879128e-05
0.22981505 0.006867744 -0.23734425 -1 1.5856614e-06 -1.7938912e-05 3.5495967e-05
-0.22981507 0.015057139 -0.23303212 1 -3.9886459e-06 -4.4866454e-05 3.5614386e-05
0.22981505 0.015851161 -0.23594925 -1 3.3263307e-06 -2.0036936e-05 3.4058823e-05
0.22981507 0.027775887 -0.23571768 -1 5.6300782e-06 -2.1115986e-05 3.3237564e-05
-0.22981507 0.039889723 -0.23761609 1 -3.3062963e-06 -4.6187717e-05 3.1610973e-05
0.22981507 0.037190221 -0.2354055 -1 5.3283402e-06 1.9883881e-05 3.4089597e-05
-0.22981505 0.046827476 -0.23468982 1 3.49635e-06 -8.7702647e-05 3.5646965e-05
0.22981507 0.04436015 -0.23277964 -1 1.4375165e-05 -4.862982e-05 3.7587659e-05
-0.22981507 0.055602387 -0.23582157 1 9.7579232e-06 -3.5099274e-05 3.663258e-05
0.22981507 0.054403484 -0.2365897 -1 1.7410814e-05 5.4690809e-05 4.3251017e-05
-0.22981507 0.068560936 -0.23956905 1 1.5140214e-05 -9.5398143e-05 4.2352938e-05
0.22981505 0.06393826 -0.23509054 -1 2.0525596e-05 -1.3875335e-05 3.4697423e-05
-0.22981507 0.074376963 -0.23489946 1 1.344237e-05 -7.4127856e-05 3.0492765e-05
0.22981507 0.074781984 -0.23651052 -1 1.2291399e-05 -5.710822e-05 4.4229022e-05
-0.22981507 0.084265254 -0.23336849 1 1.374159e-05 -5.1074498e-05 3.1334825e-05
0.22981507 0.082595207 -0.23761781 -1 2.465467e-05 -2.7389223e-07 3.4136883e-05
-0.22981505 0.094219506 -0.23566933 1 1.5980846e-05 -5.9475311e-05 3.7679038e-05
0.22981505 0.095740207 -0.2355305 -1 3.5663019e-05 -1.5584945e-05 3.1570107e-05
-0.22981507 0.10743694 -0.23479047 1 2.5690486e-05 -4.7766927e-05 3.8493039e-05
0.22981507 0.10151519 -0.23188245 -1 2.7604641e-05 -9.4782416e-05 3.0045047e-05
-0.22981507 0.11291817 -0.23574862 1 3.7728812e-05 -5.8675334e-05 3.3567499e-05
0.22981507 0.11667526 -0.23323371 -1 3.1572785e-05 -4.2991913e-05 5.2400443e-05
-0.22981505 0.12515695 -0.23465474 1 3.5478599e-05 -8.564251e-05 3.2516164e-05
0.22981507 0.12735581 -0.23368312 -1 3.855569e-06 -4.953218e-05 4.4533765e-05
-0.22981507 0.13557874 -0.23292631 1 1.4159077e-05 -4.8547707e-05 3.4558703e-05
0.22981507 0.13509034 -0.23731565 -1 2.1246866e-05 -9.4963536e-05 4.1587438e-05
-0.22981507 0.14666884 -0.23411302 1 3.1764983e-05 -6.074398e-05 3.4887777e-05
0.22981507 0.14373034 -0.23611857 -1 1.6118694e-05 -4.9142036e-05 4.0050152e-05
-0.22981507 0.15936108 -0.2312707 1 3.2834203e-05 -1.6281167e-05 3.3041666e-05
0.22981507 0.15123759 -0.23179507 -1 4.8402151e-05 -3.8836373e-05 3.6260604e-05
-0.22981505 0.16604526 -0.23542693 1 1.9699366e-05 -9.9395129e-07 3.5125398e-05
0.22981504 0.16479483 -0.23605008 -1 3.5153029e-05 -1.7384626e-05 3.6661564e-05
-0.22981505 0.17511523 -0.23495881 1 4.5921679e-05 -1.6021439e-05 3.378894e-05
0.22981505 0.17476471 -0.23556188 -1 2.0785023e-05 -2.708618e-05 3.8255948e-05
-0.22981507 0.18250708 -0.23530318 1 3.6831298e-05 5.1527077e-06 3.6327056e-05
0.22981505 0.18596831 -0.23681171 -1 3.9394185e-05 -5.2364911e-05 3.4852539e-05
-0.22981507 0.19598204 -0.23962718 0.98663753 -0.16193122 -0.018020026 0.027170708
0.22981507 0.19475633 -0.23765409 -0.99232423 -0.12363207 -0.0027713554 0.023110965
-0.22981507 0.20383921 -0.23811144 0.98266411 -0.18537529 -0.0026679528 0.030515427
0.22981508 0.2085965 -0.23268537 -0.85986114 -0.51041067 -0.010937864 0.068765439
