# .PCD v0.7 - Point Cloud Data file format
VERSION 0.7
FIELDS x y z normal_x normal_y normal_z curvature
SIZE 4 4 4 4 4 4 4
TYPE F F F F F F F
COUNT 1 1 1 1 1 1 1
WIDTH 595
HEIGHT 1
VIEWPOINT 0 0 0 1 0 0 0
POINTS 595
DATA ascii
-0.11507908 0.23172164 0.25644949 3.1219004e-06 -0.61245924 -0.79050225 0
-0.10058221 0.23573044 0.25334406 -1.486839e-05 -0.61241782 -0.7905342 0
-0.089416869 0.23693542 0.25241065 7.1046352e-06 -0.61238128 -0.79056251 0
-0.071558319 0.23749596 0.25197646 -1.4410555e-05 -0.61240906 -0.79054111 0
-0.066728599 0.2354583 0.25355491 3.6954223e-06 -0.61240453 -0.79054457 0
-0.045576707 0.23123606 0.25682566 -1.8329984e-06 -0.6123901 -0.79055578 1.5806154e-05
-0.034024548 0.23426969 0.25447565 1.0590806e-05 -0.61241889 -0.79053348 0
-0.022884585 0.23138773 0.25670815 -7.6336039e-07 -0.61239386 -0.79055285 1.881438e-05
-0.017636374 0.23222584 0.25605893 -2.0426121e-06 -0.61244893 -0.79051012 8.2791621e-06
-0.0042223036 0.23399049 0.25469196 2.7760439e-06 -0.61241186 -0.79053891 0
0.0055727959 0.2338655 0.25478876 1.26879e-06 -0.61243081 -0.79052424 2.8826737e-05
0.015786469 0.23162076 0.25652766 -7.2973321e-06 -0.61237878 -0.79056454 0
0.02922377 0.23393896 0.25473186 -5.4378557e-07 -0.61245567 -0.79050493 0
0.036719762 0.23574251 0.25333473 -8.9801179e-06 -0.61238194 -0.79056203 2.8767605e-05
0.043977637 0.23599263 0.25314099 6.425922e-06 -0.61242247 -0.79053062 5.7910896e-05
0.05641536 0.23588462 0.25322464 -3.8074734e-06 -0.61240512 -0.79054415 1.468283e-05
0.065596938 0.23671436 0.25258189 -4.7103317e-06 -0.61240941 -0.79054075 8.5639712e-08
0.072115555 0.23230731 0.25599581 2.2423746e-05 -0.61247188 -0.79049242 0
0.094147295 0.23341502 0.25513774 -8.9801151e-06 -0.61240858 -0.79054141 0
0.10461668 0.23726873 0.25215244 1.4565562e-05 -0.6123991 -0.79054868 2.6959904e-05
0.11324367 0.2379801 0.2516014 -3.4367793e-05 -0.61247289 -0.79049158 0
0.12530032 0.23331392 0.25521603 2.7016467e-05 -0.61240226 -0.7905463 3.8816728e-05
0.13461132 0.23704158 0.25232843 -9.7045722e-06 -0.61240625 -0.7905432 1.0566985e-05
0.14988595 0.23511106 0.25382388 -5.6222212e-05 -0.61247063 -0.79049331 0
0.15224096 0.23518504 0.25376657 -2.0436652e-05 -0.6124298 -0.79052508 2.1803458e-05
0.18086949 0.2386319 0.25109649 1.7361774e-06 -0.61246258 -0.79049957 0
0.19650696 0.23881437 0.2509551 3.214127e-07 -0.61240965 -0.79054058 1.1772406e-05
0.20487046 0.23564357 0.25341138 2.3854243e-05 -0.61237741 -0.79056561 4.0925945e-05
0.21396935 0.23214976 0.25611785 -1.4876065e-05 -0.61242312 -0.79053009 0
0.22690877 0.23710287 0.25228095 -9.2204928e-06 -0.61240727 -0.79054242 1.7531573e-05
0.23274243 0.2376363 0.25186771 -3.6425219e-05 -0.61252373 -0.79045218 0
0.24396649 0.23801644 0.25157323 -1.1491143e-05 -0.61240721 -0.79054242 1.7843346e-05
0.26586473 0.2385959 0.25112435 -0.19198588 -0.63121432 -0.75147188 0.030832365
0.27746654 0.23677231 0.25253701 -0.4992249 -0.54370749 -0.67465299 0.075228401
0.28351837 0.23418552 0.25443792 -0.6690492 -0.47843939 -0.56874329 0.085551642
-0.27960348 -0.22047378 0.26516262 0.5230118 0.58186191 -0.62281233 0.085429542
-0.26467866 -0.22495517 0.26169112 0.24628413 0.65972608 -0.71000403 0.048822165
-0.24044746 -0.22517626 0.26151985 -3.8509421e-05 0.61243623 -0.79052001 1.5667605e-05
-0.23280419 -0.22303224 0.26318067 -5.165796e-05 0.61244208 -0.79051554 1.1024478e-05
-0.2233097 -0.22165972 0.26424393 -3.1447184e-05 0.61236686 -0.79057384 1.3343005e-05
-0.2150747 -0.22187792 0.26407492 -2.2208005e-05 0.61237252 -0.79056925 0
-0.20055453 -0.22418109 0.26229078 -2.7485106e-05 0.61239809 -0.79054952 5.9897916e-06
-0.19332761 -0.221724 0.26419413 -3.2142045e-06 0.61240011 -0.79054797 3.1342624e-05
-0.18521458 -0.22215569 0.26385972 -5.3072323e-05 0.61242074 -0.79053193 0
-0.17276451 -0.22696215 0.26013643 2.0662961e-05 0.61240196 -0.79054666 0
-0.16468048 -0.22204101 0.26394856 -2.0360078e-05 0.61243922 -0.79051775 0
-0.15217385 -0.22029552 0.26530072 3.6845133e-05 0.61243612 -0.79052013 0
-0.14242691 -0.2231047 0.26312459 4.9145205e-05 0.61236882 -0.79057217 7.7251298e-06
-0.1287093 -0.22411065 0.26234531 -4.0466796e-07 0.61240608 -0.79054332 4.6394625e-06
-0.10815972 -0.22462648 0.26194575 -1.9261222e-05 0.61240965 -0.79054058 5.496011e-05
-0.096360691 -0.22614348 0.26077059 0.00018294582 0.61291361 -0.79014993 0
-0.08623594 -0.22287817 0.26330006 -6.0868329e-06 0.61275506 -0.79027289 0
-0.063001841 -0.22463191 0.26194152 0.0012473627 0.61350507 -0.78968978 4.5862456e-05
-0.058163665 -0.22282979 0.26333752 0.00080458005 0.61332983 -0.78982645 3.0928713e-05
-0.044533566 -0.22240138 0.26366943 0.00068938511 0.61387008 -0.78940678 2.8827539e-05
-0.034798458 -0.22390498 0.26250461 -0.0002299973 0.61426258 -0.7891016 2.8064476e-05
-0.026577994 -0.22397876 0.26244748 -0.0010661402 0.61396241 -0.78933448 6.8801937e-06
-0.012950793 -0.22304197 0.26317316 0.00040938499 0.61511135 -0.78844011 0
-0.0048941472 -0.2240146 0.26241973 0.00062270492 0.61474597 -0.7887249 2.4061852e-05
0.0072750896 -0.2236245 0.2627219 4.0207819e-05 0.6129716 -0.79010493 2.6928008e-06
0.014892228 -0.22431338 0.26218826 -9.4309296e-05 0.61295468 -0.7901181 0
0.025469247 -0.22357303 0.26276177 -2.8334547e-05 0.61372715 -0.78951824 1.9240772e-05
0.032774813 -0.22388498 0.26252016 -0.00033400455 0.61499101 -0.78853399 2.981587e-05
0.041810285 -0.2233057 0.26296884 -0.00076778623 0.61455488 -0.78887373 0
0.055557869 -0.2249416 0.26170164 -6.6211123e-06 0.61239082 -0.79055518 5.8812598e-06
0.064467236 -0.22494219 0.26170117 3.2909968e-06 0.61239594 -0.79055119 0
0.077144109 -0.22319894 0.26305157 -1.4750332e-05 0.61242539 -0.79052842 0
0.095839329 -0.2222023 0.26382363 4.0023469e-06 0.6124388 -0.79051799 0
0.11131357 -0.22412181 0.26233667 9.2871978e-06 0.6123507 -0.79058629 1.4116246e-05
0.12177281 -0.22294077 0.2632516 2.2826483e-05 0.61239004 -0.79055578 3.9313596e-05
0.14429498 -0.22514945 0.26154059 3.770586e-05 0.61236364 -0.79057622 8.6231274e-05
0.18847722 -0.22402798 0.26240936 4.9216022e-05 0.61236691 -0.79057372 6.0105845e-05
0.19554149 -0.22372009 0.26264787 4.7653717e-05 0.61242449 -0.79052901 0
0.20028669 -0.22491348 0.2617234 2.7966587e-05 0.61235243 -0.79058486 4.0718085e-05
0.22524709 -0.22439888 0.26212204 -3.1940657e-05 0.61239421 -0.7905525 2.4112467e-05
0.2355181 -0.22394571 0.26247311 -7.6863353e-06 0.61243695 -0.79051954 1.9872803e-06
0.24296957 -0.22278883 0.26336929 7.7729688e-05 0.6123938 -0.79055285 7.8489087e-05
0.25199449 -0.22658439 0.26042905 0.00011379485 0.61243451 -0.79052132 4.835935e-05
-0.28215477 -0.21469046 0.26722953 0.74477661 0.41531813 -0.52232057 0.097664498
-0.26846838 -0.215121 0.26930913 0.24627513 0.61941272 -0.74543709 0.042990621
-0.25809529 -0.21744096 0.26751196 0.085751511 0.61672068 -0.78249747 0.010384403
-0.24885035 -0.21777685 0.26725179 0.00015941374 0.61245662 -0.79050422 0
-0.21340583 -0.21869865 0.26653773 2.0744412e-05 0.6125232 -0.7904526 0
-0.19520018 -0.21913216 0.26620191 4.2993604e-05 0.61236954 -0.79057169 0
-0.18733171 -0.21647127 0.26826316 -6.0534217e-05 0.61242247 -0.79053068 4.6200181e-05
-0.12500212 -0.21467261 0.26965648 2.6505311e-05 0.61239743 -0.79055005 0
-0.11392321 -0.21759576 0.2673921 2.3040373e-05 0.61237448 -0.79056787 3.4426983e-05
-0.099453799 -0.21914142 0.26619473 0.00029388777 0.6127755 -0.79025698 0
-0.080842577 -0.21589676 0.26870817 0.00059820869 0.61452818 -0.78889471 4.5132942e-06
-0.072423391 -0.21866897 0.26656073 0.00023177329 0.61522466 -0.78835183 2.8555078e-05
-0.066650182 -0.21658091 0.26817822 0.00086800632 0.61629122 -0.78751791 0
-0.059364229 -0.2152674 0.26919574 -0.00035500669 0.61524886 -0.78833282 4.3487848e-06
-0.048450112 -0.21750525 0.26746219 0.0011644287 0.61448526 -0.78892738 4.3401513e-05
-0.034227557 -0.21732923 0.26759851 -0.0005046358 0.61372972 -0.78951603 3.4322111e-05
-0.02078715 -0.21665064 0.26812422 -0.00017626074 0.61497277 -0.78854835 3.6345493e-05
-0.01698336 -0.21748395 0.2674787 0.00076558359 0.61437923 -0.78901052 8.4709696e-05
-0.0052899271 -0.21678971 0.26801646 0.00054248277 0.61549169 -0.78814328 6.7851463e-05
0.013219531 -0.2161064 0.26854578 0.00081300101 0.61637014 -0.78745615 4.7730264e-05
0.021765724 -0.21592724 0.2686846 0.00098238257 0.61534148 -0.7882601 1.3424124e-05
0.039585434 -0.2178551 0.2671912 -0.0013357925 0.61539447 -0.7882182 4.1210398e-05
0.057413816 -0.21942642 0.26597396 -0.00070425885 0.6129275 -0.79013878 2.0599309e-06
0.06013979 -0.2147959 0.26956099 -0.00082140998 0.61283189 -0.79021287 0
0.075011164 -0.2160466 0.26859212 -9.1425836e-06 0.61243552 -0.79052055 0
0.087073572 -0.21909538 0.2662304 2.1048597e-06 0.61247343 -0.79049116 0
0.091159277 -0.21717994 0.2677142 -6.8881141e-06 0.61241657 -0.79053521 2.5977784e-05
0.10902621 -0.21740261 0.26754171 1.4556699e-05 0.61243534 -0.79052067 0
0.13431886 -0.21586856 0.26873004 -5.8113901e-06 0.61242765 -0.79052669 0
0.14418396 -0.21725273 0.26765776 4.9691236e-05 0.61241484 -0.79053658 4.3283737e-05
0.15444535 -0.21683013 0.26798514 3.9036044e-05 0.61240852 -0.79054153 8.0277045e-05
0.17904064 -0.21578684 0.26879334 -8.7227068e-05 0.6123395 -0.79059494 2.7935914e-05
0.18973279 -0.21525843 0.26920271 9.0944442e-05 0.61244386 -0.79051405 1.793638e-06
0.19565792 -0.21619511 0.26847705 2.7228991e-05 0.61239076 -0.7905553 0
0.20685764 -0.21617429 0.26849324 -4.4233875e-06 0.6124236 -0.79052973 3.3318844e-05
0.22159921 -0.21675305 0.26804486 -4.5114706e-05 0.61245292 -0.79050708 0
0.23840809 -0.21572824 0.26883876 -0.00010901008 0.61246032 -0.79050124 0
0.25410566 -0.21619529 0.26847696 -0.022765825 0.60994595 -0.79211593 0.0013173752
0.27170855 -0.21816738 0.26694927 -0.35248467 0.61461139 -0.7056964 0.07002829
0.28351837 -0.21064459 0.26789492 -0.72755897 0.3296009 -0.60168201 0.10797549
-0.28351837 -0.20492876 0.26411986 0.87051308 0.30793124 -0.38390791 0.091402896
0.28351837 -0.20751025 0.26770937 -0.79406112 0.33380669 -0.50797635 0.10708093
0.28351837 -0.1966126 0.26433593 -0.927504 0.20442429 -0.31296501 0.085665256
-0.28351837 -0.18490127 0.26421797 0.98865443 0.071510643 -0.13209292 0.029268427
0.28351837 -0.18702132 0.26437008 -0.99239862 0.049945418 -0.11247367 0.027395815
-0.28351837 -0.17721045 0.26497537 0.99825209 0.018900739 -0.055995915 0.0083715701
0.28351837 -0.17427135 0.26177573 -1 -5.7456909e-05 1.0435859e-06 6.9081623e-05
-0.28351837 -0.1676275 0.26740685 1 2.4350309e-06 -3.0365263e-05 4.6709145e-05
0.28351837 -0.16127248 0.26401398 -1 -2.5754121e-05 0.00010989141 3.1337782e-05
-0.28351837 -0.15656354 0.26107797 1 1.2508372e-05 6.1792642e-05 4.8596907e-05
0.28351837 -0.15584107 0.26713839 -1 -4.0103856e-05 3.0054614e-05 3.105908e-05
-0.28351837 -0.14191525 0.2626479 1 -4.6904993e-06 2.9015631e-05 4.5148132e-05
0.28351837 -0.14368719 0.26220831 -1 -4.7619978e-05 7.1945193e-05 6.9841844e-05
-0.28351837 -0.13459189 0.26431972 1 -1.68323e-05 2.7431395e-05 4.8952992e-05
0.28351837 -0.13500963 0.2655448 -1 -3.0784402e-05 8.1505088e-05 6.8042427e-05
-0.28351837 -0.12391461 0.26255324 1 -1.4620799e-05 3.2938435e-05 4.9736816e-05
0.28351837 -0.12593521 0.26645249 -1 -4.044555e-05 7.6749435e-05 6.7529094e-05
0.28351837 -0.11572193 0.26293865 -1 -2.0803001e-05 -3.5051995e-05 4.791902e-05
-0.28351837 -0.10158277 0.26582974 1 -3.0490939e-06 9.3263494e-05 4.8251488e-05
0.28351837 -0.10123969 0.26875132 -1 8.1903181e-06 8.1291847e-07 4.6001944e-05
-0.28351837 -0.095230713 0.26185942 1 7.1131381e-06 2.9487701e-05 5.9687085e-05
0.28351837 -0.095674545 0.26299551 -1 -8.6078462e-06 2.8688324e-05 3.0794348e-05
-0.28351837 -0.084696181 0.26769423 1 -2.6804753e-05 2.6235988e-05 6.6329689e-05
0.28351837 -0.083473168 0.26398969 -1 -2.6534515e-05 2.9646033e-06 7.15489e-05
0.28351837 -0.074532688 0.26696199 -1 1.2867845e-05 6.8078654e-05 3.2414267e-05
-0.28351837 -0.069251753 0.26564863 1 -1.3574941e-05 3.110159e-05 6.7599991e-05
0.28351837 -0.067407608 0.26629874 -1 -3.6852889e-06 3.012108e-05 3.3321114e-05
-0.28351837 -0.057545744 0.26466909 1 -1.7119124e-05 4.44707e-05 5.2184951e-05
0.28351837 -0.059290785 0.26742014 -1 0 0 3.2850563e-05
-0.28351837 -0.041723419 0.26450026 1 1.070159e-05 4.2775406e-05 5.0925642e-05
0.28351837 -0.047408294 0.2641319 -1 1.4845983e-05 5.907951e-05 4.735437e-05
0.28351837 -0.033588868 0.26812243 -1 -1.6457692e-05 1.3964299e-06 4.7491656e-05
-0.28351837 -0.024656318 0.2629545 1 -4.5544161e-06 8.6833899e-07 7.5010576e-05
0.28351837 -0.025118986 0.26495054 -1 -4.6618238e-06 2.1878789e-07 6.7729423e-05
-0.28351837 -0.015137081 0.26278383 1 1.4322222e-06 4.5680266e-05 6.377462e-05
0.28351837 -0.01472229 0.26452324 -1 -2.2887316e-06 1.5993048e-07 4.6185622e-05
-0.28351837 -0.0032392638 0.26595259 1 -7.7841023e-06 3.4486082e-05 6.51804e-05
0.28351837 -0.0083340546 0.26627302 -1 -3.4357561e-06 -3.6023255e-05 6.7349501e-05
-0.28351837 0.0028569682 0.26488191 1 -7.7159092e-07 1.4976541e-07 7.0573551e-05
0.28351837 0.0147801 0.26523662 -1 -4.8335032e-06 7.1713497e-05 6.2140149e-05
-0.28351837 0.024498904 0.26219174 1 9.1764932e-06 3.3707911e-05 6.1696657e-05
0.28351837 0.029053247 0.2654748 -1 1.3221765e-05 3.0803207e-05 6.3241852e-05
-0.28351837 0.036764603 0.26592141 1 9.3017516e-06 3.6725651e-05 5.8125774e-05
-0.28351837 0.047666281 0.26536533 1 1.9471701e-05 -1.30313e-06 5.7184254e-05
0.28351837 0.047988988 0.26248884 -1 6.1041628e-06 1.021306e-06 6.5001797e-05
-0.28351837 0.052178953 0.26968527 1 3.5384487e-06 -3.3783777e-05 5.0607126e-05
0.28351837 0.055885252 0.26899275 -1 1.0481611e-05 6.022969e-05 4.5393437e-05
-0.28351837 0.069065981 0.26685208 1 9.5252572e-06 4.6177698e-05 5.526216e-05
0.28351837 0.067408316 0.26536742 -1 0 0 3.1113428e-05
-0.28351837 0.070989586 0.262815 1 1.2195047e-05 0.00012596956 5.5673623e-05
0.28351837 0.079276204 0.26287308 -1 3.2401553e-05 -5.1571869e-06 5.474389e-05
-0.28351837 0.083728619 0.26716506 1 1.6007749e-05 3.7820118e-05 6.8938323e-05
0.28351837 0.084700026 0.26330289 -1 2.2512824e-05 4.6695546e-05 5.4380769e-05
-0.28351837 0.092615679 0.26603085 1 9.5642181e-06 3.6093457e-05 5.7491343e-05
0.28351837 0.095293656 0.26771104 -1 1.0075267e-05 7.7536606e-05 7.3400159e-05
-0.28351837 0.10107198 0.26241866 1 2.3199103e-05 -3.8645244e-06 5.4097316e-05
0.28351837 0.10142137 0.26528236 -1 5.773888e-06 0.00011248881 5.3386335e-05
-0.28351837 0.11258872 0.26267803 1 4.8978232e-05 -3.2815533e-05 6.0137867e-05
0.28351837 0.11639769 0.26113492 -1 -1.4021943e-05 6.3271094e-05 6.527287e-05
0.28351837 0.12405112 0.26875275 -1 0 0 6.4645399e-05
-0.28351837 0.13319607 0.2666339 1 2.7502376e-05 5.8955295e-05 5.0505161e-05
-0.28351837 0.14266464 0.2681298 1 6.2452324e-05 0.00010676443 4.7095731e-05
0.28351837 0.14298075 0.26205012 -1 7.3991039e-05 4.2151172e-05 5.5116605e-05
-0.28351837 0.15407561 0.26173788 1 4.8504113e-05 3.3554905e-05 3.8492421e-05
0.28351837 0.1540215 0.26154214 -1 1.6518057e-05 -6.6359695e-07 7.0346709e-05
0.28351837 0.16768491 0.26527137 -1 3.0753014e-05 0.00012496462 7.5230004e-05
-0.28351837 0.17463997 0.26486772 0.99928659 -0.023836533 -0.02929257 0.0026679053
0.28351837 0.17164978 0.26730222 -0.99996418 -0.0032837128 -0.0077996207 0.00024968831
-0.28351837 0.18545532 0.26513675 0.98012853 -0.15639654 -0.12201729 0.042536795
0.28351837 0.18472266 0.26375395 -0.99164343 -0.085483909 -0.09662208 0.02349299
-0.28351837 0.19545169 0.2655738 0.95615649 -0.21182267 -0.20222728 0.069793269
0.28351837 0.1950857 0.2611894 -0.97568351 -0.13159484 -0.17528388 0.038255718
0.28351837 0.20298353 0.26561701 -0.95211715 -0.17022772 -0.2539598 0.056785487
-0.28351837 0.21877663 0.26358125 0.66394311 -0.46584159 -0.58495396 0.09691985
-0.26596883 0.21642019 0.26830274 0.17817535 -0.5696004 -0.80237705 0.026548477
-0.25979787 0.21558936 0.26894635 0.084931545 -0.62135065 -0.77891588 0.012172364
-0.2441677 0.2170652 0.26780304 4.0717361e-05 -0.61243331 -0.79052222 0
-0.23309913 0.21535534 0.26912761 -8.0952559e-05 -0.61244023 -0.79051697 6.3878353e-05
-0.2217955 0.21558228 0.26895183 -5.0647809e-06 -0.61236459 -0.7905755 2.5026453e-05
-0.2048614 0.21767861 0.2673279 -2.6909136e-05 -0.61240321 -0.79054564 3.9646707e-06
-0.17438492 0.21522668 0.2692273 -3.344888e-05 -0.61240673 -0.79054284 2.5041015e-07
-0.16543789 0.21748024 0.26748157 -3.2542081e-05 -0.61239004 -0.79055578 0
-0.15378268 0.21942995 0.26597121 -1.107132e-06 -0.61240304 -0.7905457 0
-0.14608085 0.21720129 0.26769766 3.3107426e-05 -0.61242801 -0.79052645 1.5881396e-05
-0.13444164 0.21749771 0.26746804 3.8597205e-05 -0.61249006 -0.79047829 0
-0.12179127 0.21574436 0.26882625 1.8268904e-05 -0.61242241 -0.79053068 5.5697051e-06
-0.11386686 0.21802869 0.2670567 -1.259135e-05 -0.61245042 -0.79050905 3.4841545e-05
-0.10427706 0.21814841 0.26696399 4.3972461e-05 -0.61241394 -0.79053724 0
-0.091806188 0.21872626 0.26651633 0.00031077297 -0.61321837 -0.78991348 0
-0.089523681 0.21969938 0.26576251 0.00033965326 -0.61317825 -0.78994441 4.7368448e-07
-0.067857504 0.2157395 0.26883006 -0.00040573627 -0.61315119 -0.78996545 1.5731823e-05
-0.055056632 0.21969065 0.26576927 7.1572927e-06 -0.61241502 -0.79053646 8.2290453e-06
-0.046709448 0.21764152 0.26735663 -8.0309146e-06 -0.61237025 -0.79057109 0
-0.014816806 0.21810968 0.266994 -2.8949419e-06 -0.61233205 -0.79060066 1.1652483e-05
-0.0035372041 0.21809886 0.26700234 2.1362027e-06 -0.61237645 -0.79056627 3.4807126e-05
0.0075474977 0.21539369 0.26909792 1.0214131e-06 -0.61239046 -0.79055548 3.9774437e-05
0.025365001 0.21682754 0.26798719 0.0001872111 -0.61296248 -0.79011202 0
0.031202555 0.21899372 0.26630914 0.00011793688 -0.61293572 -0.79013282 0
0.048075289 0.21750093 0.26746553 8.8980414e-07 -0.61245447 -0.79050583 0
0.053284548 0.21647839 0.26825765 1.8507375e-06 -0.61240649 -0.79054302 0
0.067797422 0.21596688 0.2686539 -1.3490842e-05 -0.61243939 -0.79051751 0
0.085053578 0.21539341 0.26909813 0.00024940071 -0.6140542 -0.78926384 3.5167985e-05
0.10464292 0.21570711 0.26885512 -1.7898032e-05 -0.61247605 -0.79048914 0
0.13428634 0.21688589 0.26794198 3.9392482e-05 -0.61243027 -0.79052454 0
0.14553642 0.21589667 0.26870829 -6.3692947e-05 -0.61245376 -0.79050642 0
0.15337937 0.21974306 0.26572868 -2.4000979e-05 -0.61239874 -0.79054904 1.1747014e-05
0.16726871 0.21644683 0.26828209 3.098149e-05 -0.61243367 -0.79052198 0
0.17326641 0.21745951 0.26749763 -1.1380981e-05 -0.61243856 -0.79051822 0
0.1923922 0.21642871 0.26829612 -2.6630958e-05 -0.61243111 -0.79052401 1.3307869e-05
0.203833 0.21942127 0.26597798 -5.8667406e-06 -0.61239529 -0.79055166 2.4172411e-06
0.21888079 0.2160046 0.26862469 5.6386609e-05 -0.61240333 -0.79054552 3.9208848e-05
0.2331856 0.21829139 0.26685321 -2.8602499e-06 -0.61244124 -0.79051608 0
0.24786863 0.2179606 0.26710945 -3.0490934e-05 -0.61242002 -0.79053259 0
0.25162816 0.21901265 0.26629448 -0.00010038773 -0.61246836 -0.79049516 0
0.26544547 0.21830522 0.26684251 -0.26620418 -0.46284592 -0.84552282 0.0565015
0.27398682 0.21874504 0.26650181 -0.35277656 -0.47422621 -0.80663383 0.08394701
0.28351837 0.21810046 0.26093057 -0.87750524 -0.28848466 -0.38309428 0.089687504
-0.27314588 0.22510746 0.2615732 0.35926837 -0.6097219 -0.7065165 0.072510004
-0.26306131 0.22492948 0.261711 0.12487652 -0.6437695 -0.75496137 0.022998899
-0.25833395 0.22481984 0.26179594 0.079173982 -0.601403 -0.79501313 0.015393928
-0.24616203 0.22562009 0.26117605 5.2601699e-06 -0.6124146 -0.79053676 1.0377284e-05
-0.23680738 0.22278121 0.26337516 6.4566237e-05 -0.61236811 -0.79057288 4.0348987e-06
-0.22298577 0.22635436 0.26060724 5.0207778e-05 -0.61240727 -0.79054242 3.1106389e-05
-0.21565104 0.22129327 0.2645278 1.6235987e-05 -0.61241972 -0.79053289 0
-0.19453856 0.22386004 0.26253951 -3.6705853e-05 -0.61243087 -0.79052413 0
-0.18693051 0.22254717 0.26355648 -6.0165921e-06 -0.61237133 -0.79057026 0
-0.17551333 0.22441764 0.26210752 -4.1493886e-06 -0.61239249 -0.79055399 0
-0.16800988 0.22548547 0.26128036 3.4924524e-05 -0.61243218 -0.79052311 1.1768593e-05
-0.15226237 0.22359781 0.26274261 -2.3010134e-05 -0.61239362 -0.79055303 1.0722556e-05
-0.14787874 0.22387402 0.26252866 -2.0889782e-05 -0.61241299 -0.79053801 2.3558303e-05
-0.13622023 0.22387321 0.26252928 -3.0563749e-06 -0.61245126 -0.79050839 0
-0.12250841 0.22620791 0.2607207 3.541035e-05 -0.61242354 -0.79052985 2.2670976e-05
-0.11245269 0.22561562 0.26117951 3.3738532e-05 -0.61241752 -0.7905345 0
-0.10137677 0.22446127 0.26207373 2.429863e-05 -0.6124261 -0.79052794 2.6728474e-06
-0.073886409 0.22454585 0.26200822 -7.6625593e-06 -0.61238569 -0.79055911 0
-0.06674099 0.22408853 0.26236248 -1.5721973e-05 -0.61242038 -0.79053229 0
-0.055537138 0.22425628 0.26223254 7.4609593e-06 -0.61239743 -0.79054999 4.4209675e-05
-0.045217365 0.2242129 0.26226613 -3.3551464e-06 -0.61239827 -0.79054952 9.839915e-06
-0.033157445 0.22696403 0.26013499 7.1127361e-06 -0.61243594 -0.79052019 0
-0.025049329 0.22638163 0.26058611 -1.8510474e-06 -0.61242402 -0.79052943 1.6254113e-05
-0.015888393 0.22218883 0.26383406 -1.707102e-06 -0.61239272 -0.79055375 5.2267487e-06
-0.0040318966 0.22342497 0.26287651 -5.2099826e-06 -0.61247003 -0.79049379 0
0.0045213997 0.22393152 0.2624841 -9.4531715e-06 -0.61245054 -0.79050887 0
0.011725932 0.22336257 0.26292485 -1.6090061e-06 -0.61240047 -0.79054773 1.8277691e-05
0.024778262 0.22528774 0.26143351 -6.0349498e-06 -0.61237472 -0.79056764 6.0477254e-05
0.032715093 0.22468139 0.2619032 -8.9297037e-06 -0.61234981 -0.79058689 7.1914633e-06
0.049687557 0.22187996 0.26407334 1.5398418e-05 -0.61247087 -0.79049313 0
0.056395046 0.22084852 0.26487234 -1.3618628e-06 -0.61249572 -0.79047388 0
0.074806713 0.22452687 0.26202294 2.8598941e-05 -0.6124211 -0.79053169 1.3203738e-05
0.089201093 0.22222562 0.26380557 1.8436887e-05 -0.6123966 -0.79055065 3.9241258e-05
0.11655644 0.22241339 0.26366013 -2.1986754e-05 -0.61241472 -0.79053664 0
0.12715152 0.22251271 0.26358318 1.3721983e-05 -0.61245376 -0.79050636 0
0.13669446 0.22320536 0.26304662 -3.771266e-05 -0.61234021 -0.7905944 0
0.16848832 0.22129168 0.26452905 8.7629496e-06 -0.61244214 -0.79051542 0
0.19694498 0.22438413 0.26213351 -7.9300364e-05 -0.61245161 -0.79050803 0
0.22582102 0.22305089 0.26316628 5.1247051e-05 -0.612378 -0.79056513 2.0739148e-05
0.23466362 0.22335218 0.2629329 -8.4336343e-06 -0.61242884 -0.79052567 0
0.24872482 0.22216243 0.26385453 -0.00012043072 -0.61246222 -0.79049987 0
0.25724071 0.22435752 0.2621541 -0.064569272 -0.592825 -0.80273861 0.012804531
0.26375136 0.22208029 0.26391816 -0.20045277 -0.58342981 -0.78703773 0.048890445
0.28351837 0.22656004 0.26029468 -0.69770312 -0.44094312 -0.56460571 0.094408005
-0.28351837 -0.21192993 0.2712096 0.758398 0.36512393 -0.53992325 0.10751233
-0.27153087 -0.21162251 0.27201924 0.40940344 0.54204053 -0.73388064 0.068243437
-0.26845139 -0.21323478 0.27077028 0.28289935 0.57941782 -0.76435786 0.060311362
-0.25835869 -0.21197173 0.27174872 0.066607803 0.61786234 -0.78345996 0.0070665362
-0.21124482 -0.21221626 0.27155927 3.4984652e-05 0.61236614 -0.79057431 0
-0.20566475 -0.2137218 0.27039301 2.8961537e-07 0.61239278 -0.79055363 9.3609679e-06
-0.19231375 -0.21167672 0.27197725 -4.5266032e-05 0.61237621 -0.7905665 4.4407652e-06
-0.14471984 -0.21260159 0.27126083 -8.3967052e-06 0.61240989 -0.7905404 5.6279528e-06
-0.13504487 -0.21131633 0.2722564 1.9360221e-05 0.61241555 -0.79053605 0
-0.11561901 -0.2128619 0.27105916 2.216344e-05 0.61243445 -0.79052132 0
-0.10142101 -0.21135649 0.27222532 0.0010069881 0.61434257 -0.78903872 2.7257649e-05
-0.094941497 -0.21069959 0.27273417 1.9711238e-06 0.61384404 -0.78942734 2.2977027e-05
-0.080842137 -0.21257326 0.27128273 0.0007014345 0.61445153 -0.78895426 0
-0.07743942 -0.2114781 0.27213109 0.00055110757 0.61463118 -0.78881449 0
-0.033550292 -0.21276541 0.2711339 -0.00045493929 0.61457759 -0.78885627 7.4929223e-05
-0.022103965 -0.21376202 0.27036184 0.00084999157 0.61587918 -0.78784019 2.470527e-05
-0.013274878 -0.21269964 0.27118483 0.0014085919 0.61540931 -0.7882064 1.3336526e-05
-0.0059320033 -0.2124875 0.27134916 0.00023415318 0.61621505 -0.78757787 0.00015149826
0.0064705908 -0.21161076 0.27202836 -0.00021086079 0.61529064 -0.78830028 5.2471831e-05
0.013012588 -0.21256521 0.2715914 0.00092635711 0.61550635 -0.78813136 2.4824267e-05
0.028317869 -0.21089217 0.27258503 -0.00019102741 0.61417502 -0.78916979 1.5035722e-05
0.032360792 -0.21115589 0.27238071 -0.00085454393 0.6142906 -0.78907937 1.8681616e-05
0.043660462 -0.2126385 0.27123219 -0.0018619007 0.61464971 -0.78879803 2.9346415e-05
0.064684004 -0.21174204 0.27192664 -0.00092431001 0.61256218 -0.79042184 3.7774706e-05
0.095042422 -0.21131912 0.27225426 -2.9809837e-05 0.61240268 -0.790546 0
0.11735391 -0.21191709 0.27179104 3.972706e-05 0.61240005 -0.79054803 2.6124828e-05
0.12103572 -0.21212015 0.27163374 3.740524e-05 0.61243451 -0.7905212 3.8515649e-05
0.13698918 -0.2134788 0.27058128 -1.3808523e-06 0.61237282 -0.79056913 0
0.14618663 -0.21082616 0.27263612 6.7965093e-06 0.61240149 -0.79054683 5.3153341e-05
0.15339911 -0.21299903 0.27095291 -7.8299072e-06 0.61245131 -0.79050839 3.3784523e-05
0.16923827 -0.21052791 0.27286717 6.9438679e-06 0.61240745 -0.7905423 0
0.17652942 -0.21369177 0.27041629 4.2324365e-05 0.61244315 -0.79051465 3.1727668e-05
0.1862641 -0.21023117 0.27309704 9.2717137e-06 0.61242688 -0.79052722 0
0.1992583 -0.21374567 0.27037454 5.712223e-05 0.61239028 -0.7905556 1.6727223e-06
0.21372087 -0.21273132 0.2711603 -2.8431041e-05 0.61250508 -0.79046667 0
0.23345482 -0.21029687 0.27304614 2.3997576e-05 0.61241966 -0.79053283 3.6622234e-05
0.25539649 -0.21008155 0.27321294 -0.045971557 0.62397116 -0.78009391 0.0038116241
0.26500207 -0.2131263 0.27085432 -0.21953386 0.59977561 -0.76946354 0.042317782
0.27613193 -0.21098733 0.2725113 -0.4670541 0.49060065 -0.73564357 0.083617695
-0.28319186 -0.20305683 0.27598715 0.73951423 0.42198324 -0.52445096 0.093860306
-0.27536035 -0.20631358 0.27613181 0.51791352 0.53162688 -0.67017782 0.091395654
-0.26501456 -0.20333593 0.27843842 0.19806594 0.57109213 -0.79663265 0.04025194
-0.25631368 -0.20827863 0.27460957 0.052948315 0.61177814 -0.78925544 0.0071973265
-0.24170253 -0.20402709 0.27790302 1.2754183e-05 0.61245054 -0.79050887 0
-0.23281413 -0.20236349 0.27919173 -4.1441504e-05 0.61239982 -0.79054826 0
-0.22365548 -0.20598638 0.27638528 5.041566e-05 0.61238712 -0.79055804 4.1854393e-05
-0.21832742 -0.20149177 0.27986699 1.1629987e-05 0.61240733 -0.79054236 1.2654455e-05
-0.19491224 -0.20477423 0.27732423 8.062495e-06 0.61239195 -0.79055429 0
-0.18406868 -0.20711307 0.27551246 -2.6585654e-05 0.61236888 -0.79057223 3.0428812e-06
-0.17415269 -0.20383787 0.27804959 6.7326351e-07 0.61235815 -0.79058051 1.7708546e-05
-0.16547307 -0.20726302 0.27539632 8.4252952e-06 0.61239058 -0.79055542 1.6470749e-05
-0.1500375 -0.20442802 0.27759242 -2.6589305e-05 0.61235398 -0.79058367 2.5420368e-05
-0.14758182 -0.20726681 0.27539337 2.6347789e-06 0.61240953 -0.79054064 1.1199983e-05
-0.1331391 -0.20756094 0.2751655 -9.7516941e-06 0.61240196 -0.79054648 2.4053827e-07
-0.11239602 -0.20314008 0.27859014 0.0020947165 0.61333638 -0.78981906 0
-0.10335428 -0.2099838 0.27328867 0.0010958817 0.61439407 -0.7889986 0
-0.091424607 -0.20133233 0.27999049 0.0026976995 0.61613387 -0.78763688 5.4002481e-05
-0.085387439 -0.20580329 0.27672872 0.0012973975 0.61619323 -0.78759396 8.6753804e-05
-0.073896036 -0.20841539 0.27450362 0.0011881766 0.61457336 -0.78885877 3.8280075e-05
-0.064588316 -0.20801459 0.2748141 0.00073969347 0.61408782 -0.78923738 1.773921e-05
-0.055189583 -0.20486176 0.27725646 -1.1310077e-05 0.61421853 -0.78913605 5.3120235e-05
-0.046127822 -0.20650594 0.27641484 -0.00018324597 0.61473399 -0.7887345 4.8327372e-05
-0.034991752 -0.20606263 0.27632621 0.00019941252 0.61497962 -0.78854299 8.694351e-05
-0.024098445 -0.20544717 0.27725661 0.0005474895 0.61570871 -0.78797364 0.00011932598
-0.012853533 -0.20252925 0.27906331 0.0010516378 0.61547172 -0.7881583 7.4259755e-05
-0.0051613608 -0.2056601 0.27675897 -0.00068484107 0.61521626 -0.78835803 4.0348245e-05
0.0064673908 -0.20480135 0.27730322 0.00099007715 0.6150279 -0.78850472 1.232452e-05
0.021699265 -0.20382811 0.27805716 -0.001451031 0.61448896 -0.7889241 8.0020372e-06
0.037703667 -0.20595062 0.2767154 -0.0023118719 0.61369634 -0.7895388 4.3999473e-05
0.047872517 -0.20522955 0.27697152 -0.001936828 0.61314207 -0.78997028 0
0.055800159 -0.20663154 0.27588549 -0.0029551005 0.61346769 -0.78971434 8.9495306e-06
0.066001855 -0.20556116 0.27671465 -0.00098905771 0.6123637 -0.79057556 3.0923435e-05
0.074393585 -0.2033643 0.27841645 1.2952926e-05 0.61243415 -0.79052156 0
0.085613057 -0.20718636 0.27545568 5.8410469e-06 0.61243987 -0.79051715 0
0.090072639 -0.20775431 0.27501574 -1.5579433e-05 0.61245853 -0.79050273 0
0.10988802 -0.20211948 0.27938074 -6.5339354e-06 0.61246938 -0.79049438 0
0.12726568 -0.20360501 0.27822995 -2.8346938e-05 0.61242956 -0.79052514 0
0.13549404 -0.2065523 0.27594686 -2.4243694e-05 0.6124354 -0.79052061 0
0.14427495 -0.20140493 0.27993426 -3.1243479e-05 0.61238867 -0.79055685 0
0.1670754 -0.2066856 0.27584359 -5.0594194e-06 0.61237234 -0.79056948 0
0.17628781 -0.20447277 0.27755779 6.7337101e-06 0.61240518 -0.79054403 0
0.19585848 -0.2067856 0.27576613 -5.617271e-05 0.61245406 -0.79050624 0
0.20920205 -0.20722035 0.27542937 2.9374194e-05 0.61245131 -0.79050833 0
0.22475408 -0.20662253 0.27589247 -4.1610063e-05 0.61240005 -0.79054797 0
0.23085815 -0.20600003 0.27637467 -1.0625645e-06 0.61237627 -0.7905665 1.8671408e-05
0.24681029 -0.20788583 0.27491385 1.3087499e-05 0.61241537 -0.79053617 0
0.25297856 -0.20264468 0.27897388 5.7118683e-05 0.61247355 -0.7904911 0
0.26034397 -0.20595849 0.27640688 -0.10861485 0.62275058 -0.77484483 0.01844638
0.27825731 -0.20479822 0.27730569 -0.41669026 0.59310377 -0.68891007 0.07239946
0.28327048 -0.20910807 0.27396706 -0.60239202 0.48707953 -0.63235855 0.091699913
-0.28351837 -0.19397083 0.27249011 0.94259894 0.20750794 -0.26162529 0.052217901
0.28351837 -0.19622576 0.27796242 -0.8365292 0.34768963 -0.4234747 0.086259469
-0.28351837 -0.18732552 0.27784607 0.91171974 0.22103168 -0.3462832 0.077660583
0.28351837 -0.183531 0.27363205 -0.95908898 0.17446363 -0.22295898 0.065015212
0.28351837 -0.17647903 0.2780599 -0.98351514 0.13693087 -0.11810191 0.03476147
-0.28351834 -0.16296874 0.27376047 0.99957007 0.020061817 -0.021382509 0.0023678113
0.28351837 -0.16805317 0.27760226 -0.99444288 0.067929983 -0.080429569 0.018740954
0.28351837 -0.1554957 0.27499941 -1 -3.3495529e-05 2.8363023e-05 4.8295853e-05
0.28351837 -0.14223777 0.27599525 -1 -1.4519037e-05 7.1431969e-05 5.1098465e-05
-0.28351837 -0.13844657 0.27567607 1 -7.4811446e-06 4.7485231e-05 4.5838297e-05
0.28351837 -0.13297087 0.27484906 -1 -2.0814263e-05 -4.0605812e-07 7.3690564e-05
-0.28351837 -0.12732929 0.27535364 1 4.6166888e-06 3.0473002e-05 4.996236e-05
0.28351837 -0.12127063 0.27462626 -1 -1.8012541e-05 6.6236949e-05 4.9687274e-05
-0.28351837 -0.11572035 0.27709031 1 -1.7329874e-05 3.263398e-05 6.0533817e-05
0.28351837 -0.11391699 0.275601 -1 -1.4030862e-05 2.9450504e-07 4.7461897e-05
-0.28351837 -0.10833728 0.2778722 1 -9.5573141e-06 7.3864103e-05 4.6127101e-05
-0.28351837 -0.097109526 0.27034244 1 -1.1184273e-05 2.9535726e-05 6.0285565e-05
0.28351837 -0.094813079 0.27996039 -1 -7.0132251e-06 7.3845719e-08 6.4377491e-05
-0.28351837 -0.081732392 0.27197379 1 4.2775059e-06 3.3833439e-05 6.9121626e-05
0.28351837 -0.084300704 0.27590108 -1 -8.6176096e-06 -2.3066291e-07 4.9940638e-05
-0.28351837 -0.072162136 0.2771059 1 -1.1590055e-05 6.9720314e-05 6.0344591e-05
0.28351837 -0.074672356 0.27421564 -1 -1.200245e-06 3.0565458e-05 3.2852106e-05
-0.28351837 -0.06164233 0.27051207 1 -3.2485772e-07 -3.1420346e-05 6.2117593e-05
0.28351837 -0.065641053 0.27770707 -1 3.0486697e-06 3.1832951e-05 5.393082e-05
0.28351837 -0.047749624 0.27496874 -1 -3.6066517e-06 3.7451038e-05 5.0089558e-05
-0.28351837 -0.032913953 0.27499586 1 -1.773867e-05 7.9797406e-05 4.9518505e-05
0.28351837 -0.03258111 0.27343825 -1 -1.4523336e-05 3.4661753e-05 4.8483864e-05
-0.28351837 -0.024238994 0.27079353 1 -4.359079e-06 3.6456717e-05 6.1573133e-05
0.28351837 -0.023314044 0.27649829 -1 -6.2347717e-06 4.3163877e-07 5.4218384e-05
-0.28351837 -0.017032657 0.27434754 1 8.5319658e-07 3.7432939e-05 5.6737805e-05
0.28351837 -0.016640821 0.27889758 -1 -7.9315114e-06 -4.5074216e-07 8.4633459e-05
-0.28351837 -0.0033248714 0.27482939 1 -4.5489328e-06 3.4298486e-05 6.5887602e-05
0.28351837 -0.0051390082 0.27700216 -1 4.8856728e-06 4.3851982e-05 6.846161e-05
-0.28351837 0.0081513617 0.27821869 1 7.9256097e-06 -9.8690507e-05 6.3273721e-05
0.28351837 0.0037565692 0.27492881 -1 -7.2914048e-09 4.8185921e-05 5.3951328e-05
-0.28351837 0.018904733 0.27468255 1 5.8492583e-06 3.2375192e-05 5.6196306e-05
0.28351837 0.019054562 0.27838352 -1 1.2690369e-05 -5.0165556e-05 7.2566632e-05
0.28351837 0.025833076 0.27640241 -1 6.2570907e-06 6.2973289e-05 6.7436391e-05
-0.28351837 0.031780403 0.27451301 1 8.8319675e-06 3.388543e-05 5.0390336e-05
0.28351837 0.034489274 0.2780506 -1 4.0627965e-06 7.9724663e-07 7.2845884e-05
0.28351837 0.041516494 0.27760127 -1 4.4865524e-06 9.7739121e-07 7.3351563e-05
-0.28351837 0.05526593 0.27522624 1 -8.7649732e-06 1.3852843e-06 5.3502019e-05
0.28351837 0.058640361 0.27619693 -1 2.7347398e-05 7.8297053e-05 5.4153359e-05
-0.28351837 0.066691659 0.27442327 1 1.7660726e-05 4.0155319e-05 5.7268211e-05
0.28351837 0.061828896 0.27468926 -1 3.0417988e-05 3.4900495e-05 6.7246358e-05
-0.28351837 0.077252492 0.27520329 1 1.5401896e-05 -3.4321056e-05 5.4507447e-05
0.28351837 0.076728217 0.27645072 -1 5.3054053e-05 9.192682e-05 7.1073038e-05
-0.28351837 0.08933045 0.27526841 1 2.9521387e-05 2.2056212e-05 6.3320149e-05
0.28351837 0.08101321 0.27642593 -1 3.3298031e-05 0.0001056933 6.2114057e-05
0.28351837 0.094071575 0.2743158 -1 -1.0221034e-05 3.7849211e-05 6.8158144e-05
0.28351837 0.10464628 0.27137801 -1 7.4110885e-06 3.559198e-05 7.3208103e-05
-0.28351837 0.11124384 0.27339244 1 2.3882636e-05 5.5074022e-05 6.5364547e-05
0.28351837 0.11602197 0.27686334 -1 -2.6016882e-05 8.1420781e-05 6.9325812e-05
-0.28351837 0.1218812 0.27426848 1 2.9622881e-05 8.1981423e-05 4.8157304e-05
-0.28351837 0.13281278 0.27934131 1 1.9897814e-05 3.8037113e-05 5.3751897e-05
0.28351837 0.13863862 0.27682495 -1 -4.5644197e-06 -4.9318522e-05 4.2928223e-05
-0.28351837 0.14544246 0.2753391 1 3.4078023e-06 5.7508627e-05 5.4611348e-05
0.28351837 0.14568135 0.27563 -1 4.4936027e-05 2.9412513e-05 4.3753837e-05
-0.28351837 0.15205434 0.27688441 1 3.8792019e-05 7.8591547e-05 4.8680246e-05
0.28351837 0.15825357 0.27737349 -0.99925053 -0.025451289 -0.029163655 0.0041552871
0.28351837 0.17531835 0.27426448 -0.9869979 -0.089502096 -0.13350846 0.025905801
-0.28351837 0.18690185 0.27463603 0.9674778 -0.1616794 -0.19454157 0.043999571
0.28351837 0.18482625 0.27404034 -0.967857 -0.14213154 -0.20748848 0.041167285
-0.28351837 0.19238667 0.27656874 0.95823401 -0.16608797 -0.23281418 0.052192267
0.28351837 0.19566998 0.27727595 -0.93330979 -0.16812266 -0.31728169 0.043679282
-0.28351837 0.20205557 0.27256852 0.75494564 -0.39200991 -0.5257237 0.097279362
-0.27632564 0.2046929 0.27738729 0.44718665 -0.54725963 -0.70748222 0.079689011
-0.248014 0.20225129 0.27927864 -6.5179731e-05 -0.61242068 -0.79053205 2.622152e-05
-0.23612171 0.20715949 0.27547655 6.3829248e-05 -0.61240327 -0.79054552 2.8821718e-05
-0.22342181 0.20202285 0.2794556 -6.0257553e-05 -0.61240047 -0.79054767 1.2897794e-05
-0.21686487 0.20875445 0.27424097 -3.3737237e-05 -0.61250734 -0.79046482 0
-0.19255327 0.20659927 0.2759105 1.2526302e-05 -0.61241335 -0.79053771 3.421307e-05
-0.18432608 0.20545453 0.27679726 -8.3808891e-06 -0.61238569 -0.79055911 4.0028743e-05
-0.17620558 0.20617732 0.27623737 -6.7653787e-06 -0.61244279 -0.79051489 0
-0.16113763 0.20484704 0.27726787 -2.6316857e-05 -0.61243641 -0.79051989 3.5913388e-05
-0.15576442 0.20252299 0.2790682 -1.0566775e-05 -0.612405 -0.79054421 2.9021546e-06
-0.14251332 0.20820284 0.27466831 -8.3072773e-06 -0.61239588 -0.79055136 5.3659987e-05
-0.12423531 0.2031967 0.2785463 -3.9543243e-05 -0.61239517 -0.79055178 1.919868e-05
-0.11711237 0.2053469 0.27688062 4.2870256e-06 -0.61240506 -0.79054409 4.6780315e-05
-0.10920635 0.20429052 0.27769893 0.0010842799 -0.6129123 -0.79015017 4.2375344e-05
-0.092564397 0.20210496 0.279392 0.0028951808 -0.61397445 -0.78932065 0.00011789462
-0.087763198 0.20490757 0.27722096 0.0020070605 -0.61453038 -0.7888906 1.0996736e-05
-0.071617305 0.20273718 0.27890223 0.0027123387 -0.61862797 -0.78567934 0.00011083125
-0.057994414 0.20497298 0.27717027 -0.00092135958 -0.61842167 -0.78584588 7.4251575e-06
-0.046655279 0.20300779 0.2786926 0.00019843986 -0.61610407 -0.78766477 0
-0.0304268 0.20724332 0.27541158 -0.0012693609 -0.61506861 -0.78847253 0
-0.027308613 0.20774256 0.27502483 -0.0024680209 -0.61573726 -0.78794771 7.0285801e-05
-0.0168825 0.2060293 0.27635205 -0.0007618746 -0.61381906 -0.78944635 6.9068601e-06
-0.0068305135 0.20705619 0.27555656 0.00054682989 -0.61596924 -0.78776997 5.7362446e-05
0.0077090263 0.20237099 0.27918592 -0.00013602345 -0.61512583 -0.78842896 0
0.016635865 0.20429769 0.27769339 -9.9623088e-05 -0.61536467 -0.78824258 8.383183e-05
0.023439875 0.20579188 0.27653596 0.00090873282 -0.61732709 -0.78670615 5.2466396e-05
0.035578102 0.20964816 0.27354866 0.00040951371 -0.61530262 -0.78829092 4.3189884e-05
0.045664962 0.20608057 0.27631232 -0.00059923407 -0.61525011 -0.78833175 0
0.05312565 0.20284809 0.27881631 -0.0011989165 -0.61693025 -0.78701693 3.0761075e-05
0.062012494 0.20610748 0.27629146 -0.0012290886 -0.61613983 -0.78763586 1.7162723e-05
0.075258769 0.20454964 0.27749822 0.00014989011 -0.61447448 -0.78893673 3.8094207e-05
0.085644357 0.20761691 0.2751222 5.0042556e-05 -0.61350042 -0.78969437 2.0788824e-05
0.10702598 0.206384 0.27607724 -0.0012906973 -0.6134671 -0.78971922 2.0454347e-05
0.11617267 0.20447497 0.27755609 2.0402933e-06 -0.6123783 -0.79056484 2.8264221e-05
0.12494626 0.20598398 0.27638713 3.5531826e-05 -0.61235166 -0.79058552 0
0.13448276 0.20652868 0.27596518 -2.5604164e-05 -0.61245161 -0.79050803 2.6835598e-05
0.14768992 0.20773084 0.27503389 1.3259108e-05 -0.61236763 -0.79057312 5.0050171e-06
0.15201899 0.2081753 0.27468964 -1.0332009e-05 -0.61241812 -0.79053402 0
0.16080335 0.20836568 0.27454218 -4.2854081e-05 -0.61245996 -0.79050165 2.6706464e-05
0.17330901 0.20746762 0.27523783 3.2252537e-05 -0.61237842 -0.79056478 3.5099034e-05
0.1950179 0.20614789 0.27626017 -4.5498058e-05 -0.61240238 -0.79054624 0
0.21470882 0.20682614 0.27573475 1.9000845e-05 -0.61238128 -0.79056263 4.2324173e-06
0.22525901 0.20546424 0.27678972 -2.0063995e-05 -0.61241692 -0.79053497 2.9111507e-05
0.24585356 0.20614497 0.27626243 3.2755826e-05 -0.61239469 -0.7905522 1.4246299e-05
0.25412917 0.20512156 0.2770552 -0.018894857 -0.61157095 -0.79096389 0.00095486251
0.26812738 0.20574704 0.27657068 -0.36511692 -0.52970272 -0.76557469 0.064628445
0.27556029 0.20552111 0.27674568 -0.41170067 -0.55281258 -0.72450042 0.078921735
0.28351837 0.20527793 0.27183634 -0.67826587 -0.30034503 -0.67063272 0.099835083
-0.28351837 0.21365528 0.27008575 0.49922311 -0.49718124 -0.70963871 0.065342709
-0.27433974 0.21078143 0.27267081 0.36899236 -0.54972118 -0.74943405 0.06253434
-0.26197678 0.21360749 0.27048162 0.13455987 -0.59017283 -0.79598349 0.023865597
-0.25616977 0.21240596 0.27141234 0.032966942 -0.60332549 -0.79681337 0.0022733703
-0.24495095 0.21206716 0.27167478 2.0932004e-05 -0.61247492 -0.79049003 0
-0.21807158 0.21378769 0.27034199 -2.9293475e-05 -0.61245245 -0.79050744 6.354924e-05
-0.19620244 0.21313804 0.27084523 -1.0060387e-05 -0.6123932 -0.79055327 9.0180974e-06
-0.16885769 0.21164373 0.27200282 -1.6079406e-05 -0.61241645 -0.79053533 4.3234545e-06
-0.15593255 0.21316057 0.27082777 -4.4335651e-05 -0.61241198 -0.79053873 5.6964083e-05
-0.12398085 0.21064655 0.27277529 2.0401452e-05 -0.61239469 -0.79055214 5.5928245e-05
-0.11773537 0.21365115 0.27044779 -1.9523242e-05 -0.61239618 -0.79055107 5.1580682e-05
-0.10376367 0.21347216 0.27058643 0.00088918931 -0.61305243 -0.79004169 0
-0.095901154 0.21102586 0.27248144 0.00056385412 -0.61316144 -0.7899574 0
-0.085524648 0.21161316 0.27202648 0.0010987804 -0.61608905 -0.7876758 5.5248114e-05
-0.041713789 0.21353152 0.27054045 -0.00042017462 -0.61588264 -0.7878378 5.5644505e-05
-0.030198693 0.21222559 0.27155209 -0.00059544976 -0.61584216 -0.78786927 3.7384048e-05
0.00019076467 0.2131013 0.27087373 -0.00070466998 -0.61301756 -0.79006898 0
0.022041202 0.2128654 0.27105644 8.7029344e-05 -0.61501133 -0.78851831 6.556794e-05
0.033910353 0.21218702 0.27158195 0.0006695803 -0.61499327 -0.78853208 2.4179146e-05
0.062839553 0.21189927 0.27180487 -5.9270524e-06 -0.61241853 -0.79053366 0
0.086288311 0.2120823 0.27166307 6.2194988e-05 -0.61379403 -0.7894662 0
0.095347166 0.21315417 0.27083278 -0.0010763329 -0.61407495 -0.78924692 0
0.11872499 0.21063608 0.2727834 5.1661928e-06 -0.61234128 -0.79059362 0
0.12863854 0.21300834 0.27094573 -8.5643987e-06 -0.61241597 -0.79053575 0
0.13368791 0.21144542 0.27215642 -2.4840265e-05 -0.61244386 -0.79051417 0
0.14313182 0.21121252 0.27233687 9.6495387e-06 -0.61243343 -0.7905221 0
0.1641708 0.2107859 0.27266735 -1.7332295e-05 -0.61239856 -0.79054916 7.3529864e-06
0.17635503 0.21336815 0.27066699 -3.0614945e-05 -0.61240321 -0.79054552 0
0.18386498 0.21245837 0.27137175 -1.7422582e-05 -0.61240876 -0.79054129 0
0.20703599 0.21355441 0.27052271 1.0002287e-05 -0.61244637 -0.79051214 5.2564264e-05
0.21310656 0.21120894 0.27233964 6.1777682e-06 -0.61243576 -0.79052037 1.3476383e-05
0.23401457 0.21109334 0.27242917 3.639462e-05 -0.61242944 -0.79052526 0
0.24310513 0.21040563 0.27296188 -8.8568493e-05 -0.61240399 -0.79054493 0
0.25447845 0.21212614 0.2716291 -0.022152735 -0.60521299 -0.79575527 0.0013994401
0.28266913 0.21030439 0.27304035 -0.62385833 -0.35897481 -0.69421744 0.096306428
-0.25319773 -0.20093925 0.28029501 -1.3055199e-05 0.61245006 -0.79050922 0
-0.16867691 -0.20053032 0.28061178 8.0433238e-06 0.61236942 -0.79057169 0
-0.13016623 -0.20115951 0.28012437 6.9471757e-06 0.61239487 -0.79055202 4.1681786e-05
-0.049051948 -0.20065457 0.28051555 0.0018875716 0.61556488 -0.78808397 1.9519506e-05
-0.034916401 -0.20130219 0.28001386 0.0028064174 0.61593038 -0.78779548 0.00010695031
-0.025130138 -0.20075232 0.28043982 0.00023857219 0.6160357 -0.78771824 0.00010161152
-0.013536841 -0.200599 0.28055859 0.00041941326 0.61520505 -0.78836697 0.000121988
-0.0054111932 -0.20118542 0.28070921 -0.00055063266 0.61501777 -0.78851306 7.9885263e-05
0.0044010878 -0.20082521 0.28038335 -0.0009939709 0.61439788 -0.78899574 0.00010089292
0.035375968 -0.20084639 0.28097183 -0.0014978277 0.61311573 -0.78999168 0
0.048947215 -0.20113114 0.28014636 -0.0022648838 0.61269635 -0.79031515 3.7642858e-05
0.057801723 -0.20012128 0.28092864 -0.0027751927 0.61236316 -0.79057163 0
0.12739916 -0.20034911 0.28075215 2.1806085e-05 0.61241603 -0.79053557 0
0.15828925 -0.20112863 0.28014827 1.2107536e-05 0.61236113 -0.79057813 0
0.18217468 -0.20033056 0.28076652 -6.7321183e-05 0.61245209 -0.79050773 0
0.24966896 -0.20081632 0.28039023 4.3330351e-06 0.6124748 -0.79049009 1.024564e-05
0.26032674 -0.20030251 0.28078824 -0.14495055 0.5889101 -0.79509383 0.02378145
-0.28300208 -0.1943702 0.28471565 0.70717615 0.45929885 -0.53753722 0.080326661
-0.2742525 -0.1924997 0.28683269 0.4277809 0.56856859 -0.70266151 0.066044748
-0.25431797 -0.19532886 0.28464109 0.0020686372 0.612104 -0.79077458 4.9606879e-05
-0.24413948 -0.19464092 0.28517398 0.00011664448 0.61244905 -0.79051012 0
-0.23528922 -0.19432104 0.28542179 1.8085104e-05 0.61243665 -0.79051971 0
-0.22452033 -0.19390975 0.28574041 -4.8170135e-05 0.61243784 -0.79051876 0
-0.21233769 -0.19796282 0.28260067 4.1042204e-05 0.61244512 -0.79051316 0
-0.20691638 -0.19653732 0.28370494 1.0324043e-05 0.61238772 -0.79055762 0
-0.1862227 -0.19612631 0.28402334 -2.7391288e-05 0.61239588 -0.7905513 3.0027168e-05
-0.17560773 -0.19698456 0.28335848 -7.8162244e-05 0.61242008 -0.79053253 0
-0.16207084 -0.19874686 0.2819933 -3.2432992e-05 0.61240166 -0.79054677 3.1869757e-05
-0.1539239 -0.1902858 0.28854769 -2.8870412e-05 0.61241877 -0.79053348 6.9755195e-05
-0.14385861 -0.19070265 0.28822476 2.1438185e-05 0.61243325 -0.7905224 0
-0.13242555 -0.19568479 0.28436536 -8.9144623e-06 0.61239618 -0.79055101 2.5203335e-05
-0.11750402 -0.19449013 0.28529081 0.0014906318 0.61264443 -0.79035723 0
-0.1057438 -0.19771793 0.28279039 0.0032106021 0.61327487 -0.78986305 1.722695e-05
-0.094281599 -0.19513279 0.28491396 0.0056944471 0.61582649 -0.78786123 3.5100922e-05
-0.083324768 -0.19027449 0.28855643 0.0017965777 0.61447722 -0.7889325 7.2468698e-05
-0.075291805 -0.19347639 0.28607607 -0.00020564091 0.61563373 -0.78803235 0.00012014645
-0.068002783 -0.19626908 0.28451762 0.00029497675 0.61764991 -0.78645313 7.6550525e-05
-0.055905104 -0.1932943 0.28621712 -0.00093965675 0.61640763 -0.78742671 0.00012143245
-0.045586128 -0.19486052 0.28520551 0.0012341387 0.61530578 -0.78828758 7.0016962e-05
-0.033921994 -0.19272301 0.28665966 0.0019251859 0.61520511 -0.78836477 0.0001004192
-0.026461184 -0.19296876 0.28677177 0.0006744751 0.61586559 -0.78785092 7.9073616e-05
-0.01497516 -0.19736484 0.28306392 -0.00041643169 0.61600071 -0.78774548 0.00011090429
-0.0066600339 -0.19389418 0.28635734 -0.0020072865 0.6149075 -0.78859675 5.8367426e-05
0.0021861116 -0.19372389 0.28618681 -0.001314948 0.61388701 -0.78939277 0.00015500261
0.0154082 -0.19476278 0.28528121 -0.00054682954 0.61303514 -0.79005551 3.0282736e-06
0.025318356 -0.19319578 0.28644469 -0.00060911546 0.61156464 -0.79119426 9.4270399e-05
0.034978598 -0.19515471 0.28507844 -0.0016706871 0.61222529 -0.79068166 1.895573e-05
0.046146322 -0.19336422 0.28616297 -0.0032876492 0.61377829 -0.78947163 1.8560055e-05
0.054708716 -0.19448268 0.28529656 -0.0033223745 0.61166155 -0.7911126 4.2089083e-05
0.064384386 -0.19323261 0.28626493 -0.0013287581 0.61227447 -0.79064417 0
0.07581678 -0.19350602 0.28605312 3.1032309e-06 0.61242265 -0.7905305 0
0.086036742 -0.19176458 0.28740215 1.116314e-05 0.6124053 -0.79054397 0
0.098074965 -0.19739124 0.28304347 -2.5677234e-06 0.61241788 -0.79053426 0
0.10175627 -0.19543993 0.28455505 -4.4627609e-06 0.61239409 -0.79055268 0
0.11322988 -0.19581749 0.28426257 4.3488948e-05 0.61238104 -0.79056269 1.0593114e-05
0.12217072 -0.19739537 0.28304029 2.8846174e-05 0.6124171 -0.79053479 0
0.13777508 -0.19165567 0.28748649 1.7953858e-05 0.61244583 -0.79051256 0
0.16387016 -0.19737457 0.28305638 -2.7201355e-05 0.61245829 -0.79050291 0
0.1747804 -0.19680676 0.2834962 -2.3322929e-05 0.61240304 -0.7905457 0
0.18509285 -0.19499883 0.28489673 2.2458817e-05 0.61238754 -0.79055774 1.3415419e-05
0.196408 -0.19552505 0.2844891 5.5854394e-05 0.6123848 -0.79055977 0
0.21673612 -0.19615716 0.28399944 -2.3098346e-05 0.61237592 -0.79056674 0
0.22712526 -0.19482166 0.285034 8.7505316e-05 0.61238801 -0.79055738 4.8254016e-05
0.23390424 -0.19287986 0.28653821 -2.1346403e-05 0.6123873 -0.79055792 0
0.25882977 -0.19739027 0.28304422 -0.12526713 0.56020868 -0.81882501 0.019331884
0.26470679 -0.19244911 0.28687188 -0.26557067 0.5882442 -0.76383311 0.045318518
-0.28351837 -0.18445797 0.28466535 0.84605223 0.3502965 -0.40185565 0.086126141
-0.27073276 -0.18846975 0.28995445 0.25015703 0.61804169 -0.74528241 0.053230908
-0.26587921 -0.1891965 0.28939152 0.16251424 0.59377253 -0.78805029 0.029937578
-0.24407232 -0.18919945 0.28938919 5.0614766e-05 0.61235422 -0.79058355 1.8112668e-06
-0.18686196 -0.18889245 0.28962702 -3.8369808e-06 0.61238742 -0.79055786 0
-0.1661129 -0.18908508 0.2894778 -2.0089899e-05 0.61241293 -0.79053801 0
-0.13257389 -0.1896001 0.28907889 5.3364569e-05 0.61248481 -0.79048228 0
-0.092491612 -0.18971717 0.28929061 0.0067569343 0.61297399 -0.79007423 1.1301769e-05
-0.024179313 -0.18983325 0.28950313 0.0015983523 0.61502808 -0.78850365 0.0001379053
-0.018383205 -0.18933535 0.28928393 -0.000572294 0.61422998 -0.78912687 6.1240411e-05
0.011028513 -0.18979444 0.2889283 0.00099300011 0.61207855 -0.79079628 1.8090711e-06
