ply
format ascii 1.0
comment PCL generated
element vertex 244
property float x
property float y
property float z
element camera 1
property float view_px
property float view_py
property float view_pz
property float x_axisx
property float x_axisy
property float x_axisz
property float y_axisx
property float y_axisy
property float y_axisz
property float z_axisx
property float z_axisy
property float z_axisz
property float focal
property float scalex
property float scaley
property float centerx
property float centery
property int viewportx
property int viewporty
property float k1
property float k2
end_header
-0.11925043 -0.13007919 -0.2647295
-0.032884151 -0.15215051 -0.27504635
0.067765646 -0.15158322 -0.27586555
0.14937969 -0.12674583 -0.26715469
-0.1335678 -0.034064714 -0.26802921
-0.034039244 -0.039343417 -0.29732323
0.071867272 -0.042674895 -0.29870319
0.17509343 -0.034383792 -0.27529907
-0.14465712 0.061990369 -0.27200127
-0.036244273 0.067958832 -0.29565525
0.074465774 0.064170942 -0.29521084
0.1710797 0.06666863 -0.27535248
-0.1257342 0.14827776 -0.26473713
-0.03308326 0.17604765 -0.27351475
0.069983937 0.17493403 -0.27220058
0.14939618 0.14827374 -0.26479721
0.23403314 -0.36741206 -0.14317894
0.31726217 -0.37309194 -0.17547321
0.43080479 -0.37383237 -0.19533253
0.55273849 -0.37185228 -0.21173763
0.66129982 -0.37203464 -0.19534779
0.73635125 -0.3662546 -0.15320778
-0.24455883 -0.26630688 -0.14638805
-0.11662155 -0.31418371 -0.17260265
-0.037928313 -0.2884753 -0.20472717
0.071426794 -0.28616458 -0.20717621
0.18274507 -0.28647372 -0.20224953
0.2972382 -0.29884833 -0.17918777
0.4316833 -0.32503435 -0.18661404
0.55452299 -0.32386908 -0.19781876
0.67244369 -0.30961221 -0.17731094
0.74419028 -0.30309418 -0.15624046
-0.26673549 -0.15065093 -0.17156696
-0.17201032 -0.14726509 -0.22325611
-0.064386994 -0.21123284 -0.21430969
0.10068105 -0.20068014 -0.24944592
0.19259664 -0.17117952 -0.23528004
0.28875822 -0.15948945 -0.18010044
-0.8503592 -0.039729081 -0.14176559
-0.35910964 -0.014533807 -0.13822842
-0.28255349 -0.035381846 -0.18541718
-0.1919625 -0.052866053 -0.24228668
0.23072442 -0.062447157 -0.25063229
0.30492058 -0.03678399 -0.19921875
-0.85186821 0.03597445 -0.13673973
-0.37086082 0.061123844 -0.14390278
-0.28717685 0.069741905 -0.19831467
-0.20389156 0.07911329 -0.24484825
0.22463609 0.089964777 -0.25072193
0.30447513 0.070753515 -0.19704533
-0.28226036 0.17929584 -0.18107033
-0.17143361 0.19274268 -0.2327404
-0.074119031 0.2302144 -0.24968052
0.096625134 0.23021635 -0.24965
0.1926259 0.19267321 -0.23402786
0.28742835 0.17732316 -0.18285561
-0.25363421 0.28204739 -0.15490913
-0.16001861 0.30165845 -0.18058395
-0.039538205 0.30701259 -0.21305752
0.071503147 0.30732167 -0.20986557
0.17718664 0.30148411 -0.18239403
0.26728791 0.27048263 -0.1524353
-0.042871743 0.38789245 -0.1514225
0.070310667 0.38836738 -0.1473093
-0.23920046 -0.3617062 -0.043158531
-0.15529771 -0.38540712 -0.062470436
-0.042836711 -0.39847949 -0.082752228
0.065477222 -0.39794782 -0.082912445
0.16316471 -0.38242224 -0.087953568
-0.83927208 -0.24862564 -0.04891777
-0.36144698 -0.2496241 -0.035951614
-0.29303789 -0.2795018 -0.082984924
-0.15891741 -0.31941804 -0.11830139
-0.095621645 -0.24352896 -0.11512661
0.32914567 -0.25332308 -0.099096298
0.70277393 -0.25277057 -0.10462952
0.77597457 -0.27246419 -0.11600494
-0.84386641 -0.16509733 -0.1064291
-0.78668898 -0.15886502 -0.06299305
-0.37351209 -0.21015774 -0.042664528
-0.31518173 -0.18806756 -0.10870552
-0.12104477 -0.21810344 -0.11514378
0.35359138 -0.17783867 -0.099247932
0.39231181 -0.14483906 -0.051890373
0.71748167 -0.19699131 -0.044063568
0.77009046 -0.1928127 -0.063580513
0.90374452 -0.13297084 -0.024763107
-0.8292613 -0.039960865 -0.12767506
-0.76491141 -0.04289113 -0.075325966
-0.46554643 0.010715603 -0.036157608
-0.38031864 -0.03176225 -0.11012268
-0.32540447 -0.091195554 -0.10818195
0.36094052 -0.090502501 -0.13069916
0.40404779 -0.040955588 -0.068303108
0.82241672 -0.018711666 -0.023300171
0.88870198 -0.045008082 -0.041717529
-0.84304166 0.079730853 -0.11772251
-0.77612656 0.069089174 -0.071954727
-0.4646306 0.080026135 -0.041329384
-0.41909111 0.071174242 -0.088917732
0.36070174 0.11182828 -0.13414574
0.40339291 0.075052217 -0.076365471
0.81813258 0.066183776 -0.02824688
0.88511676 0.07075578 -0.040606499
-0.85947198 0.1832815 -0.071261406
-0.79806423 0.15807913 -0.041565895
-0.46553653 0.14087549 -0.036213875
-0.39235038 0.19021082 -0.088620186
-0.32303083 0.23883127 -0.12531185
0.34844828 0.20333102 -0.10778809
0.3983196 0.15943098 -0.058525085
0.88960475 0.14113085 -0.029590607
-0.36728126 0.27821928 -0.055293083
-0.29475766 0.31541425 -0.095148087
-0.20288317 0.35946575 -0.12319374
0.21581629 0.36002409 -0.11786079
0.30680451 0.3061803 -0.080716133
-0.2485535 0.39892989 -0.056033134
-0.15812884 0.41862199 -0.088439941
-0.046690524 0.44764838 -0.080705643
0.06547948 0.44530001 -0.080717087
0.17300023 0.41469175 -0.081941605
0.27203768 0.38379604 -0.037063599
0.039542183 -0.47102457 0.058794022
-0.85981369 -0.37843955 0.068514824
-0.29458767 -0.37249312 0.055001259
-0.17594509 -0.4317511 0.044041634
-0.10327823 -0.43596342 -0.0046138763
0.10696837 -0.43520269 -0.010421753
0.18657015 -0.42515606 0.034715652
-0.84579992 -0.3091003 0.042952538
-0.79125249 -0.26328543 0.042285919
-0.38254809 -0.2802285 0.017654419
-0.33273119 -0.32336158 0.0079593658
0.36896843 -0.2512503 -0.014826775
0.3878088 -0.2575098 0.064656258
0.88814139 -0.23194602 0.084657669
-0.73922181 -0.17682754 0.016886711
-0.65434653 -0.13937557 0.062345505
-0.51935089 -0.12951805 0.085087776
-0.4513219 -0.16015729 0.086811066
0.43660861 -0.14843969 0.029019356
0.54931343 -0.12352033 0.069687843
0.67248946 -0.13809964 0.034321785
0.80409563 -0.14024177 0.0058526993
0.87699878 -0.17445989 0.015541077
-0.70605534 -0.05488975 -0.010918617
-0.64291704 -0.044734005 0.014047623
-0.53639787 -0.040139757 0.042555809
0.46369094 -0.042242002 0.016208649
0.54621011 -0.042638879 0.043567657
0.66682869 -0.044648916 0.034106255
0.77460933 -0.052818041 0.0040073395
-0.7160877 0.074703023 -0.00066184998
-0.64171886 0.079537481 0.041384697
-0.53490371 0.070470013 0.030010223
0.46312791 0.076742277 0.010381699
0.5463078 0.077394858 0.044016838
0.66316634 0.074169725 0.041246414
0.76995927 0.083200768 0.0054807663
-0.84869152 0.23868667 -0.0012683868
-0.76357186 0.1835067 0.034397125
-0.66245025 0.14559011 0.086273193
-0.47828048 0.18371977 0.035763741
-0.4435572 0.22044575 -0.012283325
0.442972 0.18970118 0.038474083
0.55035579 0.15875892 0.077910423
0.67753762 0.16809916 0.07761097
0.78922313 0.18161297 0.040804863
0.87130368 0.1779553 0.0071668625
-0.85311127 0.26842114 0.045161247
-0.80745304 0.25259787 0.073397636
-0.39378667 0.30053204 0.0048980713
-0.34418708 0.35549414 0.027370453
0.35436261 0.32932508 0.029904366
0.40379119 0.28130817 0.097229958
0.81289303 0.25974 0.079195023
0.8710506 0.27916113 0.067676544
-0.27840763 0.42239195 0.032054901
-0.1645733 0.47494841 -0.0044775009
0.10696515 0.48292342 -0.01000309
0.19251999 0.45906889 0.0079746246
0.29360539 0.41185483 0.05579567
-0.14668997 0.50394088 0.045378685
-0.039762899 0.51610023 0.037466049
0.05324088 0.51768744 0.048319817
0.15987611 0.49090546 0.047604561
-0.0024626851 -0.47766605 0.10672569
0.078679085 -0.4799625 0.1232996
-0.28027403 -0.4164035 0.16214371
0.18750083 -0.45085046 0.10914707
-0.83965802 -0.33184466 0.14204311
-0.7541768 -0.25940141 0.16264248
-0.41210568 -0.30305743 0.12469006
0.88721639 -0.26854992 0.20990276
-0.70740896 -0.20981334 0.16308403
-0.64915699 -0.17126383 0.12700844
-0.51516533 -0.16294725 0.14143944
0.49120212 -0.15451612 0.15951729
-0.54617941 0.11941676 0.11228752
-0.73467499 0.2021075 0.13318348
-0.64987671 0.16554788 0.13009262
-0.57266092 0.14645849 0.10882187
0.47394025 0.22875471 0.12263966
0.55686945 0.21579964 0.13280487
0.66669345 0.22105049 0.12345123
-0.83680576 0.2839857 0.13201332
-0.79501039 0.25641829 0.12854385
0.44929558 0.25797591 0.15102577
0.70133644 0.26016283 0.18258953
0.78561646 0.28826147 0.14738369
0.87766415 0.34164003 0.16449261
-0.33904499 0.42740148 0.19073868
0.24290839 0.47698107 0.14505291
0.10589466 0.52949607 0.12905788
0.18749204 0.49935403 0.10857677
-0.86935979 -0.39025998 0.3031683
-0.27153981 -0.36511314 0.33764076
-0.18124445 -0.36089915 0.29553223
-0.455975 -0.2417874 0.22670174
-0.46657974 -0.20345108 0.29230118
-0.41311562 -0.16191442 0.31695652
-0.53050131 -0.09030892 0.33093929
0.66851646 0.26428741 0.24212265
-0.2458771 -0.36836013 0.37008667
-0.2194802 -0.37135324 0.39999676
-0.2511794 -0.34409532 0.42307186
-0.19243111 -0.32973108 0.42802525
-0.4783656 -0.13489477 0.36520767
-0.43827319 -0.16503064 0.38906384
-0.29322714 -0.22459854 0.40315819
-0.48068529 -0.10621403 0.37955761
-0.44476008 -0.10785463 0.4328289
0.69935179 0.29876828 0.45276642
-0.26792365 -0.28079519 0.52233791
-0.20405157 -0.29587585 0.56487083
0.68555593 0.33212456 0.49619579
0.7541033 0.33119002 0.48480034
0.67814577 0.39888236 0.54745102
0.73628557 0.37256759 0.49929714
-0.20572476 -0.26658466 0.58463192
0.43670022 0.44420987 0.6044035
0.55165827 0.44470972 0.60901928
0.62614012 0.42662776 0.58431721
0 0 0 1 0 0 0 1 0 0 0 1 0 0 0 0 0 244 1 0 0
