ply
format ascii 1.0
comment PCL generated
element vertex 1323
property float x
property float y
property float z
element camera 1
property float view_px
property float view_py
property float view_pz
property float x_axisx
property float x_axisy
property float x_axisz
property float y_axisx
property float y_axisy
property float y_axisz
property float z_axisx
property float z_axisy
property float z_axisz
property float focal
property float scalex
property float scaley
property float centerx
property float centery
property int viewportx
property int viewporty
property float k1
property float k2
end_header
-0.33774289 -0.072118133 -0.54380369
-0.41756746 -0.032124344 -0.54489827
-0.38551024 -0.036120273 -0.54543066
-0.34950301 -0.036118135 -0.54567504
-0.31366101 -0.036121964 -0.5445435
-0.4214898 -0.00014106743 -0.54540896
-0.3853955 -0.00014777482 -0.54625916
-0.34952724 -0.00014157593 -0.54546046
-0.41749626 0.031838976 -0.54538679
-0.38560149 0.035849914 -0.54477239
-0.36172578 0.023866126 -0.54390693
-0.42709625 -0.19402525 -0.50808048
-0.3902736 -0.19386497 -0.51105428
-0.35377422 -0.19381161 -0.51204443
-0.31760311 -0.19389991 -0.51040411
-0.28118891 -0.19388324 -0.51071382
-0.24521735 -0.1941188 -0.50634575
-0.48718327 -0.1453487 -0.51155305
-0.46250433 -0.15736568 -0.51423955
-0.42538354 -0.15714709 -0.5194869
-0.38860062 -0.15699559 -0.52312779
-0.35224754 -0.15695457 -0.52406597
-0.31614184 -0.15700072 -0.52305865
-0.28004068 -0.15705214 -0.52175546
-0.23208717 -0.15723801 -0.51743007
-0.19626029 -0.15749715 -0.51137924
-0.17209753 -0.14540145 -0.51017737
-0.58475554 -0.12119526 -0.50858808
-0.53649193 -0.12124068 -0.50711894
-0.49866897 -0.12098951 -0.51527309
-0.46110308 -0.12075435 -0.5229075
-0.42400202 -0.1205753 -0.52872443
-0.38720548 -0.12043752 -0.53319645
-0.3509253 -0.12039796 -0.53448534
-0.31489897 -0.12041824 -0.53382254
-0.27906248 -0.12050052 -0.53115273
-0.2312611 -0.12063555 -0.52676511
-0.19539595 -0.12076358 -0.52260756
-0.15969099 -0.12102062 -0.51426053
-0.546592 -0.096711531 -0.51794815
-0.4856329 -0.08459311 -0.52070761
-0.45967609 -0.084352925 -0.5317347
-0.42280206 -0.084261067 -0.53668642
-0.3861652 -0.084185049 -0.54070401
-0.3540709 -0.088174328 -0.54119968
-0.31405199 -0.084172986 -0.54115772
-0.27830824 -0.084227256 -0.53840351
-0.23065057 -0.084318832 -0.53366017
-0.19493023 -0.084415086 -0.5286572
-0.15923257 -0.084556706 -0.52128267
-0.58055323 -0.036185533 -0.52958369
-0.49249142 -0.040205918 -0.52775669
-0.45843214 -0.036143605 -0.53942966
-0.43413931 -0.048142102 -0.54113603
-0.27799779 -0.036134053 -0.54138398
-0.23435879 -0.040160272 -0.53704643
-0.20256199 -0.032152332 -0.53370285
-0.16288544 -0.040215723 -0.52692628
-0.55614829 -3.1232834e-05 -0.53113818
-0.47058117 -8.9447945e-05 -0.53870535
-0.31385761 -0.000121288 -0.54284096
-0.2780135 -0.00010905787 -0.54125452
-0.24233818 -8.0375001e-05 -0.53751326
-0.20658684 -4.9773604e-05 -0.53353119
-0.17072497 -2.2215769e-05 -0.52998829
-0.54433161 0.036133856 -0.52990198
-0.49986213 0.040118396 -0.53148484
-0.46618885 0.031916969 -0.54099703
-0.43391338 0.047891751 -0.54260349
-0.34592441 0.039897256 -0.54234171
-0.31412557 0.035932645 -0.54052019
-0.27816814 0.035946675 -0.53976703
-0.23053288 0.036038391 -0.53499055
-0.19479787 0.03612645 -0.53037643
-0.15895787 0.036221854 -0.52552176
-0.49635029 0.072327577 -0.52863574
-0.45851856 0.072011709 -0.53889513
-0.42205334 0.071926668 -0.5416553
-0.38610741 0.071943067 -0.54112124
-0.35023615 0.071980149 -0.53991961
-0.31428233 0.072003372 -0.53916216
-0.27847549 0.072076462 -0.53679156
-0.23081821 0.072231211 -0.53176403
-0.19504987 0.072374858 -0.52710295
-0.15919882 0.072535805 -0.52187085
-0.53589338 0.097144477 -0.51035905
-0.46091771 0.10868808 -0.52405477
-0.42368111 0.108424 -0.53081322
-0.38720798 0.10831704 -0.53317857
-0.35094526 0.10826755 -0.53433347
-0.31491122 0.10829174 -0.5337162
-0.27897298 0.10836255 -0.53200912
-0.23126054 0.10858466 -0.52676773
-0.19542378 0.10877571 -0.52224588
-0.1595646 0.10902812 -0.5162859
-0.12377381 0.12156672 -0.50670958
-0.4624846 0.14543636 -0.51436162
-0.38919118 0.1451937 -0.51886606
-0.35216925 0.14487851 -0.52471423
-0.31595501 0.14488059 -0.52467704
-0.27978271 0.14490472 -0.5242269
-0.23193201 0.14517623 -0.51918864
-0.19595408 0.14538272 -0.51535678
-0.160064 0.14574638 -0.50860929
-0.39078954 0.17009237 -0.50733089
-0.35377765 0.16980034 -0.51207352
-0.31687453 0.16951463 -0.51671314
-0.27679658 0.17777285 -0.51403666
-0.23252392 0.1697734 -0.51251197
-0.19645299 0.16999736 -0.50887585
-0.37134558 -0.26974028 -0.47039843
-0.34655491 -0.26959702 -0.47225833
-0.30963078 -0.26952556 -0.47318792
-0.27289945 -0.26958621 -0.47239804
-0.24863404 -0.26982042 -0.46935868
-0.50105047 -0.22833465 -0.47791719
-0.46753973 -0.2320995 -0.48309112
-0.43005836 -0.2317552 -0.48837566
-0.39293209 -0.23151872 -0.4918685
-0.35604054 -0.2313654 -0.49422216
-0.30725035 -0.23134488 -0.49451447
-0.27083069 -0.23143925 -0.49306989
-0.23473075 -0.23179972 -0.48755479
-0.19855559 -0.23219006 -0.48156261
-0.16624224 -0.22841053 -0.47675943
-0.12576559 -0.22065739 -0.46974659
-0.59283715 -0.19617361 -0.46820974
-0.46426135 -0.19427896 -0.50337076
-0.22128612 -0.19434378 -0.50217009
-0.19730319 -0.19457753 -0.49783111
-0.16132155 -0.19503434 -0.4893527
-0.12516731 -0.19549261 -0.48084903
-0.1009658 -0.19581869 -0.47479725
-0.61368716 -0.15855239 -0.48614812
-0.58015788 -0.16241224 -0.49087143
-0.51279336 -0.14564545 -0.50384188
-0.15652841 -0.16199178 -0.500772
-0.12446469 -0.15823439 -0.49388814
-0.09243083 -0.1627961 -0.48256636
-0.12391526 -0.12133401 -0.50408506
-0.12409627 0.14617112 -0.50072503
-0.10008025 0.14653529 -0.49396968
-0.51021647 0.18862581 -0.47221398
-0.46766812 0.19610395 -0.48229694
-0.42876154 0.18293154 -0.49706006
-0.39221993 0.19508483 -0.49700785
-0.35528702 0.19486734 -0.50014687
-0.31846255 0.1946723 -0.50296068
-0.29393244 0.19453141 -0.50499535
-0.2333979 0.19469783 -0.50259399
-0.19732432 0.19504672 -0.49755692
-0.16085801 0.18296158 -0.49646401
-0.12475449 0.18348335 -0.48851061
-0.092552155 0.17994301 -0.48010659
-0.47002572 0.22169667 -0.46771264
-0.43166825 0.22093138 -0.47765493
-0.39400253 0.22043175 -0.48414326
-0.35700983 0.22024143 -0.48661661
-0.30775332 0.21997747 -0.49004459
-0.27098399 0.21986267 -0.49153805
-0.23436749 0.21985084 -0.49169064
-0.19812748 0.22020227 -0.48712373
-0.16193207 0.22074845 -0.48003006
-0.12569371 0.22143744 -0.47108078
-0.38379219 0.24615517 -0.46917224
-0.34675539 0.2460317 -0.47063112
-0.30986619 0.24599162 -0.47110367
-0.27268717 0.24570268 -0.47451878
-0.23562941 0.24545395 -0.47745538
-0.19912522 0.24573267 -0.47416306
-0.17486747 0.24606842 -0.47019672
-0.45066285 -0.29739976 -0.43381262
-0.42396557 -0.29632631 -0.44648933
-0.38289124 -0.3047244 -0.44514608
-0.34970152 -0.30871698 -0.44671154
-0.31251192 -0.30865684 -0.44737101
-0.27552167 -0.30876076 -0.44619489
-0.23865461 -0.30901703 -0.44325638
-0.20122404 -0.29629171 -0.44689846
-0.1645854 -0.29692334 -0.43944049
-0.12786113 -0.29764986 -0.43085837
-0.45912445 -0.27062416 -0.45891809
-0.42124349 -0.27014807 -0.46510029
-0.39637828 -0.2700021 -0.46699786
-0.22437507 -0.27010265 -0.46569157
-0.20008187 -0.27040708 -0.46173549
-0.16355352 -0.27090666 -0.45524812
-0.12707315 -0.27165836 -0.4454813
-0.090405643 -0.27252957 -0.43416381
-0.60039574 -0.22307771 -0.43044496
-0.51966363 -0.2455502 -0.46503806
-0.1505646 -0.24548551 -0.46597123
-0.12635879 -0.24598651 -0.45873833
-0.089590654 -0.23403205 -0.45340824
-0.053012792 -0.23497432 -0.43899894
-0.028305169 -0.22280598 -0.43485975
-0.07678324 -0.19630176 -0.46583152
-0.052484427 -0.19682315 -0.4561584
-0.015776504 -0.19772354 -0.43944883
-0.052202854 -0.17172949 -0.46530271
-0.58731836 0.18978488 -0.45465207
-0.07673116 0.19715112 -0.46718431
-0.052362662 0.19764096 -0.46011257
-0.61099362 0.22386774 -0.43951154
-0.57257837 0.2233862 -0.44576478
-0.53415412 0.22282772 -0.45302057
-0.49543017 0.22207031 -0.46285796
-0.089396 0.22244152 -0.45803761
-0.052743394 0.22323358 -0.44774818
-0.028290886 0.22417809 -0.43547797
-0.53713888 0.24892145 -0.43650484
-0.49841571 0.24818262 -0.44522929
-0.46170115 0.26082236 -0.44264507
-0.4234919 0.26020592 -0.44972801
-0.38659403 0.27263948 -0.44846082
-0.3490552 0.27231634 -0.45195889
-0.31202808 0.27233726 -0.4517312
-0.27491501 0.27228886 -0.45225692
-0.23755142 0.27195945 -0.45582151
-0.20040524 0.27180114 -0.45753479
-0.15940791 0.26374137 -0.4559505
-0.12686229 0.26021603 -0.44939446
-0.094219819 0.25673541 -0.44197035
-0.053231154 0.24931085 -0.43190742
-0.37634119 0.29899469 -0.43222523
-0.35110661 0.29868644 -0.43530345
-0.31385383 0.29868829 -0.43528652
-0.27671477 0.29878992 -0.43427253
-0.2395035 0.29884699 -0.43370128
-0.20221673 0.29881674 -0.43400311
-0.16485198 0.29867646 -0.4354043
-0.35637155 -0.37637535 -0.39255786
-0.31826463 -0.3760241 -0.395818
-0.28056392 -0.37602484 -0.39581013
-0.24304077 -0.37625009 -0.39372063
-0.39196703 -0.34961575 -0.40853548
-0.35352302 -0.34890014 -0.41568494
-0.31587335 -0.3487446 -0.41724062
-0.27839676 -0.34872207 -0.41746521
-0.24111846 -0.34892517 -0.41543555
-0.20390388 -0.34926027 -0.41208625
-0.16686231 -0.35000604 -0.40463519
-0.12986536 -0.35110384 -0.39366436
-0.42758557 -0.32335812 -0.42173958
-0.40194389 -0.32288781 -0.42683148
-0.20256652 -0.32264501 -0.42945886
-0.16571674 -0.32331935 -0.42215967
-0.12884668 -0.32420549 -0.41256881
-0.09140487 -0.3119137 -0.41054916
-0.054035995 -0.29977432 -0.40576982
-0.029244896 -0.30075693 -0.39416814
-0.053595971 -0.27361536 -0.42005968
-0.016463529 -0.27487302 -0.40372276
-0.012004465 -0.24035749 -0.42007375
0.021137564 -0.2371804 -0.40531373
0.046200093 -0.22515981 -0.39663815
-0.65123242 0.2249577 -0.42534852
-0.0036295354 0.22502296 -0.42450285
0.021172971 0.2261461 -0.40991378
-0.65587735 0.25169095 -0.40379882
-0.61254972 0.25943097 -0.41131282
-0.57853234 0.26329041 -0.41482711
-0.54050666 0.27546105 -0.41791606
-0.50152606 0.27463457 -0.42686296
-0.078310117 0.27469924 -0.42616177
-0.053699065 0.2755723 -0.41671157
-0.01639862 0.26396433 -0.40707493
-0.53211647 0.3027494 -0.39470458
-0.50542396 0.30183464 -0.40384698
-0.46622843 0.30082291 -0.4139564
-0.42788973 0.3002522 -0.41965938
-0.40231079 0.29979944 -0.42418361
-0.12800516 0.29939887 -0.42818522
-0.091216311 0.30071563 -0.41502929
-0.054217782 0.30223307 -0.39986563
-0.45688671 0.32803556 -0.39338756
-0.43100536 0.32749996 -0.39835811
-0.39204326 0.32646152 -0.40799379
-0.35416046 0.32619062 -0.41050935
-0.31619808 0.32577032 -0.41440773
-0.27883208 0.32590953 -0.41311502
-0.24163327 0.32627627 -0.40971208
-0.20401162 0.32617134 -0.41068697
-0.16693205 0.32691884 -0.4037497
-0.38565713 -0.40517569 -0.36103797
-0.34668726 -0.40433279 -0.36833811
-0.30851606 -0.40417832 -0.36967635
-0.2703909 -0.40403637 -0.37090564
-0.23268867 -0.40442798 -0.3675127
-0.1950537 -0.40506878 -0.3619647
-0.15743229 -0.40593579 -0.35445428
-0.42122763 -0.3778424 -0.37894607
-0.38190323 -0.37668091 -0.38972306
-0.20564672 -0.37671068 -0.38944602
-0.16831294 -0.37746227 -0.38247204
-0.11853413 -0.37896898 -0.36849165
-0.081051543 -0.38042986 -0.35493731
-0.092615992 -0.35228002 -0.38191175
-0.038354207 -0.34546906 -0.36573672
-0.0045880005 -0.32885373 -0.3622489
-0.054585863 -0.32648301 -0.38791203
-0.0042981468 -0.30186555 -0.38107491
0.020827981 -0.30321839 -0.365098
0.020959424 -0.27653193 -0.38217282
0.054660905 -0.26052856 -0.37087083
0.071473084 -0.22630911 -0.37797403
0.097088188 -0.22767763 -0.35575318
0.096911974 -0.20161681 -0.36719847
0.12251456 0.17938009 -0.35651875
0.058862559 0.22833556 -0.38146901
0.096904851 0.20404603 -0.36766148
-0.63428831 0.2783142 -0.3870306
0.021034103 0.25270072 -0.39187384
0.046200093 0.25419366 -0.37424207
-0.68921816 0.28018585 -0.36676836
-0.65067869 0.29270145 -0.36892748
-0.61272043 0.30533519 -0.3688674
-0.58568162 0.30445346 -0.37767839
-0.55782276 0.30305383 -0.39166212
-0.01688147 0.30406055 -0.38160419
0.020931778 0.27909482 -0.37858129
0.046200093 0.28103736 -0.35754967
-0.56334281 0.33144143 -0.36178422
-0.53610986 0.33032459 -0.37215042
-0.50949997 0.32950225 -0.37977934
-0.48253065 0.32836196 -0.39035869
-0.35706639 0.35393724 -0.38691592
-0.31900868 0.35367441 -0.38919282
-0.28123668 0.35368645 -0.3890872
-0.25625882 0.35394862 -0.38681817
-0.13003734 0.3283498 -0.39047289
-0.092502385 0.32897225 -0.38469744
-0.042612489 0.33123985 -0.36365724
-0.48756313 0.35713437 -0.35922837
-0.46066439 0.35602337 -0.36885095
-0.42136744 0.35497668 -0.37791491
-0.38442907 0.36855495 -0.37042212
-0.34760013 0.38237774 -0.36063957
-0.30946851 0.38235325 -0.36083865
-0.27131963 0.38230529 -0.36122847
-0.23244283 0.36855865 -0.37041569
-0.19378281 0.35480884 -0.37936783
-0.15623294 0.35543695 -0.37392902
-0.11880854 0.35669219 -0.36305761
-0.46602142 -0.40829134 -0.33405614
-0.42253423 -0.41620827 -0.33967209
-0.38954821 -0.43424124 -0.33130479
-0.35063311 -0.43375096 -0.33528519
-0.31179783 -0.43326575 -0.33922529
-0.27326173 -0.43303081 -0.34113193
-0.23502135 -0.43317455 -0.33996487
-0.19702761 -0.43378624 -0.33499885
-0.15913814 -0.43480164 -0.32675481
-0.12442826 -0.41658959 -0.33642888
-0.081988484 -0.4086909 -0.33059525
-0.0567546 -0.41020525 -0.31748033
-0.043338004 -0.38238013 -0.33683968
-0.0049839169 -0.35682115 -0.33653307
0.020574199 -0.34449545 -0.33213043
0.046200093 -0.33234403 -0.32446599
0.059034973 -0.30560225 -0.33694601
0.071703605 -0.27916044 -0.34802818
0.097462609 -0.26765582 -0.33143401
0.12314604 -0.22931439 -0.329175
0.13146225 -0.18604662 -0.33973622
0.14859301 -0.15211634 -0.33572483
0.17462195 -0.10117839 -0.32453394
0.14848003 0.15486474 -0.33939338
0.17485611 0.13026194 -0.31845069
0.14883272 0.18113995 -0.32793951
0.0971976 0.23086232 -0.34864688
0.12311414 0.21947478 -0.33055615
-0.77197737 0.25712344 -0.33964562
0.071671724 0.25606284 -0.35217023
0.097511455 0.25808734 -0.32826138
-0.75059873 0.28431314 -0.32208943
-0.71920663 0.28203768 -0.34672332
-0.69797713 0.30947152 -0.32753348
-0.66823727 0.307578 -0.34645557
0.020730777 0.30697611 -0.35247064
0.059027284 0.29641664 -0.32980824
-0.61934704 0.33424643 -0.33575845
-0.59105968 0.33274028 -0.34973311
-0.0049065128 0.33362111 -0.3415606
0.020516895 0.33543968 -0.32468677
-0.5701465 0.36109138 -0.32495761
-0.54243392 0.35976678 -0.33643246
-0.50413686 0.37271938 -0.33555961
-0.46610713 0.3857207 -0.33349919
-0.42565835 0.3839553 -0.34783101
-0.19572449 0.38333464 -0.35287046
-0.1579888 0.38425261 -0.34541726
-0.12024523 0.38562259 -0.33429599
-0.081806585 0.37275308 -0.33532095
-0.043394115 0.35993683 -0.33495808
-0.39076081 0.41283578 -0.32203841
-0.35161531 0.41218534 -0.32700849
-0.31298128 0.41202369 -0.32824421
-0.2745901 0.41215551 -0.32723665
-0.23636392 0.41256467 -0.32410955
-0.19804651 0.41295147 -0.32115507
-0.50040185 -0.44058374 -0.27980947
-0.39491013 -0.46523547 -0.29033208
-0.35505852 -0.46420616 -0.29819751
-0.31580475 -0.46370262 -0.30204535
-0.27680233 -0.46340469 -0.30432153
-0.2379095 -0.46320385 -0.30585742
-0.19952655 -0.46385795 -0.30085802
-0.16119692 -0.46484393 -0.29332447
-0.13563055 -0.46571392 -0.28667569
-0.47344965 -0.43984494 -0.28580832
-0.44485098 -0.43764192 -0.3036952
-0.10852517 -0.43672591 -0.31113195
-0.083197281 -0.43819678 -0.29918957
-0.044558767 -0.42594332 -0.29371691
-0.0057862625 -0.41402295 -0.28441882
-0.0053308085 -0.38484144 -0.3140018
0.020285705 -0.38692677 -0.29465413
0.059126522 -0.34742016 -0.30130553
0.097971775 -0.30886942 -0.29836273
0.13259816 -0.26593328 -0.29553509
0.14973284 -0.23119079 -0.29870725
0.14929712 -0.20454477 -0.31285787
0.17610145 -0.19302495 -0.28609586
0.17538507 -0.15331016 -0.30470777
0.17495644 -0.12713021 -0.31584454
0.20201649 -0.1020334 -0.28750801
0.20164017 -0.075938649 -0.29565549
0.20124352 -0.037053339 -0.30424309
0.20110245 0.001691984 -0.30729795
0.20118403 0.027536174 -0.3055315
0.20141856 0.066425487 -0.30045366
0.20176062 0.10550866 -0.2930479
0.17534876 0.15668286 -0.30565143
0.20215999 0.13183469 -0.28440166
0.17589776 0.1833912 -0.2913878
-0.78392887 0.23529035 -0.2911284
0.14980173 0.22197315 -0.29646993
0.12394804 0.2609506 -0.29444695
-0.73173428 0.31297982 -0.29247761
0.072048724 0.31190705 -0.30319667
0.097934142 0.28627902 -0.30080724
-0.68024862 0.33909926 -0.29073048
-0.64906287 0.3363817 -0.31594634
0.046200093 0.33797225 -0.30118561
-0.61427867 0.36436608 -0.29659986
-0.53562558 0.38959426 -0.30204964
-0.044271458 0.38959795 -0.3020184
-0.0053486861 0.36249065 -0.3128407
0.020275999 0.36473641 -0.29339314
-0.47275311 0.41698506 -0.29033208
-0.43114641 0.41449934 -0.30932736
-0.15989828 0.41383392 -0.3144114
-0.12177224 0.4152303 -0.30374074
-0.083564192 0.41707343 -0.28965712
-0.37000769 0.44410852 -0.28184581
-0.343427 0.44342732 -0.28676224
-0.31718844 0.44308871 -0.28920674
-0.27827841 0.44312471 -0.28894687
-0.2395044 0.44339144 -0.28702235
-0.20083062 0.44395104 -0.2829833
-0.37484837 -0.4978047 -0.24254441
-0.34765083 -0.49674627 -0.25018358
-0.32071334 -0.49587107 -0.25649977
-0.28083417 -0.49504665 -0.26244903
-0.24155614 -0.49499902 -0.26279306
-0.20261006 -0.49555549 -0.25877643
-0.16369009 -0.49637803 -0.25284028
-0.13793477 -0.49761492 -0.2439146
-0.45107803 -0.46905825 -0.26112056
-0.42259604 -0.46687719 -0.27778745
-0.11007738 -0.46691135 -0.2775259
-0.084460199 -0.46837014 -0.2663784
-0.045451019 -0.45605642 -0.26074934
-0.0062686391 -0.44387519 -0.253088
0.020074792 -0.41600463 -0.26725602
0.046200093 -0.41897756 -0.24151111
0.059345126 -0.39061096 -0.26046753
0.098758072 -0.36575192 -0.2472918
0.072251305 -0.36279082 -0.2768805
0.098322406 -0.33685917 -0.27558851
0.12517342 -0.34001842 -0.24138641
0.12454359 -0.31138465 -0.26865935
0.15103903 -0.2862227 -0.25628757
0.17707902 -0.23353164 -0.26069736
0.20367335 -0.18159845 -0.25163627
0.20297946 -0.15477471 -0.26665878
0.21639922 -0.11566714 -0.26091576
0.2299208 -0.076616824 -0.25160074
0.22940175 -0.03722094 -0.26123285
0.22913301 0.0020079091 -0.26622033
0.22922578 0.028167801 -0.26449847
0.2295167 0.067545198 -0.25909972
0.23007841 0.10721654 -0.2486763
0.20276894 0.1585384 -0.27121735
0.20364881 0.18580635 -0.25216746
-0.81511533 0.23687944 -0.27048182
0.17704721 0.22453189 -0.26152468
-0.81694794 0.26359105 -0.26326776
0.15096024 0.26396537 -0.25884676
-0.7910521 0.28984448 -0.2622118
0.098365724 0.31495133 -0.27277446
0.12459667 0.2894614 -0.26636052
-0.7139492 0.34284356 -0.25598764
0.072284125 0.34105149 -0.2726171
-0.66292685 0.36983436 -0.24924397
0.046200093 0.36779484 -0.26690507
-0.57975525 0.39317846 -0.27294946
-0.53095293 0.42185694 -0.25310564
-0.50108141 0.41891217 -0.27560616
-0.045218784 0.42006162 -0.26682377
-0.0059125423 0.39277616 -0.27621722
0.019952781 0.39583182 -0.25140572
-0.45210537 0.44795397 -0.25409603
-0.42408934 0.44616431 -0.26701021
-0.396819 0.44495383 -0.27574563
-0.16233003 0.44506767 -0.27492476
-0.12373528 0.44651577 -0.26447415
-0.085224241 0.44900236 -0.24652791
-0.26968664 0.47602898 -0.24145746
-0.24337178 0.47604465 -0.24135089
-0.27314073 -0.52974808 -0.20406651
-0.23314878 -0.52961373 -0.20498586
-0.1933257 -0.5297907 -0.20377517
-0.43176383 -0.50208914 -0.21162438
-0.40278453 -0.49952072 -0.23016071
-0.11216241 -0.49921268 -0.23238301
-0.086405277 -0.50150466 -0.21584344
-0.48329866 -0.47419915 -0.22183681
-0.03300475 -0.47295272 -0.23136187
-0.0069877952 -0.47622228 -0.20637751
0.019767679 -0.44704369 -0.22736073
0.072777249 -0.42278251 -0.20855808
0.099364758 -0.39627784 -0.20788574
0.15191261 -0.31483459 -0.22791743
0.17913973 -0.29000431 -0.20715928
0.17799261 -0.26135164 -0.23696208
0.20559262 -0.23664863 -0.21008301
0.20457669 -0.20889772 -0.23207879
0.23183106 -0.15671872 -0.21615052
0.23111671 -0.12979184 -0.22940731
0.2589176 -0.037429675 -0.20693016
0.25870556 0.0024380088 -0.2103734
0.25876144 0.029015152 -0.20946598
0.25896621 0.05566217 -0.206141
0.23106459 0.14756607 -0.23037434
0.20467852 0.21359251 -0.22987366
0.17880479 0.2676051 -0.21586132
0.15193695 0.29308522 -0.22712708
0.098906375 0.34481892 -0.2376585
0.12532307 0.31874132 -0.23490691
0.07259798 0.37184316 -0.23184562
-0.61209279 0.39718223 -0.24044204
-0.56275856 0.42597464 -0.22163868
-0.0066003762 0.42467883 -0.23154092
0.046200093 0.39957166 -0.22104359
-0.51191431 0.45425868 -0.20859432
-0.48126709 0.45059538 -0.2350316
-0.04657254 0.45323792 -0.21596074
-0.39118442 0.47951168 -0.21764612
-0.34998351 0.47770745 -0.22998142
-0.30970809 0.47677284 -0.23637152
-0.20426944 0.47683311 -0.23595977
-0.16538984 0.47840106 -0.22523952
-0.13943574 0.47974366 -0.21606016
-0.35537446 -0.53278625 -0.18329406
-0.31357318 -0.5304631 -0.1991787
-0.16720295 -0.53095746 -0.1957984
-0.12798931 -0.53337544 -0.17926693
-0.46286565 -0.50639802 -0.18052816
-0.047375578 -0.50560963 -0.18621707
0.019350348 -0.48057082 -0.17314839
0.046200093 -0.45060036 -0.19848585
0.12609042 -0.37031665 -0.20167947
0.1530935 -0.34480551 -0.18956661
0.18069111 -0.32000536 -0.16685319
0.20700119 -0.2653268 -0.17958641
0.23350973 -0.19810398 -0.18499851
0.2604095 -0.10445372 -0.18270469
0.25970346 -0.077501141 -0.19416928
0.25949842 0.082523905 -0.19749928
0.26010457 0.10956519 -0.18765616
0.26076996 0.13680226 -0.17685103
0.23281839 0.18915291 -0.19782805
0.20629972 0.24270743 -0.19477367
0.18026501 0.29763058 -0.17792344
0.13973999 0.33663332 -0.18955636
0.099702828 0.37714541 -0.18592763
-0.64812589 0.40315256 -0.19197035
0.019550178 0.42892361 -0.19910669
0.073021755 0.40502158 -0.17679548
-0.59700429 0.43147793 -0.17958617
-0.46403182 0.48610681 -0.17255497
-0.43394917 0.48269928 -0.19585299
-0.11359993 0.48190826 -0.20126033
-0.087751791 0.48489201 -0.18086004
-0.30363482 0.51408231 -0.16527128
-0.27627271 0.51332945 -0.17016125
-0.23598042 0.51335812 -0.16997552
-0.41449568 -0.53902048 -0.14067125
-0.38453805 -0.53562665 -0.16387439
-0.088934094 -0.53763503 -0.15014338
-0.0080337338 -0.51222962 -0.13844132
0.073288217 -0.45753542 -0.14218092
0.10018186 -0.42898843 -0.15481329
0.12729578 -0.40257174 -0.14948559
0.1548164 -0.37712836 -0.13361382
0.20904493 -0.29553342 -0.13533807
0.23581089 -0.24082328 -0.14229417
0.26277623 -0.1594853 -0.144274
0.26149803 -0.13177419 -0.16502905
0.29051852 -0.024125271 -0.13459945
0.29044631 0.0030132774 -0.13564134
0.29052639 0.030169634 -0.13448572
0.26221833 0.16489094 -0.15333295
-0.86927938 0.19128166 -0.16325903
0.23467012 0.21819344 -0.16346431
-0.86941117 0.24517238 -0.16275597
0.20812984 0.272746 -0.15515041
0.14127693 0.36981335 -0.13186693
-0.54595441 0.46036506 -0.16452646
-0.0076625496 0.46063861 -0.16255093
0.046200093 0.4353928 -0.14967346
-0.061844822 0.48908818 -0.15217042
-0.35959315 0.51693267 -0.14675927
-0.33124074 0.5150761 -0.15881729
-0.19624901 0.5146507 -0.16158056
-0.15697578 0.51776701 -0.14133835
-0.31000185 -0.57212824 -0.10164857
-0.28145558 -0.57021803 -0.1140554
-0.24023318 -0.56973028 -0.11722302
-0.19954966 -0.57023561 -0.11394024
-0.1727553 -0.57151383 -0.10563922
-0.062897012 -0.54233658 -0.11799955
0.046200093 -0.48745286 -0.12056065
0.18278308 -0.35192448 -0.11250186
0.26485702 -0.1881178 -0.11048627
0.29254091 -0.078867517 -0.10540819
0.29132983 -0.051361877 -0.12288904
0.29182461 0.07140933 -0.11574721
0.26456875 0.19424355 -0.1151669
0.23687607 0.24826908 -0.12252688
0.21074109 0.30495682 -0.098614693
0.18242808 0.33006772 -0.12172484
0.10067601 0.41168231 -0.12271714
0.073577084 0.44128385 -0.1046567
-0.49799871 0.49286383 -0.1263566
-0.035999026 0.4964692 -0.10170579
0.018843265 0.4682979 -0.10727572
-0.42106205 0.52559513 -0.090494633
-0.39003056 0.52116328 -0.11928034
-0.11820795 0.5239017 -0.10149384
-0.14758511 -0.57779729 -0.064826965
-0.50731117 -0.52228522 -0.065871
-0.45333639 -0.55141366 -0.055938005
-0.036935892 -0.5506531 -0.061138391
0.21221437 -0.32848483 -0.066717863
0.23879914 -0.2717526 -0.086839437
0.26813221 -0.21831585 -0.057303905
0.29595324 -0.10737628 -0.056155682
0.29402041 0.11355307 -0.084053516
0.24054433 0.28127304 -0.054451942
0.15706813 0.39163002 -0.060486794
0.12931921 0.41917691 -0.061868668
0.10135604 0.44470045 -0.078547955
0.12951566 0.44799632 -0.053362131
0.046200093 0.47408149 -0.065536022
-0.34423047 -0.58188325 -0.03828764
0.018276744 -0.5267455 -0.033682585
0.29863611 -0.13631909 -0.017431974
0.2986193 0.14415441 -0.017674446
0.26860353 0.22607884 -0.049649715
0.18519385 0.36505753 -0.049868345
0.15798306 0.4230068 -0.03077364
0.15779172 0.45013925 -0.036987543
0.18623321 0.45198756 -0.022865057
0.21465631 0.45316753 -0.013848066
0.074004963 0.47636247 -0.049073219
0.1019147 0.47730619 -0.042262316
0.1440112 0.47881144 -0.031399727
0.30073163 -0.16553171 0.012814045
0.32893404 -0.038274944 0.011789083
0.32873771 0.0041287653 0.0092391968
0.32941878 0.032518618 0.018086433
0.21552762 0.34275094 0.0050163269
0.25820771 0.45634511 0.010432959
0.1866677 0.48155797 -0.011576891
0.21519722 0.48286653 -0.0021367073
0.25838074 0.48504508 0.013587713
-0.01025692 0.51221675 0.0059585571
0.27529591 -0.25322112 0.059020758
0.30328739 -0.19551663 0.04970336
0.33253744 -0.13866028 0.058598995
0.33101851 -0.10957073 0.03886795
0.32990062 -0.080865182 0.024345636
0.33047205 0.06115631 0.031769037
0.3314994 0.089994632 0.045114756
0.30350417 0.17600004 0.052831888
0.3023504 0.45971426 0.036179066
0.33214203 0.46197602 0.053462744
0.3022927 0.4880603 0.035346508
0.3318446 0.49003494 0.049598694
0.074702665 0.51742369 0.041560411
0.10336551 0.51894641 0.05197072
0.13207209 0.51973075 0.057334661
-0.55774719 -0.51303494 0.074923277
0.30601963 -0.22620721 0.089139938
0.3341957 -0.1681229 0.080140591
0.36323744 -0.11059009 0.083000422
0.36238071 -0.081612676 0.072882891
0.36172733 -0.038472861 0.065167427
0.39355105 -0.024125271 0.099152088
0.36182049 0.0045676567 0.066267252
0.3624005 0.033365853 0.073116779
0.36307293 0.062294789 0.081057787
0.33302671 0.11928818 0.064955235
0.36425707 0.091532104 0.09504199
0.33508492 0.14920571 0.091691732
0.36251926 0.46473175 0.074519396
0.39316738 0.46741188 0.094999075
0.36180615 0.49232101 0.066097736
0.39243427 0.49522614 0.087063074
0.17536923 0.52122331 0.0675385
0.21891083 0.52279216 0.07826519
0.24818504 0.52411979 0.08734107
0.27761096 0.52547568 0.096611738
-0.7631216 0.58286613 0.093752861
0.3361426 -0.19809069 0.10543156
0.36553854 -0.15480188 0.11017537
0.39663684 -0.14093746 0.13255715
0.39531311 -0.11140351 0.11822724
0.39421499 -0.082127646 0.10633945
0.42585745 -0.082533963 0.13273239
0.39372027 -0.05308532 0.10098433
0.42517179 -0.038703635 0.12588143
0.39377606 0.0048395116 0.10158801
0.42528552 0.0050352886 0.12701774
0.39423895 0.033881277 0.10659885
0.42587286 0.034286015 0.13288617
0.39505601 0.063088946 0.11544418
0.36576036 0.12112952 0.11279511
0.39640406 0.092609383 0.13003707
0.36762518 0.15119775 0.13481712
0.33761925 0.17986813 0.12461424
0.30767202 0.2082945 0.11299014
-0.74239653 0.44319126 0.13310552
0.42365175 0.48397762 0.11069155
0.45515072 0.48705357 0.1335566
0.30735666 0.52720535 0.10843801
0.33756718 0.52947223 0.12393737
-0.73908263 0.55756569 0.11716127
0.25189126 -0.31796983 0.1561203
0.29496765 -0.27290258 0.140908
0.33871087 -0.22888283 0.13879466
0.36846197 -0.19990429 0.14469957
0.4005819 -0.20131609 0.17526364
0.39834657 -0.17085296 0.15106583
0.42836469 -0.14171448 0.15778613
0.44270769 -0.11222859 0.1539557
0.45761833 -0.082899138 0.15645361
0.48917735 -0.08318869 0.17526364
0.45703289 -0.053470559 0.15102124
0.48838651 -0.038867854 0.16841459
0.45696014 -0.0094517805 0.15034628
0.48856458 0.0053660907 0.16995668
0.45763749 0.034651637 0.15663147
0.44263697 0.063962497 0.15327907
0.3979339 0.12243053 0.1465981
0.42885602 0.10836201 0.16269588
0.3999038 0.15272665 0.16792297
0.37052122 0.18226129 0.16901779
0.3414337 0.21206193 0.17416525
-0.74430901 0.48824328 0.1423068
0.48653412 0.47492003 0.1523726
0.36857042 0.53269643 0.14597988
0.48757014 0.50551897 0.16134477
-0.74369329 0.59023666 0.13934493
0.31420463 -0.29212981 0.20728016
0.3423318 -0.26103052 0.18583155
0.37112987 -0.23089886 0.17620564
0.40329954 -0.23243318 0.20468283
0.43252766 -0.20243023 0.19938493
0.45069167 -0.16224949 0.18353796
0.49228936 -0.15797803 0.20221448
0.52267504 -0.14324395 0.20746255
0.67179865 -0.15819167 0.20885563
0.70137632 -0.14324835 0.20759964
0.49011403 -0.11290795 0.1833756
0.52125269 -0.11319751 0.19591427
0.55243981 -0.11346158 0.20734882
0.67085928 -0.11336229 0.2030437
0.70021212 -0.11330875 0.20072532
0.73148429 -0.11351016 0.20944762
0.52029425 -0.083387062 0.188133
0.55132335 -0.083551504 0.19881725
0.58264548 -0.083730035 0.21042895
0.67048806 -0.083581373 0.20074821
0.69925159 -0.083493344 0.19505286
0.73062456 -0.083640322 0.20459199
0.51961547 -0.038922966 0.18262172
0.55093157 -0.053815112 0.19582343
0.58214754 -0.039013077 0.20683551
0.64265513 -0.053947773 0.21305704
0.67023283 -0.038983829 0.1991694
0.69865161 -0.038955428 0.19151068
0.75097078 -0.04396978 0.20728588
0.52011359 0.0054943543 0.18666625
0.55115569 -0.0092661483 0.19753647
0.58267713 0.0056790859 0.2106576
0.67042559 0.0055999625 0.20036149
0.69907123 0.0055508222 0.19398832
0.74064058 -0.0042715929 0.20502424
0.48931465 0.034956865 0.1764524
0.52072281 0.035190284 0.19161224
0.55192417 0.035371855 0.20340824
0.67086291 0.035366677 0.20306683
0.69942421 0.035258926 0.19607306
0.73115712 0.035436325 0.20759964
0.4902181 0.064678371 0.18427682
0.52171934 0.06503465 0.19970322
0.55313003 0.065332994 0.21262288
0.67137086 0.065184891 0.20620918
0.70058173 0.065108813 0.20290756
-0.84540373 0.094755374 0.19972587
0.46065748 0.1091237 0.18465328
0.49236724 0.10975488 0.20288897
0.52317828 0.095119312 0.21154809
0.67176157 0.095029481 0.20862556
0.70174724 0.095065214 0.20978975
0.43163669 0.15376864 0.19048214
0.40282482 0.18390594 0.19954395
0.31267488 0.24234992 0.18520069
0.5206393 0.45031407 0.19093418
0.55316889 0.45302203 0.21291995
0.51905465 0.47828275 0.17806864
0.40063995 0.53707123 0.17589164
-0.61538315 -0.4451327 0.24543118
-0.58160073 -0.47255424 0.22247815
0.34714007 -0.29497111 0.24829292
-0.7666477 -0.26496905 0.24978375
0.37475652 -0.26307532 0.21903467
0.40694773 -0.2646237 0.24417615
0.64793313 -0.26481858 0.24733877
0.43519771 -0.2335854 0.22606635
0.4666121 -0.2343311 0.23990488
0.6469422 -0.23438497 0.24090242
0.67625642 -0.234144 0.23643064
0.70756692 -0.23456001 0.24415255
0.47968549 -0.2034893 0.22231436
0.52657104 -0.20426436 0.23909378
0.55786514 -0.20471282 0.24880528
0.64589757 -0.20403454 0.23411751
0.67418665 -0.20355 0.22362781
0.70508915 -0.2038222 0.22952247
0.73649538 -0.20420225 0.23774981
0.52430952 -0.17353454 0.22073293
0.55479777 -0.15878209 0.22536659
0.58596277 -0.1590894 0.23436952
0.63054073 -0.15899016 0.23184156
0.70313048 -0.17342758 0.21795678
0.74390477 -0.15370627 0.22325778
0.76681644 -0.17425363 0.23941827
0.58366948 -0.11370346 0.21781921
0.62933385 -0.11383995 0.22373366
0.7629742 -0.11372206 0.21862173
0.79893565 -0.11445332 0.25029612
0.62851477 -0.083850466 0.21824431
0.7620433 -0.083778955 0.21358299
0.79633838 -0.084136128 0.23680067
0.61338145 -0.053976849 0.21681118
0.79485339 -0.039101891 0.22908473
0.61319715 -0.024125045 0.2155509
0.63329118 -0.0042167399 0.21690369
0.79503095 0.0058281999 0.23000693
-0.84940225 0.035581835 0.21704006
0.58345038 0.035569437 0.21623826
0.62937474 0.035688512 0.22397351
0.76267356 0.035581157 0.21699405
0.79632944 0.035885252 0.23675489
0.58469427 0.065624006 0.22521472
0.63033378 0.065742917 0.23036575
0.74804348 0.065469429 0.21852517
0.79807091 0.066099301 0.24580288
0.5249154 0.12547337 0.22565198
0.55551541 0.11072069 0.23085046
0.58703041 0.11110897 0.24207473
0.63618201 0.1058732 0.23604894
0.67321068 0.12516318 0.21758986
0.7037133 0.12530971 0.22139859
0.73449951 0.11056424 0.22647786
0.76672769 0.11099315 0.23893809
0.47986981 0.15531012 0.2238555
0.52740312 0.15632603 0.24584985
0.64669943 0.15602463 0.23932552
0.67488253 0.15549828 0.22793198
0.7061258 0.15585457 0.23564363
0.73820132 0.15639693 0.24738503
0.43513095 0.18529904 0.22539878
0.46721011 0.18638003 0.24545431
0.64753562 0.18634228 0.24475694
0.67733949 0.18625459 0.24313045
0.37488672 0.21491957 0.22057199
0.4066925 0.21620309 0.24141288
0.34726742 0.24683541 0.24994731
0.52612323 0.42580277 0.23545861
0.55514556 0.42494449 0.22802401
0.49359155 0.45309237 0.21349144
-0.59196204 -0.4495666 0.28657246
-0.68312371 -0.35839853 0.28654861
-0.7407766 -0.29654035 0.27094007
0.28778234 -0.32610306 0.26177502
0.37976328 -0.29704055 0.27816153
0.62224406 -0.29698804 0.27740502
0.66716468 -0.29673725 0.2737844
0.71457404 -0.29755092 0.28552818
0.43861181 -0.26560935 0.26018119
0.47019559 -0.26640823 0.27315545
0.50164396 -0.2670286 0.28322768
0.62079245 -0.26605883 0.26748085
0.67924869 -0.26528656 0.25494075
0.71081346 -0.26580289 0.26332307
0.74317771 -0.26655218 0.27549171
0.49797332 -0.23495269 0.25143909
0.52937901 -0.23551589 0.26189208
0.56061083 -0.23594126 0.26978636
0.59150714 -0.23618911 0.27438259
0.62007803 -0.23555388 0.26259589
0.73948526 -0.23512502 0.25463676
0.58891034 -0.20502864 0.2556417
0.61914635 -0.20505568 0.25622606
0.7695936 -0.20497352 0.25444984
-0.8045395 -0.14565933 0.28590798
-0.83151335 0.066672772 0.27063394
-0.82876158 0.12673029 0.25830793
0.61871243 0.1265361 0.25325918
0.80077481 0.09660697 0.2598536
-0.8031655 0.15788199 0.27953339
0.559219 0.15694052 0.25915074
0.59044003 0.15728834 0.26668143
0.62047625 0.15722534 0.26531863
0.77088189 0.15704545 0.26142335
-0.80090731 0.18765162 0.2690568
0.49886113 0.1871167 0.25912714
0.53085929 0.18791345 0.27391052
0.56227988 0.18837838 0.28254008
0.59296602 0.18850596 0.28491163
0.62138808 0.18778631 0.2715528
0.70941764 0.18689884 0.25508094
0.74165106 0.18753384 0.26686954
0.77549756 0.18858667 0.28640652
-0.77389461 0.21886586 0.28465009
0.43869615 0.21741089 0.26102471
0.47034559 0.21824348 0.27454758
0.63644207 0.21803604 0.27117538
0.68144321 0.21787232 0.26851535
0.71323842 0.21843408 0.2776413
-0.76866269 0.2474958 0.25947881
0.37838167 0.24765989 0.26184535
0.40922657 0.24814466 0.26884508
0.44029289 0.24870843 0.27697992
0.62381774 0.24948308 0.2881639
0.65403569 0.24940091 0.28697634
0.44116735 0.2796959 0.2857182
0.47124273 0.27947667 0.28287196
0.50192881 0.31007585 0.28569412
0.51657265 0.34004557 0.2812295
0.52988786 0.36887127 0.26602316
0.56186467 0.37020671 0.27936769
0.51464659 0.39901903 0.26525736
0.55893421 0.39812648 0.25697446
0.50022787 0.42990273 0.27096343
-0.56663048 -0.45310658 0.31941962
-0.62404388 -0.42017838 0.29656982
-0.6543321 -0.3896203 0.29556799
-0.69007182 -0.33090517 0.32415652
0.3216114 -0.33013785 0.314188
0.59726989 -0.34561056 0.31597209
0.62672508 -0.3450048 0.30804181
0.67140913 -0.329099 0.30069351
0.72013801 -0.33046064 0.31838226
-0.71796584 -0.29922476 0.30969095
0.41169295 -0.29824474 0.29554415
0.44313654 -0.29892722 0.30539536
0.47482541 -0.29967007 0.3161149
0.50615776 -0.30009994 0.32231855
0.59477669 -0.29841357 0.29797816
0.5329048 -0.26747775 0.29051805
0.56399411 -0.267793 0.29563928
0.59363747 -0.26743075 0.28975677
-0.78221649 -0.14685348 0.32468891
-0.80867279 -0.085187487 0.30508375
-0.80957258 0.037001297 0.30925822
-0.80959332 0.067567006 0.30935454
-0.80741411 0.097819835 0.29924464
-0.80704343 0.12823971 0.29752469
-0.78019905 0.15951931 0.31498289
-0.77798223 0.1895518 0.30431747
0.51828492 0.21951975 0.29526687
0.56582981 0.22040661 0.30966663
0.59572136 0.22010657 0.30479622
0.74557292 0.21913512 0.28902006
0.472036 0.24962646 0.2902329
0.50474405 0.25100151 0.31007504
0.59748685 0.25151804 0.31753731
0.68567377 0.24993494 0.2946856
0.71774793 0.25059912 0.30426908
0.75143862 0.25183782 0.32214952
0.29059717 0.28137121 0.30748177
0.32182679 0.28212693 0.3172965
0.36693478 0.28135312 0.3072474
0.41178772 0.2805312 0.29656982
0.4728193 0.31107572 0.29750109
0.50348514 0.28073159 0.29917288
0.62824446 0.28221416 0.31842995
0.65936542 0.2824575 0.32159352
0.50243634 0.37127963 0.29008937
-0.59876233 -0.42338753 0.32863784
-0.57207125 -0.42600149 0.35475802
-0.61666358 -0.39412594 0.34434319
-0.6627593 -0.34772944 0.34316492
-0.63450223 -0.36447626 0.35832381
0.37041983 -0.33288276 0.34984756
0.56929851 -0.3472254 0.33617234
0.66055459 -0.36202022 0.32931733
0.69264007 -0.36273661 0.33777809
-0.69427568 -0.30180356 0.34691072
0.5375523 -0.30051076 0.32825017
-0.72274816 -0.27018863 0.33454037
-0.7267431 -0.24054928 0.35529876
-0.72706491 -0.17877813 0.35697031
-0.78567189 -0.11655546 0.3413136
-0.78739005 -0.085872419 0.34958029
-0.78836167 -0.039574485 0.35425448
-0.78920734 0.0068159867 0.35832429
-0.78911018 0.037749805 0.35785675
-0.78773141 0.06853383 0.35122299
-0.78370327 0.09882351 0.33184195
-0.76504302 0.14021423 0.34102869
-0.75451511 0.19145207 0.33958197
-0.72713113 0.22334088 0.35731483
0.53783911 0.25242165 0.33057976
0.56969362 0.25301832 0.33919168
0.41709936 0.31586587 0.35407066
0.44547951 0.31372675 0.32880831
0.6003657 0.28374454 0.33831429
0.70806801 0.2837106 0.33787107
0.60363686 0.31653073 0.3619206
0.63487607 0.31668752 0.36377072
0.47965041 0.4712466 0.36088538
-0.54496276 -0.42860511 0.38077426
-0.60863012 -0.36713147 0.38967919
-0.57702458 -0.39805999 0.38693094
0.55362707 -0.38660109 0.37488341
0.60421145 -0.3961328 0.36606789
0.63516867 -0.39610529 0.36577129
0.66717666 -0.39671111 0.37232852
-0.63916111 -0.33565295 0.38583255
0.41808215 -0.33402699 0.36470938
0.44928002 -0.3341867 0.36678457
0.48079553 -0.33455053 0.37151122
0.51263767 -0.33508354 0.37843561
-0.69827175 -0.27228245 0.36854029
-0.70174336 -0.24227543 0.38733077
-0.73040241 -0.14838159 0.37431312
-0.7605142 -0.11720783 0.369555
-0.76175958 -0.08627592 0.37577701
-0.73399049 -0.05533275 0.39295673
-0.76554906 0.0070960689 0.39471054
-0.76507783 0.038280778 0.39235616
-0.76385713 0.069342859 0.38625717
-0.76219714 0.10024354 0.3779633
-0.73370141 0.16305107 0.39145494
-0.73060298 0.19337974 0.37535501
-0.70272732 0.22551742 0.39265656
-0.69877034 0.25523859 0.37123847
0.55905271 0.2867173 0.37693071
0.38766584 0.31734067 0.37148643
0.5755167 0.31837377 0.38368797
0.66726828 0.31746238 0.37292409
0.69957453 0.31811869 0.3806746
0.45102152 0.3806963 0.38418651
0.48354709 0.4132219 0.39704275
0.48229867 0.44312331 0.38545895
0.046200093 -0.59159315 0.4343152
0.55089325 -0.4341884 0.4365654
0.59672517 -0.43309453 0.42563486
0.64397442 -0.43312857 0.42597604
0.51687568 -0.40066564 0.41513801
-0.67780244 -0.22869527 0.428128
-0.70665455 -0.19662416 0.41391301
-0.73860532 -0.086909465 0.4169364
-0.74084008 -0.024125159 0.42854905
-0.73767018 0.10129421 0.41207767
-0.73579693 0.13227437 0.40234375
-0.70815045 0.16446254 0.42201018
-0.69267571 0.1959821 0.42364931
-0.6437 0.22674775 0.41263366
0.45449173 0.35275954 0.41886282
0.48416182 0.35127053 0.4027462
0.54815114 0.32096618 0.41430306
0.59689939 0.35349643 0.42684221
0.64446247 0.35372478 0.42931366
0.48528191 0.38359365 0.41313934
0.077861227 -0.59402579 0.45186949
0.10984421 -0.59692216 0.47277427
0.077926636 -0.56347626 0.46036649
0.49000937 -0.404533 0.45700455
0.52071559 -0.43537229 0.44839311
0.30087441 -0.37430242 0.47436309
-0.65171701 -0.23029317 0.45997238
-0.68597472 -0.11962612 0.47428536
-0.71389091 -0.087466136 0.45308137
-0.71414351 -0.055806242 0.45444894
-0.71455377 -0.0082786437 0.45666909
-0.71202308 0.10224537 0.44297147
-0.68345535 0.13449554 0.46005583
-0.68175507 0.16577616 0.45045257
-0.65275377 0.19826932 0.46609402
-0.62231153 0.23054597 0.47431111
0.67993104 0.35611355 0.45517111
0.14218618 -0.60004163 0.49528766
0.17480047 -0.60282695 0.51538777
0.11010946 -0.5673551 0.49000382
0.14263442 -0.57058632 0.51469684
0.47808585 -0.42401719 0.49509263
0.333527 -0.37530249 0.48617435
-0.68704653 -0.087885529 0.48033881
-0.68766242 -0.0081699342 0.48381734
-0.65632761 0.13554035 0.48719668
-0.65499812 0.16711076 0.47934604
-0.5959478 0.20062675 0.5098412
0.078340173 0.26513541 0.51408601
0.20770699 -0.60554987 0.53503919
0.17549239 -0.57361746 0.53785825
0.3379851 -0.47801313 0.55052161
0.33722132 -0.44448903 0.53949714
0.46621194 -0.44413713 0.53597903
0.30497506 -0.41228765 0.54094958
0.33563381 -0.41003674 0.51658368
0.43453908 -0.41246414 0.54286027
0.36887759 -0.37907025 0.53067136
-0.56683624 0.2017303 0.53032374
0.013778705 0.23524594 0.55062985
0.062391669 0.23495588 0.54591918
0.1109855 0.23501647 0.54690337
-0.051055957 0.26764306 0.55027843
-0.018441085 0.26676023 0.53753591
0.013959523 0.26603988 0.52714086
0.046200093 0.26545796 0.51873946
0.24099091 -0.60849768 0.5563128
0.20848092 -0.57588011 0.55514789
0.24099091 -0.57603246 0.5563128
0.29053938 -0.57788324 0.57045674
0.11123359 -0.54439312 0.56301713
0.29061916 -0.54557121 0.57258201
0.30640158 -0.49576423 0.56411386
0.3393451 -0.5127002 0.57015157
0.30581945 -0.44600669 0.55466056
0.013655279 -0.25193858 0.56666303
0.06249864 -0.25213927 0.57038569
-0.051990297 -0.22050603 0.59073615
-0.019186039 -0.22028366 0.585922
0.013507664 -0.22027993 0.58583951
0.046200093 -0.22047165 0.58999276
-0.084422559 0.23712042 0.58106303
-0.051674616 0.22052935 0.57706714
-0.01890539 0.21998298 0.567693
0.013605736 0.20403531 0.57309937
0.062501267 0.20402589 0.57292295
0.11148864 0.20438482 0.57958341
0.14439303 0.20499188 0.59084678
0.14459062 -0.54887468 0.59940219
0.17784207 -0.55069309 0.6141665
0.21081369 -0.55088866 0.61575437
0.24327283 -0.54965246 0.60571742
0.27625585 -0.51710194 0.60827136
0.27726287 -0.42023292 0.62695909
0.40674302 -0.41744483 0.5967772
0.078986295 -0.22084235 0.59802032
0.11195169 -0.22137998 0.60966039
-0.1184929 -0.18881819 0.61781764
-0.085289419 -0.18848704 0.6092155
-0.052273531 -0.18824798 0.60300088
-0.019408498 -0.18814677 0.60037065
0.013382804 -0.18821158 0.6020596
0.062670358 -0.18863559 0.61307263
-0.11890839 -0.15621187 0.62861228
-0.085638523 -0.15596379 0.62055278
-0.052536536 -0.1557741 0.61438918
-0.01960418 -0.15573353 0.61308074
0.013276089 -0.15582122 0.61592174
0.046200093 -0.15606613 0.62387919
-0.18317382 -0.12242831 0.59561706
-0.085872889 -0.12317963 0.62816405
-0.052745361 -0.12307063 0.62343192
-0.019754078 -0.12305632 0.62281728
0.013185516 -0.12316903 0.62768769
-0.019850213 -0.09017545 0.62906098
-0.052816469 0.074891441 0.62651086
-0.019796286 0.074869573 0.62555861
-0.08578749 0.1078626 0.62539029
-0.052652445 0.10767809 0.61940837
-0.019673239 0.10762162 0.61756682
0.01324366 0.10770074 0.62013412
0.046200093 0.10788491 0.6261189
-0.1188674 0.14094231 0.6275475
-0.085552588 0.14056584 0.61776185
-0.052425381 0.14025083 0.60957694
-0.019504908 0.14013733 0.60663342
0.013345882 0.140146 0.60685515
0.062672183 0.14044411 0.61460185
-0.15171924 0.17379421 0.62404752
-0.11843924 0.17344199 0.61642385
-0.08518599 0.17295396 0.60585618
-0.052154671 0.17258438 0.59785485
-0.019315336 0.17242117 0.59432054
0.013455965 0.17233957 0.59255481
0.062600426 0.17254415 0.59698653
0.11191407 0.17301707 0.60721564
0.1451391 0.17375295 0.62315249
-0.11797167 0.20571536 0.60427594
-0.084841818 0.20519814 0.59467912
0.21226697 -0.52232593 0.65351176
0.24487826 -0.52082056 0.64047599
0.24588597 -0.49005872 0.6622932
0.2782757 -0.45512283 0.64575505
0.11232345 -0.18943357 0.63380551
0.14580879 -0.19013959 0.65215135
-0.15228295 -0.1564471 0.63625169
0.07927151 -0.15641102 0.63507056
0.11261374 -0.15695259 0.65266109
-0.15264487 -0.12354751 0.64408803
-0.11916888 -0.12334655 0.63538003
0.06278988 -0.12351398 0.64262986
-0.18636538 -0.090572409 0.65484548
-0.15288515 -0.090486981 0.64929032
-0.11937913 -0.090356909 0.64084315
-0.086067379 -0.090258852 0.63448024
-0.052892853 -0.090187058 0.62981868
0.013137337 -0.090250514 0.63394618
0.062826127 -0.090516053 0.65118623
-0.18665557 -0.04075354 0.6602304
-0.15307099 -0.057337172 0.6533134
-0.1195889 -0.040699381 0.64629245
-0.08620517 -0.040669963 0.63895535
-0.052986223 -0.057187043 0.63386178
-0.019924115 -0.057187043 0.63386178
0.013097044 -0.057227962 0.63917994
0.062848806 -0.05736693 0.6572001
-0.2202118 -0.0074737277 0.66495824
-0.18672533 0.0091500897 0.66152501
-0.15317519 -0.0075087231 0.65556979
-0.11964983 0.0090448167 0.64787507
-0.086252883 0.008988237 0.6405046
-0.053041432 -0.0075851977 0.63625216
-0.01996829 -0.0075844079 0.63673043
0.013076644 -0.0075643454 0.64183021
0.057302676 -0.0019565746 0.65640759
-0.18663792 0.042399973 0.65990329
-0.15312208 0.042315781 0.65442014
-0.11955623 0.04217726 0.64544368
-0.086146206 0.042048097 0.6370399
-0.052957673 0.041980132 0.63262534
-0.019898165 0.041973144 0.63217568
0.013112221 0.042050458 0.6372087
0.062829852 0.042294249 0.65303969
-0.18642963 0.075573221 0.65603805
-0.1529087 0.075429179 0.64979959
-0.11937265 0.075218409 0.64067388
-0.085999012 0.075024322 0.63226056
0.013167169 0.074973606 0.63007092
0.062791184 0.075285472 0.64357352
0.11282788 0.075816557 0.66656995
-0.18609196 0.10861325 0.64977145
-0.15266705 0.10845309 0.6445682
-0.11914723 0.10815259 0.63481736
0.079277575 0.10818484 0.63585782
0.11260502 0.10868482 0.6520946
-0.18566556 0.14149311 0.64185834
-0.15223746 0.14123929 0.6352675
0.11230829 0.14114551 0.63282228
0.14572573 0.14175087 0.64855409
0.17864352 0.17454001 0.64019465
0.17961402 -0.52442718 0.67171168
0.28143859 -0.49460199 0.70444942
0.27982715 -0.39125335 0.674546
0.58296692 -0.3596043 0.69697165
0.61344892 -0.32443351 0.67354369
0.14629555 -0.15758568 0.67322898
0.18043281 -0.15835786 0.69830251
0.11284941 -0.12409889 0.66796851
0.14667375 -0.12459876 0.689605
0.11298288 -0.090908058 0.67663741
0.14689736 -0.091256782 0.69928765
0.079520136 -0.024125159 0.66736913
0.1131078 -0.040848497 0.68475127
0.11308368 0.0093166735 0.68318343
0.11299038 0.042664953 0.67712522
0.14684789 0.042973444 0.69714522
0.14657529 0.076250039 0.68534112
0.14621234 0.10922424 0.66962504
0.1802014 0.10987627 0.69078755
0.17948996 0.14248709 0.66768336
0.21376838 0.14344309 0.6925199
0.52078378 -0.39701226 0.74255633
0.55110532 -0.39438894 0.71157575
0.18095282 -0.1251898 0.71519065
0.18129963 -0.091675162 0.72645402
0.14705013 -0.057742029 0.70590234
0.18150176 -0.041035935 0.73301911
0.14704543 -0.0073207803 0.70569921
0.18137462 0.0096684415 0.72888923
0.18112914 0.043339185 0.72091746
0.18071245 0.076759033 0.70738482
0.21537872 0.077382207 0.7343576
0.21466121 0.11064371 0.7157166
0.48960412 -0.39931321 0.76972747
0.21635874 -0.092188664 0.75981879
0.2166032 -0.041164253 0.76617074
0.21641262 0.0099175293 0.76121926
0.21606125 0.043819435 0.75209022
0.42332298 -0.40124789 0.79257655
0.45768225 -0.40131685 0.79339242
0 0 0 1 0 0 0 1 0 0 0 1 0 0 0 0 0 1323 1 0 0
