ply
format ascii 1.0
comment PCL generated
element vertex 698
property float x
property float y
property float z
element camera 1
property float view_px
property float view_py
property float view_pz
property float x_axisx
property float x_axisy
property float x_axisz
property float y_axisx
property float y_axisy
property float y_axisz
property float z_axisx
property float z_axisy
property float z_axisz
property float focal
property float scalex
property float scaley
property float centerx
property float centery
property int viewportx
property int viewporty
property float k1
property float k2
end_header
0.20657063 0.4661409 -0.19896865
0.22972651 0.39976093 -0.19043398
0.2072271 0.42245585 -0.1894933
0.23006691 0.4229382 -0.18601227
0.18504703 0.44595829 -0.18313158
0.20679376 0.44411293 -0.19574809
0.1848982 0.46820694 -0.18554842
0.18511218 0.49137083 -0.18207383
0.20675525 0.48907053 -0.19630384
0.20718843 0.51264876 -0.19005144
0.23101112 0.37925163 -0.17374659
0.20788895 0.40113425 -0.17994034
0.18593627 0.40260637 -0.16869199
0.16329327 0.42556703 -0.16704094
0.18534346 0.42400441 -0.17831802
0.16311195 0.4478195 -0.17040575
0.23060232 0.44655412 -0.17905724
0.16306844 0.47041404 -0.17121351
0.23114027 0.47028238 -0.17206907
0.16325749 0.49369371 -0.16770494
0.18562797 0.51541829 -0.17369819
0.20801917 0.53733933 -0.17806089
0.23276573 0.35919064 -0.15095341
0.25498164 0.35830063 -0.15866089
0.18682022 0.3816421 -0.15433848
0.20898816 0.38044304 -0.16407454
0.25522459 0.38146314 -0.15579164
0.16381596 0.40409169 -0.157341
0.14113906 0.42733845 -0.15425682
0.14098532 0.44969478 -0.1575855
0.14102447 0.47264272 -0.15673792
0.1412221 0.49615851 -0.15245891
0.23168202 0.4941259 -0.16503155
0.16382475 0.51821607 -0.15717804
0.23222886 0.51808918 -0.15792787
0.18657309 0.540829 -0.15835142
0.23277707 0.54216486 -0.15080619
0.20975894 0.56463867 -0.15294957
0.18798645 0.36098635 -0.13540137
0.21043512 0.3600871 -0.14318943
0.14204359 0.38406429 -0.13467312
0.16450584 0.38284931 -0.1445384
0.11906058 0.40709504 -0.13439178
0.14152417 0.40558654 -0.14591897
0.2558299 0.40522987 -0.14864326
0.11879484 0.42913437 -0.14129555
0.25643674 0.42910936 -0.14147687
0.11866624 0.45158854 -0.14463699
0.25704649 0.45310402 -0.13427591
0.11876314 0.47489321 -0.14211941
0.11901089 0.49887034 -0.13568246
0.14177577 0.52104539 -0.14047146
0.1648379 0.54436558 -0.13837612
0.23332921 0.5663597 -0.14363372
0.25809383 0.33945253 -0.12190735
0.28090099 0.33911979 -0.12499237
0.16543263 0.36191729 -0.12733948
0.28157356 0.36302906 -0.11771131
0.11944224 0.38532034 -0.12447596
0.096421741 0.40861297 -0.12279165
0.096255086 0.43094841 -0.12820411
0.096170194 0.45358869 -0.13096094
0.096281201 0.47716624 -0.12735617
0.2576578 0.4772124 -0.1270566
0.096546747 0.50161046 -0.11873221
0.25827348 0.50144035 -0.11978567
0.11949871 0.52400303 -0.12300873
0.14280769 0.54795039 -0.11812973
0.18857414 0.56964362 -0.12585855
0.18964565 0.3409017 -0.10845947
0.21252903 0.34041589 -0.11296654
0.23534532 0.33993363 -0.11744356
0.12010282 0.36422974 -0.10731351
0.14284326 0.36306962 -0.11735988
0.09672945 0.38675863 -0.11279845
0.28224942 0.38705456 -0.11039495
0.073606797 0.41014507 -0.11108458
0.28292704 0.41119531 -0.10305977
0.073516056 0.43277615 -0.11501384
0.050576001 0.43462238 -0.10168982
0.073491275 0.45576435 -0.11608672
0.073575363 0.47946182 -0.11244571
0.073826104 0.50438213 -0.10158837
0.097044945 0.52746731 -0.10255253
0.25889078 0.5257833 -0.11249614
0.25951102 0.55024481 -0.1051712
0.23602918 0.59603435 -0.1085602
0.14399187 0.34262258 -0.092491746
0.16687863 0.34175888 -0.10050499
0.07416299 0.3665753 -0.087000728
0.097210295 0.36539951 -0.09718287
0.050769038 0.38967109 -0.08915174
0.073839389 0.38821027 -0.10101295
0.050628942 0.41182449 -0.098251343
0.027431596 0.43648258 -0.088264227
0.28360951 0.43545619 -0.095671773
0.027449878 0.46018088 -0.085889816
0.050585639 0.45796171 -0.10106385
0.28429377 0.45983368 -0.088264227
0.050653234 0.4818902 -0.096673489
0.12054045 0.55187851 -0.095943451
0.16700007 0.57474422 -0.098251462
0.26013431 0.57482564 -0.097810507
0.26076066 0.59952658 -0.09041369
0.097852178 0.34436372 -0.07633698
0.12098338 0.34349072 -0.084435821
0.30860797 0.34411538 -0.078640699
0.050959978 0.36775881 -0.076749921
0.30935761 0.36840543 -0.071149707
0.027516793 0.39114356 -0.077196956
0.0040804907 0.41536444 -0.071201563
0.027458435 0.41358769 -0.084778309
0.0040804907 0.43841928 -0.074288487
0.0040804907 0.46242285 -0.070562601
0.02750079 0.48456857 -0.079276085
0.28498298 0.48433349 -0.080803514
0.050844807 0.50718808 -0.084230423
0.28567556 0.50895405 -0.073306084
0.074282736 0.53097928 -0.081815481
0.14570938 0.32302535 -0.055306673
0.16906361 0.32255998 -0.059956908
0.1927162 0.32269567 -0.05859983
0.21656129 0.32307947 -0.054765701
0.051236738 0.34625643 -0.058773875
0.074597292 0.34524116 -0.068194747
0.027599681 0.36895046 -0.066429615
0.0040804907 0.3703014 -0.054731011
0.0040804907 0.39262977 -0.065130472
0.31010923 0.3928135 -0.063639164
-0.01950755 0.41715938 -0.057485342
0.31086805 0.41734624 -0.056056499
-0.019496962 0.44055688 -0.058860898
-0.019526068 0.46468723 -0.055079818
0.0040804907 0.48728082 -0.061660051
0.027603947 0.51015526 -0.065875411
0.051205676 0.53453976 -0.060791492
0.28636998 0.53369349 -0.065788865
0.098115675 0.5568651 -0.067779779
0.28706944 0.55855829 -0.05821681
0.075247541 0.32455334 -0.040038466
0.098787971 0.32396206 -0.04594636
0.12228409 0.32349211 -0.050642371
0.0040804907 0.34851682 -0.037799358
0.027739137 0.34738383 -0.048313618
-0.019622888 0.37171334 -0.04250288
-0.043363668 0.3957158 -0.040073514
-0.019542195 0.39412582 -0.052985072
-0.043308672 0.41897056 -0.043645501
-0.043314628 0.4427188 -0.043258905
0.31163064 0.44200137 -0.048436284
-0.043384019 0.46707562 -0.038751841
0.312397 0.4667792 -0.040778041
-0.019612467 0.4900218 -0.043856382
0.0040804907 0.51359278 -0.04461205
0.075268701 0.56193906 -0.039122105
0.14626746 0.58491063 -0.043223619
0.28777078 0.58354318 -0.050624967
0.027931556 0.32622647 -0.023317814
0.051653557 0.32538763 -0.031700611
-0.019740587 0.34965777 -0.027212858
-0.04351604 0.37313667 -0.030176759
0.33801463 0.37394923 -0.023139715
-0.067408606 0.39743787 -0.026093245
-0.067325361 0.42079586 -0.029698014
-0.067376189 0.44490269 -0.027497053
-0.043582737 0.49279496 -0.025844574
0.31316724 0.49168077 -0.03308177
-0.019772494 0.51707536 -0.023068309
0.31394133 0.51670718 -0.025346637
0.027828502 0.53861898 -0.036705017
-0.019900694 0.32791805 -0.0064146519
0.0040804907 0.32707185 -0.01487112
-0.067876786 0.35196328 -0.0058205128
-0.043725781 0.35080668 -0.016553402
-0.091881409 0.37601984 -0.0052080154
-0.067601249 0.37457138 -0.017751455
-0.091673262 0.3991777 -0.011967778
0.33885169 0.3987582 -0.015372515
-0.091566212 0.42266127 -0.01544404
0.33969298 0.42369217 -0.0075665712
-0.091685414 0.44710925 -0.011573076
-0.067533627 0.46971881 -0.020679712
-0.067860574 0.4957698 -0.0065226555
0.0040804907 0.54357809 -0.0074225664
0.31471929 0.54185903 -0.017572761
0.31550115 0.56713766 -0.0097596645
-0.044115569 -0.99595445 0.0087637901
-0.019948604 -0.99305922 -0.00019109249
0.0040804907 -0.99249262 -0.0019433498
0.028135076 -0.99412984 0.0031203032
-0.044115569 -0.97185653 0.0087639093
-0.019948604 -0.96903014 -0.00019097328
0.0040804907 -0.96847707 -0.0019433498
0.028135076 -0.97007543 0.0031203032
-0.044115569 -0.94775856 0.0087637901
-0.019948604 -0.94500101 -0.00019109249
0.0040804907 -0.94446135 -0.001943469
0.028135076 -0.9460206 0.0031201839
-0.044115569 -0.92366034 0.0087637901
-0.019948604 -0.92097199 -0.00019109249
0.0040804907 -0.92044592 -0.0019433498
0.028135076 -0.92196614 0.0031203032
-0.044115569 -0.89956242 0.0087637901
-0.019948604 -0.89694279 -0.00019109249
0.0040804907 -0.89643031 -0.0019433498
0.028135076 -0.89791149 0.0031203032
-0.044115569 -0.87546444 0.0087639093
-0.019948604 -0.87291384 -0.00019109249
0.0040804907 -0.87241465 -0.0019433498
0.028135076 -0.87385702 0.0031203032
-0.044115569 -0.85136634 0.0087639093
-0.019948604 -0.84888458 -0.00019109249
0.0040804907 -0.84839904 -0.0019433498
0.028135076 -0.84980232 0.0031201839
-0.044115569 -0.82726818 0.0087637901
-0.019948604 -0.82485557 -0.00019097328
0.0040804907 -0.82438344 -0.0019433498
0.028135076 -0.82574779 0.0031203032
-0.044115569 -0.8031702 0.0087637901
-0.019948604 -0.80082643 -0.00019109249
0.0040804907 -0.80036777 -0.0019433498
0.028135076 -0.80169308 0.0031201839
-0.044115569 -0.77907234 0.0087639093
-0.019948604 -0.77679735 -0.00019097328
0.0040804907 -0.77635223 -0.001943469
0.028135076 -0.77763867 0.0031203032
-0.044115569 -0.75497425 0.0087637901
-0.019948604 -0.75276834 -0.00019097328
0.0040804907 -0.75233668 -0.0019433498
0.028135076 -0.75358403 0.0031201839
-0.044115569 -0.73087627 0.0087637901
-0.019948604 -0.72873926 -0.00019097328
0.0040804907 -0.72832102 -0.0019433498
0.028135076 -0.72952938 0.0031201839
-0.044115849 -0.7067824 0.0087821484
-0.019948604 -0.70471019 -0.00019097328
0.0040804907 -0.70430541 -0.0019433498
0.028135076 -0.70547479 0.0031201839
-0.044115849 -0.68268412 0.0087821484
-0.019948604 -0.68068099 -0.00019109249
0.0040804907 -0.68028975 -0.001943469
0.028135076 -0.68142033 0.0031203032
-0.044115849 -0.65858597 0.0087819099
-0.019948604 -0.65665191 -0.00019097328
0.0040804907 -0.65627426 -0.0019433498
0.028135076 -0.65736556 0.0031201839
-0.044115849 -0.63448781 0.0087819099
-0.019948604 -0.6326229 -0.00019097328
0.0040804907 -0.63225865 -0.0019433498
0.028135076 -0.63331109 0.0031203032
-0.044115849 -0.61038965 0.0087820292
-0.019948604 -0.60859376 -0.00019097328
0.0040804907 -0.60824299 -0.0019433498
0.028135076 -0.60925639 0.0031201839
-0.044115849 -0.58629149 0.0087820292
-0.019948604 -0.58456463 -0.00019097328
0.0040804907 -0.58422744 -0.0019433498
0.028135076 -0.58520192 0.0031203032
-0.044115849 -0.56219333 0.0087821484
-0.019948604 -0.56053561 -0.00019097328
0.0040804907 -0.56021172 -0.0019433498
0.028135076 -0.56114733 0.0031203032
-0.044115849 -0.53809512 0.0087820292
-0.019948604 -0.53650641 -0.00019097328
0.0040804907 -0.53619617 -0.0019433498
0.028135076 -0.5370928 0.0031203032
-0.044115849 -0.51399696 0.0087820292
-0.019948604 -0.5124774 -0.00019097328
0.0040804907 -0.51218057 -0.0019433498
0.028135076 -0.51303822 0.0031203032
-0.044115849 -0.48989883 0.0087821484
-0.019948604 -0.48844829 -0.00019097328
0.0040804907 -0.48816505 -0.0019433498
0.028135076 -0.4889836 0.0031201839
-0.044115849 -0.4658007 0.0087821484
-0.019948604 -0.46441928 -0.00019097328
0.0040804907 -0.46414936 -0.0019433498
0.028135076 -0.46492901 0.0031203032
-0.044115849 -0.44170246 0.0087820292
-0.019948604 -0.44039011 -0.00019109249
0.0040804907 -0.44013378 -0.0019433498
0.028135076 -0.44087437 0.0031203032
-0.044115849 -0.4176043 0.0087820292
-0.019948604 -0.41636097 -0.00019097328
0.0040804907 -0.41611809 -0.001943469
0.028135076 -0.41681993 0.0031203032
-0.044115849 -0.39350617 0.0087820292
-0.019948604 -0.39233193 -0.00019097328
0.0040804907 -0.39210257 -0.0019433498
0.028135076 -0.39276516 0.0031201839
-0.044115849 -0.36940804 0.0087820292
-0.019948604 -0.36830285 -0.00019097328
0.0040804907 -0.36808687 -0.0019433498
0.028135076 -0.36871064 0.0031203032
-0.044115849 -0.34530982 0.0087820292
-0.019948604 -0.34427372 -0.00019109249
0.0040804907 -0.3440713 -0.0019433498
0.028135076 -0.34465608 0.0031203032
-0.044115849 -0.3212117 0.0087820292
-0.019948604 -0.32024464 -0.00019097328
0.0040804907 -0.32005587 -0.0019433498
0.028135076 -0.32060152 0.0031203032
-0.044115849 -0.29711354 0.0087820292
-0.019948604 -0.2962155 -0.00019097328
0.0040804907 -0.29604021 -0.0019433498
0.028135076 -0.29654682 0.0031201839
-0.044115849 -0.27301538 0.0087821484
-0.019948604 -0.2721864 -0.00019097328
0.0040804907 -0.2720246 -0.0019433498
0.028135076 -0.27249232 0.0031201839
-0.044115849 -0.24891709 0.0087819099
-0.019948604 -0.24815734 -0.00019097328
0.0040804907 -0.24800898 -0.001943469
0.028135076 -0.24843772 0.0031201839
-0.044115849 -0.22481897 0.0087820292
-0.019948604 -0.22412826 -0.00019097328
0.0040804907 -0.22399339 -0.0019433498
0.028135076 -0.22438316 0.0031203032
-0.044115849 -0.20072076 0.0087820292
-0.019948604 -0.20009913 -0.00019109249
0.0040804907 -0.19997771 -0.0019433498
0.028135076 -0.2003286 0.0031203032
-0.044115849 -0.17662264 0.0087820292
-0.019948604 -0.17607005 -0.00019097328
0.0040804907 -0.17596218 -0.0019433498
0.028135076 -0.17627396 0.0031201839
-0.044115849 -0.15252443 0.0087820292
-0.019948604 -0.15204088 -0.00019097328
0.0040804907 -0.15194651 -0.001943469
0.028135076 -0.1522194 0.0031203032
-0.044115849 -0.1284263 0.0087820292
-0.019948604 -0.12801193 -0.00019097328
0.0040804907 -0.12793097 -0.0019433498
0.028135076 -0.12816484 0.0031203032
-0.044115849 -0.10432819 0.0087821484
-0.019948604 -0.10398276 -0.00019109249
0.0040804907 -0.1039153 -0.0019433498
0.028135076 -0.10411021 0.0031203032
-0.044115849 -0.080229975 0.0087821484
-0.019948604 -0.07995373 -0.00019097328
0.0040804907 -0.079899721 -0.0019433498
0.028135076 -0.080055609 0.0031201839
-0.044115849 -0.056131855 0.0087820292
-0.019948604 -0.055924505 -0.00019097328
0.0040804907 -0.055884048 -0.001943469
0.028135076 -0.056001104 0.0031203032
-0.044115849 -0.032033592 0.0087820292
-0.019948604 -0.031895466 -0.00019097328
0.0040804907 -0.03186851 -0.0019433498
0.028135076 -0.031946458 0.0031201839
-0.044115849 -0.007935375 0.0087820292
-0.019948604 -0.0078663845 -0.00019097328
0.0040804907 -0.0078528356 -0.0019433498
0.028135076 -0.0078919511 0.0031203032
-0.044115849 0.016162744 0.0087820292
-0.019948604 0.016162744 -0.00019097328
0.0040804907 0.016162697 -0.0019433498
0.028135076 0.016162744 0.0031203032
-0.044115849 0.040260866 0.0087820292
-0.019948604 0.040191825 -0.00019097328
0.0040804907 0.040178373 -0.0019433498
0.028135076 0.040217344 0.0031203032
-0.019948604 0.064220808 -0.00019097328
0.0040804907 0.064193957 -0.0019433498
0.028135076 0.064271897 0.0031201839
-0.044115849 0.064358987 0.0087820292
-0.044115849 0.088457294 0.0087821484
-0.019948604 0.088250086 -0.00019097328
0.0040804907 0.088209391 -0.0019433498
0.028135076 0.088326447 0.0031203032
-0.019948604 0.11227902 -0.00019097328
0.0040804907 0.11222516 -0.0019433498
0.028135076 0.112381 0.0031201839
-0.044115849 0.11255541 0.0087822676
-0.044115849 0.13665354 0.0087821484
-0.019948604 0.1363083 -0.00019097328
0.0040804907 0.13624065 -0.0019433498
0.028135076 0.13643564 0.0031203032
-0.019948604 0.16033724 -0.00019097328
0.0040804907 0.16025637 -0.0019433498
0.028135076 0.16049035 0.0031201839
-0.044115849 0.16075176 0.0087820292
-0.044115849 0.18484983 0.0087819099
-0.019948604 0.18436638 -0.00019109249
0.0040804907 0.18427186 -0.0019433498
0.028135076 0.18454476 0.0031203032
-0.019948604 0.20839545 -0.00019097328
0.0040804907 0.20828758 -0.001943469
0.028135076 0.2085994 0.0031203032
-0.044115849 0.20894814 0.0087820292
-0.044115849 0.23304626 0.0087820292
-0.019948604 0.23242459 -0.0001912117
0.0040804907 0.23230307 -0.0019433498
0.028135076 0.23265405 0.0031203032
-0.019948604 0.25645366 -0.00019097328
0.0040804907 0.25631869 -0.0019433498
0.028135076 0.25670844 0.0031203032
-0.044115849 0.25714436 0.0087820292
-0.044115849 0.28124249 0.0087820292
-0.019948604 0.28048277 -0.00019109249
0.0040804907 0.28033432 -0.001943469
0.028135076 0.28076318 0.0031201839
-0.019948604 0.30451176 -0.00019097328
0.0040804907 0.3043499 -0.0019433498
0.028135076 0.30481783 0.0031204224
0.076371223 0.30532548 0.008618474
-0.044115849 0.3053408 0.0087821484
0.052286904 0.30540121 0.0094366074
-0.044013627 0.32877448 0.0021424294
-0.092214331 0.35319462 0.0056040287
-0.1163579 0.37747782 0.0074192286
-0.11616037 0.40093338 0.0022871494
-0.11609561 0.42476144 0.00060451031
-0.11624614 0.44933867 0.0045156479
0.34054044 0.4487541 0.00029695034
-0.09196803 0.47239321 -0.0023946762
0.34139219 0.47394291 0.008200407
-0.043961842 0.52060723 -0.0012209415
0.052397203 -0.99848837 0.016600609
0.052397203 -0.97432989 0.01660049
0.052397203 -0.95017153 0.01660049
0.052397203 -0.92601311 0.016600728
0.052397203 -0.90185475 0.016600609
0.052397203 -0.87769645 0.01660049
0.052397203 -0.85353816 0.016600609
0.052397203 -0.82937974 0.01660049
0.052397203 -0.80522144 0.016600609
0.052397203 -0.78106302 0.01660049
0.052397203 -0.75690466 0.01660049
0.052397203 -0.7327463 0.016600609
0.052397203 -0.70858788 0.01660049
0.052397203 -0.68442959 0.016600609
0.052397203 -0.66027123 0.016600609
0.052397203 -0.63611287 0.01660037
0.052397203 -0.61195457 0.01660049
0.052397203 -0.58779627 0.016600609
0.052397203 -0.56363773 0.01660049
0.052397203 -0.53947943 0.01660049
0.052397203 -0.51532114 0.016600609
0.052397203 -0.49116275 0.01660049
0.052397203 -0.46700442 0.016600609
0.052397203 -0.44284609 0.016600609
0.052397203 -0.4186877 0.01660049
0.052397203 -0.39452928 0.016600609
0.052397203 -0.37037098 0.016600728
0.052397203 -0.3462126 0.01660049
0.052397203 -0.3220543 0.01660049
0.052397203 -0.29789594 0.016600609
0.052397203 -0.27373755 0.01660049
0.052397203 -0.24957924 0.016600609
0.052397203 -0.22542083 0.016600609
0.052397203 -0.20126244 0.01660049
0.052397203 -0.17710413 0.016600609
0.052397203 -0.15294579 0.016600728
0.052397203 -0.12878738 0.016600609
0.052397203 -0.1046291 0.01660049
0.052397203 -0.080470704 0.01660037
0.052397203 -0.0563123 0.016600609
0.052397203 -0.032154046 0.016600609
0.052397203 -0.007995557 0.01660049
0.052397203 0.016162649 0.01660049
0.052397203 0.040321045 0.016600609
0.052397203 0.064479537 0.01660049
0.052397203 0.088637792 0.016600609
0.052397203 0.11279619 0.016600609
0.052397203 0.13695449 0.01660049
0.052397203 0.16111289 0.016600609
0.052397203 0.18527105 0.016600609
0.052397203 0.20942959 0.01660049
0.052397203 0.23358798 0.016600609
0.052397203 0.25774622 0.016600609
0.052397203 0.28190476 0.01660049
0.10059199 0.30569708 0.012640834
-0.092779629 0.3309581 0.023962617
-0.06831155 0.32986146 0.013005376
-0.11677743 0.35456476 0.018318892
-0.14104369 0.37897307 0.020368814
-0.14087218 0.40270308 0.016655445
-0.14087893 0.42688105 0.016801715
-0.14109278 0.45168257 0.021431446
-0.1166923 0.47509941 0.016107321
-0.092521444 0.49917248 0.015577793
0.34225222 0.49926516 0.016180277
-0.068586223 0.52482963 0.024899006
-0.020153062 0.54930097 0.026369095
-0.068693697 -0.97841781 0.029552817
-0.068693697 -0.95415986 0.029552817
-0.068693697 -0.92990178 0.029552817
-0.068693697 -0.9056437 0.029552817
-0.068693697 -0.88138562 0.029552817
-0.068693697 -0.85712743 0.029552698
-0.068693697 -0.83286947 0.029552698
-0.068693697 -0.80861139 0.029552698
-0.068693697 -0.78435332 0.029552817
-0.068693697 -0.76009524 0.029552698
-0.068693697 -0.73583722 0.029552817
-0.068693697 -0.71157914 0.029552698
-0.068693697 -0.68732113 0.029552817
-0.068693697 -0.66306305 0.029552698
-0.068693697 -0.63880497 0.029552817
-0.068693697 -0.6145469 0.029552817
-0.068693697 -0.59028882 0.029552817
-0.068693697 -0.5660308 0.029552817
-0.068693697 -0.54177272 0.029552817
-0.068693697 -0.51751465 0.029552817
-0.068693697 -0.4932566 0.029552817
-0.068693697 -0.46899849 0.029552698
-0.068693697 -0.4447405 0.029552698
-0.068693697 -0.4204824 0.029552698
-0.068693697 -0.39622432 0.029552817
-0.068693697 -0.3719663 0.029552698
-0.068693697 -0.34770823 0.029552817
-0.068693697 -0.32345015 0.029552817
-0.068693697 -0.2991921 0.029552817
-0.068693697 -0.27493402 0.029552817
-0.068693697 -0.25067595 0.029552817
-0.068693697 -0.22641791 0.029552817
-0.068693697 -0.20215988 0.029552817
-0.068693697 -0.1779018 0.029552817
-0.068693697 -0.15364379 0.029552817
-0.068693697 -0.12938571 0.029552817
-0.068693697 -0.10512768 0.029552817
-0.068693697 -0.080869608 0.029552817
-0.068693697 -0.056611389 0.029552698
-0.068693697 -0.032353409 0.029552698
-0.068693697 -0.0080952831 0.029552698
-0.068693697 0.016162697 0.029552698
-0.068693697 0.040420823 0.029552698
-0.068693697 0.064678803 0.029552817
-0.068693697 0.08893697 0.029552817
-0.068693697 0.11319495 0.029552817
-0.068693697 0.13745308 0.029552817
-0.068693697 0.16171107 0.029552817
-0.068693697 0.18596908 0.029552698
-0.068693697 0.21022716 0.029552817
-0.068693697 0.23448519 0.029552817
-0.068693697 0.25874335 0.029552817
-0.068693697 0.28300133 0.029552817
-0.068693697 0.30725941 0.029552817
-0.11741935 0.33206227 0.03499639
-0.14154109 0.35594648 0.031137824
-0.16601531 0.38065377 0.0349226
-0.16581334 0.40449163 0.031174779
-0.16592173 0.4290252 0.033185959
-0.16630067 0.45428559 0.040218115
-0.1417125 0.47784054 0.034848571
-0.11753472 0.50262356 0.037994027
0.077292942 -0.98440737 0.048529983
0.077292942 -0.96000332 0.048530102
0.077292942 -0.93559909 0.048529983
0.077292942 -0.91119492 0.048529983
0.077292942 -0.88679081 0.048529983
0.077292942 -0.8623867 0.048529983
0.077292942 -0.83798248 0.048529983
0.077292942 -0.81357843 0.048530102
0.077292942 -0.7891742 0.048530102
0.077292942 -0.76477009 0.048530102
0.077292942 -0.74036592 0.048530102
0.077292942 -0.71596169 0.048529983
0.077292942 -0.69155765 0.048529983
0.077292942 -0.66715342 0.048529983
0.077292942 -0.64274925 0.048529983
0.077292942 -0.61834514 0.048529983
0.077292942 -0.59394103 0.048530102
0.077292942 -0.56953681 0.048530102
0.077292942 -0.54513276 0.048530102
0.077292942 -0.52072865 0.048529983
0.077292942 -0.49632445 0.048530221
0.077292942 -0.47192016 0.048529983
0.077292942 -0.44751611 0.048529983
0.077292942 -0.42311198 0.048529983
0.077292942 -0.39870778 0.048529983
0.077292942 -0.37430373 0.048530102
0.077292942 -0.34989962 0.048530102
0.077292942 -0.32549542 0.048530102
0.077292942 -0.30109128 0.048530102
0.077292942 -0.27668709 0.048530221
0.077292942 -0.25228295 0.048529983
0.077292942 -0.22787873 0.048529983
0.077292942 -0.20347458 0.048529983
0.077292942 -0.17907049 0.048529983
0.077292942 -0.15466635 0.048530102
0.077292942 -0.13026218 0.048530102
0.077292942 -0.10585809 0.048529983
0.077292942 -0.081453942 0.048529983
0.077292942 -0.057049751 0.048530221
0.077292942 -0.032645598 0.048530221
0.077292942 -0.0082414038 0.048529983
0.077292942 0.016162841 0.048529983
0.077292942 0.04056694 0.048529983
0.077292942 0.064970993 0.048529983
0.077292942 0.089375183 0.048530102
0.077292942 0.11377934 0.048529983
0.077292942 0.13818339 0.048529983
0.077292942 0.16258764 0.048530221
0.077292942 0.18699169 0.048530221
0.077292942 0.21139587 0.048529983
0.077292942 0.23580013 0.048529983
0.077292942 0.26020423 0.048529983
0.077292942 0.28460827 0.048529983
-0.11830158 0.30987954 0.057917118
-0.093553916 0.30906588 0.049108148
0.12599942 0.30876818 0.045884967
-0.16721903 0.33429033 0.05726099
-0.14223169 0.3331725 0.046089649
-0.19168116 0.35874569 0.057110906
-0.16650778 0.35733926 0.04406178
-0.19121933 0.38234982 0.049611807
-0.19098637 0.4062964 0.045829058
-0.19122736 0.43119186 0.049742341
-0.16710798 0.48081708 0.055199981
-0.093746111 0.52975237 0.055349827
-0.14318712 0.31069782 0.066775322
-0.19238323 0.33541623 0.068511248
-0.21706161 0.36016154 0.0702492
-0.21665771 0.38405979 0.064419508
-0.21651821 0.40833816 0.062405825
-0.21680003 0.43338147 0.066473603
-0.1918117 0.45692015 0.059230566
-0.14290716 0.50612164 0.060714126
-0.094726183 0.28788099 0.087178826
-0.19359875 0.31268159 0.088248968
-0.16827407 0.31162769 0.076840281
-0.21784745 0.33672535 0.081591725
-0.24265271 0.36158919 0.083496451
-0.24233624 0.38578776 0.079385281
-0.24232747 0.41041538 0.079271317
-0.24269088 0.43567407 0.083992124
-0.21763138 0.45958638 0.07847321
-0.19297919 0.48417938 0.0781883
-0.16893108 0.5104816 0.089032769
-0.14460748 0.28875726 0.097526908
-0.11962669 0.28831837 0.092344522
-0.16987915 0.28952783 0.10662675
-0.21910341 0.3137413 0.099720001
-0.24353462 0.33806232 0.09495306
-0.26858738 0.3631945 0.098392248
-0.26825714 0.38753217 0.094492197
-0.26840997 0.41251251 0.096297026
-0.26902461 0.43823415 0.10355556
-0.24376534 0.4622851 0.097949862
-0.21922618 0.48758796 0.10149217
-0.11983208 0.53659546 0.097680807
-0.19529411 0.29030287 0.11577809
-0.27066514 0.31588522 0.12292969
-0.24479249 0.31481025 0.11129272
-0.29555365 0.34076646 0.12197316
-0.26943538 0.33940881 0.10840654
-0.29478574 0.36483991 0.11366022
-0.29442206 0.3892909 0.10972321
-0.29477319 0.41463438 0.1135242
-0.29567993 0.44082323 0.12333989
-0.27036616 0.46525711 0.11939883
-0.19559751 0.51535767 0.12070489
-0.24655725 0.29186422 0.13421786
-0.22085223 0.29108045 0.12496197
-0.29672658 0.31696975 0.13467026
-0.32189229 0.34213552 0.13565397
-0.32123572 0.36650321 0.12909317
-0.32099655 0.39125168 0.12670338
-0.32142022 0.41677901 0.13093698
-0.2458598 0.49104929 0.12515771
-0.17236882 0.26823309 0.15282893
-0.29862282 0.29364079 0.15519762
-0.27240759 0.29265073 0.14350688
-0.32307646 0.31815371 0.14748704
-0.34845406 0.34351626 0.14945114
-0.34793922 0.36818239 0.14467418
-0.34789446 0.39327863 0.14425862
-0.3484177 0.41901767 0.14911342
-0.32266429 0.44344428 0.14336824
-0.29752642 0.46857318 0.14332879
-0.24923171 0.26947492 0.16896009
-0.22352538 0.26905811 0.16354537
-0.19790468 0.26864412 0.15816844
-0.14734113 0.26853207 0.15671241
-0.12227479 0.26887324 0.16114473
-0.32504657 0.29465476 0.1671735
-0.34974018 0.31943762 0.16138458
-0.37536663 0.3450169 0.16444659
-0.37489766 0.36987567 0.16038513
-0.37508234 0.39532545 0.16198468
-0.37594581 0.42152408 0.16946256
-0.34998384 0.44609788 0.16364563
-0.32509074 0.47193819 0.16761494
-0.27344817 0.4955304 0.15579545
-0.30140468 0.27073368 0.18531203
-0.27514076 0.27000028 0.17578399
-0.35166413 0.29567635 0.17923689
-0.37788609 0.44905826 0.18626583
-0.22414432 0.52332902 0.17247939
-0.32782283 0.2714729 0.19491553
-0.353066 0.47535104 0.19224465
-0.30172923 0.50036144 0.18882549
-0.3057498 0.24853553 0.2323494
-0.28005433 0.24863659 0.23381078
-0.25458297 0.24895981 0.23847508
-0.33341694 0.50942814 0.25081503
0 0 0 1 0 0 0 1 0 0 0 1 0 0 0 0 0 698 1 0 0
