ply
format ascii 1.0
comment PCL generated
element vertex 214
property float x
property float y
property float z
element camera 1
property float view_px
property float view_py
property float view_pz
property float x_axisx
property float x_axisy
property float x_axisz
property float y_axisx
property float y_axisy
property float y_axisz
property float z_axisx
property float z_axisy
property float z_axisz
property float focal
property float scalex
property float scaley
property float centerx
property float centery
property int viewportx
property int viewporty
property float k1
property float k2
end_header
-0.0304856 -0.42173594 -0.37438905
-0.0094489036 -0.42173594 -0.37438905
0.011587792 -0.42173594 -0.37438905
0.032624487 -0.42173594 -0.37438905
-0.030613624 -0.40204334 -0.3660742
-0.0095129153 -0.40204334 -0.3660742
0.011587792 -0.40204334 -0.3660742
0.032688498 -0.40204334 -0.3660742
-0.030796524 -0.3827717 -0.3541944
-0.0096043656 -0.3827717 -0.3541944
0.011587792 -0.3827717 -0.3541944
0.032779951 -0.3827717 -0.3541944
-0.030981015 -0.36333218 -0.34221101
-0.0096966112 -0.36333218 -0.34221101
0.011587792 -0.36333218 -0.34221101
0.032872196 -0.36333218 -0.34221101
-0.052632384 -0.45128325 -0.32632124
-0.031225659 -0.45128325 -0.32632124
-0.0098189311 -0.45128325 -0.32632124
0.011587792 -0.45128325 -0.32632124
0.032994516 -0.45128325 -0.32632124
0.054401241 -0.45128325 -0.32632124
-0.052562922 -0.42936704 -0.32932878
-0.031167347 -0.34372476 -0.33010864
-0.009789777 -0.34372476 -0.33010864
0.011587792 -0.34372476 -0.33010864
0.032965362 -0.34372476 -0.33010864
0.054488335 -0.43083447 -0.32066417
-0.05286961 -0.41013026 -0.31604898
0.054693848 -0.41154206 -0.30731583
-0.053179242 -0.39070874 -0.30264163
0.054901563 -0.39206627 -0.2938242
-0.05378326 -0.48189694 -0.27648675
-0.031992216 -0.48188865 -0.27653193
-0.010170273 -0.48112214 -0.28068042
0.011587792 -0.48106968 -0.28096461
0.033377796 -0.48188865 -0.27653193
0.055168487 -0.48189694 -0.27648675
-0.053493232 -0.37110841 -0.28904533
0.055111066 -0.37239972 -0.28021669
-0.010364478 -0.50773525 -0.25545275
0.011587792 -0.50773525 -0.25545275
-0.054976486 -0.51363087 -0.22481823
-0.032788396 -0.51363087 -0.22481823
0.033775885 -0.51363087 -0.22481823
0.055964217 -0.51363385 -0.22480273
-0.010707122 -0.33794212 -0.21094167
0.011587792 -0.33791745 -0.21113026
-0.010805585 -0.31722254 -0.19815135
0.011587792 -0.3171992 -0.19834149
-0.03329036 -0.34039283 -0.19221485
0.034022216 -0.34031382 -0.192819
-0.033491574 -0.31956348 -0.17914569
0.03412278 -0.31948832 -0.17975533
-0.010905041 -0.29632103 -0.18523145
0.011587792 -0.29629886 -0.18542325
-0.056214467 -0.54654807 -0.17121232
-0.033613715 -0.54654807 -0.17121232
-0.011012961 -0.54654807 -0.17121232
0.011587792 -0.54654807 -0.17121232
0.034188546 -0.54654807 -0.17121232
0.056789298 -0.54654807 -0.17121232
-0.033694848 -0.29854837 -0.16594255
0.034224249 -0.29847535 -0.16657412
-0.011005263 -0.27523133 -0.17221224
0.011587792 -0.2752105 -0.17240584
-0.03389971 -0.27734107 -0.15263629
0.034326639 -0.27727243 -0.15327346
-0.011106507 -0.25395447 -0.15906036
0.011587792 -0.25393489 -0.15925562
0.011587792 -0.23246631 -0.1460036
-0.034106437 -0.25594097 -0.13920903
0.034430083 -0.2558783 -0.1398356
-0.011208535 -0.23248443 -0.14580655
-0.011311612 -0.21082193 -0.13241649
0.011587792 -0.21080518 -0.13261509
-0.03431787 -0.23436248 -0.12547612
0.034534346 -0.23428723 -0.12629139
-0.011415497 -0.18896145 -0.11892128
0.011587792 -0.18894604 -0.11912191
-0.034531523 -0.2125847 -0.11159885
0.034639567 -0.21249807 -0.1126231
0.034746144 -0.19051206 -0.098778009
-0.011520331 -0.16690174 -0.10530317
0.011587792 -0.16688868 -0.1054889
-0.03474718 -0.19060346 -0.097591519
-0.034964859 -0.1684154 -0.08345294
0.03485503 -0.16833368 -0.084633231
-0.011626252 -0.14464089 -0.091543555
0.011587792 -0.14462841 -0.091747761
-0.03518486 -0.14601919 -0.069163322
0.034964945 -0.14594573 -0.070355058
-0.011733019 -0.12217421 -0.07767427
0.011587792 -0.12216402 -0.077863097
-0.035406683 -0.12340914 -0.054755688
0.035075903 -0.12334537 -0.055940986
-0.011840905 -0.099500649 -0.06365931
0.011587792 -0.099491112 -0.06386745
-0.035630621 -0.10058369 -0.040210485
0.035187919 -0.10052932 -0.041389585
-0.011949657 -0.076615743 -0.049531698
0.011587792 -0.07660839 -0.04972434
-0.012059565 -0.053517997 -0.035254598
0.011587792 -0.053511404 -0.035466671
-0.035856973 -0.077540509 -0.025508285
0.035301145 -0.077495344 -0.026681066
-0.012170362 -0.030203097 -0.020861506
0.011587792 -0.030198447 -0.021057606
-0.036085233 -0.054274574 -0.010682464
0.035415325 -0.054238699 -0.011848569
-0.012282343 -0.0066688024 -0.0063148737
0.011587792 -0.0066654794 -0.0065308809
-0.036315978 -0.030784257 0.0043048859
0.035530612 -0.030757025 0.0031272173
-0.012395243 0.017088346 0.0083514452
0.011587792 0.017090103 0.0081515312
-0.036548685 -0.0070650205 0.019419551
0.03564702 -0.0070469454 0.018249035
-0.012509218 0.041071434 0.023157239
0.011587792 0.041071385 0.022955418
-0.036783949 0.01688561 0.034700394
0.035764564 0.01689472 0.033518195
-0.012624423 0.065283589 0.038122654
0.011587792 0.065282017 0.037919164
-0.037021235 0.041071478 0.050112963
0.035883259 0.041071434 0.048937559
-0.012740591 0.089728273 0.053213596
0.011587792 0.089725047 0.05300796
-0.037261155 0.065495908 0.065695882
0.036003128 0.065486699 0.064509153
-0.012858025 0.11440877 0.068468451
0.011587792 0.11440412 0.068260908
-0.037503161 0.090162352 0.08141458
0.036124188 0.090144187 0.080234885
-0.01297645 0.13932839 0.08385253
0.011587792 0.13932194 0.08364284
-0.037747867 0.11507491 0.097308755
0.036246452 0.11504744 0.096117735
-0.013096179 0.16449131 0.099405527
0.011587792 0.16448325 0.099193692
-0.037994731 0.1402365 0.11334324
0.036369938 0.14020006 0.11215925
-0.013216929 0.18989968 0.11509156
0.011587792 0.18988991 0.1148777
-0.03824408 0.16565117 0.12953889
0.036494672 0.16560577 0.12836242
-0.013338867 0.21555805 0.13093162
0.011587792 0.21554735 0.1307354
-0.038496248 0.19132349 0.14591753
0.036620818 0.19126958 0.1447494
-0.013462161 0.24147108 0.1469481
0.011587792 0.24145761 0.14673007
-0.038750987 0.21725714 0.16246331
0.036748096 0.21719348 0.16128302
-0.013586528 0.26764029 0.16310382
0.011587792 0.26762632 0.16290367
-0.039008018 0.24345461 0.17915785
0.036876675 0.24338257 0.17798579
-0.01371229 0.2940723 0.17944086
0.011587792 0.29405513 0.17921853
-0.039267685 0.26992115 0.19602394
0.037006572 0.26984039 0.19485998
-0.01383916 0.320768 0.19592166
0.011587792 0.32075068 0.19571745
-0.039541151 0.29671618 0.21378624
0.03713781 0.2965717 0.21190846
-0.013967467 0.34773445 0.21258926
0.011587792 0.34771362 0.21236229
-0.03982947 0.32386634 0.23251295
0.037270412 0.32358041 0.22913396
-0.014096913 0.37497252 0.22940505
0.011587792 0.37495178 0.22919679
-0.040120732 0.35132268 0.25143099
0.037409745 0.35093486 0.24723423
-0.01422784 0.40249023 0.24641287
0.011587792 0.40246537 0.24618137
0.037555683 0.378654 0.2661922
-0.014359948 0.43028751 0.26357412
0.011587792 0.4302631 0.26336133
-0.040415645 0.37909383 0.27058589
-0.014493412 0.45837072 0.28091145
0.011587792 0.45834434 0.28069675
-0.040711939 0.40716973 0.28983104
0.037703283 0.4066883 0.28536546
-0.014628424 0.48674712 0.29845011
0.011587792 0.48671874 0.29823303
-0.041010961 0.4355621 0.30925298
0.037852399 0.43504053 0.30473638
0.038003396 0.46372101 0.32435143
-0.014764671 0.51541579 0.31614912
0.011587792 0.51538533 0.31592977
0.038156144 0.49273339 0.3441937
-0.014902513 0.54438734 0.33405542
0.011587792 0.54435474 0.33383381
-0.015041634 0.57366002 0.35212779
0.011587792 0.57362539 0.35190368
-0.015182222 0.6032418 0.37039077
0.011587792 0.6032089 0.37018692
-0.01532448 0.63314146 0.38887036
0.011587792 0.6331026 0.38864172
-0.015468079 0.66335654 0.40752459
0.011587792 0.66331959 0.40731645
-0.015613399 0.69389999 0.42640197
0.011587792 0.69385684 0.42616844
-0.015760105 0.72476894 0.44545972
0.011587792 0.72472793 0.44524717
-0.015908405 0.7559725 0.4647243
0.011587792 0.75592947 0.46450925
-0.016058505 0.78752154 0.48422313
0.011587792 0.78747612 0.48400581
-0.016210064 0.81941146 0.50391126
0.011587792 0.81936419 0.50369191
-0.016363487 0.85165846 0.52384162
0.011587792 0.85160339 0.52359462
0 0 0 1 0 0 0 1 0 0 0 1 0 0 0 0 0 214 1 0 0
