ply
format ascii 1.0
comment PCL generated
element vertex 884
property float x
property float y
property float z
element camera 1
property float view_px
property float view_py
property float view_pz
property float x_axisx
property float x_axisy
property float x_axisz
property float y_axisx
property float y_axisy
property float y_axisz
property float z_axisx
property float z_axisy
property float z_axisz
property float focal
property float scalex
property float scaley
property float centerx
property float centery
property int viewportx
property int viewporty
property float k1
property float k2
end_header
-0.65489423 0.086715676 -0.27520835
-0.63248438 0.086715676 -0.27520835
-0.61007458 0.086715676 -0.27520835
-0.58766472 0.086715676 -0.27520835
-0.56525487 0.086715676 -0.27520835
-0.54284507 0.086715676 -0.27520835
-0.52043527 0.086715676 -0.27520835
-0.49802542 0.086715676 -0.27520835
-0.47561562 0.086715676 -0.27520835
-0.45320576 0.086715676 -0.27520835
-0.43079597 0.086715676 -0.27520835
-0.40838611 0.086715676 -0.27520835
-0.38597625 0.086715676 -0.27520835
-0.36356646 0.086715676 -0.27520835
-0.66008592 0.065074973 -0.25022984
-0.63748378 0.065074973 -0.25022984
-0.61488163 0.065074973 -0.25022984
-0.59227955 0.065074973 -0.25022984
-0.56967741 0.065074973 -0.25022984
-0.54707533 0.065074973 -0.25022984
-0.52447319 0.065074973 -0.25022984
-0.50187111 0.065074973 -0.25022984
-0.47926897 0.065074973 -0.25022984
-0.45666689 0.065074973 -0.25022984
-0.43406475 0.065074973 -0.25022984
-0.41146266 0.065074973 -0.25022984
-0.38886052 0.065074973 -0.25022984
-0.36625838 0.065074973 -0.25022984
-0.65785092 0.10978262 -0.26098299
-0.63533157 0.10978262 -0.26098299
-0.61281222 0.10978262 -0.26098299
-0.59029293 0.10978262 -0.26098299
-0.56777358 0.10978262 -0.26098299
-0.54525423 0.10978262 -0.26098299
-0.52273488 0.10978262 -0.26098299
-0.50021559 0.10978262 -0.26098299
-0.47769624 0.10978262 -0.26098299
-0.45517689 0.10978262 -0.26098299
-0.43265754 0.10978262 -0.26098299
-0.41013825 0.10978262 -0.26098299
-0.3876189 0.10978262 -0.26098299
-0.36509955 0.10978262 -0.26098299
-0.66083664 0.13307598 -0.24661779
-0.63820672 0.13307598 -0.24661779
-0.6155768 0.13307598 -0.24661779
-0.59294689 0.13307598 -0.24661779
-0.57031697 0.13307598 -0.24661779
-0.54768711 0.13307598 -0.24661779
-0.5250572 0.13307598 -0.24661779
-0.50242728 0.13307598 -0.24661779
-0.47979736 0.13307598 -0.24661779
-0.45716739 0.13307598 -0.24661779
-0.43453747 0.13307598 -0.24661779
-0.41190755 0.13307598 -0.24661779
-0.38927764 0.13307598 -0.24661779
-0.36664772 0.13307598 -0.24661779
-0.66385186 0.15659933 -0.23211062
-0.6411103 0.15659933 -0.23211062
-0.61836869 0.15659933 -0.23211062
-0.59562713 0.15659933 -0.23211062
-0.57288551 0.15659933 -0.23211062
-0.5501439 0.15659933 -0.23211062
-0.52740228 0.15659933 -0.23211062
-0.50466073 0.15659933 -0.23211062
-0.48191911 0.15659933 -0.23211062
-0.45917755 0.15659933 -0.23211062
-0.43643594 0.15659933 -0.23211062
-0.41369438 0.15659933 -0.23211062
-0.39095277 0.15659933 -0.23211062
-0.36821115 0.15659933 -0.23211062
-0.666897 0.18035597 -0.21745992
-0.64404261 0.18035597 -0.21745992
-0.62118828 0.18035597 -0.21745992
-0.59833384 0.18035597 -0.21745992
-0.57547951 0.18035597 -0.21745992
-0.55262512 0.18035597 -0.21745992
-0.52977079 0.18035597 -0.21745992
-0.50691634 0.18035597 -0.21745992
-0.48406202 0.18035597 -0.21745992
-0.46120763 0.18035597 -0.21745992
-0.43835324 0.18035597 -0.21745992
-0.41549885 0.18035597 -0.21745992
-0.39264446 0.18035597 -0.21745992
-0.36979014 0.18035597 -0.21745992
-0.66745365 0.043291457 -0.21478188
-0.64457864 0.043291457 -0.21478188
-0.62170362 0.043291457 -0.21478188
-0.59882861 0.043291457 -0.21478188
-0.57595366 0.043291457 -0.21478188
-0.55307865 0.043291457 -0.21478188
-0.53020364 0.043291457 -0.21478188
-0.50732869 0.043291457 -0.21478188
-0.48445368 0.043291457 -0.21478188
-0.46157873 0.043291457 -0.21478188
-0.43870372 0.043291457 -0.21478188
-0.4158287 0.043291457 -0.21478188
-0.39295554 0.043291904 -0.21476614
-0.37008041 0.043291904 -0.21476614
-0.64700419 0.20434937 -0.20266306
-0.62403595 0.20434937 -0.20266306
-0.60106766 0.20434937 -0.20266306
-0.57809937 0.20434937 -0.20266306
-0.55513108 0.20434937 -0.20266306
-0.53216279 0.20434937 -0.20266306
-0.50919449 0.20434937 -0.20266306
-0.4862262 0.20434937 -0.20266306
-0.46325797 0.20434937 -0.20266306
-0.44028968 0.20434937 -0.20266306
-0.41732138 0.20434937 -0.20266306
-0.39435309 0.20434937 -0.20266306
-0.3713848 0.20434937 -0.20266306
-0.64999545 0.22858319 -0.1877178
-0.62691206 0.22858319 -0.1877178
-0.60382879 0.22858319 -0.1877178
-0.5807454 0.22858319 -0.1877178
-0.55766213 0.22858319 -0.1877178
-0.5345788 0.22858319 -0.1877178
-0.51149547 0.22858319 -0.1877178
-0.48841214 0.22858319 -0.1877178
-0.46532881 0.22858319 -0.1877178
-0.44224548 0.22858319 -0.1877178
-0.41916215 0.22858319 -0.1877178
-0.39607882 0.22858319 -0.1877178
-0.3729955 0.22858319 -0.1877178
-0.65185016 0.020975834 -0.17845118
-0.62869549 0.020975834 -0.17845118
-0.60554075 0.020975834 -0.17845118
-0.58238614 0.020975834 -0.17845118
-0.55923146 0.020975834 -0.17845118
-0.53607678 0.020975834 -0.17845118
-0.51292217 0.020975834 -0.17845118
-0.48976749 0.020975834 -0.17845118
-0.46661282 0.020975834 -0.17845118
-0.44345814 0.020975834 -0.17845118
-0.42030549 0.020976031 -0.17843497
-0.3971507 0.020976031 -0.17843497
-0.3739959 0.020976031 -0.17843497
-0.65301681 0.25306097 -0.17262208
-0.62981725 0.25306097 -0.17262208
-0.60661769 0.25306097 -0.17262208
-0.58341813 0.25306097 -0.17262208
-0.56021863 0.25306097 -0.17262208
-0.53701907 0.25306097 -0.17262208
-0.51381958 0.25306097 -0.17262208
-0.49062002 0.25306097 -0.17262208
-0.46742052 0.25306097 -0.17262208
-0.44422096 0.25306097 -0.17262208
-0.4210214 0.25306097 -0.17262208
-0.3978219 0.25306097 -0.17262208
-0.37462234 0.25306097 -0.17262208
-0.65606874 0.27778652 -0.15737402
-0.63275176 0.27778652 -0.15737402
-0.60943484 0.27778652 -0.15737402
-0.58611798 0.27778652 -0.15737402
-0.562801 0.27778652 -0.15737402
-0.53948414 0.27778652 -0.15737402
-0.51616722 0.27778652 -0.15737402
-0.4928503 0.27778652 -0.15737402
-0.46953338 0.27778652 -0.15737402
-0.44621646 0.27778652 -0.15737402
-0.42289954 0.27778652 -0.15737402
-0.39958262 0.27778652 -0.15737402
-0.3762657 0.27778652 -0.15737402
-0.65930164 -0.0018922724 -0.14122117
-0.63586038 -0.0018922724 -0.14122117
-0.61241913 -0.0018922724 -0.14122117
-0.58897787 -0.0018922724 -0.14122117
-0.56553662 -0.0018922724 -0.14122117
-0.54209536 -0.0018922724 -0.14122117
-0.51865411 -0.0018922724 -0.14122117
-0.49521279 -0.0018922724 -0.14122117
-0.47177154 -0.0018922724 -0.14122117
-0.44833028 -0.0018922724 -0.14122117
-0.42489111 -0.0018921252 -0.1412046
-0.40144968 -0.0018921252 -0.1412046
-0.37800831 -0.0018921252 -0.1412046
-0.65915167 0.30276343 -0.14197052
-0.6357162 0.30276343 -0.14197052
-0.61228067 0.30276343 -0.14197052
-0.58884519 0.30276343 -0.14197052
-0.56540972 0.30276343 -0.14197052
-0.54197419 0.30276343 -0.14197052
-0.51853871 0.30276343 -0.14197052
-0.49510324 0.30276343 -0.14197052
-0.47166771 0.30276343 -0.14197052
-0.44823223 0.30276343 -0.14197052
-0.42479676 0.30276343 -0.14197052
-0.40136129 0.30276343 -0.14197052
-0.37792575 0.30276343 -0.14197052
-0.45332676 -0.025333486 -0.10304093
-0.42959166 -0.025333486 -0.10304093
-0.40585643 -0.025333486 -0.10304093
-0.66693997 -0.025333436 -0.1030581
-0.64320487 -0.025333436 -0.1030581
-0.61946982 -0.025333436 -0.1030581
-0.59573478 -0.025333436 -0.1030581
-0.57199979 -0.025333436 -0.1030581
-0.54826474 -0.025333436 -0.1030581
-0.5245297 -0.025333436 -0.1030581
-0.50079465 -0.025333436 -0.1030581
-0.4770596 -0.025333436 -0.1030581
-0.38212311 -0.025333386 -0.10302389
-0.65073586 -0.049369805 -0.063926101
-0.62669957 -0.049369805 -0.063926101
-0.60266328 -0.049369805 -0.063926101
-0.57862699 -0.049369805 -0.063926101
-0.5545907 -0.049369805 -0.063926101
-0.53055441 -0.049369805 -0.063926101
-0.50651819 -0.049369805 -0.063926101
-0.4824819 -0.049369805 -0.063926101
-0.45844787 -0.049369954 -0.063908458
-0.43441147 -0.049369954 -0.063908458
-0.41037709 -0.049369954 -0.063891172
-0.38634056 -0.049369954 -0.063891172
-0.36409295 -0.04950767 -0.046014786
-0.36410713 -0.025333486 -0.045873046
-0.36410713 -0.0011582151 -0.045873165
-0.36410713 0.023017006 -0.045872927
-0.36410713 0.047192328 -0.045873046
-0.36410713 0.071367502 -0.045872927
-0.36410713 0.095542818 -0.045873046
-0.36408055 0.11970583 -0.046138763
-0.36410004 0.14388956 -0.045943975
-0.36407524 0.16804901 -0.046191812
-0.36409295 0.19223407 -0.046014786
-0.36409295 0.2164081 -0.046014786
-0.36410183 0.24058989 -0.045926094
-0.65846038 -0.074024037 -0.023788095
-0.6341151 -0.074024037 -0.023788095
-0.60976988 -0.074024037 -0.023788095
-0.5854246 -0.074024037 -0.023788095
-0.56107932 -0.074024037 -0.023788095
-0.53673404 -0.074024037 -0.023788095
-0.51238883 -0.074024037 -0.023788095
-0.48804605 -0.074024327 -0.023770213
-0.46370065 -0.074024327 -0.023770213
-0.43935746 -0.074024625 -0.023752213
-0.41501194 -0.074024625 -0.023752213
-0.39066637 -0.074024625 -0.023752213
-0.36632085 -0.074024625 -0.023752213
-0.66638255 -0.09931995 0.0173769
-0.64172041 -0.09931995 0.0173769
-0.61705828 -0.09931995 0.0173769
-0.59239608 -0.09931995 0.0173769
-0.56773692 -0.099320345 0.017395258
-0.54307467 -0.099320345 0.017395258
-0.51841235 -0.099320345 0.017395258
-0.49375266 -0.099320836 0.017413735
-0.46909022 -0.099320836 0.017413735
-0.44443005 -0.099321231 0.017432094
-0.4197675 -0.099321231 0.017432094
-0.39510489 -0.099321231 0.017432094
-0.37044233 -0.099321231 0.017432094
-0.34700072 -0.07486213 0.030649781
-0.32223642 -0.07486213 0.030649781
-0.29747209 -0.07486213 0.030649781
-0.27270776 -0.07486213 0.030649781
-0.24794345 -0.07486213 0.030649781
-0.22317913 -0.07486213 0.030649781
-0.19841479 -0.07486213 0.030649781
-0.17365047 -0.07486213 0.030649781
-0.14888614 -0.07486213 0.030649781
-0.12412181 -0.07486213 0.030649781
-0.099357493 -0.07486213 0.030649781
-0.074593171 -0.07486213 0.030649781
-0.049828842 -0.07486213 0.030649781
-0.025064517 -0.07486213 0.030649781
-0.00030019134 -0.07486213 0.030649781
0.02446413 -0.07486213 0.030649781
0.04922846 -0.07486213 0.030649781
0.073992781 -0.07486213 0.030649781
0.098757103 -0.07486213 0.030649781
0.12352145 -0.07486213 0.030649781
0.14828576 -0.07486213 0.030649781
0.17305009 -0.07486213 0.030649781
0.1978144 -0.07486213 0.030649781
0.22257872 -0.07486213 0.030649781
0.24734305 -0.07486213 0.030649781
0.27210736 -0.07486213 0.030649781
0.29687172 -0.07486213 0.030649781
0.32163602 -0.07486213 0.030649781
0.34640038 -0.07486213 0.030649781
0.37116468 -0.07486213 0.030649781
0.39592904 -0.07486213 0.030649781
0.42069334 -0.07486213 0.030649781
0.44545764 -0.07486213 0.030649781
0.470222 -0.07486213 0.030649781
0.4949863 -0.07486213 0.030649781
0.51975065 -0.07486213 0.030649781
0.54451495 -0.07486213 0.030649781
0.56927931 -0.07486213 0.030649781
0.59404361 -0.07486213 0.030649781
0.61880797 -0.07486213 0.030649781
0.64357227 -0.07486213 0.030649781
0.66833663 -0.07486213 0.030649781
0.69310093 -0.07486213 0.030649781
0.71786523 -0.07486213 0.030649781
0.74262959 -0.07486213 0.030649781
0.76739389 -0.07486213 0.030649781
0.79215819 -0.07486213 0.030649781
0.81692255 -0.07486213 0.030649781
0.8416869 -0.07486213 0.030649781
0.86645126 -0.07486213 0.030649781
0.8912155 -0.07486213 0.030649781
0.9159798 -0.07486213 0.030649781
0.94074416 -0.07486213 0.030649781
0.96550852 -0.07486213 0.030649781
-0.3460815 -0.050021138 0.020698547
-0.32139379 -0.050021138 0.020698547
-0.29670608 -0.050021138 0.020698547
-0.27201834 -0.050021138 0.020698547
-0.24733061 -0.050021138 0.020698547
-0.2226429 -0.050021138 0.020698547
-0.19795518 -0.050021138 0.020698547
-0.17326745 -0.050021138 0.020698547
-0.14857972 -0.050021138 0.020698547
-0.12389201 -0.050021138 0.020698547
-0.099204287 -0.050021138 0.020698547
-0.074516565 -0.050021138 0.020698547
-0.049828842 -0.050021138 0.020698547
-0.025141122 -0.050021138 0.020698547
-0.00045340136 -0.050021138 0.020698547
0.024234325 -0.050021138 0.020698547
0.04892204 -0.050021138 0.020698547
0.073609769 -0.050021138 0.020698547
0.098297492 -0.050021138 0.020698547
0.12298521 -0.050021138 0.020698547
0.14767292 -0.050021138 0.020698547
0.17236066 -0.050021138 0.020698547
0.19704838 -0.050021138 0.020698547
0.22173609 -0.050021138 0.020698547
0.24642383 -0.050021138 0.020698547
0.27111155 -0.050021138 0.020698547
0.29579926 -0.050021138 0.020698547
0.32048696 -0.050021138 0.020698547
0.34517467 -0.050021138 0.020698547
0.36986238 -0.050021138 0.020698547
0.39455014 -0.050021138 0.020698547
0.41923785 -0.050021138 0.020698547
0.44392562 -0.050021138 0.020698547
0.46861333 -0.050021138 0.020698547
0.49330103 -0.050021138 0.020698547
0.5179888 -0.050021138 0.020698547
0.54267651 -0.050021138 0.020698547
0.56736422 -0.050021138 0.020698547
0.59205192 -0.050021138 0.020698547
0.61673963 -0.050021138 0.020698547
0.6414274 -0.050021138 0.020698547
0.66611511 -0.050021138 0.020698547
0.69080281 -0.050021138 0.020698547
0.71549052 -0.050021138 0.020698547
0.74017823 -0.050021138 0.020698547
0.76486599 -0.050021138 0.020698547
0.78955364 -0.050021138 0.020698547
0.81424147 -0.050021138 0.020698547
0.83892918 -0.050021138 0.020698547
0.86361688 -0.050021138 0.020698547
0.88830459 -0.050021138 0.020698547
0.9129923 -0.050021138 0.020698547
0.93768007 -0.050021138 0.020698547
0.96236783 -0.050021138 0.020698547
0.98705548 -0.050021138 0.020698547
-0.34571338 -0.025333486 0.016713262
-0.32105631 -0.025333486 0.016713262
-0.29639927 -0.025333486 0.016713262
-0.27174222 -0.025333486 0.016713262
-0.24708517 -0.025333486 0.016713262
-0.22242814 -0.025333486 0.016713262
-0.1977711 -0.025333486 0.016713262
-0.17311406 -0.025333486 0.016713262
-0.14845701 -0.025333486 0.016713262
-0.12379997 -0.025333486 0.016713262
-0.099142924 -0.025333486 0.016713262
-0.074485883 -0.025333486 0.016713262
-0.049828842 -0.025333486 0.016713262
-0.025171801 -0.025333486 0.016713262
-0.00051476061 -0.025333486 0.016713262
0.024142288 -0.025333486 0.016713262
0.048799321 -0.025333486 0.016713262
0.073456369 -0.025333486 0.016713262
0.098113418 -0.025333486 0.016713262
0.12277046 -0.025333486 0.016713262
0.14742748 -0.025333486 0.016713262
0.17208454 -0.025333486 0.016713262
0.19674158 -0.025333486 0.016713262
0.22139864 -0.025333486 0.016713262
0.24605568 -0.025333486 0.016713262
0.27071273 -0.025333486 0.016713262
0.29536974 -0.025333486 0.016713262
0.32002681 -0.025333486 0.016713262
0.34468383 -0.025333486 0.016713262
0.3693409 -0.025333486 0.016713262
0.39399791 -0.025333486 0.016713262
0.41865498 -0.025333486 0.016713262
0.44331199 -0.025333486 0.016713262
0.46796906 -0.025333486 0.016713262
0.49262613 -0.025333486 0.016713262
0.51728314 -0.025333486 0.016713262
0.54194021 -0.025333486 0.016713262
0.56659722 -0.025333486 0.016713262
0.59125429 -0.025333486 0.016713262
0.6159113 -0.025333486 0.016713262
0.64056838 -0.025333486 0.016713262
0.66522545 -0.025333486 0.016713262
0.68988246 -0.025333486 0.016713262
0.71453947 -0.025333486 0.016713262
0.73919648 -0.025333486 0.016713262
0.76385355 -0.025333486 0.016713262
0.78851062 -0.025333486 0.016713262
0.81316763 -0.025333486 0.016713262
0.8378247 -0.025333486 0.016713262
0.86248171 -0.025333486 0.016713262
0.88713878 -0.025333486 0.016713262
0.91179579 -0.025333486 0.016713262
0.93645287 -0.025333486 0.016713262
0.96110994 -0.025333486 0.016713262
0.98576695 -0.025333486 0.016713262
-0.34586662 -0.00066373311 0.018372536
-0.32119679 -0.00066373311 0.018372536
-0.29652703 -0.00066373311 0.018372536
-0.2718572 -0.00066373311 0.018372536
-0.24718738 -0.00066373311 0.018372536
-0.22251756 -0.00066373311 0.018372536
-0.19784774 -0.00066373311 0.018372536
-0.17317793 -0.00066373311 0.018372536
-0.1485081 -0.00066373311 0.018372536
-0.12383829 -0.00066373311 0.018372536
-0.099168479 -0.00066373311 0.018372536
-0.074498661 -0.00066373311 0.018372536
-0.049828842 -0.00066373311 0.018372536
-0.025159026 -0.00066373311 0.018372536
-0.00048920885 -0.00066373311 0.018372536
0.024180606 -0.00066373311 0.018372536
0.048850425 -0.00066373311 0.018372536
0.073520243 -0.00066373311 0.018372536
0.098190054 -0.00066373311 0.018372536
0.12285988 -0.00066373311 0.018372536
0.14752969 -0.00066373311 0.018372536
0.1721995 -0.00066373311 0.018372536
0.19686933 -0.00066373311 0.018372536
0.22153912 -0.00066373311 0.018372536
0.24620895 -0.00066373311 0.018372536
0.27087879 -0.00066373311 0.018372536
0.29554862 -0.00066373311 0.018372536
0.32021838 -0.00066373311 0.018372536
0.34488821 -0.00066373311 0.018372536
0.36955804 -0.00066373311 0.018372536
0.39422786 -0.00066373311 0.018372536
0.41889763 -0.00066373311 0.018372536
0.44356751 -0.00066373311 0.018372536
0.46823734 -0.00066373311 0.018372536
0.49290711 -0.00066373311 0.018372536
0.51757693 -0.00066373311 0.018372536
0.54224676 -0.00066373311 0.018372536
0.56691658 -0.00066373311 0.018372536
0.59158641 -0.00066373311 0.018372536
0.61625618 -0.00066373311 0.018372536
0.64092606 -0.00066373311 0.018372536
0.66559583 -0.00066373311 0.018372536
0.69026566 -0.00066373311 0.018372536
0.71493548 -0.00066373311 0.018372536
0.73960531 -0.00066373311 0.018372536
0.76427507 -0.00066373311 0.018372536
0.78894496 -0.00066373311 0.018372536
0.81361473 -0.00066373311 0.018372536
0.83828455 -0.00066373311 0.018372536
0.86295438 -0.00066373311 0.018372536
0.88762414 -0.00066373311 0.018372536
0.91229397 -0.00066373311 0.018372536
0.93696386 -0.00066373311 0.018372536
0.96163362 -0.00066373311 0.018372536
0.98630351 -0.00066373311 0.018372536
-0.34645742 0.024104523 0.024767995
-0.32173836 0.024104523 0.024767995
-0.2970193 0.024104523 0.024767995
-0.27230027 0.024104523 0.024767995
-0.24758121 0.024104523 0.024767995
-0.22286217 0.024104523 0.024767995
-0.19814312 0.024104523 0.024767995
-0.17342408 0.024104523 0.024767995
-0.14870504 0.024104523 0.024767995
-0.12398598 0.024104523 0.024767995
-0.099266931 0.024104523 0.024767995
-0.074547887 0.024104523 0.024767995
-0.049828842 0.024104523 0.024767995
-0.025109796 0.024104523 0.024767995
-0.00039074942 0.024104523 0.024767995
0.024328299 0.024104523 0.024767995
0.049047343 0.024104523 0.024767995
0.073766395 0.024104523 0.024767995
0.09848544 0.024104523 0.024767995
0.12320448 0.024104523 0.024767995
0.14792353 0.024104523 0.024767995
0.17264259 0.024104523 0.024767995
0.19736163 0.024104523 0.024767995
0.22208069 0.024104523 0.024767995
0.24679972 0.024104523 0.024767995
0.27151877 0.024104523 0.024767995
0.29623783 0.024104523 0.024767995
0.32095689 0.024104523 0.024767995
0.34567589 0.024104523 0.024767995
0.37039495 0.024104523 0.024767995
0.395114 0.024104523 0.024767995
0.41983306 0.024104523 0.024767995
0.44455212 0.024104523 0.024767995
0.46927118 0.024104523 0.024767995
0.49399024 0.024104523 0.024767995
0.51870924 0.024104523 0.024767995
0.5434283 0.024104523 0.024767995
0.56814736 0.024104523 0.024767995
0.59286642 0.024104523 0.024767995
0.61758548 0.024104523 0.024767995
0.64230448 0.024104523 0.024767995
0.66702354 0.024104523 0.024767995
0.6917426 0.024104523 0.024767995
0.71646166 0.024104523 0.024767995
0.74118066 0.024104523 0.024767995
0.76589972 0.024104523 0.024767995
0.79061878 0.024104523 0.024767995
0.81533784 0.024104523 0.024767995
0.8400569 0.024104523 0.024767995
0.86477596 0.024104523 0.024767995
0.88949496 0.024104523 0.024767995
0.91421402 0.024104523 0.024767995
0.93893307 0.024104523 0.024767995
0.96365219 0.024104523 0.024767995
0.98837119 0.024104523 0.024767995
-0.3485924 -0.10002434 0.047880054
-0.32369542 -0.10002434 0.047880054
-0.2987985 -0.10002434 0.047880054
-0.27390152 -0.10002434 0.047880054
-0.24900457 -0.10002434 0.047880054
-0.22410761 -0.10002434 0.047880054
-0.19921063 -0.10002434 0.047880054
-0.17431366 -0.10002434 0.047880054
-0.1494167 -0.10002434 0.047880054
-0.12451974 -0.10002434 0.047880054
-0.099622771 -0.10002434 0.047880054
-0.074725807 -0.10002434 0.047880054
-0.049828842 -0.10002434 0.047880054
-0.024931878 -0.10002434 0.047880054
-3.4913421e-05 -0.10002434 0.047880054
0.024862051 -0.10002434 0.047880054
0.049759015 -0.10002434 0.047880054
0.07465598 -0.10002434 0.047880054
0.099552944 -0.10002434 0.047880054
0.12444992 -0.10002434 0.047880054
0.14934689 -0.10002434 0.047880054
0.17424384 -0.10002434 0.047880054
0.1991408 -0.10002434 0.047880054
0.22403775 -0.10002434 0.047880054
0.24893473 -0.10002434 0.047880054
0.27383167 -0.10002434 0.047880054
0.29872864 -0.10002434 0.047880054
0.32362562 -0.10002434 0.047880054
0.3485226 -0.10002434 0.047880054
0.37341958 -0.10002434 0.047880054
0.3983165 -0.10002434 0.047880054
0.42321348 -0.10002434 0.047880054
0.44811046 -0.10002434 0.047880054
0.47300744 -0.10002434 0.047880054
0.49790436 -0.10002434 0.047880054
0.52280134 -0.10002434 0.047880054
0.54769832 -0.10002434 0.047880054
0.57259524 -0.10002434 0.047880054
0.59749222 -0.10002434 0.047880054
0.6223892 -0.10002434 0.047880054
0.64728618 -0.10002434 0.047880054
0.67218316 -0.10002434 0.047880054
0.69708008 -0.10002434 0.047880054
0.72197706 -0.10002434 0.047880054
0.74687403 -0.10002434 0.047880054
0.77177101 -0.10002434 0.047880054
0.79666799 -0.10002434 0.047880054
0.82156491 -0.10002434 0.047880054
0.84646189 -0.10002434 0.047880054
0.87135887 -0.10002434 0.047880054
0.89625585 -0.10002434 0.047880054
0.92115283 -0.10002434 0.047880054
0.94604975 -0.10002434 0.047880054
0.97094673 -0.10002434 0.047880054
-0.34759778 0.049108796 0.037112832
-0.32278371 0.049108796 0.037112832
-0.29796961 0.049108796 0.037112832
-0.27315557 0.049108796 0.037112832
-0.24834146 0.049108796 0.037112832
-0.22352739 0.049108796 0.037112832
-0.1987133 0.049108796 0.037112832
-0.17389923 0.049108796 0.037112832
-0.14908516 0.049108796 0.037112832
-0.12427107 0.049108796 0.037112832
-0.099456996 0.049108796 0.037112832
-0.074642919 0.049108796 0.037112832
-0.049828842 0.049108796 0.037112832
-0.025014764 0.049108796 0.037112832
-0.00020068511 0.049108796 0.037112832
0.024613388 0.049108796 0.037112832
0.049427472 0.049108796 0.037112832
0.074241541 0.049108796 0.037112832
0.099055618 0.049108796 0.037112832
0.1238697 0.049108796 0.037112832
0.14868377 0.049108796 0.037112832
0.17349787 0.049108796 0.037112832
0.19831192 0.049108796 0.037112832
0.22312604 0.049108796 0.037112832
0.24794008 0.049108796 0.037112832
0.27275419 0.049108796 0.037112832
0.29756826 0.049108796 0.037112832
0.32238233 0.049108796 0.037112832
0.3471964 0.049108796 0.037112832
0.37201047 0.049108796 0.037112832
0.3968246 0.049108796 0.037112832
0.42163867 0.049108796 0.037112832
0.44645268 0.049108796 0.037112832
0.47126681 0.049108796 0.037112832
0.49608094 0.049108796 0.037112832
0.520895 0.049108796 0.037112832
0.54570901 0.049108796 0.037112832
0.57052314 0.049108796 0.037112832
0.59533721 0.049108796 0.037112832
0.62015128 0.049108796 0.037112832
0.64496535 0.049108796 0.037112832
0.66977948 0.049108796 0.037112832
0.69459355 0.049108796 0.037112832
0.71940756 0.049108796 0.037112832
0.74422169 0.049108796 0.037112832
0.76903576 0.049108796 0.037112832
0.79384983 0.049108796 0.037112832
0.8186639 0.049108796 0.037112832
0.84347802 0.049108796 0.037112832
0.86829209 0.049108796 0.037112832
0.89310616 0.049108796 0.037112832
0.91792029 0.049108796 0.037112832
0.94273424 0.049108796 0.037112832
0.96754831 0.049108796 0.037112832
-0.64952981 -0.12528372 0.059646368
-0.6245423 -0.12528372 0.059646368
-0.59955472 -0.12528372 0.059646368
-0.5745703 -0.12528431 0.059665322
-0.5495826 -0.12528431 0.059665322
-0.52459764 -0.12528485 0.059684277
-0.49960983 -0.12528485 0.059684277
-0.47462445 -0.1252854 0.059702992
-0.44963652 -0.1252854 0.059702992
-0.42464852 -0.1252854 0.059702992
-0.39966053 -0.1252854 0.059702992
-0.37467259 -0.1252854 0.059702992
-0.34963566 0.074602105 0.059173465
-0.32465172 0.074602105 0.059173465
-0.29966784 0.074602105 0.059173465
-0.27468395 0.074602105 0.059173465
-0.24970005 0.074602105 0.059173465
-0.22471614 0.074602105 0.059173465
-0.19973224 0.074602105 0.059173465
-0.17474833 0.074602105 0.059173465
-0.14976445 0.074602105 0.059173465
-0.12478054 0.074602105 0.059173465
-0.099796638 0.074602105 0.059173465
-0.07481274 0.074602105 0.059173465
-0.049828842 0.074602105 0.059173465
-0.024844943 0.074602105 0.059173465
0.00013895705 0.074602105 0.059173465
0.025122859 0.074602105 0.059173465
0.050106756 0.074602105 0.059173465
0.075090654 0.074602105 0.059173465
0.10007456 0.074602105 0.059173465
0.12505846 0.074602105 0.059173465
0.15004237 0.074602105 0.059173465
0.17502625 0.074602105 0.059173465
0.20001015 0.074602105 0.059173465
0.22499405 0.074602105 0.059173465
0.24997796 0.074602105 0.059173465
0.27496189 0.074602105 0.059173465
0.29994577 0.074602105 0.059173465
0.32492965 0.074602105 0.059173465
0.34991354 0.074602105 0.059173465
0.37489748 0.074602105 0.059173465
0.39988136 0.074602105 0.059173465
0.42486525 0.074602105 0.059173465
0.44984913 0.074602105 0.059173465
0.47483307 0.074602105 0.059173465
0.49981695 0.074602105 0.059173465
0.52480084 0.074602105 0.059173465
0.54978478 0.074602105 0.059173465
0.57476866 0.074602105 0.059173465
0.5997526 0.074602105 0.059173465
0.62473649 0.074602105 0.059173465
0.64972037 0.074602105 0.059173465
0.67470431 0.074602105 0.059173465
0.6996882 0.074602105 0.059173465
0.72467208 0.074602105 0.059173465
0.74965596 0.074602105 0.059173465
0.7746399 0.074602105 0.059173465
0.79962379 0.074602105 0.059173465
0.82460767 0.074602105 0.059173465
0.84959155 0.074602105 0.059173465
0.8745755 0.074602105 0.059173465
0.89955938 0.074602105 0.059173465
0.92454326 0.074602105 0.059173465
0.94952714 0.074602105 0.059173465
0.97451109 0.074602105 0.059173465
-0.35143429 -0.12586859 0.078643918
-0.3263005 -0.12586859 0.078643918
-0.30116671 -0.12586859 0.078643918
-0.27603292 -0.12586859 0.078643918
-0.25089914 -0.12586859 0.078643918
-0.22576535 -0.12586859 0.078643918
-0.20063156 -0.12586859 0.078643918
-0.17549779 -0.12586859 0.078643918
-0.15036398 -0.12586859 0.078643918
-0.12523019 -0.12586859 0.078643918
-0.10009641 -0.12586859 0.078643918
-0.074962631 -0.12586859 0.078643918
-0.049828842 -0.12586859 0.078643918
-0.024695057 -0.12586859 0.078643918
0.00043872744 -0.12586859 0.078643918
0.025572516 -0.12586859 0.078643918
0.050706297 -0.12586859 0.078643918
0.075840101 -0.12586859 0.078643918
0.10097387 -0.12586859 0.078643918
0.12610766 -0.12586859 0.078643918
0.15124144 -0.12586859 0.078643918
0.17637523 -0.12586859 0.078643918
0.20150904 -0.12586859 0.078643918
0.2266428 -0.12586859 0.078643918
0.25177658 -0.12586859 0.078643918
0.27691036 -0.12586859 0.078643918
0.30204415 -0.12586859 0.078643918
0.32717794 -0.12586859 0.078643918
0.35231173 -0.12586859 0.078643918
0.37744552 -0.12586859 0.078643918
0.40257931 -0.12586859 0.078643918
0.4277131 -0.12586859 0.078643918
0.45284694 -0.12586859 0.078643918
0.47798067 -0.12586859 0.078643918
0.50311446 -0.12586859 0.078643918
0.52824825 -0.12586859 0.078643918
0.55338204 -0.12586859 0.078643918
0.57851583 -0.12586859 0.078643918
0.60364962 -0.12586859 0.078643918
0.6287834 -0.12586859 0.078643918
0.65391719 -0.12586859 0.078643918
0.67905098 -0.12586859 0.078643918
0.70418477 -0.12586859 0.078643918
0.72931856 -0.12586859 0.078643918
0.75445229 -0.12586859 0.078643918
0.77958614 -0.12586859 0.078643918
0.80471992 -0.12586859 0.078643918
0.82985371 -0.12586859 0.078643918
0.85498744 -0.12586859 0.078643918
0.88012129 -0.12586859 0.078643918
0.90525502 -0.12586859 0.078643918
0.93038881 -0.12586859 0.078643918
0.95552272 -0.12586859 0.078643918
0.98065645 -0.12586859 0.078643918
-0.65754807 -0.15194163 0.1030463
-0.63222641 -0.15194163 0.1030463
-0.60690808 -0.15194246 0.10306585
-0.5815863 -0.15194246 0.10306585
-0.5562675 -0.1519431 0.10308516
-0.5309456 -0.1519431 0.10308516
-0.50562364 -0.1519431 0.10308516
-0.48030424 -0.15194391 0.10310471
-0.45498216 -0.15194391 0.10310471
-0.42966008 -0.15194391 0.10310471
-0.404338 -0.15194391 0.10310471
-0.37901789 -0.15194459 0.10312402
-0.35393822 0.10137875 0.10575008
-0.32859576 0.10137875 0.10575008
-0.30325329 0.10137875 0.10575008
-0.27791086 0.10137875 0.10575008
-0.25256842 0.10137875 0.10575008
-0.22722597 0.10137875 0.10575008
-0.20188352 0.10137875 0.10575008
-0.17654108 0.10137875 0.10575008
-0.15119863 0.10137875 0.10575008
-0.12585619 0.10137875 0.10575008
-0.10051374 0.10137875 0.10575008
-0.075171292 0.10137875 0.10575008
-0.049828842 0.10137875 0.10575008
-0.024486395 0.10137875 0.10575008
0.00085605308 0.10137875 0.10575008
0.026198499 0.10137875 0.10575008
0.051540948 0.10137875 0.10575008
0.076883391 0.10137875 0.10575008
0.10222584 0.10137875 0.10575008
0.12756829 0.10137875 0.10575008
0.15291074 0.10137875 0.10575008
0.17825317 0.10137875 0.10575008
0.20359562 0.10137875 0.10575008
0.22893806 0.10137875 0.10575008
0.25428051 0.10137875 0.10575008
0.27962297 0.10137875 0.10575008
0.30496544 0.10137875 0.10575008
0.3303079 0.10137875 0.10575008
0.35565031 0.10137875 0.10575008
0.38099277 0.10137875 0.10575008
0.40633518 0.10137875 0.10575008
0.43167764 0.10137875 0.10575008
0.4570201 0.10137875 0.10575008
0.48236257 0.10137875 0.10575008
0.50770497 0.10137875 0.10575008
0.53304744 0.10137875 0.10575008
0.5583899 0.10137875 0.10575008
0.58373231 0.10137875 0.10575008
0.60907477 0.10137875 0.10575008
0.6344173 0.10137875 0.10575008
0.6597597 0.10137875 0.10575008
0.68510216 0.10137875 0.10575008
0.71044463 0.10137875 0.10575008
0.73578703 0.10137875 0.10575008
0.7611295 0.10137875 0.10575008
0.78647196 0.10137875 0.10575008
0.81181437 0.10137875 0.10575008
0.83715683 0.10137875 0.10575008
0.86249924 0.10137875 0.10575008
0.88784176 0.10137875 0.10575008
0.91318411 0.10137875 0.10575008
0.93852663 0.10137875 0.10575008
0.96386904 0.10137875 0.10575008
0.9892115 0.10137875 0.10575008
-0.64012235 -0.17932306 0.14764237
-0.61445743 -0.17932306 0.14764237
-0.5887925 -0.17932306 0.14764237
-0.56313062 -0.17932406 0.14766252
-0.53746557 -0.17932406 0.14766252
-0.51180321 -0.1793249 0.14768231
-0.48613799 -0.1793249 0.14768231
-0.46047276 -0.1793249 0.14768231
-0.43480748 -0.1793249 0.14768231
-0.4091444 -0.17932579 0.14770234
-0.383479 -0.17932579 0.14770234
-0.64823174 -0.20745613 0.19344401
-0.6222142 -0.20745613 0.19344401
-0.59619999 -0.20745726 0.19346464
-0.57018232 -0.20745726 0.19346464
-0.54416466 -0.20745726 0.19346464
-0.51814979 -0.20745829 0.19348502
-0.49213201 -0.20745829 0.19348502
-0.46611416 -0.20745829 0.19348502
-0.4400987 -0.20745933 0.19350541
-0.41408068 -0.20745933 0.19350541
-0.38806272 -0.20745933 0.19350541
-0.36512446 -0.20925584 0.22684479
-0.36514771 -0.18299292 0.22709572
-0.3651554 -0.15671951 0.22717965
-0.63018703 -0.23637289 0.24052155
-0.60381055 -0.23637407 0.24054253
-0.57743049 -0.23637407 0.24054253
-0.55105346 -0.23637541 0.24056339
-0.52467322 -0.23637541 0.24056339
-0.49829298 -0.23637541 0.24056339
-0.47191536 -0.23637679 0.24058485
-0.44553494 -0.23637679 0.24058485
-0.41915452 -0.23637679 0.24058485
-0.39277411 -0.23637679 0.24058485
-0.36639374 -0.23637679 0.24058485
-0.6116361 -0.26610801 0.28895068
-0.58488673 -0.26610944 0.28897226
-0.55813378 -0.26610944 0.28897226
-0.53138089 -0.26610944 0.28897226
-0.50463086 -0.26611105 0.28899395
-0.4778778 -0.26611105 0.28899395
-0.45112479 -0.26611105 0.28899395
-0.42437166 -0.26611105 0.28899395
-0.39761865 -0.26611105 0.28899395
-0.37086558 -0.26611105 0.28899395
-0.59255332 -0.29669583 0.3387686
-0.56541705 -0.29669583 0.3387686
-0.538284 -0.29669747 0.33879066
-0.51114756 -0.29669747 0.33879066
-0.48401117 -0.29669747 0.33879066
-0.45687479 -0.29669747 0.33879066
-0.42973834 -0.29669747 0.33879066
-0.40260196 -0.29669747 0.33879066
-0.37546766 -0.29669908 0.33881283
-0.5729121 -0.32817131 0.39001215
-0.54538459 -0.32817301 0.39003468
-0.51785374 -0.32817301 0.39003468
-0.49032283 -0.32817301 0.39003468
-0.46279198 -0.32817301 0.39003468
-0.43526107 -0.32817301 0.39003468
-0.40773249 -0.32817495 0.3900578
-0.38020146 -0.32817495 0.3900578
0 0 0 1 0 0 0 1 0 0 0 1 0 0 0 0 0 884 1 0 0
