ply
format ascii 1.0
comment PCL generated
element vertex 834
property float x
property float y
property float z
element camera 1
property float view_px
property float view_py
property float view_pz
property float x_axisx
property float x_axisy
property float x_axisz
property float y_axisx
property float y_axisy
property float y_axisz
property float z_axisx
property float z_axisy
property float z_axisz
property float focal
property float scalex
property float scaley
property float centerx
property float centery
property int viewportx
property int viewporty
property float k1
property float k2
end_header
0.58315253 0.31504375 -0.43571532
0.56394094 0.33726245 -0.42387784
0.54456758 0.33809057 -0.41192484
0.52502763 0.36060029 -0.39986908
0.54730624 0.36086291 -0.39645708
0.61489183 0.31822556 -0.38404953
0.5053165 0.36153525 -0.38772368
0.48543686 0.38434184 -0.37545848
0.50531888 0.38330454 -0.38770926
0.48543686 0.40620437 -0.37545848
0.59764445 0.34165943 -0.36041284
0.46538186 0.38538828 -0.36310124
0.53193778 0.38572985 -0.35906661
0.46538186 0.40734586 -0.36310124
0.44515157 0.40849727 -0.35063577
0.44515157 0.43055078 -0.35063577
0.58166122 0.36613554 -0.32796371
0.42474368 0.40965894 -0.33806098
0.4041577 0.4330802 -0.32536018
0.42474562 0.43181062 -0.33804607
0.47087753 0.43306351 -0.32552683
0.40415958 0.45532984 -0.32534504
0.42649701 0.45540348 -0.32466316
0.5180831 0.41236645 -0.30875123
0.3833892 0.43436256 -0.31254673
0.38339096 0.45671096 -0.31253159
0.38342628 0.47909296 -0.31222558
0.36243406 0.43565467 -0.2996347
0.3624357 0.45810243 -0.29961932
0.3624357 0.48054862 -0.2996192
0.65779936 0.32448065 -0.28247797
0.56640047 0.39169577 -0.28861296
0.34129325 0.45950636 -0.28659165
0.34129477 0.4820548 -0.28657603
0.63716388 0.34773135 -0.27277172
0.29843771 0.46235418 -0.26016796
0.31996095 0.46092305 -0.27344704
0.29843903 0.48510581 -0.26015222
0.31996241 0.48357254 -0.27343142
0.29843771 0.50785398 -0.26016808
0.31996095 0.50621837 -0.27344692
0.34297204 0.50666571 -0.26981604
0.68784714 0.32661492 -0.24782348
0.61780065 0.37170011 -0.25567806
0.50565886 0.44121104 -0.24411273
0.27671802 0.4637965 -0.24678481
0.27671927 0.4866513 -0.24676859
0.27671802 0.50950235 -0.24678469
0.2767168 0.5323534 -0.24680066
0.55366707 0.41957083 -0.23076093
0.46047848 0.46452525 -0.24002326
0.254803 0.48821279 -0.23324728
0.25480074 0.51116586 -0.23327947
0.25480074 0.53412288 -0.23327959
0.67043847 0.35127205 -0.22166824
0.60294747 0.39811972 -0.212749
0.23268515 0.48978636 -0.21961844
0.4180963 0.49064374 -0.21219289
0.23268415 0.51284635 -0.21963477
0.23268315 0.53590626 -0.2196511
0.74423397 0.30626583 -0.20150423
0.21036424 0.49137455 -0.20586443
0.21036334 0.51454043 -0.20588088
0.21036334 0.53770828 -0.20588088
0.65578264 0.37754536 -0.17974699
0.16510184 0.49459493 -0.17797399
0.18783741 0.49297729 -0.1919837
0.16510184 0.5179776 -0.17797422
0.18783741 0.5162521 -0.19198334
0.16510184 0.54136038 -0.1779741
0.18783741 0.53952694 -0.19198358
0.16510184 0.56474292 -0.1779741
0.18783665 0.56279957 -0.19200027
0.14215457 0.49622789 -0.1638341
0.14215457 0.51971924 -0.1638341
0.1421551 0.54321301 -0.16381717
0.14215457 0.56670237 -0.1638341
0.59119213 0.42716154 -0.14858973
0.54304945 0.45019764 -0.15431142
0.49685904 0.47445452 -0.14788997
0.11899346 0.52148134 -0.14952767
0.11899307 0.54508066 -0.14954472
0.11899307 0.56868225 -0.14954484
0.11916478 0.49873629 -0.14211023
0.095613644 0.52325583 -0.13512123
0.38001385 0.52308416 -0.13651454
0.095613644 0.54696834 -0.13512111
0.095613644 0.57068086 -0.13512111
0.072013065 0.52504694 -0.12057841
0.072013065 0.54887152 -0.12057841
0.072013065 0.57269603 -0.12057853
0.45513743 0.50292772 -0.10581017
0.048188578 0.52685738 -0.10588026
0.048188578 0.55079496 -0.10588026
0.31251478 0.55235946 -0.093925357
0.048188578 0.57473272 -0.10588026
0.048188578 0.59867024 -0.10588026
0.02413686 0.36032072 -0.091059446
0.02413686 0.38437244 -0.091059327
0.02413686 0.40842438 -0.091059566
0.02413686 0.43247586 -0.091059566
0.02413686 0.45652759 -0.091059446
0.02413686 0.48057941 -0.091059446
0.02413686 0.5046311 -0.091059446
0.096258774 0.50438178 -0.093218088
0.02413686 0.52868283 -0.091059446
0.02413686 0.55273449 -0.091059446
0.02413686 0.57678616 -0.091059446
0.024136724 0.60084057 -0.091041684
-0.024661418 0.36240524 -0.060971975
-0.00014549866 0.36135858 -0.076078892
0.048188578 0.36129048 -0.077061772
-0.024661418 0.38668862 -0.060972095
-0.00014549866 0.38552579 -0.076078892
0.048188578 0.38545007 -0.077061892
-0.024661418 0.41097206 -0.060972214
-0.00014522299 0.40969127 -0.076096773
0.048188578 0.40960953 -0.077061772
-0.024661418 0.43525529 -0.060971856
-0.00014522299 0.43385807 -0.076096773
0.048188578 0.43376884 -0.077061772
-0.024661418 0.45953858 -0.060971975
-0.00014522299 0.45802501 -0.076096773
0.048188578 0.45792839 -0.077061892
-0.024661418 0.48382193 -0.060971975
-0.00014522299 0.48219192 -0.076096773
0.048188578 0.48208791 -0.077061892
-0.024661418 0.5081054 -0.060971975
-0.00014522299 0.50635874 -0.076096773
0.048188578 0.50624734 -0.077061772
0.072465658 0.50801158 -0.061784029
-0.024661835 0.53239083 -0.060953856
-0.00014549866 0.53052801 -0.076078892
-0.024661835 0.5566743 -0.060953975
-0.00014549866 0.55469489 -0.076078892
-0.024661835 0.58095765 -0.060953856
-0.00014549866 0.57886195 -0.076078892
-0.00014577433 0.60303164 -0.07606101
-0.024661835 0.60524142 -0.060953975
-0.049414981 0.36346334 -0.045700908
-0.049414981 0.38786414 -0.045700788
-0.049414981 0.41226509 -0.045700788
-0.049414981 0.43666604 -0.045700908
-0.049414981 0.46106681 -0.045700908
-0.049414981 0.48546776 -0.045700788
-0.049414981 0.50986874 -0.045700908
-0.049414981 0.53426951 -0.045700908
-0.049414981 0.5586704 -0.045700788
-0.049414981 0.58307147 -0.045700788
-0.074409381 0.36453164 -0.030281067
0.072654597 0.36404938 -0.037240267
-0.074409381 0.38905123 -0.030281067
0.072654597 0.38851559 -0.037240267
-0.074409381 0.41357082 -0.030281186
0.072654597 0.41298157 -0.037240148
-0.074409381 0.43809041 -0.030280828
0.072654597 0.43744755 -0.037240267
-0.074409381 0.46261001 -0.030280828
0.072654597 0.46191353 -0.037240267
-0.074409381 0.48712951 -0.030280948
0.072654597 0.4863795 -0.037240267
-0.074409381 0.51164913 -0.030280948
-0.074409381 0.53616869 -0.030281067
-0.074409381 0.56068838 -0.030281067
-0.074409381 0.585208 -0.030280948
-0.025744375 -0.98978329 -0.014078617
-0.0009457022 -0.98623312 -0.024104476
0.023649137 -0.98495889 -0.027702689
0.048188578 -0.9858408 -0.025212169
0.072816595 -0.98903334 -0.016196489
-0.025744375 -0.96513915 -0.014078498
-0.0009457022 -0.96166599 -0.024104357
0.023649137 -0.96041942 -0.027702808
0.048188578 -0.96128213 -0.025212288
0.072816595 -0.96440542 -0.01619637
-0.025744807 -0.94050086 -0.01406014
-0.0009457022 -0.93709898 -0.024104238
0.023649137 -0.93588006 -0.027702689
0.048188578 -0.93672359 -0.025212288
0.072816595 -0.93977737 -0.01619637
-0.025744807 -0.91585648 -0.01406002
-0.0009457022 -0.91253173 -0.024104357
0.023649137 -0.91134059 -0.02770257
0.048188578 -0.91216505 -0.025212407
0.072816595 -0.91514933 -0.016196489
-0.025744807 -0.89121211 -0.014059901
-0.0009457022 -0.88796449 -0.024104357
0.023649137 -0.88680112 -0.027702689
0.048188578 -0.88760638 -0.025212288
0.072816595 -0.89052141 -0.016196489
-0.025744807 -0.86656773 -0.014059901
-0.0009457022 -0.86339748 -0.024104238
0.023649137 -0.86226189 -0.02770257
0.048188578 -0.86304772 -0.025212288
0.072816595 -0.86589336 -0.016196489
-0.025744807 -0.84192312 -0.01406002
-0.0009457022 -0.83883035 -0.024104357
0.023649137 -0.8377223 -0.027702689
0.048188578 -0.83848917 -0.025212407
0.072816595 -0.84126532 -0.01619637
-0.025744807 -0.81727862 -0.01406002
-0.0009457022 -0.81426322 -0.024104357
0.023649137 -0.81318283 -0.02770257
0.048188578 -0.81393039 -0.025212407
0.072816595 -0.81663728 -0.016196489
-0.025744807 -0.79263425 -0.01406002
-0.0009457022 -0.78969598 -0.024104357
0.023649137 -0.7886436 -0.027702689
0.048188578 -0.78937197 -0.025212288
0.072816595 -0.79200935 -0.016196489
-0.025744807 -0.76798975 -0.01406002
-0.0009457022 -0.76512897 -0.024104357
0.023649137 -0.76410413 -0.02770257
0.048188578 -0.7648133 -0.025212407
0.072816595 -0.76738131 -0.016196489
-0.025744807 -0.74334538 -0.01406002
-0.0009457022 -0.74056172 -0.024104357
0.023649137 -0.73956454 -0.027702689
0.048188578 -0.74025464 -0.025212407
0.072816595 -0.74275327 -0.016196489
-0.025744807 -0.71870089 -0.01406002
-0.0009457022 -0.7159946 -0.024104357
0.023649137 -0.71502507 -0.02770257
0.048188578 -0.7156961 -0.025212288
0.072816595 -0.71812522 -0.016196489
-0.025744807 -0.69405639 -0.01406002
-0.0009457022 -0.69142759 -0.024104357
0.023649137 -0.69048572 -0.02770257
0.048188578 -0.69113743 -0.025212407
0.072816595 -0.69349718 -0.016196489
-0.025744807 -0.66941202 -0.014059901
-0.0009457022 -0.66686022 -0.024104357
0.023649137 -0.66594625 -0.02770257
0.048188578 -0.66657889 -0.025212526
0.072816595 -0.66886914 -0.016196489
-0.025744807 -0.6447674 -0.01406002
-0.0009457022 -0.64229321 -0.024104357
0.023649137 -0.64140677 -0.02770257
0.048188578 -0.64202034 -0.025212288
0.072816595 -0.64424121 -0.016196489
-0.025744807 -0.62012291 -0.01406002
-0.0009457022 -0.61772597 -0.024104357
0.023649137 -0.6168673 -0.02770257
0.048188578 -0.61746156 -0.025212288
0.072816595 -0.61961317 -0.016196489
-0.025744807 -0.59547853 -0.01406002
-0.0009457022 -0.59315896 -0.024104238
0.023649137 -0.59232795 -0.027702689
0.048188578 -0.59290302 -0.025212407
0.072816595 -0.59498513 -0.016196489
-0.025744807 -0.57083404 -0.01406002
-0.0009457022 -0.56859183 -0.024104357
0.023649137 -0.56778848 -0.02770257
0.048188578 -0.56834435 -0.025212169
0.072816595 -0.57035708 -0.016196489
-0.025744807 -0.54618967 -0.01406002
-0.0009457022 -0.54402459 -0.024104357
0.023649137 -0.54324913 -0.02770257
0.048188578 -0.54378581 -0.025212288
0.072816595 -0.54572916 -0.016196489
-0.025744807 -0.52154517 -0.01406002
-0.0009457022 -0.51945746 -0.024104238
0.023649137 -0.51870954 -0.027702689
0.048188578 -0.51922715 -0.025212407
0.072816595 -0.52110124 -0.016196489
-0.025744807 -0.49690071 -0.014059901
-0.0009457022 -0.49489042 -0.024104357
0.023649137 -0.49417016 -0.027702689
0.048188578 -0.49466863 -0.025212288
0.072816595 -0.4964731 -0.016196489
-0.025744807 -0.47225627 -0.014059901
-0.0009457022 -0.47032323 -0.024104238
0.023649137 -0.46963075 -0.02770257
0.048188578 -0.47011003 -0.025212288
0.072816595 -0.47184512 -0.016196489
-0.025744807 -0.44761184 -0.01406002
-0.0009457022 -0.44575605 -0.024104357
0.023649137 -0.44509128 -0.02770257
0.048188578 -0.44555125 -0.025212407
0.072816595 -0.44721708 -0.016196489
-0.025744807 -0.42296728 -0.01406002
-0.0009457022 -0.42118892 -0.024104357
0.023649137 -0.42055187 -0.027702689
0.048188578 -0.42099276 -0.025212288
0.072816595 -0.42258903 -0.016196489
-0.025744807 -0.39832279 -0.01406002
-0.0009457022 -0.39662179 -0.024104238
0.023649137 -0.3960124 -0.027702689
0.048188578 -0.39643422 -0.025212288
0.072816595 -0.39796105 -0.016196489
-0.025744807 -0.37367842 -0.01406002
-0.00094598532 -0.37205771 -0.02408576
0.023649137 -0.37147298 -0.02770257
0.048188578 -0.37187555 -0.025212288
0.072816595 -0.37333307 -0.016196489
-0.025744807 -0.34903398 -0.01406002
-0.00094598532 -0.3474904 -0.02408576
0.023649137 -0.34693354 -0.02770257
0.048188578 -0.34731686 -0.025212407
0.072816595 -0.34870502 -0.016196489
-0.025744807 -0.32438952 -0.01406002
-0.00094598532 -0.32292309 -0.02408576
0.023649137 -0.32239416 -0.02770257
0.048188578 -0.32275838 -0.025212288
0.072816446 -0.32407418 -0.016215086
-0.025744807 -0.29974505 -0.01406002
-0.00094598532 -0.29835582 -0.02408576
0.023649137 -0.2978546 -0.027702689
0.048188578 -0.29819971 -0.025212288
0.072816595 -0.29944897 -0.016196489
-0.025744807 -0.27510062 -0.014059901
-0.00094598532 -0.27378851 -0.02408576
0.023649137 -0.27331513 -0.02770257
0.048188578 -0.27364105 -0.025212407
0.072816595 -0.27482092 -0.016196489
-0.025744807 -0.25045604 -0.01406002
-0.00094598532 -0.2492213 -0.02408576
0.023649137 -0.24877575 -0.02770257
0.048188578 -0.24908254 -0.025212288
0.072816446 -0.25019071 -0.016214967
-0.025744807 -0.2258116 -0.01406002
-0.00094598532 -0.22465405 -0.024085879
0.023649137 -0.22423637 -0.02770257
0.048188578 -0.22452384 -0.025212288
0.072816446 -0.22556284 -0.016215086
-0.025744807 -0.20116717 -0.01406002
-0.00094598532 -0.20008674 -0.02408576
0.023649137 -0.19969684 -0.027702689
0.048188578 -0.19996521 -0.025212526
0.072816446 -0.20093483 -0.016215086
-0.025744807 -0.17652273 -0.01406002
-0.00094598532 -0.17551941 -0.02408576
0.023649137 -0.1751574 -0.02770257
0.048188578 -0.17540669 -0.025212288
0.072816446 -0.17630702 -0.016214967
-0.025744807 -0.15187827 -0.01406002
-0.00094598532 -0.15095213 -0.02408576
0.023649137 -0.15061799 -0.02770257
0.048188578 -0.15084806 -0.025212288
0.072816446 -0.15167913 -0.016215086
-0.025744807 -0.1272338 -0.014059901
-0.00094598532 -0.12638482 -0.02408576
0.023649137 -0.12607861 -0.02770257
0.048188578 -0.1262894 -0.025212288
0.072816446 -0.12705141 -0.016214967
-0.025744807 -0.10258938 -0.014059901
-0.00094598532 -0.10181755 -0.02408576
0.023649137 -0.10153918 -0.02770257
0.048188578 -0.10173082 -0.025212169
0.072816446 -0.10242349 -0.016215086
-0.025744807 -0.07794483 -0.014059901
-0.00094598532 -0.077250257 -0.02408576
0.023649137 -0.076999649 -0.027702689
0.048188578 -0.07717225 -0.025212288
0.072816446 -0.077795491 -0.016215086
-0.025744807 -0.05330047 -0.014059901
-0.00094598532 -0.052682966 -0.02408576
0.023649137 -0.052460223 -0.02770257
0.048188578 -0.052613586 -0.025212288
0.072816446 -0.053167671 -0.016214967
-0.025744807 -0.028655916 -0.01406002
-0.00094598532 -0.02811563 -0.02408576
0.023649137 -0.027920842 -0.02770257
0.048188578 -0.028055057 -0.025212288
0.072816446 -0.028539822 -0.016215086
-0.025744807 -0.0040114969 -0.01406002
-0.00094598532 -0.0035484284 -0.024085879
0.023649137 -0.0033814162 -0.02770257
0.048188578 -0.0034963787 -0.025212288
0.072816446 -0.0039120018 -0.016214967
-0.025744807 0.020633057 -0.01406002
-0.00094598532 0.021018855 -0.024085879
0.023649137 0.021158114 -0.027702689
0.048188578 0.021062188 -0.025212407
0.072816446 0.020715907 -0.016214967
-0.025744807 0.045277417 -0.01406002
-0.00094598532 0.045586146 -0.024085879
0.023649137 0.04569754 -0.027702689
0.048188578 0.045620762 -0.025212288
0.072816446 0.045343913 -0.016215086
-0.025744807 0.069921874 -0.01406002
-0.00094598532 0.070153438 -0.024085879
0.023649137 0.070236921 -0.02770257
0.048188578 0.070179485 -0.025212288
0.072816446 0.069971725 -0.016214967
-0.025744807 0.09456639 -0.014059901
-0.00094598532 0.094720721 -0.024085879
0.023649137 0.094776303 -0.02770257
0.048188578 0.094738059 -0.025212288
0.072816446 0.094599582 -0.016214967
-0.025744807 0.11921079 -0.014059901
-0.00094598532 0.11928806 -0.024085879
0.023649137 0.11931592 -0.027702689
0.048188578 0.11929673 -0.025212288
0.072816446 0.11922744 -0.016214967
-0.025744807 0.1438552 -0.014059901
0.048188578 0.1438552 -0.025212288
-0.00094598532 0.14385535 -0.024085879
0.023649137 0.1438553 -0.027702689
0.072816446 0.14385535 -0.016214967
-0.025744807 0.16849971 -0.01406002
-0.00094598532 0.16842264 -0.02408576
0.023649137 0.16839477 -0.02770257
0.048188578 0.16841412 -0.02519381
0.072816446 0.16848326 -0.016214967
-0.025744807 0.19314417 -0.01406002
-0.00094598532 0.19298993 -0.02408576
0.023649137 0.19293416 -0.02770257
0.048188578 0.1929729 -0.02519381
0.072816446 0.19311103 -0.016214967
-0.025744807 0.21778873 -0.014059901
-0.00094598532 0.21755722 -0.024085879
0.023649137 0.2174736 -0.02770257
0.048188578 0.21753141 -0.02519393
0.072816446 0.21773893 -0.016214967
-0.025744807 0.24243319 -0.014059901
-0.00094598532 0.24212441 -0.02408576
0.023649137 0.24201307 -0.027702689
0.048188578 0.2420902 -0.02519381
0.072816446 0.24236675 -0.016214967
-0.025744807 0.26707759 -0.014059901
-0.00094598532 0.26669168 -0.02408576
0.023649137 0.26655254 -0.02770257
0.048188578 0.26664895 -0.02519381
0.072816446 0.26699466 -0.016214967
-0.025744807 0.29172206 -0.014059901
-0.00094598532 0.29125899 -0.02408576
0.023649137 0.29109192 -0.02770257
0.048188578 0.29120779 -0.02519381
0.072816446 0.29162258 -0.016215086
-0.025744807 0.31636649 -0.014059901
-0.00094598532 0.31582633 -0.02408576
0.023649137 0.31563133 -0.02770257
0.048188578 0.31576648 -0.02519381
0.072816446 0.31625038 -0.016214967
-0.025744807 0.34101087 -0.01406002
-0.00094598532 0.34039357 -0.02408576
0.023649137 0.34017083 -0.027702689
0.048188578 0.3403253 -0.02519393
0.072816446 0.34087819 -0.016215086
-0.099647284 0.36560905 -0.014729142
-0.099647284 0.39024839 -0.014728904
-0.099647284 0.41488782 -0.014729142
-0.099647284 0.43952692 -0.014729142
-0.099647284 0.46416625 -0.014728904
-0.099647284 0.48880565 -0.014729142
-0.099647284 0.51344502 -0.014729142
-0.099647284 0.53808421 -0.014729142
-0.099647284 0.56272364 -0.014729142
-0.099647284 0.58736295 -0.014729023
0.097713321 -0.99521375 0.0012568235
0.097713321 -0.97045135 0.001257062
0.097713321 -0.94568908 0.001257062
0.097713321 -0.92092657 0.0012568235
0.097713321 -0.89616418 0.0012569427
0.097713321 -0.87140203 0.001257062
0.097713321 -0.84663951 0.001257062
0.097713321 -0.82187724 0.0012568235
0.097713321 -0.79711485 0.001257062
0.097713321 -0.77235246 0.0012569427
0.097713321 -0.74759007 0.001257062
0.097713321 -0.72282779 0.0012569427
0.097713321 -0.69806528 0.0012569427
0.097713321 -0.67330313 0.001257062
0.097713321 -0.6485405 0.001257062
0.097713321 -0.62377834 0.001257062
0.097713321 -0.59901583 0.001257062
0.097713321 -0.57425344 0.0012569427
0.097713321 -0.54949117 0.001257062
0.097713321 -0.52472878 0.001257062
0.097713321 -0.49996629 0.001257062
0.097713321 -0.47520408 0.001257062
0.097713321 -0.45044157 0.001257062
0.097713321 -0.42567936 0.001257062
0.097713321 -0.40091684 0.001257062
0.097713321 -0.37615445 0.0012569427
0.097713321 -0.35139212 0.001257062
0.097713321 -0.3266297 0.001257062
0.097713321 -0.30186749 0.001257062
0.097713321 -0.27710506 0.001257062
0.097713321 -0.2523427 0.0012569427
0.097713321 -0.22758034 0.001257062
0.097713321 -0.20281798 0.0012569427
0.097713321 -0.17805544 0.0012569427
0.097713321 -0.15329316 0.001257062
0.097713321 -0.12853077 0.001257062
0.097713321 -0.10376848 0.001257062
0.097713321 -0.079006016 0.001257062
0.097713321 -0.054243654 0.0012569427
0.097713321 -0.029481277 0.001257062
0.097713321 -0.0047189593 0.001257062
0.097713321 0.02004341 0.001257062
0.097713321 0.04480578 0.001257062
0.097713321 0.069568247 0.0012569427
0.097713321 0.094330519 0.001257062
0.097713321 0.11909288 0.0012569427
0.097713321 0.14385541 0.001257062
0.097713321 0.16861767 0.001257062
0.097713321 0.19338004 0.001257062
0.097713321 0.21814232 0.001257062
0.097713321 0.24290483 0.001257062
0.097713321 0.2676672 0.001257062
0.097713321 0.29242945 0.001257062
0.097713321 0.3171919 0.001257062
0.097713321 0.34195411 0.001257062
-0.12513386 0.36669835 0.00099420547
0.097749472 0.36687928 0.0036047697
-0.12513386 0.39145875 0.00099432468
0.097749472 0.3916598 0.0036047697
-0.12513386 0.41621915 0.00099420547
0.097749472 0.41644025 0.0036048889
-0.12513386 0.44097954 0.00099420547
0.097749472 0.44122055 0.0036047697
-0.12513386 0.46573982 0.00099432468
0.097749472 0.46600112 0.0036047697
-0.12513386 0.49050021 0.00099432468
0.097749472 0.49078164 0.0036047697
-0.12513386 0.51526046 0.00099432468
-0.12513386 0.540021 0.00099420547
-0.12513386 0.56478125 0.00099420547
-0.12513386 0.58954167 0.00099432468
-0.050974306 -0.9965179 0.0049396753
-0.050974306 -0.97172713 0.0049399137
-0.050974306 -0.94693637 0.0049396753
-0.050974306 -0.92214584 0.0049396753
-0.050974306 -0.89735496 0.0049399137
-0.050974306 -0.87256432 0.0049399137
-0.050974306 -0.84777355 0.0049397945
-0.050974306 -0.82298291 0.0049396753
-0.050974306 -0.79819214 0.0049399137
-0.050974306 -0.77340138 0.0049399137
-0.050974306 -0.74861073 0.0049397945
-0.050974306 -0.72381997 0.0049396753
-0.050974306 -0.69902933 0.0049399137
-0.050974306 -0.67423856 0.0049397945
-0.050974306 -0.6494478 0.0049397945
-0.050974306 -0.62465715 0.0049399137
-0.050974306 -0.59986639 0.0049397945
-0.050974306 -0.57507563 0.0049397945
-0.050974306 -0.55028486 0.0049397945
-0.050974306 -0.52549422 0.0049399137
-0.050974306 -0.50070345 0.0049397945
-0.050974306 -0.47591278 0.0049397945
-0.050974306 -0.45112208 0.0049399137
-0.050974306 -0.42633137 0.0049397945
-0.050974306 -0.40154055 0.0049397945
-0.050974306 -0.37674984 0.0049396753
-0.050974306 -0.3519592 0.0049397945
-0.050974306 -0.32716843 0.0049397945
-0.050974306 -0.30237761 0.0049397945
-0.050974306 -0.27758709 0.0049399137
-0.050974306 -0.25279626 0.0049397945
-0.050974306 -0.2280055 0.0049397945
-0.050974306 -0.20321473 0.0049396753
-0.050974306 -0.17842415 0.0049397945
-0.050974887 -0.15363511 0.0049586296
-0.050974887 -0.12884423 0.0049586296
-0.050974887 -0.10405336 0.0049586296
-0.050974887 -0.079262495 0.0049586296
-0.050974887 -0.054471627 0.0049586296
-0.050974887 -0.029680803 0.0049586296
-0.050974887 -0.0048899502 0.0049587488
-0.050974887 0.019900918 0.0049587488
-0.050974887 0.044691786 0.0049587488
-0.050974887 0.069482751 0.0049586296
-0.050974887 0.094273716 0.0049586296
-0.050974887 0.11906439 0.0049585104
-0.050974887 0.1438552 0.0049586296
-0.050974887 0.16864607 0.0049586296
-0.050974887 0.19343694 0.0049586296
-0.050974887 0.2182278 0.0049586296
-0.050974887 0.24301863 0.0049586296
-0.050974887 0.26780951 0.0049586296
-0.050974887 0.29260036 0.004958868
-0.050974887 0.31739131 0.0049585104
-0.050974887 0.34218216 0.0049585104
0.27294618 0.49347827 0.028627396
0.12341632 -0.98456073 0.0419873
0.12341632 -0.95948505 0.041987419
0.12341632 -0.93440902 0.041987419
0.12341632 -0.90933311 0.041987419
0.12341632 -0.8842572 0.041987538
0.12341632 -0.85918128 0.041987538
0.12341632 -0.83410525 0.041987419
0.12341632 -0.80902946 0.041987538
0.12341632 -0.78395367 0.0419873
0.12341632 -0.75887764 0.0419873
0.12341632 -0.73380172 0.0419873
0.12341632 -0.70872593 0.041987419
0.12341632 -0.68364978 0.041987181
0.12341632 -0.65857399 0.0419873
0.12341632 -0.63349807 0.041987419
0.12341632 -0.60842216 0.0419873
0.12341632 -0.58334625 0.041987419
0.12341632 -0.55827034 0.0419873
0.12341632 -0.5331943 0.0419873
0.12341632 -0.50811851 0.041987419
0.12341632 -0.48304263 0.041987419
0.12341632 -0.45796672 0.041987538
0.12341632 -0.43289074 0.0419873
0.12341632 -0.40781483 0.0419873
0.12341632 -0.38273886 0.041987419
0.12341632 -0.35766307 0.041987419
0.12341632 -0.33258706 0.0419873
0.12341632 -0.30751112 0.0419873
0.12341632 -0.28243524 0.041987419
0.12341632 -0.25735933 0.041987538
0.12341632 -0.23228338 0.041987419
0.12341632 -0.20720744 0.0419873
0.12341632 -0.18213159 0.0419873
0.12341632 -0.15705571 0.041987419
0.12341632 -0.13197976 0.041987538
0.12341632 -0.10690376 0.0419873
0.12341632 -0.081827909 0.041987419
0.12341632 -0.056751966 0.0419873
0.12341632 -0.031676114 0.041987419
0.12341632 -0.0066002309 0.041987538
0.12341632 0.018475726 0.0419873
0.12341632 0.043551616 0.0419873
0.12341632 0.068627469 0.041987419
0.12341632 0.093703412 0.041987538
0.12341632 0.11877941 0.0419873
0.12341632 0.14385526 0.0419873
0.12341632 0.1689312 0.0419873
0.12341632 0.1940071 0.041987419
0.12341632 0.21908295 0.041987538
0.12341632 0.24415898 0.0419873
0.12341632 0.2692349 0.041987419
0.12341632 0.29431078 0.0419873
0.12341632 0.31938663 0.041987419
0.12341632 0.34446269 0.0419873
0.12349775 0.36978281 0.045513272
0.12349775 0.39488584 0.045513272
0.12349775 0.41998896 0.045513391
-0.15255514 0.44497088 0.044202328
0.12349775 0.44509199 0.045513391
-0.15223517 0.4695439 0.039006829
0.12349775 0.470195 0.045513391
-0.15225175 0.49462578 0.039275765
0.12349775 0.49529812 0.045513391
-0.152643 0.52041435 0.045629144
-0.077902481 -0.99096417 0.06047225
-0.077902481 -0.96574593 0.060472488
-0.077902481 -0.9405278 0.060472369
-0.077902481 -0.91530955 0.060472608
-0.077902481 -0.89009142 0.060472488
-0.077902481 -0.86487317 0.060472488
-0.077902481 -0.83965504 0.060472608
-0.077902481 -0.81443679 0.060472608
-0.077902481 -0.78921854 0.060472488
-0.077902481 -0.76400042 0.060472488
-0.077902481 -0.73878217 0.060472488
-0.077902481 -0.71356404 0.060472608
-0.077902481 -0.68834579 0.060472369
-0.077902481 -0.66312754 0.060472488
-0.077902481 -0.63790929 0.060472488
-0.077902481 -0.61269104 0.060472608
-0.077902481 -0.58747292 0.060472488
-0.077902481 -0.56225467 0.060472488
-0.077902481 -0.53703642 0.060472488
-0.077902481 -0.51181817 0.060472369
-0.077902481 -0.48660001 0.060472488
-0.077902481 -0.46138176 0.060472488
-0.077902481 -0.43616363 0.060472488
-0.077902481 -0.41094539 0.060472608
-0.077902481 -0.38572714 0.060472369
-0.077902481 -0.36050889 0.060472488
-0.077902481 -0.33529076 0.060472488
-0.077902481 -0.31007254 0.060472488
-0.077902481 -0.28485438 0.060472608
-0.077902481 -0.25963604 0.060472369
-0.077902481 -0.23441792 0.060472488
-0.077902481 -0.20919961 0.060472488
-0.077902481 -0.18398148 0.060472488
-0.077902481 -0.15876329 0.060472608
-0.077902481 -0.1335451 0.060472608
-0.077902481 -0.10832679 0.060472488
-0.077902481 -0.083108619 0.060472488
-0.077902481 -0.057890415 0.060472488
-0.077902481 -0.032672226 0.060472488
-0.077902481 -0.0074540377 0.060472488
-0.077902481 0.017764196 0.060472608
-0.077902481 0.042982489 0.060472369
-0.077902481 0.068200581 0.060472369
-0.077902481 0.093418777 0.060472488
-0.077902481 0.11863697 0.060472488
-0.077902481 0.14385515 0.060472488
-0.077902481 0.16907334 0.060472488
-0.077902481 0.19429168 0.060472369
-0.077902481 0.21950987 0.060472488
-0.077902481 0.24472806 0.060472488
-0.077902481 0.26994628 0.060472488
-0.077902481 0.2951645 0.060472488
-0.077902481 0.32038268 0.060472608
-0.077902481 0.34560096 0.060472488
-0.15332362 0.42093453 0.056681156
-0.17891163 0.44665554 0.06243968
-0.17854899 0.47136503 0.057205439
-0.17861494 0.49666089 0.058157563
-0.17917252 0.52279055 0.066205502
-0.15358828 0.54740906 0.06097877
-0.1546794 0.39744037 0.078695893
-0.17983763 0.42255399 0.075805187
-0.20582439 0.44867089 0.084256053
-0.20541002 0.47353348 0.078873396
-0.20555408 0.49909508 0.080744505
-0.18047373 0.55036604 0.084987044
0.14992592 0.37276429 0.088547468
-0.18148848 0.39905193 0.099633455
0.14992592 0.39819866 0.088547468
-0.20695291 0.42451105 0.098915815
0.14992592 0.42363289 0.08854723
0.14992592 0.44906732 0.088547468
0.14992592 0.4745017 0.088547468
0.14992592 0.49993581 0.088547468
-0.20636071 0.52567923 0.091222763
-0.15573584 0.57719457 0.095850348
-0.15697549 0.37466484 0.11597979
-0.23348819 0.45113909 0.11097479
-0.23299788 0.47616649 0.10518444
-0.23325725 0.50205898 0.1082474
-0.20827581 0.55419838 0.11610067
0.17706014 0.37582409 0.13271201
-0.20901097 0.40105492 0.12565053
0.17706014 0.40159839 0.13271201
-0.23488359 0.42692751 0.12745404
0.17706014 0.42737263 0.13271201
0.17706014 0.4531472 0.13271201
0.17706014 0.47892138 0.13271224
0.17706014 0.50469565 0.13271224
-0.23446883 0.52929711 0.12255573
-0.18377741 0.58201325 0.13267148
-0.18484591 0.3768898 0.14809394
-0.2621927 0.45423657 0.14450634
-0.26156595 0.47942275 0.13772166
-0.26202631 0.50577259 0.14270532
-0.23799677 0.40402374 0.16421831
-0.26417255 0.43018636 0.16593885
-0.26436424 0.53454632 0.16801417
-0.23824786 0.56049013 0.16718376
-0.29165128 0.48369524 0.18041444
-0.31967351 0.45916566 0.19786525
-0.29239812 0.45824304 0.18787766
-0.31932539 0.48511809 0.19463491
-0.32003826 0.51208216 0.20124972
-0.29265064 0.5109129 0.19040048
-0.34815541 0.43450749 0.21697009
-0.32110938 0.4340179 0.21118867
-0.29391655 0.4333289 0.20305049
-0.40095097 0.46089494 0.2165854
-0.37398431 0.46048489 0.21214724
-0.34686658 0.45989937 0.20580864
-0.50673103 0.48737693 0.21720529
-0.48039514 0.48743463 0.2177825
-0.45405352 0.48749459 0.21838117
-0.42747158 0.48738766 0.2173121
-0.40069383 0.4871183 0.21462107
-0.37372199 0.48665762 0.21001756
-0.34658974 0.48599654 0.2034111
-0.37436 0.51358527 0.21519732
-0.34727889 0.51295817 0.2093792
-0.29479492 0.5396055 0.21182752
-0.48262972 0.40926442 0.23229659
-0.29697931 0.40936908 0.23365545
-0.27018297 0.40916494 0.23100352
-0.50782156 0.43509856 0.2239511
-0.48137128 0.43511319 0.22412264
-0.45513511 0.43525323 0.22577572
-0.42867711 0.43527323 0.22601211
-0.40199065 0.43514773 0.22453046
-0.37511072 0.43487352 0.22129226
-0.53601843 0.46251357 0.23410869
-0.50703526 0.461126 0.219087
-0.48064876 0.46115765 0.21942937
-0.45430386 0.46121895 0.22009313
-0.42772347 0.46113002 0.21912968
-0.53557652 0.48880723 0.23149908
-0.5072844 0.51417053 0.22062826
-0.48083663 0.51417291 0.22064984
-0.45449185 0.51425147 0.22137797
-0.4279519 0.51418674 0.22077823
-0.40126991 0.51399755 0.21902299
-0.50868654 0.54162329 0.22930205
-0.48199648 0.54149389 0.22818327
-0.45578629 0.54173017 0.23022783
-0.42932695 0.54178494 0.23070168
-0.4027842 0.54177248 0.23059416
-0.37609726 0.54162329 0.22930205
-0.34915483 0.54119867 0.22562551
-0.32200214 0.54048818 0.21947229
-0.48482645 0.38371199 0.24656439
-0.45872957 0.38397431 0.25035143
-0.5096311 0.40948364 0.23514497
-0.45654964 0.40950692 0.23544741
-0.43031996 0.40969336 0.23786855
-0.40386075 0.40976673 0.23882055
-0.37716299 0.40969998 0.23795509
-0.35055855 0.40968677 0.23778188
-0.32376805 0.40953863 0.23585773
-0.53736681 0.43663296 0.2420702
-0.53658557 0.5159843 0.23745739
-0.51123476 0.57008255 0.24506509
-0.48377746 0.56942821 0.23975134
-0.45787698 0.57001567 0.24452221
-0.43169969 0.57042259 0.24782598
-0.51283002 0.3842918 0.254933
-0.43272385 0.38431144 0.25521684
-0.4066565 0.38465557 0.26018381
-0.38040614 0.38493991 0.26428616
-0.54044926 0.54519928 0.26027155
-0.40555233 0.57090557 0.25174642
-0.37931335 0.57135725 0.25541353
-0.35314783 0.57194734 0.26020575
-0.48690641 0.59868586 0.26007426
-0.46086723 0.59932637 0.26496708
-0.48827606 0.35844126 0.26897061
-0.46163976 0.35851976 0.27024841
-0.43590546 0.35900813 0.27817822
-0.3544704 0.38545066 0.27165961
-0.32731768 0.57300526 0.2687943
-0.43531105 0.60049379 0.27388847
-0.41058123 0.35974693 0.29017472
-0.32897913 0.3863202 0.28421068
-0.41013825 0.60218215 0.28678942
-0.46643251 0.3334524 0.30301666
-0.44023868 0.33379927 0.30945075
-0.38541731 0.36065823 0.30497134
-0.3856777 0.60483807 0.30708587
-0.46658689 0.63153738 0.3040725
-0.44058555 0.63262939 0.3119539
-0.4159348 0.33496493 0.33108306
-0.36183584 0.36253512 0.33544612
-0.41755569 0.63699627 0.34346914
-0.39316764 0.33694875 0.36789668
0 0 0 1 0 0 0 1 0 0 0 1 0 0 0 0 0 834 1 0 0
