ply
format ascii 1.0
comment PCL generated
element vertex 495
property float x
property float y
property float z
element camera 1
property float view_px
property float view_py
property float view_pz
property float x_axisx
property float x_axisy
property float x_axisz
property float y_axisx
property float y_axisy
property float y_axisz
property float z_axisx
property float z_axisy
property float z_axisz
property float focal
property float scalex
property float scaley
property float centerx
property float centery
property int viewportx
property int viewporty
property float k1
property float k2
end_header
0.18511501 -0.02943548 -0.37607282
0.18478508 -0.010986677 -0.38035893
0.18471381 0.0074218847 -0.38128465
0.1850435 0.025896445 -0.37700182
0.16700767 -0.06644661 -0.37114555
0.16700684 -0.047959864 -0.37115729
0.18606073 -0.048073348 -0.36378771
0.16700605 -0.029473206 -0.37116909
0.16700684 -0.010986677 -0.37115747
0.16700767 0.0074999388 -0.37114555
0.16700605 0.025986295 -0.37116927
0.16700684 0.044472996 -0.37115735
0.18583687 0.04457603 -0.36669594
0.16700684 0.062959567 -0.37115747
0.14940944 -0.085377529 -0.35671937
0.16868155 -0.085677177 -0.34698522
0.14940944 -0.066779777 -0.35671943
0.18736717 -0.067008518 -0.34681648
0.1494087 -0.048181843 -0.35673141
0.14940724 -0.029584087 -0.35675532
0.20569977 -0.029629575 -0.35084748
0.20532916 -0.010986677 -0.35522425
0.14940797 -0.010986634 -0.35674328
0.1494087 0.0076109506 -0.35673141
0.20525014 0.0076152869 -0.35615736
0.14940797 0.02620836 -0.3567434
0.20562047 0.026284635 -0.35178405
0.14940797 0.044805855 -0.3567434
0.1494087 0.063403785 -0.35673141
0.18694136 0.063538738 -0.35234803
0.1494087 0.08200141 -0.35673141
0.16829753 0.0821632 -0.35252815
0.13159785 -0.10453672 -0.34213102
0.1510537 -0.10500296 -0.33002001
0.13159785 -0.085826688 -0.34213114
0.13159785 -0.067116708 -0.34213114
0.13159785 -0.048406642 -0.34213102
0.2067755 -0.048468087 -0.33814383
0.13159654 -0.029696485 -0.34215522
0.13159719 -0.01098672 -0.34214318
0.22631069 -0.01098672 -0.32954323
0.13159785 0.0077233911 -0.34213102
0.22622263 0.0078128073 -0.33049649
0.13159719 0.026433114 -0.342143
0.13159719 0.045143053 -0.34214312
0.20652704 0.045167726 -0.34107792
0.13159785 0.063853294 -0.34213096
0.13159719 0.082562841 -0.342143
0.13159785 0.10127334 -0.34213084
0.15044656 0.10137742 -0.33987844
0.11356983 -0.105105 -0.32736534
0.11356983 -0.086281359 -0.32736528
0.18938826 -0.086490937 -0.32056171
0.11357038 -0.067457981 -0.32735306
0.20827891 -0.067618817 -0.32038939
0.11356983 -0.048634041 -0.32736534
0.11356926 -0.029810272 -0.3273775
0.22672249 -0.029827878 -0.32508528
0.11356926 -0.01098672 -0.3273775
0.11356983 0.0078370478 -0.32736534
0.11356926 0.026660513 -0.32737762
0.22663525 0.026681196 -0.3260296
0.11356983 0.045484368 -0.32736534
0.22766145 0.045771737 -0.3149209
0.11356983 0.064308003 -0.32736528
0.20780545 0.064350672 -0.32598066
0.11356926 0.083131209 -0.3273775
0.18895696 0.083177909 -0.32616454
0.11356983 0.10195537 -0.32736528
0.095321424 -0.1056803 -0.3124193
0.17178009 -0.10607135 -0.30226147
0.095321424 -0.086741574 -0.31241918
0.095321901 -0.067803204 -0.31240666
0.095321901 -0.048864301 -0.31240678
0.22793607 -0.048871413 -0.31194782
0.095320947 -0.029925272 -0.31243157
0.095320947 -0.010986764 -0.31243157
0.24774152 -0.010986677 -0.30332351
0.095321424 0.0079520475 -0.31241918
0.24764532 0.0080146212 -0.30428469
0.095321424 0.026890818 -0.31241918
0.24810198 0.027086258 -0.29972148
0.095321424 0.045829456 -0.31241918
0.095321901 0.064768657 -0.31240678
0.095320947 0.083706431 -0.31243157
0.21007146 0.084214956 -0.29922032
0.095321424 0.10264572 -0.31241918
0.1710901 0.10265487 -0.31222081
0.095321901 0.12158505 -0.31240666
0.11474953 0.12215533 -0.30182397
0.076848194 -0.10626224 -0.29730165
0.076848581 -0.087207474 -0.29728925
0.21055962 -0.087325513 -0.29345548
0.076849356 -0.068152882 -0.2972641
0.22965132 -0.068242565 -0.29338002
0.076848969 -0.049097337 -0.29727662
0.24955696 -0.049283542 -0.28518236
0.076848581 -0.030041922 -0.29728913
0.24819727 -0.030030517 -0.29876924
0.076848194 -0.010986677 -0.29730165
0.076848581 0.0080685224 -0.29728925
0.076848581 0.027123723 -0.29728913
0.076848969 0.046179269 -0.29727662
0.24925676 0.046389278 -0.28818226
0.076848969 0.065234467 -0.2972765
0.22912915 0.065180436 -0.29903245
0.076848194 0.084288888 -0.29730165
0.076848581 0.10334448 -0.29728913
0.076848969 0.12240037 -0.29727662
0.058146827 -0.10685177 -0.28198457
0.19304013 -0.10719287 -0.27312279
0.058147121 -0.087679103 -0.28197193
0.058147706 -0.068506554 -0.28194642
0.058147706 -0.049333278 -0.28194642
0.058147121 -0.030159825 -0.28197181
0.27013889 -0.030237533 -0.27188087
0.058146827 -0.010986764 -0.28198457
0.26963735 -0.01098672 -0.27653468
0.058147121 0.0081864279 -0.28197193
0.26953286 0.0082208589 -0.27750421
0.058147412 0.02735975 -0.28195918
0.27003542 0.027500074 -0.27284122
0.058147706 0.046533246 -0.28194642
0.058147706 0.065706529 -0.28194642
0.25092784 0.066028677 -0.2714839
0.058146827 0.084878378 -0.28198457
0.23165624 0.085275196 -0.27167606
0.058146827 0.10405131 -0.28198457
0.19220841 0.10396168 -0.28392708
0.039212771 -0.088156708 -0.26646376
0.23228635 -0.088206187 -0.26485479
0.039213166 -0.068864785 -0.26643825
0.25149974 -0.06888026 -0.265769
0.039213166 -0.049572039 -0.26643813
0.27165341 -0.0497046 -0.257828
0.039212968 -0.030279336 -0.266451
0.039212771 -0.01098672 -0.26646388
0.039212968 0.0083059389 -0.26645112
0.039212968 0.027598556 -0.26645112
0.039213166 0.046891343 -0.26643813
0.27132577 0.047019962 -0.26086831
0.039213363 0.066184439 -0.26642525
0.039212573 0.085475273 -0.26647675
0.039212573 0.10476758 -0.26647675
0.21498978 -0.10842392 -0.24113774
0.020041352 -0.069227479 -0.25073552
0.020041453 -0.049814053 -0.25072241
0.020041352 -0.030400278 -0.25073552
0.2925612 -0.030449018 -0.24441493
0.020041252 -0.010986634 -0.25074852
0.29201347 -0.010986634 -0.24915838
0.020041252 0.0084268358 -0.25074852
0.29190055 0.0084314775 -0.25013614
0.020041352 0.027840525 -0.25073552
0.29245088 0.027923044 -0.24537027
0.020041453 0.047254343 -0.25072253
0.020041453 0.066667981 -0.25072253
0.2732161 0.066895641 -0.24332786
0.020041052 0.086079635 -0.25077462
0.25372848 0.086359762 -0.24349821
0.21381697 0.10529836 -0.25498796
0.25452021 -0.089107454 -0.23558652
0.27384031 -0.069532193 -0.23753631
0.00062778138 -0.050058838 -0.23482168
0.29424122 -0.050135072 -0.22986531
0.00062778138 -0.03052265 -0.23483491
0.00062778138 -0.010986677 -0.23484802
0.00062778138 0.008549165 -0.23484802
0.00062778138 0.028085269 -0.23483479
0.00062778138 0.047621544 -0.2348218
0.2938869 0.047665082 -0.23293388
0.31548312 -0.030665185 -0.21632552
0.31488749 -0.010986764 -0.22116148
0.31476602 0.0086469501 -0.22214782
0.31536448 0.028355423 -0.21728885
0.29601344 0.067782864 -0.21451735
0.27630231 0.087468438 -0.21469152
0.23593521 0.10666704 -0.22535479
0.23750974 -0.10968754 -0.20831001
0.2772792 -0.09002997 -0.20562696
0.29668981 -0.070199132 -0.20866013
0.31733871 -0.050575472 -0.20126021
0.31695384 0.048324425 -0.20438468
0.33892015 -0.030886253 -0.1876049
0.33827299 -0.01098672 -0.19255006
0.33814281 0.0088671073 -0.19354498
0.33879125 0.028797258 -0.18859005
0.31933615 0.068690419 -0.18504298
0.29939628 0.088602833 -0.1852212
0.25858033 0.10806826 -0.19501555
0.26062003 -0.11098372 -0.1746335
0.30058372 -0.090974957 -0.17493761
0.32006583 -0.070881367 -0.17911863
0.34095812 -0.051025633 -0.17203188
0.34054711 0.04899912 -0.17517269
0.36289558 -0.031112699 -0.15818965
0.36218891 -0.01098672 -0.16328967
0.36204985 0.0090922955 -0.16429329
0.36275211 0.029249366 -0.15922523
0.34320253 0.069619142 -0.15488148
0.32315311 0.089802444 -0.15405309
0.28203449 0.10961625 -0.16150343
0.28434542 -0.11231442 -0.14006078
0.32445046 -0.0919424 -0.14351976
0.34398863 -0.071579784 -0.14887452
0.36512265 -0.051486108 -0.14211726
0.36468327 0.049689211 -0.14528823
0.3874439 -0.031345475 -0.12795389
0.38665351 -0.010986634 -0.13335788
0.38650542 0.0093225539 -0.13437057
0.38726172 0.029711623 -0.12919962
0.30620757 0.11124524 -0.12623382
0.3489016 -0.092933469 -0.11133265
0.36847401 -0.072294369 -0.11793113
0.38984954 -0.051957387 -0.11150682
0.38937914 0.050395083 -0.11472261
0.36762989 0.070569411 -0.12402284
0.3475062 0.091036402 -0.12199533
0.30871075 -0.11368103 -0.10455549
0.41256666 -0.031583585 -0.097010732
0.41168812 -0.01098672 -0.10271704
0.41152859 0.0095583238 -0.10375321
0.41234329 0.03018485 -0.098461509
0.3935416 -0.073025785 -0.086263657
0.41465637 0.051117521 -0.083437681
0.39264217 0.071542665 -0.092413187
0.37246501 0.092301361 -0.089128137
0.33104444 0.11291956 -0.089983463
0.3337442 -0.11508562 -0.068064332
0.37396088 -0.093949616 -0.078332782
0.41515869 -0.05243985 -0.080175042
0.43730846 -0.010986764 -0.071371198
0.43713942 0.0097995568 -0.072417021
0.43801507 0.03066922 -0.06700027
0.41921684 -0.073775068 -0.053816676
0.43828431 -0.03182742 -0.065334797
0.41825867 0.072539382 -0.060040236
0.39805058 0.093598329 -0.055435896
0.35657117 0.11464041 -0.052726269
0.39964727 -0.09499082 -0.044519186
0.44107094 -0.052933764 -0.048096895
0.46353751 -0.010986677 -0.039280653
0.46335876 0.010046555 -0.040336132
0.44053823 0.051857695 -0.051392198
0.35946983 -0.11652854 -0.030576468
0.46461815 -0.032077193 -0.032899976
0.46429807 0.031165171 -0.034789681
0.44450152 0.073560677 -0.026875377
0.4259865 -0.096058428 -0.0098465681
0.44551986 -0.074542731 -0.020576358
0.46760806 -0.053439468 -0.015245199
0.46704173 0.052615255 -0.018589377
0.42428678 0.094928026 -0.02088654
0.38281697 0.11640968 -0.014419436
0.49159336 -0.032333083 0.00033736229
0.49039727 -0.010986677 -0.0064184666
0.49020863 0.010299452 -0.00748384
0.49121162 0.031672787 -0.0018186569
0.38591868 -0.11801197 0.0079650879
0.47247133 -0.075329006 0.013471007
0.49479294 -0.053957663 0.018408537
0.49419478 0.053391643 0.015030026
0.47139674 0.074607611 0.0071259737
0.45119619 0.096291557 0.014536738
0.45300388 -0.097153582 0.025719166
0.51922816 -0.032595042 0.034374714
0.51791066 -0.01098672 0.027243495
0.517712 0.010558506 0.026168227
0.51878428 0.03219302 0.03197217
0.40981022 0.11822879 0.024965405
0.50010091 -0.076135397 0.048387766
0.52201593 0.054186888 0.049463868
0.49896353 0.075680383 0.041964054
0.48072872 -0.098277785 0.06222868
0.52264959 -0.054488435 0.052893639
-0.02119296 -0.01098672 0.061965466
0.54609883 -0.010986634 0.061718583
-0.021197649 0.010838635 0.062574387
0.54588991 0.01082385 0.060633063
0.47881019 0.097691029 0.050900102
-0.021245535 -0.032859951 0.068794966
0.54754984 -0.03286355 0.069258094
-0.043222975 -0.01098672 0.075557947
-0.043232441 0.010943402 0.076172948
-0.021260438 0.032789703 0.070730925
0.54703772 0.032726046 0.066597462
0.52723312 0.076780908 0.077702999
0.43758807 0.1201014 0.065508008
0.41893032 -0.12106633 0.087320089
0.52843177 -0.076962255 0.084190726
-0.021372033 -0.054986425 0.085227489
0.55120325 -0.055032738 0.088241816
-0.043329649 -0.032965496 0.082486629
-0.065465286 -0.010986677 0.089281559
-0.065479241 0.01104895 0.089885473
-0.043359745 0.033000797 0.084441423
-0.021404145 0.055109017 0.08939898
0.55053622 0.055002294 0.084776044
0.50715423 0.09912771 0.088225007
0.50918353 -0.099431254 0.099686623
-0.043586396 -0.055200901 0.099163055
-0.065627627 -0.033071958 0.096311092
0.57658428 -0.033138864 0.10501933
-0.087922983 -0.010986634 0.10313797
0.57499313 -0.010986634 0.09706986
-0.087941758 0.011155667 0.10374784
0.57477385 0.011095826 0.09597373
-0.065672822 0.033213671 0.098268032
0.57599419 0.033272296 0.10207129
-0.043653596 0.05543533 0.10352778
0.00062778138 -0.077648781 0.11391735
0.55748773 -0.077809878 0.12089694
-0.06601847 -0.055417545 0.11323476
-0.088142581 -0.033179279 0.1102699
-0.1105992 -0.010986634 0.11712933
-0.1106229 0.011263512 0.11774516
-0.08820343 0.033428885 0.11224592
-0.066124208 0.055765368 0.11781359
0.55622661 0.077909142 0.114344
0.46663094 0.12215701 0.11001456
-0.021707641 -0.077993006 0.12882411
-0.088671982 -0.055636574 0.12746274
-0.11087771 -0.033287734 0.12436521
-0.13349713 -0.010986764 0.13125741
-0.13352506 0.011372052 0.13186204
-0.11095385 0.033645961 0.12634337
-0.088818632 0.056098141 0.13222492
0.53625768 0.10060281 0.12654996
0.53840041 -0.10061552 0.13814771
-0.044281658 -0.078350931 0.14432144
-0.11154931 -0.055857599 0.14181399
-0.13383622 -0.033397488 0.13859904
-0.15662007 -0.010986764 0.14552414
-0.15665297 0.011481935 0.14613497
-0.13392849 0.03386534 0.14059675
-0.11174048 0.056434251 0.14678049
-0.067167342 -0.078781836 0.1629827
-0.13465418 -0.056080662 0.15630805
-0.15702148 -0.033508018 0.15297353
-0.17997135 -0.01098672 0.15993226
-0.18000932 0.011592902 0.16054881
-0.15712924 0.034086622 0.15497327
-0.13489401 0.056774221 0.16150057
-0.15798999 -0.056306109 0.17094696
-0.18043683 -0.033619814 0.16749048
-0.20355433 -0.01098672 0.17448294
-0.20359626 0.011704825 0.17508781
-0.1805612 0.034310553 0.16951036
-0.15828127 0.057117142 0.1763519
-0.090343326 -0.07921508 0.18174112
-0.18156028 -0.056533594 0.18573308
-0.20408569 -0.033732645 0.18215239
-0.22737254 -0.010986634 0.18917871
-0.22741958 0.011818048 0.18978977
-0.20422581 0.034536261 0.18417442
-0.18190648 0.057463571 0.19135451
-0.11381463 -0.079652101 0.20066833
-0.20536979 -0.056763858 0.20068657
-0.22797301 -0.033846863 0.19697917
-0.25142792 -0.010986677 0.20400393
-0.25148171 0.011932354 0.20463908
-0.22812884 0.034764528 0.19900358
-0.20577453 0.057814039 0.20652854
-0.13758859 -0.080094881 0.21983981
-0.22941983 -0.056996156 0.2157737
-0.25209972 -0.033961996 0.21193731
-0.27572703 -0.010986764 0.21899641
-0.27578461 0.012047658 0.21961987
-0.25227132 0.03499496 0.21396399
-0.22988683 0.058167666 0.22184038
-0.16167113 -0.080543354 0.23926008
-0.25371516 -0.057230968 0.23101461
-0.27647072 -0.034078252 0.22704697
-0.30027217 -0.010986677 0.23414075
-0.3003352 0.012164306 0.23477054
-0.27665812 0.035227694 0.22907567
-0.25424829 0.058524944 0.23731053
-0.27826646 -0.057469077 0.24648654
-0.30108973 -0.034195811 0.24231029
-0.32506704 -0.01098659 0.24943924
-0.32513562 0.012282126 0.25007546
-0.30129483 0.035462897 0.24435985
-0.27886444 0.05888629 0.25296009
-0.30308524 -0.057711829 0.26225078
-0.32596058 -0.034314498 0.25773001
-0.35011557 -0.010986634 0.26489413
-0.35018978 0.012401028 0.2655369
-0.32618168 0.035700358 0.25978148
-0.3281666 -0.057957396 0.27819943
-0.35108709 -0.034434441 0.27330804
-0.37542158 -0.01098672 0.28050792
-0.37549919 0.012521232 0.28113806
-0.35132644 0.03594055 0.27538085
-0.30373606 0.05925107 0.26875412
-0.35351077 -0.058205221 0.29429746
-0.37647331 -0.034555599 0.28904712
-0.40098909 -0.010986677 0.29628313
-0.40107241 0.01264265 0.2969197
-0.37672889 0.036182866 0.29112184
-0.32886872 0.059619613 0.2847141
-0.37912378 -0.058455776 0.31056619
-0.40212321 -0.034678102 0.30494964
-0.40239763 0.036428086 0.30704618
-0.35426873 0.059992626 0.30086184
-0.42804101 -0.034801643 0.32101822
-0.42682219 -0.01098672 0.312222
-0.42691135 0.012765544 0.31286538
-0.42833185 0.03667539 0.32311702
-0.37993607 0.060369022 0.31716132
-0.40501001 -0.058708757 0.32700849
-0.45423084 -0.034926705 0.33725548
-0.45292211 -0.01098672 0.32830787
-0.4530172 0.012889389 0.32895792
-0.45454106 0.036925685 0.33937633
-0.40587711 0.060749456 0.33363461
-0.43117377 -0.058964647 0.34362721
-0.48069707 -0.035053022 0.35366392
-0.4792988 -0.010986807 0.3445822
-0.47939992 0.013014624 0.34523892
-0.43209901 0.061134435 0.35030448
-0.45761967 -0.059223182 0.36042488
-0.50744402 -0.035180598 0.37024689
-0.50595379 -0.010986807 0.36102819
-0.50606108 0.01314142 0.36169219
-0.48102394 0.037178323 0.3557874
-0.45860097 0.061523102 0.36713433
-0.48435214 -0.059484795 0.37740469
-0.53289145 -0.01098672 0.37764859
-0.53300166 0.013269082 0.37829924
-0.50779092 0.037434079 0.37239289
-0.4853901 0.061915889 0.38414621
-0.51137936 -0.059749313 0.39459026
-0.53447622 -0.03530965 0.38700628
-0.56011641 -0.01098672 0.39444625
-0.56023288 0.013398478 0.39510369
-0.53484011 0.037692182 0.38915467
-0.53869945 -0.06001652 0.41194332
-0.56179833 -0.035439998 0.40394568
-0.58763331 -0.010986634 0.41142416
-0.5877561 0.013529263 0.41208887
-0.56218284 0.037953403 0.4061172
-0.51247108 0.062313102 0.4013437
-0.58941495 -0.035571825 0.4210676
-0.58981663 0.038216967 0.4232415
-0.53985232 0.062715173 0.41875017
-0.56632066 -0.060286503 0.42948771
-0.6173349 -0.035705213 0.43839586
-0.61544275 -0.01098672 0.42856407
-0.61557609 0.013661435 0.42925668
-0.6177538 0.038483828 0.44057274
-0.56753176 0.063121058 0.43632758
-0.59424788 -0.060559604 0.44722664
-0.64555532 -0.0358399 0.45589221
-0.64355743 -0.01098672 0.44591045
-0.64369339 0.013794823 0.44658947
-0.59551775 0.063531533 0.45410013
-0.62248623 -0.060835745 0.46516299
-0.67197847 -0.010986893 0.46344614
-0.67212123 0.013929943 0.46413267
-0.64599138 0.0387532 0.45807147
-0.62381965 0.063946962 0.47209167
-0.65104091 -0.061115094 0.48330009
-0.67408484 -0.035976149 0.47358024
-0.70071095 -0.01098672 0.48117375
-0.70086056 0.01406654 0.48186767
-0.67454273 0.039025873 0.47578323
-0.70292872 -0.036113784 0.49146307
-0.72975993 -0.01098672 0.49909675
-0.72991168 0.014204349 0.4997766
-0.70341355 0.039302014 0.49371219
-0.65243459 0.064366721 0.49026322
-0.6799174 -0.061397478 0.50164187
-0.7320922 -0.036252983 0.50954413
-0.73261964 0.039582055 0.51190674
-0.68137181 0.064790986 0.50863969
-0.70912099 -0.061683159 0.52019143
-0.76158059 -0.036393654 0.52782643
-0.75913072 -0.010986807 0.51721847
-0.75928944 0.014343893 0.51790571
-0.76215291 0.039865393 0.53030491
-0.71064168 0.065220721 0.52724636
-0.73866236 -0.061972305 0.53897488
-0.78882867 -0.01098672 0.53554165
-0.78899455 0.014484998 0.53623688
-0.76853752 -0.062264491 0.55795109
-0.79139924 -0.036535971 0.54631376
-0.81885374 -0.010986807 0.5540477
-0.81903237 0.014627665 0.55477333
-0.79201889 0.040151853 0.54891038
-0.74024028 0.065654792 0.54604316
-0.82155389 -0.036679938 0.56500924
-0.82222325 0.040441435 0.56772673
-0.77017814 0.06609372 0.56505477
-0.79875702 -0.062559888 0.57714593
-0.80046088 0.066537939 0.58428574
0 0 0 1 0 0 0 1 0 0 0 1 0 0 0 0 0 495 1 0 0
