ply
format ascii 1.0
comment PCL generated
element vertex 587
property float x
property float y
property float z
element camera 1
property float view_px
property float view_py
property float view_pz
property float x_axisx
property float x_axisy
property float x_axisz
property float y_axisx
property float y_axisy
property float y_axisz
property float z_axisx
property float z_axisy
property float z_axisz
property float focal
property float scalex
property float scaley
property float centerx
property float centery
property int viewportx
property int viewporty
property float k1
property float k2
end_header
0.26972169 -0.59352744 -0.22660279
0.2465089 -0.57069433 -0.22112215
0.26972038 -0.56993258 -0.22661936
0.24632759 -0.54671717 -0.22373927
0.26972038 -0.54634023 -0.22661948
0.24656475 -0.52352422 -0.22031605
0.26972038 -0.52274787 -0.22661936
0.26988018 -0.49939528 -0.22454357
0.27086309 -0.61940271 -0.21177542
0.22432248 -0.59776866 -0.19760513
0.24708976 -0.59555531 -0.21273804
0.22375827 -0.57268345 -0.20676708
0.22356018 -0.54851729 -0.20998371
0.22377183 -0.52522016 -0.20654678
0.22429939 -0.50246245 -0.1979804
0.24718806 -0.5009222 -0.21131921
0.24820551 -0.47879484 -0.19663322
0.27104267 -0.47741434 -0.20944238
0.29708409 -0.64790952 -0.18208218
0.24828118 -0.62190223 -0.19554114
0.29708409 -0.62397432 -0.18208218
0.29708409 -0.60003912 -0.18208218
0.29708409 -0.57610387 -0.18208218
0.29708409 -0.55216861 -0.1820823
0.29708409 -0.52823341 -0.18208218
0.29708409 -0.50429833 -0.18208206
0.29708409 -0.48036307 -0.18208206
0.27286288 -0.45605609 -0.1857971
0.29708409 -0.4564279 -0.18208206
0.27345812 -0.64855897 -0.17806482
0.24980703 -0.45728493 -0.1735177
0.25079155 -0.6515913 -0.159307
0.29929996 -0.43490991 -0.15591359
0.32526463 -0.65533888 -0.13612485
0.32526463 -0.63104987 -0.13612473
0.32526296 -0.60675836 -0.13614261
0.32526296 -0.58246946 -0.13614273
0.32526296 -0.55818063 -0.13614261
0.32526296 -0.5338918 -0.13614261
0.32526296 -0.5096029 -0.13614261
0.32526296 -0.4853141 -0.13614261
0.32526296 -0.46102533 -0.13614261
0.27603182 -0.43595222 -0.14463139
0.32526296 -0.43673629 -0.13614273
0.107555 -0.6124053 -0.097533703
0.107555 -0.58781922 -0.097533703
0.107555 -0.56323326 -0.097533584
0.20575446 -0.56288153 -0.10022044
0.107555 -0.53864706 -0.097533703
0.20575446 -0.53831613 -0.10022044
0.107555 -0.51406109 -0.097533703
0.20586008 -0.51397717 -0.098260283
0.107555 -0.48947495 -0.097533703
0.107555 -0.46488899 -0.097533703
0.35427058 -0.6383068 -0.088989615
0.083200246 -0.61460268 -0.082510233
0.13257149 -0.6144498 -0.083555341
0.35427058 -0.61365497 -0.088989854
0.083200246 -0.58990091 -0.082510471
0.13247338 -0.5893147 -0.086741447
0.15729478 -0.58986294 -0.082785487
0.35427058 -0.58900326 -0.088989615
0.083200246 -0.56519926 -0.082510352
0.13247338 -0.56464553 -0.086741328
0.15729478 -0.56516325 -0.082785487
0.18177871 -0.56455219 -0.087454557
0.35427058 -0.56435132 -0.088989615
0.083200246 -0.54049754 -0.082510233
0.13247338 -0.53997642 -0.086741328
0.15729478 -0.54046363 -0.082785487
0.18177871 -0.5398885 -0.087454557
0.35427058 -0.53969944 -0.088989615
0.083200246 -0.51579595 -0.082510233
0.13247338 -0.51530725 -0.086741328
0.15729478 -0.51576412 -0.082785368
0.18177871 -0.51522481 -0.087454557
0.35427058 -0.51504761 -0.088989735
0.083200246 -0.49109408 -0.082510471
0.13247338 -0.49063817 -0.086741328
0.35427058 -0.49039578 -0.088989735
0.083200246 -0.4663924 -0.082510352
0.35427058 -0.46574408 -0.088989615
0.058615141 -0.61681807 -0.06736362
0.058615141 -0.59199977 -0.067363381
0.058615141 -0.56718147 -0.067363501
0.058615141 -0.54236311 -0.067363501
0.058615141 -0.51754487 -0.067363501
0.058615141 -0.49272653 -0.06736362
0.058615141 -0.46790823 -0.067363381
0.13292946 -0.46745127 -0.071929932
0.033796832 -0.61905718 -0.052054048
0.033796832 -0.59412098 -0.052054286
0.033796832 -0.5691849 -0.052054286
0.033796832 -0.54424882 -0.052054167
0.033796832 -0.51931262 -0.052054167
0.033796832 -0.49437648 -0.052054048
0.15828943 -0.49384946 -0.056943655
0.033796832 -0.46944031 -0.052054286
0.0087416992 -0.62131774 -0.036598921
0.15924048 -0.62195611 -0.03223443
0.0087416992 -0.59626263 -0.036598802
0.18428555 -0.59673631 -0.033179998
0.0087416992 -0.57120746 -0.036598921
0.38417667 -0.5707314 -0.040236592
0.0087416992 -0.54615235 -0.03659904
0.38417667 -0.54570431 -0.040236592
0.0087416992 -0.52109724 -0.03659904
0.38417667 -0.52067715 -0.040236592
0.0087416992 -0.49604204 -0.03659904
0.0087416992 -0.47098699 -0.036598802
0.15930679 -0.47159612 -0.030511856
-0.016553376 -0.62359715 -0.021014452
-0.016553376 -0.59842205 -0.021014452
-0.016553376 -0.57324696 -0.021014452
-0.016553376 -0.54807186 -0.021014452
-0.016553376 -0.52289677 -0.021014452
-0.016553376 -0.4977217 -0.021014452
0.18480435 -0.49762109 -0.021947622
-0.016553376 -0.47254664 -0.021014452
-0.041870408 0.23306605 -0.014868855
-0.016564522 0.23243988 -0.020290494
0.0086042657 0.23261827 -0.018745899
-0.041870408 0.25828838 -0.014868855
-0.016564522 0.2576206 -0.020290494
0.0086042657 0.25781077 -0.018745899
-0.041870408 0.28351071 -0.014868736
-0.016564522 0.28280121 -0.020290256
0.0086042657 0.28300342 -0.018745899
-0.041870408 0.30873322 -0.014868736
-0.016564522 0.30798209 -0.020290256
0.0086042657 0.30819589 -0.018745899
-0.041870408 0.33395559 -0.014868855
-0.016564522 0.33316261 -0.020290494
0.0086042657 0.33338854 -0.018745899
-0.041870408 0.3591781 -0.014868855
-0.016564522 0.35834333 -0.020290494
0.0086042657 0.35858104 -0.018745899
-0.041870408 0.38440052 -0.014868736
-0.016564522 0.38352409 -0.020290256
0.0086042657 0.38377365 -0.018746138
-0.041870408 0.40962294 -0.014868736
-0.016564522 0.40870461 -0.020290494
0.0086042657 0.40896633 -0.018746018
-0.041870408 0.43484524 -0.014868855
-0.016564522 0.43388531 -0.020290494
0.0086042657 0.43415877 -0.018746018
-0.041870408 0.46006772 -0.014868855
-0.016564522 0.45906606 -0.020290494
0.0086042657 0.45935145 -0.018745899
-0.041870408 0.48529008 -0.014868617
-0.016564522 0.48424682 -0.020290256
0.0086042657 0.48454389 -0.018746138
-0.041870408 0.51051247 -0.014868855
-0.016564522 0.50942731 -0.020290494
0.0086044129 0.5097326 -0.018764973
-0.041870408 0.53573489 -0.014868855
-0.016564522 0.53460801 -0.020290494
0.0086044129 0.5349251 -0.018764973
-0.041870408 0.56095743 -0.014868855
-0.016564522 0.5597887 -0.020290256
0.0086044129 0.5601176 -0.018764973
-0.041870408 0.58617973 -0.014868736
-0.016564522 0.58496928 -0.020290375
0.0086044129 0.58530986 -0.018764973
-0.041870408 0.61140215 -0.014868855
-0.016564522 0.6101501 -0.020290494
0.0086044129 0.61050224 -0.018764973
-0.041870408 0.63662469 -0.014868855
-0.016564522 0.6353308 -0.020290494
0.0086044129 0.63569486 -0.018764973
-0.041870408 0.66184711 -0.014868855
-0.016564522 0.66051137 -0.020290256
0.0086044129 0.66088724 -0.018764973
-0.041870408 0.6870693 -0.014868855
-0.016564522 0.68569207 -0.020290375
0.0086044129 0.68607974 -0.018764973
-0.041870408 0.71229172 -0.014868855
-0.016564522 0.71087277 -0.020290494
0.0086044129 0.711272 -0.018764973
-0.041870408 0.73751426 -0.014868855
-0.016564522 0.73605347 -0.020290494
0.0086044129 0.73646438 -0.018764973
-0.041870408 0.7627368 -0.014868855
-0.016564522 0.76123416 -0.020290256
0.0086044129 0.76165688 -0.018764973
-0.041870408 0.78795886 -0.014868855
-0.016564522 0.78641486 -0.020290494
0.0086044129 0.78684926 -0.018764973
-0.041870408 0.81318152 -0.014868855
-0.016564522 0.81159544 -0.020290494
0.0086044129 0.81204176 -0.018764853
-0.041870408 0.83840394 -0.014868855
-0.016564522 0.83677626 -0.020290375
0.0086044129 0.83723402 -0.018764973
-0.041870408 0.86362612 -0.014868855
-0.016564522 0.86195672 -0.020290375
0.0086044129 0.8624264 -0.018764973
-0.041870408 0.88884854 -0.014868855
-0.016564522 0.88713741 -0.020290375
0.0086044129 0.8876189 -0.018764973
-0.041870408 0.91407108 -0.014868855
-0.016564522 0.91231823 -0.020290375
0.0086044129 0.9128114 -0.018764973
-0.041870408 0.93929362 -0.014868855
-0.016564522 0.93749905 -0.020290494
0.0086044129 0.93800378 -0.018764973
-0.041870408 0.96451581 -0.014868855
-0.016564522 0.96267951 -0.020290256
0.0086044129 0.96319616 -0.018765092
-0.041870408 0.98973823 -0.014868855
-0.016564522 0.9878602 -0.020290494
0.0086044129 0.98838854 -0.018764973
-0.042092294 -0.62590122 -0.0052608252
-0.042092294 -0.60060501 -0.0052607059
-0.042092294 -0.57530868 -0.0052608252
-0.042092294 -0.55001211 -0.0052608252
-0.042092294 -0.52471578 -0.0052609444
-0.042092294 -0.49941948 -0.0052608252
-0.042092294 -0.47412303 -0.0052608252
-0.016949181 -0.44974631 0.004693985
-0.016949181 -0.42437324 0.004693985
-0.016949181 -0.39900023 0.0046938658
-0.016949181 -0.37362731 0.004693985
-0.016949181 -0.34825423 0.004693985
-0.016949181 -0.32288122 0.0046938658
-0.016949181 -0.29750824 0.004693985
-0.016949181 -0.27213526 0.004693985
-0.016948886 -0.24676162 0.0046745539
-0.016948886 -0.22138873 0.0046745539
-0.016948886 -0.19601598 0.0046746731
-0.016948886 -0.17064309 0.0046744347
-0.016948886 -0.1452702 0.0046746731
-0.016948886 -0.1198974 0.0046746731
-0.016948886 -0.094524607 0.0046746731
-0.016948886 -0.069151618 0.0046745539
-0.016948886 -0.043778822 0.0046745539
-0.016948886 -0.018405885 0.0046747923
-0.016948886 0.006967023 0.0046744347
-0.016948886 0.032339767 0.0046746731
-0.016948886 0.057712659 0.0046746731
-0.016948886 0.083085597 0.0046745539
-0.016948886 0.10845828 0.0046745539
-0.016948886 0.13383135 0.0046746731
-0.016948886 0.15920404 0.0046746731
-0.016948886 0.18457699 0.0046744347
-0.016948886 0.20994988 0.0046746731
-0.067531601 0.23471132 -0.00061893463
0.033796832 0.23360988 -0.010158062
-0.067531601 0.26004353 -0.00061893463
0.033796832 0.25886855 -0.0101583
-0.067531601 0.28537568 -0.00061893463
0.033796832 0.28412735 -0.010158062
-0.067531601 0.31070775 -0.00061893463
0.033796832 0.3093859 -0.010158062
-0.067531601 0.33603996 -0.00061893463
0.033796832 0.33464462 -0.0101583
-0.067531601 0.36137202 -0.00061893463
0.033796832 0.35990337 -0.010158062
-0.067531601 0.38670406 -0.00061881542
0.033796832 0.38516191 -0.010158062
-0.067531601 0.41203609 -0.00061893463
0.033796832 0.41042063 -0.0101583
-0.067531601 0.43736824 -0.00061893463
0.033796832 0.43567929 -0.010158062
-0.067531601 0.46270028 -0.00061893463
0.033796832 0.46093789 -0.010158062
-0.067531601 0.48803249 -0.00061893463
0.033796832 0.48619673 -0.010158062
-0.067531601 0.51336467 -0.00061893463
0.033796832 0.5114553 -0.010158181
-0.067531601 0.53869677 -0.00061893463
0.033796832 0.53671396 -0.010158062
-0.067531601 0.56402886 -0.00061893463
0.033796832 0.56197286 -0.0101583
-0.067531601 0.58936083 -0.00061893463
0.033796832 0.5872314 -0.010158062
-0.067531601 0.61469305 -0.00061881542
0.033796832 0.61248994 -0.010158062
-0.067531601 0.64002502 -0.00061893463
0.033796832 0.63774872 -0.010158062
-0.067531601 0.66535723 -0.00061893463
0.033796832 0.66300738 -0.010158181
-0.067531601 0.69068933 -0.00061893463
0.033796832 0.68826604 -0.010158062
-0.067531601 0.71602154 -0.00061893463
0.033796832 0.7135247 -0.010158062
-0.067531601 0.74135375 -0.00061893463
0.033796832 0.73878336 -0.010158181
-0.067531601 0.76668572 -0.00061893463
0.033796832 0.76404214 -0.010158062
0.033796832 0.78930068 -0.010158062
-0.067531601 0.79201782 -0.00061893463
-0.067531601 0.81734991 -0.00061893463
0.033796832 0.81455934 -0.0101583
0.033796832 0.83981812 -0.010158062
-0.067531601 0.842682 -0.00061881542
-0.067531601 0.86801398 -0.00061893463
0.033796832 0.86507666 -0.010158062
0.033796832 0.89033556 -0.010158062
-0.067531601 0.89334619 -0.00061893463
-0.067531601 0.91867816 -0.00061893463
0.033796832 0.9155941 -0.010158062
0.033796832 0.94085264 -0.010158062
-0.067532197 0.9440167 -0.00059950352
-0.067532197 0.96934903 -0.00059950352
0.033796832 0.96611154 -0.010158181
0.033796832 0.99137008 -0.010158062
-0.067532197 0.99468124 -0.00059974194
-0.067878447 -0.62822783 0.01064527
0.18649475 -0.62881356 0.014650941
-0.067878447 -0.60280895 0.01064527
-0.067878447 -0.57739013 0.01064539
-0.067878447 -0.55197132 0.01064527
-0.067878447 -0.52655256 0.01064527
-0.067878447 -0.50113368 0.01064539
-0.067878447 -0.4757148 0.01064527
0.18637168 -0.47584903 0.011985898
-0.042498671 -0.45045224 0.012335777
0.008409664 -0.44991615 0.0065332651
0.033796832 -0.45113435 0.019720078
-0.042498671 -0.42502031 0.012335777
0.008409664 -0.42452902 0.0065332651
0.033796832 -0.42564571 0.019720316
-0.042498671 -0.39958853 0.012335658
0.008409664 -0.39914185 0.0065332651
0.033796832 -0.40015697 0.019720316
-0.042498671 -0.3741568 0.012335896
0.008409664 -0.37375474 0.0065332651
0.033796832 -0.3746683 0.019720078
-0.042498671 -0.34872487 0.012335777
0.008409664 -0.34836757 0.0065332651
0.033796832 -0.34917963 0.019720316
-0.042498671 -0.32329309 0.012335777
0.008409664 -0.32298034 0.0065332651
0.033796832 -0.32369095 0.019720197
-0.042498671 -0.29786122 0.012335777
0.008409664 -0.29759318 0.0065332651
0.033796832 -0.29820234 0.019720316
-0.042498671 -0.27242941 0.012335777
0.008409664 -0.27220601 0.0065332651
0.033796832 -0.27271354 0.019720316
-0.042498671 -0.24699758 0.012335777
0.008409664 -0.24681887 0.0065332651
0.033796832 -0.24722502 0.019720316
-0.042498671 -0.22156575 0.012335658
0.008409664 -0.22143172 0.0065332651
0.033796832 -0.22173634 0.019720197
-0.042498671 -0.19613382 0.012335777
0.008409664 -0.19604456 0.0065332651
0.033796832 -0.1962475 0.019720197
-0.042498671 -0.17070213 0.012335777
0.008409664 -0.17065731 0.0065332651
0.033796832 -0.17075893 0.019720316
-0.042498671 -0.1452703 0.012335777
0.033796832 -0.14527024 0.019720078
0.008409664 -0.1452702 0.0065332651
-0.042498671 -0.11983836 0.012335777
0.008409664 -0.11988309 0.0065332651
0.033796832 -0.11978147 0.019720316
-0.042498671 -0.09440653 0.012335777
0.008409664 -0.094495833 0.0065332651
0.033796832 -0.094292842 0.019720197
-0.042498671 -0.068974748 0.012335777
0.008409664 -0.069108732 0.0065332651
0.033796832 -0.068804264 0.019720316
-0.042498671 -0.043542862 0.012335777
0.008409664 -0.043721624 0.0065332651
0.033796832 -0.043315433 0.019720316
-0.042498671 -0.018110976 0.012335777
0.008409664 -0.018334329 0.0065332651
0.033796832 -0.017826751 0.019720078
-0.042498671 0.0073209554 0.012335777
0.008409664 0.0070527792 0.0065332651
0.033796832 0.0076618791 0.019720316
-0.042498671 0.032752484 0.012335777
0.008409664 0.032440037 0.0065333843
0.033796832 0.033150554 0.019720078
-0.042498671 0.058184475 0.012335777
0.008409664 0.05782716 0.0065332651
0.033796832 0.058639184 0.019720316
-0.042498671 0.083616301 0.012335777
0.008409664 0.083214194 0.0065332651
0.033796832 0.084127858 0.019720316
-0.042498671 0.10904813 0.012335777
0.008409664 0.10860145 0.0065333843
0.033796832 0.10961643 0.019720316
-0.042498671 0.13447991 0.012335777
0.008409664 0.13398865 0.0065332651
0.033796832 0.13510531 0.019720316
-0.042498671 0.15991184 0.012335777
0.008409664 0.15937573 0.0065332651
0.033796832 0.16059399 0.019720316
-0.042498671 0.18534374 0.012335777
0.008409664 0.18476298 0.0065332651
0.033796832 0.18608257 0.019720316
-0.042498671 0.21077538 0.012335777
0.008409664 0.21015003 0.0065332651
0.033796832 0.21157146 0.019720316
0.059207283 0.23588651 0.0095582008
0.059207283 0.26129702 0.00955832
0.059207283 0.28670737 0.0095580816
0.059207283 0.3121179 0.0095582008
0.059207283 0.33752841 0.0095580816
0.059207283 0.36293873 0.0095580816
0.059207283 0.38834915 0.0095582008
0.059207283 0.4137598 0.0095582008
0.059207283 0.43917009 0.0095582008
0.059207283 0.46458063 0.0095579624
0.059207283 0.48999116 0.0095582008
0.059207283 0.51540136 0.0095582008
0.059207283 0.54081202 0.0095582008
0.059207283 0.56622243 0.0095582008
0.059207283 0.59163296 0.00955832
0.059207283 0.61704326 0.0095582008
0.059207283 0.64245379 0.0095582008
0.059207283 0.66786432 0.0095582008
0.059207283 0.69327474 0.0095582008
0.059207283 0.71868515 0.0095582008
0.059207283 0.74409568 0.0095582008
0.059207283 0.76950598 0.0095582008
0.059207283 0.79491639 0.0095582008
0.059207283 0.82032704 0.0095582008
0.059207283 0.84573734 0.0095582008
0.059207283 0.87114787 0.0095580816
0.059207283 0.89655828 0.0095582008
0.059207283 0.92196858 0.0095582008
0.059207283 0.94737923 0.0095582008
0.059207283 0.97278965 0.00955832
0.059207283 0.99819994 0.00955832
-0.093914688 -0.63057411 0.026686668
-0.093914688 -0.60503179 0.026686668
-0.093914688 -0.57948947 0.026686668
-0.093914688 -0.55394721 0.026686668
-0.093914688 -0.52840489 0.026686668
-0.093914688 -0.50286251 0.026686549
-0.093914688 -0.47732013 0.026686549
-0.068661839 -0.45264623 0.03608644
-0.068661839 -0.42703158 0.036086679
-0.068661839 -0.4014169 0.036086679
-0.068661839 -0.37580222 0.03608644
-0.068661839 -0.35018763 0.036086679
-0.068661839 -0.32457286 0.036086679
-0.068661839 -0.2989583 0.036086798
-0.068661839 -0.27334362 0.036086679
-0.068661839 -0.24772894 0.03608644
-0.068661839 -0.22211435 0.036086679
-0.068661839 -0.19649957 0.036086679
-0.068661839 -0.17088479 0.036086679
-0.068661839 -0.14527035 0.036086679
-0.068662442 -0.11965536 0.036106467
-0.068662442 -0.09404058 0.036106467
-0.068662442 -0.068425745 0.036106348
-0.068662442 -0.042810962 0.036106229
-0.068662442 -0.017196029 0.036106348
-0.068662442 0.008418709 0.036106348
-0.068662442 0.034033552 0.036106229
-0.068662442 0.05964829 0.036106229
-0.068662442 0.085263208 0.036106467
-0.068662442 0.11087799 0.036106467
-0.068662442 0.13649273 0.036106467
-0.068662442 0.16210768 0.036106467
-0.068662442 0.1877225 0.036106467
-0.068662442 0.21333724 0.036106467
-0.094012901 0.23815903 0.029237866
-0.094013646 0.26372334 0.029257536
-0.094013646 0.28928542 0.029257536
-0.094013646 0.31484741 0.029257536
-0.094013646 0.34040961 0.029257536
-0.094013646 0.36597171 0.029257417
-0.094013646 0.39153388 0.029257536
-0.094013646 0.41709587 0.029257536
-0.094013646 0.44265816 0.029257536
-0.094013646 0.46822008 0.029257536
-0.094013646 0.49378219 0.029257536
-0.094013646 0.51934433 0.029257536
-0.094013646 0.54490638 0.029257536
-0.094013646 0.57046854 0.029257536
-0.094013646 0.59603047 0.029257536
-0.094013646 0.62159264 0.029257536
-0.094013646 0.64715493 0.029257536
-0.094013646 0.67271686 0.029257536
-0.094013646 0.69827902 0.029257536
-0.094013646 0.72384107 0.029257536
-0.094013646 0.74940336 0.029257536
-0.094013646 0.77496529 0.029257536
-0.094013646 0.80052722 0.029257536
-0.094013646 0.8260895 0.029257536
-0.094013646 0.85165155 0.029257536
-0.094013646 0.87721372 0.029257655
-0.094013646 0.90277565 0.029257536
-0.094013646 0.92833793 0.029257536
-0.094013646 0.95389986 0.029257536
-0.094013646 0.97946203 0.029257536
-0.12020607 -0.63294601 0.042904377
-0.12020607 -0.60727894 0.042904258
-0.12020607 -0.58161181 0.042904258
-0.12020607 -0.55594462 0.042904258
-0.12020607 -0.53027749 0.042904258
-0.12020607 -0.5046103 0.042904377
-0.12020607 -0.4789432 0.042904377
-0.094420135 0.2137374 0.039818048
0.05944068 0.21374369 0.039877295
-0.14675464 -0.60954547 0.059261322
-0.14675464 -0.58375233 0.059261322
-0.14675464 -0.5579592 0.059261322
-0.14675464 -0.53216618 0.059261322
-0.14675464 -0.50637317 0.059261322
-0.14675464 -0.48058009 0.05926156
0.059653938 -0.45555553 0.067580581
0.059653938 -0.42969841 0.067580581
0.059653938 -0.40384129 0.067580581
0.059653938 -0.37798429 0.067580581
0.059654094 -0.3521283 0.067600608
0.059654094 -0.32627106 0.067600727
0.059654094 -0.30041385 0.067600727
0.059654094 -0.27455652 0.067600727
0.059654094 -0.24869914 0.067600608
0.059654094 -0.22284192 0.067600608
0.059654094 -0.19698469 0.067600608
0.059654094 -0.17112753 0.067600608
0.059654094 -0.14527015 0.067600727
0.059654094 -0.11941293 0.067600727
0.059654094 -0.093555704 0.067600608
0.059654094 -0.067698479 0.067600608
0.059654094 -0.041841105 0.067600727
0.059654094 -0.015983924 0.067600727
0.059654094 0.0098733455 0.067600608
0.059654094 0.035730615 0.067600608
0.059654094 0.061587989 0.067600727
0.059654094 0.08744517 0.067600608
0.059654094 0.11330244 0.067600608
0.059654094 0.13915956 0.067600608
0.059654094 0.16501695 0.067600727
0.059654094 0.19087422 0.067600608
-0.17356621 -0.61183715 0.075799823
-0.17356621 -0.58591676 0.075799823
-0.17356621 -0.55999637 0.075799823
-0.17356621 -0.53407592 0.075799823
-0.17356621 -0.50815558 0.075799823
-0.17356621 -0.48223513 0.075799823
-0.20064378 -0.61415142 0.092502475
-0.20064378 -0.58810246 0.092502356
-0.20064378 -0.56205362 0.092502356
-0.20064378 -0.53600466 0.092502475
-0.20064378 -0.50995559 0.092502356
-0.20064378 -0.48390666 0.092502475
-0.22799133 -0.61648893 0.10937154
-0.22799133 -0.59030998 0.10937154
-0.22799133 -0.56413132 0.10937154
-0.22799133 -0.53795242 0.10937154
-0.22799133 -0.51177371 0.1093713
-0.22798972 -0.48559266 0.1093508
-0.25561291 -0.61884981 0.12640965
-0.25561291 -0.59253973 0.12640953
-0.25561112 -0.56622732 0.12638879
-0.25561112 -0.53991741 0.12638891
-0.25561112 -0.51360762 0.12638891
-0.28351068 -0.62123144 0.14359844
-0.28351068 -0.59478915 0.14359844
-0.28351068 -0.56834698 0.14359844
-0.28351068 -0.54190457 0.1435982
-0.17842317 -0.46360031 0.15466726
-0.1518968 -0.46360222 0.15468836
-0.12538284 -0.46362954 0.15498459
-0.098860219 -0.46364713 0.15517509
-0.31169266 -0.59706414 0.16098201
-0.31169051 -0.57048547 0.16096091
-0.31169474 -0.54391432 0.16100323
-0.34016126 -0.57265091 0.17854261
-0.34016126 -0.54593968 0.17854261
-0.36892104 -0.5748359 0.19628263
-0.36892104 -0.54798806 0.19628263
-0.39797366 -0.55005503 0.21418321
-0.39797634 -0.52307171 0.21420503
-0.37260699 -0.52458048 0.22820401
-0.34777391 -0.52684098 0.24917889
-0.42842263 -0.49873215 0.24064767
-0.45698601 -0.47245872 0.2505635
-0.40486777 -0.50168514 0.2701565
-0.29682708 -0.53099811 0.28775275
-0.32338631 -0.52992904 0.27783203
-0.43385363 -0.47537643 0.28214836
-0.38307613 -0.50656009 0.31886947
-0.35650688 -0.50769508 0.3302108
-0.38649231 -0.48150146 0.34845412
-0.33184761 -0.51091468 0.36238277
-0.36214375 -0.48464781 0.38251424
0 0 0 1 0 0 0 1 0 0 0 1 0 0 0 0 0 587 1 0 0
