ply
format ascii 1.0
comment PCL generated
element vertex 207
property float x
property float y
property float z
element camera 1
property float view_px
property float view_py
property float view_pz
property float x_axisx
property float x_axisy
property float x_axisz
property float y_axisx
property float y_axisy
property float y_axisz
property float z_axisx
property float z_axisy
property float z_axisz
property float focal
property float scalex
property float scaley
property float centerx
property float centery
property int viewportx
property int viewporty
property float k1
property float k2
end_header
-0.25883013 -0.01144112 -0.41866642
-0.25873858 0.0056856982 -0.41912377
-0.29705334 -0.045984805 -0.4002825
-0.27843678 -0.04588522 -0.40675223
-0.29705334 -0.028712951 -0.40028244
-0.27724409 -0.028618995 -0.41249055
-0.26085484 -0.028649257 -0.4085505
-0.29705548 -0.01144112 -0.40027261
-0.27724409 -0.01144112 -0.41249049
-0.29705763 0.0058308691 -0.40026271
-0.27724612 0.0057367999 -0.41248071
-0.29705977 0.023103017 -0.40025258
-0.27724814 0.022914946 -0.41247106
-0.26028371 0.022931356 -0.41140401
-0.29705548 0.040374689 -0.40027249
-0.27724409 0.040092483 -0.41249055
-0.31708276 -0.046174996 -0.38792998
-0.26564544 -0.046226099 -0.38461506
-0.31708497 -0.028808171 -0.3879199
-0.24779983 -0.028815448 -0.38696963
-0.31708497 -0.011441187 -0.38791996
-0.24578862 -0.011441097 -0.39742023
-0.31708723 0.0059260223 -0.38791007
-0.24570276 0.0058493353 -0.39786631
-0.31708944 0.023293164 -0.38789999
-0.24723233 0.02326211 -0.38991833
-0.31708497 0.040659923 -0.3879199
-0.26419872 0.040569335 -0.39184338
-0.3373363 -0.028904341 -0.3754307
-0.3373363 -0.011441165 -0.37543082
-0.23249568 -0.01144121 -0.37576431
-0.33733863 0.0060221255 -0.37542063
-0.23241355 0.0060160905 -0.37620908
-0.33734095 0.023485526 -0.3754105
-0.25117755 0.04108721 -0.36941868
-0.25265557 -0.046578281 -0.3617385
-0.23448847 -0.028984781 -0.36497808
-0.218944 -0.01144112 -0.35368693
-0.21886738 0.0061860327 -0.3541196
-0.23392735 0.02359942 -0.36801517
-0.22091697 -0.029157458 -0.34254348
-0.22036131 0.023943167 -0.34568202
-0.23789437 0.041615523 -0.34654313
-0.23939799 -0.04693751 -0.33840448
-0.20512591 -0.011441142 -0.33117539
-0.20505472 0.0063594561 -0.33159572
-0.22586845 -0.047304407 -0.31457776
-0.20707385 -0.029333526 -0.3196733
-0.19104041 -0.011441142 -0.30817413
-0.19096763 0.0065363143 -0.30862439
-0.20652635 0.024293859 -0.32290632
-0.22434323 0.042154733 -0.323192
-0.19295458 -0.029513232 -0.29633325
-0.19241445 0.024651509 -0.29967469
-0.21051194 0.042704906 -0.29937232
-0.21205448 -0.047678668 -0.29026443
-0.17667024 -0.011441165 -0.28472173
-0.17659618 0.0067165848 -0.2852028
-0.19795085 -0.048061114 -0.26542681
-0.17854716 -0.029696373 -0.27253073
-0.17801885 0.025016639 -0.27596223
-0.19639386 0.043266423 -0.27505851
-0.16384624 -0.029883426 -0.2482295
-0.16201021 -0.011441165 -0.26078242
-0.16193517 0.0069006998 -0.26129574
-0.16332744 0.025388978 -0.25177646
-0.18198155 0.043839831 -0.25022388
-0.18354468 -0.048451379 -0.24007094
-0.14704804 -0.01144112 -0.23636377
-0.14697389 0.0070884302 -0.23689878
-0.14883931 -0.030074367 -0.2234363
-0.14833282 0.025768962 -0.22709143
-0.16726218 0.044425353 -0.2248745
-0.16882975 -0.048850365 -0.21415693
-0.1317776 -0.011441074 -0.21142781
-0.13170306 0.0072800927 -0.21199739
-0.15379246 -0.04925783 -0.18769008
-0.13352008 -0.030269284 -0.19811291
-0.13302554 0.026156988 -0.20189184
-0.15222938 0.045023575 -0.19897062
-0.11787541 -0.030468315 -0.17226613
-0.1161861 -0.011441074 -0.18598187
-0.11611156 0.0074757338 -0.18658692
-0.11739419 0.026552927 -0.17617315
-0.13686956 0.045634456 -0.17251813
-0.13842557 -0.049674608 -0.16062802
-0.10026632 -0.01144112 -0.1599856
-0.10019214 0.0076756235 -0.16062808
-0.101898 -0.03067155 -0.14585489
-0.10143013 0.026957452 -0.14990693
-0.12117375 0.046258669 -0.14548701
-0.12271477 -0.050100289 -0.13297558
-0.084004864 -0.011441165 -0.13344604
-0.083932832 0.0078796279 -0.13411462
-0.085574105 -0.030879125 -0.11888564
-0.085123882 0.027370702 -0.12306297
-0.10513224 0.046897035 -0.11784542
-0.10665162 -0.050535824 -0.10468757
-0.067392215 -0.01144112 -0.10633349
-0.067322567 0.0080881976 -0.10702908
-0.068893865 -0.031091265 -0.091327906
-0.068461552 0.027792722 -0.095647812
-0.08873044 0.047549412 -0.089598298
-0.090221003 -0.050981078 -0.075767875
-0.050417975 -0.011441165 -0.078615665
-0.050349891 0.0083011501 -0.079352498
-0.051434025 0.028224323 -0.067616701
-0.051846758 -0.031308241 -0.063148618
-0.033067718 -0.011441165 -0.050299048
-0.033001721 0.0085188951 -0.051078796
-0.071959004 0.048216704 -0.060699105
-0.073718682 -0.051483832 -0.043115258
-0.034026593 0.028665241 -0.038975239
-0.034417942 -0.031529874 -0.034353852
-0.015331209 -0.01144121 -0.021336794
-0.015267774 0.0087414794 -0.022161007
-0.054802477 0.048899099 -0.03115201
-0.056824103 -0.052004892 -0.0092673302
-0.016595796 -0.031756572 -0.004909277
-0.01622884 0.029116325 -0.0096764565
0.0028068274 -0.011441165 0.0082657337
0.0028662086 0.0089691225 0.0074090958
-0.037364081 0.049628682 0.00043845177
-0.039482817 -0.052539606 0.025459409
0.0016330928 -0.031988375 0.0252074
0.0019748062 0.02957749 0.020275116
0.021358177 -0.01144112 0.038558245
0.021413878 0.0092020109 0.037653685
-0.019515082 0.05038096 0.033013344
0.020596281 0.030049417 0.050929904
-0.021677151 -0.05308833 0.06109941
0.020281956 -0.032225691 0.056033611
0.040338933 -0.011441165 0.069536448
0.040389597 0.0094401427 0.068596244
-0.0012208521 0.051151998 0.066400766
0.039652035 0.030532233 0.082283735
0.039367408 -0.03246839 0.08756578
0.059762523 -0.01144112 0.10125303
0.059808329 0.009683881 0.10026145
0.017535463 0.051942512 0.10063148
0.059153661 0.031027213 0.11443543
0.058903903 -0.032716915 0.11984289
0.079646125 -0.01144121 0.13370502
0.079685792 0.0099334046 0.13267457
0.03677161 0.052753285 0.1357379
0.078907028 -0.032971505 0.15290749
0.079112507 0.031537335 0.14756894
0.10000546 -0.01144112 0.16693318
0.10003842 0.010188939 0.16586232
0.056505516 0.053585432 0.1717695
0.09939456 -0.033232149 0.1867727
0.099556662 0.032059841 0.18150806
0.12085742 -0.011441074 0.20098197
0.12088311 0.010450713 0.19986928
0.12038394 -0.03349939 0.22148407
0.12050406 0.032595322 0.21628261
0.076757737 0.054439329 0.20874774
0.14222099 -0.01144112 0.23584938
0.1422388 0.01071877 0.23469293
0.14197351 0.033144005 0.25192392
0.14189473 -0.033773098 0.25704086
0.16411471 -0.01144121 0.27158213
0.16412397 0.01099338 0.27038014
0.16394593 -0.034053903 0.29350817
0.16398463 0.033706788 0.28848147
0.18655859 -0.011441165 0.30257237
0.18655859 0.011241186 0.30257261
0.2095288 -0.011441074 0.33995593
0.2095288 0.011529088 0.33995616
0.23308964 -0.011441165 0.37831819
0.23308964 0.011824403 0.37831807
0.25726375 -0.011441074 0.41766119
0.25726375 0.01212731 0.41766119
0.28207552 -0.011441165 0.45804203
0.28207552 0.012438221 0.45804203
0.30755132 -0.011441074 0.49952161
0.30755132 0.012757313 0.49952161
0.33371675 -0.011441165 0.54210567
0.33371675 0.013085173 0.54210567
0.36060083 -0.011441074 0.58585942
0.36060083 0.013422029 0.58585942
0.63783598 -0.011441165 0.61285174
0.63783598 0.013629785 0.6128515
0.61463869 -0.011441165 0.62716913
0.3882336 -0.011441074 0.63083148
0.38823485 0.013768379 0.6308527
0.61463869 0.013740081 0.62716925
0.59123397 -0.011441074 0.64159214
0.59123397 0.01385092 0.64159214
0.56762433 -0.011441165 0.65616405
0.66918558 -0.011441165 0.655779
0.56762433 0.013963116 0.65616405
0.66918558 0.013960313 0.655779
0.41664821 -0.011441255 0.67709553
0.54380441 -0.011441074 0.67086613
0.41664821 0.014124401 0.67709553
0.54380441 0.014076486 0.67086589
0.51976913 -0.011441074 0.68567765
0.51976913 0.014190398 0.68567765
0.44409591 -0.011441165 0.70154548
0.47029728 -0.011441165 0.70683181
0.4955343 -0.011441255 0.70079803
0.44409591 0.014312539 0.70154548
0.47029728 0.014353313 0.70683181
0.4955343 0.014306663 0.70079803
0.70308298 -0.011441074 0.7109623
0.70308298 0.014385045 0.7109623
0 0 0 1 0 0 0 1 0 0 0 1 0 0 0 0 0 207 1 0 0
