ply
format ascii 1.0
comment PCL generated
element vertex 300
property float x
property float y
property float z
element camera 1
property float view_px
property float view_py
property float view_pz
property float x_axisx
property float x_axisy
property float x_axisz
property float y_axisx
property float y_axisy
property float y_axisz
property float z_axisx
property float z_axisy
property float z_axisz
property float focal
property float scalex
property float scaley
property float centerx
property float centery
property int viewportx
property int viewporty
property float k1
property float k2
end_header
-0.092612192 -0.77868742 -0.083094597
-0.065972261 -0.78062946 -0.073390841
-0.092612192 -0.75182331 -0.083094597
-0.065972261 -0.75369084 -0.073390841
-0.092612192 -0.72495931 -0.083094478
-0.065972261 -0.72675216 -0.073390722
-0.092612192 -0.69809526 -0.083094597
-0.065972261 -0.69981337 -0.073390841
-0.12011655 -0.78201711 -0.066458225
-0.039184079 -0.78258669 -0.063612461
-0.12011655 -0.75502497 -0.066458225
-0.039184079 -0.75557262 -0.06361258
-0.12011655 -0.72803301 -0.066458344
-0.039184079 -0.72855866 -0.06361258
-0.12011655 -0.70104086 -0.066458225
-0.039184079 -0.70154464 -0.063612461
-0.012282673 -0.78551418 -0.048985839
-0.012282673 -0.75838763 -0.048985839
-0.012282673 -0.7312609 -0.048985839
-0.012282673 -0.70413452 -0.04898572
-0.14927423 -0.79140133 -0.019572139
0.014843924 -0.78887635 -0.032187581
-0.14927423 -0.76404834 -0.01957202
0.014843924 -0.76162034 -0.032187581
-0.14927423 -0.73669523 -0.019572139
0.014843924 -0.73436445 -0.032187581
-0.14927423 -0.70934218 -0.0195719
0.014843924 -0.70710862 -0.032187462
0.042230546 -0.76488823 -0.015207648
0.042230546 -0.73750156 -0.015207648
0.042230546 -0.71011496 -0.015207529
-0.14986786 -0.68416584 -0.0067193508
-0.1224159 -0.68416584 -0.0067193508
-0.094962001 -0.68415529 -0.0067822933
-0.067506634 -0.68412668 -0.0069503784
-0.040056124 -0.68412322 -0.0069714785
-0.01258768 -0.68371785 -0.0093644857
0.014843924 -0.6839028 -0.0082733631
0.042294435 -0.68413389 -0.0069082975
-0.01258768 -0.65628624 -0.0093644857
0.014843924 -0.65646273 -0.0082733631
-0.01258768 -0.62885463 -0.0093643665
0.014843924 -0.62902254 -0.0082733631
-0.01258768 -0.60142308 -0.0093644857
0.014843924 -0.60158265 -0.0082731247
-0.01258768 -0.57399148 -0.0093644857
0.014843924 -0.57414263 -0.0082733631
-0.01258768 -0.54655987 -0.0093644857
0.014843924 -0.54670268 -0.0082733631
-0.01258768 -0.51912826 -0.0093644857
0.014843924 -0.51926267 -0.0082731247
-0.01258768 -0.49169672 -0.0093643665
0.014843924 -0.49182272 -0.0082732439
-0.01258768 -0.46426505 -0.0093644857
0.014843924 -0.46438265 -0.0082732439
-0.01258768 -0.43683344 -0.0093644857
0.014843924 -0.43694264 -0.0082734823
-0.01258768 -0.40940183 -0.0093644857
0.014843924 -0.40950263 -0.0082732439
-0.01258768 -0.38197029 -0.0093644857
0.014843924 -0.38206273 -0.0082733631
-0.01258768 -0.35453862 -0.0093643665
0.014843924 -0.3546226 -0.0082733631
-0.01258768 -0.3271071 -0.0093644857
0.014843924 -0.32718271 -0.0082731247
-0.01258768 -0.29967555 -0.0093643665
0.014843924 -0.29974264 -0.0082732439
-0.01258768 -0.2722438 -0.0093644857
0.014843924 -0.27230266 -0.0082733631
-0.01258768 -0.24481227 -0.0093644857
0.014843924 -0.24486259 -0.0082733631
-0.01258768 -0.21738061 -0.0093644857
0.014843924 -0.21742266 -0.0082731247
-0.01258768 -0.18994902 -0.0093644857
0.014843924 -0.18998262 -0.0082733631
-0.01258768 -0.16251743 -0.0093643665
0.014843924 -0.16254264 -0.0082733631
-0.01258768 -0.13508572 -0.0093644857
0.014843924 -0.1351026 -0.0082731247
-0.01258768 -0.10765424 -0.0093644857
0.014843924 -0.10766273 -0.0082733631
-0.01258768 -0.080222584 -0.0093644857
0.014843924 -0.080222696 -0.0082733631
-0.01258768 -0.05279094 -0.0093643665
0.014843924 -0.052782606 -0.0082733631
-0.01258768 -0.025359448 -0.0093643665
0.014843924 -0.025342621 -0.0082732439
-0.01258768 0.0020722002 -0.0093643665
0.014843924 0.0020974129 -0.0082732439
-0.01258768 0.02950374 -0.0093644857
0.014843924 0.029537447 -0.0082733631
-0.01258768 0.056935385 -0.0093644857
0.014843924 0.056977376 -0.0082731247
-0.01258768 0.084367096 -0.0093643665
0.014843924 0.084417462 -0.0082732439
-0.01258768 0.11179847 -0.0093643665
0.014843924 0.11185735 -0.0082733631
-0.01258768 0.13923018 -0.0093644857
0.014843924 0.13929743 -0.0082734823
-0.01258768 0.16666193 -0.0093644857
0.014843924 0.1667373 -0.0082732439
-0.01258768 0.19409342 -0.0093644857
0.014843924 0.19417746 -0.0082733631
-0.01258768 0.221525 -0.0093644857
0.014843924 0.22161745 -0.0082733631
-0.01258768 0.24895673 -0.0093643665
0.014843924 0.24905743 -0.0082731247
-0.01258768 0.27638811 -0.0093644857
0.014843924 0.27649742 -0.0082731247
-0.01258768 0.30381978 -0.0093643665
0.014843924 0.30393755 -0.0082732439
-0.01258768 0.3312515 -0.0093644857
0.014843924 0.33137739 -0.0082733631
-0.01258768 0.35868305 -0.0093644857
0.014843924 0.35881728 -0.0082733631
-0.01258768 0.38611466 -0.0093644857
0.014843924 0.38625735 -0.0082733631
-0.01258768 0.41354632 -0.0093643665
0.014843924 0.41369754 -0.0082733631
-0.01258768 0.44097781 -0.0093643665
0.014843924 0.44113737 -0.0082731247
-0.01258768 0.46840954 -0.0093644857
0.014843924 0.46857744 -0.0082732439
-0.01258768 0.49584103 -0.0093644857
0.014843924 0.49601746 -0.0082732439
-0.01258768 0.52327257 -0.0093644857
0.014843924 0.52345759 -0.0082733631
-0.01258768 0.55070436 -0.0093643665
0.014843924 0.55089736 -0.0082732439
-0.01258768 0.57813573 -0.0093643665
0.014843924 0.57833737 -0.0082733631
-0.01258768 0.60556746 -0.0093643665
0.014843924 0.60577744 -0.0082733631
-0.01258768 0.63299912 -0.0093644857
0.014843924 0.63321733 -0.0082732439
-0.01258768 0.66043061 -0.0093644857
0.014843924 0.66065747 -0.0082733631
-0.01258768 0.68786222 -0.0093644857
0.014843924 0.68809754 -0.0082733631
-0.01258768 0.71529394 -0.0093643665
0.014843924 0.71553755 -0.0082733631
-0.01258768 0.74272543 -0.0093644857
0.014843924 0.74297756 -0.0082731247
-0.01258768 0.77015704 -0.0093643665
0.014843924 0.77041745 -0.0082733631
-0.01258768 0.79758877 -0.0093644857
0.014843924 0.7978574 -0.0082733631
-0.01258768 0.82502031 -0.0093644857
0.014843924 0.82529742 -0.0082731247
-0.01258768 0.85245192 -0.0093643665
0.014843924 0.85273749 -0.0082732439
-0.01258768 0.87988347 -0.0093643665
0.014843924 0.8801775 -0.0082732439
-0.01258768 0.90731508 -0.0093643665
0.014843924 0.90761769 -0.0082732439
-0.01258768 0.9347468 -0.0093644857
0.014843924 0.93505746 -0.0082731247
-0.01258768 0.96217829 -0.0093644857
0.014843924 0.96249765 -0.0082731247
-0.01258768 0.9896099 -0.0093643665
0.014843924 0.98993748 -0.0082733631
0.069881111 -0.76818758 0.0019361973
0.069881111 -0.74066895 0.0019361973
0.069881111 -0.71315044 0.0019361973
0.069881111 -0.68563175 0.0019360781
-0.040368356 -0.65995157 0.013308525
-0.040368356 -0.63234556 0.013308764
-0.040368356 -0.60473943 0.013308764
-0.040368356 -0.57713318 0.013308644
-0.040368356 -0.54952711 0.013308525
-0.040368356 -0.52192092 0.013308644
-0.040368356 -0.49431473 0.013308644
-0.040368356 -0.46670854 0.013308525
-0.040368356 -0.43910247 0.013308764
-0.040368356 -0.41149628 0.013308644
-0.040368356 -0.38389015 0.013308764
-0.040368356 -0.35628402 0.013308644
-0.040368356 -0.32867786 0.013308644
-0.040368356 -0.3010717 0.013308525
-0.040368356 -0.27346557 0.013308644
-0.040368356 -0.24585953 0.013308764
-0.040368356 -0.21825336 0.013308764
-0.040368356 -0.19064724 0.013308644
-0.040368356 -0.16304109 0.013308525
-0.040368356 -0.13543493 0.013308644
-0.040368356 -0.10782875 0.013308525
-0.040368356 -0.080222584 0.013308525
-0.040368356 -0.052616581 0.013308764
-0.040368356 -0.025010414 0.013308644
-0.040368356 0.0025957525 0.013308764
-0.040368356 0.03020186 0.013308644
-0.040368356 0.057808027 0.013308525
-0.040368356 0.085414141 0.013308525
-0.040368356 0.11302036 0.013308525
-0.040368356 0.14062637 0.013308764
-0.040368356 0.16823249 0.013308764
-0.040368356 0.19583879 0.013308764
-0.040368356 0.22344501 0.013308764
-0.040368356 0.25105113 0.013308764
-0.040368356 0.27865726 0.013308764
-0.040368356 0.30626345 0.013308644
-0.040368356 0.33386946 0.013308764
-0.040368356 0.36147565 0.013308764
-0.040368356 0.38908184 0.013308764
-0.040368356 0.41668797 0.013308764
-0.040368356 0.4442941 0.013308644
-0.040368356 0.47190028 0.013308525
-0.040368356 0.49950641 0.013308644
-0.040368356 0.52711242 0.013308764
-0.040368356 0.55471861 0.013308764
-0.040368356 0.58232474 0.013308764
-0.040368356 0.60993087 0.013308644
-0.040368356 0.63753706 0.013308764
-0.040368356 0.66514319 0.013308644
-0.040368356 0.69274932 0.013308525
-0.040368356 0.72035539 0.013308764
-0.040368356 0.74796152 0.013308764
-0.040368356 0.77556765 0.013308764
-0.040368356 0.80317384 0.013308764
-0.040368356 0.83078003 0.013308764
-0.040368356 0.85838616 0.013308525
-0.040368356 0.88599235 0.013308644
-0.040368356 0.91359848 0.013308525
-0.040368356 0.94120449 0.013308764
-0.040368356 0.96881074 0.013308764
-0.040368356 0.99641675 0.013308764
0.097798973 -0.77151459 0.019224644
0.097798973 -0.74386299 0.019224524
0.097798973 -0.71621132 0.019224644
0.097798973 -0.68855959 0.019224644
0.042512845 -0.66127008 0.02146399
0.042512845 -0.63360113 0.021464109
0.042512845 -0.60593218 0.021464229
0.042512845 -0.57826316 0.021464109
0.042512845 -0.55059427 0.021464109
0.042512845 -0.52292538 0.021464109
0.042512845 -0.49525636 0.021464109
0.042512845 -0.46758753 0.021464109
0.042512845 -0.43991864 0.021464109
0.042512845 -0.41224962 0.021464109
0.042512845 -0.38458073 0.021464229
0.042512845 -0.3569119 0.021464229
0.042512845 -0.32924289 0.021464109
0.042512845 -0.30157396 0.021464109
0.042512845 -0.27390516 0.021464229
0.042512845 -0.24623615 0.021464109
0.042512845 -0.21856724 0.021464109
0.042512845 -0.19089833 0.021464229
0.042512845 -0.16322938 0.021464109
0.042512845 -0.13556057 0.021464109
0.042512845 -0.10789154 0.021464229
0.042512845 -0.080222636 0.02146399
0.042512845 -0.052553676 0.021464109
0.042512845 -0.024884716 0.021464109
0.042512845 0.0027840883 0.021464109
0.042512845 0.030453101 0.021464229
0.042512845 0.058122069 0.021464109
0.042512845 0.085790858 0.021464109
0.042512845 0.11345983 0.021464229
0.042512845 0.14112873 0.02146399
0.042512845 0.16879764 0.021464109
0.042512845 0.19646667 0.021464109
0.042512845 0.22413556 0.02146399
0.042512845 0.25180459 0.021464109
0.042512845 0.27947336 0.021464109
0.042512845 0.30714226 0.021463871
0.042512845 0.33481127 0.021464109
0.042512845 0.36248004 0.021464109
0.042512845 0.39014906 0.021464109
0.042512845 0.41781807 0.021464109
0.042512845 0.4454869 0.021464229
0.042512845 0.4731558 0.02146399
0.042512845 0.50082475 0.021464109
0.042512845 0.52849352 0.021464109
0.042512845 0.55616254 0.02146399
0.042512845 0.58383161 0.021464109
0.042512845 0.61150038 0.021464109
0.042512845 0.63916951 0.021464109
0.042512845 0.66683823 0.021464109
0.042512845 0.69450706 0.021464109
0.042512845 0.72217619 0.021464109
0.042512845 0.74984497 0.021464109
0.042512845 0.77751386 0.021464109
0.042512845 0.80518299 0.021464109
0.042512845 0.83285177 0.021464109
0.042512845 0.86052054 0.021464109
0.042512845 0.88818967 0.021464109
0.042512845 0.91585851 0.021464109
0.042512845 0.9435274 0.021464109
0.042512845 0.97119647 0.021464109
0.042512845 0.99886531 0.021464109
0.12598884 -0.77487826 0.036702514
0.12598884 -0.74709207 0.036702514
0.12598884 -0.71930587 0.036702514
0.12598884 -0.69151962 0.036702514
0.15445353 -0.77827066 0.054329634
0.15445353 -0.75034887 0.054329634
0.15445353 -0.72242683 0.054329634
0.15445353 -0.69450486 0.054329634
0.10102488 -0.68348938 0.15891039
0 0 0 1 0 0 0 1 0 0 0 1 0 0 0 0 0 300 1 0 0
