ply
format ascii 1.0
comment PCL generated
element vertex 849
property float x
property float y
property float z
element camera 1
property float view_px
property float view_py
property float view_pz
property float x_axisx
property float x_axisy
property float x_axisz
property float y_axisx
property float y_axisy
property float y_axisz
property float z_axisx
property float z_axisy
property float z_axisz
property float focal
property float scalex
property float scaley
property float centerx
property float centery
property int viewportx
property int viewporty
property float k1
property float k2
end_header
0.121273 0.18255499 -0.14169276
0.121273 0.20474145 -0.14169288
0.121273 0.22692819 -0.14169288
0.121273 0.2491146 -0.14169288
0.121273 0.27130106 -0.141693
0.121273 0.29348755 -0.141693
0.121273 0.31567419 -0.14169276
0.121273 0.33786064 -0.14169288
0.121273 0.36004704 -0.14169288
0.121273 0.38223371 -0.14169276
0.121273 0.40442026 -0.141693
0.121273 0.42660671 -0.141693
0.121273 0.44879335 -0.14169288
0.121273 0.47097981 -0.141693
0.121273 0.49316621 -0.141693
0.121273 0.51535285 -0.14169276
0.121273 0.5375393 -0.14169276
0.121273 0.55972588 -0.14169276
0.099499755 0.18327831 -0.12827146
0.099499755 0.20556808 -0.12827158
0.099499755 0.22785798 -0.12827146
0.099499755 0.25014776 -0.12827158
0.099499755 0.2724376 -0.12827134
0.099499755 0.29472739 -0.12827158
0.099499755 0.31701735 -0.12827134
0.099499755 0.33930707 -0.12827134
0.099499755 0.36159703 -0.12827134
0.099499755 0.38388687 -0.12827158
0.099499755 0.40617675 -0.12827158
0.099499755 0.42846647 -0.12827158
0.099499755 0.4507564 -0.12827146
0.099499755 0.47304612 -0.12827158
0.099499755 0.49533609 -0.12827146
0.099499755 0.51762587 -0.12827146
0.099499755 0.53991556 -0.12827158
0.099499755 0.56220555 -0.12827146
0.077522762 0.1840083 -0.11472452
0.14480901 0.18412936 -0.11247575
0.055339169 0.18474506 -0.10105026
0.055339169 0.20724444 -0.10105014
0.077522762 0.20640247 -0.11472452
0.14480901 0.20654096 -0.11247587
0.055339169 0.22974376 -0.10105014
0.077522762 0.22879647 -0.11472452
0.14480901 0.22895223 -0.11247587
0.055339169 0.2522431 -0.10105014
0.077522762 0.25119057 -0.11472452
0.14480901 0.25136366 -0.11247563
0.055339169 0.2747426 -0.10105026
0.077522762 0.27358475 -0.11472452
0.14480901 0.27377519 -0.11247587
0.055339169 0.29724202 -0.10105026
0.077522762 0.2959789 -0.11472452
0.14480901 0.29618651 -0.11247587
0.055339169 0.31974131 -0.10105026
0.077522762 0.31837299 -0.11472452
0.14480901 0.31859797 -0.11247563
0.077522762 0.34076712 -0.11472452
0.14480901 0.34100956 -0.11247587
0.055339169 0.3422409 -0.10105002
0.055339169 0.36474019 -0.10105002
0.077522762 0.36316118 -0.11472452
0.14480901 0.36342081 -0.11247587
0.055339169 0.38723966 -0.10105014
0.077522762 0.38555539 -0.11472452
0.14480901 0.38583228 -0.11247587
0.055339169 0.40973908 -0.10105014
0.077522762 0.40794948 -0.11472464
0.14480901 0.40824386 -0.11247587
0.055339169 0.43223837 -0.10105014
0.077522762 0.4303436 -0.11472452
0.14480901 0.43065515 -0.11247587
0.055339169 0.45473775 -0.10105014
0.077522762 0.45273766 -0.11472452
0.14480901 0.45306674 -0.11247587
0.055339169 0.47723714 -0.10105014
0.077522762 0.47513184 -0.11472464
0.14480901 0.47547817 -0.11247587
0.077522762 0.49752596 -0.11472464
0.14480901 0.49788946 -0.11247587
0.055339169 0.49973652 -0.10105026
0.055339169 0.52223593 -0.10105014
0.077522762 0.51992005 -0.11472452
0.14480901 0.52030104 -0.11247587
0.055339169 0.54473531 -0.10105014
0.077522762 0.54231417 -0.11472452
0.14480901 0.54271251 -0.11247587
0.055339169 0.56723469 -0.10105014
0.077522762 0.56470835 -0.11472464
0.14480901 0.56512374 -0.11247587
0.032946035 0.18548891 -0.087246656
0.032946035 0.20809446 -0.087246656
0.032946035 0.23070021 -0.087246656
0.032946035 0.25330576 -0.087246656
0.032946035 0.27591154 -0.087246656
0.032946035 0.29851714 -0.087246656
0.032946035 0.32112271 -0.087246656
0.032946035 0.34372842 -0.087246656
0.032946035 0.36633417 -0.087246656
0.032946035 0.3889398 -0.087246776
0.032946035 0.41154546 -0.087246656
0.032946035 0.43415111 -0.087246776
0.032946035 0.45675674 -0.087246656
0.032946035 0.47936234 -0.087246656
0.032946035 0.50196797 -0.087246776
0.032946035 0.52457368 -0.087246656
0.032946035 0.54717928 -0.087246776
0.032946035 0.569785 -0.087246656
0.010340385 0.18623976 -0.073312283
0.16937619 0.18628518 -0.07246995
0.010340385 0.20895271 -0.073312163
0.16937619 0.20900449 -0.07246995
0.010340385 0.23166554 -0.073312283
0.16937619 0.23172393 -0.072470069
0.010340385 0.25437847 -0.073312163
0.16937619 0.25444335 -0.072470069
0.010340385 0.2770915 -0.073312163
0.16937619 0.27716279 -0.07246995
0.010340385 0.29980439 -0.073312163
0.16937619 0.29988217 -0.07246995
0.010340385 0.32251725 -0.073312163
0.16937619 0.32260168 -0.07246995
0.010340385 0.34523016 -0.073312163
0.16937619 0.34532097 -0.07246995
0.010340385 0.3679432 -0.073312283
0.16937619 0.36804035 -0.07246995
0.010340385 0.39065593 -0.073312163
0.16937619 0.39075971 -0.072470069
0.010340385 0.41336897 -0.073312283
0.16937619 0.41347912 -0.07246995
0.010340385 0.43608189 -0.073312163
0.16937619 0.43619868 -0.07246995
0.010340385 0.45879492 -0.073312163
0.16937619 0.45891795 -0.07246995
0.010340385 0.48150763 -0.073312163
0.16937619 0.48163736 -0.07246995
0.010340385 0.50422055 -0.073312163
0.16937619 0.5043568 -0.07246995
0.010340385 0.52693355 -0.073312163
0.16937619 0.52707613 -0.07246995
0.010340385 0.54964632 -0.073312163
0.16937619 0.54979551 -0.07246995
0.010340385 0.57236242 -0.073295593
0.16937619 0.57251507 -0.07246995
-0.012480825 0.18699786 -0.059244752
-0.012480825 0.20981893 -0.059244752
-0.012480825 0.23264018 -0.059244752
-0.012480825 0.25546139 -0.059244871
-0.012480825 0.27828264 -0.059244752
-0.012480825 0.30110392 -0.059244752
-0.012480825 0.32392517 -0.059244752
-0.012480825 0.34674624 -0.059244752
-0.012480825 0.36956757 -0.059244752
-0.012480825 0.3923887 -0.059244752
-0.012480825 0.41520974 -0.059244752
-0.012480825 0.43803111 -0.059244752
-0.012480825 0.46085227 -0.059244752
-0.012480825 0.4836736 -0.059244752
-0.012480825 0.50649464 -0.059244752
-0.012480825 0.52931595 -0.059244752
-0.012480954 0.55214 -0.059228182
-0.035520691 0.18776312 -0.045042753
-0.035520691 0.21069369 -0.045042634
-0.035520691 0.23362419 -0.045042634
-0.035520691 0.25655475 -0.045042515
-0.035520691 0.27948523 -0.045042634
-0.035520691 0.3024157 -0.045042753
-0.035520691 0.32534626 -0.045042753
-0.035520691 0.34827676 -0.045042634
-0.035520691 0.37120733 -0.045042634
-0.035520691 0.39413798 -0.045042753
-0.035520691 0.41706851 -0.045042753
-0.035520691 0.43999895 -0.045042634
-0.035520691 0.46292949 -0.045042634
-0.035520691 0.48586005 -0.045042515
-0.035520691 0.50879067 -0.045042634
-0.035520952 0.53172398 -0.045025706
-0.035520952 0.55465466 -0.045025826
-0.058782369 0.18853571 -0.030703664
0.194628 0.18850085 -0.031349301
-0.058782369 0.2115766 -0.030703664
0.194628 0.21153693 -0.031349301
-0.058782369 0.23461749 -0.030703783
0.194628 0.2345729 -0.031349182
-0.058782369 0.25765857 -0.030703664
0.194628 0.25760877 -0.031349301
-0.058782369 0.28069943 -0.030703664
0.194628 0.28064471 -0.031349182
-0.058782369 0.30374032 -0.030703664
0.194628 0.30368075 -0.031349182
-0.058782369 0.32678115 -0.030703664
0.194628 0.32671657 -0.031349182
-0.058782369 0.34982213 -0.030703664
0.194628 0.34975263 -0.031349182
-0.058782369 0.37286302 -0.030703783
0.194628 0.37278849 -0.031349182
-0.058782369 0.39590406 -0.030703545
0.194628 0.39582458 -0.031349301
-0.058782369 0.41894495 -0.030703664
0.194628 0.41886061 -0.031349182
-0.058782369 0.44198579 -0.030703664
0.194628 0.44189644 -0.031349421
-0.058782369 0.46502668 -0.030703664
0.194628 0.46493241 -0.031349301
-0.058782369 0.48806757 -0.030703664
0.194628 0.48796824 -0.031349421
-0.058782764 0.51111138 -0.030686617
0.194628 0.51100427 -0.031349421
-0.058782764 0.53415239 -0.030686736
0.194628 0.53404027 -0.031349182
-0.058782764 0.55719346 -0.030686855
0.194628 0.5570761 -0.031349182
-0.012857368 -0.99345183 -0.010330439
0.010340385 -0.99411154 -0.0083830357
-0.012857368 -0.97025418 -0.010330319
0.010340385 -0.97089875 -0.0083830357
-0.012857368 -0.94705629 -0.010330439
0.010340385 -0.94768596 -0.0083829165
-0.012857368 -0.92385858 -0.010330439
0.010340385 -0.92447323 -0.0083830357
-0.012857368 -0.90066075 -0.010330439
0.010340385 -0.90126044 -0.0083830357
-0.012857368 -0.87746304 -0.010330439
0.010340385 -0.8780477 -0.0083830357
-0.012857368 -0.85426539 -0.010330439
0.010340385 -0.85483491 -0.0083829165
-0.012857368 -0.83106762 -0.010330319
0.010340385 -0.83162224 -0.0083829165
-0.012857368 -0.80786985 -0.010330439
0.010340385 -0.80840951 -0.0083830357
-0.012857368 -0.78467196 -0.010330439
0.010340385 -0.78519672 -0.0083830357
-0.012857368 -0.76147437 -0.010330439
0.010340385 -0.76198399 -0.0083830357
-0.012857368 -0.73827654 -0.010330439
0.010340385 -0.73877132 -0.0083829165
-0.012857368 -0.71507883 -0.010330319
0.010340385 -0.71555847 -0.0083830357
-0.012857368 -0.69188106 -0.010330439
0.010340385 -0.69234568 -0.0083829165
-0.012857368 -0.66868329 -0.010330558
0.010340385 -0.66913301 -0.0083829165
-0.012857368 -0.64548546 -0.010330439
0.010340385 -0.64592028 -0.0083829165
-0.012857368 -0.62228775 -0.010330439
0.010340385 -0.62270755 -0.0083830357
-0.012857368 -0.59908992 -0.010330439
0.010340385 -0.59949481 -0.0083830357
-0.012857368 -0.57589233 -0.010330319
0.010340385 -0.57628202 -0.0083830357
-0.012857368 -0.5526945 -0.010330439
0.010340385 -0.55306935 -0.0083829165
-0.0128575 -0.52950001 -0.010313034
0.010340385 -0.5298565 -0.0083830357
-0.0128575 -0.50630212 -0.010313272
0.010340385 -0.50664073 -0.008400321
-0.0128575 -0.48310423 -0.010313392
0.010340385 -0.48342806 -0.008400321
-0.0128575 -0.45990634 -0.010313153
0.010340385 -0.4602156 -0.0084002018
-0.0128575 -0.43670842 -0.010313272
0.010340385 -0.4370029 -0.0084002018
-0.0128575 -0.41351056 -0.010313153
0.010340385 -0.41379032 -0.008400321
-0.0128575 -0.39031258 -0.010313272
0.010340385 -0.39057773 -0.008400321
-0.0128575 -0.36711475 -0.010313034
0.010340385 -0.36736506 -0.008400321
-0.0128575 -0.34391683 -0.010313272
0.010340385 -0.34415242 -0.008400321
-0.0128575 -0.32071897 -0.010313153
0.010340385 -0.32093984 -0.008400321
-0.0128575 -0.29752105 -0.010313272
0.010340385 -0.29772723 -0.008400321
-0.0128575 -0.2743232 -0.010313153
0.010340385 -0.27451465 -0.0084002018
-0.0128575 -0.25112528 -0.010313272
0.010340385 -0.25130212 -0.008400321
-0.0128575 -0.22792752 -0.010313034
0.010340385 -0.22808941 -0.0084002018
-0.0128575 -0.20472956 -0.010313153
0.010340385 -0.2048768 -0.008400321
-0.0128575 -0.18153164 -0.010313272
0.010340385 -0.18166421 -0.008400321
-0.0128575 -0.15833376 -0.010313153
0.010340385 -0.1584516 -0.008400321
-0.0128575 -0.13513586 -0.010313272
0.010340385 -0.13523887 -0.008400321
-0.0128575 -0.11193798 -0.010313034
0.010340385 -0.11202635 -0.0084000826
-0.0128575 -0.088740163 -0.010313272
0.010340385 -0.088813782 -0.0084002018
-0.0128575 -0.065542296 -0.010313153
0.010340385 -0.065601163 -0.008400321
-0.0128575 -0.042344376 -0.010313272
0.010340385 -0.042388491 -0.0084002018
-0.0128575 -0.019146508 -0.010313153
0.010340385 -0.019175919 -0.008400321
-0.0128575 0.0040514078 -0.010313272
0.010340385 0.0040367488 -0.008400321
0.010340385 0.027249277 -0.008400321
-0.0128575 0.027249323 -0.010313034
-0.0128575 0.050447285 -0.010313153
0.010340385 0.050461944 -0.008400321
-0.0128575 0.073645107 -0.010313034
0.010340385 0.07367447 -0.0084002018
-0.0128575 0.096843019 -0.010313153
0.010340385 0.096887186 -0.0084002018
-0.0128575 0.1200408 -0.010313272
0.010340385 0.12009981 -0.0084000826
-0.0128575 0.14323866 -0.010313272
0.010340385 0.14331242 -0.0084002018
-0.0128575 0.16643658 -0.010313272
0.010340385 0.1665249 -0.008400321
-0.082269087 0.1893159 -0.016226172
-0.082269087 0.21246825 -0.016226172
-0.082269087 0.23562065 -0.016226172
-0.082269087 0.258773 -0.016226292
-0.082269087 0.28192547 -0.016226172
-0.082269087 0.30507776 -0.016226172
-0.082269087 0.32823011 -0.016226172
-0.082269087 0.35138246 -0.016226172
-0.082269087 0.3745349 -0.016226292
-0.082269087 0.39768717 -0.016226172
-0.082269087 0.42083952 -0.016226172
-0.082269087 0.4439919 -0.016226172
-0.082269087 0.46714434 -0.016226292
-0.082269087 0.4902966 -0.016226172
-0.082269616 0.51345181 -0.016208887
-0.082269616 0.53660429 -0.016208887
-0.082269616 0.55975682 -0.016208887
-0.059577741 -0.99821663 0.0037369728
-0.036114592 -0.99476016 -0.0064675808
0.033616357 -0.99689353 -0.0001693964
-0.059577741 -0.97491062 0.0037367344
-0.036114592 -0.97153264 -0.0064678192
0.033616357 -0.97361743 -0.0001693964
-0.059577741 -0.95160455 0.0037368536
-0.036114592 -0.94830519 -0.0064675808
0.033616357 -0.95034146 -0.0001693964
-0.059577741 -0.92829847 0.0037368536
-0.036114592 -0.9250778 -0.0064677
0.033616357 -0.92706561 -0.0001693964
-0.059577741 -0.9049924 0.0037368536
-0.036114592 -0.90185022 -0.0064677
0.033616357 -0.90378964 -0.0001693964
-0.059577741 -0.88168627 0.0037368536
-0.036114592 -0.87862277 -0.0064677
0.033616357 -0.88051361 -0.0001693964
-0.059577741 -0.85838032 0.0037368536
-0.036114592 -0.8553952 -0.0064677
0.033616357 -0.85723758 -0.0001693964
-0.059577741 -0.83507431 0.0037368536
-0.036114592 -0.83216786 -0.0064674616
0.033616357 -0.83396178 -0.0001693964
-0.059577741 -0.81176829 0.0037368536
-0.036114592 -0.80894029 -0.0064675808
0.033616357 -0.81068569 -0.0001693964
-0.059577741 -0.78846228 0.0037368536
-0.036114592 -0.78571284 -0.0064678192
0.033616357 -0.78740972 -0.0001693964
-0.059577741 -0.76515621 0.0037369728
-0.036114592 -0.76248533 -0.0064675808
0.033616357 -0.76413381 -0.0001693964
-0.059577741 -0.7418502 0.0037368536
-0.036114592 -0.73925787 -0.0064677
0.033616357 -0.7408579 -0.0001693964
-0.059577741 -0.71854419 0.0037368536
-0.036114592 -0.7160303 -0.0064677
0.033616357 -0.71758187 -0.0001693964
-0.059577741 -0.69523799 0.0037368536
-0.036114592 -0.69280279 -0.0064675808
0.033616357 -0.69430596 -0.0001693964
-0.059577741 -0.67193186 0.0037368536
-0.036114592 -0.66957533 -0.0064677
0.033616357 -0.67102981 -0.0001693964
-0.059577741 -0.64862591 0.0037368536
-0.036114592 -0.646348 -0.0064675808
0.033616357 -0.64775378 -0.0001693964
-0.059577741 -0.6253199 0.0037368536
-0.036114592 -0.62312043 -0.0064677
0.033616357 -0.62447792 -0.0001693964
-0.059577741 -0.60201389 0.0037368536
-0.036114592 -0.59989285 -0.0064677
0.033616357 -0.60120195 -0.0001693964
-0.059577741 -0.57870781 0.0037368536
-0.036114592 -0.57666534 -0.0064675808
0.033616357 -0.57792592 -0.0001693964
-0.059577741 -0.5554018 0.0037368536
0.033616357 -0.55464995 -0.0001693964
-0.036114592 -0.55343795 -0.0064677
-0.059577741 -0.53209579 0.0037368536
-0.036114592 -0.53021044 -0.0064677
0.033616357 -0.5313741 -0.0001693964
-0.059577741 -0.50878978 0.0037368536
0.033616357 -0.50809807 -0.0001693964
-0.036114592 -0.50698292 -0.0064677
-0.059577741 -0.48548371 0.0037369728
-0.036114592 -0.48375541 -0.0064677
0.033616357 -0.48482203 -0.0001693964
-0.059577741 -0.46217769 0.0037368536
-0.036114592 -0.46052796 -0.0064674616
0.033616357 -0.46154612 -0.0001693964
-0.059577741 -0.43887165 0.0037369728
-0.036114592 -0.43730044 -0.0064677
0.033616357 -0.43827015 -0.0001693964
-0.059577741 -0.41556549 0.0037368536
-0.036114592 -0.41407299 -0.0064677
0.033616357 -0.41499415 -0.0001693964
-0.059577741 -0.39225936 0.0037368536
-0.036114592 -0.39084551 -0.0064675808
0.033616357 -0.39171827 -0.0001693964
-0.059577741 -0.36895341 0.0037368536
-0.036114592 -0.36761796 -0.0064675808
0.033616357 -0.3684423 -0.0001693964
-0.059577741 -0.34564736 0.0037368536
-0.036114592 -0.34439057 -0.0064675808
0.033616357 -0.34516618 -0.0001693964
-0.059577741 -0.32234135 0.0037368536
-0.036114592 -0.32116297 -0.0064675808
0.033616357 -0.32189023 -0.0001693964
-0.059577741 -0.29903531 0.0037368536
-0.036114592 -0.29793552 -0.0064677
0.033616357 -0.29861429 -0.0001693964
-0.059577741 -0.27572924 0.0037368536
-0.036114592 -0.27470809 -0.0064677
0.033616357 -0.27533835 -0.0001693964
-0.059577741 -0.2524232 0.0037368536
-0.036114592 -0.25148055 -0.0064677
0.033616357 -0.25206232 -0.0001693964
-0.059577741 -0.2291172 0.0037368536
-0.036114592 -0.22825305 -0.0064677
0.033616357 -0.22878645 -0.0001693964
-0.059577741 -0.20581117 0.0037369728
-0.036114592 -0.20502557 -0.0064674616
0.033616357 -0.20551047 -0.0001693964
-0.059577741 -0.18250512 0.0037368536
-0.036114592 -0.1817981 -0.0064677
0.033616357 -0.18223439 -0.0001693964
-0.059577741 -0.15919897 0.0037368536
-0.036114592 -0.15857065 -0.0064675808
0.033616357 -0.15895849 -0.0001693964
-0.059577741 -0.13589296 0.0037368536
-0.036114592 -0.13534312 -0.0064675808
0.033616357 -0.13568251 -0.0001693964
-0.059577741 -0.11258687 0.0037368536
-0.036114592 -0.11211556 -0.0064677
0.033616357 -0.11240648 -0.0001693964
-0.059577741 -0.089280874 0.0037368536
-0.036114592 -0.088888153 -0.0064675808
0.033616357 -0.08913064 -0.0001693964
-0.059577741 -0.065974876 0.0037368536
-0.036114592 -0.065660685 -0.0064677
0.033616357 -0.065854609 -0.0001693964
-0.059577741 -0.042668827 0.0037368536
-0.036114592 -0.04243312 -0.0064677
0.033616357 -0.04257863 -0.0001693964
-0.059577741 -0.019362727 0.0037369728
-0.036114592 -0.019205654 -0.0064675808
0.033616357 -0.019302549 -0.0001693964
-0.059577741 0.0039431807 0.0037368536
-0.036114592 0.0040218569 -0.0064677
0.033616357 0.0039733406 -0.0001693964
-0.036114592 0.02724923 -0.0064675808
0.033616357 0.02724923 -0.0001693964
-0.059577741 0.02724937 0.0037369728
-0.059577741 0.050555371 0.0037369728
-0.036114592 0.050476834 -0.0064675808
0.033616357 0.050525352 -0.0001693964
-0.059577741 0.07386142 0.0037369728
-0.036114592 0.073704302 -0.0064677
0.033616357 0.073801287 -0.00016927719
-0.059577741 0.097167417 0.0037369728
-0.036114592 0.096931815 -0.0064674616
0.033616357 0.097077221 -0.0001693964
-0.059577741 0.12047352 0.0037368536
-0.036114592 0.12015928 -0.0064677
0.033616357 0.12035325 -0.0001693964
-0.059577741 0.14377952 0.0037368536
-0.036114592 0.14338675 -0.0064677
0.033616357 0.1436291 -0.0001693964
-0.059577741 0.16708557 0.0037368536
-0.036114592 0.16661426 -0.0064674616
0.033616357 0.16690518 -0.0001693964
-0.10598411 0.19010356 -0.0016077757
-0.10598411 0.21336859 -0.0016077757
-0.10598411 0.23663333 -0.0016077757
-0.10598411 0.25989828 -0.0016078949
-0.10598411 0.28316334 -0.0016077757
-0.10598411 0.30642807 -0.0016077757
-0.10598411 0.32969302 -0.0016077757
-0.10598411 0.3529579 -0.0016078949
-0.10598411 0.37622282 -0.0016077757
-0.10598411 0.39948776 -0.0016078949
-0.10598411 0.42275256 -0.0016077757
-0.10598411 0.44601759 -0.0016077757
-0.10598411 0.46928251 -0.0016078949
-0.10598478 0.49255002 -0.0015904903
-0.10598478 0.51581508 -0.0015904903
-0.10598478 0.53908008 -0.0015904903
-0.10598546 0.56234819 -0.001573205
-0.083526239 -0.98181689 0.024600983
0.057155151 -0.97926819 0.016901135
-0.083526239 -0.95835024 0.024601102
0.057155151 -0.95586079 0.016901255
-0.083526239 -0.93488359 0.024600983
0.057155151 -0.93245333 0.016901135
-0.083526239 -0.91141689 0.024600983
0.057155151 -0.90904605 0.016901255
-0.083526239 -0.88795024 0.024600863
0.057155151 -0.88563865 0.016901135
-0.083526239 -0.86448371 0.024601102
0.057155151 -0.86223125 0.016901374
-0.083526239 -0.84101695 0.024601102
0.057155151 -0.83882385 0.016901135
-0.083526239 -0.8175503 0.024601102
0.057155151 -0.81541646 0.016901255
-0.083526239 -0.79408371 0.024600983
0.057155151 -0.79200906 0.016901255
-0.083526239 -0.77061689 0.024600983
0.057155151 -0.76860178 0.016901255
-0.083526239 -0.7471503 0.024600983
0.057155151 -0.74519426 0.016901255
-0.083526239 -0.72368377 0.024601221
0.057155151 -0.72178692 0.016901255
-0.083526239 -0.70021695 0.024601102
0.057155151 -0.69837958 0.016901255
-0.083526239 -0.67675036 0.024601102
0.057155151 -0.67497218 0.016901255
-0.083526239 -0.65328377 0.024601102
0.057155151 -0.65156478 0.016901135
-0.083526239 -0.62981713 0.024600983
0.057155151 -0.62815738 0.016901255
-0.083526239 -0.60635036 0.024600983
0.057155151 -0.60475004 0.016901135
-0.083526239 -0.58288378 0.024600863
0.057155151 -0.58134264 0.016901255
-0.083526239 -0.55941719 0.024601102
0.057155151 -0.55793518 0.016901255
-0.083526239 -0.53595042 0.024601102
0.057155151 -0.53452796 0.016901255
-0.083526239 -0.51248384 0.024601102
0.057155151 -0.5111205 0.016901135
-0.083526239 -0.48901713 0.024600983
0.057155151 -0.4877131 0.016901255
-0.083526239 -0.46555042 0.024601102
0.057155151 -0.4643057 0.016901135
-0.083526239 -0.44208378 0.024600983
0.057155151 -0.44089839 0.016901374
-0.083526239 -0.4186171 0.024600983
0.057155151 -0.41749099 0.016901135
-0.083526239 -0.39515051 0.024601102
0.057155151 -0.39408362 0.016901255
-0.083526239 -0.37168384 0.024601102
0.057155151 -0.37067613 0.016901135
-0.083526239 -0.34821719 0.024601102
0.057155151 -0.34726885 0.016901255
-0.083526239 -0.32475048 0.024601102
0.057155151 -0.32386139 0.016901135
-0.083526239 -0.30128384 0.024600983
0.057155151 -0.30045408 0.016901255
-0.083526239 -0.27781713 0.024600983
0.057155151 -0.27704665 0.016901255
-0.083526239 -0.25435057 0.024601102
0.057155151 -0.25363925 0.016901255
-0.083526239 -0.23088391 0.024601221
0.057155151 -0.23023193 0.016901255
-0.083526239 -0.20741728 0.024601102
0.057155151 -0.20682454 0.016901255
-0.083526239 -0.18395065 0.024600983
0.057155151 -0.18341711 0.016901255
-0.083526239 -0.16048397 0.024601102
0.057155151 -0.16000974 0.016901255
-0.083526239 -0.13701729 0.024600983
0.057155151 -0.13660233 0.016901255
-0.083526239 -0.11355062 0.024600983
0.057155151 -0.11319503 0.016901255
-0.083526239 -0.090084031 0.024601102
0.057155151 -0.089787588 0.016901255
-0.083526239 -0.066617347 0.024601102
0.057155151 -0.066380195 0.016901255
-0.083526239 -0.043150671 0.024601102
0.057155151 -0.042972855 0.016901135
-0.083526239 -0.019684037 0.024601102
0.057155151 -0.019565506 0.016901255
-0.083526239 0.003782643 0.024600983
0.057155151 0.0038418844 0.016901135
-0.083526239 0.027249277 0.024600983
0.057155151 0.027249323 0.016901255
-0.083526239 0.050716005 0.024600983
0.057155151 0.050656714 0.016901255
-0.083526239 0.07418254 0.024601221
0.057155151 0.074064009 0.016901255
-0.083526239 0.097649269 0.024601221
0.057155151 0.097471401 0.016901016
-0.083526239 0.12111585 0.024600983
0.057155151 0.12087884 0.016901374
-0.083526239 0.14458263 0.024601221
0.057155151 0.14428623 0.016901135
-0.083526239 0.16804922 0.024600983
0.057155151 0.16769348 0.016901255
-0.1299316 0.19089992 0.0131706
0.22059458 0.19078036 0.010950923
-0.1299316 0.21427864 0.0131706
0.22059458 0.21414195 0.010950923
-0.1299316 0.23765729 0.013170838
0.22059458 0.23750354 0.010951042
-0.1299316 0.26103598 0.013170838
0.22059458 0.26086503 0.010951042
-0.1299316 0.28441468 0.013170838
0.22059458 0.28422666 0.010950923
-0.1299316 0.30779335 0.013170838
0.22059458 0.30758813 0.010950923
-0.1299316 0.33117193 0.013170838
0.22059458 0.33094987 0.010950923
-0.1299316 0.35455066 0.013170838
0.22059458 0.35431138 0.010950923
-0.1299316 0.37792936 0.013170838
0.22059458 0.37767285 0.010950923
-0.1299316 0.40130794 0.0131706
0.22059458 0.40103453 0.010950923
-0.1299316 0.42468664 0.013170719
0.22059458 0.42439619 0.010950923
-0.1299316 0.44806531 0.0131706
0.22059458 0.44775769 0.010950923
-0.1299316 0.47144389 0.013170838
0.22059458 0.47111937 0.010950923
-0.1299316 0.49482262 0.013170838
0.22059458 0.49448085 0.010950923
-0.1299316 0.51820129 0.013170838
0.22059458 0.51784241 0.010950923
-0.12993243 0.54158288 0.013188243
0.22059458 0.54120409 0.010950923
-0.12993243 0.56496173 0.013188243
0.22059458 0.56456566 0.010950923
-0.1541135 0.19170326 0.028077006
-0.1541135 0.21519668 0.028077006
-0.1541135 0.23869015 0.028077006
-0.1541135 0.26218352 0.028077006
-0.1541135 0.28567696 0.028077006
-0.1541135 0.30917042 0.028077006
-0.1541135 0.3326636 0.028076768
-0.1541135 0.35615712 0.028076887
-0.1541135 0.3796505 0.028076887
-0.1541135 0.40314385 0.028076768
-0.1541135 0.42663729 0.028077006
-0.1541135 0.45013067 0.028077006
-0.1541135 0.47362414 0.028077006
-0.1541135 0.49711755 0.028077006
-0.15411445 0.52061379 0.028094649
-0.15411445 0.54410732 0.028094649
-0.15411445 0.56760097 0.028094649
0.081451602 -0.99201143 0.055398703
0.081451602 -0.96830755 0.055398822
0.081451602 -0.94460392 0.055398822
0.081451602 -0.92090017 0.055398941
0.081451602 -0.89719653 0.055398941
0.081451602 -0.87349284 0.055398941
0.081451602 -0.8497889 0.055398822
0.081451602 -0.82608521 0.055398822
0.081451602 -0.8023814 0.055398941
0.081451602 -0.77867776 0.055398941
0.081451602 -0.75497395 0.055398822
0.081451602 -0.73127031 0.055398822
0.081451602 -0.70756656 0.055398941
0.081451602 -0.68386292 0.055398941
0.081451602 -0.66015905 0.055398822
0.081451602 -0.63645536 0.055398941
0.081451602 -0.6127516 0.055398941
0.081451602 -0.58904785 0.055398822
0.081451602 -0.56534415 0.055398941
0.081451602 -0.54164034 0.055398822
0.081451602 -0.51793671 0.055398822
0.081451602 -0.49423289 0.055398822
0.081451602 -0.47052917 0.055398941
0.081451602 -0.44682533 0.055398822
0.081451602 -0.42312169 0.055398822
0.081451602 -0.39941794 0.055398822
0.081451602 -0.37571427 0.055398822
0.081451602 -0.35201058 0.055398941
0.081451602 -0.32830667 0.055398822
0.081451602 -0.30460301 0.055398822
0.081451602 -0.28089926 0.055398941
0.081451602 -0.25719556 0.055398941
0.081451602 -0.23349179 0.055398822
0.081451602 -0.20978811 0.055398822
0.081451602 -0.18608442 0.055398822
0.081451602 -0.16238064 0.055398941
0.081451602 -0.13867675 0.055398822
0.081451602 -0.11497307 0.055398822
0.081451602 -0.091269366 0.055398822
0.081451602 -0.06756568 0.055398941
0.081451602 -0.043861985 0.055398941
0.081451602 -0.020158155 0.055398822
0.081451602 0.0035455395 0.055398822
0.081451602 0.02724923 0.055398822
0.081451602 0.050952919 0.055398941
0.081451602 0.074656896 0.055398822
0.081451602 0.098360583 0.055398822
0.081451602 0.12206428 0.055398941
0.081451602 0.14576802 0.055398941
0.081451602 0.16947176 0.055398941
-0.17853397 0.19251442 0.043130279
0.24730444 0.19312412 0.054446101
-0.17853397 0.21612374 0.043130279
0.24730444 0.21682058 0.054446101
-0.17853397 0.23973298 0.043130159
0.24730444 0.2405168 0.05444622
-0.17853397 0.26334217 0.043130279
0.24730444 0.26421329 0.054446101
-0.17853397 0.28695142 0.043130279
0.24730444 0.28790978 0.054446101
-0.17853397 0.31056094 0.043130159
0.24730444 0.31160614 0.05444622
-0.17853397 0.33417025 0.043130279
0.24730444 0.33530253 0.054446101
-0.17853397 0.3577795 0.043130279
0.24730444 0.35899901 0.054446101
-0.17853397 0.38138866 0.043130159
0.24730444 0.38269541 0.05444622
-0.17853397 0.40499792 0.043130279
0.24730444 0.4063918 0.05444622
-0.17853397 0.42860731 0.043130398
0.24730444 0.43008828 0.054446101
-0.17853397 0.45221666 0.043130159
0.24730444 0.45378456 0.054446101
-0.17853397 0.475826 0.043130279
0.24730444 0.47748104 0.054446101
-0.17853504 0.49943802 0.04314816
0.24730444 0.50117743 0.05444622
-0.17853504 0.52304727 0.043148041
0.24730444 0.52487391 0.05444622
-0.17853504 0.54665673 0.043148041
0.24730444 0.54857022 0.054446101
-0.17853504 0.57026613 0.04314816
0.24730444 0.57226658 0.054446101
-0.20319653 0.19333366 0.058332682
-0.20319653 0.21705987 0.058332682
-0.20319653 0.24078621 0.058332682
-0.20319653 0.26451254 0.05833292
-0.20319653 0.28823885 0.058332682
-0.20319653 0.3119652 0.058332682
-0.20319653 0.3356916 0.058332801
-0.20319653 0.35941777 0.058332682
-0.20319653 0.3831442 0.05833292
-0.20319653 0.4068706 0.058332801
-0.20319653 0.43059686 0.058332682
-0.20319653 0.45432317 0.05833292
-0.20319778 0.47805211 0.058350801
-0.20319778 0.50177842 0.058350801
-0.20319778 0.52550483 0.058350801
-0.20319778 0.54923147 0.058350801
-0.203199 0.57296115 0.058368683
-0.2281048 0.19416091 0.073686719
-0.2281048 0.21800551 0.0736866
-0.2281048 0.24184997 0.073686719
-0.2281048 0.26569441 0.073686719
-0.2281048 0.2895391 0.0736866
-0.2281048 0.31338352 0.073686719
-0.2281048 0.33722791 0.073686719
-0.2281048 0.3610726 0.0736866
-0.2281048 0.38491711 0.073686719
-0.2281048 0.40876162 0.073686719
-0.2281048 0.43260619 0.0736866
-0.2281062 0.45645314 0.073705077
-0.2281062 0.48029783 0.073704958
-0.2281062 0.50414252 0.073704839
-0.2281062 0.52798724 0.073704839
-0.2281076 0.55183482 0.073723197
-0.25326246 0.19499663 0.089194417
0.27479103 0.19553606 0.099206209
-0.25326246 0.21896045 0.089194298
0.27479103 0.21957716 0.099206328
-0.25326246 0.24292442 0.089194417
0.27479103 0.24361795 0.099206328
-0.25326246 0.26688817 0.089194417
0.27479103 0.26765907 0.099206328
-0.25326246 0.29085222 0.089194417
0.27479103 0.29170004 0.099206209
-0.25326246 0.31481606 0.089194417
0.27479103 0.31574097 0.099206328
-0.25326246 0.33878002 0.089194417
0.27479103 0.33978194 0.099206328
-0.25326246 0.36274385 0.089194417
0.27479103 0.36382285 0.09920609
-0.25326246 0.38670778 0.089194536
0.27479103 0.38786381 0.099206328
-0.25326246 0.41067174 0.089194417
0.27479103 0.41190475 0.099206209
-0.25326404 0.43463796 0.089212775
0.27479103 0.4359459 0.099206209
-0.25326404 0.45860198 0.089212775
0.27479103 0.45998663 0.099206328
-0.25326404 0.482566 0.089212775
0.27479103 0.4840278 0.099206328
-0.25326404 0.50652993 0.089212775
0.27479103 0.50806868 0.099206209
-0.25326556 0.53049701 0.089231133
0.27479103 0.53210962 0.099206328
-0.25326556 0.55446124 0.089231133
0.27479103 0.55615062 0.099206328
-0.27867329 0.19584055 0.10485804
-0.27867329 0.21992508 0.10485804
-0.27867329 0.24400969 0.10485828
-0.27867329 0.26809412 0.10485828
-0.27867329 0.29217857 0.10485828
-0.27867329 0.31626308 0.10485828
-0.27867329 0.34034762 0.10485816
-0.27867329 0.36443195 0.10485828
-0.27867329 0.38851646 0.10485828
-0.27867329 0.41260102 0.10485828
-0.27867505 0.4366878 0.10487676
-0.27867505 0.46077251 0.10487688
-0.27867505 0.48485702 0.10487664
-0.27867505 0.50894171 0.10487664
-0.27867675 0.53302926 0.10489535
-0.27867675 0.55711412 0.10489523
-0.3043412 0.2935183 0.12068045
-0.3043412 0.31772453 0.12068045
-0.3043412 0.34193081 0.12068045
-0.3043412 0.36613715 0.12068045
-0.3043412 0.39034349 0.12068045
-0.30434304 0.41455206 0.12069917
-0.30434304 0.43875852 0.12069917
-0.30434304 0.46296477 0.12069917
-0.30434304 0.48717117 0.12069917
-0.30434492 0.51138061 0.12071788
-0.30434492 0.53558719 0.12071788
-0.30434492 0.55979377 0.12071788
0.30309054 0.19802031 0.14530623
0.30309054 0.22241607 0.14530647
0.30309054 0.24681193 0.14530647
0.30309054 0.27120769 0.14530647
0.30309054 0.29560363 0.14530647
0.30309054 0.31999949 0.14530623
0.30309054 0.34439525 0.14530647
0.30309054 0.36879122 0.14530647
0.30309054 0.39318708 0.14530647
0.30309054 0.41758281 0.14530647
0.30309054 0.44197878 0.14530647
0.30309054 0.46637464 0.14530623
0.30309054 0.4907704 0.14530647
0.30309054 0.51516622 0.14530623
0.30309054 0.53956217 0.14530647
0.30309054 0.56395793 0.14530647
-0.19382218 0.18037131 0.29137969
-0.16829398 0.18036447 0.29123378
-0.14276806 0.18035783 0.29108787
-0.11724357 0.18035005 0.29092109
0 0 0 1 0 0 0 1 0 0 0 1 0 0 0 0 0 849 1 0 0
