ply
format ascii 1.0
comment PCL generated
element vertex 626
property float x
property float y
property float z
element camera 1
property float view_px
property float view_py
property float view_pz
property float x_axisx
property float x_axisy
property float x_axisz
property float y_axisx
property float y_axisy
property float y_axisz
property float z_axisx
property float z_axisy
property float z_axisz
property float focal
property float scalex
property float scaley
property float centerx
property float centery
property int viewportx
property int viewporty
property float k1
property float k2
end_header
0.51784569 -0.096394405 -0.83579242
0.49829668 -0.075812452 -0.83042508
0.51740044 -0.075642422 -0.83778691
0.49750465 -0.055008642 -0.83409965
0.51740044 -0.054951862 -0.83778703
0.49750465 -0.034289651 -0.83409965
0.51740044 -0.034261331 -0.83778691
0.49750465 -0.013570711 -0.83409971
0.51740044 -0.013570654 -0.83778697
0.49750465 0.0071482547 -0.83409971
0.51740044 0.0071198791 -0.83778691
0.49750465 0.027867276 -0.83409965
0.51740044 0.027810555 -0.83778697
0.49750465 0.048586272 -0.83409971
0.51740044 0.048501085 -0.83778691
0.49830645 0.069419742 -0.83037966
0.51740044 0.069191769 -0.83778703
0.51787847 0.089964747 -0.83564585
0.54154283 -0.09679319 -0.82284051
0.54154015 -0.075987265 -0.82285184
0.54154015 -0.055181835 -0.82285172
0.54154283 -0.034376316 -0.82284033
0.54154283 -0.013570654 -0.82284039
0.54154283 0.0072349515 -0.82284045
0.54154283 0.02804064 -0.82284039
0.54154283 0.04884633 -0.82284051
0.54154283 0.069652021 -0.82284045
0.54154283 0.090457603 -0.82284051
0.50282949 -0.097207263 -0.80939507
0.56595784 -0.09725894 -0.80771518
0.59064782 -0.097729951 -0.79241973
0.48283011 -0.076399267 -0.80501825
0.56595784 -0.076336905 -0.80771506
0.59064782 -0.076690122 -0.79241967
0.48197532 -0.055393033 -0.80913067
0.56595784 -0.055414855 -0.80771524
0.59064782 -0.055650271 -0.79241967
0.48197532 -0.034481842 -0.80913061
0.56595784 -0.034492813 -0.80771512
0.59065068 -0.034610648 -0.79240799
0.56595784 -0.013570654 -0.80771524
0.48197532 -0.013570625 -0.80913079
0.59065068 -0.013570596 -0.79240811
0.48197532 0.0073405635 -0.80913067
0.56595784 0.007351391 -0.80771512
0.59065068 0.0074692555 -0.79240811
0.48197532 0.02825167 -0.80913067
0.56595784 0.028273579 -0.80771524
0.59065068 0.028509192 -0.79240799
0.48197532 0.049163003 -0.80913079
0.56595784 0.049195621 -0.80771512
0.59065068 0.049549069 -0.79240799
0.48283964 0.070202231 -0.80497211
0.56595784 0.070117787 -0.80771524
0.59065068 0.070589125 -0.79240811
0.50286424 0.090981305 -0.80923414
0.56595784 0.091039717 -0.80771524
0.59065068 0.091628969 -0.79240805
0.48751575 -0.098036185 -0.78247476
0.61561716 -0.098206252 -0.77695101
0.46706915 -0.076997131 -0.7791279
0.61561716 -0.077047363 -0.77695113
0.46615529 -0.055784602 -0.78369397
0.6156202 -0.055888619 -0.77693927
0.46615529 -0.034677655 -0.78369397
0.6156202 -0.034729652 -0.77693927
0.46615529 -0.013570654 -0.78369403
0.6156202 -0.013570682 -0.77693927
0.46615529 0.0075363182 -0.78369403
0.6156202 0.0075883158 -0.77693927
0.46615529 0.028643411 -0.78369397
0.6156202 0.028747369 -0.77693927
0.46615529 0.049750414 -0.78369397
0.6156202 0.049906369 -0.77693933
0.46707857 0.070999324 -0.77908087
0.6156202 0.071065366 -0.77693939
0.48754984 0.092017636 -0.78231049
0.6156202 0.0922243 -0.77693939
0.47189766 -0.098882034 -0.75500333
0.64088017 -0.098689094 -0.7612707
0.64088017 -0.077409506 -0.7612707
0.45003611 -0.056183636 -0.75777638
0.64088333 -0.056130104 -0.76125872
0.45003611 -0.034877174 -0.75777638
0.64088333 -0.034850366 -0.76125884
0.45003611 -0.013570625 -0.75777632
0.64088333 -0.013570625 -0.76125872
0.45003611 0.0077358093 -0.75777626
0.64088333 0.0077090282 -0.76125872
0.45003611 0.029042274 -0.75777626
0.64088333 0.028988767 -0.76125884
0.45003611 0.050348934 -0.75777638
0.64088333 0.050268505 -0.76125872
0.64088333 0.071548164 -0.7612586
0.47193122 0.093075052 -0.75483572
0.64088333 0.092827901 -0.76125884
0.45100307 -0.077606231 -0.75275195
0.45101458 0.071812034 -0.75269216
0.45596129 -0.099744782 -0.72698826
0.43462759 -0.07822746 -0.72585255
0.43360931 -0.056590337 -0.73136413
0.43360931 -0.035080481 -0.73136413
0.43360931 -0.013570682 -0.73136413
0.43360931 0.0079391152 -0.73136407
0.43360931 0.029449057 -0.73136425
0.43360931 0.050958853 -0.73136425
0.43463892 0.0726403 -0.72579134
0.45599419 0.094153464 -0.72681731
0.43969935 -0.10062501 -0.69840091
0.41793138 -0.07886076 -0.69842583
0.416866 -0.057004783 -0.70444304
0.416866 -0.035287719 -0.70444298
0.416866 -0.013570682 -0.70444298
0.416866 0.0081463829 -0.70444292
0.416866 0.029863421 -0.70444286
0.416866 0.051580597 -0.70444298
0.41794235 0.073484793 -0.69836354
0.4397316 0.095253989 -0.69822651
0.3997969 -0.057427324 -0.67699796
0.3997969 -0.035499029 -0.6769979
0.3997969 -0.013570625 -0.67699796
0.3997969 0.0083576385 -0.6769979
0.3997969 0.030286044 -0.67699796
0.3997969 0.052214336 -0.6769979
0.42327517 -0.10155365 -0.66824394
0.40090472 -0.079506695 -0.67045653
0.4009155 0.074346051 -0.67039305
0.42333376 0.09642069 -0.66791296
0.38353577 -0.080165341 -0.64194131
0.38239241 -0.057858266 -0.6490137
0.38239241 -0.035714418 -0.64901382
0.38239241 -0.013570682 -0.6490137
0.38239241 0.0085731391 -0.64901382
0.38239241 0.030716844 -0.6490137
0.38239241 0.052860554 -0.6490137
0.38354832 0.075224712 -0.64186358
0.40666425 -0.10253266 -0.63644826
0.36464259 -0.058297615 -0.62047434
0.36464259 -0.035934135 -0.62047422
0.36464259 -0.013570654 -0.62047422
0.36464259 0.0087927692 -0.62047422
0.36464259 0.031156249 -0.62047422
0.36464259 0.053519789 -0.62047434
0.40672153 0.097644806 -0.63610995
0.38967949 -0.10353373 -0.60393691
0.36581835 -0.080837339 -0.61283743
0.36582854 0.076120391 -0.61277139
0.38973325 0.098895952 -0.60360408
0.3477397 -0.081523329 -0.58314013
0.34653702 -0.058745738 -0.59136283
0.34653702 -0.036158238 -0.59136283
0.34653702 -0.013570654 -0.59136271
0.34653702 0.0090169311 -0.59136271
0.34653702 0.031604432 -0.59136271
0.34653702 0.054191988 -0.59136271
0.34774956 0.077034816 -0.58307266
0.37230599 -0.10455719 -0.57069898
0.3723605 0.10017614 -0.57034528
0.32928857 -0.082223237 -0.55283105
0.32806495 -0.059203036 -0.56166196
0.32806495 -0.0363869 -0.56166196
0.32806495 -0.013570654 -0.56166208
0.32806495 0.0092455372 -0.56166196
0.32806495 0.032061785 -0.56166208
0.32806495 0.054877888 -0.56166196
0.32929814 0.07796818 -0.55276215
0.35545927 -0.1057993 -0.53036118
0.30921689 -0.059669934 -0.53133976
0.30921689 -0.036620267 -0.53133976
0.30921689 -0.013570625 -0.53133965
0.30921689 0.0094789565 -0.53133976
0.30921689 0.032528624 -0.53133976
0.30921689 0.055578265 -0.53133976
0.35570076 0.10177866 -0.52871025
0.31045339 -0.082937688 -0.52189112
0.31046259 0.078920931 -0.52182078
0.29124853 -0.083672315 -0.49008489
0.28997922 -0.060146432 -0.50039065
0.28997746 -0.036858443 -0.50040495
0.28997746 -0.013570625 -0.50040495
0.28997746 0.0097170789 -0.50040495
0.28997746 0.033004783 -0.50040483
0.28998095 0.056293342 -0.50037646
0.29126269 0.079901651 -0.48996985
0.27035314 -0.060634643 -0.46867847
0.27033633 -0.037101582 -0.46882439
0.27033633 -0.013570625 -0.46882439
0.27033633 0.0099602137 -0.46882439
0.27033633 0.033491168 -0.46882439
0.27035481 0.057025652 -0.46866405
0.27166483 -0.084428966 -0.45731902
0.27168006 0.080911085 -0.45718694
0.25031123 -0.061133165 -0.43629479
0.25028077 -0.037349787 -0.43657732
0.25028077 -0.013570739 -0.4365772
0.25028077 0.010208478 -0.43657732
0.25028077 0.033987526 -0.4365772
0.25031283 0.057773579 -0.43627989
0.2516537 -0.085202247 -0.42383802
0.25166985 0.081942603 -0.42368805
0.22984013 -0.061642513 -0.4032172
0.22979757 -0.037603408 -0.40364254
0.22979757 -0.013570625 -0.40364265
0.22979757 0.010461984 -0.40364265
0.22979757 0.034494538 -0.40364254
0.22984165 0.058537465 -0.40320206
0.23120102 -0.085992396 -0.3896184
0.23121789 0.08299692 -0.38944983
0.21029204 -0.086800367 -0.35463536
0.20892593 -0.062162802 -0.36942375
0.20887288 -0.037862271 -0.3699981
0.20887288 -0.013570682 -0.36999822
0.20887288 0.010721019 -0.36999822
0.20887288 0.035012547 -0.3699981
0.20892736 0.05931792 -0.36940837
0.21030796 0.084074125 -0.35446286
0.18755406 -0.062694371 -0.33489084
0.18749225 -0.03812683 -0.33562064
0.18749225 -0.013570625 -0.33562064
0.18749225 0.010985522 -0.33562076
0.18749225 0.035541784 -0.33562064
0.1875554 0.060115423 -0.33487499
0.18891126 -0.087626532 -0.3188628
0.18892619 0.085175902 -0.3186866
0.16570935 -0.063237906 -0.29959381
0.16564067 -0.038397316 -0.30048585
0.16564067 -0.013570682 -0.30048585
0.16564067 0.011256065 -0.30048585
0.16564067 0.036082812 -0.30048585
0.16571057 0.060930531 -0.29957759
0.16704261 -0.088471442 -0.28227425
0.16705777 0.086303085 -0.28207731
0.14337704 -0.063793756 -0.26349044
0.14330237 -0.0386739 -0.26456845
0.14330237 -0.013570569 -0.26456845
0.14330237 0.011532478 -0.26456833
0.14330237 0.036635753 -0.26456833
0.14337704 0.061763871 -0.26349068
0.14467032 -0.089336291 -0.24482393
0.14468309 0.087455869 -0.24463928
0.12053819 -0.064361908 -0.22658694
0.1204609 -0.038956635 -0.22784185
0.1204609 -0.013570682 -0.22784185
0.1204609 0.011815272 -0.22784185
0.1204609 0.037201282 -0.22784197
0.12053819 0.062616065 -0.22658694
0.12177531 -0.09022142 -0.20649862
0.12178586 0.088635653 -0.20632696
0.097176656 -0.064943053 -0.1888392
0.097100005 -0.039245926 -0.19026136
0.097100005 -0.013570739 -0.19026136
0.097100005 0.012104562 -0.19026148
0.097100005 0.037779864 -0.19026148
0.097176656 0.063487992 -0.18883908
0.098339066 -0.09112747 -0.16726756
0.098347589 0.089843124 -0.16710937
0.073274344 -0.065537758 -0.15021706
0.073199734 -0.039541714 -0.15183234
0.073199734 -0.013570739 -0.15183234
0.073199734 0.012400461 -0.15183246
0.073199734 0.038371377 -0.15183234
0.073274344 0.064379901 -0.15021718
0.074366286 -0.092067137 -0.12657595
0.074379593 0.091100171 -0.1262877
0.048812211 -0.066146255 -0.11069071
0.048742279 -0.039844505 -0.11250746
0.048742279 -0.013570682 -0.11250746
0.048742279 0.012703085 -0.11250746
0.048742279 0.038976908 -0.11250734
0.048812211 0.065292731 -0.11069071
0.049826741 -0.093042761 -0.084331989
0.02377037 -0.066769272 -0.070227504
0.023707934 -0.040154368 -0.072254777
0.023707934 -0.013570682 -0.072254777
0.023707934 0.013013057 -0.072255015
0.023707934 0.039596628 -0.072254777
0.02377037 0.066227034 -0.070227385
0.049838826 0.092401713 -0.08401823
0.024669558 -0.094042942 -0.041025281
-0.0018720329 -0.067407116 -0.02879405
-0.0019239411 -0.040471636 -0.031041622
-0.0019239411 -0.013570625 -0.031041741
-0.0019239411 0.01333027 -0.031041622
-0.0019239411 0.040231165 -0.031041503
-0.0018720329 0.067183912 -0.028793931
0.024680637 0.093736708 -0.040665746
-0.0011288822 -0.09506841 0.0033854246
-0.028175011 -0.040796481 0.011167288
-0.028175011 -0.013570682 0.011167407
-0.028175011 0.013655115 0.011167407
-0.028175011 0.040880971 0.011167407
-0.0011208132 0.095103726 0.0037349463
-0.028136861 -0.068060458 0.013645172
-0.028136861 0.068164095 0.013645291
-0.027593415 -0.096120566 0.048943043
-0.027588204 0.096506357 0.049281716
-0.05504721 -0.068729579 0.057107329
-0.055067986 -0.041129358 0.054408312
-0.055067986 -0.013570625 0.054408431
-0.055067986 0.013988052 0.054408431
-0.055067986 0.041546788 0.054408312
-0.055046901 0.069168776 0.057147384
-0.054750025 -0.097200736 0.095712662
-0.0826267 -0.069415852 0.10167074
-0.0826267 -0.041470557 0.098719954
-0.0826267 -0.013570625 0.098719835
-0.0826267 0.014329197 0.098719954
-0.0826267 0.0422289 0.098719835
-0.0826267 0.070197895 0.10171175
-0.054747663 0.097945347 0.096019387
-0.0826267 -0.098333687 0.14477193
-0.11087619 -0.041820191 0.14414203
-0.11087619 -0.013570682 0.14414215
-0.11087619 0.014678827 0.14414215
-0.11087619 0.042928167 0.14414215
-0.0826267 0.099463999 0.14533889
-0.11090288 -0.070123091 0.14760888
-0.11090352 0.071259841 0.14769292
-0.11128635 -0.099549711 0.19742417
-0.13990811 -0.070851982 0.19496286
-0.13984275 -0.042178825 0.19071722
-0.13984275 -0.013570682 0.1907171
-0.13984275 0.015037348 0.1907171
-0.13984275 0.043645378 0.1907171
-0.13990943 0.072353467 0.19504929
-0.11129068 0.10108526 0.19798625
-0.16955402 -0.042546578 0.23848975
-0.16955402 -0.013570625 0.23848975
-0.16955402 0.0154051 0.23848975
-0.16955402 0.04438094 0.23848975
-0.14078024 -0.10080099 0.25160921
-0.16967097 -0.071600199 0.24355388
-0.16967303 0.073475525 0.24364245
-0.14078948 0.10275491 0.25220954
-0.20022154 -0.072367951 0.29343081
-0.2000398 -0.042923961 0.28752899
-0.2000398 -0.013570512 0.28752911
-0.2000398 0.015782652 0.28752899
-0.2000398 0.045135874 0.28752899
-0.20022434 0.074627668 0.29352164
-0.1712316 -0.10217559 0.311131
-0.17129523 0.10465389 0.3138864
-0.23159151 -0.073156677 0.34464562
-0.23132956 -0.043311257 0.33784008
-0.23132956 -0.013570739 0.33784008
-0.23132956 0.01616995 0.33784008
-0.23132956 0.045910355 0.33784008
-0.23159508 0.075810298 0.34473884
-0.26345605 -0.043708924 0.38949633
-0.26345605 -0.013570625 0.38949633
-0.26345605 0.016567502 0.38949609
-0.26345605 0.046705689 0.38949633
-0.26381427 -0.07396654 0.39725256
-0.26381871 0.077025235 0.3973484
-0.32735258 -0.074752189 0.44827938
-0.32735258 -0.04416135 0.44827938
-0.29645324 -0.044117473 0.44255257
-0.32735258 -0.013570625 0.44827938
-0.29645324 -0.013570625 0.44255257
-0.32735258 0.017020041 0.44827914
-0.29645324 0.016975995 0.44255233
-0.32735258 0.047610823 0.44827938
-0.29645324 0.047522675 0.44255233
-0.32735258 0.078201488 0.44827962
-0.29692513 -0.074798793 0.45130944
-0.29693043 0.078273863 0.45140791
-0.39038891 -0.38288528 0.47237468
-0.36022335 -0.38369963 0.48118854
-0.39038891 -0.35210901 0.47237468
-0.36022162 -0.35285336 0.48116374
-0.39038891 -0.32133299 0.47237492
-0.36022162 -0.32200947 0.4811635
-0.39038891 -0.29055664 0.47237468
-0.36022162 -0.29116568 0.48116398
-0.39038891 -0.25978044 0.47237468
-0.36022162 -0.26032168 0.48116374
-0.39038891 -0.22900414 0.47237468
-0.36022162 -0.22947796 0.48116374
-0.39038891 -0.19822803 0.47237468
-0.36022162 -0.19863395 0.48116374
-0.39038891 -0.16745189 0.47237468
-0.36022162 -0.16778995 0.48116374
-0.39038891 -0.13667564 0.47237468
-0.36022162 -0.13694623 0.48116374
-0.2679469 -0.13711764 0.48672652
-0.39038891 -0.10589933 0.47237468
-0.36022162 -0.10610235 0.48116374
-0.26784265 -0.10617876 0.48446965
-0.39038891 -0.075123191 0.47237468
-0.36022162 -0.075258404 0.48116374
-0.39038891 -0.044346936 0.47237468
-0.36022162 -0.044414513 0.48116374
-0.39038891 -0.013570739 0.47237468
-0.36022162 -0.013570797 0.48116374
-0.39038891 0.0172054 0.47237468
-0.36022162 0.017273206 0.48116374
-0.39038891 0.047981653 0.47237468
-0.36022162 0.048116922 0.48116374
-0.39038891 0.078757912 0.47237468
-0.36022162 0.078960985 0.48116374
-0.39038891 0.1095341 0.47237468
-0.36022162 0.10980499 0.48116374
-0.26784265 0.10990652 0.48446989
-0.39038891 0.14031047 0.47237492
-0.36022162 0.14064871 0.48116374
-0.2679469 0.14086284 0.48672676
-0.39038891 0.17108667 0.47237492
-0.36022162 0.17149259 0.48116374
-0.39038891 0.20186302 0.47237468
-0.36022162 0.20233643 0.48116374
-0.39038891 0.23263912 0.47237468
-0.36022162 0.23318037 0.48116374
-0.39038891 0.26341537 0.47237468
-0.36022162 0.26402414 0.48116374
-0.39038891 0.29419145 0.47237492
-0.36022162 0.2948682 0.48116374
-0.39038891 0.3249678 0.47237468
-0.36022162 0.32571185 0.48116374
-0.39038891 0.355744 0.47237468
-0.36022162 0.35655579 0.48116374
-0.39039081 0.38652271 0.47239971
-0.36022335 0.3874023 0.48118877
-0.33051252 -0.38539943 0.49959064
-0.33051252 -0.35441387 0.49959064
-0.33051252 -0.323428 0.4995904
-0.33051252 -0.29244235 0.4995904
-0.33051252 -0.26145655 0.49959064
-0.26878518 -0.26178208 0.50487566
-0.33051097 -0.23046942 0.49956536
-0.26852474 -0.2304517 0.49923682
-0.33051097 -0.19948393 0.49956512
-0.26829761 -0.19924153 0.4943192
-0.33050942 -0.16849737 0.49953985
-0.26810351 -0.16813463 0.49011707
-0.33050942 -0.13751206 0.49953985
-0.23778118 -0.13769433 0.50545812
-0.33050784 -0.10652606 0.49951482
-0.23767304 -0.10659859 0.50264859
-0.33050942 0.11037058 0.49954009
-0.23767304 0.1104663 0.50264859
-0.33050942 0.14135601 0.49954009
-0.23778215 0.14158478 0.50548339
-0.33051097 0.17234252 0.49956536
-0.26810351 0.17190599 0.49011731
-0.33051097 0.20332806 0.49956512
-0.26829761 0.20304544 0.4943192
-0.33051097 0.23431371 0.49956536
-0.26852474 0.23429337 0.49923682
-0.33051097 0.26529914 0.49956536
-0.26878634 0.26566881 0.50490093
-0.33051097 0.29628456 0.49956536
-0.33051097 0.32727003 0.49956536
-0.33051097 0.3582558 0.49956536
-0.33051252 0.38924369 0.4995904
-0.42498618 -0.38705391 0.51749969
-0.30052754 -0.38711509 0.51816201
-0.42497757 -0.3559216 0.5173974
-0.30052754 -0.35598648 0.51816225
-0.26979285 -0.35670871 0.52669287
-0.42497757 -0.32479876 0.5173974
-0.30052754 -0.32485747 0.51816177
-0.2694177 -0.32488903 0.51856995
-0.42497972 -0.29367769 0.51742268
-0.30052754 -0.29372886 0.51816201
-0.26908505 -0.29325807 0.51136804
-0.42498404 -0.26255783 0.51747394
-0.30052754 -0.26260021 0.51816201
-0.23849119 -0.26295391 0.5239048
-0.42498618 -0.23143569 0.51749945
-0.30052754 -0.23147149 0.51816201
-0.23827016 -0.23147149 0.51816201
-0.42498618 -0.20031232 0.51749969
-0.30052754 -0.2003428 0.51816201
-0.2380781 -0.20011248 0.51317239
-0.42498618 -0.16918854 0.51749945
-0.30052754 -0.16921407 0.51816201
-0.23791388 -0.16885787 0.50890565
-0.42498618 -0.13806516 0.51749969
-0.30052754 -0.13808556 0.51816201
-0.20733327 -0.13827707 0.5243907
-0.42498618 -0.10694139 0.51749945
-0.30052614 -0.1069562 0.5181365
-0.20724595 -0.10703512 0.52155447
-0.42498618 -0.07581801 0.51749945
-0.42498618 -0.044694174 0.51749945
-0.42498618 -0.013570739 0.51749969
-0.42498618 0.017553037 0.51749969
-0.42498618 0.048676528 0.51749945
-0.42498618 0.079800129 0.51749945
-0.42498618 0.11092374 0.51749945
-0.30052614 0.11094335 0.5181365
-0.20724514 0.11104773 0.52152896
-0.42498618 0.14204735 0.51749945
-0.30052614 0.1420719 0.5181365
-0.20733327 0.14231242 0.5243907
-0.42498618 0.17317085 0.51749921
-0.30052614 0.17320025 0.5181365
-0.23791388 0.17277397 0.50890565
-0.42498618 0.20429456 0.51749969
-0.30052614 0.20432886 0.5181365
-0.23807909 0.20406272 0.5131979
-0.42498618 0.23541805 0.51749945
-0.30052614 0.2354572 0.5181365
-0.23827016 0.23545891 0.51816201
-0.42498618 0.26654166 0.51749945
-0.30052614 0.26658574 0.5181365
-0.23849218 0.26698729 0.52393031
-0.42498618 0.29766524 0.51749945
-0.30052614 0.29771432 0.51813674
-0.26908624 0.29719529 0.51139355
-0.42498618 0.32878885 0.51749969
-0.30052614 0.32884264 0.5181365
-0.26941887 0.32888156 0.51859546
-0.42498618 0.35991234 0.51749945
-0.30052614 0.35997123 0.5181365
-0.26979405 0.36076415 0.52671862
-0.42498618 0.39103606 0.51749969
-0.30052754 0.39110211 0.51816201
-0.27026457 -0.3888464 0.53690553
-0.2393429 -0.35834643 0.54603267
-0.23902626 -0.32636994 0.53780627
-0.23874445 -0.29458258 0.53048444
-0.20790981 -0.26413688 0.5431149
-0.2077297 -0.23250094 0.53726578
-0.20757383 -0.20099153 0.53220344
-0.2074412 -0.16958866 0.52789617
-0.20744041 0.17365006 0.52787066
-0.20757541 0.20508949 0.5322547
-0.2077297 0.23663528 0.53726578
-0.2079106 0.26831806 0.54314065
-0.23874445 0.29866487 0.53048468
-0.23902726 0.33051047 0.53783202
-0.2393429 0.3625482 0.54603267
-0.27026457 0.39297813 0.53690553
-0.23971975 -0.39059401 0.5558238
-0.20834434 -0.3278648 0.55722666
-0.20811354 -0.29591605 0.54973125
-0.20811434 0.30014825 0.54975724
-0.20834513 0.33215487 0.55725241
-0.23971975 0.39487126 0.5558238
-0.4615351 -0.39247909 0.57623005
-0.20888995 -0.39236057 0.57494545
-0.46153024 -0.36089894 0.57617736
-0.20888832 -0.36079034 0.574893
-0.46153024 -0.32932365 0.57617736
-0.46153024 -0.2977483 0.5761776
-0.46153024 -0.26617312 0.5761776
-0.46153024 -0.23459771 0.57617736
-0.46153024 -0.20302236 0.5761776
-0.46153024 -0.17144719 0.5761776
-0.46153024 -0.13987201 0.5761776
-0.46153024 -0.10829644 0.57617736
-0.46153024 -0.076721266 0.5761776
-0.46153265 -0.045146257 0.57620358
-0.4615351 -0.013570625 0.57623005
-0.4615351 0.018005006 0.57623005
-0.4615351 0.049580757 0.57622981
-0.4615351 0.081156328 0.57623005
-0.4615351 0.11273214 0.57622981
-0.4615351 0.14430776 0.57623005
-0.4615351 0.17588358 0.57623005
-0.4615351 0.20745932 0.57623005
-0.4615351 0.23903494 0.57623005
-0.4615351 0.27061051 0.57623005
-0.4615351 0.30218625 0.57622981
-0.4615351 0.3337619 0.57623005
-0.4615351 0.3653377 0.57623005
-0.20888832 0.36521426 0.57489276
-0.4615351 0.39691344 0.57623005
-0.20888995 0.39678484 0.57494521
-0.17776865 -0.36242455 0.5941937
-0.17776865 -0.33071056 0.59419394
-0.17776865 -0.29899663 0.59419394
-0.17776865 -0.26728266 0.59419417
-0.17776865 -0.23556854 0.5941937
-0.17776927 -0.20385587 0.59422016
-0.17776927 -0.17214178 0.5942204
-0.17776927 -0.14042734 0.5942204
-0.17776927 0.14500009 0.5942204
-0.17776927 0.17671435 0.5942204
-0.17776927 0.20842861 0.5942204
-0.17776865 0.24014129 0.59419394
-0.17776865 0.27185497 0.59419394
-0.17776865 0.30356905 0.59419394
-0.17776865 0.3352831 0.5941937
-0.17776865 0.36699703 0.59419394
-0.14635465 -0.36407429 0.6136775
-0.14635465 -0.33221045 0.6136775
-0.14635465 -0.30034649 0.6136775
-0.14635465 -0.26848254 0.61367774
-0.14635465 -0.23661852 0.61367774
-0.14635465 -0.20475434 0.6136775
-0.14635465 -0.17289062 0.61367726
-0.14635465 -0.14102656 0.6136775
-0.14635465 0.1457492 0.6136775
-0.14635465 0.17761299 0.6136775
-0.14635465 0.20947711 0.61367726
-0.14635465 0.24134113 0.6136775
-0.14635465 0.27320513 0.61367774
-0.14635465 0.30506897 0.6136775
-0.14635465 0.33693296 0.6136775
-0.14635465 0.36879697 0.6136775
-0.49916145 -0.36602321 0.63669181
-0.49916145 -0.33398214 0.63669205
-0.49916145 -0.30194098 0.63669181
-0.49916145 -0.26989987 0.63669205
-0.49916145 -0.23785865 0.63669181
-0.49916145 -0.20581765 0.63669205
-0.49916145 -0.17377633 0.63669181
-0.49916145 -0.14173533 0.63669205
-0.49916145 -0.109694 0.63669181
-0.49916145 -0.077653065 0.63669205
-0.49916145 -0.045611676 0.63669181
-0.49916145 -0.013570739 0.63669205
-0.49916145 0.018470537 0.63669181
-0.49916145 0.050511587 0.63669181
-0.49916145 0.082552865 0.63669181
-0.49916145 0.11459392 0.63669181
-0.49916145 0.14663509 0.63669181
-0.49916145 0.17867611 0.63669205
-0.49916145 0.21071723 0.63669205
-0.49916416 0.24276005 0.63671923
-0.49916416 0.27480149 0.63671899
-0.49916416 0.30684277 0.63671923
-0.49916416 0.33888397 0.63671875
-0.49916416 0.37092531 0.63671899
0 0 0 1 0 0 0 1 0 0 0 1 0 0 0 0 0 626 1 0 0
