ply
format ascii 1.0
comment PCL generated
element vertex 464
property float x
property float y
property float z
element camera 1
property float view_px
property float view_py
property float view_pz
property float x_axisx
property float x_axisy
property float x_axisz
property float y_axisx
property float y_axisy
property float y_axisz
property float z_axisx
property float z_axisy
property float z_axisz
property float focal
property float scalex
property float scaley
property float centerx
property float centery
property int viewportx
property int viewporty
property float k1
property float k2
end_header
-0.074346453 0.81111461 -0.5191468
-0.052233364 0.81111461 -0.5191468
-0.030120283 0.81111461 -0.5191468
-0.0080071967 0.81111461 -0.5191468
0.01410589 0.81111461 -0.5191468
0.036218978 0.81111461 -0.5191468
0.058332063 0.81111461 -0.5191468
-0.075057998 0.773826 -0.49603844
-0.052767035 0.773826 -0.49603844
-0.030476056 0.773826 -0.49603844
-0.008185083 0.773826 -0.49603844
0.01410589 0.773826 -0.49603844
0.036396861 0.773826 -0.49603844
0.058687836 0.773826 -0.49603844
-0.074701011 0.79254717 -0.50763214
-0.052499283 0.79254717 -0.50763214
-0.030297562 0.79254717 -0.50763214
-0.0080958363 0.79254717 -0.50763214
0.01410589 0.79254717 -0.50763214
0.036307618 0.79254717 -0.50763214
0.058509342 0.79254717 -0.50763214
-0.075418308 0.75495785 -0.48433745
-0.053037252 0.75495785 -0.48433745
-0.030656207 0.75495785 -0.48433745
-0.0082751587 0.75495785 -0.48433745
0.01410589 0.75495785 -0.48433745
0.036486939 0.75495785 -0.48433745
0.058867987 0.75495785 -0.48433745
-0.076147273 0.71675664 -0.46066332
-0.053583983 0.71675664 -0.46066332
-0.031020693 0.71675664 -0.46066332
-0.0084574036 0.71675664 -0.46066332
0.01410589 0.71675664 -0.46066332
0.036669184 0.71675664 -0.46066332
0.059232473 0.71675664 -0.46066332
-0.075781092 0.73593265 -0.47255552
-0.053309347 0.73593265 -0.47255552
-0.030837603 0.73593265 -0.47255552
-0.0083658565 0.73593265 -0.47255552
0.01410589 0.73593265 -0.47255552
0.036577635 0.73593265 -0.47255552
0.059049383 0.73593265 -0.47255552
-0.076441407 0.85522455 -0.4511112
-0.05380458 0.85522455 -0.4511112
-0.031167757 0.85522455 -0.4511112
-0.0085309334 0.85522455 -0.4511112
0.01410589 0.85522455 -0.4511112
0.036742713 0.85522455 -0.4511112
0.059379537 0.85522455 -0.4511112
-0.0089591295 0.71175373 -0.39548683
0.01410589 0.71172166 -0.39560592
-0.009149354 0.67190111 -0.3707763
0.01410589 0.67187405 -0.37088192
-0.0090538505 0.69190925 -0.38318217
0.01410589 0.69187778 -0.38330209
-0.032321189 0.71695179 -0.37619376
0.037314791 0.71678966 -0.37679613
-0.055601936 0.90362358 -0.37328362
-0.032365993 0.90362358 -0.37328362
-0.0091300514 0.90362358 -0.37328362
0.01410589 0.90362358 -0.37328362
0.037341833 0.90362358 -0.37328362
0.060577773 0.90362358 -0.37328362
-0.0092457645 0.65173101 -0.35825181
0.01410589 0.65170103 -0.35837388
0.037509531 0.67679805 -0.3514992
-0.032515191 0.69703639 -0.3635931
0.037411749 0.69687724 -0.36420047
-0.0093428604 0.6313892 -0.34563887
0.01410589 0.63136011 -0.34576178
-0.032908093 0.65670162 -0.33807313
0.037608124 0.65654951 -0.33869088
-0.032710817 0.67695367 -0.35088658
-0.0095394924 0.59019428 -0.32009542
0.01410589 0.59016627 -0.32022035
-0.0094407666 0.61087763 -0.33292067
0.01410589 0.61084908 -0.33304441
-0.033107042 0.63627851 -0.32515097
0.037707679 0.63613349 -0.32575834
-0.0096390527 0.56933641 -0.30716228
0.01410589 0.56931263 -0.30727279
-0.033510029 0.59490889 -0.29897618
0.037909091 0.59477097 -0.29959416
-0.033307679 0.61568159 -0.31211925
0.037807956 0.61554009 -0.31273186
0.061712053 0.71378273 -0.2996099
-0.057035875 0.73446536 -0.31119192
0.061497699 0.73383474 -0.31353247
-0.0098408274 0.52709258 -0.28095078
0.01410589 0.52706707 -0.28107905
-0.009739574 0.54830563 -0.2941041
0.01410589 0.54827899 -0.29423118
-0.033714358 0.57396156 -0.28570461
0.038011096 0.57382375 -0.28634369
-0.057683956 0.6941663 -0.28312957
0.0619286 0.69355279 -0.28554475
-0.057358634 0.71440929 -0.29721642
-0.057497013 0.95465398 -0.29122424
-0.033629376 0.95465398 -0.29122424
-0.0097617432 0.95465398 -0.29122424
0.01410589 0.95465398 -0.29122424
0.037973523 0.95465398 -0.29122424
0.061841156 0.95465398 -0.29122424
-0.009942947 0.5056988 -0.26768529
0.01410589 0.50567406 -0.26781452
-0.033920202 0.55283022 -0.27233458
0.038113974 0.55269635 -0.27297926
-0.058012631 0.67374223 -0.26889741
0.062147126 0.67313796 -0.2713511
-0.010045938 0.4841218 -0.25430608
0.01410589 0.48409784 -0.25443673
-0.034337252 0.51001745 -0.24524653
0.038322538 0.50989425 -0.24588585
-0.034127828 0.53151637 -0.25884902
0.038217742 0.53138614 -0.25949931
-0.058343951 0.65312642 -0.25455081
0.062367659 0.6525355 -0.25702691
-0.010254722 0.44041145 -0.22718453
0.01410589 0.44038904 -0.22731733
-0.010149945 0.46236229 -0.24079549
0.01410589 0.46233904 -0.2409271
-0.03454851 0.4883309 -0.23152494
0.03842812 0.48821157 -0.2321701
0.062814854 0.61075807 -0.22798061
-0.058678333 0.63232023 -0.24007165
0.062590227 0.63174307 -0.24257064
-0.010360407 0.41827017 -0.21345544
0.01410589 0.41824865 -0.21358943
-0.034761611 0.46645421 -0.21768367
0.03853463 0.46633899 -0.21833432
0.063041314 0.58957404 -0.2132715
-0.059084531 0.6119855 -0.2224828
-0.010467015 0.39593625 -0.1996069
0.01410589 0.39591533 -0.19974196
-0.035193469 0.42212129 -0.18963361
0.03875047 0.4220143 -0.19029593
-0.03497659 0.44438541 -0.20372021
0.038642075 0.44427401 -0.20437682
0.063333437 0.56904989 -0.19429779
-0.059520159 0.59165454 -0.20361936
-0.010683173 0.35068107 -0.17152715
0.01410589 0.35066211 -0.17166448
-0.010574685 0.37340909 -0.18561995
0.01410589 0.37338912 -0.18575633
-0.035412271 0.39965969 -0.17542183
0.03885996 0.39955938 -0.17607307
0.063634872 0.54835469 -0.17471921
-0.059961412 0.57108372 -0.18451285
-0.010792615 0.32775265 -0.15731001
0.01410589 0.32773441 -0.15744853
-0.035633028 0.37699771 -0.16108334
0.038970292 0.37690163 -0.1617403
0.063940287 0.52740806 -0.15488172
-0.06040797 0.55026478 -0.16517603
-0.010903034 0.30462068 -0.14296639
0.01410589 0.30460566 -0.14308906
-0.035855759 0.35413283 -0.14661658
0.039081611 0.35404098 -0.14727938
-0.060860362 0.52919674 -0.14558709
-0.011014434 0.28128278 -0.12849545
0.01410589 0.28126854 -0.12861896
0.039307274 0.3077001 -0.11796534
-0.036080766 0.33106452 -0.132002
0.039193936 0.33097482 -0.13268828
-0.061323579 0.50791377 -0.12552905
0.064249769 0.50620449 -0.13478076
-0.011126963 0.25773793 -0.11387682
0.01410589 0.25772262 -0.11401927
-0.036536362 0.28429496 -0.1024102
0.039421774 0.28421628 -0.103091
-0.036307536 0.30778539 -0.11727273
0.064562835 0.48473281 -0.1144464
-0.011354804 0.2100064 -0.084279656
0.01410589 0.20999466 -0.084406614
-0.011240372 0.23397939 -0.099144816
0.01410589 0.23396684 -0.099270463
-0.036767278 0.26059008 -0.087411761
0.03953718 0.26051599 -0.088098884
-0.011470273 0.18581574 -0.069279671
0.01410589 0.18580495 -0.069407821
-0.037000306 0.23666821 -0.072276115
0.039653651 0.23659886 -0.072969437
-0.011586936 0.16140632 -0.054124832
0.01410589 0.16139485 -0.054272294
-0.03723548 0.21252625 -0.057000875
0.039771188 0.21246164 -0.057700872
-0.011704525 0.13677181 -0.038849473
0.01410589 0.13676265 -0.038979888
-0.037472829 0.18816106 -0.04158473
0.039889812 0.18810116 -0.042291164
-0.037910175 -0.66769874 -0.013178349
-0.011845062 -0.66644299 -0.020593405
0.01410589 -0.66644299 -0.020593405
0.040104464 -0.66749054 -0.014407039
-0.037826467 -0.64081174 -0.018615484
-0.011860289 -0.64081174 -0.018615484
0.01410589 -0.64081174 -0.018615484
0.040072069 -0.64081174 -0.018615484
-0.011823196 0.11191069 -0.023433685
0.01410589 0.11190248 -0.023565292
-0.03795388 0.13874687 -0.010339737
0.040130526 0.1386997 -0.011021137
-0.037712384 0.16356941 -0.026025295
0.040009681 0.16351582 -0.02671957
-0.038199112 -0.69702953 0.0055886507
-0.011984061 -0.69559085 -0.0025370121
0.01410589 -0.69559085 -0.0025370121
0.040248826 -0.69680947 0.0043462515
-0.012063989 0.061497301 0.0078462362
0.01410589 0.061491191 0.007712245
-0.011942966 0.086819977 -0.0078753233
0.01410589 0.086812973 -0.0080083609
-0.038197935 0.11369343 0.0055121183
0.040252507 0.11365081 0.0048239231
-0.038491275 -0.72668785 0.024565101
0.040394805 -0.72645581 0.023308992
-0.012124555 -0.72505265 0.01571393
0.01410589 -0.72505265 0.01571393
-0.038341679 -0.61999768 0.01484859
-0.012117894 -0.61999768 0.01484859
0.01410589 -0.61999768 0.01484859
0.040329672 -0.61999768 0.01484859
-0.012185998 0.035937428 0.023695469
0.01410589 0.035932332 0.023560047
-0.038444288 0.088403523 0.021513224
0.040375631 0.088366196 0.020818591
-0.03878672 -0.75667959 0.043755054
-0.012266571 -0.75483352 0.034162283
0.01410589 -0.75483352 0.034162283
0.040542416 -0.75643516 0.042484641
-0.064883277 -0.62211651 0.028610706
0.066745952 -0.62192255 0.027351499
-0.012309147 0.010138094 0.039693117
0.01410589 0.010134019 0.039556503
-0.03869297 0.062874556 0.037665725
0.040499922 0.062842235 0.036964417
-0.012410285 -0.78494251 0.052831292
0.01410589 -0.78494251 0.052831292
0.040691696 -0.786753 0.061876774
-0.06532751 -0.65155584 0.047846198
0.067041881 -0.6513499 0.046572804
-0.065353766 -0.59876645 0.048983216
-0.038867217 -0.59876645 0.048983216
-0.012380663 -0.59876645 0.048983216
0.01410589 -0.59876645 0.048983216
0.040592443 -0.59876645 0.048983216
0.067078993 -0.59876645 0.048983216
-0.012433456 -0.015903994 0.055841208
0.01410589 -0.015906624 0.055723071
-0.038943715 0.037101984 0.053952098
0.040625393 0.037075549 0.053263783
-0.039085507 -0.78701019 0.063161731
-0.065776765 -0.68132812 0.067299247
0.067341164 -0.68110991 0.06601131
-0.012558939 -0.04219234 0.072142243
0.01410589 -0.04219427 0.072023034
-0.039197162 0.01108402 0.070413947
0.040752221 0.011063382 0.069738865
-0.066231117 -0.71143901 0.086973429
0.067643531 -0.71120495 0.085650921
-0.093139291 -0.60493654 0.091168284
0.094509616 -0.60474557 0.089862704
-0.092912674 -0.57710552 0.083808899
-0.066158026 -0.57710552 0.083808899
-0.039403394 -0.57710552 0.083808899
-0.012648752 -0.57710552 0.083808899
0.01410589 -0.57710552 0.083808899
0.040860534 -0.57710552 0.083808899
0.067615174 -0.57710552 0.083808899
0.094369814 -0.57710552 0.083808899
-0.012685772 -0.068730474 0.08861804
0.01410589 -0.06873139 0.088477612
-0.039453037 -0.01518368 0.087033629
0.040880106 -0.015199393 0.08635211
-0.066690207 -0.74189073 0.10685265
0.067949668 -0.7416473 0.10553503
-0.093753517 -0.63481891 0.11111581
0.094969943 -0.6346156 0.10979521
-0.012813661 -0.095522106 0.10523129
0.01410589 -0.095522106 0.10510969
-0.039711386 -0.041704662 0.10381377
0.041009232 -0.041715331 0.10312581
-0.067153618 -0.77268457 0.12691927
0.068259329 -0.77244002 0.12564802
-0.09437418 -0.66504234 0.13127255
0.095435083 -0.66482639 0.1299367
-0.09400633 -0.55499893 0.11932635
-0.066978276 -0.55499893 0.11932635
-0.039950218 -0.55499893 0.11932635
-0.012922164 -0.55499893 0.11932635
0.01410589 -0.55499893 0.11932635
0.041133944 -0.55499893 0.11932635
0.068161994 -0.55499893 0.11932635
0.095190063 -0.55499893 0.11932635
0.12267783 -0.55695283 0.13425636
-0.012942774 -0.12257075 0.12200367
0.01410589 -0.12256979 0.12188101
-0.039972235 -0.068482883 0.12075639
0.041139603 -0.068488248 0.12006187
-0.095000744 -0.69560844 0.15162098
0.095906094 -0.69539022 0.15033209
-0.12166059 -0.55712795 0.13559544
-0.013073131 -0.14988014 0.13893771
0.01410589 -0.1498782 0.13881397
-0.040235311 -0.095522106 0.13784361
0.041271247 -0.095522046 0.13716269
-0.12244734 -0.58711356 0.1560359
0.12330739 -0.58692873 0.15470195
-0.12243047 -0.53243828 0.15559804
-0.095123202 -0.53243828 0.15559804
-0.06781593 -0.53243828 0.15559804
-0.040508658 -0.53243828 0.15559804
-0.013201384 -0.53243828 0.15559804
0.01410589 -0.53243828 0.15559804
0.041413166 -0.53243828 0.15559804
0.068720438 -0.53243828 0.15559804
0.096027717 -0.53243828 0.15559804
0.12333499 -0.53243828 0.15559804
-0.013204915 -0.17745444 0.15605676
0.01410589 -0.17745149 0.15593171
-0.040501278 -0.12282575 0.15511882
0.041404344 -0.1228205 0.15445197
-0.09563525 -0.72653347 0.17222691
0.096382588 -0.72631013 0.17096519
-0.12324245 -0.61744565 0.17669344
0.12394366 -0.61725134 0.17536485
-0.013337819 -0.20529684 0.1733216
0.01410589 -0.20529288 0.17319524
-0.04076986 -0.15039773 0.17256379
0.041538581 -0.15038739 0.17189038
-0.096277162 -0.75782031 0.19307399
0.096864671 -0.75759232 0.19183993
-0.12404604 -0.6481297 0.1975714
0.12458801 -0.64793265 0.19629157
-0.12385572 -0.50940681 0.19262707
-0.096263394 -0.50940681 0.19262707
-0.068671077 -0.50940681 0.19262707
-0.041078754 -0.50940681 0.19262707
-0.013486432 -0.50940681 0.19262707
0.01410589 -0.50940681 0.19262707
0.04169821 -0.50940681 0.19262707
0.069290534 -0.50940681 0.19262707
0.096882865 -0.50940681 0.19262707
0.12447518 -0.50940681 0.19262707
-0.013472024 -0.23341164 0.19075513
0.01410589 -0.23340671 0.19062757
-0.041041102 -0.17824242 0.19018137
0.041674152 -0.17822675 0.18950129
-0.096925974 -0.78947121 0.21414506
0.097351953 -0.78923917 0.21293914
-0.12485993 -0.67917848 0.2187171
0.12524 -0.67897612 0.21746504
-0.013607547 -0.26180264 0.2083602
0.01410589 -0.26179665 0.20823133
-0.04131503 -0.20636384 0.20797348
0.041811064 -0.20634267 0.20728683
-0.12568347 -0.71059519 0.24011314
0.12589903 -0.71038425 0.238868
-0.12531273 -0.48589402 0.23048079
-0.097428992 -0.48589402 0.23048079
-0.069545269 -0.48589402 0.23048079
-0.041661553 -0.48589402 0.23048079
-0.013777832 -0.48589402 0.23048079
0.01410589 -0.48589402 0.23048079
0.04198961 -0.48589402 0.23048079
0.069873333 -0.48589402 0.23048079
0.09775655 -0.48589164 0.23045886
0.12564078 -0.48589402 0.23048079
-0.013744408 -0.29047418 0.22613907
0.01410589 -0.29046828 0.22603047
-0.041591369 -0.23476514 0.22592223
0.041949347 -0.23473929 0.22525012
-0.013882795 -0.31943142 0.24411607
0.01410589 -0.31942332 0.24398482
-0.041870806 -0.26345214 0.24407232
0.042089183 -0.26342174 0.24341559
-0.12651597 -0.74238259 0.26174223
0.12656663 -0.74217105 0.26054835
-0.12679909 -0.46187508 0.26909816
-0.098618776 -0.46187717 0.26912022
-0.07043761 -0.46187717 0.26912022
-0.042256445 -0.46187717 0.26912022
-0.014075277 -0.46187717 0.26912022
0.01410589 -0.46187717 0.26912022
0.042286888 -0.46187508 0.26909816
0.070467882 -0.46187508 0.26909816
0.098649397 -0.46187717 0.26912022
0.12682988 -0.46187508 0.26909816
-0.014022397 -0.34867656 0.2622509
0.01410589 -0.34866738 0.2621181
-0.042153068 -0.29242831 0.26240575
0.042230263 -0.29239261 0.26174223
-0.12735932 -0.77455497 0.28365254
0.12724222 -0.77434003 0.28248954
-0.014163397 -0.37821478 0.28056717
0.01410589 -0.37820625 0.28045559
-0.042438187 -0.32169837 0.28092492
0.042372771 -0.32165709 0.28025448
-0.12831752 -0.43733811 0.30854762
-0.099834219 -0.43734235 0.30859303
-0.071349204 -0.43734235 0.30859303
-0.042864166 -0.43734235 0.30859303
-0.014379138 -0.43734235 0.30859303
0.01410589 -0.43734026 0.30857027
0.042590745 -0.43734026 0.30857027
0.071075946 -0.43734235 0.30859303
0.099560976 -0.43734235 0.30859303
0.12804461 -0.43733811 0.30854762
-0.014305817 -0.40805072 0.29906833
0.01410589 -0.40804124 0.29895544
-0.042726211 -0.35126638 0.29963231
0.042516731 -0.35121953 0.29895544
-0.043016836 -0.38113558 0.31850898
0.042662162 -0.38108474 0.31784785
-0.129869 -0.41226661 0.34885633
-0.10107546 -0.41227067 0.34890294
-0.072281197 -0.4122746 0.34894943
-0.043310802 -0.41131383 0.33760262
0.04280927 -0.41125923 0.33695781
0.071697272 -0.4122746 0.34894943
0.1004919 -0.41227067 0.34890294
0.1292858 -0.41226661 0.34885633
-0.13145469 -0.38664311 0.39005363
-0.10234402 -0.38664687 0.39010131
-0.073232636 -0.38665032 0.39014852
0.072331578 -0.38665032 0.39014852
0.10144334 -0.38664687 0.39010131
0.13055435 -0.38664311 0.39005363
-0.13307567 -0.36044878 0.43216825
-0.10364085 -0.36045223 0.43221641
-0.074204728 -0.36045378 0.43224072
0.072978519 -0.36044878 0.43216825
0.10241595 -0.36045223 0.43221641
0.13185115 -0.36044878 0.43216825
-0.13473317 -0.3336646 0.47523141
-0.10496688 -0.33366764 0.47528076
-0.075198695 -0.33366764 0.47528076
0.073642269 -0.33366764 0.47528076
0.10341047 -0.33366764 0.47528076
0.13317715 -0.3336646 0.47523141
-0.13642843 -0.30627021 0.51927543
-0.10632312 -0.30627269 0.51932597
-0.07621704 -0.30627543 0.51937652
0.074321181 -0.30627543 0.51937652
0.10442765 -0.30627269 0.51932597
0.13453412 -0.30627131 0.51930046
-0.13816375 -0.27824563 0.56436038
-0.10770981 -0.27824563 0.56436038
-0.077255294 -0.27824438 0.56433415
0.07501334 -0.27824438 0.56433415
0.10546766 -0.27824563 0.56436038
0.1359216 -0.27824563 0.56436038
-0.1399385 -0.24956648 0.61047006
-0.1091288 -0.24956541 0.61044359
-0.078321978 -0.24956858 0.61052322
0.075724468 -0.24956858 0.61052322
0.10653192 -0.24956541 0.61044359
0.13734141 -0.24956648 0.61047006
-0.14175515 -0.22021079 0.65766764
-0.11058293 -0.22021079 0.65766764
-0.079410732 -0.22021079 0.65766764
0.076450303 -0.22021079 0.65766764
0.1076225 -0.22021079 0.65766764
0.13879472 -0.22021079 0.65766764
0 0 0 1 0 0 0 1 0 0 0 1 0 0 0 0 0 464 1 0 0
