ply
format ascii 1.0
comment PCL generated
element vertex 803
property float x
property float y
property float z
element camera 1
property float view_px
property float view_py
property float view_pz
property float x_axisx
property float x_axisy
property float x_axisz
property float y_axisx
property float y_axisy
property float y_axisz
property float z_axisx
property float z_axisy
property float z_axisz
property float focal
property float scalex
property float scaley
property float centerx
property float centery
property int viewportx
property int viewporty
property float k1
property float k2
end_header
0.29540879 -0.066184118 -0.20308077
0.29540879 -0.047582746 -0.20308077
0.29540879 -0.028981369 -0.20308065
0.2955147 -0.010379912 -0.20231628
0.29662034 -0.085054867 -0.19433701
0.27812463 -0.066416644 -0.19301486
0.27759275 -0.04767517 -0.19707942
0.27765137 -0.029031001 -0.19663131
0.27829617 -0.010379912 -0.19170427
0.29696023 0.0083077801 -0.19188416
0.22323343 -0.34807315 -0.18238568
0.22323206 -0.32931069 -0.18239868
0.22323206 -0.31055012 -0.18239856
0.22323206 -0.29178944 -0.18239844
0.22323206 -0.27302879 -0.18239868
0.22323206 -0.25426817 -0.18239856
0.22323206 -0.23550759 -0.18239844
0.22323206 -0.21674687 -0.18239856
0.22323206 -0.1979863 -0.18239856
0.22323206 -0.17922561 -0.18239868
0.22323206 -0.16046496 -0.18239856
0.22323206 -0.14170438 -0.18239856
0.22323206 -0.12294364 -0.18239868
0.22323206 -0.10418306 -0.18239856
0.29919627 -0.10443909 -0.17574692
0.22323206 -0.085422494 -0.18239856
0.27938685 -0.085392565 -0.18336987
0.22323206 -0.066661797 -0.18239868
0.26077884 -0.06666664 -0.18219125
0.22323206 -0.047901183 -0.18239856
0.24278331 -0.048006598 -0.17555141
0.26026422 -0.047840029 -0.18636942
0.22323206 -0.029140528 -0.18239844
0.24282393 -0.029195983 -0.17519963
0.26031515 -0.029113166 -0.18595624
0.22323206 -0.010379872 -0.18239868
0.26092416 -0.010379912 -0.18101156
0.22323206 0.0083807828 -0.18239856
0.27967343 0.0083901072 -0.18118012
0.22323206 0.027141355 -0.18239856
0.22323206 0.04590201 -0.18239856
0.22323206 0.064662628 -0.18239856
0.22323206 0.083423324 -0.18239856
0.22323206 0.1021839 -0.18239856
0.22323206 0.12094455 -0.18239856
0.22323206 0.13970529 -0.18239868
0.22323206 0.15846589 -0.18239844
0.22323206 0.17722642 -0.18239856
0.18773346 -0.35110548 -0.1605022
0.2055628 -0.34958258 -0.17149282
0.18773346 -0.33217618 -0.1605022
0.2055628 -0.33073792 -0.17149282
0.18773346 -0.31324703 -0.1605022
0.2055628 -0.31189337 -0.17149282
0.18773346 -0.29431781 -0.1605022
0.2055628 -0.29304868 -0.17149293
0.18773346 -0.27538869 -0.1605022
0.2055628 -0.27420416 -0.17149293
0.18773346 -0.25645944 -0.1605022
0.2055628 -0.25535962 -0.1714927
0.18773346 -0.23753023 -0.1605022
0.2055628 -0.23651493 -0.17149293
0.18773346 -0.21860102 -0.1605022
0.2055628 -0.2176704 -0.17149282
0.18773346 -0.19967189 -0.1605022
0.2055628 -0.19882579 -0.1714927
0.18773346 -0.18074268 -0.1605022
0.2055628 -0.17998119 -0.17149282
0.18773346 -0.16181347 -0.1605022
0.2055628 -0.16113657 -0.1714927
0.18773346 -0.14288421 -0.1605022
0.20556147 -0.14229129 -0.17150593
0.18773346 -0.12395506 -0.1605022
0.20556147 -0.12344684 -0.17150593
0.18773346 -0.10502584 -0.1605022
0.20556147 -0.10460231 -0.17150593
0.28187963 -0.10487886 -0.16432142
0.31982741 -0.10491786 -0.1633085
0.18773346 -0.086096704 -0.1605022
0.20556147 -0.085757867 -0.17150593
0.24444798 -0.086077161 -0.16113508
0.26199678 -0.085733272 -0.17230296
0.31982741 -0.086010262 -0.16330838
0.18773346 -0.067167401 -0.1605022
0.20556147 -0.066913381 -0.17150581
0.24327764 -0.06691879 -0.17127049
0.31982741 -0.067102708 -0.1633085
0.18773346 -0.048238311 -0.1605022
0.20556147 -0.048068851 -0.17150581
0.31982741 -0.048195072 -0.1633085
0.18773346 -0.029309172 -0.1605022
0.20556147 -0.029224399 -0.17150581
0.31982741 -0.029287551 -0.16330838
0.18773346 -0.010379912 -0.1605022
0.20556147 -0.010379953 -0.17150581
0.24339846 -0.010379872 -0.17022419
0.31982741 -0.010379912 -0.16330838
0.18773226 0.0085491827 -0.16051543
0.20556147 0.0084645757 -0.17150581
0.26223189 0.0084731681 -0.1703943
0.31982741 0.0085276449 -0.1633085
0.18773226 0.027478237 -0.16051531
0.20556147 0.027309064 -0.17150581
0.28226212 0.027464639 -0.16139877
0.29966986 0.027296402 -0.17232907
0.31982741 0.027435325 -0.1633085
0.18773226 0.046407375 -0.16051531
0.20556147 0.046153594 -0.17150581
0.18773226 0.065336473 -0.16051531
0.20556147 0.064998046 -0.17150581
0.18773226 0.084265612 -0.16051543
0.20556147 0.083842576 -0.17150581
0.18773226 0.10319475 -0.16051543
0.20556147 0.10268699 -0.17150581
0.18773226 0.12212377 -0.16051543
0.20556147 0.12153151 -0.17150581
0.18773226 0.14105289 -0.16051543
0.20556147 0.14037603 -0.17150581
0.18773226 0.15998191 -0.16051543
0.20556147 0.15922049 -0.17150605
0.18773226 0.17891105 -0.16051543
0.20556147 0.17806502 -0.17150593
0.18773226 0.19784002 -0.16051543
0.20556147 0.19690955 -0.17150581
0.18773226 0.21676923 -0.16051543
0.18773226 0.23569837 -0.16051543
0.16974445 -0.35264391 -0.14939916
0.24504289 -0.35173157 -0.15598309
0.16974333 -0.33362749 -0.14941239
0.24504289 -0.33276767 -0.15598297
0.16974333 -0.31461293 -0.14941239
0.24504289 -0.31380364 -0.15598297
0.16974333 -0.2955983 -0.14941251
0.24504137 -0.29483813 -0.1559962
0.16974333 -0.27658373 -0.14941251
0.24504289 -0.27587566 -0.15598309
0.16974333 -0.25756919 -0.14941251
0.24504441 -0.25691307 -0.15596974
0.16974333 -0.23855463 -0.14941251
0.24504289 -0.23794776 -0.15598297
0.16974333 -0.21954006 -0.14941251
0.24504137 -0.21898261 -0.15599632
0.16974333 -0.20052551 -0.14941251
0.24503982 -0.20001771 -0.15600955
0.16974333 -0.18151094 -0.14941251
0.24503982 -0.18105391 -0.15600955
0.16974333 -0.16249637 -0.14941251
0.2450383 -0.16208932 -0.15602267
0.16974333 -0.14348184 -0.14941251
0.24503678 -0.14312495 -0.15603602
0.16974333 -0.12446726 -0.14941251
0.24503678 -0.12416136 -0.1560359
0.16974333 -0.1054527 -0.14941251
0.24503678 -0.10519778 -0.15603602
0.26440036 -0.10532278 -0.1527884
0.16974333 -0.086438142 -0.14941251
0.16974333 -0.06742359 -0.14941251
0.16974333 -0.04840903 -0.14941251
0.16974333 -0.02939447 -0.14941251
0.16974333 -0.010379872 -0.14941251
0.16974333 0.0086346464 -0.14941251
0.24463838 0.0085571231 -0.15948617
0.16974333 0.027649246 -0.14941239
0.24503678 0.027547292 -0.1560359
0.26469979 0.027634669 -0.15035713
0.16974333 0.046663761 -0.14941239
0.24503678 0.046510752 -0.1560359
0.16974333 0.065678366 -0.14941239
0.2450383 0.065474786 -0.15602267
0.16974333 0.084692925 -0.14941239
0.24503982 0.08443898 -0.15600944
0.16974333 0.10370748 -0.14941239
0.24504137 0.10340337 -0.1559962
0.16974333 0.12272213 -0.14941251
0.24504289 0.12236806 -0.15598297
0.16974333 0.14173669 -0.14941251
0.24504137 0.14133123 -0.1559962
0.16974333 0.16075124 -0.14941251
0.24504137 0.1602951 -0.15599632
0.16974333 0.17976579 -0.14941251
0.16974333 0.19878036 -0.14941251
0.22644752 0.19851354 -0.15256286
0.16974333 0.21779491 -0.14941251
0.20677491 0.21687412 -0.15938056
0.16974333 0.23680948 -0.14941251
0.16974333 0.25582403 -0.14941251
0.15159121 -0.35419446 -0.13820875
0.15159121 -0.33509362 -0.13820875
0.15159121 -0.31599283 -0.13820875
0.15159121 -0.29689196 -0.13820887
0.15159121 -0.2777912 -0.13820887
0.15159121 -0.25869042 -0.13820887
0.15159121 -0.23958966 -0.13820887
0.15159121 -0.22048879 -0.13820899
0.15159121 -0.20138803 -0.13820887
0.15159121 -0.18228728 -0.13820875
0.15159121 -0.16318637 -0.13820887
0.1515902 -0.14408483 -0.13822234
0.1515902 -0.12498411 -0.13822234
0.1515902 -0.1058834 -0.13822222
0.1515902 -0.086782679 -0.13822222
0.1515902 -0.06768205 -0.13822222
0.1515902 -0.048581339 -0.13822222
0.1515902 -0.029480584 -0.13822246
0.1515902 -0.010379872 -0.13822246
0.1515902 0.0087208422 -0.13822222
0.1515902 0.027821556 -0.13822222
0.1515902 0.046922266 -0.13822222
0.1515902 0.066022903 -0.13822222
0.1515902 0.085123613 -0.13822222
0.1515902 0.10422433 -0.13822222
0.1515902 0.123325 -0.13822222
0.1515902 0.14242579 -0.13822234
0.1515902 0.16152655 -0.13822222
0.1515902 0.18062721 -0.13822222
0.24622947 0.18005092 -0.14570689
0.1515902 0.19972794 -0.13822222
0.1515902 0.21882865 -0.13822222
0.1515902 0.23792936 -0.13822222
0.1515902 0.25702992 -0.13822222
0.1515902 0.27613059 -0.13822222
0.17083769 0.2763308 -0.13648856
0.1515902 0.29523146 -0.13822246
0.13327275 -0.35575917 -0.12691665
0.13327275 -0.33657143 -0.12691665
0.13327275 -0.31738371 -0.12691665
0.13327275 -0.29819599 -0.12691665
0.13327275 -0.27900824 -0.12691665
0.13327275 -0.25982046 -0.12691677
0.13327275 -0.24063271 -0.12691677
0.13327275 -0.22144499 -0.12691677
0.13327275 -0.20225728 -0.12691677
0.13327275 -0.18306954 -0.12691677
0.13327275 -0.16388178 -0.12691677
0.13327275 -0.14469406 -0.12691677
0.13327275 -0.12550633 -0.12691677
0.13327275 -0.10631861 -0.12691665
0.34506327 -0.10649992 -0.12220502
0.13327275 -0.087130882 -0.12691665
0.34506327 -0.087275915 -0.12220502
0.13327275 -0.067943119 -0.12691665
0.34506327 -0.068051912 -0.12220502
0.13327275 -0.0487554 -0.12691665
0.34506327 -0.048827916 -0.12220514
0.13327275 -0.029567678 -0.12691665
0.34506327 -0.029603872 -0.12220514
0.13327275 -0.010379912 -0.12691665
0.34506327 -0.010379872 -0.12220502
0.13327275 0.008807811 -0.12691665
0.34506327 0.0088441307 -0.12220502
0.13327275 0.027995534 -0.12691665
0.34506327 0.028068129 -0.12220502
0.13327275 0.047183298 -0.12691665
0.13327275 0.066371188 -0.12691665
0.13327275 0.085558824 -0.12691665
0.13327275 0.10474663 -0.12691665
0.13327275 0.12393428 -0.12691665
0.13327275 0.14312208 -0.12691665
0.13327275 0.16230975 -0.12691665
0.13327275 0.18149756 -0.12691665
0.13327275 0.2006852 -0.12691665
0.13327275 0.21987301 -0.12691665
0.13327275 0.23906064 -0.12691665
0.21045983 0.23949687 -0.12255871
0.13327275 0.25824851 -0.12691665
0.19059336 0.25796545 -0.12954319
0.13327275 0.27743611 -0.12691665
0.13327275 0.29662395 -0.12691665
0.13327275 0.31581163 -0.12691665
0.11478764 -0.33806446 -0.1155076
0.26875985 -0.33781767 -0.11739361
0.11478764 -0.31878898 -0.1155076
0.26875985 -0.31855658 -0.11739361
0.11478679 -0.29951179 -0.11552119
0.26876155 -0.29929718 -0.1173799
0.11478679 -0.2802363 -0.11552131
0.26876155 -0.28003603 -0.1173799
0.11478679 -0.26096082 -0.11552119
0.26876155 -0.26077485 -0.11737978
0.11478679 -0.24168542 -0.11552119
0.26876155 -0.24151374 -0.11737978
0.11478679 -0.22240999 -0.11552119
0.26875481 -0.22224791 -0.11743462
0.11478679 -0.20313449 -0.11552119
0.26876321 -0.20299239 -0.11736631
0.11478679 -0.18385899 -0.11552119
0.26876321 -0.18373118 -0.11736619
0.11478679 -0.16458361 -0.11552119
0.26876321 -0.16446996 -0.11736619
0.11478679 -0.14530814 -0.11552119
0.26876491 -0.14520948 -0.1173526
0.11478679 -0.12603271 -0.11552119
0.26876491 -0.12594806 -0.1173526
0.11478679 -0.10675712 -0.11552131
0.11478679 -0.087481692 -0.11552119
0.11478679 -0.06820631 -0.11552119
0.11478679 -0.048930805 -0.11552119
0.11478679 -0.029655337 -0.11552131
0.11478679 -0.010379872 -0.11552119
0.11478679 0.0088955937 -0.11552119
0.11478679 0.028171018 -0.11552119
0.11478679 0.047446404 -0.11552119
0.26876321 0.047403935 -0.11736631
0.11478679 0.066721909 -0.11552143
0.26876321 0.066665158 -0.11736619
0.11478679 0.085997418 -0.11552119
0.26876321 0.085926332 -0.11736619
0.11478679 0.10527288 -0.11552119
0.26875985 0.10518632 -0.11739349
0.11478679 0.12454823 -0.11552119
0.26875985 0.12444737 -0.11739361
0.11478679 0.1438238 -0.11552131
0.26875985 0.1437085 -0.11739361
0.11478679 0.16309927 -0.11552119
0.26875985 0.16296947 -0.11739349
0.11478679 0.18237461 -0.11552131
0.11478679 0.20165013 -0.11552119
0.25053063 0.2022482 -0.1084578
0.11478679 0.22092567 -0.11552119
0.23043954 0.22092567 -0.11552119
0.11478679 0.24020113 -0.11552119
0.11478679 0.25947648 -0.11552119
0.11478679 0.278752 -0.11552119
0.11478679 0.29802746 -0.11552119
0.11478679 0.31730288 -0.11552119
0.15406375 0.31853724 -0.10608983
0.11478679 0.3365784 -0.11552119
0.13422444 0.33690277 -0.11318028
0.11478679 0.35585392 -0.11552119
0.07730376 -0.34108835 -0.092400908
0.096131772 -0.33956945 -0.10400736
0.07730376 -0.32163495 -0.092401028
0.096131772 -0.32020542 -0.10400736
0.07730376 -0.30218145 -0.092400908
0.096131772 -0.3008413 -0.10400724
0.07730376 -0.28272802 -0.092401028
0.096131772 -0.28147715 -0.10400748
0.07730376 -0.26327464 -0.092400908
0.096131772 -0.26211312 -0.10400724
0.07730376 -0.24382122 -0.092401028
0.096131772 -0.24274908 -0.10400724
0.07730376 -0.22436769 -0.092400908
0.096131772 -0.22338486 -0.10400736
0.07730376 -0.20491423 -0.092401028
0.096131772 -0.20402083 -0.10400724
0.07730376 -0.18546091 -0.092400908
0.096131772 -0.18465677 -0.10400724
0.07730376 -0.1660074 -0.092400908
0.096131772 -0.16529262 -0.10400748
0.07730376 -0.14655399 -0.092401028
0.096131772 -0.14592856 -0.10400724
0.07730376 -0.12710053 -0.092401028
0.096131772 -0.1265645 -0.10400724
0.07730376 -0.10764708 -0.092401028
0.096131772 -0.10720035 -0.10400736
0.07730376 -0.088193685 -0.092400908
0.096131772 -0.087836325 -0.10400724
0.07730376 -0.068740211 -0.092400908
0.096131772 -0.068472184 -0.10400724
0.07730376 -0.049286742 -0.092401028
0.096131772 -0.04910804 -0.10400736
0.07730376 -0.029833265 -0.092401028
0.096131772 -0.029744018 -0.10400724
0.07730376 -0.010379953 -0.092400908
0.096131772 -0.010379953 -0.10400724
0.07730376 0.009073562 -0.092401028
0.096131772 0.0089842314 -0.10400724
0.07730376 0.028526954 -0.092401028
0.096131772 0.028348293 -0.10400724
0.07730376 0.047980431 -0.092401028
0.096131772 0.047712438 -0.10400748
0.07730376 0.067433827 -0.092400908
0.096131772 0.067076504 -0.10400724
0.07730376 0.086887345 -0.092400908
0.096131772 0.086440526 -0.10400724
0.07730376 0.10634078 -0.092401028
0.096131772 0.10580471 -0.10400748
0.07730376 0.1257942 -0.092401028
0.096131772 0.12516882 -0.10400724
0.07730376 0.14524752 -0.092401028
0.096131772 0.14453278 -0.10400724
0.07730376 0.16470107 -0.092400908
0.096131772 0.16389702 -0.10400724
0.07730376 0.18415451 -0.092401028
0.096131772 0.18326096 -0.10400736
0.27073538 0.18346532 -0.10135436
0.07730376 0.2036079 -0.092401028
0.096131772 0.20262511 -0.10400724
0.07730376 0.22306141 -0.092400908
0.096131772 0.22198933 -0.10400736
0.07730376 0.24251486 -0.092400908
0.096131772 0.24135326 -0.10400736
0.07730376 0.26196826 -0.092401028
0.096131772 0.26071739 -0.10400724
0.07730376 0.28142166 -0.092401147
0.096131772 0.28008166 -0.10400724
0.07730376 0.30087516 -0.092400908
0.096131772 0.29944557 -0.10400724
0.17401443 0.30006573 -0.098973036
0.07730376 0.32032856 -0.092400908
0.096131772 0.31880975 -0.10400724
0.07730376 0.33978197 -0.092401028
0.096131772 0.33817372 -0.10400748
0.096131772 0.3575379 -0.10400724
0.07730376 0.35923555 -0.092401028
0.07730376 0.37868887 -0.092400908
0.096131772 0.37690201 -0.10400724
0.07730376 0.39814225 -0.092400908
0.07730376 0.41759568 -0.092401028
0.058301732 -0.3426232 -0.08067286
0.058301732 -0.32307938 -0.080673099
0.058301732 -0.3035357 -0.080672979
0.058301732 -0.28399199 -0.080672979
0.058301732 -0.26444829 -0.08067286
0.058301732 -0.24490462 -0.080672979
0.058301732 -0.2253608 -0.080673099
0.058301732 -0.20581709 -0.080672979
0.058301732 -0.1862734 -0.08067286
0.058301732 -0.16672969 -0.08067286
0.058301732 -0.147186 -0.08067286
0.058301732 -0.1276422 -0.080673099
0.058301732 -0.1080985 -0.080672979
0.058301732 -0.088554755 -0.080672979
0.37115362 -0.08858379 -0.07973063
0.058301732 -0.069011018 -0.08067286
0.37115362 -0.069032796 -0.07973063
0.058301732 -0.049467359 -0.08067286
0.37115362 -0.049481891 -0.079730511
0.058301732 -0.029923573 -0.080672979
0.37115362 -0.029930901 -0.07973063
0.37115133 -0.010379872 -0.079744697
0.058301732 -0.010379831 -0.080672979
0.058301732 0.0091638295 -0.080672979
0.37115133 0.0091709131 -0.079744577
0.058301732 0.028707448 -0.080673099
0.058301732 0.04825123 -0.08067286
0.058301732 0.067794934 -0.08067286
0.058301732 0.087338716 -0.08067286
0.058301732 0.1068825 -0.08067286
0.058301732 0.12642619 -0.08067286
0.058301732 0.1459699 -0.08067286
0.058301732 0.16551347 -0.08067286
0.058301732 0.18505734 -0.080673099
0.058301732 0.20460103 -0.08067286
0.058301732 0.22414479 -0.08067286
0.058301732 0.24368848 -0.08067286
0.21425813 0.26280862 -0.084603786
0.058301732 0.2632322 -0.08067286
0.058301732 0.28277594 -0.080673099
0.19407845 0.28148916 -0.091815829
0.058301732 0.30231965 -0.080673099
0.058301732 0.32186335 -0.08067286
0.058301732 0.34140706 -0.08067286
0.058301732 0.36095086 -0.08067286
0.058301732 0.38049465 -0.080672979
0.11683942 0.38026085 -0.082190633
0.096918032 0.3986249 -0.089416385
0.058301732 0.40003818 -0.080673099
0.058301732 0.41958192 -0.08067286
0.058301732 0.43912572 -0.08067286
0.29323351 -0.3430303 -0.077561855
0.29323351 -0.32346264 -0.077561855
0.29323351 -0.30389491 -0.077561855
0.29323351 -0.2843273 -0.077561855
0.29323351 -0.26475957 -0.077561975
0.29323539 -0.24519329 -0.077547789
0.29323539 -0.22562549 -0.077547789
0.29323539 -0.20605773 -0.077547789
0.29323539 -0.18648992 -0.077547789
0.29323539 -0.16692211 -0.077547789
0.293228 -0.14735131 -0.077604175
0.29323167 -0.12778524 -0.077576041
0.293228 0.048322119 -0.077604055
0.29323539 0.067891225 -0.077547789
0.29323351 0.087458462 -0.077561855
0.29323351 0.10702611 -0.077561855
0.29323351 0.12659381 -0.077561855
0.29323351 0.14616142 -0.077561855
0.29323167 0.16572809 -0.077575922
0.25496167 0.22512294 -0.070083857
0.23455176 0.24401961 -0.077364564
0.15702339 0.34321263 -0.067642927
0.13687398 0.36178982 -0.074937582
0.058897384 0.4615286 -0.065197229
0.29613608 0.18700428 -0.055382252
0.27549055 0.20611893 -0.062747002
0.19767213 0.30573884 -0.052913189
0.17728987 0.32453048 -0.060292006
0.078899749 0.44316724 -0.057846546
0.23879284 0.26782984 -0.038012385
0.21817225 0.28683832 -0.045491576
0.11925274 0.40612793 -0.043003321
0.09901835 0.42470226 -0.050439239
0.31849697 -0.34840968 -0.03645587
0.31849697 -0.3285256 -0.036455989
0.31849903 -0.3086431 -0.036441445
0.31849903 -0.28875896 -0.036441445
0.31849903 -0.26887468 -0.036441445
0.31849903 -0.24899045 -0.036441445
0.31849903 -0.22910632 -0.036441445
0.31850103 -0.20922317 -0.036426902
0.31850103 -0.1893388 -0.036426902
0.31850103 -0.16945456 -0.036426783
0.31850103 -0.14957023 -0.036426783
0.31850103 -0.1296858 -0.036426902
0.040404685 -0.03033521 -0.027195573
0.040319018 -0.010379872 -0.029977679
0.040420935 0.0095795775 -0.026667595
0.31850103 0.049273074 -0.036426902
0.31849903 0.069157004 -0.036441445
0.31849903 0.089041248 -0.036441445
0.31849903 0.10892537 -0.036441445
0.31849903 0.12880969 -0.036441445
0.31849697 0.14869297 -0.036456108
0.31849697 0.16857709 -0.036456108
0.25953192 0.24870898 -0.030504227
0.16007611 0.36865678 -0.027986884
0.13960563 0.38744789 -0.035509706
0.040710077 -0.050443355 -0.017277837
0.020729888 -0.030428857 -0.015045404
0.020664696 -0.010379953 -0.017868519
0.020742193 0.0096731437 -0.014512658
0.040746935 0.029702011 -0.016080618
0.30137417 0.21013196 -0.015356064
0.28039202 0.22947672 -0.022952199
0.20137814 0.33074644 -0.012794375
0.18066615 0.34975594 -0.020420074
0.1011844 0.45159569 -0.010242462
0.080746271 0.47027263 -0.017868519
0.02096419 -0.050633904 -0.0049000978
0.00086979195 -0.030523237 -0.0027807951
0.00082568824 -0.010379872 -0.0056453943
0.00087807328 0.0097675221 -0.002243042
0.020990368 0.029891543 -0.0037661791
0.32248148 0.19067478 -0.0077003241
0.24316728 0.29238883 0.0025773048
0.22221053 0.31162307 -0.0051386356
0.1217427 0.43280888 -0.002571702
0.041386157 -0.070982188 0.004678607
0.0010297857 -0.050826572 0.0076111555
-0.019178238 -0.030618552 0.0095999241
-0.019200614 -0.010379912 0.0066931248
-0.019174058 0.0098629193 0.010142803
0.0010460168 0.03008303 0.0086653233
0.041441694 0.050264098 0.006482482
0.26424634 0.27303916 0.010323882
0.16322522 0.39490426 0.012921214
0.14242326 0.41391373 0.0051594973
0.0013804808 -0.07157591 0.030389547
0.021480657 -0.071277417 0.017463803
-0.019096311 -0.051021073 0.020242453
-0.039416879 -0.030714925 0.022113442
-0.039416879 -0.010379872 0.019148469
-0.039416879 0.0099591305 0.022646308
-0.019088937 0.030276064 0.021200538
0.02151921 0.050556112 0.019133329
0.28545034 0.25357473 0.018116117
0.20520185 0.35654819 0.028598666
0.18415187 0.37578428 0.020744324
-0.018917717 -0.071877368 0.043442369
-0.039416879 -0.051217157 0.032980442
-0.059849337 -0.030812439 0.034777403
-0.080430448 -0.010379953 0.044432878
-0.059825942 -0.010379912 0.031738162
-0.059853125 0.01005632 0.03526926
-0.039416879 0.030471094 0.033871055
0.0014038421 0.050851136 0.031906605
0.24768147 0.31773239 0.044463754
0.22637746 0.3371973 0.036499977
0.12431298 0.46034348 0.039164782
-0.039416879 -0.072181799 0.05662477
-0.059934635 -0.051415443 0.045857787
-0.080478892 -0.030910891 0.04757905
-0.10123324 -0.010379912 0.057249904
-0.080485582 0.010154485 0.048013568
-0.059940837 0.030667994 0.046663761
-0.039416879 0.051450107 0.057843804
-0.018907113 0.051149379 0.044819832
0.16647534 0.42199382 0.055141449
0.145331 0.44122595 0.047129035
-0.060120005 -0.072489284 0.069938183
-0.08065258 -0.051615644 0.05886054
-0.10130804 -0.031010196 0.060488939
-0.12223716 -0.010379831 0.070190668
-0.10131709 0.010253466 0.06088078
-0.080663666 0.03086685 0.059580564
-0.060128272 0.051754214 0.071011424
0.20914897 0.38318262 0.071327329
0.18774845 0.40264806 0.063217878
-0.08103016 -0.072799861 0.083384633
-0.12270039 -0.052021664 0.085234523
-0.1015733 -0.051817473 0.071974993
-0.12233981 -0.031110562 0.073524475
-0.14344516 -0.010379912 0.083257198
-0.12235054 0.010353505 0.073872685
-0.1015879 0.031067416 0.07260716
-0.081044145 0.052060924 0.084293485
-0.10215045 -0.073113538 0.096966386
-0.14403668 -0.052227888 0.098625302
-0.14357781 -0.031212147 0.086703539
-0.16486023 -0.010379912 0.096451402
-0.14358887 0.010454561 0.086991072
-0.14405406 0.031475022 0.099076748
-0.1227171 0.03127018 0.085777283
-0.10216755 0.052370775 0.097707033
0.16983266 0.44996911 0.098754287
0.14833325 0.46942589 0.090462923
-0.12348407 -0.073430307 0.11068523
-0.16558529 -0.052436069 0.11214924
-0.16502395 -0.031314384 0.099995852
-0.18648541 -0.010379872 0.10977495
-0.16503513 0.010556553 0.10023797
-0.16560107 0.031681452 0.11249113
-0.1235021 0.052684043 0.11127079
-0.14503427 -0.073750287 0.12454331
-0.18734851 -0.052646078 0.12579215
-0.18668269 -0.031417884 0.11343586
-0.20832381 -0.010379831 0.12322998
-0.18669233 0.010659483 0.11361504
-0.18736269 0.031890444 0.12605536
-0.14505008 0.053000074 0.12495399
-0.16680434 -0.074073613 0.13854289
-0.20933124 -0.052858494 0.13958859
-0.20855555 -0.031522237 0.12699294
-0.23037861 -0.010379953 0.13681829
-0.20856364 0.010763389 0.12712455
-0.20934148 0.032101274 0.13975477
-0.16681509 0.053319167 0.13877511
-0.18879771 -0.074400276 0.152686
-0.23153605 -0.053073067 0.15352452
-0.23064651 -0.031627733 0.14068496
-0.252653 -0.010379872 0.1505419
-0.23065227 0.010868437 0.14076817
-0.23154068 0.032314256 0.15359139
-0.18880133 0.053642046 0.15275311
-0.21101782 -0.074730322 0.16697502
-0.25296012 -0.031734247 0.15453124
-0.27515179 -0.010380035 0.16441989
-0.2529614 0.010974501 0.15454805
-0.2539624 0.032529112 0.16755092
-0.2110105 0.05396777 0.16685629
-0.25396627 -0.053289879 0.1676017
-0.27549732 -0.031841777 0.16849995
-0.29787713 -0.010379912 0.17843735
-0.27549586 0.011081829 0.16848314
-0.23344679 0.054296713 0.18110383
-0.23346815 -0.075063661 0.18141198
-0.27662542 -0.053508725 0.18182278
-0.2982626 -0.031950325 0.18261039
-0.32083249 -0.010379912 0.19259691
-0.29825628 0.011189968 0.18254185
-0.2766124 0.032746494 0.18166852
-0.25615233 -0.075400546 0.19599915
-0.2995154 -0.053729609 0.19617212
-0.32126126 -0.032060217 0.19688141
-0.34402135 -0.010379953 0.20690048
-0.3212474 0.011299455 0.19674301
-0.29949304 0.032966077 0.19593012
-0.25611508 0.054629561 0.19551516
-0.27907401 -0.075740926 0.21073925
-0.3226428 -0.053953096 0.21068704
-0.34449348 -0.032171044 0.21128118
-0.36744735 -0.010379912 0.22135031
-0.34447274 0.011409876 0.21108878
-0.32260612 0.033187691 0.21032012
-0.27901638 0.054965306 0.21005797
-0.302237 -0.076084934 0.22563457
-0.34600994 -0.054178867 0.22535217
-0.3679665 -0.032283258 0.22584665
-0.36793593 0.011521355 0.22558165
-0.34595856 0.03341179 0.22487545
-0.30215549 0.055304836 0.22475207
-0.32568082 -0.076440789 0.2410444
-0.36962047 -0.054407079 0.24017012
-0.39168015 -0.032396283 0.24054468
-0.39111409 -0.010379994 0.23594856
-0.39164063 0.011634015 0.24022353
-0.36955249 0.033638131 0.23958135
-0.32553798 0.055648025 0.23961699
-0.34940717 -0.076806337 0.25687468
-0.39347601 -0.054637365 0.25512516
-0.41564012 -0.032510694 0.25539553
-0.41502532 -0.010379953 0.25069773
-0.41559055 0.011747898 0.25501704
-0.3933917 0.033866871 0.25444031
-0.34916425 0.055994559 0.25462067
-0.37339762 -0.077175997 0.27288115
-0.41758481 -0.0548703 0.2702558
-0.43985268 -0.032626327 0.27041972
-0.43918738 -0.010379994 0.26561809
-0.43978956 0.011863002 0.26996434
-0.41747758 0.034097772 0.26943624
-0.37306711 0.056350213 0.27001882
-0.39765656 -0.077549972 0.28906679
-0.44194868 -0.055105597 0.28554642
-0.46431696 -0.032743182 0.28558326
-0.46359926 -0.010379912 0.28067601
-0.46424159 0.011979246 0.28506792
-0.44181865 0.034331478 0.28460777
-0.39725244 0.056714211 0.28578579
-0.46657181 -0.055343624 0.30099988
-0.48904219 -0.032861177 0.30092537
-0.4882673 -0.010379831 0.29589212
-0.48895055 0.012096669 0.30033016
-0.46641678 0.034567386 0.29993963
-0.42170313 0.057082366 0.30172551
-0.42218849 -0.077927813 0.30543447
-0.49145544 -0.055583764 0.31659973
-0.514027 -0.032980271 0.31641161
-0.51319557 -0.010379831 0.31126869
-0.51392055 0.012215477 0.31575358
-0.491276 0.034806062 0.3154341
-0.44642359 0.057454463 0.31784117
-0.44699815 -0.078310095 0.32198763
-0.53838819 -0.010379994 0.32680821
-0.53915584 0.012335508 0.33134091
-0.51639742 0.035046775 0.33107495
-0.47209299 -0.078697138 0.3387481
-0.51660937 -0.055826798 0.33238602
-0.53927809 -0.03310087 0.33206284
-0.56384933 -0.010379912 0.34251368
-0.47141838 0.057830762 0.33413565
-0.49746951 -0.079087764 0.35566223
-0.54203522 -0.056072559 0.34834313
-0.56480324 -0.033222772 0.34790134
-0.58958352 -0.010379912 0.35838723
-0.56466043 0.012456759 0.34709466
-0.54179132 0.035290416 0.34690261
-0.49669197 0.058211375 0.35061204
-0.56773746 -0.056320842 0.36447358
-0.59060037 -0.033345819 0.36389089
-0.59043896 0.012579313 0.36301744
-0.56745565 0.035536587 0.36288178
-0.5222491 0.058596138 0.36727309
-0.52314103 -0.079483315 0.37279046
-0.5937171 -0.056571569 0.38076079
-0.61668062 -0.033470407 0.38007367
-0.61559486 -0.010379912 0.37443185
-0.61649561 0.012703172 0.37911224
-0.59340167 0.03578544 0.37905347
-0.54809463 0.058985297 0.38412225
-0.54910648 -0.079882987 0.39009702
-0.61998558 -0.05682531 0.3972466
-0.64304149 -0.033596218 0.39641285
-0.64188814 -0.010379912 0.39065051
-0.64283502 0.012828576 0.39538169
-0.61962664 0.036036901 0.39538169
-0.57537758 -0.080287859 0.40762508
-0.66969109 -0.033723414 0.41293144
-0.66847193 -0.010379912 0.40706539
-0.66946602 0.012955283 0.41184855
-0.64614296 0.036291376 0.41190863
-0.57423341 0.059378695 0.40116251
-0.60195279 -0.080696814 0.42533839
-0.64654434 -0.057082064 0.41391444
-0.69534278 -0.010379831 0.42364037
-0.60067046 0.059776735 0.41839719
-0.67339838 -0.057341587 0.43076777
-0.69663858 -0.03385216 0.42965198
-0.72250974 -0.010379912 0.44039786
-0.69638515 0.013083213 0.4284761
-0.67294729 0.03654829 0.42859769
-0.62741089 0.060179409 0.43582964
-0.62884474 -0.081111297 0.44328046
-0.70054793 -0.057603553 0.44778872
-0.72388029 -0.033982124 0.44653749
-0.72360122 0.013212689 0.44528711
-0.70005286 0.036808383 0.44549203
-0.65446424 0.060587142 0.45348418
-0.6560514 -0.081530102 0.46141446
-0.72800684 -0.057868775 0.46502161
-0.7514255 -0.034113474 0.46361089
-0.74997747 -0.010379912 0.45734096
-0.75111914 0.013343467 0.46228456
-0.72745585 0.037071083 0.46255386
-0.68358648 -0.081954278 0.4797858
-0.77928424 -0.03424653 0.48089647
-0.77775121 -0.010379994 0.47447288
-0.77894402 0.013475793 0.47947145
-0.75517058 0.037337121 0.47982764
-0.68182755 0.060999099 0.47132277
-0.75577605 -0.058137175 0.48244905
-0.80583584 -0.010379912 0.49179649
-0.70951045 0.06141587 0.48936999
-0.71144736 -0.082383096 0.4983561
-0.7838608 -0.058408584 0.50007463
-0.80745173 -0.034381058 0.4983561
-0.80708098 0.013609505 0.49685121
-0.78319764 0.037606005 0.49729621
-0.73751855 0.06183752 0.50762892
-0.73964405 -0.082817212 0.51715052
-0.81226122 -0.058682684 0.51788008
-0.83594382 -0.034517046 0.51603472
-0.83423686 -0.010379912 0.50931513
-0.83553541 0.013744845 0.51442695
-0.81153727 0.037877582 0.51494122
-0.84099329 -0.058960367 0.53591204
-0.84020507 0.038152657 0.53280914
-0.76585758 0.062264059 0.52610373
-0.76935363 -0.083373547 0.541242
-0.79453349 0.062695891 0.54479814
-0.82355225 0.063132778 0.56371617
-0.79955995 -0.083942182 0.56586146
0 0 0 1 0 0 0 1 0 0 0 1 0 0 0 0 0 803 1 0 0
