ply
format ascii 1.0
comment PCL generated
element vertex 1108
property float x
property float y
property float z
element camera 1
property float view_px
property float view_py
property float view_pz
property float x_axisx
property float x_axisy
property float x_axisz
property float y_axisx
property float y_axisy
property float y_axisz
property float z_axisx
property float z_axisy
property float z_axisz
property float focal
property float scalex
property float scaley
property float centerx
property float centery
property int viewportx
property int viewporty
property float k1
property float k2
end_header
-0.69884288 -0.41254807 -0.56952828
-0.68140411 -0.41119209 -0.57521057
-0.66761512 -0.41191971 -0.57216132
-0.69694662 -0.39643705 -0.57400703
-0.68150753 -0.3962166 -0.57496166
-0.71281672 -0.38182357 -0.57208645
-0.69539517 -0.38057685 -0.57767111
-0.68331891 -0.38215449 -0.57060409
-0.71265888 -0.36668757 -0.5724526
-0.69719988 -0.36648157 -0.57340872
-0.72675782 -0.35118091 -0.57462966
-0.71104109 -0.35085347 -0.57620543
-0.69904423 -0.35234013 -0.56905258
-0.72838897 -0.33688754 -0.57091224
-0.71291715 -0.33669919 -0.5718534
-0.74220687 -0.32128343 -0.57370788
-0.72674692 -0.32110128 -0.57465452
-0.65859061 -0.41551572 -0.55709267
-0.66939467 -0.39787057 -0.56779957
-0.65719271 -0.39953676 -0.56058484
-0.67118561 -0.38376045 -0.56340998
-0.65896285 -0.38537839 -0.55616277
-0.68513501 -0.36802772 -0.5662353
-0.6729812 -0.36958534 -0.55900902
-0.68696266 -0.35383946 -0.56183869
-0.70090044 -0.33813718 -0.5646686
-0.68879497 -0.33958581 -0.55743057
-0.71479809 -0.32248002 -0.56749028
-0.70276487 -0.32387057 -0.56026483
-0.73228925 -0.30839759 -0.56202358
-0.71669102 -0.3081989 -0.56309927
-0.70463419 -0.30953819 -0.55584979
-0.71003497 -0.4341366 -0.54309356
-0.69305891 -0.43313164 -0.54717332
-0.72418612 -0.40297133 -0.54571271
-0.64490396 -0.40121716 -0.55330831
-0.6466496 -0.38700828 -0.54886192
-0.6342448 -0.38865024 -0.54150689
-0.73829621 -0.37188637 -0.54833341
-0.66073763 -0.37115437 -0.55172926
-0.64840645 -0.37273702 -0.54438692
-0.66252375 -0.35686809 -0.54726726
-0.6695531 -0.34893265 -0.54868245
-0.75237662 -0.34088686 -0.55093026
-0.67660004 -0.3410452 -0.55013925
-0.68453127 -0.32597455 -0.5493322
-0.69248807 -0.31088752 -0.54854655
-0.71004951 -0.29662085 -0.54305929
-0.69434881 -0.29644185 -0.54407024
-0.68027616 -0.43462062 -0.54112899
-0.63555872 -0.40473109 -0.53809297
-0.62188768 -0.39038748 -0.5337249
-0.62972027 -0.37513179 -0.53327662
-0.64394385 -0.35917062 -0.5361892
-0.6519407 -0.34399831 -0.53538465
-0.63947093 -0.34549057 -0.52792883
-0.65371823 -0.32953015 -0.53085703
-0.66611683 -0.3280994 -0.53829116
-0.68025512 -0.31224844 -0.54118049
-0.66792738 -0.31361783 -0.53376818
-0.68209159 -0.29775038 -0.53667939
-0.66974264 -0.29906875 -0.52923322
-0.73586249 -0.42469516 -0.51862681
-0.75015724 -0.39316079 -0.5213021
-0.61207849 -0.39373639 -0.51872349
-0.61084735 -0.37755051 -0.52205515
-0.76441783 -0.36171213 -0.52396154
-0.62518173 -0.36149797 -0.52499199
-0.61254603 -0.3630639 -0.51745802
-0.62690741 -0.34699404 -0.52041698
-0.64122999 -0.33097315 -0.52335846
-0.62864441 -0.33242548 -0.51581234
-0.64299381 -0.31638765 -0.51877612
-0.65550721 -0.31499755 -0.52630019
-0.64476907 -0.30173686 -0.51416385
-0.65730447 -0.30039859 -0.5217225
-0.68738019 -0.28461611 -0.52371681
-0.67156971 -0.28445485 -0.52466899
-0.65910637 -0.28573123 -0.51713258
-0.66468126 -0.42844033 -0.50293267
-0.601138 -0.38096571 -0.50621033
-0.59981489 -0.36464152 -0.50986719
-0.58698726 -0.36623126 -0.50221878
-0.61424923 -0.34850881 -0.5128485
-0.60149848 -0.35003695 -0.50521386
-0.61596358 -0.33388874 -0.50820905
-0.60318661 -0.33536312 -0.50054806
-0.63038594 -0.31778824 -0.51119524
-0.61768579 -0.31920108 -0.50354815
-0.63213879 -0.3030853 -0.50654817
-0.63389641 -0.28831291 -0.50188839
-0.64654905 -0.28701723 -0.50953925
-0.66426122 -0.27237371 -0.50400263
-0.64834064 -0.27223113 -0.50488454
-0.74786633 -0.44702291 -0.49078149
-0.76234663 -0.41502422 -0.49352235
-0.77679199 -0.38311338 -0.49624693
-0.58813345 -0.38252378 -0.49898201
-0.58864748 -0.35157475 -0.49753028
-0.57569855 -0.35312435 -0.48978788
-0.59031236 -0.33684862 -0.49282885
-0.60488576 -0.32062301 -0.49585164
-0.59198803 -0.32205573 -0.48809659
-0.61941272 -0.30444393 -0.4988746
-0.60658956 -0.3058129 -0.49114251
-0.62115091 -0.28961998 -0.49417055
-0.62289381 -0.27472571 -0.48945349
-0.6356656 -0.27347362 -0.49719834
-0.57693732 -0.36955816 -0.48621196
-0.5626505 -0.35468584 -0.48198628
-0.57734287 -0.33834735 -0.48504144
-0.56427056 -0.33985576 -0.47720337
-0.57899153 -0.32349962 -0.48028195
-0.5936684 -0.30719241 -0.48335129
-0.58065116 -0.30858406 -0.47549111
-0.60830456 -0.29093558 -0.48640239
-0.5953598 -0.29226124 -0.47857481
-0.61002427 -0.27598727 -0.48164928
-0.59705913 -0.27726007 -0.47377598
-0.61175537 -0.26097071 -0.47686481
-0.64068639 -0.25988951 -0.48388767
-0.62464488 -0.25976226 -0.48471451
-0.64847505 -0.42201778 -0.46323919
-0.56983066 -0.37484249 -0.46078789
-0.55225313 -0.35792276 -0.46581399
-0.53782284 -0.34290758 -0.46134555
-0.55109763 -0.34137577 -0.46930504
-0.56589502 -0.32495442 -0.47240734
-0.55270052 -0.32642221 -0.46446252
-0.56753033 -0.30998486 -0.46757948
-0.55430794 -0.31139642 -0.45960671
-0.58231533 -0.29359701 -0.47068703
-0.56917012 -0.29494321 -0.46273822
-0.58399057 -0.27854124 -0.46585107
-0.59876317 -0.26218724 -0.4689638
-0.58567041 -0.26341301 -0.46100175
-0.61663491 -0.24715327 -0.46337837
-0.60047513 -0.24704339 -0.46412909
-0.52599716 -0.32938859 -0.44840634
-0.53940058 -0.32789963 -0.45646548
-0.54098278 -0.312819 -0.45157188
-0.55592597 -0.29630145 -0.45471841
-0.54257554 -0.29766861 -0.44664556
-0.57082075 -0.2798323 -0.45786488
-0.55754858 -0.28113338 -0.44981641
-0.57247609 -0.26464838 -0.45297778
-0.58735824 -0.24821346 -0.45612955
-0.57414246 -0.24939404 -0.44805813
-0.52707082 -0.34605241 -0.44500464
-0.51248908 -0.33088917 -0.44028407
-0.51402253 -0.3156994 -0.43530399
-0.5275538 -0.31425276 -0.44347435
-0.52912074 -0.29904649 -0.43850964
-0.54417282 -0.28244454 -0.44170541
-0.53069526 -0.28376767 -0.43352097
-0.55918199 -0.2658948 -0.4448818
-0.54578078 -0.26714957 -0.43673205
-0.56082004 -0.2505824 -0.43993306
-0.59209585 -0.23415889 -0.44245309
-0.57581347 -0.23406582 -0.44312453
-0.56246597 -0.23519699 -0.43496102
-0.63162082 -0.41533846 -0.42195833
-0.55138183 -0.36721078 -0.4194082
-0.50137508 -0.33394012 -0.42377073
-0.50038189 -0.31715563 -0.4270789
-0.5018931 -0.30183488 -0.42204523
-0.51556039 -0.30043519 -0.43030977
-0.51710856 -0.2850996 -0.42528182
-0.53227419 -0.26841417 -0.42851812
-0.5186612 -0.26968876 -0.42023963
-0.54739332 -0.25178009 -0.43174458
-0.53386378 -0.25298864 -0.42348176
-0.54901665 -0.23633836 -0.42672366
-0.53545797 -0.23748754 -0.41843086
-0.56705761 -0.22089975 -0.42108965
-0.5506447 -0.22082134 -0.4216882
-0.48703873 -0.31886855 -0.41740412
-0.48812062 -0.30324715 -0.41370565
-0.47423577 -0.30466914 -0.4053095
-0.48961192 -0.28779513 -0.40860754
-0.50341451 -0.28644204 -0.4169777
-0.50494033 -0.27097344 -0.41189533
-0.52022427 -0.25420529 -0.41516322
-0.50647646 -0.25543162 -0.40677875
-0.52179188 -0.23864566 -0.41007233
-0.53705984 -0.22191189 -0.41335547
-0.52337009 -0.22301219 -0.4049468
-0.47514731 -0.32157654 -0.40210944
-0.47569942 -0.28915888 -0.40017086
-0.46167576 -0.29053366 -0.39166677
-0.49111331 -0.27226982 -0.40347505
-0.47717297 -0.27357501 -0.39499742
-0.4926191 -0.25666773 -0.39832753
-0.50801998 -0.23981442 -0.40163743
-0.49413508 -0.24099122 -0.39314491
-0.5095681 -0.2241201 -0.39648092
-0.54149789 -0.20736478 -0.39929402
-0.52495295 -0.20730172 -0.3998065
-0.51112372 -0.20834954 -0.39129937
-0.61413807 -0.40842345 -0.37882262
-0.46267062 -0.30758756 -0.38807672
-0.44754219 -0.29192111 -0.38308442
-0.463121 -0.27489072 -0.38645172
-0.44895589 -0.27621701 -0.37783736
-0.47865093 -0.25791374 -0.38980871
-0.46457326 -0.25917116 -0.38121122
-0.48013884 -0.24217741 -0.38458455
-0.4956556 -0.22523685 -0.38794726
-0.48163122 -0.2263626 -0.37934494
-0.4971835 -0.20940571 -0.38272399
-0.49872184 -0.19349822 -0.37746531
-0.53217936 -0.35926738 -0.37633789
-0.45007718 -0.31002641 -0.37367582
-0.43559068 -0.29473796 -0.36566013
-0.43467641 -0.27755395 -0.36915356
-0.45037925 -0.26043737 -0.37255454
-0.43607032 -0.26171371 -0.36382788
-0.46602988 -0.24337308 -0.3759551
-0.4518069 -0.24457847 -0.36725599
-0.46749645 -0.2274989 -0.37066299
-0.48313379 -0.2104717 -0.37406957
-0.4689675 -0.21154501 -0.36535507
-0.51540697 -0.1935482 -0.37703258
-0.48464084 -0.1945013 -0.36877823
-0.42028373 -0.27890334 -0.36038893
-0.42164505 -0.26300046 -0.35503012
-0.43747109 -0.24579509 -0.35847586
-0.45324433 -0.22864284 -0.36192089
-0.43887615 -0.22979622 -0.35310769
-0.45468605 -0.21262707 -0.35656977
-0.47044575 -0.19551255 -0.36002082
-0.45613772 -0.19653313 -0.35118175
-0.48876154 -0.17943843 -0.35431093
-0.47193408 -0.17940184 -0.35464996
-0.4079349 -0.28161448 -0.34277958
-0.40710199 -0.26429775 -0.34616071
-0.39244223 -0.26560715 -0.33720797
-0.42301571 -0.24702023 -0.34963447
-0.40844202 -0.2482553 -0.34072083
-0.42439055 -0.23095901 -0.34422237
-0.44029081 -0.21371926 -0.34770238
-0.42577493 -0.21481909 -0.33877307
-0.44170988 -0.19756095 -0.34228086
-0.45759386 -0.18035801 -0.34577751
-0.44313598 -0.18132208 -0.33683211
-0.51220065 -0.35100812 -0.33138758
-0.42833447 -0.30071321 -0.32869726
-0.39374858 -0.24950059 -0.33173388
-0.37893391 -0.25075611 -0.32267272
-0.39506394 -0.23331462 -0.32622182
-0.40978873 -0.23213266 -0.33525389
-0.41113961 -0.21592791 -0.32976997
-0.42716354 -0.19859721 -0.33330667
-0.41249728 -0.19964196 -0.32425851
-0.42855912 -0.18229412 -0.32781309
-0.46155006 -0.16502845 -0.33109355
-0.44456923 -0.16500212 -0.33135611
-0.42996436 -0.16591024 -0.3222813
-0.37968999 -0.26821202 -0.31939882
-0.36399886 -0.25202358 -0.3135258
-0.38021743 -0.23450644 -0.31711501
-0.39638346 -0.21704607 -0.32069248
-0.38150489 -0.21817328 -0.31154001
-0.39771211 -0.20069669 -0.31512475
-0.41386437 -0.18327533 -0.31870872
-0.39904493 -0.18426354 -0.30953962
-0.4152357 -0.16682489 -0.31314176
-0.35083184 -0.25451812 -0.29552323
-0.36524752 -0.2357081 -0.30793262
-0.35015276 -0.23691975 -0.29867375
-0.36650488 -0.21931134 -0.30230027
-0.38280141 -0.20175888 -0.30592591
-0.36776623 -0.20282994 -0.29665023
-0.38410199 -0.18525986 -0.3002941
-0.40038455 -0.16774711 -0.30392629
-0.40173346 -0.15114799 -0.29827356
-0.43374562 -0.15030529 -0.30739641
-0.416614 -0.15029138 -0.30754662
-0.4914149 -0.3424255 -0.28435469
-0.40566462 -0.2910029 -0.28180051
-0.3354874 -0.23849158 -0.286663
-0.35137692 -0.22045757 -0.29299414
-0.33612195 -0.22161333 -0.28360993
-0.35260499 -0.20390995 -0.28729665
-0.36903399 -0.18626465 -0.29097128
-0.35384172 -0.18727903 -0.28155893
-0.38541174 -0.16867818 -0.29462302
-0.37031066 -0.16961591 -0.28525233
-0.3867256 -0.15201071 -0.28893375
-0.40533739 -0.13526191 -0.28317159
-0.38804621 -0.1352583 -0.28321546
-0.32134515 -0.24052639 -0.27111465
-0.32073832 -0.22277902 -0.27414656
-0.32190025 -0.20609875 -0.26834136
-0.33731842 -0.20500036 -0.27785337
-0.33851877 -0.18830071 -0.27207822
-0.35508242 -0.17056155 -0.27580297
-0.37159151 -0.1528808 -0.27951515
-0.35632947 -0.1537582 -0.27001721
-0.37287879 -0.1360599 -0.27374858
-0.30701613 -0.22510119 -0.25529295
-0.30635113 -0.20720644 -0.25874841
-0.32306594 -0.18933125 -0.26251709
-0.33972529 -0.1715152 -0.26627344
-0.32423985 -0.17247812 -0.25665164
-0.34094033 -0.15464409 -0.26042736
-0.34215936 -0.13768457 -0.25456244
-0.35758537 -0.13686925 -0.26419044
-0.37630254 -0.11988689 -0.25841218
-0.35884532 -0.11989208 -0.25834501
-0.29066944 -0.20832358 -0.24907374
-0.30748367 -0.19037165 -0.25286335
-0.29176602 -0.19141974 -0.24313837
-0.30861998 -0.17344803 -0.24695915
-0.32541767 -0.15553647 -0.25076699
-0.30976215 -0.15643647 -0.24102408
-0.32660156 -0.13850684 -0.24485189
-0.34338468 -0.12063709 -0.24866688
-0.38206059 -0.28090447 -0.23261946
-0.29422456 -0.22823729 -0.22983098
-0.27650234 -0.21052568 -0.23000336
-0.27591339 -0.19247681 -0.23332983
-0.2928662 -0.17442639 -0.23718339
-0.27697679 -0.17541304 -0.22732365
-0.2939721 -0.15734425 -0.2311973
-0.31091252 -0.13933706 -0.23504668
-0.32779393 -0.12138933 -0.2388944
-0.31206667 -0.12214726 -0.22904938
-0.34662247 -0.10416959 -0.23308927
-0.32899022 -0.10418157 -0.23291737
-0.25992408 -0.19354293 -0.22343683
-0.26095203 -0.17640948 -0.21736711
-0.27804789 -0.15826085 -0.22127432
-0.295086 -0.14017357 -0.22516847
-0.2791225 -0.14101729 -0.21520472
-0.29620358 -0.12291166 -0.21911943
-0.31322691 -0.10486718 -0.22302079
-0.29732922 -0.10555956 -0.21302676
-0.24530378 -0.19562338 -0.20413285
-0.24478602 -0.17741339 -0.20733529
-0.26198342 -0.15918443 -0.21127677
-0.24577916 -0.16011603 -0.20119214
-0.26302028 -0.14186832 -0.20515436
-0.28020281 -0.12368268 -0.20910317
-0.26406467 -0.12446135 -0.19898772
-0.28129092 -0.10625717 -0.20295751
-0.31627032 -0.088096902 -0.20720673
-0.29845861 -0.088114977 -0.20691371
-0.22847909 -0.178426 -0.19721651
-0.22943503 -0.16105683 -0.19100755
-0.24677944 -0.14272781 -0.1950044
-0.24778315 -0.12524588 -0.18879563
-0.26511255 -0.10696091 -0.19280022
-0.28238276 -0.088738337 -0.19679105
-0.26616603 -0.089367196 -0.18657959
-0.3574048 -0.27035737 -0.18121272
-0.26754421 -0.21647941 -0.17844206
-0.21339303 -0.18038063 -0.1776852
-0.2129454 -0.16200483 -0.18074542
-0.23039418 -0.1435938 -0.18477756
-0.21386468 -0.14446747 -0.17446035
-0.23135853 -0.12603746 -0.178514
-0.24879223 -0.10767075 -0.18255383
-0.23232988 -0.10838777 -0.17220503
-0.24980861 -0.090002343 -0.17626637
-0.28522578 -0.071657628 -0.18073332
-0.2672272 -0.071680248 -0.18031389
-0.19631037 -0.16296116 -0.17039269
-0.19718894 -0.14534876 -0.16405201
-0.21479064 -0.12683685 -0.16812956
-0.21571982 -0.1091103 -0.1617766
-0.23330459 -0.090642393 -0.16587389
-0.25082853 -0.072238326 -0.16995734
-0.23428452 -0.072801352 -0.159509
-0.18074918 -0.16478792 -0.15061629
-0.18036669 -0.14623895 -0.15353906
-0.19807398 -0.12764232 -0.15766501
-0.1812084 -0.12845513 -0.14710724
-0.19896209 -0.1098392 -0.15125561
-0.21665403 -0.091287971 -0.15538943
-0.19985503 -0.091939524 -0.14481127
-0.21759507 -0.073369995 -0.14895546
-0.25346684 -0.054839518 -0.15363705
-0.23527166 -0.05486447 -0.15309739
-0.16461086 -0.14797369 -0.13305354
-0.1641919 -0.12927511 -0.13645494
-0.18205467 -0.11057468 -0.1406405
-0.18290716 -0.092597559 -0.13412607
-0.20075452 -0.073943108 -0.13831985
-0.21853945 -0.055353906 -0.14249873
-0.20165724 -0.055847879 -0.13180518
-0.23966658 -0.20420007 -0.12455142
-0.16622093 -0.11200599 -0.11998141
-0.18506557 -0.075057834 -0.11763287
-0.22096425 -0.037628081 -0.1259203
-0.14817384 -0.13087012 -0.11573565
-0.14893743 -0.11275826 -0.10912251
-0.16703257 -0.09387438 -0.11339164
-0.16785023 -0.075644046 -0.10675311
-0.18592963 -0.056807373 -0.11103046
-0.20394701 -0.038037661 -0.11527991
-0.18679842 -0.038456704 -0.10439146
-0.13149738 -0.11351748 -0.098165512
-0.14970526 -0.09454678 -0.10247338
-0.13222054 -0.095225394 -0.091455698
-0.15047729 -0.076235041 -0.095787287
-0.16867083 -0.057312656 -0.10009062
-0.16949597 -0.038880084 -0.093391418
-0.13339347 -0.13357703 -0.080572128
-0.11389734 -0.11428258 -0.087121725
-0.11457624 -0.095910087 -0.080337524
-0.13294765 -0.076831982 -0.08470881
-0.1512551 -0.057822596 -0.089051366
-0.13367885 -0.058336455 -0.077924371
-0.15203571 -0.039307345 -0.082291007
-0.17032564 -0.020345476 -0.08665514
-0.21048018 -0.19134411 -0.068130851
-0.09676899 -0.096600175 -0.069130898
-0.11525764 -0.077434406 -0.073529005
-0.097404957 -0.078042507 -0.062246084
-0.11594282 -0.058855746 -0.0666821
-0.13441551 -0.039738555 -0.07108891
-0.15282065 -0.020689193 -0.075493097
-0.13515487 -0.021036092 -0.064228535
-0.078799039 -0.097297579 -0.057807446
-0.079387411 -0.078655988 -0.050859451
-0.098043278 -0.059379768 -0.055336237
-0.11663184 -0.040173206 -0.059797049
-0.098685175 -0.040612262 -0.048387527
-0.11732605 -0.021386135 -0.052860022
-0.13589835 -0.0022288971 -0.057329774
-0.061201647 -0.07927458 -0.039380193
-0.079977959 -0.059908736 -0.04388535
-0.080571845 -0.041055482 -0.036872029
-0.099331945 -0.021739449 -0.041386008
-0.11802283 -0.0024928674 -0.045897245
-0.1007597 -0.11852202 -0.025930166
-0.042847484 -0.079899624 -0.027780771
-0.061744541 -0.060442563 -0.03232789
-0.062289461 -0.041502912 -0.025248885
-0.081169084 -0.02209558 -0.029818892
-0.099979863 -0.0027590469 -0.034372091
-0.081770867 -0.0030283295 -0.022711992
-0.10063396 0.016328249 -0.027291179
-0.043339714 -0.060980719 -0.020676017
-0.024763092 -0.061524544 -0.0089011192
-0.0438357 -0.041954417 -0.013517141
-0.062837496 -0.022455584 -0.018129826
-0.063388661 -0.0032994859 -0.010969996
-0.082373753 0.016148105 -0.015592098
-0.0060111582 -0.0620736 0.0029850006
-0.025207281 -0.042409766 -0.0016885996
-0.044333577 -0.02281886 -0.0063309669
-0.025654882 -0.023185607 0.0055794716
-0.044834316 -0.0035735853 0.00089645386
-0.063942984 0.015966162 -0.0037693977
-0.064500466 0.035342298 0.003472805
-0.0064035058 -0.042869892 0.010265946
-0.0067988634 -0.023555819 0.017602921
-0.026104167 -0.003850136 0.012875319
-0.045337901 0.015782341 0.0081653595
-0.026556075 0.015596926 0.020213485
-0.045844406 0.035249859 0.015476108
-0.066636607 -0.10278033 0.031221867
0.012579069 -0.043334428 0.02233398
0.012237608 -0.023929175 0.029726624
-0.0071957558 -0.0041295402 0.024968386
-0.0075949579 0.015409552 0.032376528
-0.027010605 0.035156637 0.02759397
0.031725407 -0.043820929 0.034974456
0.031455718 -0.024306457 0.041980982
0.011893503 -0.0044114403 0.037176967
0.01154805 0.015220586 0.044656157
-0.0079964697 0.03506244 0.039827704
-0.027467772 0.054829903 0.035017371
-0.0084003508 0.054829944 0.047322512
0.22922777 0.29207346 0.040186405
0.24925107 0.29257959 0.04566431
0.40775236 0.2925809 0.045678854
0.42694563 0.29208541 0.040315509
0.050858863 -0.02468745 0.054353356
0.031166762 -0.004695788 0.049488425
0.030875549 0.015029661 0.057054281
0.01120124 0.034967467 0.052164674
0.010851063 0.054829985 0.059746265
0.22967878 0.27329549 0.051904082
0.24980199 0.27377704 0.057592273
0.40894699 0.27370694 0.056763649
0.42826536 0.27328196 0.051744938
0.26957005 0.293448 0.055064321
0.38881224 0.29338625 0.054396749
0.22965203 0.31294683 0.051209331
0.24950652 0.3129454 0.051194787
0.26936156 0.3129454 0.051194787
0.28980517 0.31390181 0.060751915
0.36933929 0.31370649 0.058799863
0.38849181 0.3129454 0.051194787
0.40834683 0.3129454 0.051194787
0.42820188 0.3129454 0.051194787
0.050625466 -0.0049832389 0.061933279
0.070272982 -0.0052733831 0.074498773
0.050390691 0.014837142 0.069557905
0.030583747 0.034871474 0.064635396
0.030289672 0.054830026 0.072275877
0.0104995 0.074809402 0.067357898
0.43094215 0.23516953 0.074926019
0.23013337 0.25434408 0.063714623
0.25035873 0.25480062 0.069645882
0.41015196 0.25466976 0.067944169
0.4295986 0.25431141 0.063290954
0.27023411 0.2746065 0.067387342
0.38993055 0.27445281 0.065571666
0.2905674 0.29511663 0.073129296
0.37033439 0.29478809 0.069572568
0.090112068 -0.0055663884 0.087186813
0.070095181 0.014642581 0.082197547
0.05015453 0.034774542 0.077227354
0.049916968 0.054829985 0.084942222
0.029993854 0.074906453 0.079961658
0.2108269 0.21573129 0.084660172
0.23105514 0.21591614 0.087663054
0.43229949 0.21585558 0.086681128
0.23059213 0.23521852 0.075633645
0.25092068 0.23564661 0.081812263
0.39219496 0.2360891 0.088199019
0.41136739 0.23546706 0.079222083
0.27090371 0.25558347 0.0798136
0.39105707 0.25535366 0.076828718
0.29133606 0.27614975 0.085610867
0.37133783 0.27571142 0.080435038
0.35130411 0.31592643 0.080982924
-0.030942112 -0.086323664 0.091433883
0.069800422 -0.025937784 0.094960928
0.089992374 0.01444602 0.094961047
0.06991633 0.034676671 0.089941978
0.069736421 0.054830026 0.097732663
0.049677998 0.075004488 0.092703223
0.049437597 0.095299326 0.10051024
0.25148791 0.21631216 0.094093204
0.39334127 0.21665464 0.09965384
0.41259503 0.21609785 0.090613246
0.27158058 0.23637834 0.092374444
0.37337291 0.23707753 0.10246539
0.29211214 0.25699973 0.098212719
0.37235111 0.25647566 0.091403961
0.35307479 0.27752843 0.10189354
0.35218656 0.29680488 0.091403961
0.31177783 0.3168543 0.090255141
0.25128722 0.33695543 0.089748144
0.27143908 0.33695543 0.089748144
0.29159087 0.33695543 0.089748144
0.31174272 0.33695543 0.089748144
0.35204637 0.33695543 0.089748144
0.37219816 0.33695543 0.089748144
0.39235002 0.33695543 0.089748144
0.41250184 0.33695543 0.089748144
0.11008511 0.014247581 0.10785007
0.089871973 0.034577779 0.10278153
0.11002431 0.034477986 0.11574757
0.089750841 0.054829985 0.11064875
0.069555424 0.075103626 0.10556984
0.069373354 0.095498547 0.11345375
0.23165502 0.19662009 0.10324836
0.25191078 0.19662009 0.10324836
0.27216652 0.19662009 0.10324836
0.29242226 0.19662009 0.10324836
0.31267804 0.19662009 0.10324836
0.33293375 0.19662009 0.10324836
0.3531895 0.19662009 0.10324836
0.37344527 0.19662009 0.10324836
0.39370099 0.19662009 0.10324836
0.41395673 0.19662009 0.10324836
0.43421251 0.19662009 0.10324836
0.27226317 0.21698648 0.10504186
0.37440342 0.21751468 0.11362064
0.29289573 0.23766439 0.11093664
0.35397273 0.25809953 0.11249793
0.31271559 0.29794902 0.10379064
0.33331823 0.33894873 0.10824299
0.13037628 0.014047224 0.12086606
0.13037628 0.034377255 0.12884212
0.10996327 0.054829903 0.12367749
0.089628994 0.075203545 0.11856329
0.08950641 0.095699877 0.12652552
0.29353261 0.21798639 0.12127829
0.31392717 0.21798639 0.12127829
0.33432171 0.21798639 0.12127829
0.35471624 0.21798639 0.12127829
0.35487667 0.23851213 0.123173
0.31374437 0.27894646 0.11863959
0.33482125 0.30016392 0.1277678
0.33406699 0.31962788 0.11796939
0.31450227 0.36170667 0.12957931
0.33495954 0.36170483 0.12956405
0.15093085 0.034275301 0.14206696
0.13037628 0.054829903 0.13686621
0.10990162 0.07530456 0.13168585
0.10983972 0.095903099 0.13972723
0.089383081 0.11631978 0.13453567
0.31478372 0.25972703 0.1336416
0.33558112 0.28055531 0.13763881
0.1098735 0.3623715 0.13533783
0.13037628 0.3629804 0.14060998
0.29459828 0.36274615 0.13858199
0.35603359 0.36254445 0.13683534
0.52102208 0.36323443 0.14281154
0.54056007 0.36246777 0.13617134
0.56060302 0.36213472 0.13328719
0.0064846948 -0.069061637 0.15428102
0.17169084 0.034172732 0.15540838
0.15099324 0.054829903 0.15017128
0.13037628 0.075406514 0.14492345
0.13037628 0.096108273 0.15306091
0.10977744 0.11662641 0.14781749
0.25378186 0.17823559 0.1437583
0.27434862 0.17823477 0.1437428
0.29491511 0.17823409 0.1437273
0.31548139 0.17823343 0.14371192
0.33604744 0.17823268 0.14369631
0.35661325 0.17823188 0.14368081
0.37718025 0.17823188 0.14368081
0.39774725 0.17823188 0.14368081
0.31583494 0.24028873 0.14881456
0.33634669 0.26080033 0.14758372
0.109782 0.34314999 0.14722574
0.13037628 0.34372488 0.15256059
0.5226562 0.3438783 0.15398371
0.54235309 0.34321362 0.14781749
0.56248164 0.34290013 0.14490795
0.15099204 0.36406633 0.15001535
0.27456313 0.36380175 0.14772391
0.37737113 0.36357358 0.14574742
0.50183213 0.36437657 0.15270138
0.10969655 -0.0072092265 0.15832496
0.17181709 0.054829903 0.16360986
0.15105589 0.075509533 0.15830934
0.15111904 0.096315488 0.16651285
0.13037628 0.11693633 0.16123223
0.13037628 0.13789152 0.16945362
0.21309131 0.24093892 0.15819943
0.33711797 0.24089752 0.15760314
0.10968954 0.32375759 0.15923572
0.13037628 0.3242979 0.16463459
0.52430391 0.32435951 0.16524982
0.54416192 0.32379058 0.15956569
0.15108469 0.34474772 0.1620506
0.50331533 0.34489369 0.16340506
0.1718781 0.36609361 0.16757154
0.25464272 0.36549598 0.16239691
0.39944702 0.36529621 0.16066599
0.48324099 0.36618122 0.16833019
0.10960174 0.38722253 0.1706413
0.13037628 0.38722453 0.17065704
0.15115094 0.38722453 0.17065704
0.1719256 0.38722453 0.17065704
0.25502425 0.38722453 0.17065704
0.27579892 0.38722453 0.17065704
0.29657358 0.38722453 0.17065704
0.31734821 0.38722453 0.17065704
0.33812287 0.38722453 0.17065704
0.35889754 0.38722453 0.17065704
0.3796722 0.38722453 0.17065704
0.40044686 0.38722453 0.17065704
0.48354551 0.38722453 0.17065704
0.504318 0.38722253 0.1706413
0.52509248 0.38722253 0.1706413
0.54586703 0.38722253 0.1706413
0.19285099 0.054830026 0.17718399
0.17194366 0.075613692 0.17182982
0.17207123 0.096524909 0.18011618
0.15118258 0.1172488 0.17476642
0.15124662 0.1383113 0.18308675
0.10950212 0.28444576 0.18358254
0.54782748 0.28442812 0.18337464
0.10959625 0.30419025 0.17135429
0.13037628 0.30469352 0.17680192
0.52596802 0.3046774 0.17662704
0.54598659 0.30419612 0.17141771
0.15117817 0.32525447 0.17419446
0.50481254 0.32525611 0.17421031
0.17206681 0.34666371 0.17982912
0.48465815 0.3465915 0.1791594
0.19299987 0.38882232 0.18363059
0.23435946 0.38757607 0.17351174
0.42150521 0.38754871 0.17328954
0.46415415 0.38860777 0.18188822
0.21409762 0.054829985 0.19087946
0.19304276 0.075718835 0.18548715
0.19323605 0.096736535 0.19385779
0.17219959 0.11756496 0.18845367
0.17232876 0.13873492 0.19684243
0.27660063 0.15927596 0.18553531
0.29748884 0.15927528 0.18551934
0.31837678 0.15927467 0.18550324
0.33926451 0.15927401 0.18548715
0.36015198 0.15927352 0.1854713
0.3810392 0.15927286 0.18545532
0.10940713 0.26452151 0.19592214
0.13037628 0.26453641 0.19611585
0.15134692 0.26453641 0.19611585
0.17231756 0.26453641 0.19611585
0.19328821 0.26453641 0.19611585
0.21425885 0.26453641 0.19611585
0.46590656 0.26453641 0.19611585
0.4868772 0.26453641 0.19611585
0.50784785 0.26453641 0.19611585
0.52881849 0.26453641 0.19611585
0.54968226 0.26448298 0.19542193
0.13037628 0.28491125 0.18907964
0.50799549 0.28559721 0.1971817
0.5276438 0.2848269 0.1880846
0.15127288 0.30558902 0.18649662
0.50639725 0.30551067 0.18564737
0.17225701 0.32705474 0.19218266
0.48608676 0.32684392 0.19007576
0.23523632 0.34843808 0.19629335
0.19329007 0.36939895 0.19619656
0.23479636 0.36809024 0.18486273
0.42304784 0.36840659 0.18760324
0.4654122 0.36892605 0.19210231
0.21435639 0.075824991 0.19928348
0.21461676 0.096950211 0.20773947
0.19343057 0.11788434 0.20228004
0.19362627 0.13916333 0.21075475
0.38294443 0.13901936 0.20607984
0.17245896 0.16003665 0.20529962
0.15136844 0.28574374 0.19891131
0.1724492 0.30726749 0.20466602
0.48752692 0.30693629 0.20108068
0.19358259 0.34979269 0.20886326
0.46667978 0.3490954 0.20239353
0.15156692 0.012448769 0.22469413
0.23588786 0.075932257 0.21322083
0.23621604 0.09716592 0.22174704
0.21487877 0.11820686 0.21624804
0.38401544 0.11823969 0.21767402
0.2151424 0.13959609 0.22480965
0.27803701 0.13920747 0.21219122
0.1938232 0.16057488 0.21928215
0.17264292 0.28729641 0.21724761
0.48897877 0.28686684 0.21217489
0.46924186 0.30897915 0.2231952
0.19387823 0.33000514 0.22166479
0.46795493 0.32911262 0.21274686
0.21517083 0.3728095 0.22573328
0.21482733 0.39263412 0.21457815
0.15147683 0.41353932 0.21299183
0.17257714 0.4135372 0.21297538
0.19367605 0.41352862 0.21291006
0.21477598 0.41352862 0.21291006
0.2358759 0.41352862 0.21291006
0.25697583 0.41352862 0.21291006
0.27807575 0.41352862 0.21291006
0.29917568 0.41352862 0.21291006
0.3202756 0.41352862 0.21291006
0.34137553 0.41352862 0.21291006
0.36247545 0.41352862 0.21291006
0.38357538 0.41352862 0.21291006
0.4046753 0.41352862 0.21291006
0.42577523 0.41352862 0.21291006
0.44775698 0.41452813 0.22054684
0.46797711 0.41353077 0.21292651
0.48908356 0.4135372 0.21297538
0.51018852 0.41354153 0.21300828
0.25767869 0.076046951 0.22812712
0.2580384 0.097383961 0.23591542
0.38509253 0.097282737 0.22933388
0.23654753 0.11853266 0.23035955
0.27878094 0.11843193 0.22599721
0.23688048 0.14003323 0.23900974
0.30014333 0.13971348 0.22862291
0.32136309 0.13971299 0.22860622
0.34258384 0.13971299 0.22860622
0.36376536 0.1396987 0.22814357
0.21540767 0.16111921 0.23342478
0.13037628 0.24604946 0.23196602
0.15162289 0.24604946 0.23196602
0.17286927 0.24604844 0.23194933
0.19411498 0.24604604 0.23191643
0.47031808 0.24604721 0.23193276
0.49156877 0.24604946 0.23196602
0.51281536 0.24604946 0.23196602
0.53406203 0.24604946 0.23196602
0.19418931 0.28881106 0.23513448
0.21546032 0.28881106 0.23513448
0.47053862 0.2886917 0.23372352
0.19417857 0.31003904 0.23466957
0.21551712 0.35282275 0.23697937
0.4491674 0.37362102 0.23276162
0.44846064 0.3941198 0.2266407
0.38727593 0.054829944 0.25296986
0.38617882 0.076146737 0.24109328
0.27953333 0.097446308 0.23995948
0.36576653 0.097628132 0.2517761
0.25843954 0.11886154 0.2446003
0.30162406 0.11904778 0.25266719
0.36476311 0.11875367 0.23992598
0.23721552 0.16166921 0.24771428
0.21567461 0.18277748 0.24209428
0.21586573 0.33267066 0.24830091
0.45001391 0.35315847 0.24009275
0.3883794 0.033329695 0.26491511
0.28029248 0.07624653 0.25404716
0.36677861 0.076321051 0.26372802
0.34519488 0.11927557 0.2625246
0.25884321 0.14047457 0.25334013
0.25925022 0.16222487 0.26215208
0.23755266 0.18344171 0.25647366
0.21621773 0.31235424 0.2597326
0.13037628 0.44113517 0.25986791
0.15181272 0.4406859 0.25662553
0.17324892 0.44068369 0.25660861
0.19468445 0.44067892 0.25657487
0.21612051 0.44067892 0.25657487
0.23755656 0.44067892 0.25657487
0.25899261 0.44067892 0.25657487
0.28042865 0.44067892 0.25657487
0.30186474 0.44067892 0.25657487
0.32330078 0.44067892 0.25657487
0.34473684 0.44067892 0.25657487
0.36617291 0.44067892 0.25657487
0.38760895 0.44067892 0.25657487
0.40904501 0.44067892 0.25657487
0.43048105 0.44067892 0.25657487
0.45191711 0.44067892 0.25657487
0.47335526 0.44068125 0.25659168
0.49479365 0.44068369 0.25660861
0.51623464 0.44068834 0.25664234
0.21683429 -0.096471578 0.27975595
0.2384488 -0.096471578 0.27975595
0.26006329 -0.096471578 0.27975595
0.28167781 -0.096471578 0.27975595
0.3032923 -0.096471578 0.27975595
0.32490683 -0.096471578 0.27975595
0.34652132 -0.096471578 0.27975595
0.36813584 -0.096471578 0.27975595
0.38975033 -0.096471578 0.27975595
0.41136485 -0.096471578 0.27975595
0.43297935 -0.096471578 0.27975595
0.2384772 -0.074891165 0.28049362
0.26009738 -0.074891165 0.28049362
0.28171754 -0.074891165 0.28049362
0.30333775 -0.074891165 0.28049362
0.32495791 -0.074891165 0.28049362
0.34657812 -0.074891165 0.28049362
0.36819828 -0.074891165 0.28049362
0.38981849 -0.074891165 0.28049362
0.41143864 -0.074891165 0.28049362
0.38949552 0.011643417 0.27699757
0.28105938 0.054829985 0.26827884
0.36779797 0.054829903 0.27576602
0.30250072 0.097861111 0.26690185
0.3461234 0.097979315 0.27458644
0.32444692 0.11952019 0.27311802
0.15194021 0.22734149 0.27318609
0.17350388 0.22734025 0.27316916
0.19506688 0.2273383 0.27313495
0.47539493 0.22733931 0.27315199
0.49696308 0.22734149 0.27318609
0.51804984 0.22712928 0.26974249
0.13037628 0.4212783 0.27212822
0.21724442 -0.11890632 0.29307508
0.43447262 -0.11893938 0.29361176
0.43349215 -0.075076863 0.28451431
0.2385056 -0.053299371 0.28123164
0.26013148 -0.053299371 0.28123164
0.28175732 -0.053299371 0.28123164
0.3033832 -0.053299371 0.28123164
0.32500905 -0.053299371 0.28123164
0.34663492 -0.053299371 0.28123164
0.36826077 -0.053299371 0.28123164
0.38988665 -0.053299371 0.28123164
0.41151252 -0.053299371 0.28123164
0.26016635 -0.031696718 0.28198719
0.28179803 -0.031696718 0.28198719
0.30342972 -0.031696718 0.28198719
0.32506138 -0.031696718 0.28198719
0.34669307 -0.031696718 0.28198719
0.36832476 -0.031696718 0.28198719
0.38995644 -0.031696718 0.28198719
0.26020047 -0.0100821 0.28272593
0.28183785 -0.0100821 0.28272593
0.3034752 -0.0100821 0.28272593
0.32511258 -0.0100821 0.28272593
0.34674996 -0.0100821 0.28272593
0.36838731 -0.0100821 0.28272593
0.39002466 -0.0100821 0.28272593
0.2818777 0.011543911 0.28346515
0.30352074 0.011543911 0.28346515
0.32516378 0.011543911 0.28346515
0.34680685 0.011543911 0.28346515
0.36844993 0.011543911 0.28346515
0.28183413 0.033193156 0.28265703
0.30356735 0.033181027 0.28422189
0.32521623 0.033181027 0.28422189
0.34686512 0.033181027 0.28422189
0.368514 0.033181027 0.28422189
0.30361292 0.054829944 0.28496182
0.32526749 0.054829944 0.28496182
0.34692207 0.054829944 0.28496182
0.30338532 0.076456159 0.28126597
0.32531878 0.076490298 0.28570211
0.34697905 0.076490298 0.28570211
0.32537007 0.098161951 0.28644288
0.10869769 0.44504455 0.28808081
0.54117727 0.44400981 0.28061378
0.21767944 -0.14160214 0.30720282
0.43596184 -0.14161789 0.30743027
0.23909755 -0.11912411 0.29661119
0.26134476 -0.11979468 0.30750024
0.41315585 -0.11918822 0.29765296
0.21733034 -0.075601056 0.29586518
0.23934193 -0.032342579 0.30296016
0.41293529 -0.032111358 0.2954489
0.19555658 0.033103161 0.29433942
0.15214528 0.207213 0.29982567
0.50076365 0.20734246 0.30222809
0.54348409 0.42445287 0.29638565
0.10860152 0.42500082 0.30057395
0.10859348 0.46870324 0.30161846
0.13037628 0.46870324 0.30161846
0.15215908 0.46870324 0.30161846
0.17394188 0.46870324 0.30161846
0.26107308 0.46870324 0.30161846
0.28285587 0.46870324 0.30161846
0.30463868 0.46870324 0.30161846
0.3264215 0.46870324 0.30161846
0.34820431 0.46870324 0.30161846
0.3699871 0.46870324 0.30161846
0.39176989 0.46870324 0.30161846
0.47890109 0.46870324 0.30161846
0.5006839 0.46870324 0.30161846
0.52246672 0.46870324 0.30161846
0.54424953 0.46870324 0.30161846
0.21811938 -0.16452785 0.32149076
0.43746385 -0.16451828 0.32136691
0.23964338 -0.14185089 0.31079197
0.39362031 -0.142603 0.32164955
0.41449529 -0.14186783 0.31103754
0.39237463 -0.1198357 0.30816495
0.26146281 0.011134457 0.31005609
0.15224752 0.1860574 0.31310797
0.50225186 0.1860801 0.31359971
0.17415774 0.20806512 0.31563866
0.19604766 0.20806317 0.31560338
0.21793756 0.20806216 0.31558597
0.48062792 0.20806512 0.31563866
0.24019539 -0.16480832 0.32513368
0.39487621 -0.16558664 0.33524525
0.41588295 -0.16479051 0.32490361
0.26201543 -0.14262871 0.32202053
0.28416502 -0.12092863 0.32591319
0.37194383 -0.12085555 0.32472658
0.21825776 -0.055021826 0.325984
0.43852386 -0.055222761 0.33120263
0.24050638 -0.011248026 0.33321369
0.1523506 0.16470157 0.32649791
0.50374967 0.16464554 0.32504523
0.2185638 -0.18768567 0.33592308
0.24075991 -0.18801396 0.3398
0.39614415 -0.18879063 0.34897125
0.41729492 -0.18794739 0.33901298
0.43898261 -0.18764643 0.33545923
0.26269215 -0.16569659 0.33667254
0.28497604 -0.14394115 0.34096324
0.37305373 -0.14372434 0.3378334
0.41764426 -0.011462677 0.34250391
0.26286885 0.032747813 0.34049797
0.48450297 0.16549443 0.34710002
0.17451321 0.18724068 0.338727
0.48307142 0.18709062 0.33547699
0.28536585 0.49765715 0.34819734
0.30750608 0.4976545 0.34817922
0.35178855 0.4976545 0.34817922
0.37393284 0.49766001 0.34821498
0.26337591 -0.18900268 0.35147607
0.28579563 -0.1671977 0.35617316
0.37417534 -0.16680552 0.35107934
0.35290092 -0.14544222 0.36262953
0.30815566 -0.12294948 0.35872686
0.35192299 -0.12240742 0.34992588
0.21920517 -0.033998851 0.35675228
0.48594841 0.14372297 0.3588357
0.19705862 0.18819462 0.35937953
0.44155857 0.1881938 0.35936129
0.46359125 0.18811597 0.35767591
0.263291 0.49787897 0.34963751
0.39660734 0.49854839 0.35398543
0.35388753 -0.16868131 0.37544572
0.30914688 -0.14628701 0.3748225
0.24169669 0.010301791 0.36413896
0.26430455 0.054829903 0.37158167
0.50988281 0.077153966 0.37191093
0.48741025 0.12177382 0.37070405
0.41970927 0.1661119 0.36313856
0.46495426 0.166356 0.36948001
0.24186432 0.50078219 0.36849403
0.10799009 -0.034714747 0.38000083
0.13037628 -0.034714747 0.38000083
0.15276247 -0.034714747 0.38000083
0.17514865 -0.034714747 0.38000083
0.19753484 -0.034714747 0.38000083
0.44372544 -0.034698453 0.37946737
0.46616909 -0.034714747 0.38000083
0.48855528 -0.034714747 0.38000083
0.51094151 -0.034714747 0.38000083
0.5333277 -0.034714747 0.38000083
0.55571389 -0.034714747 0.38000083
0.13037628 -0.012346383 0.38077354
0.15276842 -0.012346383 0.38077354
0.17516056 -0.012346383 0.38077354
0.19755268 -0.012346383 0.38077354
0.21994483 -0.012346383 0.38077354
0.44386622 -0.012346383 0.38077354
0.46625835 -0.012346383 0.38077354
0.4886505 -0.012346383 0.38077354
0.51104259 -0.012346383 0.38077354
0.53343475 -0.012346383 0.38077354
0.17517246 0.010033816 0.38154674
0.19757055 0.010033816 0.38154674
0.21996865 0.010033816 0.38154674
0.42154962 0.010034062 0.38152826
0.44394955 0.010033816 0.38154674
0.46634763 0.010033816 0.38154674
0.48874342 0.010034062 0.38152826
0.51114142 0.010034062 0.38152826
0.53353935 0.010034062 0.38152826
0.21999189 0.032426104 0.38230205
0.24239579 0.032426104 0.38230205
0.42162701 0.032426104 0.38230205
0.44403291 0.032425899 0.3823204
0.46643484 0.032426104 0.38230205
0.48883873 0.032426104 0.38230205
0.51124263 0.032426104 0.38230205
0.24242559 0.054829944 0.38307607
0.42170447 0.054829944 0.38307607
0.44411635 0.054829944 0.38309455
0.46652421 0.054829944 0.38307607
0.48893407 0.054829944 0.38307607
0.51134151 0.054829862 0.38305759
0.42178199 0.07724575 0.38385046
0.44419783 0.07724575 0.38385046
0.46661362 0.07724575 0.38385046
0.48902944 0.07724575 0.38385046
0.42185953 0.09967348 0.3846252
0.44428131 0.09967348 0.3846252
0.46670312 0.09967348 0.3846252
0.48887733 0.099642649 0.38261521
0.42193526 0.1221128 0.38538206
0.44436488 0.12211329 0.38540065
0.46679264 0.12211329 0.38540065
0.42124769 0.14432886 0.37851131
0.44444847 0.14456494 0.38617611
0.46633488 0.14441894 0.38143635
0.4445321 0.1670284 0.3869524
0.24232492 0.48023483 0.38046074
0.42148513 0.50268972 0.38088405
0.33282012 -0.12512015 0.39397442
0.10787136 -0.057694633 0.39542389
0.13037628 -0.05794346 0.40188909
0.53569931 -0.057759877 0.39711654
0.55770612 -0.057625216 0.3936218
0.42297742 0.48247769 0.39579558
0.22063816 0.50613946 0.40329039
0.22042516 0.52758658 0.39637232
0.24293737 0.52758658 0.39637232
0.26545045 0.52758944 0.3963908
0.28796279 0.52758944 0.3963908
0.35549989 0.52758944 0.3963908
0.37801224 0.52758944 0.3963908
0.40052289 0.52758658 0.39637232
0.42303509 0.52758658 0.39637232
0.33364826 -0.14844203 0.40592825
0.10776106 -0.08086136 0.40975308
0.13037628 -0.08116281 0.41628206
0.53764546 -0.080926403 0.41116178
0.55975544 -0.080763444 0.40763307
0.15302725 -0.05842502 0.4143976
0.51442027 -0.058124091 0.40658379
0.56025231 -0.013045166 0.41103017
0.2209999 0.48529214 0.41503811
0.10764952 -0.10425739 0.4242425
0.13037628 -0.10461275 0.43083584
0.53961039 -0.10431664 0.42534244
0.56182176 -0.10412364 0.42176068
0.15313974 -0.081750825 0.42900896
0.51618612 -0.081338257 0.42007697
0.49364287 -0.058690827 0.42130649
0.53958154 0.032096267 0.42513382
0.10753702 -0.12788421 0.43885624
0.54159439 -0.12793358 0.43966055
0.15325333 -0.10530937 0.44376612
0.5179683 -0.10476686 0.43369532
0.4952369 -0.081992671 0.43424881
0.17602122 -0.059282426 0.43667507
0.47351435 -0.059549298 0.44361234
0.13037628 -0.1282955 0.44553459
0.51976955 -0.12841392 0.44745898
0.49684504 -0.10550021 0.44730508
0.17625257 -0.082798913 0.45170212
0.47493309 -0.082992867 0.45589912
0.17648628 -0.10655504 0.46688235
0.47636363 -0.10663074 0.46828794
0.1999287 -0.061090756 0.48365772
0.20029929 -0.085016087 0.49970448
0.5480684 0.054829944 0.48638296
0.52680248 0.10146832 0.5012008
0.55691487 0.078526497 0.55022669
0 0 0 1 0 0 0 1 0 0 0 1 0 0 0 0 0 1108 1 0 0
