ply
format ascii 1.0
comment PCL generated
element vertex 197
property float x
property float y
property float z
element camera 1
property float view_px
property float view_py
property float view_pz
property float x_axisx
property float x_axisy
property float x_axisz
property float y_axisx
property float y_axisy
property float y_axisz
property float z_axisx
property float z_axisy
property float z_axisz
property float focal
property float scalex
property float scaley
property float centerx
property float centery
property int viewportx
property int viewporty
property float k1
property float k2
end_header
0.1207044 -0.10725337 -0.23614693
0.13856842 -0.10776486 -0.22507125
0.12070553 -0.090668641 -0.23613632
0.13856842 -0.091094509 -0.22507125
0.12070553 -0.074083462 -0.23613626
0.13856842 -0.07442417 -0.22507125
0.12070553 -0.057498228 -0.23613632
0.13856964 -0.057754092 -0.22506058
0.12070553 -0.040913109 -0.23613626
0.13857086 -0.041083854 -0.22504985
0.12070553 -0.02432787 -0.23613632
0.13857208 -0.024413303 -0.2250393
0.12070553 -0.0077427505 -0.23613626
0.13857208 -0.0077427505 -0.2250393
0.15519421 -0.0077427505 -0.22543293
0.12070553 0.008842486 -0.23613644
0.13857208 0.0089278398 -0.22503924
0.1551929 0.0089247478 -0.22544354
0.12070553 0.025427643 -0.23613626
0.13857086 0.02559831 -0.22504997
0.12070553 0.042012841 -0.23613632
0.13856964 0.042268589 -0.22506052
0.1207044 0.058597647 -0.23614681
0.13856842 0.058938749 -0.22507125
0.12070553 0.075183198 -0.23613632
0.13856842 0.075609103 -0.22507113
0.12114231 0.091955498 -0.23208344
0.13856964 0.092280008 -0.22506058
0.12175018 0.10887589 -0.22644323
0.13856964 0.1089504 -0.22506058
0.1056599 -0.10796439 -0.22075212
0.15661572 -0.10828128 -0.2138918
0.1056599 -0.091260768 -0.22075212
0.15661572 -0.091524817 -0.21389186
0.1056599 -0.074557155 -0.22075224
0.15661572 -0.074768402 -0.2138918
0.1056599 -0.057853531 -0.22075212
0.15661703 -0.058012225 -0.21388113
0.1056599 -0.041149914 -0.22075212
0.15661703 -0.041255657 -0.21388113
0.1056599 -0.024446372 -0.22075212
0.15661703 -0.024499282 -0.21388102
0.1056599 -0.0077427896 -0.22075212
0.17333134 -0.0077427505 -0.2142036
0.1056599 0.0089609092 -0.22075224
0.1733299 0.009011236 -0.21421432
0.1056599 0.025664527 -0.22075212
0.15661837 0.025770467 -0.21387029
0.1056599 0.042368069 -0.22075212
0.15661703 0.042526759 -0.21388108
0.10571767 0.059089497 -0.22017509
0.15661703 0.059283294 -0.21388108
0.10628943 0.076017395 -0.21446162
0.15661703 0.076039784 -0.21388113
0.15661703 0.092796355 -0.21388113
0.15661703 0.1095528 -0.21388102
0.1748503 -0.10880297 -0.20259649
0.17485173 -0.091959961 -0.20258552
0.17485173 -0.075116545 -0.20258552
0.17485173 -0.058273058 -0.20258552
0.17485316 -0.041429844 -0.20257473
0.17485456 -0.024586357 -0.20256376
0.17485456 0.02594446 -0.20256376
0.17485316 0.04278791 -0.20257467
0.17485173 0.059631124 -0.20258552
0.17485316 0.076474927 -0.20257461
0.10686313 0.093034215 -0.20872885
0.17485173 0.093318023 -0.20258552
0.10743769 0.11013975 -0.20298743
0.17485173 0.11016155 -0.20258552
0.091117382 -0.10904495 -0.19735783
0.19327666 -0.10933059 -0.19117224
0.091117382 -0.092161268 -0.19735783
0.19327666 -0.092399329 -0.19117224
0.091117382 -0.075277552 -0.19735783
0.19327666 -0.075467937 -0.1911723
0.091117382 -0.058393829 -0.19735771
0.19327666 -0.058536634 -0.1911723
0.091117382 -0.04151015 -0.19735771
0.19327818 -0.041605521 -0.19116122
0.091117382 -0.02462643 -0.19735771
0.19327818 -0.024674095 -0.19116133
0.091117382 -0.0077426722 -0.19735789
0.19327818 -0.0077426722 -0.19116127
0.091117382 0.0091410084 -0.19735783
0.19327818 0.0091886735 -0.19116127
0.091117382 0.026024725 -0.19735783
0.19327818 0.026120018 -0.19116122
0.091117382 0.042908404 -0.19735783
0.19327818 0.043051522 -0.19116127
0.091191024 0.059816584 -0.19656062
0.19327818 0.059982903 -0.19116127
0.091729343 0.076930769 -0.19073296
0.19327666 0.076913826 -0.19117224
0.092268512 0.094135083 -0.18489647
0.076257855 -0.11014903 -0.17345357
0.076257855 -0.093081333 -0.17345351
0.076257855 -0.07601364 -0.17345351
0.076257855 -0.058945905 -0.17345351
0.076257855 -0.041878175 -0.17345351
0.076257855 -0.024810445 -0.17345339
0.076257855 -0.0077427505 -0.17345339
0.076257855 0.0093249017 -0.17345351
0.076257855 0.026392713 -0.17345357
0.076257855 0.043460444 -0.17345357
0.076344788 0.060559757 -0.17242664
0.092810526 0.11143089 -0.17902881
0.063306361 -0.0077427113 -0.11998224
0.063197449 0.0097256443 -0.12139702
0.065113738 -0.025402751 -0.096503675
0.047583699 -0.0077427505 -0.094626784
0.04748182 0.0099204974 -0.096097469
0.064623192 0.027479332 -0.10287601
0.049269915 -0.025604568 -0.07028842
0.031505913 -0.0077427896 -0.068698764
0.031411037 0.010119538 -0.070239544
0.048823327 0.027881756 -0.076734066
0.033069804 -0.025812376 -0.043304443
0.015061542 -0.0077427113 -0.042165995
0.014974594 0.010323117 -0.043779492
0.032658994 0.02829377 -0.049975514
0.016514003 -0.026028559 -0.01521194
-0.0017635748 -0.0077427896 -0.01503253
-0.0018410161 0.010531629 -0.016709208
0.01611571 0.028715216 -0.022603393
-0.019049093 0.010744835 0.010993004
-0.00081907213 0.02914656 0.0054166317
-0.00044288486 -0.026250102 0.013561249
-0.018982038 -0.0077427505 0.012735248
-0.018158898 0.02958855 0.034120798
-0.017815597 -0.026477005 0.043040037
-0.03660778 -0.0077427113 0.041159749
-0.036663942 0.010963014 0.039335966
-0.035919651 0.03004095 0.063507438
-0.035619639 -0.026709624 0.073250771
-0.054655444 -0.0077427505 0.070264697
-0.054699209 0.011186591 0.068369389
-0.053871255 -0.026948035 0.10422087
-0.073140129 -0.0077427113 0.10008883
-0.073170662 0.011415414 0.098105073
-0.054116182 0.030504387 0.093615174
-0.092078462 -0.0077427113 0.13063025
-0.092094332 0.011650027 0.12856901
-0.072764516 0.030979682 0.12448525
-0.072587773 -0.027192354 0.13596499
-0.091882266 0.031466752 0.15611732
-0.091786504 -0.027443167 0.16855705
-0.11148702 -0.0077427113 0.1619302
-0.11148702 0.011890237 0.15978777
-0.13138352 -0.0077427896 0.19401681
-0.13136649 0.012136751 0.19180524
-0.11148702 0.031966195 0.18855536
-0.11148702 -0.027700558 0.2019856
-0.13160311 0.032489467 0.22254288
-0.15178661 -0.0077426722 0.2269206
-0.15175216 0.012389758 0.22468328
-0.13171214 -0.02796793 0.23670638
-0.17271625 -0.0077427113 0.26068866
-0.1726636 0.012649416 0.25840938
-0.15225866 0.033028942 0.25758159
-0.15256205 -0.028280225 0.2772876
-0.19419244 -0.0077426722 0.29532313
-0.19412142 0.012915886 0.29301655
-0.17347604 0.033583291 0.29358864
-0.17405693 -0.028599333 0.31874216
-0.21623784 -0.0077427113 0.33089149
-0.21614799 0.013189518 0.3285569
-0.19527835 0.034152899 0.3305887
-0.23876497 0.013470273 0.36503375
-0.23887412 -0.0077427113 0.36739683
-0.21768945 0.034738239 0.36860573
-0.26212591 -0.0077427505 0.40489507
-0.26199701 0.013758776 0.40250278
-0.24073564 0.035340097 0.4077003
-0.28601986 -0.0077427505 0.44344521
-0.28587067 0.014055262 0.44102287
-0.26444426 0.035959329 0.44791818
-0.31058067 -0.0077428287 0.48305464
-0.31041071 0.014359889 0.48060179
-0.28894174 0.036620945 0.4908911
-0.33583924 -0.0077427505 0.5238061
-0.33564651 0.014673281 0.52130246
-0.31460509 0.037394565 0.54114234
-0.3616097 0.014995675 0.56319356
-0.36182284 -0.0077426722 0.56571043
-0.38856453 -0.0077428287 0.60883737
-0.38832897 0.01532746 0.60628712
-0.41610008 -0.0077428287 0.65326202
-0.41583937 0.015668951 0.65065682
-0.44446123 -0.0077426722 0.69900084
-0.44417661 0.016020853 0.69635999
-0.47368771 -0.0077427505 0.746135
-0.47337854 0.01638332 0.74345791
-0.50382257 -0.0077427505 0.79475307
-0.50348252 0.016756903 0.79199219
-0.53490317 -0.0077428287 0.84487772
-0.5345366 0.017142463 0.84207678
0 0 0 1 0 0 0 1 0 0 0 1 0 0 0 0 0 197 1 0 0
