ply
format ascii 1.0
comment PCL generated
element vertex 340
property float x
property float y
property float z
element camera 1
property float view_px
property float view_py
property float view_pz
property float x_axisx
property float x_axisy
property float x_axisz
property float y_axisx
property float y_axisy
property float y_axisz
property float z_axisx
property float z_axisy
property float z_axisz
property float focal
property float scalex
property float scaley
property float centerx
property float centery
property int viewportx
property int viewporty
property float k1
property float k2
end_header
0.038227145 -0.097278759 -0.12021452
0.053192794 -0.096852779 -0.12943703
0.068016455 -0.09716107 -0.12276232
0.038227145 -0.082384117 -0.12021458
0.053192794 -0.082029164 -0.12943703
0.068016455 -0.082285978 -0.12276232
0.038227145 -0.06748943 -0.12021452
0.053192794 -0.067205474 -0.12943697
0.068016455 -0.067410916 -0.12276232
0.038227145 -0.052594718 -0.12021464
0.053192794 -0.052381758 -0.12943691
0.068016455 -0.052535854 -0.12276232
0.038227145 -0.037700072 -0.12021458
0.053192794 -0.037558079 -0.12943703
0.068016455 -0.03766093 -0.12276226
0.038227145 -0.022805458 -0.12021458
0.053192873 -0.022734394 -0.12944692
0.068016455 -0.022785902 -0.12276226
0.038227145 -0.0079108104 -0.12021458
0.053192873 -0.0079108104 -0.12944692
0.068016455 -0.0079108104 -0.1227622
0.038227145 0.0069838688 -0.12021452
0.053192873 0.0069127735 -0.12944692
0.068016455 0.0069642486 -0.1227622
0.038227145 0.021878514 -0.12021458
0.053192873 0.021736357 -0.12944698
0.068016455 0.021839276 -0.12276226
0.038227145 0.036773097 -0.12021452
0.053192873 0.036559943 -0.12944698
0.068016455 0.036714267 -0.12276232
0.038227145 0.051667776 -0.12021458
0.053192873 0.051383592 -0.12944698
0.068016455 0.051589329 -0.12276226
0.038227145 0.066562518 -0.12021464
0.053192873 0.06620717 -0.12944698
0.068016455 0.066464417 -0.12276226
0.038227145 0.081457168 -0.12021458
0.053192873 0.081030689 -0.12944692
0.068016455 0.081339478 -0.12276226
0.038227301 0.096351251 -0.12022465
0.053192873 0.095854275 -0.12944692
0.068016455 0.096214503 -0.12276226
0.023117222 -0.097709328 -0.11089319
0.023117222 -0.082742855 -0.11089319
0.023117222 -0.067776456 -0.11089319
0.023117222 -0.052810017 -0.11089331
0.023117222 -0.037843581 -0.11089325
0.023117222 -0.022877179 -0.11089325
0.023117222 -0.0079108104 -0.11089325
0.023117222 0.0070555918 -0.11089325
0.023117457 0.02202186 -0.11090338
0.023117457 0.036988199 -0.11090338
0.023117457 0.051954534 -0.11090344
0.023117457 0.066920869 -0.11090344
0.023117457 0.081887171 -0.11090332
0.023117457 0.09685351 -0.11090332
0.0078610107 -0.09814395 -0.10148162
0.083080366 -0.098294251 -0.098227799
0.0078610107 -0.083105132 -0.1014815
0.083080366 -0.083230309 -0.098227859
0.0078613274 -0.068065882 -0.10149187
0.083080366 -0.068166494 -0.098227799
0.0078613274 -0.053027194 -0.10149181
0.083080366 -0.053102579 -0.098227799
0.0078613274 -0.03798838 -0.10149181
0.083080366 -0.0380386 -0.098227859
0.0078613274 -0.022949528 -0.10149187
0.083080366 -0.022974657 -0.098227799
0.083080366 -0.0079108104 -0.098227799
0.0078613274 -0.0079107778 -0.10149181
0.0078613274 0.0071279733 -0.10149187
0.083080366 0.0071531348 -0.098227799
0.0078613274 0.022166759 -0.10149181
0.083080366 0.022217013 -0.098227799
0.0078613274 0.037205543 -0.10149181
0.083080366 0.037280858 -0.098227739
0.007861644 0.052243996 -0.10150206
0.083080366 0.052344803 -0.098227799
0.0078613274 0.067283109 -0.10149187
0.083080366 0.067408748 -0.098227799
0.0078613274 0.08232189 -0.10149187
0.083080366 0.082472689 -0.098227859
0.0078613274 0.097360611 -0.10149187
0.083080366 0.097536504 -0.098227799
-0.007543236 -0.098582461 -0.091988802
-0.007543236 -0.083470434 -0.091988802
-0.007543236 -0.068358511 -0.091988802
-0.007543236 -0.053246617 -0.091988802
-0.007543236 -0.038134661 -0.091988742
-0.007543236 -0.023022734 -0.091988742
-0.007543236 -0.0079108439 -0.091988742
-0.007543236 0.0072010476 -0.091988802
-0.007543236 0.022313103 -0.091988802
-0.0075428262 0.037424766 -0.091999173
-0.0075428262 0.052536592 -0.091999054
-0.0075428262 0.067648478 -0.091999054
-0.0075428262 0.082760371 -0.091999054
-0.0075428262 0.097872227 -0.091999173
-0.023098387 -0.099025622 -0.082392812
-0.023098387 -0.083839864 -0.082392693
-0.023098387 -0.068654038 -0.082392812
-0.023097418 -0.053467721 -0.082413733
-0.023098387 -0.038282424 -0.082392752
-0.023098387 -0.023096602 -0.082392812
-0.023097903 -0.0079107778 -0.082403302
-0.023097903 0.0072749127 -0.082403243
-0.023097418 0.022460472 -0.082413733
-0.023097418 0.0376461 -0.082413733
-0.023097903 0.052832119 -0.082403243
-0.023097903 0.06801784 -0.082403243
-0.023097903 0.083203562 -0.082403183
-0.023097903 0.09838929 -0.082403302
-0.038805798 -0.099472776 -0.072713137
0.098531723 -0.099456616 -0.073062241
-0.038805798 -0.084212393 -0.072713137
0.098531723 -0.084199004 -0.073062241
-0.038805798 -0.068952076 -0.072713137
0.098531723 -0.068941325 -0.073062241
-0.038805798 -0.053691756 -0.072713137
0.098531723 -0.053683709 -0.073062241
-0.038805798 -0.038431477 -0.072713017
0.098531723 -0.038426068 -0.073062301
-0.038805798 -0.02317116 -0.072713137
0.098531723 -0.023168456 -0.07306236
-0.038805798 -0.0079108104 -0.072712958
0.098531723 -0.0079107778 -0.073062301
-0.03880465 0.0073493728 -0.072734296
0.098531723 0.0073468005 -0.073062241
-0.03880465 0.022609524 -0.072734296
0.098531723 0.022604477 -0.073062241
-0.038805798 0.037870135 -0.072713017
0.098531723 0.037862092 -0.073062241
-0.038805224 0.053130221 -0.072723687
0.098531723 0.053119734 -0.073062301
-0.038805224 0.068390399 -0.072723746
0.098531723 0.068377346 -0.07306236
-0.038805224 0.083650619 -0.072723687
0.098531723 0.083634958 -0.07306236
-0.038805224 0.098910838 -0.072723687
0.098531723 0.098892666 -0.073062301
-0.070688382 -0.10038073 -0.053055167
-0.054668769 -0.099924743 -0.062927186
-0.070689127 -0.084969513 -0.053044319
-0.054668769 -0.084589072 -0.062927246
-0.070689127 -0.069557741 -0.053044319
-0.054668769 -0.069253378 -0.062927246
-0.070689127 -0.054146033 -0.053044319
-0.054668769 -0.053917706 -0.062927246
-0.070689127 -0.038734324 -0.053044319
-0.054668769 -0.038582142 -0.062927186
-0.054668106 -0.023246411 -0.062937915
-0.070688382 0.022912506 -0.053055167
-0.054668106 0.022760291 -0.062937975
-0.070688382 0.03832408 -0.053055108
-0.054668106 0.038095858 -0.062937915
-0.070688382 0.053735789 -0.053055108
-0.054668106 0.053431489 -0.062937915
-0.070688382 0.06914749 -0.053055108
-0.054668106 0.068766989 -0.062937915
-0.070688382 0.084559001 -0.053055048
-0.054668106 0.084102616 -0.062937975
-0.070687622 0.099970117 -0.053065836
-0.054668106 0.099438153 -0.062937915
-0.08686839 -0.10084173 -0.043073714
0.11438566 -0.10064922 -0.047241151
-0.08686839 -0.085353255 -0.043073773
0.11438566 -0.085192829 -0.047241151
-0.08686839 -0.069864742 -0.043073773
0.11438566 -0.069736473 -0.047241151
-0.08686839 -0.054376267 -0.043073773
0.11438566 -0.054280013 -0.047241092
-0.08686839 -0.038887795 -0.043073773
0.11438566 -0.038823623 -0.047241092
-0.08686839 -0.023399319 -0.043073773
-0.071287066 -0.023388997 -0.044413984
0.11438566 -0.023367267 -0.047241151
-0.086866722 -0.0079108439 -0.043095469
0.11438566 -0.0079108104 -0.047241032
-0.086865872 0.0075774994 -0.043106496
0.11438566 0.0075455792 -0.047241092
-0.08686839 0.023066204 -0.043073773
0.11438566 0.023001935 -0.047241092
-0.086867556 0.038554419 -0.043084681
0.11438566 0.038458392 -0.047241151
-0.086867556 0.054042861 -0.043084681
0.11438566 0.053914849 -0.047241151
-0.086867556 0.069531135 -0.043084621
0.11438566 0.069371231 -0.047241151
-0.086867556 0.085019641 -0.043084621
0.11438566 0.084827594 -0.047241151
-0.086867556 0.10050802 -0.043084741
0.11438542 0.10028342 -0.047252119
-0.10321055 -0.10130735 -0.032992363
-0.10321055 -0.085741252 -0.032992363
-0.10321055 -0.070175178 -0.032992363
-0.10321055 -0.054609045 -0.032992423
-0.10321055 -0.039042979 -0.032992423
-0.10320963 -0.023476847 -0.03300339
-0.10320963 -0.0079108439 -0.03300339
-0.10320869 0.0076551242 -0.033014417
-0.10320869 0.023221061 -0.033014476
-0.10320869 0.038786963 -0.033014297
-0.10320963 0.054353196 -0.03300333
-0.10320963 0.069919229 -0.03300339
-0.10320963 0.085485257 -0.03300339
-0.10320963 0.10105123 -0.03300339
-0.11971629 -0.10177716 -0.022820592
0.13065781 -0.10187282 -0.02074939
-0.11971629 -0.086132772 -0.022820592
0.13065781 -0.086212538 -0.02074945
-0.11971629 -0.070488453 -0.022820532
0.13065781 -0.070552163 -0.020749271
-0.11971629 -0.054843996 -0.022820652
0.13065781 -0.05489178 -0.02074939
-0.11971629 -0.039199613 -0.022820532
0.13065781 -0.039231502 -0.02074939
-0.11971629 -0.023555163 -0.022820592
0.13065781 -0.023571122 -0.02074945
-0.11971629 -0.0079108104 -0.022820592
-0.072646827 -0.0079108439 -0.024787545
0.13065781 -0.0079107778 -0.02074945
-0.11971629 0.0077335415 -0.022820532
-0.072394967 0.0076904744 -0.028422713
0.13065781 0.0077495342 -0.02074945
-0.11971422 0.023377631 -0.022842824
0.13065781 0.023409914 -0.02074945
-0.11971524 0.039022181 -0.022831678
0.13065781 0.039070226 -0.02074945
-0.11971524 0.054666501 -0.022831678
0.13065781 0.054730568 -0.020749271
-0.11971524 0.070310682 -0.022831678
0.13065781 0.07039088 -0.020749271
-0.11971524 0.085955001 -0.022831678
0.13065781 0.086051188 -0.020749271
-0.11971524 0.10159928 -0.022831678
0.13065781 0.1017116 -0.020749271
-0.13639002 -0.10225224 -0.012534678
-0.13639002 -0.086528681 -0.012534678
-0.13639002 -0.070805088 -0.012534678
-0.13639002 -0.055081524 -0.012534678
-0.13639002 -0.03935793 -0.012534678
-0.1363889 -0.023634337 -0.012545824
-0.1363889 -0.0079108104 -0.012545824
-0.1363889 0.0078126835 -0.012545943
-0.1363889 0.023536179 -0.012545824
-0.13638778 0.039259341 -0.01255703
-0.1363889 0.054983135 -0.012545943
-0.1363889 0.070706621 -0.012545824
-0.1363889 0.086430147 -0.012545824
-0.1363889 0.10215355 -0.012545824
-0.15323219 -0.10273167 -0.0021554232
-0.15323219 -0.086928144 -0.0021554828
-0.15323219 -0.071124688 -0.0021554828
-0.15323219 -0.055321224 -0.0021553636
-0.15323219 -0.039517697 -0.0021554828
-0.15323219 -0.023714304 -0.0021554232
-0.15323219 -0.0079108104 -0.0021555424
-0.0584407 -0.0079108104 -0.0016785264
-0.15323219 0.0078926487 -0.0021554232
-0.058211029 0.0078676203 -0.0054081678
-0.15323219 0.023696177 -0.0021555424
-0.15323219 0.039499637 -0.0021554232
-0.15323097 0.055302735 -0.002166748
-0.15323219 0.071106583 -0.0021554232
-0.15323097 0.086909451 -0.002166748
-0.15323097 0.10271285 -0.002166748
-0.1702477 -0.10321648 0.0083412528
-0.1702477 -0.087332167 0.0083411932
-0.1702477 -0.071447916 0.0083411932
-0.1702477 -0.055563629 0.0083411932
-0.1702477 -0.039679378 0.0083412528
-0.1702477 -0.023795061 0.0083411932
-0.1702477 -0.0079108104 0.0083411932
-0.17024639 0.0079733739 0.0083297491
-0.17024639 0.02385756 0.0083298087
-0.17024639 0.039741777 0.0083298087
-0.17024639 0.055626031 0.0083296895
-0.17024639 0.071510211 0.0083297491
-0.17024639 0.087394364 0.0083296895
-0.17024639 0.10327855 0.0083298087
-0.18743812 -0.10370634 0.018945873
-0.18743671 -0.087739915 0.01893419
-0.18743671 -0.07177408 0.01893419
-0.18743671 -0.055808309 0.018934131
-0.18743671 -0.039842475 0.01893419
-0.18743671 -0.023876611 0.01893419
-0.18743671 -0.0079108439 0.01893425
-0.18743671 0.0080550546 0.01893419
-0.18743671 0.024020791 0.01893419
-0.18743671 0.039986689 0.01893419
-0.18743671 0.055952456 0.01893425
-0.18743671 0.071918286 0.01893419
-0.18743671 0.087884121 0.018934309
-0.18743671 0.10384992 0.01893419
-0.20480461 -0.10420055 0.029648185
-0.20480461 -0.088152312 0.029648185
-0.20480461 -0.072104 0.029648244
-0.20480461 -0.056055758 0.029648244
-0.20480461 -0.040007386 0.029648185
-0.20480461 -0.023959082 0.029648244
-0.20480461 -0.0079108104 0.029648244
-0.20480461 0.0081374617 0.029648304
-0.20480461 0.024185803 0.029648185
-0.20480309 0.04023381 0.029636562
-0.20480309 0.056282017 0.029636562
-0.20480309 0.072330289 0.029636562
-0.20480309 0.088378429 0.029636443
-0.20480309 0.10442667 0.029636502
0.15725864 -0.0079108439 0.26349324
0.15746309 0.0099785673 0.26880473
0.17656174 -0.0079107778 0.29498762
0.17681587 0.01022249 0.3004896
0.19639814 -0.0079108439 0.32738
0.19670367 0.01047304 0.33305019
0.21678899 -0.0079107117 0.36067778
0.21714996 0.010730977 0.36653918
0.23775902 -0.0079107117 0.39493591
0.23817672 0.01099597 0.4009648
0.25933108 -0.0079107778 0.43016273
0.25980991 0.011268483 0.43638343
0.28153253 -0.0079107778 0.46641725
0.28207767 0.011549239 0.47285563
0.30439293 -0.0079107778 0.50376326
0.3050054 0.011838238 0.5103938
0.32793885 -0.0079107117 0.54221362
0.32862431 0.012135944 0.5490635
0.35220319 -0.0079109101 0.58183748
0.35296822 0.012442752 0.58893591
0.37722158 -0.0079109101 0.62270814
0.3780669 0.01275912 0.63002867
0.40302527 -0.0079109753 0.66484588
0.40395802 0.013085383 0.67241877
0.42965406 -0.0079108439 0.70833069
0.43068248 0.013422462 0.71618944
0.457151 -0.0079108439 0.75324994
0.45827568 0.013770225 0.76136667
0.4855535 -0.0079108439 0.79963166
0.4867835 0.014129662 0.80804116
0.51491338 -0.0079108439 0.84759396
0.51625556 0.014501101 0.85631174
0 0 0 1 0 0 0 1 0 0 0 1 0 0 0 0 0 340 1 0 0
