ply
format ascii 1.0
comment PCL generated
element vertex 190
property float x
property float y
property float z
element camera 1
property float view_px
property float view_py
property float view_pz
property float x_axisx
property float x_axisy
property float x_axisz
property float y_axisx
property float y_axisy
property float y_axisz
property float z_axisx
property float z_axisy
property float z_axisz
property float focal
property float scalex
property float scaley
property float centerx
property float centery
property int viewportx
property int viewporty
property float k1
property float k2
end_header
-0.14113234 -0.11050938 -0.23497123
-0.12297262 -0.10999227 -0.24616671
-0.14113234 -0.093642406 -0.23497123
-0.12297262 -0.093211457 -0.24616671
-0.14113234 -0.076775454 -0.23497123
-0.12297262 -0.076430723 -0.24616677
-0.14113234 -0.059908438 -0.23497111
-0.12297262 -0.059649911 -0.24616677
-0.14113234 -0.043041464 -0.23497123
-0.12297262 -0.042869098 -0.24616677
-0.14113234 -0.026174486 -0.23497123
-0.12297262 -0.026088286 -0.24616677
-0.15794717 -0.009307513 -0.23536956
-0.14113234 -0.009307513 -0.23497111
-0.12297262 -0.009307473 -0.24616671
-0.15794717 0.0075563723 -0.23536944
-0.14113234 0.0075594233 -0.23497123
-0.12297262 0.0074733393 -0.24616671
-0.14113234 0.024426438 -0.23497111
-0.12297262 0.02425411 -0.24616671
-0.14113234 0.04129333 -0.23497111
-0.12297262 0.041034844 -0.24616671
-0.14113234 0.05816035 -0.23497111
-0.12297262 0.057815656 -0.24616671
-0.141131 0.075027004 -0.23498195
-0.1230243 0.07461369 -0.2457189
-0.141131 0.091893785 -0.23498189
-0.12368105 0.091660559 -0.24003136
-0.141131 0.10876068 -0.23498189
-0.12434123 0.10879671 -0.23431408
-0.15947954 -0.11103182 -0.22366005
-0.10808742 -0.11080468 -0.22857755
-0.15947954 -0.094077773 -0.22365993
-0.10808742 -0.093888462 -0.22857767
-0.15947954 -0.077123709 -0.22365993
-0.10808742 -0.076972328 -0.22857767
-0.15947954 -0.060169738 -0.22366005
-0.10808742 -0.060056135 -0.22857755
-0.15947954 -0.04321561 -0.22366011
-0.10808742 -0.04313986 -0.22857773
-0.15947954 -0.026261561 -0.22366011
-0.10808742 -0.026223708 -0.22857755
-0.17638536 -0.0093075521 -0.22400808
-0.10808742 -0.0093075922 -0.22857755
-0.17638536 0.007643803 -0.22400808
-0.10808742 0.0076087201 -0.22857767
-0.15947811 0.024600465 -0.22367096
-0.10808742 0.024524834 -0.22857755
-0.15947954 0.041554671 -0.22366011
-0.10808742 0.041441068 -0.22857767
-0.15947954 0.058508642 -0.22366011
-0.10815282 0.058375992 -0.22797096
-0.15947811 0.075462334 -0.2236709
-0.10877699 0.075519711 -0.22217941
-0.15947671 0.09241575 -0.22368175
-0.15947811 0.10937015 -0.2236709
-0.17801718 -0.11155973 -0.21223158
-0.17801718 -0.094517715 -0.21223152
-0.17801718 -0.077475645 -0.21223152
-0.17801718 -0.060433611 -0.21223152
-0.17801718 -0.043391541 -0.21223158
-0.17801718 -0.026349507 -0.21223158
-0.17801718 0.024776511 -0.21223158
-0.17801718 0.041818585 -0.21223158
-0.17801718 0.058860578 -0.21223152
-0.17801566 0.075902179 -0.2122426
-0.17801414 0.092943653 -0.21225357
-0.10940443 0.092753984 -0.21635717
-0.17801414 0.10998545 -0.21225351
-0.11003405 0.11007914 -0.21051538
-0.19674821 -0.11209302 -0.20068383
-0.093542174 -0.1118989 -0.2048859
-0.19674821 -0.094962113 -0.20068383
-0.093542174 -0.094800442 -0.20488578
-0.19674821 -0.077831186 -0.20068377
-0.093542174 -0.077701822 -0.20488578
-0.19674821 -0.060700338 -0.20068383
-0.093542174 -0.060603205 -0.20488578
-0.19674821 -0.043569371 -0.20068377
-0.093542174 -0.043504629 -0.2048859
-0.19674821 -0.026438478 -0.20068377
-0.093542174 -0.026406128 -0.20488578
-0.19674821 -0.009307513 -0.20068377
-0.093542174 -0.0093075521 -0.2048859
-0.19674821 0.007823416 -0.20068395
-0.093542174 0.0077910656 -0.20488578
-0.19674821 0.024954341 -0.20068383
-0.093542174 0.024889681 -0.2048859
-0.19674821 0.042085271 -0.20068377
-0.093542174 0.041988138 -0.20488578
-0.19674821 0.059216119 -0.20068383
-0.093625262 0.059112333 -0.20405555
-0.19674657 0.076346613 -0.20069486
-0.094218642 0.076445565 -0.19812608
-0.094814107 0.093870938 -0.19217592
-0.095412731 0.11138979 -0.186194
-0.081111789 -0.009307513 -0.15435112
-0.080987841 0.0081697302 -0.15569311
-0.083228767 -0.026971493 -0.1314345
-0.065748945 -0.0093075521 -0.12925917
-0.06562978 0.0083624078 -0.13066649
-0.082641259 0.025922526 -0.1377942
-0.067760423 -0.027171142 -0.10550475
-0.050042912 -0.009307513 -0.10360682
-0.049930304 0.0085594421 -0.10506994
-0.06721577 0.026320633 -0.11193675
-0.051938519 -0.027375303 -0.078982472
-0.033982098 -0.009307513 -0.077375054
-0.033875868 0.0087607922 -0.078908205
-0.051437676 0.026727889 -0.085488439
-0.035762131 -0.027585525 -0.051682234
-0.017555103 -0.009307513 -0.050531149
-0.017455384 0.0089668157 -0.052150249
-0.035295621 0.027144685 -0.058415771
-0.019234523 -0.027804218 -0.023260832
-0.00074756145 -0.0093075922 -0.023079515
-0.00065690279 0.0091776298 -0.024762034
-0.018774986 0.027570985 -0.030722618
0.016452961 -0.009307513 0.0050140619
0.016534343 0.0093932739 0.0032522678
-0.0018633157 0.028007463 -0.0023738146
-0.0023064315 -0.028028376 0.0058495998
0.034130909 0.0096142245 0.031941295
0.015452832 0.028454591 0.026667595
0.015037484 -0.028257839 0.035660148
0.034060441 -0.009307513 0.03377223
0.033189528 0.028912291 0.056399465
0.032811344 -0.028493084 0.066224694
0.052089483 -0.0093075521 0.063218951
0.052148499 0.0098402044 0.061302423
0.051032118 -0.028734308 0.097557902
0.070555404 -0.0093075521 0.09337914
0.070601724 0.010071727 0.091373324
0.051361494 0.029381275 0.086861014
0.089474276 -0.009307513 0.12427926
0.089506373 0.010308993 0.12219477
0.069985315 0.029861785 0.118065
0.069717214 -0.028981552 0.1296742
0.089077458 0.030354291 0.15005362
0.088883787 -0.02923521 0.1626333
0.10886299 -0.009307513 0.15594685
0.10887978 0.010551841 0.15376544
0.12873925 -0.009307513 0.18841064
0.12873925 0.010801221 0.18614328
0.10865572 0.030859549 0.18287218
0.10855129 -0.02949556 0.19643855
0.12873925 0.031388246 0.21721137
0.14912169 -0.009307513 0.22170103
0.14910403 0.011057255 0.2194072
0.12873925 -0.029765137 0.23145485
0.17002989 -0.0093075922 0.25585032
0.16999415 0.011319901 0.25352895
0.14935988 0.031933773 0.25264382
0.14950939 -0.030077673 0.27206492
0.19148447 -0.009307473 0.29089189
0.19143021 0.011589478 0.28854263
0.17054111 0.032494266 0.28905535
0.17093039 -0.03040304 0.3143394
0.2135071 -0.009307513 0.32686138
0.21343336 0.011866021 0.32446659
0.19230571 0.033070005 0.32645357
0.23612069 -0.0093075922 0.36379611
0.23602736 0.01215005 0.36137128
0.21467936 0.033662535 0.36493111
0.25934929 -0.0093076313 0.40173519
0.25923592 0.012441999 0.39927995
0.23768738 0.034271691 0.40450001
0.28321838 -0.0093075521 0.44072056
0.28308442 0.012741826 0.43823397
0.26135719 0.034898352 0.44520688
0.30775484 -0.0093075521 0.48079562
0.30759972 0.013050049 0.47827709
0.28578544 0.035562709 0.4883585
0.33298701 -0.0093076313 0.52200711
0.33281022 0.013366981 0.51945567
0.31131783 0.036337145 0.53865123
0.35874435 0.013692944 0.56179869
0.35894492 -0.0093075521 0.56440401
0.38566035 -0.0093075521 0.60803831
0.38543671 0.014028489 0.60539734
0.41316694 -0.0093076313 0.65296435
0.41291964 0.014374011 0.65028751
0.44150037 -0.0093076313 0.6992414
0.44122869 0.014730065 0.696527
0.47069842 -0.0093075521 0.74693036
0.47040176 0.015096893 0.7441777
0.5007987 -0.0093076313 0.79607403
0.5004763 0.015475121 0.79328191
0.53184903 -0.0093073938 0.84678793
0.5315001 0.015864912 0.8439554
0 0 0 1 0 0 0 1 0 0 0 1 0 0 0 0 0 190 1 0 0
