ply
format ascii 1.0
comment PCL generated
element vertex 151
property float x
property float y
property float z
element camera 1
property float view_px
property float view_py
property float view_pz
property float x_axisx
property float x_axisy
property float x_axisz
property float y_axisx
property float y_axisy
property float y_axisz
property float z_axisx
property float z_axisy
property float z_axisz
property float focal
property float scalex
property float scaley
property float centerx
property float centery
property int viewportx
property int viewporty
property float k1
property float k2
end_header
0.081509955 -0.030541208 -0.39190155
0.099249505 -0.030575225 -0.38748145
0.11707766 -0.030612273 -0.38267994
-0.12892717 -0.013005805 -0.39167172
-0.093851157 -0.013005805 -0.39171541
-0.058776744 -0.013005847 -0.39174831
-0.041239832 -0.013005805 -0.39177018
-0.023703258 -0.013005847 -0.391792
0.011368964 -0.013005847 -0.39182496
0.028904613 -0.013005847 -0.3918469
0.046439923 -0.013005805 -0.39186865
0.063974895 -0.013005805 -0.39189065
0.081509955 -0.013005847 -0.39190155
0.099249505 -0.013005847 -0.38748133
-0.111389 -0.013005763 -0.39169359
-0.076313987 -0.013005763 -0.39172649
-0.0061670202 -0.013005721 -0.39180303
0.11707826 -0.013005763 -0.38266897
-0.041373502 0.0045974627 -0.38308823
-0.023703258 0.0045303963 -0.391792
-0.0061670202 0.0045303125 -0.39180303
0.011368964 0.004530102 -0.39182496
0.028904613 0.004530061 -0.3918469
0.046439923 0.0045298915 -0.39186883
0.063974895 0.0045296811 -0.3918907
0.081509955 0.0045295991 -0.39190155
0.099249505 0.0045636129 -0.38748145
0.11707826 0.0046006199 -0.38266897
0.064032592 0.022094008 -0.39001715
0.081509955 0.022064958 -0.39190155
0.099249505 0.022133075 -0.38748151
0.11707826 0.022207085 -0.38266891
0.13503218 -0.030655676 -0.3770268
0.15309115 -0.030701146 -0.3711226
0.13503218 -0.013005805 -0.3770268
0.15309115 -0.013005805 -0.37112272
0.13503218 0.0046441089 -0.37702686
0.15309115 0.0046894923 -0.3711226
0.13503218 0.022293936 -0.37702668
0.15309115 0.02238483 -0.3711226
0.064859979 -0.030762568 -0.36314696
0.17130373 -0.030752886 -0.36440343
0.17130373 -0.013005805 -0.36440331
0.18965177 -0.013005805 -0.3573063
0.17130373 0.0047412757 -0.36440331
0.18965082 0.0047957934 -0.35731769
0.047295485 0.022635873 -0.35482168
0.17130373 0.022488397 -0.36440343
0.18965082 0.022597395 -0.35731763
0.20818971 -0.013005847 -0.3493365
0.2268925 -0.013005805 -0.34094548
0.20818867 0.0048571341 -0.34934795
0.2268925 0.0049218405 -0.34094548
0.20818867 0.022720158 -0.34934795
0.2268925 0.02284953 -0.34094548
0.24583915 -0.01300589 -0.33149034
0.24583915 0.0049945898 -0.33149034
0.24583915 0.022995111 -0.3314904
0.26497519 -0.013005805 -0.32165581
0.26497519 0.005070284 -0.32165569
0.030033518 0.023194749 -0.31852245
0.26497519 0.023146458 -0.32165569
0.30414042 -0.013005805 -0.29863262
0.28443769 -0.013005763 -0.31040007
0.28443769 0.0051570106 -0.31040001
0.30414042 0.0052476097 -0.29863268
0.28443769 0.023319826 -0.31040001
0.30414042 0.023500897 -0.2986325
0.32422176 -0.013005805 -0.28544062
0.32422176 0.0053490698 -0.28544044
0.32422176 0.023703985 -0.28544056
0.34466976 -0.013005763 -0.27113032
0.34466976 0.0054592453 -0.27113026
0.34466976 0.023924377 -0.27113026
0.36549711 -0.013005805 -0.2557869
0.36549711 0.0055774208 -0.2557869
0.36549711 0.024160516 -0.25578678
0.38692108 -0.013005847 -0.23821437
0.38692108 0.0057126004 -0.23821437
0.38692108 0.024431091 -0.23821437
0.40889725 -0.013005805 -0.21897852
0.40889725 0.0058607087 -0.21897852
0.40889725 0.024727263 -0.2189784
0.43154559 -0.013005763 -0.19761896
0.43154559 0.0060251504 -0.19761884
0.43154559 0.025056191 -0.19761896
0.45504594 -0.013005932 -0.17342782
0.45504594 0.0062113572 -0.1734277
0.45504594 0.025428519 -0.17342782
-0.07123813 0.0086844675 0.14784575
-0.094058052 0.0089668706 0.18452883
-0.094743997 -0.035149999 0.20680559
-0.07263726 -0.035162583 0.20842993
-0.07263726 0.03130763 0.20842993
-0.050690044 -0.035267331 0.22203898
-0.094955213 0.031388249 0.21366489
-0.050690044 0.0315172 0.22203875
-0.028534286 -0.035373166 0.2357769
-0.11763097 0.009286914 0.22610235
-0.02853415 0.031728458 0.23575902
-0.1183727 -0.035447009 0.24537301
-0.11864664 0.031985983 0.25249004
-0.14171584 0.0095855277 0.26490176
-0.14264277 -0.03575173 0.28497016
-0.14298563 0.032600343 0.29239345
-0.16645384 0.0098923091 0.3047365
-0.16758226 -0.036065161 0.32567716
-0.16799849 0.033231799 0.33340144
-0.19172391 -0.013005763 0.34325218
-0.19187266 0.010207469 0.34566736
-0.19321729 -0.036387142 0.36750174
-0.19371483 0.033881187 0.37558055
-0.21782872 -0.013005847 0.38525724
-0.21800077 0.010531217 0.38774049
-0.21960746 -0.036721498 0.41093111
-0.22016381 0.034548976 0.41896117
-0.24467637 -0.013005932 0.4285109
-0.24486828 0.01086431 0.43100405
-0.24677122 -0.037066214 0.45572376
-0.24739634 0.035240002 0.46384442
-0.27229866 -0.013005932 0.47304881
-0.27250704 0.011206917 0.47550976
-0.27473828 -0.03742145 0.50185919
-0.30072668 -0.013005847 0.51888573
-0.3009488 0.011559293 0.52128994
-0.27546808 0.035958055 0.51047766
-0.30354136 -0.037786961 0.54935527
-0.30438998 0.036697917 0.55854201
-0.3299962 -0.013005932 0.56607926
-0.33023289 0.011922361 0.56844449
-0.33322018 -0.038163751 0.59829545
-0.36014265 -0.013005763 0.61466813
-0.36039546 0.012296207 0.61701405
-0.33419949 0.037460763 0.60808134
-0.36381787 -0.038552336 0.64876997
-0.36493564 0.038246851 0.65914142
-0.39121094 -0.013005932 0.6647619
-0.3914766 0.012681505 0.6670624
-0.39537272 -0.03895304 0.70080388
-0.42324159 -0.013005847 0.71640742
-0.42351887 0.013078675 0.71865845
-0.39664721 0.039058197 0.71184134
-0.42793593 -0.039366376 0.75452065
-0.45627674 -0.013005847 0.76965261
-0.45656762 0.01348822 0.77187562
-0.42937595 0.039895311 0.76621199
-0.4615505 -0.039793182 0.80995154
-0.49037102 -0.013005932 0.82462502
-0.49067104 0.01391107 0.82679033
-0.46317765 0.04076004 0.82238531
-0.49627486 -0.040234052 0.86723256
0 0 0 1 0 0 0 1 0 0 0 1 0 0 0 0 0 151 1 0 0
