ply
format ascii 1.0
comment PCL generated
element vertex 544
property float x
property float y
property float z
element camera 1
property float view_px
property float view_py
property float view_pz
property float x_axisx
property float x_axisy
property float x_axisz
property float y_axisx
property float y_axisy
property float y_axisz
property float z_axisx
property float z_axisy
property float z_axisz
property float focal
property float scalex
property float scaley
property float centerx
property float centery
property int viewportx
property int viewporty
property float k1
property float k2
end_header
-0.26779589 -0.088134684 -0.22404552
-0.26763019 -0.068533689 -0.22531164
-0.26746467 -0.048952252 -0.22657669
-0.28720877 -0.029410757 -0.22519195
-0.26729929 -0.029390352 -0.22784042
-0.24807486 -0.029410284 -0.22525835
-0.30680862 -0.0098479129 -0.22493875
-0.28692469 -0.0098479129 -0.22724199
-0.26713234 -0.0098478701 -0.2291162
-0.24791905 -0.0098478701 -0.22652352
-0.30681255 0.0097171273 -0.22491205
-0.28692651 0.0096993465 -0.22722864
-0.26715493 0.0096860435 -0.22894347
-0.24793869 0.0097059328 -0.2263639
-0.28708327 0.029263871 -0.22609746
-0.26730102 0.029237265 -0.22782707
-0.24807647 0.029277043 -0.22524524
-0.28724015 0.048845917 -0.22496533
-0.2674455 0.048805274 -0.22672307
-0.24821272 0.04886499 -0.22413898
-0.26759186 0.068390809 -0.22560489
-0.26773661 0.087992959 -0.22449875
-0.28903851 -0.20649298 -0.21198666
-0.2687954 -0.20615259 -0.21640813
-0.2498754 -0.20659664 -0.21063972
-0.28885207 -0.18673524 -0.21333218
-0.26862869 -0.18643387 -0.217682
-0.24966308 -0.18680231 -0.21236372
-0.30900452 -0.16729091 -0.20992529
-0.28866768 -0.1669991 -0.21466291
-0.26846215 -0.16673473 -0.21895456
-0.24945271 -0.16703552 -0.21407163
-0.30880737 -0.14753786 -0.21127307
-0.2884835 -0.14728355 -0.21599209
-0.26829404 -0.14705473 -0.22023916
-0.2492426 -0.14729513 -0.2157774
-0.23027834 -0.1476083 -0.20996571
-0.32870564 -0.12793636 -0.20979047
-0.30861244 -0.12780631 -0.21260583
-0.28829762 -0.12758794 -0.21733356
-0.26812783 -0.12739508 -0.22150922
-0.2490328 -0.12758115 -0.21748102
-0.23008075 -0.12784927 -0.21167696
-0.3284795 -0.10819843 -0.21125948
-0.30831942 -0.10806945 -0.21460915
-0.28811383 -0.10791352 -0.21866
-0.26796177 -0.10775509 -0.22277808
-0.24882159 -0.10789298 -0.21919549
-0.2298834 -0.10811654 -0.21338594
-0.32825148 -0.088482708 -0.2127403
-0.30801514 -0.088361092 -0.21668983
-0.28792837 -0.088259183 -0.21999848
-0.24861234 -0.088231593 -0.22089446
-0.22968635 -0.08841034 -0.21509266
-0.32802373 -0.068789847 -0.21421933
-0.30771327 -0.068685144 -0.2187537
-0.28774494 -0.068625867 -0.22132206
-0.24840337 -0.068596549 -0.22259116
-0.22948799 -0.068729959 -0.21681058
-0.32779631 -0.049119845 -0.21569681
-0.30740991 -0.049040802 -0.22082758
-0.28749514 -0.049005419 -0.22312522
-0.24823245 -0.048992284 -0.22397888
-0.22933322 -0.049082048 -0.21815097
-0.21056488 -0.049203239 -0.21027589
-0.32756907 -0.02947258 -0.2171725
-0.30710903 -0.029428495 -0.22288489
-0.22918323 -0.029454928 -0.21944976
-0.21042401 -0.029515501 -0.21158278
-0.32734215 -0.0098479129 -0.21864665
-0.22903186 -0.0098479558 -0.2207607
-0.21028185 -0.0098479558 -0.21290171
-0.3274453 0.009770466 -0.21797669
-0.22905192 0.0097504482 -0.22058702
-0.21029928 0.00981085 -0.21274042
-0.32781491 0.029425872 -0.21557605
-0.30697632 0.029299429 -0.2237922
-0.22918633 0.029366633 -0.21942306
-0.21042693 0.029487694 -0.21155584
-0.32814795 0.049112707 -0.213413
-0.30731606 0.048926592 -0.22146916
-0.22932082 0.049000725 -0.21825814
-0.21055326 0.049182661 -0.21038365
-0.32832399 0.068801433 -0.21226943
-0.3076643 0.068591386 -0.21908844
-0.28739715 0.068445392 -0.22383213
-0.248382 0.068478286 -0.22276461
-0.22946784 0.068656221 -0.21698487
-0.32850227 0.088508323 -0.21111131
-0.30801317 0.088293023 -0.21670306
-0.28755432 0.088062309 -0.22269797
-0.24857447 0.088119961 -0.22120178
-0.22964761 0.088342145 -0.21542835
-0.32867864 0.10823244 -0.20996571
-0.30830765 0.10801426 -0.21468961
-0.28771162 0.10769684 -0.22156274
-0.26788318 0.10761297 -0.22337866
-0.24876556 0.10778514 -0.21965063
-0.22982907 0.10805275 -0.21385658
-0.30847475 0.12771957 -0.21354747
-0.28789869 0.12736039 -0.22021246
-0.2680282 0.12724936 -0.22227049
-0.24895853 0.12747499 -0.21808398
-0.23000926 0.1277869 -0.21229637
-0.30864397 0.14744319 -0.21239054
-0.28822893 0.14710823 -0.21782935
-0.26817504 0.1469039 -0.22114837
-0.24915007 0.14718831 -0.21652877
-0.23019117 0.14754601 -0.21072066
-0.30881134 0.16718403 -0.21124601
-0.28848538 0.16685614 -0.21597886
-0.26832029 0.16657476 -0.22003853
-0.24934348 0.16692676 -0.21495831
-0.30898082 0.1869434 -0.21008718
-0.28864536 0.18657875 -0.2148242
-0.2684674 0.18626378 -0.21891439
-0.2495355 0.18668836 -0.21339941
-0.28880364 0.20631807 -0.21368194
-0.26863572 0.20598386 -0.21762836
-0.24972939 0.20647524 -0.21182513
-0.32983002 -0.20722416 -0.20248771
-0.30939543 -0.20685734 -0.20725274
-0.2308743 -0.20704584 -0.20480466
-0.21178773 -0.20749813 -0.19892919
-0.3296046 -0.18738514 -0.2039516
-0.30919987 -0.18706375 -0.20858979
-0.23067591 -0.18720695 -0.20652282
-0.21160021 -0.18761253 -0.20066893
-0.32928368 -0.16753036 -0.20603609
-0.23047778 -0.16739474 -0.20823872
-0.21141592 -0.16775556 -0.20237899
-0.32896119 -0.14770727 -0.20813072
-0.21127421 -0.14794625 -0.20369411
-0.35074615 -0.12861042 -0.19519734
-0.21113116 -0.12815662 -0.20502138
-0.35042006 -0.10873903 -0.19721448
-0.21098974 -0.10838803 -0.20633352
-0.1923252 -0.1087894 -0.1959064
-0.35009232 -0.088898413 -0.19924188
-0.21084845 -0.088639632 -0.20764446
-0.19217658 -0.088955328 -0.19739151
-0.34976724 -0.069089316 -0.2012527
-0.21070588 -0.068911165 -0.20896757
-0.19202951 -0.06914451 -0.19886112
-0.34944272 -0.049311258 -0.20326042
-0.19188258 -0.049356334 -0.2003293
-0.34909895 -0.029563203 -0.20538652
-0.19173446 -0.029590756 -0.20180929
-0.34862483 -0.0098479129 -0.20831978
-0.1915879 -0.0098479558 -0.20327389
-0.34862918 0.0098450333 -0.20829284
-0.19160825 0.0098852869 -0.20307064
-0.34888032 0.029561916 -0.20673907
-0.191744 0.029639235 -0.20171428
-0.34913179 0.049302779 -0.20518374
-0.19187987 0.04941415 -0.20035648
-0.34938356 0.069067493 -0.20362628
-0.21067971 0.068895496 -0.2092104
-0.19201592 0.06921012 -0.19899726
-0.34963563 0.088856481 -0.20206714
-0.21080625 0.088626675 -0.20803618
-0.19215205 0.089026965 -0.1976366
-0.3498902 0.10867006 -0.20049226
-0.21093294 0.10837589 -0.20686078
-0.19228837 0.10886491 -0.1962744
-0.35014287 0.12850724 -0.19892919
-0.32885727 0.12797503 -0.20880568
-0.21106115 0.12814401 -0.20567083
-0.35051474 0.14841402 -0.19662881
-0.32903394 0.14773476 -0.20765793
-0.21118808 0.14792956 -0.20449328
-0.3292129 0.16751307 -0.20649576
-0.2303718 0.16732873 -0.20915663
-0.2113151 0.1677334 -0.20331454
-0.3293899 0.18730831 -0.20534599
-0.23055419 0.18713666 -0.20757699
-0.2114861 0.18758689 -0.20172787
-0.30914852 0.20671952 -0.20894051
-0.32956916 0.20712253 -0.20418179
-0.23073524 0.2069678 -0.20600915
-0.21165588 0.20746371 -0.20015264
-0.35206002 -0.20841101 -0.18706989
-0.19334561 -0.20851575 -0.18571007
-0.35172969 -0.1884132 -0.18911338
-0.19312578 -0.18849677 -0.18790674
-0.35140207 -0.16844776 -0.19114006
-0.19290495 -0.16851093 -0.19011343
-0.35107496 -0.14851375 -0.19316339
-0.1926845 -0.14855948 -0.19231617
-0.19247261 -0.12864567 -0.19443345
-0.37257755 -0.069507003 -0.18316579
-0.17385 -0.069541015 -0.18169165
-0.37207216 -0.049574688 -0.18614972
-0.1736452 -0.049609259 -0.18390882
-0.37156793 -0.029688353 -0.18912709
-0.17344707 -0.029712033 -0.18605363
-0.3710649 -0.0098479558 -0.19209743
-0.17328095 -0.0098479129 -0.18785203
-0.37106723 0.009969797 -0.19208384
-0.17331263 0.010005055 -0.18750894
-0.37136844 0.029814931 -0.19030511
-0.1734699 0.029884158 -0.18580639
-0.37205589 0.049740098 -0.18624604
-0.17366171 0.049798176 -0.18372989
-0.37274548 0.069728032 -0.18217397
-0.17385638 0.069745079 -0.18162274
-0.19244394 0.12873411 -0.19471991
-0.19265303 0.14866023 -0.19263053
-0.35111251 0.16845293 -0.19293118
-0.19286108 0.16861768 -0.1905514
-0.35139763 0.18839988 -0.19116747
-0.19307086 0.18860859 -0.18845522
-0.3516854 0.20837529 -0.18938744
-0.19328097 0.20863208 -0.18635571
-0.37531325 -0.18994434 -0.16701221
-0.17508379 -0.18985268 -0.16833568
-0.37496412 -0.16980664 -0.16907358
-0.17487684 -0.16971415 -0.17057598
-0.37460846 -0.1496987 -0.17117369
-0.17467153 -0.14961115 -0.1727984
-0.37409839 -0.12958089 -0.17418551
-0.1744653 -0.12954184 -0.17503095
-0.37358949 -0.10950978 -0.17719042
-0.17425942 -0.10950707 -0.17725968
-0.3730841 -0.089485466 -0.18017459
-0.17405391 -0.08950673 -0.17948449
-0.37343729 0.089779377 -0.17808914
-0.17405137 0.089724489 -0.17951202
-0.37374178 0.1097879 -0.17629099
-0.17424664 0.10973675 -0.17739785
-0.37404439 0.12982333 -0.1745044
-0.17444101 0.12978087 -0.17529416
-0.37434977 0.14988746 -0.17270124
-0.17463693 0.14985842 -0.17317295
-0.37465557 0.1699795 -0.17089581
-0.17483318 0.16996883 -0.17104852
-0.37496173 0.1900996 -0.16908753
-0.17502975 0.19011238 -0.16892052
-0.17522666 0.21028893 -0.16678894
-0.37566528 -0.21011515 -0.1649332
-0.17529106 -0.21002595 -0.16609168
-0.15647644 -0.15073822 -0.15188277
-0.1563189 -0.13052501 -0.15374315
-0.1561628 -0.11034128 -0.15558672
-0.15600693 -0.090185829 -0.15742779
-0.15585124 -0.070058882 -0.15926611
-0.39669046 -0.04998824 -0.15929413
-0.1556946 -0.049960129 -0.16111588
-0.39622664 -0.029897928 -0.16191387
-0.15553939 -0.029889921 -0.16294909
-0.15538436 -0.0098479129 -0.16477978
-0.39576125 -0.0098478701 -0.16454232
-0.39596164 0.010190565 -0.16341066
-0.15540683 0.010182085 -0.16451442
-0.39634314 0.030262193 -0.16125596
-0.15555358 0.030238645 -0.16278124
-0.39666563 0.050359219 -0.15943432
-0.15570173 0.050322369 -0.16103184
-0.39737424 0.070551567 -0.15543199
-0.15585005 0.070433043 -0.15928006
-0.1559974 0.090570368 -0.15753996
-0.15614614 0.11073503 -0.15578365
-0.15629387 0.13092613 -0.15403891
-0.156443 0.15114526 -0.15227771
-0.15695876 -0.21155816 -0.14618695
-0.15678978 -0.19124892 -0.14818251
-0.15663299 -0.17097922 -0.15003407
-0.40001899 -0.09070731 -0.14049447
-0.39822251 -0.070258081 -0.1506412
-0.39817002 0.09082441 -0.15093744
-0.39896601 0.11116645 -0.1464417
-0.15659234 0.17139159 -0.15051413
-0.1567407 0.19166417 -0.14876223
-0.40182701 -0.11131524 -0.13028312
-0.13857421 -0.050547309 -0.12297964
-0.13816109 -0.030156324 -0.1283462
-0.13774967 -0.0098478701 -0.13369095
-0.13780472 0.010424852 -0.1329757
-0.1382142 0.030779457 -0.12765694
-0.40298995 0.13256024 -0.12371469
-0.40549061 -0.15301712 -0.10959113
-0.4036516 -0.13208464 -0.11997747
-0.13940552 -0.091579191 -0.11218083
-0.13898903 -0.071021423 -0.11759126
-0.13862419 0.051216118 -0.12233078
-0.13903585 0.071735397 -0.11698318
-0.13944915 0.092337981 -0.11161387
-0.40466693 0.15348761 -0.11424327
-0.40721154 -0.17406839 -0.099871278
-0.14066526 -0.15375938 -0.095816255
-0.14024365 -0.13294765 -0.10129344
-0.1398237 -0.11222112 -0.10674834
-0.13986418 0.11302408 -0.10622287
-0.14028201 0.13379522 -0.10079527
-0.1407004 0.15465042 -0.095359921
-0.40635851 0.17456642 -0.10468888
-0.40805978 0.19579647 -0.095080376
-0.40878293 -0.19521092 -0.090996027
-0.14144984 -0.19558306 -0.085624456
-0.14108866 -0.17465687 -0.090316415
-0.14112049 0.17559092 -0.089902639
-0.14153546 0.19661006 -0.084511876
-0.1230446 -0.0098479129 -0.053408384
-0.12315723 0.011049917 -0.051782489
-0.12368432 -0.03080425 -0.044174552
-0.10298545 -0.0098479558 -0.03999424
-0.10300622 0.011143081 -0.039656878
-0.12387944 0.032108031 -0.041358352
-0.10356068 -0.03090835 -0.030653358
-0.08270026 -0.0098479558 -0.026942492
-0.082696922 0.011240507 -0.027004361
-0.10365679 0.032296941 -0.029092789
-0.12596026 -0.052266359 -0.011324286
-0.083225228 -0.031011889 -0.017199993
-0.062196083 -0.0098479129 -0.014280915
-0.062193207 0.011338104 -0.014343381
-0.083289124 0.032498203 -0.016014338
-0.12623081 0.053869903 -0.0074193478
-0.062675707 -0.031114308 -0.0038969517
-0.041501515 -0.0098479129 -0.0015015602
-0.041498482 0.011436304 -0.001580596
-0.062703349 0.032694086 -0.0032984018
-0.10594272 -0.052564189 0.0080258846
-0.041906759 -0.031213799 0.0090267658
-0.020613864 -0.0098478273 0.011396766
-0.02061142 0.011535538 0.011317134
-0.041926339 0.032891735 0.0095354319
-0.10595446 0.054230928 0.0082163811
-0.085464291 -0.052815564 0.024351835
-0.020943068 -0.031314325 0.022087932
0.00021922588 -0.031415626 0.035256505
0.00046957284 -0.0098479558 0.02441597
0.00047180057 0.011635676 0.024319649
-0.020955913 0.033091195 0.022505164
0.0002117455 0.033292718 0.035580397
-0.085498072 0.054618135 0.024978518
-0.064744197 -0.053070217 0.040887356
0.021582343 -0.031518046 0.04855001
0.021751828 -0.0098479129 0.037541747
0.021753076 0.011736847 0.037460685
0.021578819 0.033495799 0.048779011
-0.064727686 0.054977186 0.040529609
-0.043777101 -0.053327754 0.057619691
0.043149024 -0.031621583 0.061986923
0.043235078 -0.0098478273 0.050807953
0.064922579 -0.0098478701 0.064200282
0.043235712 0.011839008 0.050726175
0.064922579 0.011941945 0.0641011
0.043148011 0.033701196 0.062118769
-0.043633536 0.055285737 0.053889751
-0.02253294 -0.053575724 0.073720694
0.064922579 -0.031725772 0.075535655
0.086816475 -0.0098479558 0.077620268
0.086815707 0.012045182 0.077520013
0.064922579 0.03390827 0.075569153
-0.02233763 0.055597216 0.067377567
-0.00094617903 -0.053760417 0.085720181
0.086901724 -0.031827025 0.088693738
0.10889174 -0.0098479129 0.089400411
0.10889485 0.012138303 0.089602232
0.086901203 0.034109324 0.088626504
-0.00083705783 0.05591175 0.080995202
0.02082637 -0.053944074 0.097651958
0.10906391 -0.031918637 0.10058296
0.13115416 -0.0098478273 0.10143101
0.13116279 0.012232199 0.10180438
0.10905869 0.034288161 0.10024381
0.020871136 0.056229256 0.094744086
0.042781718 -0.05412963 0.1097014
0.064922579 -0.054299556 0.12073433
0.1314075 -0.032009564 0.11240041
0.15360758 -0.0098479558 0.11364901
0.15362129 0.012326783 0.11409414
0.13139841 0.034469366 0.11200726
0.042789992 0.056549907 0.10862672
0.064922579 0.056830943 0.120803
0.087209165 -0.054421045 0.12863243
0.10961802 -0.054543354 0.13657355
0.15393603 -0.032101307 0.12431574
0.17665184 -0.032193739 0.13633037
0.1762538 -0.0098479129 0.12598908
0.17627306 0.012422271 0.12648964
0.15392277 0.034652159 0.1238848
0.17663376 0.034836508 0.13586092
0.087205574 0.057001084 0.1281656
0.1096025 0.057172 0.1355654
0.13215297 -0.054668158 0.14468098
0.19956207 -0.032287937 0.14855015
0.1990957 -0.0098479996 0.13845265
0.22213435 -0.0098479129 0.15100646
0.19912145 0.01251862 0.13900995
0.22214478 0.01261243 0.1511997
0.19953376 0.035022534 0.1479367
0.13211423 0.057343818 0.14300334
0.15482877 -0.054800972 0.15330851
0.17773411 -0.054972447 0.16444886
0.22267938 -0.032384545 0.16112089
0.24543631 -0.0098479129 0.16469681
0.24546906 0.012720404 0.16522861
0.22263366 0.035212301 0.16027236
0.15478981 0.057552405 0.15204287
0.17767274 0.057802148 0.16285455
0.2008248 -0.055148743 0.17588878
0.24613982 -0.032500051 0.17612088
0.2689741 -0.0098479129 0.17874908
0.24605078 0.035434149 0.17467463
0.20074975 0.058065578 0.17426431
0.22425276 -0.05537089 0.1903193
0.26977193 -0.032608971 0.19026506
0.29276228 -0.0098479129 0.19324398
0.26910934 0.012839485 0.18070126
0.29288757 0.012948491 0.19487131
0.26970074 0.035658233 0.18923748
0.2240819 0.058363236 0.18714809
0.24789038 -0.055589855 0.20454574
0.29363233 -0.032718927 0.20454574
0.3168028 -0.0098479129 0.2080828
0.31689402 0.013058661 0.20916021
0.29365054 0.035897687 0.20478272
0.24772006 0.05870115 0.20178044
0.27175525 -0.055810794 0.21889186
0.31772432 -0.032829784 0.21896541
0.34114519 -0.0098479996 0.22371709
0.31773052 0.036117122 0.21903896
0.2717438 0.059092529 0.21872628
0.29585317 -0.056033932 0.23339546
0.34218857 -0.032953382 0.23501158
0.34123215 0.01317787 0.22465789
0.34222806 0.036369614 0.23543918
0.29579887 0.059414983 0.2326901
0.32026574 -0.0562739 0.24897838
0.36700749 -0.033085249 0.25213337
0.36590725 -0.0098478701 0.24113894
0.36587548 0.013302332 0.24082172
0.32019269 0.05977124 0.24811578
0.39093506 -0.0098479558 0.25853837
0.39090458 0.013436479 0.25825536
0.36708465 0.036638558 0.2529043
0.34522074 -0.056564279 0.26783597
0.39217269 -0.033222888 0.27002203
0.4160316 -0.0098479558 0.2742126
0.41611093 0.013564687 0.2748996
0.39199853 0.036877237 0.26840603
0.34526989 0.060238995 0.26836812
0.41735813 -0.033343647 0.28570068
0.44137532 -0.0098479129 0.28993452
0.44145367 0.013685146 0.29057074
0.41721392 0.037124224 0.28445184
0.37017259 0.060594298 0.28376079
0.37141657 -0.057000779 0.29619145
0.44280258 -0.033465397 0.30152225
0.46698248 -0.0098479558 0.30582011
0.46705639 0.013807068 0.30638468
0.44269735 0.037374012 0.30066812
0.39560941 0.061013445 0.30191076
0.39712986 -0.057306103 0.31601858
0.46852759 -0.033589341 0.31762683
0.49285719 -0.0098479558 0.32187128
0.49291173 0.013929162 0.32226491
0.46845311 0.037626207 0.31705773
0.42123735 0.061415032 0.31929576
0.4229399 -0.057583481 0.33404005
0.49452135 -0.033714451 0.33388138
0.51900369 -0.0098479558 0.33809137
0.51893973 0.014047727 0.33765388
0.49448565 0.03788124 0.33362365
0.44715732 0.061821178 0.33687878
0.44903371 -0.057861939 0.35211301
0.52079356 -0.033841193 0.35032833
0.5207994 0.03813912 0.35036838
0.47319299 0.062199779 0.35327721
0.54736459 -0.033970088 0.36707222
0.54542941 -0.0098478701 0.35450256
0.54532731 0.014172403 0.35383964
0.54721808 0.038381591 0.36612034
0.47543621 -0.058143631 0.37041819
0.57213271 -0.0098479558 0.371068
0.57201451 0.014299234 0.37033701
0.57388532 0.038624741 0.38190985
0.49934506 0.062555902 0.36869359
0.50215048 -0.058428884 0.38893974
0.57422602 -0.034100451 0.38401735
0.59915918 -0.0098479558 0.38803601
0.59898537 0.014427613 0.38700998
0.52575392 0.062914945 0.38424265
0.52910906 -0.058709756 0.40718222
0.60137606 -0.034232274 0.40112627
0.62640613 -0.0098479558 0.40477371
0.62624449 0.014557371 0.40386105
0.60082269 0.038870223 0.39785898
0.55244827 0.063280888 0.40009165
0.55619359 -0.058975041 0.42441797
0.62879294 -0.034364011 0.41825438
0.65382361 -0.0098479558 0.42103982
0.65385461 0.014690831 0.42120755
0.62816751 0.039129913 0.41472197
0.57959503 0.063676529 0.41722941
0.65628916 -0.034488171 0.43438458
0.68150347 -0.0098479558 0.43736792
0.68131202 0.014807586 0.43637288
0.6558755 0.03939829 0.43214571
0.60703361 0.064076394 0.43453264
0.58350521 -0.059236705 0.44141746
0.68406117 -0.034613367 0.45065796
0.70949841 -0.0098478701 0.45401371
0.70925438 0.014934072 0.45279443
0.68369156 0.039653592 0.44873726
0.63499552 0.064509489 0.45328629
0.61096048 -0.059487611 0.45771956
0.71208256 -0.034738563 0.46692467
0.73730522 -0.0098480424 0.46852171
0.73699123 0.015043423 0.46701109
0.71129781 0.039873153 0.46300423
0.66245645 0.064843744 0.46776628
0.63846618 -0.059721209 0.47288847
0.73962873 -0.034836978 0.47970068
0.76526976 -0.0098479558 0.4827255
0.76479125 0.015147349 0.48050523
0.73890656 0.040076956 0.47622585
0.68985558 0.065144159 0.4807663
0.66622382 -0.059956267 0.48815775
0.76742178 -0.034937203 0.49270964
0.79345649 -0.0098478701 0.49694455
0.79282922 0.015252309 0.49413431
0.76679415 0.040285669 0.48979747
0.71733099 0.065430023 0.49314773
0.69385827 -0.060162745 0.50156486
0.7202307 -0.06025625 0.50763524
0.79543853 -0.035038114 0.50582278
0.82176816 -0.0098479558 0.51075673
0.82134366 0.015366137 0.50891852
0.79491609 0.040496364 0.50348306
0.7449801 0.065713905 0.50544739
0.74673814 -0.060352691 0.513906
0.77430457 -0.060518183 0.52464163
0.82374853 -0.035142124 0.51933181
0.85057652 -0.0098478701 0.5257591
0.85002726 0.015477899 0.52345777
0.82327557 0.04070887 0.51728404
0.77284336 0.066000715 0.51786256
0.80248404 -0.060714237 0.53738308
0.80091894 0.066289589 0.53037214
0.830935 -0.060915463 0.55045056
0.8292039 0.066580355 0.54295456
0 0 0 1 0 0 0 1 0 0 0 1 0 0 0 0 0 544 1 0 0
