ply
format ascii 1.0
comment PCL generated
element vertex 1323
property float x
property float y
property float z
element camera 0
property float view_px
property float view_py
property float view_pz
property float x_axisx
property float x_axisy
property float x_axisz
property float y_axisx
property float y_axisy
property float y_axisz
property float z_axisx
property float z_axisy
property float z_axisz
property float focal
property float scalex
property float scaley
property float centerx
property float centery
property int viewportx
property int viewporty
property float k1
property float k2
end_header
-0.14474376 0.028663471 -0.13372308
-0.12707916 0.028581571 -0.13904184
-0.10968011 0.028552227 -0.14095223
-0.092310138 0.028522633 -0.14286989
-0.07497023 0.02849333 -0.14477378
0.080311701 0.028500427 -0.14431417
0.097640939 0.028529853 -0.14239889
0.11499932 0.028559323 -0.14049107
0.13240519 0.028593846 -0.13824683
0.15007645 0.028686181 -0.13225442
-0.14477217 0.04600998 -0.13331294
-0.12711026 0.045889389 -0.13853705
-0.1096986 0.045841467 -0.14060897
-0.092318542 0.045793545 -0.14268798
-0.07497105 0.045745749 -0.14475238
0.080313683 0.045757353 -0.14424998
0.097649589 0.045805357 -0.14217389
0.11501716 0.045853112 -0.14010471
0.13241677 0.045901034 -0.13803178
0.15010972 0.046046883 -0.13171387
-0.14486198 0.063390091 -0.13201666
-0.12721954 0.063243993 -0.13676244
-0.10979405 0.063180089 -0.13883781
-0.0924007 0.063116349 -0.14090931
-0.075038977 0.063052312 -0.14298779
0.063050754 0.063004144 -0.14454931
0.08036837 0.063068219 -0.14247388
0.097717673 0.063131787 -0.14040518
0.11509901 0.063195698 -0.13833272
0.13251302 0.063259855 -0.13624567
-0.12732899 0.080626026 -0.13498503
-0.10988965 0.080546007 -0.13706374
-0.092482485 0.080466196 -0.13913852
-0.075107008 0.080386005 -0.14122021
-0.057764024 0.080306485 -0.14328742
0.063091516 0.080325812 -0.14278442
0.080422819 0.080405876 -0.14070547
0.09778586 0.080485687 -0.13863367
0.11518098 0.08056546 -0.13655794
0.13260885 0.080645978 -0.13446754
-0.12743929 0.09803611 -0.13319415
-0.1099854 0.097939394 -0.13528687
-0.092564404 0.097843423 -0.13736486
-0.075175561 0.097747587 -0.13943923
-0.057818763 0.09765204 -0.14150965
-0.040493689 0.097556069 -0.14358693
0.045819618 0.0975793 -0.14308405
0.063132592 0.097675249 -0.14100575
0.080477357 0.097771004 -0.13893449
0.09785416 0.097866759 -0.1368593
0.11526358 0.097963355 -0.1347695
0.13270481 0.098059528 -0.13268661
-0.11016744 0.11544649 -0.13190866
-0.092711687 0.11532424 -0.13417631
-0.075291023 0.11520232 -0.13643944
-0.057905667 0.1150812 -0.13868737
-0.040554784 0.11495972 -0.14094138
-0.023238836 0.11483907 -0.14318037
0.028558092 0.11486852 -0.14263445
0.045861021 0.11498921 -0.14039439
0.06319879 0.11511073 -0.13813913
0.080571428 0.11523251 -0.13587946
0.097978607 0.11535392 -0.13362598
0.11542119 0.11547618 -0.13135713
-0.075450853 0.1327742 -0.13228691
-0.058032945 0.13263454 -0.13455379
-0.040650301 0.13249591 -0.13680536
-0.023302222 0.13235682 -0.1390633
-0.0059889406 0.13221809 -0.14131677
0.011289647 0.13225177 -0.1407699
0.0285898 0.13239062 -0.13851541
0.045924731 0.13252977 -0.13625646
0.063294299 0.13266847 -0.13400358
0.080699019 0.13280813 -0.13173556
-0.040745921 0.1500961 -0.13266498
-0.023365842 0.14993905 -0.13493121
-0.0060207713 0.14978313 -0.13718206
0.011289647 0.14982115 -0.13663334
0.028621625 0.14997721 -0.13438123
0.045988508 0.1501343 -0.13211399
-0.0060526319 0.16741215 -0.13304305
0.011289647 0.16745465 -0.13249213
-0.041105881 -0.14573196 -0.11707813
-0.023618465 -0.14564309 -0.11852288
-0.0061535537 -0.14555621 -0.11993301
0.011289647 -0.14557706 -0.1195944
0.028746312 -0.14566393 -0.11818385
-0.093405381 -0.12815481 -0.11915708
-0.075896926 -0.12807183 -0.12069756
-0.058412239 -0.12798892 -0.12223589
-0.040951297 -0.12790619 -0.12377208
-0.023514027 -0.12782353 -0.12530619
-0.0061003957 -0.12774087 -0.12683833
0.011289647 -0.12776083 -0.12646908
0.02869433 -0.12784341 -0.12493646
0.04612264 -0.12792613 -0.12340182
0.063574627 -0.12800893 -0.12186503
0.081050336 -0.12809184 -0.1203264
0.09854982 -0.1281748 -0.11878544
-0.12840682 -0.11078296 -0.1174832
-0.11066928 -0.11054682 -0.12259561
-0.093136944 -0.11043724 -0.12496907
-0.075668924 -0.11036088 -0.12662107
-0.058226749 -0.11028522 -0.12825984
-0.040809616 -0.11020914 -0.12990701
0.046028659 -0.11022765 -0.12950629
0.063435964 -0.11030323 -0.12786943
0.080868885 -0.11037945 -0.12621927
0.098327301 -0.11045584 -0.12456661
0.11588278 -0.11060371 -0.12136334
-0.14585827 -0.093315043 -0.1176365
-0.12806179 -0.093105242 -0.12308586
-0.11036931 -0.092909865 -0.12816215
-0.092913374 -0.092846498 -0.1298095
0.098140925 -0.092861861 -0.12940878
0.11562489 -0.092956722 -0.12694687
0.13328852 -0.09315268 -0.12185425
-0.14561746 -0.07574717 -0.12111235
-0.1278414 -0.075576104 -0.12666452
0.13310133 -0.075617284 -0.125328
0.15084465 -0.075788118 -0.11978006
-0.16321135 -0.058360919 -0.11903691
-0.14537662 -0.058232728 -0.12458831
-0.12762904 -0.058105122 -0.13011271
0.1329153 -0.058135908 -0.12878025
0.15063101 -0.058263637 -0.12324935
0.168433 -0.058391746 -0.11770219
-0.1808375 -0.040942844 -0.1169576
-0.16294327 -0.040857229 -0.1225192
-0.14513655 -0.040771991 -0.12805378
0.15041734 -0.040792529 -0.12671888
0.16819219 -0.040877849 -0.12117785
-0.18071607 -0.023465678 -0.11839157
-0.1627932 -0.023418929 -0.12446874
-0.14496689 -0.023372468 -0.13050246
0.15027438 -0.023383655 -0.12904042
0.16806678 -0.02343028 -0.12298793
0.18595405 -0.023476992 -0.11691386
-0.18062441 -0.0060105976 -0.11947411
-0.16271031 -0.006010639 -0.12554538
0.15020832 -0.006010639 -0.13011277
0.1679921 -0.0060105976 -0.12406605
0.18587062 -0.0060105557 -0.11799783
-0.1805319 0.011427746 -0.12056661
-0.16262667 0.011380994 -0.12663203
0.16791748 0.011392516 -0.12514317
0.18578726 0.011439226 -0.11908072
-0.18045706 0.028852399 -0.1214506
-0.16254395 0.028756183 -0.12770665
0.16784218 0.028778888 -0.12623012
0.18572836 0.02887715 -0.11984563
-0.1805689 0.046314411 -0.1201297
-0.16261831 0.046161756 -0.12674057
0.16791824 0.046198949 -0.12513232
0.18583019 0.046351559 -0.11852288
-0.18067996 0.06379658 -0.11881822
-0.16271868 0.063592754 -0.12543666
0.15019034 0.063439764 -0.13040507
0.1680087 0.063642383 -0.12382662
0.18593213 0.063846342 -0.11719853
-0.18079206 0.081299208 -0.11749417
-0.16282001 0.08104416 -0.12412035
-0.14495264 0.080790617 -0.13070792
0.15027104 0.080852814 -0.1290946
0.16810003 0.081106231 -0.12250835
-0.16294411 0.098529637 -0.12250835
-0.1450434 0.09821143 -0.12939799
0.15035184 0.098286025 -0.12778252
0.16822246 0.098611243 -0.12074125
-0.16324081 0.11616062 -0.11865413
-0.14528698 0.11577124 -0.12588233
-0.12765773 0.11556835 -0.12964708
0.13289838 0.11559816 -0.1290946
0.15057737 0.11586608 -0.12412035
0.16848914 0.11625558 -0.11689192
-0.14555322 0.13340522 -0.12203968
-0.12791434 0.13319336 -0.12548018
-0.11039153 0.13305362 -0.12775004
-0.092903368 0.13291344 -0.13002622
0.098138839 0.13294813 -0.12946302
0.11561336 0.13308766 -0.12719667
0.13312361 0.13322821 -0.12491477
0.15081438 0.13351415 -0.12027174
-0.14582035 0.15109931 -0.11818373
-0.12817258 0.15088439 -0.12128699
-0.11061644 0.15072581 -0.12357616
-0.093096271 0.15056823 -0.12584966
-0.075610861 0.15041026 -0.1281296
-0.058161028 0.15025337 -0.1303941
0.063390404 0.1502917 -0.12984204
0.080827095 0.15044862 -0.12757635
0.09829925 0.15060668 -0.12529534
0.11580624 0.15076426 -0.12302053
0.13334909 0.15092295 -0.1207304
-0.11085868 0.16848697 -0.1190806
-0.093293913 0.16829531 -0.12157059
-0.075771883 0.16811238 -0.12394625
-0.058289252 0.16793662 -0.12623012
-0.040841892 0.16776121 -0.12850928
-0.023429861 0.16758691 -0.13077289
0.02865365 0.16762942 -0.13022095
0.046052523 0.16780375 -0.12795609
0.063486621 0.1679793 -0.12567586
0.080955639 0.16815436 -0.12340188
0.098465718 0.1683415 -0.12097049
0.116016 0.16853333 -0.11847919
-0.076028645 0.18608966 -0.11727524
-0.058488198 0.1858785 -0.11976922
-0.040986262 0.18566772 -0.12225765
-0.023522904 0.18545841 -0.12472993
-0.0060975552 0.18524861 -0.12720734
0.011289647 0.18529911 -0.12661016
0.028700529 0.1855091 -0.12413132
0.046149664 0.1857195 -0.12164706
0.063636914 0.18592939 -0.1191681
-0.023627223 0.20349056 -0.1179539
-0.0061496012 0.20326045 -0.12044644
0.011289647 0.20331588 -0.11984569
0.028752716 0.20354618 -0.11735189
-0.094104312 -0.16410157 -0.10402489
-0.07648325 -0.16400185 -0.10546422
-0.058884747 -0.163903 -0.1068908
-0.041308254 -0.16380429 -0.10831553
-0.023753712 -0.16370577 -0.10973829
-0.0062210076 -0.16360648 -0.11117047
0.011289647 -0.16363022 -0.11082911
0.028813956 -0.16372947 -0.10939652
0.04636018 -0.16382794 -0.10797328
0.063928358 -0.1639268 -0.10654807
0.081518531 -0.1640256 -0.10512131
0.099152505 -0.16416378 -0.1031273
-0.12924452 -0.14654475 -0.10388088
-0.11141916 -0.14624922 -0.10867965
0.11652113 -0.14631927 -0.10754263
-0.093715832 -0.14601785 -0.11243588
-0.076155275 -0.14592254 -0.11398536
-0.058618642 -0.14582725 -0.11553282
0.046225734 -0.14575496 -0.11670572
0.06372948 -0.14585017 -0.11515993
0.08125709 -0.14594555 -0.11361188
0.098808609 -0.14604095 -0.11206186
-0.14661884 -0.12882835 -0.1066587
-0.12877865 -0.12857042 -0.11144561
-0.11101323 -0.12831345 -0.11621261
0.11617337 -0.12837492 -0.11507207
0.1339111 -0.1286321 -0.1103003
0.15172832 -0.12889442 -0.10543108
-0.16412508 -0.11125943 -0.10716695
-0.14622544 -0.11102074 -0.11233675
0.13359076 -0.11084014 -0.11624545
0.15137963 -0.11107804 -0.11109346
0.16924869 -0.11131664 -0.10592902
-0.18172833 -0.093746029 -0.10643762
-0.16374914 -0.093530014 -0.11205083
0.15105964 -0.093366861 -0.1162892
0.16891758 -0.093581691 -0.11070788
0.18686441 -0.093797982 -0.10508811
-0.19946963 -0.076263711 -0.10433513
-0.1814311 -0.07609088 -0.10994786
0.18659388 -0.076132245 -0.1086024
0.20460106 -0.076305725 -0.10297191
-0.16348024 -0.07591854 -0.11554378
0.16867529 -0.075959824 -0.11420494
-0.19914478 -0.058619287 -0.10785168
-0.18113384 -0.058489759 -0.1134581
0.18632333 -0.058520731 -0.11211699
0.204302 -0.0586503 -0.1065039
-0.21696088 -0.041126091 -0.10505486
-0.19883618 -0.041031588 -0.11119246
0.18605447 -0.040963545 -0.11560959
0.2040309 -0.041054502 -0.10970515
0.22212055 -0.041149091 -0.10355955
-0.21685128 -0.023559891 -0.10615021
-0.19873454 -0.02351268 -0.11229277
0.20393854 -0.02352412 -0.11079615
0.22201924 -0.023571413 -0.10465634
-0.198634 -0.0060105976 -0.11338121
0.20384534 -0.0060105976 -0.11189687
-0.21674177 -0.0060105557 -0.10724437
0.22191805 -0.0060105557 -0.10575199
-0.21663238 0.011521875 -0.10833752
-0.19853355 0.011474623 -0.11446851
0.20375314 0.01148606 -0.11298555
0.2218159 0.01153323 -0.10685754
-0.21665336 0.029057521 -0.10812777
-0.19850211 0.028954666 -0.11480868
0.20373546 0.028979506 -0.11319441
0.22184756 0.029082358 -0.10651487
-0.2167871 0.04662247 -0.10679126
-0.19862485 0.046468023 -0.11347997
0.2038472 0.04650509 -0.11187488
0.22197118 0.04665979 -0.10517657
-0.19874673 0.064001456 -0.1121608
-0.2169199 0.064207703 -0.10546428
0.20396 0.064051338 -0.1105426
0.22209497 0.064257756 -0.1038366
-0.21705396 0.081813894 -0.10412467
-0.19886974 0.081555843 -0.11082911
0.1860342 0.081361659 -0.11587274
0.20407292 0.081618167 -0.10920912
-0.19913355 0.099201024 -0.10797328
-0.18098138 0.098864451 -0.11525851
0.1862167 0.098945595 -0.11350209
0.20432727 0.09928263 -0.10620528
-0.19949418 0.11694659 -0.10406923
-0.18130893 0.11655212 -0.11139071
0.18651491 0.11664704 -0.10962808
-0.16353852 0.13385196 -0.1147868
0.16875674 0.13396011 -0.11302954
-0.18163851 0.13430069 -0.10749829
0.18681501 0.13440964 -0.10572982
-0.18196921 0.15211025 -0.10359281
-0.16383639 0.15160279 -0.11091721
0.15105154 0.15122148 -0.11642081
0.16902523 0.15172498 -0.10915399
-0.16425276 0.16953175 -0.10550851
-0.14614394 0.1689156 -0.11351311
-0.12846214 0.16867912 -0.11658525
0.13360493 0.16872554 -0.11598241
0.15134978 0.16906452 -0.11157775
0.16941208 0.16968098 -0.10357064
-0.14660734 0.18697459 -0.10682434
-0.12888242 0.18672596 -0.10976034
-0.11122564 0.18651342 -0.11227089
-0.093607754 0.18630129 -0.1147759
0.08116284 0.18614061 -0.11667275
0.09872739 0.18635243 -0.11417204
0.1163307 0.18656458 -0.11166573
0.13397288 0.18677731 -0.10915393
0.15176174 0.18713848 -0.1048888
-0.058697753 0.20395167 -0.11296362
-0.04114309 0.20372029 -0.11546695
0.046254262 0.2037771 -0.11485261
0.063794419 0.2040085 -0.11234778
-0.12930594 0.20488274 -0.10288328
-0.1115954 0.20464943 -0.10540891
-0.093923993 0.20441663 -0.10792899
-0.076291174 0.20418335 -0.11045462
0.081373312 0.20424043 -0.10983747
0.098991066 0.20447277 -0.10732168
0.1166478 0.20470567 -0.10480022
-0.076555714 0.22238728 -0.10358167
-0.058908917 0.22213469 -0.1061058
-0.041301116 0.2218827 -0.10862446
-0.023732172 0.2216312 -0.11113745
-0.0062019601 0.22138022 -0.11364484
0.011289647 0.22144075 -0.11304057
0.028805217 0.22169182 -0.11053175
0.046359502 0.22194345 -0.1080175
0.063952625 0.22219567 -0.10549748
0.081584714 0.2224483 -0.10297197
-0.023855666 0.24000649 -0.1031161
-0.006261697 0.23970817 -0.10588461
0.011289647 0.23978098 -0.10520971
-0.0063835289 -0.20041552 -0.090058327
0.011289647 -0.20044217 -0.08974427
-0.11242379 -0.18274413 -0.090036035
-0.094561704 -0.18242949 -0.094122052
-0.076845892 -0.18228166 -0.096042752
-0.059178613 -0.18218128 -0.0973472
-0.041531458 -0.18208104 -0.098650217
-0.023904385 -0.18198076 -0.099951863
-0.0062974468 -0.18188156 -0.10124075
0.011289647 -0.18190548 -0.10092998
0.028889146 -0.18200555 -0.099629343
0.046508513 -0.18210492 -0.098338544
0.064148054 -0.18220529 -0.09703505
0.081807703 -0.18230578 -0.095730186
0.099535689 -0.18250273 -0.093171835
0.11737897 -0.18282618 -0.088970006
-0.14771146 -0.16501169 -0.090888023
-0.12977052 -0.16470329 -0.095339537
-0.11189964 -0.16439685 -0.099762857
0.11692877 -0.16446932 -0.098717093
0.13477446 -0.16477688 -0.094278514
0.15268886 -0.1650847 -0.089834094
-0.18317513 -0.14743961 -0.089351535
-0.1651224 -0.14714022 -0.094211578
-0.14714591 -0.1468422 -0.099050879
0.13431856 -0.14661513 -0.1027391
0.15219118 -0.14691211 -0.097915411
0.17013949 -0.14721051 -0.093071163
-0.2006994 -0.12967086 -0.091022491
-0.1825906 -0.12938897 -0.096254587
-0.16456334 -0.12910764 -0.10147405
0.16964275 -0.12917416 -0.10024089
0.18763977 -0.12945567 -0.095015883
0.20571831 -0.129738 -0.089777887
-0.21838424 -0.11201388 -0.090831935
-0.20016868 -0.11173974 -0.096767545
-0.18210539 -0.11149888 -0.10198462
0.18719906 -0.1115563 -0.10074097
0.20523225 -0.11179741 -0.095518172
-0.21795435 -0.094181344 -0.095127404
-0.19979651 -0.093963176 -0.10079652
0.20490013 -0.094015375 -0.099440217
0.22304294 -0.094241098 -0.093574405
-0.23603694 -0.076675318 -0.090966523
-0.21759847 -0.076437697 -0.098683596
0.22269753 -0.076479875 -0.097313702
-0.23547906 -0.058889654 -0.096142888
-0.2172448 -0.058749355 -0.10221761
0.22237068 -0.058780789 -0.10085213
0.24067898 -0.058946546 -0.093675077
-0.23518485 -0.04122135 -0.0988729
0.24031708 -0.041245602 -0.09729141
-0.25367078 -0.023674686 -0.091246486
-0.23506618 -0.023607478 -0.099974036
0.24019781 -0.023618918 -0.098483264
-0.25337744 -0.006010639 -0.093786895
-0.23494761 -0.0060105976 -0.1010741
0.24008757 -0.0060105976 -0.099584937
0.25860417 -0.0060105976 -0.09107852
-0.25312471 0.01161709 -0.095975697
-0.23482917 0.011569294 -0.10217339
0.23997633 0.011580651 -0.1006965
0.25835323 0.011636793 -0.093406677
-0.25327811 0.029265065 -0.094647169
-0.23491171 0.029161043 -0.10140741
0.24006642 0.029185798 -0.099796057
0.25839424 0.029290028 -0.0930264
-0.25343427 0.046934161 -0.093294799
-0.23505659 0.046777878 -0.10006297
0.24020115 0.046815112 -0.098449826
0.25854018 0.046971649 -0.091672182
-0.25359058 0.064624131 -0.091940939
-0.23520166 0.064415462 -0.098716915
0.24033605 0.064465173 -0.097101986
0.2586863 0.064674176 -0.090316236
-0.25383908 0.082365647 -0.089789212
-0.23536611 0.08208067 -0.097191155
0.22221889 0.081876591 -0.10249507
0.24050459 0.082148962 -0.095417678
-0.23579083 0.099881053 -0.093250036
-0.21740259 0.099539682 -0.10064101
0.22255349 0.099621326 -0.098872781
0.24089848 0.099962696 -0.091481686
-0.23621581 0.11774212 -0.089306831
-0.2177958 0.11734311 -0.096711755
0.20465742 0.11704168 -0.10230654
0.22291702 0.11743861 -0.094937563
-0.21819036 0.13520785 -0.092769206
-0.19985503 0.13475247 -0.10016304
0.20498964 0.13486212 -0.098383069
0.22328074 0.13531683 -0.09100008
-0.20022742 0.15262718 -0.096131861
0.18711527 0.15223247 -0.10182923
0.20534477 0.15276173 -0.094189167
-0.20085479 0.17077641 -0.089340389
-0.18248865 0.17015144 -0.097458661
0.1876011 0.1703008 -0.095518112
-0.18306307 0.18834209 -0.090674937
-0.16477127 0.18765631 -0.098772585
0.16987875 0.18782054 -0.096834481
-0.16529287 0.20588847 -0.091996968
-0.14707349 0.20514031 -0.1000964
0.13434367 0.20493916 -0.10227323
0.15217608 0.20531908 -0.098160386
0.17034823 0.20606743 -0.090058267
-0.14754239 0.22341336 -0.093328357
-0.12973134 0.22314848 -0.095975697
-0.11196679 0.22289422 -0.098516703
-0.094241634 0.22264042 -0.10105193
0.099255897 0.22270165 -0.10044098
0.11696632 0.22295554 -0.097904265
0.13471609 0.22320984 -0.095361829
0.15259565 0.22361164 -0.091347337
-0.11247154 0.24151182 -0.089149535
-0.094661415 0.24120849 -0.091963291
-0.076895304 0.24090724 -0.094758868
-0.059172444 0.24060674 -0.09754777
-0.041492671 0.24030691 -0.1003297
0.028867511 0.24007951 -0.10243952
0.046488129 0.24037869 -0.099662721
0.06415166 0.2406787 -0.096879065
0.081858248 0.24097958 -0.094088614
0.099608071 0.24128096 -0.091291428
-0.0417234 0.25905472 -0.090338707
-0.024009285 0.25873142 -0.093138278
-0.0063383207 0.25840893 -0.095931053
0.011289647 0.25848618 -0.095261335
0.02894428 0.25880885 -0.09246707
0.046642043 0.2591323 -0.089665771
-0.024289073 -0.21948288 -0.074965715
-0.0064907074 -0.21937485 -0.076135516
0.011289647 -0.21940003 -0.075862944
-0.11307443 -0.20143984 -0.077961504
-0.095121056 -0.20109691 -0.0820117
-0.077278711 -0.20086099 -0.084797859
-0.059524469 -0.20074947 -0.08611536
-0.041790552 -0.20063803 -0.087431133
-0.024076918 -0.20052677 -0.088745475
0.028975349 -0.20055331 -0.08843112
0.046681292 -0.2006647 -0.087116301
0.064407513 -0.20077617 -0.085800111
0.0821537 -0.20088677 -0.084493637
0.10000221 -0.20117825 -0.08105129
0.11793194 -0.2015215 -0.076997757
-0.16647983 -0.18378012 -0.076578081
-0.14839061 -0.18343313 -0.081085205
-0.13037255 -0.18308839 -0.0855636
0.13530113 -0.18316981 -0.084504902
0.1532931 -0.18351497 -0.080022335
0.1713561 -0.18386222 -0.075510979
-0.18382822 -0.1656525 -0.081639051
-0.1657214 -0.16532056 -0.086430311
0.17067365 -0.16539465 -0.085360944
0.18875915 -0.1657332 -0.080474913
-0.21990041 -0.1482815 -0.075681269
-0.20131604 -0.14774773 -0.084347188
0.18816397 -0.1475101 -0.08820647
0.20635012 -0.14787281 -0.082316518
-0.21913362 -0.13008468 -0.083343625
0.22419351 -0.13020456 -0.08111918
-0.23716034 -0.11248919 -0.080542684
0.22352119 -0.11212634 -0.088397503
0.24224015 -0.11260314 -0.078074872
-0.25549826 -0.094939932 -0.075420022
-0.23659739 -0.094541728 -0.085766315
0.24171741 -0.094636738 -0.083298385
-0.25489241 -0.076992534 -0.0806669
0.24119702 -0.076751366 -0.088498533
0.25999337 -0.077068888 -0.078188181
-0.25428927 -0.059126459 -0.085890114
0.25943291 -0.059184145 -0.083388686
-0.27305767 -0.041553956 -0.077258706
-0.25396603 -0.041378051 -0.088689446
0.25915605 -0.041420128 -0.085957646
-0.27274096 -0.023762509 -0.07983005
0.25887981 -0.023695681 -0.088520885
0.27788228 -0.023783382 -0.077111304
-0.27242357 -0.0060105976 -0.082406938
0.27758405 -0.0060105557 -0.079694271
-0.27224708 0.011710427 -0.083839774
0.2774508 0.011733427 -0.080847919
-0.27226651 0.029433914 -0.083681881
0.2774691 0.029479999 -0.080689609
-0.27228597 0.04715978 -0.083524048
0.27748737 0.047228947 -0.080531359
-0.27230403 0.064887777 -0.083377361
0.27750567 0.064980321 -0.080372989
-0.27253765 0.082685396 -0.081480801
0.25893548 0.082434319 -0.088004291
0.27776319 0.082813926 -0.078142822
-0.27292362 0.10056938 -0.078346789
-0.25429708 0.10022405 -0.085822642
0.25936243 0.10030624 -0.084042728
0.27812347 0.10072292 -0.075022399
-0.25475538 0.11814369 -0.081853569
0.24129485 0.11783834 -0.087521076
0.25979203 0.11824061 -0.080056429
-0.25521657 0.13612601 -0.077859581
-0.23664349 0.13566545 -0.085338414
0.24169144 0.1357751 -0.083557963
0.26022196 0.13623641 -0.076067328
-0.23723716 0.15375662 -0.079829991
-0.21866608 0.15318947 -0.088015437
0.22373718 0.15332511 -0.086058974
0.24226056 0.15389237 -0.077870905
-0.21935055 0.17140484 -0.081175685
0.20591991 0.17092602 -0.087397516
0.22436906 0.17155553 -0.079218805
-0.20148589 0.18903358 -0.082508504
0.18812332 0.18850641 -0.088734269
0.20649843 0.18919817 -0.080565214
-0.20212075 0.2073998 -0.075635791
-0.18364091 0.20664081 -0.083851039
0.18864951 0.20682122 -0.081898808
-0.18435676 0.22520785 -0.075397491
-0.16587222 0.22429985 -0.084471166
0.1708838 0.22451428 -0.082327843
-0.14823571 0.24213998 -0.083321095
-0.13032474 0.2418146 -0.086340249
0.11740126 0.24158324 -0.088487327
0.13523801 0.24188614 -0.085676372
0.15322208 0.24237116 -0.081175685
-0.095126271 0.26002917 -0.081898808
-0.077281743 0.25970346 -0.084718943
-0.059480838 0.25937867 -0.087532222
0.06438309 0.25945663 -0.086857677
0.082167581 0.2597816 -0.084042728
0.09999568 0.26010743 -0.081220925
-0.1309476 0.26068422 -0.076226175
-0.11301522 0.26035693 -0.079060316
0.11786754 0.26043409 -0.078392148
0.13578333 0.26076153 -0.075556457
-0.059792295 0.27831718 -0.077417374
-0.041956425 0.2779685 -0.080248475
-0.024164254 0.27762055 -0.083072782
-0.0064156149 0.27727357 -0.085890174
0.011289647 0.2773554 -0.085225821
0.029021723 0.27770251 -0.082406938
0.046797305 0.27805057 -0.079581022
0.064616561 0.27839953 -0.076748312
-0.13188551 -0.22077335 -0.060996473
-0.11379493 -0.22044134 -0.064590514
-0.095760219 -0.2201104 -0.068173647
-0.077791616 -0.21980564 -0.071472049
-0.059939586 -0.21969832 -0.072634041
-0.042105205 -0.21959005 -0.073806107
0.029081104 -0.21950819 -0.074692905
0.046890423 -0.21961519 -0.073533118
0.064717881 -0.21972354 -0.072360754
0.082572207 -0.21985838 -0.070902109
0.10053044 -0.22018848 -0.067327499
0.1185442 -0.22051969 -0.063741982
-0.16731441 -0.20247507 -0.065736592
-0.14917041 -0.20212848 -0.069829643
0.15397987 -0.20220974 -0.068870544
0.17209996 -0.20255654 -0.064774096
-0.13109104 -0.20178409 -0.073897004
0.13592423 -0.20186493 -0.072941363
-0.20320038 -0.1847523 -0.063948512
-0.18465537 -0.18414244 -0.071870863
0.18956456 -0.18428551 -0.070012391
0.20806494 -0.18489724 -0.062065601
-0.22086468 -0.16673288 -0.066045821
-0.2022005 -0.16612823 -0.074772537
0.20716329 -0.16627085 -0.072713733
0.22577649 -0.16687578 -0.063982844
-0.23869802 -0.14886066 -0.066274822
0.22489218 -0.14841235 -0.073555887
0.24364467 -0.14899835 -0.064040184
-0.25677124 -0.13110568 -0.064395726
-0.23787531 -0.13059309 -0.073908567
0.24288155 -0.13071388 -0.071665823
0.26172352 -0.13122752 -0.062134564
-0.25610688 -0.11296926 -0.070149243
0.26112688 -0.11308371 -0.067670643
-0.27456996 -0.09534166 -0.064980388
0.26055884 -0.095035315 -0.072941482
0.27957052 -0.095437527 -0.062490702
-0.27391785 -0.077312492 -0.070274711
0.27895921 -0.077389173 -0.067784846
-0.29268235 -0.059652708 -0.063099205
-0.27337506 -0.059385221 -0.07468152
0.2784808 -0.059448753 -0.071927845
-0.29234022 -0.041731779 -0.065713584
0.27818123 -0.041596156 -0.074522436
0.29739794 -0.041774146 -0.062961578
-0.29200035 -0.023851216 -0.068310678
0.2970759 -0.023872171 -0.065576255
0.29675314 -0.006010639 -0.068196476
-0.29165974 -0.0060105557 -0.070913494
-0.29162839 0.011808147 -0.071152985
0.2967588 0.011831271 -0.068150818
-0.29164928 0.029629227 -0.070993304
0.2967785 0.02967548 -0.06799078
-0.29167017 0.047452897 -0.070833683
0.2967996 0.047522523 -0.067819238
-0.2917105 0.065283582 -0.070525706
0.29687709 0.065386221 -0.06719023
-0.29212004 0.083227508 -0.067396104
0.29726505 0.083356664 -0.064040124
-0.29253221 0.10122057 -0.064246535
0.29765409 0.10137606 -0.060881495
-0.29294398 0.11926202 -0.061100066
-0.27341709 0.11854859 -0.074340582
0.27848476 0.11868041 -0.071893692
-0.27392206 0.13659519 -0.070240438
0.27890244 0.1367162 -0.068276465
-0.27477762 0.15490225 -0.06329447
-0.25593966 0.1543269 -0.071597457
0.26091632 0.15446369 -0.069624245
0.27970588 0.15503907 -0.061318398
-0.25674212 0.1726772 -0.064647973
-0.23797955 0.17203875 -0.072941363
0.24294998 0.17218968 -0.07098192
0.26166534 0.17282918 -0.062674463
-0.22004026 0.18973009 -0.074283719
0.22500575 0.18989585 -0.072326601
-0.23872764 0.19043154 -0.065999985
0.24364467 0.19059746 -0.064040184
-0.22073296 0.20816417 -0.067361891
0.20708136 0.20758031 -0.073680878
0.22566 0.20835973 -0.065243959
-0.20298761 0.22612306 -0.066251814
0.18931629 0.22542402 -0.07323724
0.20789483 0.22634092 -0.064074576
-0.18523009 0.24410543 -0.065083444
-0.16665995 0.24311878 -0.0742383
0.17159329 0.2433506 -0.072087348
0.19011085 0.24433902 -0.062915623
-0.1674547 0.26210588 -0.063913941
-0.14894538 0.26104772 -0.073077977
0.15385337 0.26129642 -0.070924878
0.17230989 0.26235658 -0.061743855
-0.14966138 0.28012452 -0.062743306
-0.13157597 0.27972057 -0.066022813
-0.11356369 0.27936837 -0.068882048
-0.095595762 0.27901715 -0.07173425
-0.07767202 0.27866676 -0.074579298
0.082479633 0.27874938 -0.073908448
0.10038671 0.27909997 -0.071061611
0.11833793 0.27945146 -0.06820792
0.13633345 0.27980387 -0.065347075
-0.078154109 0.29809818 -0.062054157
-0.060167491 0.29768223 -0.065232515
-0.04223001 0.29726744 -0.068402112
-0.02434128 0.29685226 -0.071574569
-0.0065015499 0.29643971 -0.074727118
0.011289647 0.29653645 -0.073987961
0.029110814 0.29694927 -0.070833683
0.046980679 0.29736313 -0.067670524
0.064899713 0.29777974 -0.064487398
0.082867667 0.29819587 -0.061306953
-0.11461266 -0.23982918 -0.049415648
-0.096481949 -0.2395158 -0.052547634
-0.078402907 -0.23921131 -0.055590332
-0.060417458 -0.23905872 -0.057114422
-0.042468041 -0.23896065 -0.058094859
-0.024533557 -0.23886144 -0.059085846
-0.006614333 -0.23876235 -0.060076118
0.011289647 -0.23878534 -0.059845984
0.029203022 -0.23888446 -0.058855534
0.047131658 -0.23898366 -0.05786413
0.065075576 -0.23908298 -0.056871951
0.083065398 -0.23928183 -0.054885268
0.10112652 -0.23958649 -0.051840723
0.11924563 -0.23991515 -0.048555851
-0.16832969 -0.22155382 -0.052547634
-0.15003216 -0.22110634 -0.057391346
0.13661377 -0.22085191 -0.060145259
0.15474226 -0.22118953 -0.056491196
0.1730627 -0.221708 -0.050878346
-0.20430388 -0.203638 -0.052003026
-0.1856824 -0.20298268 -0.059742272
0.19048284 -0.20312311 -0.058083355
0.20907614 -0.20379709 -0.05012393
-0.24072669 -0.1860223 -0.047451019
-0.221874 -0.18536727 -0.05595988
0.22669168 -0.18551229 -0.054075718
-0.25861907 -0.16795589 -0.048393071
-0.23967032 -0.16734205 -0.057252824
0.24453075 -0.16748524 -0.055185914
-0.27678061 -0.15004577 -0.047032058
-0.25766 -0.14945038 -0.056698978
0.26255214 -0.1495892 -0.054445922
-0.27588314 -0.13164875 -0.054318666
0.28080162 -0.13178287 -0.051829219
-0.29451716 -0.11394243 -0.049078822
-0.27522504 -0.11345367 -0.059661746
0.28018466 -0.11356863 -0.057172
-0.29381481 -0.095747195 -0.054445982
0.29875478 -0.095843412 -0.05194509
-0.31254926 -0.077974826 -0.048765063
-0.29311565 -0.077635415 -0.059788287
0.29809678 -0.07771235 -0.057287574
-0.31218252 -0.059922658 -0.051411808
0.2977207 -0.059716407 -0.060340941
0.31715274 -0.059986439 -0.048648775
-0.31181821 -0.041911438 -0.054040968
0.31680635 -0.041953765 -0.051295817
-0.3114531 -0.023940794 -0.056675971
0.3164607 -0.02396179 -0.053936958
-0.3112022 -0.006010639 -0.05848664
0.31626096 -0.0060105557 -0.055463254
-0.31122455 0.011906826 -0.058325291
0.31628215 0.011930075 -0.055301309
-0.31124693 0.029826839 -0.05816406
0.31630331 0.029873338 -0.055139661
-0.31126767 0.04774902 -0.058014214
0.3163245 0.047819022 -0.054977715
-0.3115027 0.065720998 -0.056317985
0.31658947 0.06582465 -0.052952945
-0.31194329 0.083776295 -0.053138375
0.3170068 0.083906159 -0.049764037
-0.31238347 0.10188044 -0.049961388
0.2980428 0.11944393 -0.057725787
-0.2935577 0.13744695 -0.056410372
0.29866919 0.13767917 -0.052640378
-0.29442292 0.15583715 -0.049798846
-0.27563974 0.17332025 -0.056294918
0.28051415 0.17347243 -0.054318666
-0.27650705 0.19184965 -0.049253106
-0.25754941 0.19113798 -0.057656586
0.26241884 0.19130516 -0.055682659
0.28132731 0.192017 -0.047276556
-0.25856 0.20986915 -0.048904479
-0.2395684 0.20901057 -0.058198571
0.2444475 0.20921199 -0.056017697
-0.24069662 0.22797662 -0.047730267
-0.22176769 0.2270468 -0.057022154
0.22662009 0.22726403 -0.054850638
-0.203949 0.24510112 -0.055844426
0.2087758 0.24533537 -0.053670645
-0.18611228 0.26317379 -0.054665625
0.19091254 0.26342368 -0.05250138
-0.16832879 0.28137892 -0.052559316
0.15449525 0.28040057 -0.060501814
0.17311496 0.2816788 -0.050124049
-0.15066364 0.29990113 -0.048276901
-0.13241151 0.29935431 -0.052454948
-0.11427619 0.29893491 -0.055659592
-0.096190609 0.29851681 -0.058855534
0.10088491 0.29861325 -0.058117926
0.11895167 0.29903179 -0.054920077
0.13706876 0.2994529 -0.051701725
-0.078699164 0.31794906 -0.047893047
-0.060602345 0.31750327 -0.051110327
-0.042554982 0.31705725 -0.05433017
-0.024557514 0.31661382 -0.057529688
-0.0066093709 0.31617177 -0.060720563
0.011289647 0.31627381 -0.059983969
0.029218912 0.31671607 -0.056791306
0.047197469 0.31715977 -0.053589702
0.065225519 0.31760466 -0.050379336
0.083303273 0.31805062 -0.047160149
-0.097339995 -0.25947985 -0.033970296
-0.079122394 -0.25916436 -0.036897302
-0.060983278 -0.25896591 -0.038739026
-0.042897187 -0.25888249 -0.039512575
-0.024823191 -0.25880045 -0.040273607
-0.0067608263 -0.25871724 -0.041046023
0.011289647 -0.25873622 -0.040870547
0.029347418 -0.25881937 -0.040098071
0.047417089 -0.2589027 -0.039324999
0.065498404 -0.2589848 -0.038563251
0.083636642 -0.25922516 -0.036333621
0.10184245 -0.2595585 -0.033240497
-0.1696095 -0.24117944 -0.035922468
-0.15109089 -0.24056025 -0.042110145
-0.13282295 -0.24019356 -0.04577446
0.13743463 -0.24027988 -0.044911921
0.15571286 -0.24069835 -0.040730178
0.17420068 -0.2413266 -0.034452796
-0.20558545 -0.2228857 -0.038129449
-0.18689969 -0.22221722 -0.045366526
0.19159107 -0.22237232 -0.043686986
0.21023394 -0.22304069 -0.036451161
-0.24198179 -0.20500964 -0.035804987
-0.22307768 -0.20432147 -0.043931961
0.22780241 -0.20448066 -0.042051613
0.24665858 -0.20516899 -0.033923328
-0.25975955 -0.18671006 -0.038516402
0.24551225 -0.18618192 -0.045378149
0.26449275 -0.18686992 -0.036439419
-0.2777414 -0.16859058 -0.0392313
0.26342767 -0.1680993 -0.046321929
0.28251764 -0.16874745 -0.036967754
-0.29605907 -0.1506453 -0.037296474
0.28161651 -0.150185 -0.044771969
0.30083975 -0.15078568 -0.035017371
-0.29522124 -0.13222098 -0.04369849
0.30007994 -0.13235638 -0.041186273
-0.31398562 -0.11443567 -0.038399041
0.29941586 -0.11405797 -0.046578109
0.3188228 -0.11455165 -0.035887301
-0.3132351 -0.096156351 -0.043815315
0.31811401 -0.096253067 -0.041303396
-0.33227098 -0.078339197 -0.036932528
0.31749994 -0.078060143 -0.045995772
0.33715415 -0.078424975 -0.034146965
-0.33187991 -0.060195278 -0.039606214
0.33678114 -0.060259186 -0.03683871
-0.33149147 -0.042092893 -0.042262018
0.33641067 -0.04213522 -0.039512515
-0.33110216 -0.024031252 -0.044923484
0.336041 -0.024052329 -0.04218024
-0.33101523 -0.006010639 -0.0455181
0.33599892 -0.006010639 -0.042484045
-0.3310391 0.012006716 -0.045354962
0.33602157 0.012030049 -0.04232049
-0.33106297 0.030026451 -0.045191646
0.33604425 0.030073203 -0.042156816
-0.33108512 0.048048563 -0.045040071
0.3360993 0.048124369 -0.041759431
-0.33154103 0.066164225 -0.041923046
0.33654544 0.066268452 -0.038539827
-0.33201015 0.084331475 -0.03871572
0.33699277 0.084462509 -0.03531146
-0.33248058 0.10254844 -0.035499454
0.31742525 0.10203727 -0.046566486
-0.31282488 0.12003396 -0.046776056
0.31786016 0.12022426 -0.043243289
-0.3137145 0.13843568 -0.040355623
0.31873363 0.13866897 -0.036568522
-0.31464329 0.15695585 -0.033652604
0.2994847 0.15609905 -0.046019077
-0.29529458 0.17433301 -0.043138146
0.30030486 0.17462391 -0.039360225
-0.29624963 0.19298534 -0.035840333
-0.27770248 0.21073346 -0.039547622
0.263385 0.21007113 -0.046717823
0.28247294 0.21093599 -0.037355125
-0.2597785 0.22891504 -0.038352191
0.2454959 0.22819564 -0.045541346
0.26452312 0.22913481 -0.036157489
-0.22281638 0.24610361 -0.046543181
-0.24183623 0.24711525 -0.037155628
0.22758883 0.24633852 -0.044363737
0.24655379 0.24735072 -0.034970462
-0.22388394 0.26534358 -0.03587544
-0.204918 0.26424894 -0.045354843
0.20966472 0.26450092 -0.043173254
0.22859894 0.26562598 -0.033429027
-0.18717645 0.28266734 -0.042098463
0.1919025 0.28297004 -0.039641321
-0.1694676 0.30127674 -0.037765741
0.15539935 0.30022249 -0.045821071
0.17414202 0.30159941 -0.035299599
-0.15169235 0.31995338 -0.033428848
-0.13328941 0.31929231 -0.038199842
-0.11504223 0.3188428 -0.041443765
-0.096845947 0.31839606 -0.044667006
0.10143138 0.31849954 -0.043920338
0.11960924 0.31894818 -0.040683389
0.13783741 0.31939796 -0.03743732
-0.07925 0.33804011 -0.033581972
-0.061041795 0.33756378 -0.03683871
-0.042883933 0.33708876 -0.040086269
-0.024776211 0.33661497 -0.043325007
-0.0067184195 0.3361426 -0.046554744
0.011289647 0.33625337 -0.045797646
0.029328419 0.33672604 -0.042565763
0.047417089 0.33720005 -0.039325058
0.065555863 0.33767536 -0.036075294
0.083744943 0.33815193 -0.03281641
-0.15241258 -0.26065862 -0.023033023
-0.13393213 -0.26014867 -0.027763426
-0.11561195 -0.25981382 -0.030870914
0.12009571 -0.25989136 -0.030151069
0.13839759 -0.26022655 -0.027041554
0.15687811 -0.26079047 -0.021808863
-0.20695806 -0.24244563 -0.023270726
-0.18823314 -0.24181025 -0.029619396
0.19278772 -0.24195813 -0.028141916
0.21147782 -0.24259664 -0.021761358
-0.24330451 -0.22423419 -0.023531854
-0.22438595 -0.22355732 -0.030859172
0.22899342 -0.22371437 -0.029158592
0.24788402 -0.22440541 -0.02167815
-0.26101759 -0.20570259 -0.027621448
0.26564729 -0.20586303 -0.025726676
-0.27893838 -0.18740322 -0.029513061
0.28372267 -0.18763264 -0.026532114
-0.29728186 -0.16937204 -0.027952731
0.30214915 -0.16961907 -0.024386585
-0.31604731 -0.1514937 -0.023520052
0.32097051 -0.15174282 -0.019475818
-0.3148261 -0.13283342 -0.032333374
0.31981471 -0.13305034 -0.028307438
-0.33418062 -0.11510649 -0.02387619
0.33913749 -0.11529324 -0.019833267
-0.3328937 -0.096585214 -0.032675028
0.33791575 -0.096740127 -0.028650403
-0.35291788 -0.078852169 -0.020273924
-0.35202545 -0.060507886 -0.026070297
0.35710406 -0.060612869 -0.021523416
-0.35136446 -0.042276017 -0.0303635
0.35625714 -0.042322937 -0.027313709
-0.35102493 -0.02412634 -0.032568932
0.35593373 -0.024149798 -0.029524922
-0.35105032 -0.0060105976 -0.032404065
0.35595793 -0.0060106809 -0.029359519
-0.37133625 0.012209668 -0.018987298
-0.35107574 0.012107649 -0.03223902
0.35598385 0.012131275 -0.029182255
-0.37136322 0.030432481 -0.018820465
-0.35109931 0.030228276 -0.032085717
0.35600805 0.030275572 -0.029016793
-0.35132816 0.048382089 -0.030599535
0.35627276 0.048460398 -0.027207196
-0.35182673 0.066612706 -0.027360976
0.3567495 0.066717811 -0.023947418
-0.35232672 0.084893413 -0.024113536
0.35722587 0.085025236 -0.020690501
-0.35282806 0.10322472 -0.020857215
0.33743972 0.10270606 -0.032085717
-0.333161 0.12089226 -0.030847371
0.3381387 0.12109735 -0.027041495
-0.33414936 0.13943736 -0.024089873
0.33907643 0.13967238 -0.020273805
0.31961212 0.15721895 -0.029855728
-0.31557578 0.17558128 -0.026923001
0.32049254 0.17587347 -0.023128092
0.30126473 0.19334722 -0.031566978
-0.29768333 0.212088 -0.02488482
0.30261609 0.21248418 -0.020595431
-0.27901262 0.22985996 -0.028910458
0.28370214 0.23008019 -0.026709795
-0.26100802 0.24813396 -0.027704179
0.26567155 0.2483713 -0.02550143
-0.24311779 0.26656878 -0.025264144
0.24777219 0.26685384 -0.02279532
-0.22538449 0.28528056 -0.020880997
-0.20619494 0.28396884 -0.031531632
0.21085945 0.28427282 -0.029064059
-0.18844041 0.30266306 -0.027171612
0.19305307 0.30298728 -0.024694979
-0.17062001 0.32142672 -0.02279532
0.15631497 0.32029632 -0.030953526
0.17518137 0.32177287 -0.020297706
-0.13424906 0.33964372 -0.022617161
-0.11585595 0.33909893 -0.026342809
-0.097520776 0.33855563 -0.030056357
0.10199865 0.33868349 -0.029182196
0.1203121 0.33922714 -0.025465846
0.13868277 0.33977073 -0.021749437
-0.043311246 0.35799536 -0.021582961
-0.025053361 0.3574194 -0.02532351
-0.0068532452 0.3568472 -0.029040515
0.011289647 0.35698009 -0.028177381
0.029467816 0.35755286 -0.024457693
0.047703438 0.35812727 -0.020726383
-0.13528904 -0.28084567 -0.0057301521
-0.1167799 -0.28044528 -0.0091965795
-0.098372228 -0.28016537 -0.011621773
-0.080002561 -0.27988717 -0.014030218
-0.061681882 -0.27965382 -0.016051412
-0.043424375 -0.2795808 -0.016684473
-0.025179012 -0.27952561 -0.017162025
-0.0069411006 -0.27947184 -0.017627597
0.011289647 -0.27948421 -0.01752013
0.029524896 -0.27953938 -0.017042756
0.047767319 -0.27959311 -0.016577005
0.066026017 -0.27969253 -0.015716732
0.084340736 -0.27995223 -0.013467431
0.10269625 -0.28023037 -0.011057973
0.12108909 -0.28050926 -0.008643508
0.13959602 -0.28095287 -0.0048015118
-0.20858839 -0.26253504 -0.0056216121
-0.18972057 -0.2618418 -0.012053549
-0.17100772 -0.26122695 -0.017758906
0.17544164 -0.26135817 -0.016541183
0.19414073 -0.26200217 -0.010565937
-0.24508803 -0.24407564 -0.0069829822
-0.22586304 -0.24316329 -0.016099095
0.23035777 -0.24333441 -0.014389217
-0.26269895 -0.2252015 -0.013060212
0.26732388 -0.22546855 -0.010169625
-0.28058171 -0.20667221 -0.0161708
0.28529349 -0.20694673 -0.012928486
-0.29887843 -0.18846244 -0.015752494
0.30361059 -0.18871123 -0.012520909
-0.31758302 -0.17044695 -0.012437165
0.3223629 -0.17069647 -0.0088357925
-0.33678535 -0.15256853 -0.006067574
-0.33547896 -0.13376749 -0.01499939
0.34037006 -0.13398629 -0.010937989
-0.35505131 -0.11591283 -0.0064170361
-0.35381466 -0.097286656 -0.014449179
0.35881037 -0.097463436 -0.0098573565
0.35795686 -0.078993179 -0.01569277
-0.37338975 -0.060964845 -0.0062844753
-0.37243968 -0.042556278 -0.012161434
0.37744895 -0.042626612 -0.00759691
-0.37193066 -0.024259206 -0.015310228
0.37705469 -0.024298903 -0.010157526
-0.37152129 -0.0060105976 -0.017842412
0.37666681 -0.0060106809 -0.012676775
0.37627795 0.012238762 -0.015202582
0.37619513 0.030479982 -0.015740573
-0.37183595 0.048721582 -0.015895963
0.3766982 0.048800725 -0.012473047
-0.3723661 0.067066699 -0.012616873
0.37720451 0.06717243 -0.0091845989
-0.37289762 0.085462615 -0.0093286633
0.3777141 0.085595526 -0.0058746934
0.3577053 0.10338384 -0.017412782
-0.35381466 0.12177592 -0.01444906
0.35869971 0.12198258 -0.010613859
-0.35486776 0.14045238 -0.0076089501
-0.33514166 0.15808842 -0.017305374
0.34001625 0.1583527 -0.013491392
-0.33622751 0.17689312 -0.0098813176
0.34111506 0.17722572 -0.0055612326
-0.31689522 0.19454673 -0.017400861
0.32180381 0.19491035 -0.013108075
-0.31843722 0.2138073 -0.0062724352
-0.29913047 0.2313695 -0.013826668
0.30398008 0.23180036 -0.0095210075
-0.28033471 0.24916077 -0.018176436
0.28494254 0.24939871 -0.015967607
-0.26252615 0.26780519 -0.014556825
0.26711956 0.26809278 -0.012065411
-0.24474849 0.28660434 -0.010133564
0.22998807 0.28558728 -0.018391132
0.24928956 0.28691232 -0.00763309
-0.22690433 0.30547386 -0.0056937933
-0.20758522 0.3040621 -0.016481519
0.21213654 0.30438909 -0.013982296
-0.18971957 0.32291365 -0.01206547
0.19421931 0.32326275 -0.0095449686
-0.15287809 0.34056574 -0.016314209
0.15739329 0.34098557 -0.01344341
-0.11692189 0.36030814 -0.0065614581
-0.09843155 0.35972676 -0.010337651
-0.080000252 0.35914895 -0.014089942
-0.061626725 0.35857132 -0.017842352
0.065996781 0.35870364 -0.016983032
0.084348112 0.35928175 -0.013227761
0.10275773 0.35986167 -0.0094609261
0.12122533 0.36044163 -0.0056939125
-0.025357621 0.37878567 -0.0055612922
-0.0070048012 0.37817276 -0.0093527436
0.011289647 0.37831265 -0.0084872246
-0.19146563 -0.28249511 0.0085544586
-0.17261826 -0.28187245 0.003162384
-0.15389161 -0.28131273 -0.0016850829
0.1581748 -0.28142029 -0.00075346231
0.17689177 -0.28201419 0.0043897033
-0.22771652 -0.26340184 0.0024219751
0.21297117 -0.26269621 -0.0041257143
0.23211159 -0.26363626 0.0045963526
-0.26468584 -0.24518941 0.0041465759
0.24961035 -0.24433133 -0.0044274926
0.26914346 -0.24544629 0.0067139268
-0.28252241 -0.22636972 -0.0004145503
0.28707439 -0.22663847 0.002494812
-0.30067506 -0.20787016 -0.0020238161
0.30530617 -0.20814693 0.0012452006
-0.31918854 -0.18960962 -0.00085031986
0.32388067 -0.18988767 0.0027618408
-0.33815312 -0.17153618 0.0032839179
0.34285983 -0.17179576 0.0070306659
0.34161025 -0.15281977 -0.0019875765
-0.3564364 -0.13471471 0.0025797486
0.36122873 -0.13493551 0.0066772699
0.35990837 -0.11610075 -0.0023502111
-0.37529817 -0.098055303 0.005520761
-0.37434062 -0.079464033 -0.00040245056
0.37926817 -0.079606295 0.0042194724
0.37835538 -0.061070494 -0.001709342
-0.39401647 -0.02443365 0.0073473454
-0.39357936 -0.0060105557 0.004766643
-0.39314529 0.012372714 0.0022035837
0.39818457 0.012412912 0.0074205399
-0.39307749 0.030750059 0.0018031001
0.39823976 0.030841809 0.0077616572
-0.39328715 0.049159002 0.0030410886
0.39844283 0.04929696 0.0090181231
-0.39349702 0.067586981 0.0042802691
-0.39372978 0.086039208 0.0056545734
-0.37364116 0.10396961 -0.0047291517
0.37848392 0.10414764 -0.00087451935
-0.37475601 0.12267125 0.0021671653
0.37954533 0.12287889 0.0060197711
-0.37587735 0.14148158 0.0091034174
0.35969985 0.14068843 -0.003775835
-0.35592693 0.15923692 -0.00072938204
0.36070579 0.15950224 0.0031017661
-0.35742015 0.17834426 0.0089693666
-0.33786559 0.19613183 0.0013180971
0.34266919 0.19649903 0.0056546926
0.32326227 0.2142054 -0.0019632578
-0.31999546 0.23325096 0.004973352
-0.30077001 0.25097975 -0.0012980103
0.30560511 0.25151542 0.0036726594
-0.28211138 0.26905277 -0.0037516356
0.28664762 0.26934746 -0.0012013912
-0.26428923 0.28794011 0.00071203709
0.26876855 0.28825095 0.0032353401
-0.24640016 0.30689842 0.0051922202
0.23139396 0.30580389 -0.0031719804
0.25082773 0.30723149 0.0077373981
-0.20908953 0.32455808 -0.00019657612
0.21354926 0.32495975 0.0027011037
-0.17207299 0.34237844 -0.0039206743
0.17651531 0.34279916 -0.001044035
-0.19146976 0.34421012 0.0086032152
-0.15434787 0.36207268 0.0049003959
-0.13547112 0.36089128 -0.0027732253
0.13975221 0.36102536 -0.0019029975
0.15869994 0.36251515 0.0077739358
-0.08076819 0.38063228 0.00586164
-0.062238753 0.38001338 0.0020336509
-0.043768816 0.37939861 -0.0017698407
0.029619871 0.37892425 -0.0047050714
0.048008695 0.37953943 -0.00089865923
0.066456132 0.38015476 0.0029075742
0.084962539 0.38077211 0.0067260265
-0.13689047 -0.30237082 0.020273626
-0.11823399 -0.30206463 0.017787874
-0.099628493 -0.30179235 0.015577137
-0.081084557 -0.30160815 0.014081061
-0.062582932 -0.30150089 0.01321125
-0.044109412 -0.30147237 0.012978673
-0.025641365 -0.30145866 0.012868345
-0.0071750116 -0.3014451 0.012758195
0.011289647 -0.30144817 0.012782812
0.029755343 -0.30146176 0.012892902
0.048222736 -0.30147529 0.013003111
0.066695496 -0.30150849 0.013272524
0.08519958 -0.30165029 0.014424205
0.10373514 -0.30183616 0.015932977
0.12233602 -0.30213431 0.018353403
0.14097776 -0.30244067 0.020840466
-0.21055572 -0.28331733 0.015675366
0.19570751 -0.28263739 0.0097872019
0.21479867 -0.28352293 0.017455995
-0.26685277 -0.26561022 0.022912681
-0.2471285 -0.26442879 0.011950552
0.25147116 -0.26466757 0.014166832
-0.28452229 -0.24635783 0.015822351
0.28895247 -0.24665174 0.018759429
-0.30255827 -0.22755028 0.012366533
0.30703813 -0.22782198 0.015307128
-0.32100973 -0.20908245 0.01229316
0.32555935 -0.20936154 0.015589297
-0.33987039 -0.19083165 0.015025079
0.34447312 -0.19111255 0.01867336
-0.35924026 -0.17274907 0.020791113
-0.35783395 -0.15366013 0.011657
0.36255735 -0.1539128 0.015761316
-0.37770897 -0.13567683 0.020433724
-0.37626046 -0.11673917 0.011473477
0.38110185 -0.11695422 0.016129434
0.38018179 -0.09823367 0.010153532
-0.39612633 -0.080086291 0.01980561
-0.39510912 -0.061428644 0.01379925
0.39996591 -0.061535757 0.018439472
-0.39445239 -0.042896271 0.0099214911
0.39943773 -0.042977083 0.015172303
0.39901781 -0.024473887 0.012574673
0.39860076 -0.006010639 0.0099947453
0.39864618 0.067771606 0.010275722
0.39887142 0.08627075 0.011669159
-0.39480844 0.10474344 0.012023926
0.3998228 0.10499886 0.017554343
-0.3959929 0.12357929 0.019017875
0.38061294 0.14171873 0.012954175
-0.37709847 0.16044143 0.016657293
0.38185564 0.16074412 0.02102524
0.36219874 0.17867836 0.013309181
-0.35917196 0.1977433 0.020347655
-0.33952093 0.21555398 0.012635767
0.34423804 0.21595491 0.016976893
0.32473612 0.23368371 0.0092988014
-0.32215995 0.25333905 0.02059406
-0.30298325 0.27128902 0.015613973
0.30769536 0.27186975 0.020643175
-0.28401074 0.28928971 0.011669159
0.28859919 0.28978625 0.015699923
-0.26607656 0.30833775 0.016190946
0.27047741 0.30871731 0.019091666
-0.22871293 0.32630062 0.012378812
0.23309873 0.32670298 0.015282571
-0.21107271 0.34606302 0.021271765
0.19583921 0.34463355 0.011498034
-0.1737233 0.3640154 0.017517507
0.17800163 0.3644605 0.020409286
-0.13671996 0.38251457 0.017505109
-0.11800519 0.38187397 0.013541937
-0.099356562 0.38125116 0.0096893907
0.10352867 0.38139334 0.010569036
0.12215398 0.38201445 0.014411986
0.14085303 0.38267955 0.018525779
-0.044333987 0.40189603 0.022702873
-0.025722975 0.40112817 0.018168986
-0.0071819872 0.40036541 0.013664484
0.011289647 0.40053758 0.014681697
0.029803816 0.40130121 0.019190252
-0.19359186 -0.30402014 0.033664167
-0.17451955 -0.3033053 0.027861178
-0.15563343 -0.30276275 0.023455918
0.15972355 -0.30287847 0.024395049
0.17860813 -0.30346575 0.02916342
0.19764724 -0.3041828 0.034985125
-0.24945255 -0.28537723 0.033514559
-0.2298561 -0.28425565 0.023801863
0.23408903 -0.28450987 0.026003063
0.25362819 -0.28563204 0.035721123
-0.28679961 -0.2668387 0.03431195
0.27116627 -0.26588726 0.02548331
0.29104942 -0.26711971 0.036919415
-0.30470607 -0.24765445 0.028778851
0.3090615 -0.24795024 0.031734884
-0.32295918 -0.22884318 0.026362121
0.32740393 -0.22915013 0.029684722
-0.34160283 -0.21031673 0.026869714
0.34611765 -0.21062769 0.030541599
-0.36082944 -0.19207013 0.031113327
0.36534175 -0.19235381 0.034798086
0.36389613 -0.17303473 0.024914324
-0.37919644 -0.15476717 0.029635012
0.38381875 -0.15502228 0.033776224
0.38239917 -0.13589898 0.024555743
-0.3981719 -0.11768192 0.031884253
0.40289882 -0.11789899 0.036582291
-0.39714658 -0.098837018 0.025829732
0.4019163 -0.099016972 0.030504405
0.40094063 -0.080229841 0.024469197
-0.41745874 -0.061934356 0.035696089
-0.41699308 -0.043252628 0.033066332
-0.41652849 -0.024611473 0.030442297
0.42140314 -0.024652131 0.035733521
-0.41606489 -0.0060106809 0.027823865
0.42095774 -0.0060105976 0.033103645
-0.41588941 0.012562352 0.02683264
0.42091769 0.012608894 0.032867253
-0.41611099 0.031154629 0.028084338
0.42113283 0.03124788 0.034137547
-0.41633502 0.049766481 0.029349625
0.42134821 0.049906403 0.035409272
-0.41656151 0.068398327 0.030628622
0.42156589 0.068585083 0.036694705
-0.41738585 0.087179698 0.035284579
0.40078086 0.12381984 0.023480713
-0.3971822 0.14252457 0.026040137
0.40182191 0.14276363 0.029920638
-0.39885765 0.16177696 0.035933316
-0.37895173 0.17981869 0.028121412
0.38362131 0.18015513 0.03249377
0.36386719 0.19811326 0.024716556
-0.3609443 0.21732976 0.031859338
0.36555159 0.21773382 0.036232769
-0.34141633 0.23531446 0.025594652
0.34612799 0.23581709 0.030616224
0.32687029 0.25387937 0.025607049
-0.30522645 0.29188687 0.032755196
-0.2862618 0.31013781 0.029945552
0.29094708 0.31093445 0.036032975
-0.24854432 0.32806167 0.025087416
0.25285527 0.32846478 0.027997434
-0.23088294 0.34793398 0.034062803
0.21536742 0.34648731 0.024172604
0.23510323 0.34836084 0.036981881
-0.19330537 0.36598027 0.030280888
0.1975072 0.36642456 0.033165991
-0.15597472 0.38427299 0.028381884
0.16018169 0.38483101 0.031834543
-0.10059004 0.40421483 0.036395013
