ply
format ascii 1.0
comment PCL generated
element vertex 1357
property float x
property float y
property float z
element camera 0
property float view_px
property float view_py
property float view_pz
property float x_axisx
property float x_axisy
property float x_axisz
property float y_axisx
property float y_axisy
property float y_axisz
property float z_axisx
property float z_axisy
property float z_axisz
property float focal
property float scalex
property float scaley
property float centerx
property float centery
property int viewportx
property int viewporty
property float k1
property float k2
end_header
-0.078654006 0.22348073 -0.12118626
0.4584592 0.22329384 -0.1242218
-0.07862395 0.2532497 -0.1224879
0.42794105 0.25269082 -0.13055384
-0.07859619 0.28300613 -0.12369025
0.42927617 0.28343144 -0.11816549
-0.078741565 0.31337917 -0.11739492
-0.048635885 0.3121835 -0.13151562
0.39875817 0.31277591 -0.12451744
-0.048734833 0.34255672 -0.12508833
0.36833987 0.34202459 -0.13084829
-0.048836857 0.37304899 -0.11846209
-0.01884694 0.37162089 -0.13273168
0.33868986 0.37196839 -0.12925756
-0.018897597 0.40210041 -0.1261512
0.01092328 0.4012199 -0.13431966
0.24887627 0.40102571 -0.13612151
0.27904692 0.40168911 -0.12996483
0.30932453 0.4023698 -0.12365067
0.01092328 0.4327018 -0.11939001
0.040749915 0.43200749 -0.12540352
0.070484258 0.43131542 -0.13139784
0.18956906 0.43122235 -0.13220227
0.21967578 0.4319348 -0.12603319
0.24987867 0.43264934 -0.11984432
0.28017822 0.43336627 -0.11363566
0.070714153 0.46293494 -0.11646545
0.10047051 0.46219322 -0.12248778
0.1302571 0.46194327 -0.12451732
0.16019675 0.46228293 -0.12175822
0.19032238 0.46300551 -0.11589217
0.01092328 -0.52697748 -0.090766549
0.0410056 -0.52679151 -0.092188716
0.071066037 -0.52660537 -0.093609929
0.10110462 -0.52641958 -0.095030069
0.13112138 -0.52623397 -0.096449137
0.16118243 -0.52627313 -0.096149206
-0.079250216 -0.49631742 -0.095369816
-0.049063392 -0.49528548 -0.10374808
-0.019008584 -0.49430177 -0.11173368
0.01092328 -0.49412858 -0.11314046
0.19064732 -0.49465621 -0.10885704
0.22129148 -0.49623367 -0.096049428
-0.10918505 -0.46579829 -0.099363923
-0.078964889 -0.4648329 -0.10772502
0.25066784 -0.46491316 -0.10702968
0.28152409 -0.46639341 -0.094210148
-0.13909629 -0.4354468 -0.1023742
-0.1088054 -0.43444243 -0.11169386
0.31074482 -0.43514219 -0.10520053
0.34181181 -0.43652293 -0.092388988
-0.16938771 -0.40606585 -0.096149445
-0.13871163 -0.40444285 -0.11236787
0.37122989 -0.40572417 -0.09956336
-0.16921896 -0.37567654 -0.099802852
0.40146112 -0.37588859 -0.097507715
-0.16907628 -0.34539121 -0.10289192
0.40004346 -0.34464756 -0.11167407
0.43172213 -0.34601974 -0.095469832
-0.16894485 -0.31517223 -0.10573769
0.43019593 -0.31487262 -0.10963106
-0.16881453 -0.28499866 -0.10855925
0.46037784 -0.28506467 -0.10760581
-0.16903397 -0.25533497 -0.10380781
0.49132225 -0.25559154 -0.09964323
-0.16940339 -0.22577305 -0.095809698
0.48966953 -0.22484358 -0.11306119
-0.13871697 -0.19496047 -0.11222899
-0.1389852 -0.16530058 -0.10526025
0.5215587 -0.1655789 -0.098026872
-0.13925439 -0.13553411 -0.098266482
0.52049237 -0.13529067 -0.10617507
-0.13951762 -0.10565656 -0.091427565
-0.10879196 -0.075249664 -0.11213005
0.55256045 -0.075573988 -0.091066957
-0.1089582 -0.045362435 -0.10673153
0.55142736 -0.045420013 -0.099244356
-0.10907888 -0.015392092 -0.10281229
0.55154353 -0.01539216 -0.098406076
-0.10919981 0.014638806 -0.098885179
0.55206954 0.014671726 -0.094610214
-0.10927604 0.044707704 -0.096409202
0.55259657 0.044793729 -0.090806723
-0.10934068 0.07480593 -0.094310045
-0.10937086 0.104902 -0.093329549
-0.10938072 0.13498789 -0.093009472
0.51974678 0.13426189 -0.11187243
-0.10937887 0.16506119 -0.093069673
0.52020115 0.16435307 -0.10840034
-0.1093376 0.19506459 -0.094410062
0.52185148 0.19499014 -0.095789671
-0.10929696 0.22504841 -0.095729589
0.49061325 0.22445302 -0.10539949
-0.10925636 0.25501227 -0.097048402
0.45989436 0.25399068 -0.11179292
0.49215901 0.25530311 -0.092849374
-0.10917708 0.28485879 -0.099623203
0.46133876 0.28488493 -0.099284172
-0.10909789 0.31466636 -0.10219479
0.43061987 0.31436953 -0.10569787
-0.10927912 0.34521505 -0.096309185
-0.078895211 0.34388173 -0.11074197
0.40000179 0.34375736 -0.11209047
0.43197435 0.34550893 -0.093129754
-0.079048909 0.37448743 -0.1040864
0.37008917 0.37370425 -0.11191177
0.40177113 0.37545592 -0.094410062
-0.079203606 0.40520009 -0.097387791
-0.048939224 0.4036456 -0.11181283
0.34063771 0.4042446 -0.10625434
-0.04904164 0.43434492 -0.10516083
-0.018996075 0.4333981 -0.11335838
0.31110048 0.43487361 -0.10058045
-0.049241357 0.46592495 -0.092188597
-0.019112099 0.46517411 -0.09828639
0.01092328 0.46442536 -0.10436523
0.04086522 0.46367896 -0.11042476
0.22055748 0.46377188 -0.10967076
0.25088957 0.46454042 -0.10342944
0.2814756 0.46559 -0.094910145
0.040981419 0.49559623 -0.095329881
0.070945829 0.49479944 -0.10141766
0.10091754 0.49457538 -0.10313094
0.13100152 0.4949404 -0.1003412
0.16112861 0.49530619 -0.09754765
0.1912989 0.49567229 -0.094750047
0.22151247 0.49603885 -0.091948152
0.01092328 -0.56020415 -0.068153858
0.041179545 -0.56000483 -0.069592237
0.071413681 -0.55980551 -0.07103014
0.1016257 -0.55960655 -0.072466612
-0.11014047 -0.52991301 -0.068336129
-0.079574078 -0.52821046 -0.081346035
-0.049307097 -0.52735025 -0.087919235
-0.019180942 -0.52716386 -0.089343309
0.1917489 -0.5277313 -0.085006952
0.22258516 -0.52942795 -0.072041988
-0.14030194 -0.4993127 -0.071050286
-0.10965623 -0.49771014 -0.084062457
0.25213802 -0.49782148 -0.083157182
0.28318757 -0.49941751 -0.070199966
-0.17042086 -0.46875238 -0.073780894
-0.1396967 -0.46725196 -0.086775064
0.31258267 -0.46788129 -0.081325889
0.34384859 -0.46938103 -0.068336129
-0.20055234 -0.43834335 -0.075498223
-0.16969557 -0.43683603 -0.089483619
0.37308577 -0.437915 -0.079472661
-0.20035447 -0.40776494 -0.079170346
0.40288919 -0.40735793 -0.083237767
-0.20015697 -0.37724382 -0.082835436
0.43382663 -0.37788069 -0.075942397
-0.2311381 -0.34822649 -0.069410086
-0.19995876 -0.34677806 -0.086513877
-0.23090999 -0.31768358 -0.07311368
-0.199762 -0.31637102 -0.090165257
0.46266037 -0.31655005 -0.087838888
-0.19984952 -0.28638572 -0.088541031
0.49386868 -0.28704891 -0.078968525
-0.20028389 -0.25677162 -0.080480099
0.52521884 -0.25741339 -0.070058227
-0.20072006 -0.22703552 -0.072385669
0.52370477 -0.22653739 -0.081627846
-0.1697734 -0.19608876 -0.087798595
0.52262944 -0.1959942 -0.089844704
-0.17012632 -0.16626677 -0.080157757
-0.17045355 -0.13630997 -0.073073268
0.55483806 -0.136262 -0.074629664
0.5536955 -0.10585395 -0.082875848
-0.13973768 -0.075656421 -0.085710526
-0.1403674 -0.045650177 -0.069349289
0.55312461 0.074974865 -0.08699584
0.55365366 0.10521473 -0.083177447
0.55418098 0.13551292 -0.079371929
0.55471212 0.16587085 -0.075538516
-0.14039627 0.19645536 -0.068599701
-0.14033312 0.2266182 -0.070240498
0.52406067 0.22608431 -0.078908086
-0.14023185 0.25668719 -0.072871208
-0.14013152 0.28671753 -0.075477958
0.4938786 0.28645501 -0.078888178
-0.14003131 0.31670815 -0.078081489
0.46279249 0.31597856 -0.086694598
-0.13993046 0.34665686 -0.08070159
0.46425796 0.34727558 -0.07400322
-0.14017817 0.37747175 -0.074265718
-0.10948559 0.37593678 -0.089604139
0.43373963 0.37722328 -0.07675004
-0.10970207 0.40679657 -0.082573771
0.37223324 0.40613627 -0.088701487
0.40411288 0.40804291 -0.071009874
-0.10994481 0.43786335 -0.074690342
-0.079358838 0.43601856 -0.090666175
0.34260717 0.43690413 -0.08299613
-0.079535969 0.46705717 -0.082996368
0.3128961 0.46776441 -0.077254415
-0.049520098 0.49837667 -0.074083924
-0.019229028 0.49719727 -0.083096743
0.01092328 0.49639553 -0.089223027
0.25190783 0.49670023 -0.086895347
0.28309643 0.49871266 -0.071515918
0.01092328 0.52861518 -0.073962808
0.041098524 0.52776223 -0.080117345
0.071252681 0.52757257 -0.08148694
0.10148253 0.5279634 -0.07866621
0.13175592 0.52835476 -0.075841427
0.16207297 0.52874696 -0.07301259
0.19243374 0.52913934 -0.070179701
0.01092328 -0.59382045 -0.045257211
0.041355673 -0.59360749 -0.046712756
0.071789645 -0.59362257 -0.046610355
-0.11084291 -0.56333995 -0.045523763
-0.080202438 -0.56214643 -0.054137468
-0.049695157 -0.56095803 -0.062713742
0.1625547 -0.56126505 -0.060496807
0.19322376 -0.56229353 -0.053075671
0.22400747 -0.56332278 -0.045646906
-0.019355144 -0.56040359 -0.066714168
0.13200139 -0.56024355 -0.067869782
-0.14091128 -0.5316295 -0.055219054
0.25362507 -0.53113335 -0.059010863
0.28487304 -0.53285277 -0.045872569
-0.17115104 -0.50092357 -0.057971954
0.31444481 -0.50102657 -0.057136416
-0.23248413 -0.4717809 -0.047552943
-0.20134863 -0.47026041 -0.060720682
0.3757621 -0.47144055 -0.050500274
-0.23181993 -0.44019258 -0.058338642
0.40523016 -0.44003031 -0.059845448
-0.23159179 -0.40947905 -0.062042832
0.43607983 -0.41018027 -0.05503571
-0.26284626 -0.38041794 -0.048474431
0.46748728 -0.38064328 -0.046036482
-0.23136535 -0.37882495 -0.065719724
-0.26258972 -0.34968576 -0.052176595
0.46506217 -0.34842718 -0.067038536
-0.262485 -0.31917897 -0.053688407
0.49643975 -0.31883988 -0.058093905
0.52796578 -0.28912032 -0.049068093
-0.23130411 -0.28789786 -0.066714048
-0.23183747 -0.25815278 -0.058053374
-0.23237444 -0.22827753 -0.049334049
0.55829495 -0.22825891 -0.049681783
0.55713779 -0.19746354 -0.05803299
-0.20115694 -0.19717519 -0.064278126
-0.20159563 -0.16719122 -0.056137204
0.55598551 -0.16679822 -0.066348672
-0.17119247 -0.10644983 -0.057075024
0.58852202 -0.10659201 -0.050929666
0.58730131 -0.07606338 -0.059275389
0.5860858 -0.045663726 -0.067586184
-0.14084691 -0.015392092 -0.05689168
0.58641219 -0.015392092 -0.065354347
-0.14121582 0.015035741 -0.047306895
0.58697689 0.014926551 -0.061493635
0.58754265 0.045304667 -0.057625413
-0.38305998 0.075527191 -0.063079476
-0.35294706 0.075575426 -0.060985088
0.58810657 0.075742051 -0.053769946
-0.3833001 0.10590747 -0.060679913
-0.14116852 0.10628138 -0.048535705
0.58867157 0.10623904 -0.049906969
-0.14092699 0.13645817 -0.054811001
0.58924067 0.13679686 -0.046015859
-0.1404743 0.16628499 -0.06657207
0.55660188 0.19681633 -0.061900496
-0.17171557 0.22812648 -0.045749307
-0.17159352 0.2583831 -0.048392415
0.52628911 0.25744855 -0.061879992
-0.17147064 0.28859782 -0.051052213
-0.17131685 0.31871483 -0.054382443
0.49597594 0.31808156 -0.061859727
-0.17115481 0.34876415 -0.057890296
-0.17115104 0.37910244 -0.057971716
0.4660432 0.37904513 -0.058542252
-0.17151976 0.41030848 -0.049988866
-0.1404829 0.40854517 -0.06634891
0.43628445 0.40996927 -0.053136826
0.37440121 0.43895546 -0.065232754
-0.14078808 0.43974197 -0.058420062
0.40648288 0.44102284 -0.047327399
-0.14109449 0.47106487 -0.050459385
-0.11018792 0.46905282 -0.066794991
0.34460029 0.46995637 -0.059458613
-0.11059402 0.50105655 -0.053606749
-0.079977632 0.49971318 -0.06387198
0.31471181 0.50104856 -0.053667903
-0.019370142 0.52988964 -0.064765573
0.22283837 0.52953243 -0.067342758
-0.049821541 0.53131139 -0.054504871
0.25380579 0.53109354 -0.056075811
0.01092328 0.56155246 -0.055402756
0.041256301 0.56093526 -0.059621692
0.071633235 0.56135261 -0.056769133
0.10205418 0.56177032 -0.053912878
0.13251923 0.56218874 -0.051052213
0.16302848 0.56260777 -0.048187494
0.19358203 0.56302732 -0.045318723
-0.080907993 -0.59699011 -0.023585796
-0.050163478 -0.59571612 -0.032295227
-0.019553348 -0.59444785 -0.040966749
0.10239448 -0.59470958 -0.039177775
0.13311523 -0.59580386 -0.031696677
0.16395226 -0.59690219 -0.024187088
-0.17262921 -0.56604952 -0.025968671
-0.14161822 -0.56454146 -0.036852002
0.25513181 -0.5648613 -0.034543991
-0.20307186 -0.5350945 -0.028741837
-0.17188713 -0.53335482 -0.042035222
0.31640473 -0.53471059 -0.031675935
-0.23347081 -0.50418031 -0.031531334
-0.20220733 -0.5025478 -0.044785619
0.34615397 -0.50300038 -0.041110516
-0.2640444 -0.47367147 -0.031180263
0.40887332 -0.47456524 -0.023440838
-0.26339057 -0.44210246 -0.040617347
0.43846387 -0.44293255 -0.032914519
-0.29504538 -0.41315129 -0.025347471
-0.26310465 -0.41121018 -0.044744492
0.46994084 -0.4132072 -0.024788022
-0.29472044 -0.38216454 -0.029568672
-0.29439774 -0.35124516 -0.033760309
0.4990409 -0.35097298 -0.036975503
-0.29448351 -0.32079881 -0.032646298
0.53074217 -0.32116783 -0.027852297
-0.29516503 -0.29087147 -0.023793221
-0.263089 -0.28940433 -0.044970036
-0.26369572 -0.25949791 -0.036213398
0.55963647 -0.25926468 -0.040000319
-0.26430508 -0.22945853 -0.027417779
-0.23291253 -0.19826886 -0.040596604
0.5922122 -0.19895706 -0.025699496
-0.23387204 -0.16838908 -0.025016069
0.59097588 -0.16803738 -0.03415215
-0.2026204 -0.13741697 -0.037119508
0.58974785 -0.13724981 -0.042548537
-0.17218457 -0.076427937 -0.035595298
0.6226151 -0.076561242 -0.026941776
-0.17261966 -0.045982495 -0.026175737
0.62131453 -0.045911573 -0.035389304
-0.17272682 -0.015392092 -0.023855329
0.62187666 -0.015392092 -0.031737924
0.62247807 0.015185777 -0.027831674
-0.14135709 0.045520067 -0.04363656
0.62308067 0.04582366 -0.023917556
-0.14139739 0.076000333 -0.042589426
-0.41580933 0.10653153 -0.040411592
0.58980793 0.16741347 -0.042137623
-0.17217696 0.19822496 -0.035760164
0.59196091 0.19867453 -0.027417898
0.5589819 0.22818956 -0.044724345
-0.20329943 0.26003721 -0.024518609
0.56138283 0.2598376 -0.027397037
-0.20310754 0.29036623 -0.028079867
0.52853692 0.28908649 -0.044703484
-0.20291597 0.32064104 -0.031634688
0.53080714 0.32100338 -0.027355909
-0.20272587 0.3508637 -0.03516233
0.49809411 0.34998605 -0.044662356
-0.202535 0.38103056 -0.038704395
0.50068241 0.38253722 -0.023648024
-0.20281477 0.41208392 -0.033512712
0.46998388 0.41306442 -0.024415016
-0.20326929 0.44359201 -0.025078058
-0.17188905 0.44163877 -0.041993856
0.43929499 0.44357774 -0.025202274
-0.17225885 0.47309348 -0.033987164
0.37659344 0.47216821 -0.041500688
0.40887955 0.47440019 -0.023378372
-0.17263494 0.50468963 -0.025844336
-0.14140213 0.50251436 -0.042466402
0.34661579 0.50340545 -0.035657167
-0.14213763 0.53562707 -0.023357868
-0.11120386 0.53417993 -0.033801675
-0.080432147 0.53274047 -0.044190645
0.28517446 0.53311044 -0.04152143
0.31677556 0.53514206 -0.026858926
-0.080892667 0.56610888 -0.024249315
-0.050126638 0.56458217 -0.034688234
-0.019521739 0.56306326 -0.045072913
0.22468467 0.56481755 -0.033079505
0.01092328 0.59694093 -0.0227772
0.041515522 0.59645265 -0.025948048
0.072059341 0.59596848 -0.029093146
0.1026331 0.59600675 -0.028845072
0.13329224 0.59645265 -0.025948048
0.16399616 0.59689945 -0.023046732
-0.050639413 -0.631019 -0.0013822317
-0.019790113 -0.62966001 -0.010209918
0.072352313 -0.62968236 -0.010063887
0.10324216 -0.63085121 -0.002472043
0.01092328 -0.62831002 -0.01897788
0.041579738 -0.6285212 -0.017605901
-0.14280452 -0.59955764 -0.0060311556
-0.11178777 -0.59826952 -0.014838219
0.19490719 -0.5980078 -0.016628385
0.22597891 -0.5991146 -0.0090615749
0.25723216 -0.60037571 -0.00043880939
-0.20394345 -0.56790644 -0.012567163
0.28657809 -0.56670159 -0.021262527
0.3492662 -0.53828567 -0.0043572187
-0.23462714 -0.53718674 -0.012754798
-0.26535997 -0.50656229 -0.012191772
0.37914109 -0.50634915 -0.013921738
-0.29610145 -0.47592911 -0.011628866
-0.3276698 -0.44632861 -0.0014032125
-0.295371 -0.44420412 -0.02111721
0.4724209 -0.44612315 -0.0033102036
-0.32730624 -0.41511792 -0.0056962967
-0.32694528 -0.38397586 -0.0099594593
0.5016675 -0.38345021 -0.015650272
-0.32658505 -0.35290045 -0.014213443
0.53354579 -0.35355955 -0.0064283609
-0.32671034 -0.32233167 -0.012734056
-0.32746753 -0.29225734 -0.0037916899
0.56258684 -0.29122382 -0.018707633
-0.29585114 -0.26081163 -0.014879942
0.59470069 -0.26119304 -0.008685708
-0.29653877 -0.23061553 -0.0059472322
0.59345376 -0.23000854 -0.017210722
-0.26491717 -0.19928558 -0.018583059
-0.23536626 -0.13853687 -0.00075316429
0.62522966 -0.13825332 -0.0099593401
-0.20392098 -0.10746817 -0.012984037
0.623918 -0.10734124 -0.018479228
-0.20413347 -0.076836795 -0.0090408325
-0.20426072 -0.046132594 -0.0066792965
-0.20438698 -0.01539216 -0.0043361187
-0.2045134 0.015384583 -0.0019903183
-0.17283411 0.01523421 -0.021532416
-0.17294155 0.045896206 -0.019206524
-0.32630306 0.076578736 -0.017543435
-0.17304814 0.076593697 -0.016898751
0.62368762 0.076522514 -0.019975066
-0.17315774 0.10732858 -0.01452601
0.62429267 0.10728191 -0.016045809
-0.17326456 0.13809787 -0.012212753
0.62489885 0.13810186 -0.012108445
-0.17288207 0.16841319 -0.020494342
0.62550622 0.16898279 -0.0081634521
-0.20388618 0.23010452 -0.013630033
0.59451741 0.23033169 -0.0099385977
-0.23540887 0.26173165 -6.1154366e-05
-0.23510435 0.29214233 -0.0050058365
0.56381059 0.29176769 -0.0098758936
-0.23487774 0.32258439 -0.0086855888
-0.23462972 0.35293737 -0.012713194
0.53310287 0.3532052 -0.0098133087
-0.23438348 0.38323137 -0.016711593
-0.23446423 0.41403595 -0.01540041
-0.23501675 0.44574556 -0.0064285994
-0.2037504 0.4752906 -0.01614964
-0.20423368 0.50713199 -0.0071812868
0.37881231 0.50578415 -0.017481208
-0.17340143 0.53758216 -0.0092496872
0.34865576 0.53726113 -0.011566281
-0.14298749 0.56946886 -0.0012770891
-0.11182112 0.56764406 -0.013755083
0.25613013 0.56697416 -0.018333673
0.28780878 0.56914407 -0.0034986734
-0.050434813 0.59818882 -0.014671922
-0.019717976 0.59743327 -0.019580483
-0.081357382 0.59981221 -0.004126668
0.19522196 0.59893703 -0.0098133087
0.13407515 0.63115525 -0.00052237511
-0.11274938 -0.63375533 0.0163908
-0.081625536 -0.63238418 0.0074845552
0.13424976 -0.63202453 0.0051486492
0.16537583 -0.63320237 0.01279819
0.196622 -0.63438767 0.020498276
-0.20556203 -0.60299504 0.017470002
-0.17395867 -0.6008516 0.0028151274
0.28955212 -0.60360843 0.021664381
-0.23580614 -0.57053334 0.0063899755
0.3192476 -0.57037574 0.0052536726
-0.26668668 -0.53976637 0.006958127
-0.29757604 -0.50899094 0.0075266361
0.41258442 -0.50974423 0.013643026
-0.32847413 -0.47820666 0.0080953836
0.44244134 -0.47773278 0.0039918423
-0.36028823 -0.44847214 0.018486023
-0.35988969 -0.41710606 0.014171124
0.50432515 -0.41628104 0.0059269667
-0.35949001 -0.38580528 0.0098443031
0.53638268 -0.38630465 0.015248895
-0.3590931 -0.35457364 0.0055480003
-0.35926032 -0.32387838 0.0073581934
0.56557208 -0.3235302 0.0028361082
-0.36008492 -0.29364812 0.016284943
0.5986284 -0.29377869 0.01816833
-0.32822815 -0.26204759 0.0051906109
-0.32899216 -0.23170201 0.014213324
-0.29738161 -0.20037492 0.0050011873
0.62914985 -0.20085998 0.015502453
-0.26646227 -0.16949521 0.0037187338
0.6270833 -0.16943201 0.0020798445
-0.23592027 -0.10795839 0.0082428455
-0.23606695 -0.077139646 0.010624647
0.66042024 -0.077248976 0.017723799
-0.23621251 -0.04628399 0.012988091
0.65853357 -0.046230547 0.0060529709
-0.23635954 -0.015392092 0.015375972
0.65931696 -0.015392025 0.010898829
-0.23650543 0.015536584 0.017745018
0.66010219 0.015521275 0.015756249
-0.32920164 0.046448868 0.016686797
-0.23665151 0.046501633 0.020116925
-0.20463997 0.046197496 0.00035858154
0.66088933 0.04650956 0.020625591
-0.23679776 0.077503324 0.022491693
-0.20476554 0.077045903 0.0026892424
-0.20489468 0.10793258 0.0050853491
-0.20502056 0.13885361 0.0074212551
-0.20514771 0.16981174 0.0097811222
-0.20478819 0.20031951 0.0031092167
0.62794781 0.20056641 0.0076951981
-0.23649633 0.23202758 0.01759696
0.5971058 0.26227319 0.007758379
-0.267349 0.29379952 0.016517758
-0.26706645 0.32437325 0.012439489
0.56626284 0.32398215 0.0078215599
-0.26678592 0.35488689 0.0083903074
-0.26650596 0.38533911 0.0043493509
0.53594041 0.38609162 0.011869431
-0.26643753 0.41605803 0.0033614635
-0.29871169 0.41809696 0.022279382
0.50496089 0.41689077 0.01108861
-0.26706499 0.44792178 0.01241827
0.47399339 0.44767815 0.010308504
-0.26769385 0.47992733 0.021494746
-0.23557177 0.47759816 0.0025840998
0.44303572 0.47845075 0.0095070601
-0.23612931 0.50959468 0.011637449
0.41209251 0.50921386 0.0087275505
-0.20500468 0.53985131 0.0071264505
0.38116133 0.53996515 0.0079479218
-0.17452908 0.5718739 0.015164375
0.31972438 0.57133013 0.011447549
-0.1124518 0.60148352 0.0067266226
0.22674237 0.6012339 0.0051065683
0.25849807 0.60354483 0.020116925
-0.081962802 0.63481051 0.022088885
-0.050950523 0.63428301 0.018824697
-0.019988373 0.63375252 0.015545011
0.01092328 0.63322669 0.012291551
0.04178521 0.63270867 0.0090856552
0.072597533 0.63218766 0.005863905
0.10336087 0.63167113 0.0026681423
0.16541159 0.63345879 0.013727546
-0.082366243 -0.66841877 0.039557815
-0.051233515 -0.66803831 0.037205577
-0.020137031 -0.66765863 0.034856081
0.01092328 -0.6672793 0.032509446
0.041947648 -0.66690373 0.030186653
0.072936289 -0.66652876 0.027866602
0.1041057 -0.66766906 0.034920096
0.13540556 -0.66892421 0.042684078
-0.17556487 -0.63701928 0.037590384
-0.14401187 -0.63513279 0.025336742
0.22845595 -0.63691401 0.036906362
0.32223132 -0.60687727 0.044013143
-0.23773944 -0.60596597 0.03778255
-0.26802772 -0.5732941 0.026314259
0.35243672 -0.57423228 0.033085108
-0.29906648 -0.54237455 0.026888251
0.3825852 -0.54191315 0.023361683
-0.3301141 -0.51144648 0.027462482
0.44649354 -0.51318669 0.041591525
-0.36116853 -0.48050684 0.028015256
0.47647324 -0.48094207 0.031784534
-0.39342126 -0.45083997 0.040456653
0.50701165 -0.44946936 0.02773881
-0.39298043 -0.41929576 0.036052108
0.53993934 -0.41993377 0.042427063
-0.3925406 -0.38782027 0.031656623
-0.39210173 -0.35641313 0.027271032
0.56937069 -0.35666555 0.03025043
-0.42504898 -0.32680088 0.045321822
-0.39196131 -0.32530323 0.025867939
-0.39283514 -0.29491714 0.0345999
-0.39371067 -0.26439753 0.043348551
-0.36088577 -0.26326469 0.024954438
0.63332152 -0.26435125 0.042598367
-0.36169007 -0.23274989 0.033661127
0.63122702 -0.23249839 0.028994322
-0.36253351 -0.20212054 0.042791247
-0.32998446 -0.20134185 0.025931716
-0.29918274 -0.17044508 0.028398514
-0.26798356 -0.13935065 0.025676727
0.66480535 -0.13994111 0.044849634
-0.26815003 -0.10841648 0.028079271
0.66260713 -0.10848978 0.031251788
-0.26831669 -0.077445343 0.030484796
-0.26848206 -0.046437137 0.032871723
-0.26864764 -0.015392025 0.03526175
-0.26881489 0.01568987 0.037675858
-0.26898086 0.046808954 0.040071368
-0.29907465 0.077607438 0.026994467
-0.26914704 0.077964678 0.042469978
0.66168183 0.077573508 0.025527835
-0.2693134 0.10915767 0.044871092
-0.23694418 0.10854167 0.024869323
0.66247278 0.10871264 0.030421019
-0.23709078 0.13961673 0.027249694
0.66326916 0.13992837 0.035347342
-0.23723754 0.17072856 0.029632807
0.66410214 0.17123042 0.040499687
-0.2373845 0.20187718 0.032019019
-0.26925546 0.23365559 0.044034719
0.63129914 0.2327583 0.029462576
-0.26802185 0.26355299 0.026229262
-0.2999101 0.29544124 0.037846804
0.59971416 0.29449782 0.025591612
-0.29959607 0.32617936 0.0337677
0.60248381 0.32709035 0.044528008
-0.29928106 0.35685316 0.029675364
0.56873399 0.35648197 0.025655389
-0.3315973 0.38940513 0.04497838
-0.29896832 0.38746685 0.02561295
-0.33148471 0.42039973 0.043648839
-0.29944995 0.4501678 0.031869769
-0.30019173 0.48239198 0.041505933
0.47807109 0.48289901 0.04562223
-0.268327 0.51208067 0.030633926
0.44684234 0.51393825 0.044828296
-0.26899716 0.54444885 0.040306807
-0.23686834 0.54213911 0.023637652
0.41562372 0.54496247 0.044013262
-0.20633224 0.57430166 0.031763315
0.35196063 0.57367253 0.027462602
-0.17567058 0.60658759 0.039878964
-0.14393178 0.60402828 0.023255587
0.29049268 0.60587347 0.035240412
-0.11328971 0.6367262 0.033938408
0.19700654 0.63589936 0.028824091
0.22883891 0.63835496 0.044013262
0.042059533 0.66960555 0.044721127
0.073148921 0.66908997 0.041677356
-0.14526492 -0.67138261 0.057891846
-0.11372618 -0.66980165 0.048113108
0.16689488 -0.67047286 0.052264452
-0.20775066 -0.64017475 0.058086038
0.26092017 -0.64038432 0.059446812
-0.27024394 -0.60896724 0.058302045
-0.33344018 -0.57889587 0.066741824
-0.30056977 -0.57607949 0.046416163
0.38609233 -0.57814574 0.061327696
-0.33176813 -0.5450061 0.046996117
0.41636544 -0.54558563 0.051424861
-0.36310253 -0.5140931 0.048951268
-0.39493284 -0.48368749 0.055561304
-0.42696288 -0.45327818 0.063080072
-0.42648283 -0.42155474 0.058626056
-0.42600381 -0.38990095 0.054181695
0.57408476 -0.39083299 0.064271212
-0.4255259 -0.35831642 0.049746752
0.60357124 -0.32731202 0.051962972
-0.42588308 -0.29619613 0.053061247
-0.42682761 -0.26553541 0.061825514
-0.39458781 -0.2337442 0.052113652
-0.39547098 -0.20295864 0.060938358
-0.36449373 -0.17181572 0.064011216
-0.33193371 -0.17123617 0.048951387
0.66702199 -0.17160594 0.058561087
-0.33336857 -0.14058901 0.065896273
-0.3005136 -0.13996677 0.045686603
-0.33357611 -0.10934643 0.068347096
-0.30070037 -0.10887919 0.048113108
-0.30088738 -0.077754214 0.050542474
-0.30107298 -0.046591714 0.052953482
0.69936383 -0.04668485 0.065051079
-0.30125877 -0.015392092 0.055367231
-0.30144483 0.015844785 0.057783842
-0.30084601 0.046961837 0.05000484
-0.30200592 0.10977948 0.065072775
-0.30219287 0.14116606 0.067500949
-0.26947996 0.14038756 0.047275305
-0.2696467 0.17165464 0.04968226
-0.2698122 0.20295784 0.052070618
0.6683619 0.20375408 0.066850305
-0.30208436 0.23501407 0.066091418
-0.33350447 0.26641265 0.067500949
-0.30080128 0.26516002 0.049424171
0.63533056 0.2655912 0.055647612
-0.33264691 0.29694444 0.057373881
-0.33229452 0.32782575 0.053212047
-0.33194646 0.3586477 0.04910171
-0.36454374 0.3913638 0.064552784
0.57183689 0.38971218 0.048048735
-0.36460379 0.42272273 0.065202832
0.54056817 0.42078602 0.04723227
-0.33230546 0.45264715 0.053341389
0.50931478 0.45184997 0.046437979
-0.33313015 0.48504937 0.063080192
-0.30093545 0.51476777 0.051166654
-0.30187756 0.54764944 0.063405037
-0.27087221 0.5795095 0.067370892
-0.23839679 0.57674319 0.048456907
0.38627425 0.57891363 0.063296676
-0.20767274 0.60916799 0.05663991
0.32296097 0.60868347 0.053492308
-0.17682423 0.64172429 0.064856291
-0.14488523 0.63900363 0.048027039
0.26091352 0.64083225 0.059339046
-0.083030596 0.67360306 0.0683254
-0.051501844 0.6712845 0.054634213
-0.020263582 0.67071903 0.051295757
0.01092328 0.6701619 0.048005939
0.1044481 0.67045677 0.049746871
0.13587186 0.67182517 0.057827115
0.16741957 0.67319149 0.065896392
-0.020558584 -0.70799309 0.089617848
0.01092328 -0.70758861 0.087228775
0.04236839 -0.70718449 0.084842563
0.073776804 -0.70678079 0.082459211
0.10514859 -0.70637751 0.080078483
0.13688114 -0.70816034 0.090604782
-0.17745879 -0.67472923 0.078594804
0.19913726 -0.67414099 0.074955344
-0.24026625 -0.64336586 0.078812838
0.29374593 -0.64388692 0.08219707
-0.30307877 -0.611996 0.079009175
0.35566726 -0.61085892 0.071235657
-0.3651149 -0.54811287 0.070735931
0.45118544 -0.54999602 0.085126996
-0.39711788 -0.51759666 0.077395558
0.48188099 -0.51774693 0.0786165
-0.42922807 -0.48698282 0.084099054
0.51247883 -0.48560047 0.072127104
-0.46143898 -0.45626348 0.090780258
0.54441571 -0.4547388 0.076632619
-0.46035957 -0.42383724 0.081432343
-0.4598406 -0.39200312 0.076937675
-0.45933783 -0.3602502 0.072583675
0.60859799 -0.36141425 0.086330891
-0.45887619 -0.32859164 0.068585873
-0.49282169 -0.29874864 0.089902997
-0.45910686 -0.29741016 0.07058382
0.63813227 -0.297636 0.073845267
-0.460042 -0.26657346 0.078682065
-0.4609783 -0.23561278 0.0867908
-0.42769662 -0.23470192 0.069888711
0.67149699 -0.23558331 0.086243391
-0.42856911 -0.20374595 0.077984095
0.66925007 -0.20348537 0.072344422
-0.4295418 -0.17270103 0.087009668
-0.39705461 -0.17230661 0.076763511
-0.36640587 -0.14116849 0.084711432
-0.36678216 -0.10981835 0.088784575
0.70334238 -0.10981293 0.088543653
-0.33378389 -0.07806614 0.07080102
0.70098954 -0.078125343 0.074650645
-0.3339901 -0.046747711 0.073236108
-0.33419654 -0.015392025 0.075674057
0.70020884 -0.015392092 0.070040822
-0.33440325 0.016001321 0.078114986
0.70105594 0.015977547 0.075042605
0.70190883 0.047424812 0.080078483
0.7027638 0.078949839 0.085126996
-0.33502665 0.1104078 0.085477233
0.70362467 0.11055358 0.090209961
-0.33523434 0.14195234 0.087929726
-0.3354423 0.17353447 0.090385318
-0.30238 0.17259002 0.069932103
-0.30256569 0.20405009 0.072344422
-0.33492476 0.2361338 0.084273815
-0.36623421 0.2674759 0.082852483
-0.3656576 0.29842544 0.076610923
0.63941813 0.29885548 0.082196951
-0.39845076 0.33100131 0.090714455
-0.36531371 0.32949173 0.072888136
-0.39807564 0.36214545 0.086966276
-0.36492831 0.36045972 0.068716168
0.60634249 0.36066216 0.070909739
-0.39769897 0.39323026 0.083202481
-0.39818525 0.42518637 0.088061094
-0.3655107 0.45515034 0.07502079
0.54527545 0.45609519 0.083202243
-0.36642003 0.48773247 0.084864497
0.51374066 0.48742533 0.082371831
-0.33395693 0.51760471 0.072844625
0.48222122 0.51874584 0.081563473
-0.33527333 0.55111128 0.088389993
0.45071194 0.55005056 0.080733538
-0.23994155 0.61177009 0.073540926
0.35723493 0.61426532 0.089749336
-0.2090299 0.64446741 0.081825614
0.29358253 0.64414632 0.079838514
-0.11477366 0.67594123 0.082131624
0.19909303 0.67456359 0.073997498
0.23097774 0.67620766 0.083705425
-0.020556223 0.70863646 0.089310765
0.01092328 0.70800805 0.085761905
-0.11531354 -0.70969456 0.099664211
-0.083633877 -0.7088111 0.09444797
-0.052077614 -0.70840186 0.09203136
0.16926149 -0.71208024 0.11375093
-0.20998167 -0.67810678 0.099487901
0.23174395 -0.677854 0.097924232
-0.27311265 -0.64658314 0.099708557
0.32694343 -0.64743239 0.10522544
-0.33644271 -0.61538786 0.10220027
0.38966632 -0.6150685 0.10001695
-0.36714906 -0.5825004 0.092756033
0.42039174 -0.58234835 0.091658235
-0.3993288 -0.55187547 0.099488139
-0.4316169 -0.52115226 0.10626447
-0.46400937 -0.49032465 0.1130408
-0.49481517 -0.42630461 0.10608745
0.57887602 -0.42558008 0.098849177
-0.49431193 -0.39431852 0.10200179
-0.49381238 -0.36239782 0.097946286
-0.49331391 -0.33054027 0.093898654
0.64348114 -0.33167091 0.10858703
-0.52723801 -0.26864436 0.11230898
-0.49353051 -0.26761892 0.095657468
0.67375571 -0.2678996 0.10021555
-0.49454027 -0.23653229 0.10385585
-0.49541217 -0.20526792 0.11093462
-0.46192089 -0.20452973 0.094953775
-0.46279079 -0.1732967 0.10248721
-0.46372527 -0.141965 0.11058021
-0.43137163 -0.14176214 0.10398853
-0.39887938 -0.14148529 0.094997525
0.70571131 -0.14171709 0.10253119
-0.40032354 -0.11029515 0.10942841
-0.40057185 -0.078699008 0.11190987
-0.3670091 -0.078380778 0.091241241
-0.36723834 -0.046905536 0.093722939
-0.36746582 -0.01539216 0.096185446
-0.36769357 0.016159486 0.098651052
-0.36792162 0.047748659 0.1011194
-0.36837849 0.11104195 0.10606539
-0.36860943 0.14274648 0.10856521
0.70448762 0.14223629 0.095305681
-0.36883649 0.17448786 0.11102319
0.70611894 0.17420669 0.10493827
-0.368945 0.20619774 0.11219811
-0.33564863 0.20515385 0.092821836
-0.40032578 0.23768429 0.10945058
-0.36758375 0.23694582 0.09746182
0.67267406 0.23670332 0.093525171
-0.3992053 0.26854315 0.098254561
-0.43225878 0.30116659 0.11222017
-0.3988288 0.29980183 0.094491959
-0.43188155 0.332526 0.10871983
0.64354593 0.33255044 0.10900772
-0.43147162 0.36380351 0.1049161
-0.43122888 0.39517775 0.10266376
0.61210263 0.3959412 0.1102922
-0.43230182 0.42783302 0.1126194
0.57844901 0.42601675 0.095767498
-0.39917445 0.45779777 0.097946286
-0.40016624 0.49056441 0.10785687
-0.36733377 0.52047217 0.094755888
-0.36908436 0.55461937 0.11370635
-0.30411163 0.58317423 0.092426896
0.42120397 0.58424908 0.099774599
-0.27288535 0.61529374 0.096427321
-0.24159788 0.64747608 0.10043573
-0.17890543 0.6806466 0.10991573
-0.14673121 0.67828774 0.09598732
0.26381969 0.68007326 0.10652983
-0.052250482 0.71110612 0.1032598
0.042438947 0.70946825 0.094008684
0.074082091 0.71093428 0.1022886
0.1058535 0.71240646 0.11060214
-0.14772901 -0.71346211 0.12191045
-0.24284084 -0.68152285 0.1206187
0.26471892 -0.68160552 0.12113082
-0.30629727 -0.64983308 0.12081933
-0.40226719 -0.587502 0.12885058
-0.43403178 -0.55569458 0.12867188
-0.46660534 -0.52475584 0.1355226
0.52034235 -0.52481115 0.13597083
0.55131358 -0.49220714 0.12934244
-0.49721992 -0.46001732 0.1256119
0.58374953 -0.46092358 0.13402057
-0.52925652 -0.39669538 0.12773335
0.6137107 -0.3960999 0.12128675
-0.52871907 -0.36457229 0.12362647
-0.52818567 -0.332515 0.11955035
-0.52765328 -0.30052075 0.11548245
0.67874271 -0.30160028 0.13106477
-0.5281682 -0.2373708 0.11941695
-0.52909869 -0.20598802 0.12652707
0.71050191 -0.20618635 0.13081861
-0.53003532 -0.17449747 0.1336844
-0.49628431 -0.17389442 0.11801577
0.70810032 -0.17384145 0.11663747
-0.49716496 -0.14241417 0.1251657
-0.49791086 -0.11079851 0.13122129
-0.46540946 -0.11065856 0.12516558
-0.43295285 -0.11050838 0.11866057
-0.46665457 -0.079069108 0.13594854
-0.43438375 -0.079007402 0.13193774
-0.43474838 -0.047225725 0.13532043
-0.4008227 -0.047064718 0.11441648
0.74141467 -0.047152638 0.12581289
-0.40107167 -0.015392092 0.11690414
0.7423287 -0.015392228 0.13097513
-0.4013209 0.016319074 0.11939466
-0.40157044 0.048068579 0.12188828
-0.40232086 0.14354807 0.12938714
-0.40257162 0.17545182 0.13189292
-0.46671155 0.20750423 0.13644218
-0.43419325 0.20716622 0.13016975
-0.40151247 0.20668869 0.12130904
0.71072179 0.20727108 0.13211679
-0.46649665 0.23923178 0.13458073
-0.4329097 0.23822691 0.11826015
-0.46615264 0.27085343 0.13160193
-0.43257922 0.26971662 0.11519361
0.67703962 0.27008638 0.12052989
-0.46580914 0.30242959 0.12862706
-0.46546355 0.33395842 0.12563431
-0.4651185 0.36544144 0.12264562
0.6477282 0.36669105 0.13617301
-0.46566725 0.3976531 0.12739801
-0.43337998 0.46064723 0.12262356
-0.43446097 0.49361843 0.13265383
-0.4011651 0.52349281 0.11783791
0.51907474 0.52451885 0.12567902
0.48644575 0.55523473 0.11814904
-0.33776125 0.5868811 0.11777103
-0.30637616 0.61920673 0.1218437
0.39213377 0.61995888 0.1267283
-0.27492741 0.65159285 0.12590206
0.32781848 0.65008783 0.116593
-0.21129921 0.68302166 0.12393868
-0.11629282 0.71610045 0.13146746
-0.084161706 0.71359289 0.11730409
0.13775188 0.71387237 0.11888278
0.16977905 0.71534431 0.12719703
-0.052944958 -0.74987668 0.14836693
-0.020991743 -0.74943763 0.1458863
0.01092328 -0.74985677 0.14825404
-0.18049818 -0.71727073 0.14439917
0.20200934 -0.71604085 0.13713753
-0.27603894 -0.6849705 0.1419462
0.29806951 -0.68539995 0.14460206
-0.34094152 -0.65514618 0.15532839
0.3612192 -0.65229362 0.13680089
-0.37170342 -0.62121761 0.14205837
0.42683825 -0.62326789 0.15607584
0.45810553 -0.59034067 0.14933753
-0.46922982 -0.55956554 0.15825093
0.48927155 -0.55752003 0.14262092
-0.5000838 -0.49446115 0.14886343
-0.53112531 -0.42989978 0.14201367
0.61891168 -0.43138421 0.15684617
-0.5652982 -0.39953968 0.15852332
-0.56406599 -0.36677447 0.14963102
0.64892203 -0.36629143 0.1439265
-0.56360334 -0.33457357 0.14629209
-0.56317264 -0.30244005 0.14318359
-0.56274259 -0.27035457 0.14007986
-0.56230688 -0.23831491 0.13693559
0.71414709 -0.23914522 0.1523422
-0.56304479 -0.20671476 0.14226103
-0.56393778 -0.17507561 0.14870548
-0.56474257 -0.14331776 0.15451372
-0.53085458 -0.14286914 0.13994479
-0.53161144 -0.11113359 0.14572871
-0.53236455 -0.079308227 0.15148318
-0.49899083 -0.07913129 0.13998997
0.74332845 -0.079079404 0.13662136
-0.53292412 -0.04738301 0.15575874
-0.50004488 -0.0473276 0.14854729
-0.46782291 -0.047308501 0.14606678
-0.50088841 -0.01539216 0.15539646
-0.46861279 -0.015392092 0.15290725
-0.4350192 -0.015392092 0.1378336
-0.46914345 0.01661237 0.15750313
-0.43529034 0.016480353 0.14034951
0.74339598 0.016454548 0.13700306
-0.43555939 0.048391204 0.14284587
0.74475342 0.048419382 0.14466953
-0.46933198 0.080658898 0.1591357
-0.43583119 0.080341071 0.1453681
0.74611986 0.08050324 0.15238726
-0.46903881 0.11259779 0.15659666
-0.50084943 0.14453696 0.15507948
-0.46845877 0.14440209 0.15157366
-0.4360863 0.14425422 0.14773524
-0.50062925 0.17644022 0.15329194
-0.46767718 0.1760481 0.14480495
-0.43514988 0.17578223 0.13904595
-0.50042593 0.20832317 0.15164137
-0.50019222 0.24016576 0.14974368
-0.4999643 0.27198219 0.14789331
-0.49962831 0.30370262 0.14516532
0.68145591 0.30390915 0.14784801
-0.49925667 0.33535662 0.14214826
-0.49960887 0.36750707 0.14500749
-0.50078249 0.40036881 0.15453637
-0.46683073 0.43051153 0.1374743
-0.46799994 0.46353108 0.14759994
0.58669257 0.46441573 0.15526056
-0.46917224 0.49670994 0.15775239
0.55276287 0.49457461 0.14041698
-0.43615195 0.52748489 0.14834428
-0.40385252 0.55891299 0.14469218
-0.37183228 0.59063745 0.14345372
0.45676896 0.58968425 0.13693583
-0.34028515 0.62316889 0.14757752
-0.30878139 0.65598762 0.15308857
0.36267692 0.65613747 0.15401578
-0.24493517 0.68821871 0.15462685
0.29801178 0.68637979 0.14376879
-0.14864402 0.71861762 0.14568353
0.20226677 0.71809143 0.14271104
0.042935234 0.7528947 0.1584779
-0.085160777 -0.75203651 0.16056526
0.042944837 -0.7518878 0.15972531
0.075143635 -0.75392616 0.17123735
-0.21362688 -0.72112113 0.16713488
0.23513286 -0.72005087 0.16081476
-0.30998018 -0.68928927 0.168661
-0.43840292 -0.59309715 0.16923094
-0.50298011 -0.5292955 0.17237842
-0.53419542 -0.46431342 0.16547358
-0.59970778 -0.33677688 0.174914
-0.5992468 -0.30441985 0.17176223
-0.59878325 -0.27211052 0.16859257
0.71880287 -0.27280283 0.17983329
-0.59832036 -0.23985028 0.16542792
-0.59798449 -0.20767865 0.16313124
-0.59801435 -0.1756389 0.16333604
-0.59886992 -0.14376964 0.16918528
-0.59971446 -0.11180858 0.17495954
-0.56554961 -0.11147092 0.16033816
0.74815893 -0.11155328 0.16390443
-0.60035026 -0.07973665 0.17930627
-0.5662455 -0.079521924 0.16535962
-0.56684184 -0.047490172 0.16966391
-0.5674268 -0.015392092 0.1738857
-0.53348476 -0.015392025 0.160043
-0.56779736 0.01675909 0.17655981
-0.53386807 0.016654503 0.16297233
-0.50138247 0.01662707 0.15940773
-0.56817484 0.048952196 0.17928362
-0.53421926 0.048742417 0.16565549
-0.50172919 0.048689518 0.16222274
-0.46946558 0.048659917 0.16029263
-0.56837797 0.081158251 0.18074989
-0.534392 0.080840096 0.1669755
-0.50162852 0.080711395 0.16140521
-0.56851768 0.11337262 0.18175828
-0.53452313 0.11294818 0.16797745
-0.50147194 0.11270678 0.1601336
0.74748737 0.11270596 0.16011131
-0.53452909 0.14503501 0.16802299
0.74885589 0.14502817 0.16784084
-0.56853682 0.17776135 0.18189597
-0.53446651 0.17709835 0.16754484
-0.56847006 0.20992763 0.18141448
-0.53438604 0.20914704 0.1669302
-0.56833351 0.24205537 0.1804291
-0.53413588 0.24110626 0.16501856
0.71537447 0.24077205 0.15958929
-0.56807011 0.27410471 0.17852795
-0.53389192 0.27303949 0.16315413
-0.53364515 0.30494234 0.16126895
-0.53388298 0.33712968 0.16308594
0.68592733 0.33818156 0.17550814
-0.53514087 0.37006512 0.17269802
-0.50196713 0.43338713 0.16415429
0.62086648 0.43403977 0.17021108
-0.50315726 0.46655843 0.17381716
-0.43970364 0.56398529 0.18129992
-0.4071424 0.59562695 0.17756653
-0.37463924 0.62721229 0.17383993
0.4276672 0.62575257 0.16435897
0.33282965 0.69280207 0.1816895
-0.18121654 0.7211439 0.1599524
0.23603927 0.72427475 0.17763531
-0.021215197 0.75593144 0.17491376
0.01092328 0.75441015 0.16667962
0.075043686 0.7540527 0.16474557
0.10730125 0.7556318 0.17329156
-0.11789507 -0.75609756 0.18350172
0.10752061 -0.75597161 0.1827904
0.14007601 -0.75802034 0.19436157
-0.24712248 -0.72501785 0.1901443
0.26941213 -0.7262364 0.19733953
0.33406636 -0.69399267 0.19775522
-0.37670764 -0.66144359 0.19623089
0.39873341 -0.66174221 0.19817114
-0.40765598 -0.62716168 0.18269873
0.52845359 -0.56526798 0.20182562
0.55990696 -0.53208274 0.19500756
-0.53730047 -0.49911886 0.18920064
0.59125525 -0.4990021 0.18818867
-0.56857812 -0.4339208 0.18219399
0.65713835 -0.40312102 0.19729328
-0.60105789 -0.36969694 0.1841445
0.68741256 -0.33752978 0.18469536
-0.6358186 -0.30642593 0.20071483
-0.63532382 -0.27389097 0.19750106
-0.63503587 -0.24147773 0.19563067
-0.63478005 -0.20910308 0.19396925
-0.63452452 -0.17675397 0.19230962
-0.6342656 -0.14442979 0.19062793
0.75305361 -0.1444581 0.19154918
-0.63419116 -0.11215912 0.1901443
-0.63468421 -0.079952866 0.19334698
-0.63535935 -0.047706246 0.19773221
-0.60098737 -0.047598004 0.18366253
-0.6359148 -0.015392025 0.20133948
-0.60155851 -0.015392025 0.18756747
-0.63633198 0.016970832 0.20404923
-0.60195225 0.01686462 0.19025946
-0.60234988 0.049163062 0.19297791
-0.60258603 0.081477895 0.19459224
-0.6027379 0.11379971 0.19563043
-0.60289317 0.1461385 0.19669282
-0.56860352 0.14558761 0.1823777
-0.60284591 0.17842977 0.19636929
0.75400108 0.17845443 0.19690061
-0.60277164 0.210706 0.19586158
-0.60308915 0.24313949 0.19803262
0.72299433 0.27590975 0.20458221
-0.56883246 0.30669454 0.1840297
-0.57001168 0.33962381 0.19253993
-0.57119888 0.37268937 0.20110834
-0.53640461 0.4031527 0.18235469
0.65528363 0.40344211 0.18524659
-0.53768021 0.4363991 0.19210219
-0.50529027 0.50082141 0.19113469
-0.4723205 0.53228426 0.18501699
0.56073564 0.53442025 0.20133948
0.52652472 0.5646596 0.18616557
-0.34353331 0.66129762 0.18593574
0.39817703 0.66230214 0.19214845
-0.27919492 0.69378585 0.18749857
-0.21480848 0.72629803 0.1890626
-0.11839946 0.76054436 0.19988203
-0.085875794 0.75900048 0.19152617
-0.053481303 0.75746304 0.18320358
0.14005685 0.75940937 0.1937387
-0.15099317 -0.76020771 0.20671606
0.17281204 -0.7600804 0.20599687
-0.28186193 -0.73108917 0.22599339
-0.44432107 -0.63322377 0.22414446
0.46524665 -0.63197368 0.21559846
-0.47589749 -0.59957695 0.21599483
0.49690047 -0.59856468 0.20868909
-0.50899601 -0.5678063 0.2212218
-0.54217672 -0.53595668 0.22646201
-0.5718956 -0.46869567 0.20613611
0.62668127 -0.46910849 0.20996714
-0.6043151 -0.40396374 0.20641458
-0.63800251 -0.33985505 0.21489978
-0.67240125 -0.24316701 0.22697735
-0.67212486 -0.21054864 0.22526765
-0.67185253 -0.17795779 0.2235831
0.75801367 -0.17780314 0.21956372
-0.67168242 -0.14541218 0.22253072
-0.67173535 -0.11291479 0.22285807
-0.67179203 -0.080412462 0.22320879
-0.67184871 -0.047904987 0.2235595
-0.67217028 -0.015391957 0.22554851
-0.63674963 0.04937521 0.20676255
-0.63702488 0.081800252 0.20854998
-0.63718581 0.11422975 0.2095952
-0.63735038 0.14667654 0.21066439
-0.63824648 0.17935891 0.21648419
-0.63931412 0.212191 0.22341919
-0.60423034 0.27599651 0.20583451
-0.60549152 0.30903679 0.21445704
-0.60675782 0.34221271 0.22311509
0.69187379 0.37372261 0.21229231
-0.57250369 0.40597174 0.21052492
-0.57417703 0.43968606 0.22260106
-0.53960484 0.47036791 0.20680892
0.59519541 0.50396085 0.21662414
-0.50950301 0.5375607 0.22533798
-0.4761937 0.56914836 0.21855998
-0.44330972 0.60106701 0.21475995
0.49828285 0.60193002 0.22066116
-0.41048488 0.63292819 0.21096659
-0.31400111 0.69944155 0.22089469
0.36888492 0.70053124 0.2273289
-0.24911408 0.73221523 0.22248399
0.27038315 0.73055512 0.21310687
-0.15105303 0.7620942 0.20827115
0.20688002 -0.76655948 0.24259079
-0.18445957 -0.76435953 0.23016584
-0.34712964 -0.69894761 0.22840679
-0.41318485 -0.66786599 0.23794639
-0.57544321 -0.5040307 0.23173833
-0.6076141 -0.43860185 0.22896969
-0.64147466 -0.37421083 0.23745191
-0.67602968 -0.30980042 0.24942255
0.72974318 -0.30945471 0.24443269
-0.67314059 -0.27598774 0.23155057
0.76304048 -0.21159646 0.24795508
-0.67258686 0.017156091 0.22812569
-0.67300397 0.049743902 0.23070562
-0.67360389 0.082397684 0.23441708
-0.67439151 0.11514392 0.23928916
-0.67518097 0.14796597 0.24417293
-0.67598373 0.18086699 0.24913836
-0.64038897 0.24513279 0.23040044
-0.64146376 0.27818203 0.23738146
-0.64268762 0.31141332 0.24533045
-0.60802591 0.37552324 0.23178542
-0.61000019 0.40945047 0.24528313
0.62991023 0.47328195 0.23204374
-0.54412073 0.50700212 0.24131668
-0.38018084 0.6690402 0.23382938
0.3053169 0.73694736 0.24920964
0.17371793 0.76602221 0.2295326
0.01092328 -0.80182207 0.25668037
0.043784 -0.80404937 0.268736
-0.21830243 -0.7685622 0.25390244
0.30610141 -0.73693866 0.2605325
0.3717328 -0.70421028 0.26096117
0.43737507 -0.67147177 0.26136589
-0.61094862 -0.4736135 0.25176799
0.66838419 -0.44274175 0.2703377
-0.64499521 -0.40894309 0.26031852
0.699157 -0.37589544 0.25734556
-0.67919439 -0.34401947 0.26899874
-0.71100241 -0.21228099 0.26277113
-0.70975769 -0.17918327 0.25542152
-0.70981795 -0.14643587 0.2557776
-0.70987433 -0.11368264 0.25611007
-0.7099306 -0.080924213 0.25644267
0.79802096 -0.080983609 0.26029468
-0.71000707 -0.04816157 0.25689399
0.79625738 -0.048114292 0.25074887
0.79775727 -0.015392025 0.25886714
-0.71044999 -0.015391957 0.25950933
-0.71089751 0.017417964 0.26215172
0.79924083 0.017454606 0.26689708
-0.71133745 0.05026811 0.26474965
-0.71195185 0.083181933 0.26837778
-0.67712229 0.2139563 0.25618148
0.76363164 0.2136931 0.25129402
-0.67826849 0.24715729 0.26327169
-0.67941457 0.28046709 0.27036142
0.73224819 0.3124828 0.25922394
-0.64404023 0.34483775 0.25411594
-0.57899469 0.47620612 0.25736964
-0.51378506 0.5749048 0.26010418
-0.4801268 0.60660475 0.25262141
0.46964335 0.63992232 0.2563951
-0.34969491 0.70584422 0.25870073
-0.28396988 0.73822367 0.25641906
-0.1858028 0.77151245 0.2592479
0.20795748 0.77274483 0.26591849
-0.022015609 -0.80592543 0.27889085
0.076830648 -0.80628037 0.28081203
-0.4839848 -0.64227551 0.28603268
-0.51764405 -0.61003035 0.291435
-0.65041107 -0.44525945 0.29549575
-0.68293852 -0.37884346 0.29215956
-0.71407813 -0.24607444 0.28093243
0.76813543 -0.245848 0.27673149
0.80336851 -0.11444773 0.28923869
-0.74954265 -0.081519604 0.2951088
-0.74887943 -0.048426963 0.29136252
-0.74935001 -0.015392092 0.29402041
0.80072993 0.050425258 0.27495718
0.80222476 0.083520681 0.28304791
-0.71279031 0.11619215 0.2733283
0.80372518 0.11674149 0.29116964
-0.71363074 0.14927931 0.27829075
-0.71447307 0.18244335 0.28326464
-0.71552163 0.2157495 0.28945589
-0.6814422 0.31430572 0.28290367
-0.64773262 0.37980133 0.27809882
-0.61473662 0.44562039 0.27766681
-0.58388901 0.51332998 0.29269123
-0.54870504 0.5442363 0.2763474
-0.45004535 0.64313442 0.27725887
0.44050992 0.67855567 0.29269123
-0.3197588 0.74517673 0.29568911
-0.055083007 0.80968642 0.28723741
-0.022124264 0.81079662 0.29300523
-0.055417903 -0.81148612 0.30898952
-0.32022884 -0.7439267 0.30179524
-0.38668802 -0.71121186 0.3042717
-0.55138826 -0.57770354 0.29685092
-0.58521777 -0.54529524 0.30228066
-0.72030056 -0.31452903 0.31767416
-0.71717602 -0.28015554 0.29922509
-0.75294554 -0.14823875 0.31432796
-0.75123817 -0.11480443 0.30468464
-0.74982548 0.017684028 0.29670596
-0.75029719 0.050801065 0.29937029
-0.75101453 0.083990976 0.30342174
0.80523127 0.15008868 0.29932189
-0.71897411 0.25002512 0.30984187
0.77353239 0.24986322 0.30721331
-0.68605298 0.34969091 0.31142569
0.74177057 0.35003144 0.31545091
-0.65279233 0.41602314 0.31096268
0.67299598 0.44805875 0.30029154
-0.61954957 0.48234972 0.31057239
0.6084193 0.54890972 0.31205964
-0.41964975 0.68014902 0.30254793
-0.088287488 0.81136435 0.29595542
0.01092328 0.81466538 0.31310821
-0.089292876 -0.81712121 0.33949018
0.24387291 -0.78079802 0.32300973
0.34432644 -0.74887919 0.33103752
0.54555851 -0.61685675 0.34070039
-0.62310082 -0.51593751 0.33485317
-0.75637025 -0.2155555 0.33367085
-0.7546519 -0.18182147 0.32396555
-0.75369382 0.11758481 0.31855416
-0.75638771 0.15141483 0.33376932
-0.72341859 0.28502047 0.33608556
-0.38889262 0.71760362 0.32813716
-0.22181527 0.78256863 0.31909227
0.24402751 0.78382236 0.32587862
0.044282164 0.81857997 0.33344913
0.11162649 -0.82101768 0.36058021
0.57981181 -0.58428067 0.3471086
0.61413884 -0.55158359 0.35333681
-0.69162524 -0.41684821 0.34589481
-0.72675711 -0.35070139 0.35579872
-0.75929826 -0.24980733 0.35020828
-0.75910944 0.18548606 0.34914136
-0.72791761 0.32044455 0.36265039
-0.69144911 0.38596344 0.34480524
-0.65793806 0.45281106 0.34438467
-0.55995679 0.58906907 0.36232615
-0.52547354 0.62157905 0.3550024
-0.49110591 0.65398002 0.34770346
0.07796254 0.8225987 0.35433125
-0.12365082 -0.8228367 0.3704257
-0.45966005 -0.6876539 0.36647224
-0.66438532 -0.4881081 0.38626122
-0.79772156 -0.082779095 0.37692189
-0.79795367 -0.04909518 0.3781786
-0.7983858 -0.015392092 0.38051701
-0.79882294 0.018347371 0.38288355
-0.79926533 0.05212361 0.38527751
-0.76184601 0.21979849 0.36459804
0.71925581 0.42309961 0.38167477
-0.59455961 0.55645281 0.36969948
0.41576847 0.72682399 0.38258123
-0.2588371 0.79388905 0.38036609
0.11196909 0.82665628 0.37541556
-0.15850216 -0.82863426 0.4018054
-0.76951033 -0.28684723 0.40788579
-0.79955894 -0.11670226 0.38686657
-0.8005017 0.086036012 0.39196992
-0.80341399 0.1203309 0.40773296
-0.76644617 0.25499737 0.39057922
-0.73247623 0.35630769 0.38956833
-0.63172501 0.52578557 0.39381695
0.6535641 0.52577913 0.3937664
