ply
format ascii 1.0
comment PCL generated
element vertex 546
property float x
property float y
property float z
element camera 1
property float view_px
property float view_py
property float view_pz
property float x_axisx
property float x_axisy
property float x_axisz
property float y_axisx
property float y_axisy
property float y_axisz
property float z_axisx
property float z_axisy
property float z_axisz
property float focal
property float scalex
property float scaley
property float centerx
property float centery
property int viewportx
property int viewporty
property float k1
property float k2
end_header
-0.073281087 -0.20913635 -0.39052057
-0.089324221 0.09560287 -0.39040089
-0.089336872 0.11968517 -0.39007235
-0.073289059 0.19185458 -0.39026165
-0.058006044 -0.22822851 -0.35746193
-0.041887593 -0.22927602 -0.3461237
-0.10612685 -0.17821227 -0.37387705
-0.074082784 -0.19311076 -0.3635211
-0.11330339 -0.14340997 -0.3590703
-0.066056356 -0.14666802 -0.3592
-0.12351704 -0.098076947 -0.35117102
-0.066085301 -0.097862534 -0.35820961
-0.066042781 -0.048990931 -0.35986853
-0.06600941 -0.0083148759 -0.36112976
-0.06605038 0.032398455 -0.35955667
-0.066114582 0.081364132 -0.35711956
-0.070113711 0.13410327 -0.36018372
-0.13973366 0.16319756 -0.35319757
-0.064390883 0.1754804 -0.36095905
-0.1238894 0.21320701 -0.34426117
-0.070658803 0.22010398 -0.36894941
-0.074370816 0.30981734 -0.35513115
-0.025669161 -0.23121822 -0.32509804
-0.0091270199 -0.23375702 -0.297616
-0.17616463 -0.216427 -0.30442095
-0.13424529 -0.216252 -0.30648708
-0.035619229 -0.20178288 -0.3203764
-0.0091270199 -0.2170323 -0.29727316
-0.091452569 -0.14794323 -0.33510494
-0.035728831 -0.14595336 -0.31028652
-0.21046066 -0.099823631 -0.29448462
-0.034092471 -0.099412285 -0.30788279
0.15843333 -0.091365077 -0.29724836
-0.034075994 -0.049382765 -0.30899096
0.1601885 -0.051537462 -0.30133772
0.19154175 -0.049456187 -0.30168247
-0.034065712 -0.0077210683 -0.30978775
0.16631447 -0.0076477509 -0.30330372
0.20168129 -0.012652323 -0.30078888
-0.03817945 0.033785053 -0.31449938
0.16616005 0.034065366 -0.30519629
0.19963327 0.034080222 -0.30468035
-0.042282227 0.083337992 -0.32049131
0.16640037 0.084327348 -0.30225039
0.19581524 0.080221049 -0.30081558
-0.058392573 0.12329537 -0.34072399
-0.042346012 0.13338424 -0.31634855
0.16702528 0.11827403 -0.29468203
-0.11790133 0.18487275 -0.29974222
-0.035670042 0.18661669 -0.31543159
-0.15874378 0.21664873 -0.31445312
-0.14199382 0.21641272 -0.31649733
-0.033908159 0.21577275 -0.32204056
-0.058428977 0.31240135 -0.33914757
-0.034104217 0.31762823 -0.30681372
-0.24872647 -0.22096916 -0.25077963
-0.22029105 -0.21851021 -0.27982044
-0.12393613 -0.20689149 -0.26593971
-0.025920648 -0.18385531 -0.29242849
0.0079292124 -0.19779772 -0.26612425
0.059395343 -0.18691801 -0.24822235
0.10196934 -0.18652898 -0.25383711
-0.025924865 -0.16709515 -0.29188156
0.007951566 -0.15192372 -0.26166677
0.059257038 -0.15241536 -0.25253868
0.10945523 -0.15134993 -0.27285671
0.15463939 -0.14569509 -0.27332115
-0.29974172 -0.10109254 -0.25328207
-0.26860172 -0.10604164 -0.275846
-0.23329471 -0.10463859 -0.27593994
0.0079668788 -0.1008753 -0.26034451
0.05931288 -0.10117097 -0.25074053
0.10923091 -0.10037337 -0.27648258
0.15906085 -0.1167929 -0.2895112
0.20078602 -0.097059615 -0.27523708
-0.22894661 -0.066530973 -0.27741575
0.0079707941 -0.051879656 -0.2606945
0.061787762 -0.054731205 -0.24976587
0.10928844 -0.049633496 -0.27543497
0.14194825 -0.032712571 -0.29340124
0.21875758 -0.049569748 -0.28144407
0.23845966 -0.049740694 -0.25608826
0.007978729 -0.010775987 -0.25760603
0.076429442 -0.0070417877 -0.25116301
0.10939107 -0.0073012058 -0.27347136
0.14195317 -0.0075326525 -0.29333019
0.2276821 -0.0073398072 -0.27667093
0.24725059 -0.0070817601 -0.25369024
-0.025912695 0.03443151 -0.29346228
0.0079908641 0.035550475 -0.25707388
0.076485567 0.035779469 -0.24970484
0.10951335 0.035120949 -0.27125502
0.14205123 0.034482919 -0.29191494
0.22779512 0.034988768 -0.27562141
0.2473253 0.027135368 -0.2530427
-0.025929347 0.084912688 -0.29129839
0.0079920953 0.086772151 -0.25668383
0.076571867 0.078700326 -0.24746323
0.10974324 0.086223431 -0.26695919
0.14222664 0.085012481 -0.28938341
0.21042465 0.093997166 -0.28009319
0.22975282 0.078226902 -0.2574563
-0.24659905 0.15387253 -0.27051973
-0.025942318 0.13543856 -0.2896142
0.0030963384 0.13543299 -0.25786495
0.10990082 0.13742004 -0.26391411
0.15373632 0.13858959 -0.28540897
0.1933278 0.11912854 -0.28234768
-0.16990773 0.18727328 -0.27575588
-0.14395089 0.18637624 -0.28471851
-0.025920179 0.16880545 -0.29249001
0.0055393288 0.18362118 -0.26329041
0.11372371 0.17890738 -0.25717831
0.14370859 0.17106828 -0.26799345
-0.29947942 0.20640123 -0.25528622
-0.19678929 0.22319058 -0.25779915
-0.094825678 0.22438338 -0.24746895
-0.00059691723 0.2142601 -0.26126671
-0.026084054 0.30642805 -0.27120161
-0.00056581944 0.31702557 -0.25768995
-0.27083722 -0.22463341 -0.20750856
-0.18087398 -0.20445091 -0.24303913
-0.14021029 -0.19000076 -0.20372486
0.065567642 -0.19936399 -0.23483944
0.11144992 -0.19639045 -0.23597765
0.17186002 -0.1620405 -0.23448038
0.20518 -0.14278689 -0.21702814
-0.36598083 -0.11103905 -0.2126255
-0.33271468 -0.10784446 -0.22246075
-0.28616095 -0.1192856 -0.22475004
-0.23420738 -0.1019681 -0.22484732
0.21483865 -0.11885314 -0.23598576
0.23857252 -0.097926438 -0.21623039
0.050910927 -0.032712571 -0.24569893
0.24987885 -0.058661178 -0.2309289
0.050933264 -0.0069730058 -0.24485302
0.26926863 -0.015353495 -0.21369457
0.050955832 0.035956867 -0.24402666
0.26444671 0.041071273 -0.21799088
0.05466298 0.089964382 -0.24294138
0.24529481 0.08873675 -0.22057962
0.025180016 0.14739929 -0.24567795
0.059646003 0.13923535 -0.24038935
0.1803291 0.15674345 -0.23661518
0.20604603 0.13078655 -0.23803282
-0.21918978 0.17735016 -0.19998932
-0.122279 0.17612903 -0.21320677
-0.095363021 0.17425373 -0.23350811
0.059736051 0.18250139 -0.23745918
0.093807034 0.19031097 -0.24539757
0.16492887 0.17615469 -0.21293354
-0.35904181 0.21222769 -0.20122194
-0.32917613 0.20944345 -0.22705746
-0.11226718 0.22513804 -0.24093533
0.025265463 0.20803484 -0.24012804
0.060030803 0.20931232 -0.22827387
0.094588786 0.209291 -0.22847223
0.025332026 0.31187788 -0.23580503
0.042991109 0.31474173 -0.21720409
-0.30346581 -0.2289466 -0.15657139
-0.3127284 -0.21130152 -0.15404558
-0.27596709 -0.21058741 -0.16332245
-0.22987707 -0.20929886 -0.18006039
0.14904591 -0.19088547 -0.19095564
0.20306133 -0.16520214 -0.17821312
0.23966832 -0.13933921 -0.165452
-0.36043116 -0.12053864 -0.19219828
-0.11634668 -0.10419223 -0.15261173
-0.09814357 -0.10392576 -0.16126728
0.26274922 -0.10364737 -0.17073631
0.27209446 -0.059099741 -0.19075155
0.29326561 -0.041640565 -0.16328192
0.29053524 -0.0062774941 -0.18414593
-0.098455526 0.038750224 -0.15316248
0.29146016 0.038053401 -0.17707825
0.26737127 0.090840638 -0.18138218
0.29389194 0.074235268 -0.15849638
0.21863842 0.14249177 -0.19801617
0.2453033 0.13296752 -0.16840219
-0.20244291 0.17817754 -0.19103336
-0.17684004 0.17913446 -0.18067408
-0.12448493 0.16246091 -0.16909504
-0.097158402 0.16095656 -0.18686295
0.19436009 0.17087848 -0.17481184
-0.37823668 0.21336052 -0.1907115
-0.20568863 0.2174567 -0.15270329
-0.17797942 0.21610096 -0.16528082
-0.13268107 0.21430743 -0.1819253
-0.096791156 0.21274704 -0.19640398
-0.11853085 -0.25152031 -0.10532284
-0.090679854 -0.25015336 -0.12012053
-0.31677249 -0.20160352 -0.12274837
-0.27178535 -0.19575123 -0.12072611
0.17000638 -0.19393243 -0.14697456
0.206516 -0.1764746 -0.1395812
-0.15502381 -0.14213501 -0.10491657
0.25296122 -0.15020473 -0.12593985
-0.20914471 -0.087262839 -0.11188889
-0.16996104 -0.10293236 -0.12032318
-0.11684676 -0.12247885 -0.14178419
-0.098659553 -0.12224497 -0.14786243
0.28892341 -0.10496833 -0.1277194
-0.20952398 -0.060030937 -0.10741043
-0.16956468 -0.056005843 -0.12139463
-0.13081954 -0.046203539 -0.13177586
0.31269023 -0.055325687 -0.11912203
-0.17467241 -0.012313345 -0.11789513
-0.1288725 -0.0027862731 -0.14092159
0.31646085 -0.0055891071 -0.12425756
-0.16731748 0.037287951 -0.11641788
-0.12586208 0.039125688 -0.14141178
-0.098613881 0.056774326 -0.14904881
0.31411052 0.039146453 -0.14121914
0.33717516 0.021966826 -0.10630274
-0.16367893 0.085459299 -0.11235189
-0.12612151 0.084263526 -0.13626051
-0.098744348 0.083788574 -0.14565849
0.30734092 0.084779233 -0.12510967
-0.16758424 0.13349465 -0.11234713
-0.12418067 0.12901734 -0.13913107
0.26380563 0.14924257 -0.11031914
0.28669661 0.11821732 -0.12153816
-0.51923048 0.20412153 -0.10740042
-0.21482627 0.16404463 -0.15039444
-0.17089872 0.16497959 -0.1393528
0.1522714 0.20041843 -0.14440012
0.21676494 0.17524141 -0.12572479
-0.29818159 0.22021037 -0.1271553
-0.27069837 0.21983531 -0.13063288
-0.23372103 0.21881774 -0.14007473
-0.16600546 -0.25415683 -0.076780796
-0.13734634 -0.25251722 -0.094531059
0.21061939 -0.18840358 -0.094826221
0.25115937 -0.18144776 -0.058828831
-0.55684245 -0.14225563 -0.1023078
-0.21321677 -0.14403427 -0.063800335
-0.17487238 -0.15243301 -0.081731796
0.26690444 -0.1615271 -0.083483219
0.28514022 -0.14306259 -0.084833145
-0.59445059 -0.12562177 -0.060132027
-0.55268413 -0.12483289 -0.080629826
-0.26933175 -0.088470794 -0.059586048
-0.21779595 -0.11865436 -0.082611084
-0.19192414 -0.12411119 -0.099381447
0.31535804 -0.10619737 -0.088031292
0.34301928 -0.088314593 -0.066346169
0.34881586 -0.047464501 -0.077510834
-0.24829948 0.0040831938 -0.084030628
-0.21783675 -0.010730904 -0.095926762
0.35096416 -0.0050186161 -0.075628757
-0.24818265 0.022454146 -0.085197449
-0.2205662 0.040838584 -0.085757256
-0.19180594 0.04949788 -0.10091686
0.35051695 0.040986478 -0.078566551
-0.22105733 0.08706297 -0.08026123
-0.19210556 0.086226672 -0.097024918
0.3207821 0.095585436 -0.093071461
0.34143558 0.07799153 -0.07717371
-0.21839587 0.13244918 -0.089410782
-0.19221349 0.1229104 -0.09562254
0.29667634 0.1433716 -0.06633091
0.32480204 0.11570042 -0.064059734
0.24682388 0.16839184 -0.099057198
-0.5530799 0.20698047 -0.078828335
-0.25805169 0.20697841 -0.078848839
-0.22059458 0.20634942 -0.085134029
0.17540883 0.20718423 -0.076794624
-0.26466703 -0.25984213 -0.015235424
-0.22476512 -0.2577104 -0.038312912
-0.19555315 -0.25642386 -0.052238464
0.21644354 -0.20189045 -0.032112122
-0.26856592 -0.15062794 -0.02338028
-0.22783108 -0.15772425 -0.038758755
-0.19569077 -0.16330686 -0.050451279
0.29893789 -0.15409984 -0.048442841
0.33244237 -0.14656895 -0.0089206696
-0.63192397 -0.12707567 -0.022358418
-0.30926341 -0.088988304 -0.037181377
-0.28905353 -0.088697866 -0.049750328
0.3473967 -0.10769643 -0.03683424
0.36520615 -0.070145905 -0.042620182
0.38775358 -0.042176649 -0.018923283
0.38775635 -0.0043524466 -0.018906593
0.36324123 0.060379483 -0.055382252
0.38747275 0.042835191 -0.020660877
0.3599354 0.092387512 -0.036513805
0.31225315 0.15633452 -0.018190861
0.339367 0.12740791 -0.026913643
0.25253296 0.18220375 -0.046214581
-0.44523105 0.21378136 -0.010873318
-0.41544434 0.21295655 -0.019112587
-0.36520469 0.21091205 -0.039542198
-0.31822252 0.21081589 -0.040503025
-0.28835145 0.20928207 -0.055830956
-0.19613576 0.24780062 -0.044670582
-0.35567439 -0.24449156 0.027004719
-0.30667427 -0.26302999 0.019274235
0.029547784 -0.24542382 0.038016796
-0.25710624 -0.18531515 0.0039720535
-0.23757036 -0.18500826 -0.001013279
0.27735969 -0.18550551 0.0070619583
-0.35489759 -0.13839796 0.021399021
-0.31925386 -0.15146589 0.013037682
-0.27499312 -0.16564566 -0.0070552826
0.31465283 -0.16603361 0.00014591217
0.35674509 -0.14825106 0.027497768
0.37735844 -0.12933394 0.03631115
0.35204038 -0.12775633 -0.0046682358
0.38306373 -0.099630006 0.011010647
0.40561354 -0.051802218 0.012367249
0.4131479 -0.0039136726 0.019429207
0.41222918 0.034325913 0.01400423
0.4006561 0.082555078 0.021196842
0.35597479 0.14023051 0.022231579
0.37555268 0.12115933 0.024582863
-0.69744074 0.19672525 0.0097532272
0.25937292 0.19743015 0.017383575
0.29608464 0.17712054 0.0040245056
0.33796576 0.16011658 0.03094101
-0.50625706 0.21583743 0.0096755028
-0.46500525 0.21422119 -0.0064721107
-0.2369955 0.252123 -0.0072369576
-0.44050199 -0.22879209 0.073162079
-0.40645963 -0.23465073 0.064349651
-0.37852132 -0.23686182 0.051579475
0.048938308 -0.22626363 0.040317535
0.24390537 -0.20788886 0.054466248
-0.45106617 -0.13091505 0.077390671
-0.41000301 -0.15003528 0.066128254
-0.37775257 -0.14912066 0.046323299
-0.33866861 -0.16840616 0.044174194
0.35143819 -0.16911708 0.057368279
0.39289242 -0.14055347 0.073430538
-0.4592666 -0.11098544 0.06799984
-0.41541681 -0.11010119 0.039280891
0.39852002 -0.11035974 0.04767704
0.42032355 -0.091273814 0.061799049
0.41700032 -0.071451388 0.042176723
0.44213918 -0.062183984 0.074762344
0.44052461 -0.013127852 0.065643311
0.43939117 0.035545357 0.059241772
0.41852894 0.083921038 0.051202774
0.43288967 0.08518824 0.078074932
-0.78489 0.13682322 0.066717148
-0.71378237 0.14345126 0.068720818
0.39252692 0.13382474 0.071194649
-0.776963 0.16901802 0.062055588
-0.68478847 0.18821077 0.058010578
-0.51041168 0.20318083 0.07963562
-0.46899876 0.20209655 0.067897797
-0.32241407 0.20225248 0.069589138
0.32261723 0.18194528 0.061005592
0.36460409 0.16398808 0.081230164
-0.45837733 -0.24230726 0.11954498
-0.42341122 -0.24971844 0.088733196
0.050103959 -0.24989279 0.090791225
-0.45046934 -0.1932006 0.13201714
0.30639234 -0.19047214 0.087712765
0.33997527 -0.19230327 0.11744642
-0.50855482 -0.139258 0.12104321
-0.46039194 -0.15177843 0.10286808
-0.42480201 -0.17127098 0.097336769
0.41123971 -0.15281725 0.12635946
-0.54983807 -0.11281788 0.1275115
-0.51369596 -0.1019889 0.096327782
0.43662998 -0.10200056 0.09933424
0.46961993 -0.052721255 0.11730909
0.46851921 -0.0028720535 0.11135054
0.46607581 0.02668795 0.098125458
0.46685284 0.046617679 0.10233116
0.44866204 0.096733078 0.11160374
0.469886 0.067081645 0.11874866
-0.77886069 0.12518151 0.089894772
-0.75343674 0.14007865 0.11597204
-0.70526969 0.14629538 0.10977459
0.41038004 0.14707626 0.12104177
0.43055823 0.12717304 0.12223244
-0.7481389 0.17787635 0.10689163
-0.67938262 0.16442139 0.086860657
-0.65745658 0.18563101 0.10449123
-0.54193521 0.20409106 0.08948946
0.34977996 0.18661948 0.11620235
0.3910737 0.16738799 0.12539434
-0.64426172 0.20546316 0.10434008
-0.6068936 0.20639655 0.11444712
-0.56460452 0.20534919 0.10310888
-0.44722077 0.24607414 0.11283493
-0.30820465 0.20654963 0.1161027
-0.28834003 0.20661286 0.11678886
0.29157457 0.20784888 0.13016701
-0.49516657 -0.23522919 0.1567812
-0.47195092 -0.25406322 0.14003992
0.27600807 -0.23638044 0.17173862
0.30604675 -0.23604785 0.16741514
0.33722559 -0.24666609 0.17263412
-0.25228032 -0.21507762 0.15822649
0.27562779 -0.21576935 0.16821003
0.30518666 -0.21522136 0.16030264
0.33522239 -0.21501511 0.1573267
-0.55242479 -0.15032633 0.15945768
-0.51155591 -0.15329549 0.1367116
0.39719686 -0.17492574 0.16516542
0.43270081 -0.13312778 0.1348834
-0.64084291 -0.093846217 0.17318535
-0.60813242 -0.10379428 0.16369677
-0.57327175 -0.1032368 0.14331961
0.45461082 -0.11336262 0.14520216
0.47737324 -0.093525164 0.15927505
0.49788177 -0.05307439 0.16050959
0.49607456 -0.0024057105 0.15111876
0.49583536 0.037996136 0.14987612
0.48735544 0.078681193 0.1581955
-0.71214044 0.12797631 0.13527536
0.45994622 0.13044339 0.17533636
0.48059219 0.11012231 0.17669773
-0.73254412 0.16823663 0.13642168
-0.69597352 0.18951407 0.15038443
-0.63380605 0.18894766 0.14369822
-0.61738878 0.1903165 0.15986586
0.37280387 0.18840548 0.13729286
-0.47136414 0.24864897 0.1367259
0.2659646 0.23219937 0.17317295
0.30748022 0.23525679 0.16262865
0.33995989 0.23038632 0.15486765
0.2769123 0.25332698 0.18012857
-0.54960638 -0.24058931 0.22641182
-0.52823347 -0.24035513 0.22337103
0.13570277 -0.23961225 0.2137208
0.30896345 -0.25847173 0.19210291
-0.41230714 -0.17742933 0.21162462
-0.38026965 -0.17704599 0.20450592
-0.27535349 -0.21702309 0.18630934
-0.22634964 -0.21890314 0.21344376
-0.17479403 -0.20870312 0.21522474
0.42712793 -0.17813091 0.22464228
-0.59423882 -0.15588832 0.19284773
0.45301536 -0.14569595 0.19426537
-0.69137049 -0.10511018 0.2116518
-0.65980667 -0.10806548 0.19519186
0.49545205 -0.10476602 0.20125628
0.52590877 -0.032712571 0.19921398
0.52538568 -0.0018671472 0.19660044
0.50502598 0.090684146 0.19763184
0.5300777 0.070980646 0.22004366
-0.70789802 0.15225622 0.19580936
0.44114223 0.15148838 0.18472767
0.42414209 0.1736061 0.20617247
0.23695512 0.23387665 0.18993187
0.25746801 0.25438994 0.18999243
-0.60768312 -0.24272867 0.25420284
-0.57442224 -0.24208131 0.24579239
0.15871787 -0.2425186 0.25147629
-0.41880888 -0.22177874 0.25495005
-0.38924938 -0.22277372 0.26931143
-0.18794391 -0.20096706 0.25812721
0.39069757 -0.20105983 0.25963211
0.4830026 -0.14791583 0.24652672
0.51378256 -0.11637797 0.24313307
0.53810322 -0.095854327 0.26014185
0.53254235 0.092288002 0.23235798
0.49113989 0.13405891 0.23385334
0.54028845 0.115207 0.27105951
-0.66521019 0.1683498 0.27529526
0.45545062 0.17845918 0.26921511
-0.65953737 0.24003989 0.25152349
-0.50457686 -0.22658426 0.32431173
-0.45576587 -0.22412908 0.28887606
0.18463729 -0.24800628 0.32276154
-0.23450339 -0.20441651 0.31413937
0.45995072 -0.1819647 0.29578686
0.50520349 -0.16129506 0.30990982
0.52501553 -0.13954121 0.3015008
0.54390323 -0.11779401 0.2891202
0.57153642 0.096323639 0.31973267
0.52150553 0.13708971 0.28326225
-0.62971556 0.20268324 0.30590487
-0.61139321 0.2038919 0.32018185
-0.54238063 0.20191923 0.29688168
0.4176144 0.20199506 0.29778147
0.50333172 0.15945959 0.29977942
-0.60789812 -0.22867665 0.35451317
-0.56425798 -0.22864178 0.35400915
-0.52928025 -0.22776997 0.34142685
-0.48323059 -0.22666407 0.32546329
0.49191892 -0.18520458 0.35591841
0.5576672 -0.065362491 0.35788918
0.58173901 -0.054596551 0.36882067
0.58193958 -0.010830957 0.36978531
0.5589059 0.054677054 0.36407757
0.58170509 0.043879934 0.36865711
0.58209699 0.076773368 0.37054253
0.55287939 0.14021251 0.33396816
-0.59224349 0.2048535 0.33153439
-0.4833748 0.2044114 0.32631445
0.48850277 0.18364821 0.33662367
-0.57243717 0.20561099 0.34048128
-0.51950103 0.20620611 0.34751225
0.58875453 -0.09914396 0.40257359
0.59555852 -0.05465126 0.38229752
0.61124414 -0.05486884 0.40417862
0.60531247 0.00019369274 0.37665844
0.5607695 0.033044674 0.37338877
0.60731214 0.044374838 0.38593578
0.6005199 -0.12303066 0.45917988
0.62445706 -0.10059685 0.46547842
0.63138014 -0.066374198 0.44525194
0.63974112 -0.010387102 0.43258142
0.64186579 0.045898534 0.44209862
0.62011474 0.090968914 0.44533253
0.60125583 0.12553503 0.46272087
-0.1207113 0.25740671 0.42505932
-0.40015823 -0.21672727 0.51404047
-0.35283342 -0.21602279 0.50259876
-0.32934108 -0.2156921 0.49723053
0.58138955 -0.14627355 0.47641325
0.64470577 -0.11301364 0.50622749
0.65187711 -0.07829912 0.48694468
0.67498094 -0.032712713 0.48828936
0.67255998 0.0013637319 0.47780609
0.67282546 0.035482705 0.47895527
0.6499818 0.080926657 0.47845411
0.62189394 0.13941851 0.5069437
-0.42815477 -0.21894729 0.55008698
-0.37806976 -0.21718398 0.52145672
0.57001734 -0.17170727 0.53533697
0.61384541 -0.1480777 0.52329206
0.56986517 0.17572476 0.5345459
-0.46878615 -0.22128716 0.58808279
-0.50165027 0.20182213 0.57271194
-0.43540853 0.20411047 0.60243654
-0.36471111 0.20434336 0.60546303
-0.34126911 0.20453218 0.6079092
-0.50124156 0.24849588 0.57018328
-0.46884787 0.25020206 0.58865547
-0.42190915 0.25035742 0.59033728
-0.46304053 0.20618932 0.62944078
-0.40292323 0.20595607 0.62640858
-0.31986988 0.25412714 0.63114405
-0.13831727 -0.097305872 0.88247585
-0.13837317 -0.058561742 0.88392782
-0.13835055 -0.01979734 0.88334036
-0.13831542 0.031884059 0.88242769
-0.16490141 -0.097618639 0.89862967
-0.16483711 -0.058664225 0.8972373
-0.16489974 -0.0067507122 0.89859295
-0.19413225 0.20515117 0.95928383
0 0 0 1 0 0 0 1 0 0 0 1 0 0 0 0 0 546 1 0 0
