ply
format ascii 1.0
comment PCL generated
element vertex 846
property float x
property float y
property float z
element camera 1
property float view_px
property float view_py
property float view_pz
property float x_axisx
property float x_axisy
property float x_axisz
property float y_axisx
property float y_axisy
property float y_axisz
property float z_axisx
property float z_axisy
property float z_axisz
property float focal
property float scalex
property float scaley
property float centerx
property float centery
property int viewportx
property int viewporty
property float k1
property float k2
end_header
-0.43341392 0.36580202 -0.33610392
-0.39009023 0.36573514 -0.33656216
-0.44243824 0.39661214 -0.34632444
-0.3879061 0.39596522 -0.35041428
-0.35624048 0.39661705 -0.34626245
-0.43823922 0.44625628 -0.35499144
-0.38561857 0.447175 -0.3649168
-0.34982759 0.454685 -0.35310984
-0.43059957 0.50315779 -0.35253096
-0.38426855 0.49902308 -0.37349319
-0.34466445 0.50334239 -0.35147619
-0.42071879 0.53649032 -0.34721518
-0.3856014 0.55420601 -0.3651185
-0.34669602 0.5526039 -0.35237122
-0.37764567 0.61190951 -0.34718084
-0.34930384 0.601735 -0.34433603
-0.49225157 0.29797679 -0.28847122
-0.44479743 0.29905877 -0.29158735
-0.39349136 0.29904261 -0.29171562
-0.36410755 0.30630136 -0.29247475
-0.49943602 0.34512544 -0.30659103
-0.4470064 0.34270966 -0.32026196
-0.3930625 0.33581662 -0.31772852
-0.35070562 0.3478502 -0.30921507
0.29484111 0.3724094 -0.29092789
0.33879375 0.36141181 -0.29085112
0.38319358 0.36196825 -0.28692245
-0.49880391 0.39787772 -0.31522512
-0.33856785 0.40103152 -0.31830502
0.2839947 0.4056716 -0.28902578
0.33822158 0.40448168 -0.29658842
0.39604852 0.39893651 -0.28989458
0.42780495 0.3957102 -0.2823019
-0.49129301 0.44496772 -0.31626368
-0.46757811 0.47565389 -0.32675028
-0.33690736 0.44249398 -0.33028889
0.29565218 0.43994901 -0.28135014
0.33934751 0.43928212 -0.28528833
0.38363394 0.43965122 -0.28310919
0.34369531 0.51841146 -0.28586435
0.38304254 0.5267573 -0.2882309
-0.42439532 0.56270915 -0.32550573
0.28791001 0.56386369 -0.28608656
0.33864436 0.55888051 -0.29235888
0.38348499 0.56057531 -0.28439903
-0.40367481 0.60753 -0.31940794
-0.33755997 0.61697006 -0.32557869
0.29572672 0.59446931 -0.28046942
-0.38426799 0.6547907 -0.30416727
-0.3502827 0.66374856 -0.31222486
-0.54118723 0.15677872 -0.23183632
-0.49551696 0.15647906 -0.23616028
-0.45031917 0.15631771 -0.23848963
-0.38912934 0.15086573 -0.23614979
-0.33886129 0.14531377 -0.23535013
-0.28763026 0.14324087 -0.23279238
-0.2335538 0.147544 -0.23553944
-0.18201634 0.14527833 -0.23592186
-0.13055778 0.14310154 -0.23496437
-0.076743834 0.147526 -0.23581314
-0.025299296 0.145417 -0.23379374
0.019501764 0.14555341 -0.23176003
0.069946676 0.15105119 -0.2334671
0.13158421 0.15663442 -0.23391867
0.17649865 0.15678182 -0.23179245
-0.53904235 0.18956113 -0.24236155
-0.49318641 0.18906385 -0.24851227
-0.44851273 0.18903345 -0.24891233
-0.39283615 0.18906888 -0.24851322
-0.33768249 0.18943921 -0.2440505
-0.28726339 0.19234809 -0.23589182
-0.23328918 0.18768299 -0.23825741
-0.18197232 0.19007784 -0.23639441
-0.13049564 0.19234997 -0.23595095
-0.076535918 0.18749359 -0.2405982
-0.025193475 0.1899758 -0.23756933
0.015794683 0.18647864 -0.23459482
0.075541273 0.17889175 -0.23591805
0.13155943 0.17897066 -0.23489523
0.1764674 0.17915007 -0.23256063
-0.53699875 0.24439755 -0.25239468
-0.49135131 0.24381503 -0.25822401
-0.44698298 0.24386153 -0.25775909
-0.39170402 0.24405324 -0.25580788
-0.34400147 0.24019137 -0.23858833
-0.54487205 0.29822046 -0.26803541
-0.52114344 0.28625157 -0.2759285
-0.43221092 0.28585586 -0.27935696
-0.38816267 0.28591585 -0.27883673
-0.345274 0.29798546 -0.26990747
0.2880491 0.3017025 -0.23877954
0.34049317 0.29245064 -0.24584866
0.39314142 0.29489574 -0.23940754
0.43412596 0.31350371 -0.23400068
-0.5437693 0.34182018 -0.2733407
0.254186 0.34582624 -0.24344206
0.28590789 0.34288982 -0.26522207
0.34067988 0.33093855 -0.27202177
0.40045309 0.33917189 -0.26544666
0.44356531 0.34529454 -0.24732494
0.47968578 0.35902476 -0.22895241
0.24187872 0.39906719 -0.26021624
0.27383724 0.37425005 -0.27834511
0.44247305 0.39731187 -0.2717762
0.48607072 0.40567338 -0.24653101
0.20981327 0.44732231 -0.237813
0.23146093 0.45294181 -0.24849796
0.28212416 0.45723021 -0.26667881
0.34042427 0.46322423 -0.27440929
0.39959535 0.45619237 -0.27257109
0.44186956 0.45472419 -0.25982952
0.48555878 0.45443738 -0.23988056
0.24732772 0.50017446 -0.23443794
0.28660432 0.49971956 -0.2566309
0.3351422 0.49128735 -0.27202654
0.39827418 0.50356281 -0.27133751
0.44437763 0.50261223 -0.24132872
0.20927501 0.57945776 -0.24780178
0.24778727 0.56099707 -0.25570774
0.28208098 0.53837079 -0.26705408
0.40677425 0.56275338 -0.27411604
0.44041726 0.5513559 -0.25423002
0.19819021 0.61333168 -0.24597979
0.24183741 0.60987067 -0.26133966
0.28220832 0.61255586 -0.26578999
0.34172639 0.60976875 -0.26188183
0.39522648 0.60941625 -0.24704885
0.44523117 0.59346104 -0.23478222
0.23266187 0.65057808 -0.23017263
0.28886512 0.65087116 -0.22894478
-0.37948897 0.69808972 -0.26335907
-0.34613687 0.70912886 -0.26368093
-0.53965199 0.080304541 -0.18345451
-0.4935652 0.080191754 -0.18610573
-0.4366338 0.08019159 -0.18601561
-0.39076239 0.080109052 -0.18805742
-0.34512311 0.080072977 -0.18888235
-0.28813773 0.080040716 -0.18965387
-0.23123854 0.080032654 -0.18984795
-0.18573722 0.080034249 -0.18982553
-0.1289067 0.080060206 -0.18919563
-0.072046928 0.080096088 -0.18837309
-0.026505902 0.080069505 -0.18902016
0.019001953 0.080085002 -0.18860626
0.075902447 0.080068536 -0.18894911
0.13282099 0.08010488 -0.18809986
0.17847186 0.080228798 -0.18519926
0.21275321 0.091740184 -0.18325472
-0.54519331 0.12424255 -0.21221399
-0.49956888 0.12410071 -0.21464825
-0.44274893 0.12395445 -0.21715212
-0.39026779 0.12024895 -0.21629906
-0.34212404 0.1130389 -0.21114349
-0.28570989 0.11306255 -0.21070385
-0.22910917 0.11299282 -0.21199894
-0.18388125 0.11294759 -0.21283865
-0.12744188 0.11294083 -0.21296453
-0.071033411 0.11297733 -0.21228647
-0.025910221 0.11304186 -0.21109056
0.019269433 0.11300503 -0.21177149
0.080175549 0.1216808 -0.21756029
0.13204564 0.12397227 -0.216887
0.17726725 0.1241627 -0.21361208
0.23173994 0.13909185 -0.20014906
0.29259738 0.14874741 -0.18277359
0.33802 0.14862037 -0.18472242
0.38000962 0.15255412 -0.18281651
0.030677211 0.20206279 -0.22676611
0.075612389 0.20207626 -0.22660589
0.13177495 0.20205578 -0.22684813
0.17680669 0.20224631 -0.22459841
0.23375532 0.19192904 -0.21318483
0.29080504 0.19258365 -0.20488071
0.33597296 0.19249249 -0.20601797
0.39328864 0.19300127 -0.19969893
0.44056991 0.1942077 -0.18476009
-0.3310104 0.24869689 -0.20976448
-0.28591427 0.22620925 -0.20857811
-0.23012358 0.22686991 -0.20142555
-0.18512392 0.22725013 -0.19730806
-0.14017808 0.22786534 -0.19065189
-0.071562298 0.22699997 -0.20002079
-0.026188038 0.22695675 -0.20048571
0.019138508 0.22695956 -0.2004571
0.075788215 0.22679961 -0.20218849
0.13234438 0.22648805 -0.20555878
0.17768019 0.22664076 -0.20390797
0.23459226 0.23851529 -0.19839096
0.29015529 0.23709849 -0.21286297
0.33484727 0.23662257 -0.21768236
0.39192933 0.23722351 -0.21147394
0.45133719 0.23932904 -0.18961382
0.24578127 0.29490557 -0.20057344
0.28963372 0.27027738 -0.21920109
0.40217784 0.27017549 -0.22014523
0.45131719 0.28970253 -0.20648861
0.48562738 0.30771428 -0.18832922
0.23329675 0.34899196 -0.2199173
0.49931327 0.34812787 -0.19839382
0.21138927 0.40706241 -0.20856619
0.50322306 0.38250768 -0.22188759
0.53144604 0.39903492 -0.18651056
-0.53604138 0.43081245 -0.20149422
0.18366563 0.45443162 -0.19565153
0.50381643 0.4732058 -0.21803379
0.52857941 0.44169134 -0.20424318
0.18929484 0.49953687 -0.19747877
0.21861222 0.51159948 -0.21368647
0.49167651 0.50687915 -0.19878864
0.53209215 0.47949487 -0.18251371
0.21220994 0.55710304 -0.19333649
0.16638568 0.61173606 -0.203125
0.41366515 0.63091016 -0.21816921
0.46067157 0.61150485 -0.20415974
-0.33357379 0.66005152 -0.19017696
0.29301751 0.68596834 -0.17760229
0.33476567 0.6532979 -0.21877527
0.38312501 0.66030163 -0.1894269
0.43951252 0.63675964 -0.19283962
-0.33143941 0.70147538 -0.20648623
-0.53923059 0.0013924092 -0.12755489
-0.49197978 0.0013254732 -0.13189077
-0.44557986 0.0013246946 -0.13194656
-0.39893109 0.0012985393 -0.13364697
-0.34086356 0.0012854412 -0.13450289
-0.28284466 0.0012750328 -0.13517809
-0.23629823 0.0012423433 -0.13729668
-0.18991259 0.0012282543 -0.13821936
-0.13216075 0.0012583546 -0.13625622
-0.074274801 0.0012659281 -0.13576794
-0.027944282 0.0012673289 -0.1356802
0.018394347 0.0012645274 -0.13586378
0.076314352 0.0012701862 -0.13549185
0.13425049 0.0012781471 -0.13498688
0.18086031 0.0013728738 -0.12882805
-0.53897524 0.031806387 -0.1483655
-0.49433601 0.037716962 -0.15698767
-0.44163507 0.035447128 -0.15578175
-0.39534229 0.035397545 -0.15754652
-0.33766788 0.035361364 -0.15890074
-0.28013 0.035347342 -0.15950012
-0.23398516 0.035300016 -0.16131639
-0.18803334 0.035296477 -0.16144562
-0.13072786 0.035345301 -0.15956736
-0.073250331 0.035336129 -0.15994787
-0.027300224 0.035344228 -0.1595726
0.018655267 0.035370886 -0.15857267
0.076134719 0.035358794 -0.15906811
0.13363945 0.035396375 -0.15765047
0.17978209 0.035485111 -0.15425491
0.22274157 0.039709426 -0.14123821
0.24197531 0.079236269 -0.15463781
0.29606542 0.082146652 -0.13983536
0.34253469 0.082229383 -0.13783598
0.38535267 0.08624769 -0.13438463
0.42498183 0.09437146 -0.12628937
0.25953254 0.11545692 -0.16627169
0.29431283 0.11571253 -0.16152573
0.34030026 0.11573837 -0.16104794
0.39033395 0.12350684 -0.15868664
0.43836999 0.14252928 -0.15147829
0.4712351 0.14075044 -0.12792349
0.46556959 0.19549179 -0.16881084
0.50009727 0.20150387 -0.14225435
-0.31362775 0.25293407 -0.16742659
-0.28143311 0.25490475 -0.14773273
-0.23597133 0.25562412 -0.14054537
-0.20250329 0.25706041 -0.12619305
-0.10871888 0.23241073 -0.14144516
0.029963573 0.25627303 -0.13406181
0.076238975 0.25532037 -0.14358044
0.13347238 0.25333756 -0.1633935
0.17918491 0.25287482 -0.16801643
0.50204176 0.24265578 -0.15507174
-0.33190492 0.2861231 -0.14379358
0.099608846 0.28018871 -0.12723541
0.13413456 0.2788536 -0.13962412
0.1801433 0.27824673 -0.14525175
0.21403813 0.28822041 -0.15940905
0.50573838 0.28477219 -0.15598822
-0.34195337 0.32678825 -0.12614489
0.21445203 0.32363719 -0.15172815
0.51246452 0.32238901 -0.16186237
0.53832728 0.3592101 -0.14394426
0.14575274 0.49900502 -0.13767004
0.16778606 0.4937827 -0.16674185
0.54002792 0.51137114 -0.13342381
-0.34097388 0.55764782 -0.13362932
0.16902794 0.55753046 -0.13447618
-0.33766171 0.6100868 -0.15893936
0.42011687 0.66594285 -0.1657877
-0.33603308 0.73328567 -0.17138433
0.25901681 0.68692559 -0.17371655
0.33909112 0.68695259 -0.17360735
-0.53565341 -0.056878623 -0.085760117
-0.50004488 -0.056872942 -0.087331295
-0.44559678 -0.05921521 -0.089111328
-0.38737595 -0.056846362 -0.093109131
-0.3345283 -0.056846946 -0.093132973
-0.29176831 -0.060776666 -0.090200901
-0.24039835 -0.056845114 -0.094654083
-0.17279777 -0.068653584 -0.087906361
-0.12344118 -0.068612531 -0.086709023
-0.076375939 -0.068671763 -0.086841583
-0.031662829 -0.073412403 -0.08446455
0.021807324 -0.060757726 -0.093690395
0.07663475 -0.056843571 -0.093984604
0.13156486 -0.060778014 -0.089813232
0.186638 -0.060802717 -0.084764004
0.2181319 -0.045067891 -0.083438396
0.31262335 -0.045068048 -0.080929756
0.35173291 -0.060784243 -0.083079815
0.38328955 -0.05684492 -0.081866741
-0.54770148 -0.029494755 -0.10436106
-0.49504256 -0.021740953 -0.1149826
-0.44829041 -0.021745311 -0.11555624
-0.39021724 -0.02758771 -0.1139636
-0.33129606 -0.021768663 -0.11858082
-0.2813341 -0.029540572 -0.11370707
-0.23782673 -0.0217903 -0.12139893
-0.18478754 -0.031103423 -0.11522388
-0.12196808 -0.033423413 -0.1122551
-0.07907737 -0.029542699 -0.11451817
-0.02459833 -0.029544413 -0.11500978
0.014252424 -0.029544413 -0.11517143
0.076442339 -0.021770947 -0.11887884
0.13877806 -0.029529985 -0.11194611
0.17781164 -0.029507779 -0.10842419
0.22898534 -0.0099426359 -0.10029554
0.29359806 -0.007364925 -0.082868576
0.34518239 -0.016800996 -0.085906982
0.38397706 -0.009637408 -0.075487137
0.23957565 0.024844274 -0.11796045
0.28683239 0.036688626 -0.10966063
0.3456977 0.03681694 -0.10494614
0.39329755 0.03700316 -0.097930908
0.43804708 0.041316815 -0.084023952
0.40246183 0.071371429 -0.1200552
0.44291791 0.079640552 -0.10732412
0.48568705 0.088610552 -0.080553055
0.49046829 0.12672028 -0.10201406
0.52553368 0.14388794 -0.076975822
0.51295745 0.17312807 -0.10824299
0.54766363 0.21396622 -0.086190224
-0.16847923 0.25822699 -0.11453295
-0.12242285 0.25925121 -0.10429907
-0.075938962 0.26007798 -0.096037865
-0.029217258 0.26081678 -0.088656425
0.0064777136 0.25826061 -0.11419868
0.54417109 0.24719357 -0.10779476
-0.32234621 0.30695391 -0.096641541
-0.28729543 0.29545432 -0.095180511
-0.23956212 0.28277025 -0.10328102
-0.1823321 0.28465003 -0.085838795
-0.12409271 0.2857784 -0.075368404
-0.088858537 0.28627041 -0.070802212
0.02952642 0.28557315 -0.077274799
0.076642409 0.29161313 -0.094077587
0.12355855 0.30700669 -0.0961833
0.17029069 0.30637327 -0.10166931
-0.34328201 0.35135791 -0.11599207
-0.34436181 0.39920518 -0.10774183
-0.34440756 0.4577046 -0.10739183
-0.34322107 0.50285804 -0.11645794
0.50965548 0.55204123 -0.10369778
-0.23567855 -0.16541047 -0.018647671
-0.17542693 -0.16536883 -0.019730091
-0.12735817 -0.16540183 -0.018871307
-0.091256343 -0.16540113 -0.018887997
-0.53859264 -0.13306217 -0.028857231
-0.49240363 -0.12645137 -0.036922455
-0.43720371 -0.12881982 -0.038041115
-0.38896215 -0.1287446 -0.04086113
-0.340974 -0.12870267 -0.042379856
-0.29318422 -0.12869892 -0.04253149
-0.23338485 -0.12867141 -0.043477058
-0.17364591 -0.12865406 -0.044109344
-0.12584701 -0.12862822 -0.045036793
-0.078142323 -0.12864828 -0.044394493
-0.030402228 -0.12864901 -0.044413567
0.01731294 -0.12871046 -0.042071819
0.07704474 -0.12874502 -0.040740967
0.13684584 -0.12880418 -0.038680077
0.18484268 -0.12890801 -0.03481245
0.22113994 -0.11706634 -0.027616501
-0.54109377 -0.092606753 -0.057491302
-0.50502557 -0.092571646 -0.059787273
-0.44502056 -0.092511535 -0.063690186
-0.38521302 -0.092457615 -0.06718111
-0.33768979 -0.092441425 -0.068239212
-0.29035416 -0.092446797 -0.067897797
-0.24289277 -0.092433482 -0.06874752
-0.1954633 -0.092420951 -0.069554806
-0.12441056 -0.092415586 -0.069928646
-0.065222874 -0.092414647 -0.069987297
0.017635919 -0.092413634 -0.070037365
0.076836884 -0.092445217 -0.067983627
0.13611498 -0.092477307 -0.065905094
0.18373406 -0.092553586 -0.060950279
0.23441321 -0.073746189 -0.047316074
0.2843039 -0.061056249 -0.038472652
0.31544021 -0.068912894 -0.047664165
0.41147789 -0.057056475 -0.041973591
0.43614992 -0.045067891 -0.035615444
0.26731774 -0.033210769 -0.053901672
0.4090142 -0.0095080435 -0.063309669
0.4501428 -0.01644031 -0.038766384
0.48489496 0.0029043518 -0.029342651
0.45662227 0.026134148 -0.062097073
0.49502847 0.038490467 -0.042714596
0.50520116 0.07389468 -0.054502964
0.53248638 0.086711429 -0.031816483
0.52830124 0.12123708 -0.059000015
0.55136931 0.19218242 -0.063267708
-0.24291155 0.31020865 -0.068454266
-0.18459246 0.31158209 -0.056560993
-0.12573099 0.31268534 -0.047005653
-0.073892899 0.30427986 -0.051352978
-0.030165434 0.30012161 -0.053045273
0.013508458 0.30388725 -0.054830074
0.06504713 0.31228039 -0.050513268
-0.3274976 0.34752205 -0.054817677
-0.29343584 0.3373782 -0.040164948
-0.23430967 0.33821249 -0.033390522
-0.17476395 0.33878914 -0.028708935
-0.12713489 0.33954194 -0.022596836
-0.079127185 0.33971933 -0.021155834
-0.030939452 0.33929893 -0.024569035
0.017091546 0.33954498 -0.022571564
-0.33147871 0.38763219 -0.022494793
0.18529591 0.56758446 -0.024299145
-0.33105183 0.61525404 -0.025961399
0.1955981 0.59597713 -0.061009407
0.24308291 0.59597713 -0.061009407
-0.32926711 0.65997666 -0.04045105
-0.53397954 -0.21631226 0.032658577
-0.49681777 -0.21616584 0.029942513
-0.44747108 -0.21600887 0.02702713
-0.39816573 -0.21583295 0.023764133
-0.3370049 -0.21575668 0.022351265
-0.27579364 -0.21562544 0.019917488
-0.22683996 -0.21549132 0.017424583
-0.17799583 -0.21538135 0.015385151
-0.129435 -0.21547514 0.017126083
-0.080861174 -0.2156232 0.019872665
-0.032126799 -0.21561471 0.019714355
0.016584489 -0.21566412 0.020630836
0.077530921 -0.21572554 0.021775246
0.13854736 -0.21586534 0.024365425
0.18757764 -0.21614936 0.029634953
-0.54129142 -0.17854759 0.0065536499
-0.49195528 -0.17835087 0.0018548965
-0.44297123 -0.17820719 -0.0014872551
-0.39432874 -0.17813444 -0.0031666756
-0.34568673 -0.17804691 -0.0052924156
-0.29003793 -0.18044505 -0.0056591034
-0.23045966 -0.17785844 -0.0096554756
-0.17665082 -0.19019994 -0.00303936
-0.1283448 -0.19025901 -0.0017619133
-0.075789444 -0.18207666 -0.0051555634
-0.031388678 -0.17793998 -0.0077295303
0.01690672 -0.17797282 -0.0070195198
0.07732448 -0.17805731 -0.0049948692
0.13784896 -0.17820451 -0.0014867783
0.18643683 -0.17838603 0.0027737617
0.22377393 -0.17917454 0.021264076
0.23887277 -0.13389468 0.0013656616
0.28430933 -0.13026592 0.015748501
0.3328698 -0.1302361 0.014565945
0.38932621 -0.1279186 0.019247532
0.44434473 -0.11841802 0.030918121
0.28235328 -0.093323842 -0.010913849
0.34233814 -0.093267664 -0.014571667
0.40382338 -0.093435138 -0.0036931038
0.45370752 -0.081523776 0.008128643
0.49134454 -0.057293251 0.017203808
0.50429583 -0.012858652 -0.0057892799
0.53926647 0.039928816 0.01222086
0.56412303 0.13741085 0.015626431
0.56328553 0.17356449 0.010445595
-0.28517476 0.36579037 -0.0057072639
-0.22519186 0.36638507 -0.001162529
-0.17708707 0.36693668 0.0030531883
-0.12906498 0.3679511 0.01080513
-0.080292441 0.36735573 0.0062556267
-0.031676538 0.36694354 0.0031046867
0.016646102 0.36883867 0.017586231
0.053143628 0.34369615 0.011128902
-0.3335458 0.41412574 -0.0057125092
-0.31187165 0.39295048 0.01588583
-0.33470157 0.45185509 0.0036711693
-0.33317733 0.49817979 -0.0087041855
-0.33239681 0.55734938 -0.015040874
0.19949728 0.56473905 0.023410797
-0.48040503 0.68249846 0.005215168
-0.54068613 -0.2677539 0.068958282
-0.50014359 -0.27632883 0.07307148
-0.44751132 -0.28304389 0.074481964
-0.38713247 -0.27761865 0.068018913
-0.33023584 -0.28007782 0.067805767
-0.28077254 -0.28008348 0.067874432
-0.23120925 -0.2800079 0.066819668
-0.18164065 -0.27988887 0.065199375
-0.13228142 -0.27997681 0.06639719
-0.082867198 -0.28003621 0.067250252
-0.033423014 -0.28007132 0.067690372
0.016046397 -0.28003663 0.067275524
0.077886157 -0.28015774 0.068906784
0.13975009 -0.28016666 0.069063663
0.18520558 -0.27620935 0.071492672
-0.5479719 -0.22912085 0.042147636
-0.50000471 -0.24174169 0.048344612
-0.45022315 -0.24150273 0.044464111
-0.40067515 -0.2413131 0.041388512
-0.33914146 -0.24120721 0.03966856
-0.27771565 -0.2411319 0.038442612
-0.22857708 -0.24104911 0.037097454
-0.17949703 -0.24097499 0.035894871
-0.13057292 -0.24103314 0.036839008
-0.08165092 -0.24113697 0.038523674
-0.032631211 -0.2411285 0.038389683
0.01636501 -0.24121419 0.039781094
0.077670403 -0.24125379 0.04042387
0.13902257 -0.24136105 0.042165279
0.18831506 -0.24166289 0.047064781
0.23432869 -0.2262485 0.06394434
0.2889277 -0.21880165 0.078858376
0.33873141 -0.21890345 0.080742836
0.37623191 -0.21903867 0.083252907
0.24955732 -0.1801421 0.044121742
0.28681183 -0.1803847 0.049954891
0.33603916 -0.18039936 0.050309181
0.3860018 -0.18071204 0.057584286
0.43262398 -0.17708704 0.069672108
0.44607776 -0.13510823 0.044829845
0.48613605 -0.13166192 0.06886816
0.50892121 -0.082004167 0.055029869
0.53787166 -0.069921792 0.083877087
0.51872516 -0.045067735 0.03796196
0.54623228 -0.0081049167 0.057465553
0.56764156 0.10193156 0.037391663
-0.31631604 0.42291439 0.054375172
-0.27757174 0.39589342 0.037124634
-0.2285288 0.39580694 0.036500454
-0.18014616 0.39698038 0.044969082
-0.13138142 0.39779508 0.050848961
-0.082038663 0.39734122 0.047572613
-0.032955781 0.39779571 0.050852776
0.016105369 0.39936182 0.062157154
0.065562859 0.3880164 0.069524288
-0.28213614 0.42680839 0.080999374
-0.23273912 0.42725757 0.084069252
-0.19555536 0.42745996 0.085455418
0.053143628 0.4274576 0.085436821
-0.54043776 0.57324612 0.067614079
-0.53692228 0.59417015 0.048586369
-0.51054347 0.61665195 0.038460732
0.2495707 0.59332019 0.044338703
-0.49952769 0.65497214 0.045583725
-0.28801715 -0.3735936 0.1375885
-0.23745924 -0.37357765 0.13742733
-0.1868751 -0.37351111 0.13676405
-0.13632026 -0.37347141 0.13636637
-0.085749708 -0.37336725 0.13532448
-0.03521248 -0.37324405 0.13409424
0.015269607 -0.37330756 0.13472795
0.07840658 -0.37346026 0.13625574
-0.5374763 -0.33412743 0.11957836
-0.48640448 -0.33370197 0.11470938
-0.43584689 -0.33348548 0.11226606
-0.38531902 -0.33324483 0.10951138
-0.33499795 -0.33308294 0.10771799
-0.28490791 -0.33307493 0.10763311
-0.23479396 -0.33304489 0.10730553
-0.18460849 -0.33291227 0.10580015
-0.13453871 -0.33288351 0.10547018
-0.084482707 -0.33287272 0.10538197
-0.03444054 -0.3328732 0.1054039
0.0156161 -0.33281648 0.10474968
0.078172371 -0.3329477 0.1062417
0.14076239 -0.33298084 0.10659695
0.19119853 -0.33373067 0.11503363
0.22968021 -0.32248253 0.1308713
-0.54476708 -0.2941972 0.091047287
-0.51937819 -0.29399046 0.088358879
0.20257792 -0.29412511 0.090107441
0.24115494 -0.28320467 0.1105442
0.29215237 -0.28411424 0.12302303
0.34250948 -0.28414023 0.12338448
0.38894054 -0.28015471 0.12640142
0.43207186 -0.27242494 0.1363759
0.25255165 -0.24447617 0.092743397
0.29014927 -0.24465224 0.095604897
0.34012657 -0.24470407 0.096446991
0.39438018 -0.23651811 0.098306179
0.4421424 -0.23331639 0.1147089
0.48148769 -0.22144485 0.12790966
0.45178932 -0.19456008 0.091360569
0.49190539 -0.18298918 0.11138344
0.50180912 -0.14477149 0.0927248
0.53097904 -0.13313931 0.12174177
0.55429584 -0.070125565 0.10984039
0.57777011 0.079843283 0.10004568
0.078072473 0.35379365 0.093112469
0.10321786 0.39305985 0.10717726
0.12878144 0.39613199 0.12997437
-0.32178226 0.45483351 0.10171413
-0.30047578 0.46010262 0.13594007
-0.17107925 0.42829153 0.091139317
-0.13373122 0.428359 0.091600418
-0.084086098 0.42905915 0.096387386
-0.034158058 0.42884767 0.094939709
0.0155637 0.44348547 0.10888529
0.083197191 0.44629917 0.11109829
0.14116615 0.44518781 0.12048674
0.20453313 0.43433228 0.13243961
-0.53615743 -0.42939454 0.18312836
-0.4975965 -0.42930457 0.18234873
-0.44588199 -0.42893285 0.17912769
-0.39436188 -0.42864555 0.17664099
-0.34320277 -0.4286288 0.17649555
-0.29200909 -0.42857051 0.17599058
-0.24082702 -0.42850989 0.17546701
-0.18970841 -0.42851892 0.17554474
-0.13853511 -0.42842045 0.1746912
-0.08737465 -0.42829958 0.17364454
-0.036290303 -0.42836657 0.17422581
0.014793739 -0.4285526 0.17583561
0.078713357 -0.42854878 0.17580318
0.14267609 -0.42876768 0.17769957
0.18111616 -0.4289856 0.17958498
-0.54441971 -0.38838509 0.15795708
-0.49305815 -0.38806725 0.1549139
-0.44202986 -0.38791716 0.1534605
-0.39113566 -0.38783482 0.15267467
-0.34000725 -0.38752386 0.14967871
-0.29020947 -0.40113732 0.15867376
-0.23936614 -0.40116644 0.15894318
-0.18837288 -0.40098321 0.15724421
-0.13763201 -0.40117991 0.15906811
-0.086645104 -0.40088817 0.15636206
-0.035783075 -0.40077555 0.15531683
0.015016295 -0.40089026 0.15638113
0.078568049 -0.40096426 0.15706873
0.14192155 -0.38752544 0.14967251
0.19287813 -0.38805845 0.1548028
0.24516615 -0.37784478 0.18006802
0.24801791 -0.34161282 0.15648222
0.29494479 -0.33781365 0.16120386
0.34588611 -0.337845 0.16150951
0.39801252 -0.33887219 0.17311525
0.43676502 -0.3263903 0.17701912
0.40781125 -0.29840183 0.1456666
0.45177293 -0.29104698 0.16002083
0.48713583 -0.27482831 0.17106867
0.50317127 -0.24036026 0.16358519
0.53803241 -0.18547878 0.16996622
0.56533337 -0.12189645 0.18153095
0.55876076 -0.095629692 0.13884068
0.10370097 0.35939091 0.13855553
-0.27632228 0.46180266 0.14698172
-0.23868182 0.46243674 0.15109825
-0.18794596 0.46245193 0.15119839
-0.13744959 0.46319991 0.15605593
-0.086614661 0.46311855 0.15552855
-0.035548478 0.46161926 0.14579058
0.19220382 0.46059304 0.13912535
-0.32835722 0.48903322 0.15865469
-0.07493379 0.49285716 0.1823101
-0.03623908 0.49115491 0.1717782
0.014942683 0.48963493 0.1623764
0.078595564 0.48919916 0.15968037
0.14217454 0.48910481 0.15909672
0.18027437 0.48888129 0.15771437
-0.54080749 -0.45825133 0.20939112
-0.50088936 -0.45736682 0.2022109
-0.44873822 -0.45687079 0.19818401
-0.39723721 -0.45684284 0.19795752
-0.34546301 -0.45652941 0.19541311
-0.29403514 -0.45654052 0.19550133
-0.2425887 -0.45652092 0.19534397
-0.19097009 -0.45620811 0.19280386
-0.13955042 -0.45613813 0.19223547
-0.088169329 -0.45616591 0.19246101
-0.036778733 -0.45614177 0.19226503
0.014581792 -0.4564037 0.19439268
0.078859277 -0.45653108 0.19542646
0.14319351 -0.45670974 0.19687653
0.19922674 -0.44895184 0.20338821
0.24753574 -0.43380833 0.22135258
0.29958883 -0.43419564 0.22470617
0.35635951 -0.44358462 0.23077869
0.40440315 -0.43533707 0.23459101
0.24639595 -0.40575269 0.20149708
0.2977944 -0.39275944 0.20013571
0.34931675 -0.39277953 0.20029306
0.40196696 -0.39390332 0.21113205
0.45165288 -0.39159861 0.23080254
0.45693704 -0.34577811 0.202806
0.49469051 -0.34380621 0.22879744
0.50949675 -0.2947602 0.2100606
0.54534477 -0.23940405 0.21996117
0.23535344 0.44950166 0.23615313
-0.2298111 0.49511862 0.19629717
-0.19141722 0.49556547 0.19906187
-0.14012021 0.49608082 0.20225
-0.10109556 0.49476933 0.1941371
0.34310436 -0.57226938 0.27903461
0.32960352 -0.53225309 0.27560711
-0.31691167 -0.49442086 0.28844643
-0.27635193 -0.49317154 0.27890062
-0.22428346 -0.49426708 0.28727198
-0.1711539 -0.49364588 0.28252506
-0.11842719 -0.49380815 0.28376484
-0.065425411 -0.4929961 0.27755976
-0.012700625 -0.49295834 0.27727032
0.026752397 -0.4937188 0.28308249
0.066294588 -0.49274623 0.27564907
0.11884495 -0.49180967 0.26849461
0.17191935 -0.49371007 0.28301573
0.22856829 -0.48377365 0.27364874
0.27646562 -0.47863981 0.26777411
0.32402214 -0.48200694 0.26013613
0.36745164 -0.49033734 0.25724506
0.42001197 -0.46434611 0.25887442
0.3401255 -0.46249613 0.24385548
0.39241728 -0.46263546 0.24498749
0.44545564 -0.43737978 0.25228214
0.48240864 -0.42175058 0.26860332
0.49860796 -0.38571706 0.25873184
0.5275591 -0.36134496 0.27855921
0.53953475 -0.32102677 0.26966333
0.55064315 -0.28072554 0.25618601
0.57486969 -0.14941308 0.24347162
0.17209157 0.40429723 0.28853893
0.22412121 0.40220428 0.27254677
0.17579064 0.43678781 0.26918554
0.22339603 0.4265008 0.2580142
0.33491701 -0.63541448 0.34059048
-0.37675223 -0.58243757 0.3450799
-0.33623779 -0.58214086 0.34315252
-0.28283498 -0.58263564 0.34636641
-0.22897783 -0.58243614 0.34506941
-0.17501792 -0.58191031 0.34165478
-0.12125938 -0.58167815 0.34014702
-0.062922016 -0.58976638 0.33448792
-0.013723776 -0.58007085 0.32970762
0.026377369 -0.5803929 0.33179951
0.071017593 -0.58984309 0.33498955
0.12003497 -0.58019823 0.33053446
0.16047391 -0.58171928 0.34041357
0.28102288 -0.58131516 0.33778906
0.32757017 -0.5939545 0.30479765
-0.42869914 -0.52691054 0.33216143
-0.38805449 -0.53975952 0.328197
-0.33406481 -0.53912622 0.32372952
-0.28039429 -0.53873587 0.32096338
-0.22735137 -0.539298 0.32498693
-0.17369244 -0.53878403 0.3213973
-0.12019705 -0.53841734 0.31885433
-0.066482835 -0.53687108 0.30799341
-0.013358861 -0.53724766 0.3106389
0.026535776 -0.53733134 0.31122255
0.066439532 -0.53707278 0.30937243
0.1197411 -0.53785503 0.31488657
0.16899922 -0.5352 0.32757044
0.23098972 -0.53414774 0.31998825
0.27941641 -0.53761029 0.31309175
-0.53707522 -0.50114614 0.33983707
-0.49383211 -0.49865976 0.32083797
-0.43874717 -0.49705797 0.30859804
-0.38455477 -0.4960213 0.30067682
-0.3442637 -0.49546292 0.29640913
0.53380722 -0.41891721 0.32365131
0.53051221 -0.38983408 0.29987192
0.56017965 -0.33861488 0.32138729
0.15981779 0.35496041 0.31910563
0.21284339 0.35418174 0.31236219
0.13281515 0.37984714 0.30463886
0.17262217 0.37975031 0.30385399
0.21217588 0.37901804 0.29790974
-0.38189197 -0.64324182 0.38680935
-0.34045324 -0.64225298 0.38097
-0.2867189 -0.64323246 0.38675451
-0.23301306 -0.64465618 0.39516068
-0.17823029 -0.64391166 0.39076471
-0.1238813 -0.64420795 0.39251518
-0.068866096 -0.64147872 0.37639856
-0.014631748 -0.64155734 0.376863
0.02601409 -0.64191782 0.37899113
0.066687323 -0.64126533 0.37513971
0.12089036 -0.64123201 0.3749423
0.17523348 -0.64191425 0.37897015
0.29689386 -0.64090192 0.37299299
0.33785775 -0.66862559 0.37660885
-0.50343335 -0.58807808 0.38171482
-0.44504756 -0.59762043 0.38470173
-0.3968845 -0.60311604 0.36235237
-0.33780438 -0.61127061 0.35723114
-0.28428105 -0.61195004 0.36143541
-0.23046499 -0.61227387 0.36343718
-0.17604503 -0.61129171 0.35736132
-0.12207193 -0.61112761 0.35634804
-0.081347473 -0.60993052 0.3489418
-0.01411806 -0.61010605 0.35002804
0.0262229 -0.61040312 0.35186625
0.053143628 -0.60994095 0.34900665
0.12036017 -0.60968059 0.34739637
0.17912307 -0.60286605 0.36091852
0.22926462 -0.60081488 0.37596178
0.28265151 -0.61220556 0.36301517
-0.54306948 -0.54646659 0.37523127
-0.50014174 -0.54440343 0.36083126
-0.45051724 -0.54874414 0.35974598
0.1876612 -0.5562346 0.3496294
0.21473959 -0.5567885 0.35341597
0.56433553 -0.36792591 0.34980106
-0.38853663 -0.67998308 0.44075775
-0.34599385 -0.67817599 0.43054962
-0.29130217 -0.67888063 0.43453026
-0.22341952 -0.68116325 0.44742107
-0.18146792 -0.67989731 0.44027138
-0.070716307 -0.67793965 0.42921495
-0.015463479 -0.67635733 0.42027855
0.0257017 -0.67623222 0.41957188
0.066845171 -0.67557591 0.41586494
0.12174373 -0.67622852 0.41954994
0.17652608 -0.67573613 0.4167695
0.23186442 -0.67738199 0.42606688
0.28636798 -0.67625564 0.41970301
0.32751471 -0.7035585 0.41894579
-0.52254838 -0.6207599 0.4159317
-0.49484956 -0.62046069 0.41408014
-0.45581037 -0.63666314 0.42889881
-0.41159415 -0.64649314 0.40600777
0.23086828 -0.64652669 0.4062047
0.27167854 -0.64603883 0.40332556
-0.54834563 -0.59187627 0.40638542
-0.25151876 -0.68208921 0.45265198
-0.12694162 -0.68231922 0.45395184
0.30538258 -0.71770513 0.4955163
-0.56015629 -0.6304906 0.47612476
-0.48956853 -0.65735751 0.47015858
0.24747601 -0.62806493 0.46112061
-0.53885311 -0.66525507 0.51679134
0.23152682 -0.63967854 0.71687031
0 0 0 1 0 0 0 1 0 0 0 1 0 0 0 0 0 846 1 0 0
