ply
format ascii 1.0
comment PCL generated
element vertex 1065
property float x
property float y
property float z
element camera 1
property float view_px
property float view_py
property float view_pz
property float x_axisx
property float x_axisy
property float x_axisz
property float y_axisx
property float y_axisy
property float y_axisz
property float z_axisx
property float z_axisy
property float z_axisz
property float focal
property float scalex
property float scaley
property float centerx
property float centery
property int viewportx
property int viewporty
property float k1
property float k2
end_header
0.20060366 -0.15573582 -0.87893343
0.22172889 -0.1082937 -0.87857533
0.23196986 -0.068620868 -0.88471174
0.23188144 0.081157215 -0.88662624
0.15764007 -0.24900723 -0.82310772
0.19389017 -0.19103809 -0.83593798
0.21885163 -0.16831668 -0.81576347
0.23714596 -0.12121923 -0.83232737
0.25639006 -0.04570828 -0.8378458
0.25974366 0.022599157 -0.83041668
0.2451008 0.097032547 -0.83482313
0.22627223 0.15634187 -0.83420324
0.19654222 0.21269098 -0.83633423
0.1537472 0.28198847 -0.80187559
0.019087851 -0.3764784 -0.73987246
0.1039947 -0.31253922 -0.77545834
0.13733746 -0.29916152 -0.74984264
0.18078843 -0.25068712 -0.76310253
0.20350194 -0.21188019 -0.78480911
0.23485009 -0.18621111 -0.76209021
0.26525408 -0.12742677 -0.76686525
0.28916252 -0.097734161 -0.74215794
0.26898879 -0.079212546 -0.79581213
0.28752369 -0.046825249 -0.76581192
0.28750122 0.028338626 -0.76613617
0.26951551 0.09409184 -0.78725958
0.28874004 0.096053913 -0.74825573
0.25683963 0.16105713 -0.7612505
0.1953467 0.24349201 -0.78066158
0.22629531 0.20890489 -0.76795578
0.052703083 0.27437019 -0.73469782
0.12083656 0.31663129 -0.79003239
0.15956791 0.28531834 -0.7777586
0.10375218 0.33925858 -0.75213575
-0.031768054 0.40937689 -0.73681879
-0.105189 -0.42914638 -0.68319845
-0.053348765 -0.41209447 -0.68166637
0.097334124 -0.339304 -0.70537376
0.16311352 -0.29701662 -0.70061731
0.18897092 -0.27155396 -0.69776917
0.22339723 -0.2370531 -0.69830799
0.25763786 -0.19390261 -0.70106649
0.28165227 -0.16924256 -0.6841774
0.30124402 -0.11684902 -0.69310713
0.31698072 -0.043984547 -0.70011044
0.31585994 0.025701273 -0.7107501
0.31363118 0.081117459 -0.70000267
0.27396554 0.17447701 -0.71500015
0.2985397 0.14200398 -0.69036055
0.2055469 0.25945085 -0.71839666
0.24061304 0.23183556 -0.69837856
0.27616042 0.19484754 -0.67935944
0.051426485 0.30180874 -0.70020533
0.06940446 0.27532831 -0.72737455
0.17746578 0.29541963 -0.70501375
0.21587133 0.274542 -0.66666555
0.13733746 0.33096805 -0.69691229
-0.11489035 0.43882567 -0.67417479
-0.027285933 0.41088372 -0.68422174
-0.21944542 -0.45936531 -0.61619043
-0.17292698 -0.44782534 -0.62997198
-0.10229689 -0.43095702 -0.62474728
0.16698992 -0.31659958 -0.61704063
0.23978341 -0.24976018 -0.64161491
0.28113177 -0.2290782 -0.59863472
0.30030662 -0.17984198 -0.63307238
0.32829797 -0.11601385 -0.63696194
0.35226068 -0.094009124 -0.60695219
0.35688522 -0.034108989 -0.62187862
0.34984964 0.022083174 -0.6330514
0.33089697 0.092254065 -0.64773464
0.35241628 0.085228592 -0.60526705
0.3171525 0.15745994 -0.63701725
0.26126993 0.2434206 -0.63366365
0.28863731 0.21802038 -0.62165403
0.011655301 0.32775074 -0.60119343
0.17252523 0.32089698 -0.64805079
0.23591125 0.28237697 -0.60511112
-0.14970399 0.38129517 -0.60307741
-0.0051480681 0.34282705 -0.61988688
0.10205038 0.36625466 -0.63966465
-0.22872813 0.45087263 -0.61398458
-0.1723264 0.44654837 -0.63558912
-0.09451738 0.43228242 -0.61779833
-0.023945317 0.4167009 -0.60564709
-0.36101538 -0.47482452 -0.53586245
-0.31115735 -0.47096395 -0.55592203
-0.25142896 -0.46540296 -0.58481836
-0.18289573 -0.45249429 -0.55682373
-0.10025074 -0.43373498 -0.55943966
-0.025106728 -0.41047251 -0.5888834
0.10074604 -0.36969003 -0.5601325
0.1739907 -0.33380556 -0.55495167
0.22921269 -0.29771832 -0.55005121
0.24677092 -0.27445799 -0.56707954
0.29432911 -0.24425265 -0.53431702
0.32591876 -0.19284835 -0.5634799
0.35795778 -0.16046685 -0.54527855
0.3728956 -0.11542511 -0.55433702
0.38533249 -0.053485814 -0.56542158
0.38404429 0.017751165 -0.57267714
0.38449472 0.087356552 -0.55590439
0.33707416 0.17733029 -0.57478523
0.36146197 0.14671613 -0.55719662
0.31288356 0.22793444 -0.55870628
0.23803473 0.30227259 -0.55644321
-0.30165005 0.38903207 -0.55739498
-0.23811843 0.38962907 -0.55386877
-0.18261068 0.38879058 -0.55881929
-0.11849301 0.37044349 -0.55922985
-0.02517496 0.34775168 -0.58789873
0.17375192 0.34043729 -0.57608509
-0.3608107 0.44786179 -0.53684711
-0.31292474 0.44603425 -0.54634094
-0.23778911 0.44406605 -0.5565691
-0.17180564 0.44119543 -0.57148552
-0.10921134 0.43449092 -0.55830669
-0.054402262 0.42478859 -0.5618701
0.028835595 0.40253705 -0.58442879
-0.44103718 -0.46850058 -0.47018766
-0.38095903 -0.46569392 -0.48537827
-0.30495936 -0.46509781 -0.48860502
-0.2365845 -0.46198982 -0.50542784
-0.17500438 -0.44860324 -0.47546434
-0.12309133 -0.44123396 -0.51708555
-0.04814972 -0.4214583 -0.52401447
0.099251881 -0.39424264 -0.45983267
0.13733746 -0.37058052 -0.4914155
0.17498831 -0.35224432 -0.48806906
0.23761967 -0.31399453 -0.49271345
0.30710274 -0.25866061 -0.48287392
0.34466708 -0.22071648 -0.48511791
0.37796003 -0.17873336 -0.4924469
0.39931285 -0.12573631 -0.50273466
0.42120928 -0.10805789 -0.47516108
0.42766511 -0.04573084 -0.48977518
0.42930073 0.018705245 -0.49850321
0.42726207 0.085945293 -0.49303007
0.38725218 0.16466375 -0.49932814
0.42157662 0.13820753 -0.47198009
0.32408971 0.2480664 -0.50758028
0.35986274 0.22333816 -0.47358131
0.26047099 0.31833974 -0.47156191
0.30704945 0.27875909 -0.48521662
-0.28595185 0.38170844 -0.48954487
-0.24044655 0.38329151 -0.47975302
-0.18249728 0.38170364 -0.48957539
0.17475486 0.36078715 -0.50323296
0.21281937 0.34515235 -0.48221684
-0.43975252 0.42697564 -0.46760464
-0.37842077 0.43673748 -0.49719477
-0.30366272 0.43702251 -0.49565172
-0.23897485 0.43820271 -0.48926401
-0.17245309 0.43716371 -0.49488783
-0.11432411 0.43394843 -0.51229
-0.013930514 0.42150888 -0.47727776
0.0069981217 0.41487101 -0.51476717
-0.56240517 -0.44100702 -0.40858507
-0.51237762 -0.44647944 -0.41412497
-0.44854677 -0.44999939 -0.42034912
-0.37671828 -0.4497726 -0.41361475
-0.30534804 -0.45607111 -0.43328667
-0.24620284 -0.45442295 -0.44259501
-0.15641715 -0.4442268 -0.38957357
-0.1048772 -0.43947846 -0.4176116
-0.4442206 -0.38170689 -0.41534281
-0.40433908 -0.38095301 -0.42049742
0.0020433813 -0.36128584 -0.42281818
0.17591313 -0.37073737 -0.42449713
0.24338213 -0.33178979 -0.42731857
0.2925792 -0.30446494 -0.41275167
0.32038736 -0.27354151 -0.43034744
0.36611789 -0.24219967 -0.4152422
0.40138698 -0.20015462 -0.4241972
0.42786998 -0.16833724 -0.41747808
0.44986874 -0.11846086 -0.41922951
0.46495062 -0.042364437 -0.43013954
0.48884588 -0.03293201 -0.39677
0.4633137 0.024963047 -0.44264841
0.48803234 0.025579963 -0.40264177
0.46156484 0.098562561 -0.42676449
0.4894594 0.074651353 -0.39234209
0.44308293 0.156829 -0.42047453
0.38956785 0.22720298 -0.41351652
0.29094702 0.31303355 -0.43925476
0.3526963 0.28028467 -0.39029646
-0.57572669 0.37733778 -0.39573193
-0.52106923 0.39176038 -0.40311861
-0.46854746 0.3970513 -0.39463568
-0.16315578 0.37438065 -0.4149394
-0.13518615 0.37593284 -0.40486002
-0.057151809 0.3755919 -0.4070735
0.051021516 0.35128549 -0.44028378
0.13733746 0.39308298 -0.41918421
0.23475602 0.35680366 -0.40255499
-0.50651377 0.40944287 -0.43687391
-0.45162576 0.41146797 -0.4249177
-0.3830995 0.42024872 -0.42946911
-0.31381196 0.42819405 -0.43951845
-0.23911856 0.43067816 -0.42548847
-0.17231782 0.43173873 -0.41949987
-0.10404891 0.43070266 -0.42534924
-0.044993728 0.4279297 -0.44101095
0.059184365 0.41645512 -0.39546728
-0.56051546 -0.42620674 -0.37990189
-0.51364172 -0.42765504 -0.37094307
-0.44705296 -0.42942774 -0.35997629
-0.38120037 -0.43222284 -0.34268665
-0.30969024 -0.44046128 -0.3525281
-0.23673047 -0.44652984 -0.37597466
-0.18686371 -0.44562918 -0.38129377
-0.65121156 -0.38926437 -0.34041119
-0.58945525 -0.4079451 -0.35178757
-0.51244229 -0.41327995 -0.33618021
-0.45967895 -0.39168969 -0.34840727
0.11772095 -0.40571693 -0.38530445
0.17727995 -0.39284047 -0.33922195
0.21644628 -0.36937642 -0.36442852
0.25646037 -0.35090145 -0.35447693
0.30545747 -0.31515309 -0.36365128
0.35759223 -0.29371077 -0.332479
0.38609445 -0.26216292 -0.3483057
0.41554785 -0.23198059 -0.35209227
0.4511047 -0.18417203 -0.3541441
0.47268569 -0.13174485 -0.37103367
0.50181252 -0.10828102 -0.33945417
0.51060027 -0.049138561 -0.35463667
0.52634031 0.026501007 -0.34267092
0.50909513 0.090684615 -0.35824871
0.46732211 0.1779734 -0.36204624
0.50293362 0.13283134 -0.34344149
-0.66489655 0.21727937 -0.32813406
0.39253861 0.2418147 -0.38344049
0.43500698 0.21984631 -0.35567999
-0.68666196 0.28807607 -0.32281542
-0.64218169 0.31637648 -0.33713007
-0.5838604 0.3077209 -0.35980129
-0.5301609 0.30073008 -0.38325214
0.32475504 0.31222442 -0.37031746
0.38711631 0.27635059 -0.33781528
-0.63262147 0.34197903 -0.36893225
-0.58560735 0.35303119 -0.36031818
-0.51625574 0.36926347 -0.35073471
-0.45264882 0.38430798 -0.34990311
-0.40430516 0.38783011 -0.32758379
-0.099317387 0.38099489 -0.37198019
0.16719171 0.36672965 -0.33394384
0.27477169 0.34001574 -0.38310242
-0.42383021 0.40011361 -0.37569332
-0.37819725 0.40303439 -0.35762501
-0.34148926 0.40558678 -0.34183836
-0.15314235 0.42736551 -0.33104467
-0.12420677 0.42922619 -0.32005596
-0.27524108 -0.42596528 -0.25378752
-0.23741595 -0.4388842 -0.30148125
-0.17028125 -0.44410732 -0.26917076
-0.10709003 -0.44108191 -0.28788567
-0.036606491 -0.44314936 -0.27509642
-0.69223779 -0.35735679 -0.30514908
-0.64480615 -0.36550468 -0.29431295
-0.58480698 -0.37729123 -0.28561687
-0.52042407 -0.391718 -0.2867012
-0.43626773 -0.4092989 -0.29559517
-0.38285816 -0.41454443 -0.28333759
-0.31329638 -0.42310032 -0.27239561
0.19899517 -0.40388539 -0.26370621
0.23873663 -0.3784239 -0.29913568
0.27953506 -0.35872355 -0.29470539
-0.76110023 -0.30942678 -0.28105259
-0.72266126 -0.32972658 -0.28147697
-0.66411847 -0.34221005 -0.26385117
0.33082914 -0.32926208 -0.28681517
0.37311733 -0.3107768 -0.26968718
-0.78321266 -0.27442434 -0.25631428
0.40152878 -0.27757791 -0.2936058
0.43152845 -0.2466902 -0.29804325
0.47135741 -0.19569597 -0.30347824
0.50554389 -0.17187908 -0.27667189
0.53494042 -0.11533546 -0.28507376
0.54162943 -0.043772403 -0.30761051
0.56868482 -0.054504029 -0.26529408
0.56578958 0.017207526 -0.2832036
-0.76411158 0.10953789 -0.27216196
0.54120338 0.087623782 -0.31037807
0.56786323 0.089175291 -0.27037573
-0.7798751 0.16457422 -0.26613045
-0.71552092 0.15033938 -0.2745862
-0.66361642 0.17830975 -0.26558447
0.52381408 0.15943678 -0.29175758
-0.76088488 0.21116889 -0.28168821
-0.72195959 0.23000374 -0.27565384
-0.64455038 0.22809942 -0.27461672
-0.59330344 0.21301544 -0.25988102
0.45304304 0.24124917 -0.28750944
0.48228008 0.20981111 -0.29771852
-0.70149797 0.26959905 -0.30778074
-0.649593 0.28274593 -0.29274416
-0.59494424 0.29754579 -0.27582932
-0.53193259 0.31611171 -0.25836992
-0.42539203 0.29357111 -0.27522898
0.3826443 0.3066442 -0.27959204
0.42449325 0.27376917 -0.2690897
-0.560884 0.33067319 -0.30446196
-0.50867367 0.34162781 -0.28700352
-0.43962246 0.36249018 -0.28360319
-0.37183809 0.38373813 -0.2874999
-0.31300318 0.39606687 -0.27408266
-0.12621213 0.37180099 -0.30001736
0.076406479 0.37250966 -0.29517412
0.26008368 0.3753095 -0.27602959
0.3200959 0.34188357 -0.29622364
-0.27522194 0.3991724 -0.2539115
-0.095214948 0.43152365 -0.30649328
-0.035752743 0.43483824 -0.28692007
0.025231823 0.434843 -0.28689337
-0.23669846 -0.42905334 -0.23372984
-0.18960367 -0.43528247 -0.19326973
-0.56598401 -0.36504751 -0.24638319
-0.51965809 -0.36799827 -0.22383451
-0.44852048 -0.37949425 -0.21529531
-0.38082874 -0.39541242 -0.21391106
-0.31218588 -0.41073239 -0.2168932
-0.26454103 -0.41526556 -0.1859026
0.2420553 -0.40140539 -0.20943451
0.30370551 -0.36691892 -0.23208284
-0.70355976 -0.30473527 -0.22927427
-0.65027821 -0.32209718 -0.21406889
-0.58814144 -0.34466359 -0.20958567
-0.52873552 -0.35171869 -0.18665028
0.38099337 -0.32662398 -0.22081804
0.45481491 -0.28853384 -0.18412781
-0.79042041 -0.24068277 -0.22163963
-0.73459363 -0.27401182 -0.20870781
0.45456326 -0.26299334 -0.23167324
0.49998057 -0.22957568 -0.21612167
-0.83733356 -0.17647789 -0.21641016
-0.81041777 -0.19766571 -0.19742584
0.52678877 -0.19419822 -0.22364092
0.55742425 -0.17097688 -0.20501995
-0.85258216 -0.11836249 -0.20700455
0.5804165 -0.11803626 -0.21486712
-0.85836148 -0.04485609 -0.2104125
0.59538114 -0.044713482 -0.2289443
0.62242711 -0.034519117 -0.1937809
-0.83669895 0.022496227 -0.2081604
-0.81436414 0.039469212 -0.18623781
0.59242785 0.02798624 -0.24638319
0.62025696 0.028605815 -0.206038
-0.83727044 0.079913214 -0.23983431
-0.80421853 0.0938408 -0.2152009
0.59523988 0.090743154 -0.22977877
0.62207323 0.081471547 -0.1957798
-0.7813319 0.14752179 -0.23648548
-0.74691439 0.15917458 -0.21466446
-0.64888233 0.17282334 -0.24585438
0.57604021 0.15370953 -0.2202301
-0.71137089 0.20009539 -0.22787762
-0.65134722 0.23146652 -0.21700335
-0.5887534 0.22962464 -0.21921158
-0.50802386 0.23645556 -0.22894144
-0.44959456 0.25911748 -0.21053791
0.46952409 0.25651449 -0.23654413
0.51269877 0.2265401 -0.22453833
0.55740714 0.19664794 -0.20513058
-0.57708323 0.27490681 -0.21922302
-0.51689494 0.3005791 -0.21380234
-0.45801818 0.31853029 -0.1957655
0.41126204 0.32375127 -0.19634438
0.44109458 0.2904242 -0.21199703
-0.44485515 0.34012651 -0.23222685
-0.38282275 0.35667261 -0.21221638
-0.31224203 0.38406456 -0.21617174
0.32496512 0.36186865 -0.22539139
0.36684567 0.3413074 -0.2232008
-0.23819678 0.40397751 -0.22270298
-0.10571967 0.43046373 -0.18795061
-0.15048282 -0.43983281 -0.16371441
-0.099697605 -0.44445306 -0.13370609
-0.035882145 -0.44640049 -0.12105656
0.018974714 -0.44376051 -0.13820362
-0.42813361 -0.36403701 -0.14416885
-0.3703509 -0.38208547 -0.15667582
-0.31872052 -0.39428949 -0.14558172
-0.23819225 -0.41566205 -0.14623022
-0.18687354 -0.42405415 -0.12581396
0.30858642 -0.38826504 -0.15118885
-0.6432929 -0.2964898 -0.14719677
-0.58727962 -0.32204983 -0.14856386
-0.50978655 -0.34227666 -0.14678812
-0.46193385 -0.35582751 -0.15329075
0.37297866 -0.35613734 -0.15077353
0.43726605 -0.32044363 -0.15086651
0.48093152 -0.29255703 -0.14392757
-0.76627719 -0.22601078 -0.17149544
-0.72039688 -0.24919987 -0.14789295
-0.67301434 -0.27271396 -0.12626457
0.52214879 -0.248566 -0.15635252
0.55978894 -0.24087766 -0.11923027
-0.78907615 -0.18208779 -0.15073204
-0.74983704 -0.20813225 -0.12265253
0.59224874 -0.18534958 -0.14207697
-0.83224666 -0.1092755 -0.16524363
-0.81032068 -0.12966339 -0.1355195
0.60707939 -0.14149831 -0.15986872
0.63745159 -0.11561228 -0.13944483
-0.83284652 -0.056046285 -0.16351938
-0.81281447 -0.045815356 -0.12837315
0.6518805 -0.049135271 -0.14884806
-0.79916668 0.024771027 -0.14720917
0.66479445 0.02337594 -0.14540672
-0.7724846 0.086104959 -0.16332293
-0.73814911 0.10859048 -0.13688612
0.65180469 0.093700528 -0.14944363
-0.71357167 0.14481272 -0.15605211
-0.65342176 0.16421779 -0.13848162
-0.60756445 0.15687647 -0.16883278
0.60563207 0.16759329 -0.16841555
0.63809818 0.15359914 -0.1358037
-0.58470845 0.22950549 -0.14761448
0.5417515 0.24203223 -0.1685667
0.57735574 0.2227755 -0.14536047
-0.50872034 0.27217534 -0.15116596
-0.43745226 0.30341735 -0.14253187
-0.4005636 0.32004458 -0.13854742
0.4673931 0.29544529 -0.167099
0.51467252 0.28315938 -0.13240957
-0.36688328 0.34059462 -0.1461153
-0.31749046 0.36418563 -0.14631271
-0.25459343 0.38926595 -0.14357042
0.10539591 0.36997089 -0.16691685
0.28864822 0.39731407 -0.12558603
0.37251234 0.36099884 -0.15490437
0.43799359 0.33022031 -0.14382172
-0.074678972 0.43184781 -0.17938948
-0.033112839 0.43417531 -0.16499186
0.029806122 0.43843374 -0.13864899
0.072451055 0.44081834 -0.12389994
-0.15691657 -0.42755726 -0.10186291
-0.10525493 -0.43253097 -0.067856789
-0.37592375 -0.36291078 -0.095780849
-0.30672973 -0.37827259 -0.077647686
-0.24043591 -0.3998799 -0.080306053
-0.18360107 -0.41183183 -0.058032513
0.37923902 -0.3763732 -0.076048851
-0.58041942 -0.30373177 -0.086525917
-0.5270142 -0.31531635 -0.080629349
-0.44957602 -0.33347446 -0.079370022
-0.38237011 -0.34513292 -0.060557842
0.44505852 -0.34308797 -0.078267574
0.50022972 -0.31038174 -0.076167583
-0.70079654 -0.23929551 -0.093239784
-0.66038287 -0.26010516 -0.071041584
-0.61635429 -0.27939549 -0.053933144
0.52902287 -0.27451017 -0.10681772
0.57829052 -0.25600439 -0.069097996
-0.76529092 -0.17352155 -0.096672058
-0.730358 -0.19719255 -0.067660809
-0.65999496 -0.16842361 -0.056437969
0.64394629 -0.18408433 -0.072452545
-0.78339273 -0.12057862 -0.076941967
-0.69629669 -0.12307554 -0.08376646
0.66927761 -0.12269048 -0.093885422
0.68895328 -0.12370992 -0.067284107
-0.78931373 -0.041917406 -0.080713749
0.68256801 -0.067929499 -0.10046244
0.71194929 -0.046628077 -0.062630177
-0.76996017 0.026023962 -0.086568832
-0.74755114 0.04189131 -0.059803009
0.70878005 0.030582756 -0.078464985
-0.72296792 0.093460761 -0.085927963
-0.68097794 0.11931305 -0.060528278
-0.60570383 0.11773796 -0.094624996
0.68170905 0.10638994 -0.10492611
0.71213466 0.097216345 -0.061704159
-0.68940097 0.13890739 -0.10733986
-0.65143293 0.15744309 -0.087042809
-0.59682101 0.17980412 -0.065128326
-0.51757842 0.16125758 -0.097694874
0.67026722 0.16183214 -0.088582516
0.69012481 0.16350493 -0.061196327
-0.568555 0.21217276 -0.097523212
-0.51721215 0.22574151 -0.071793556
-0.46904051 0.25123021 -0.068999767
-0.38270378 0.21897021 -0.058874607
0.60662019 0.22684304 -0.097822666
0.64136267 0.22537345 -0.062078953
-0.43350452 0.277511 -0.081129551
-0.3796981 0.30565378 -0.075074673
-0.24035026 0.29765007 -0.047499657
0.52136952 0.30494675 -0.082314968
0.56785184 0.28470403 -0.065423965
-0.31047517 0.34664884 -0.081614017
-0.2425717 0.37754589 -0.072290897
0.072154477 0.37771073 -0.11105776
0.38085619 0.38509837 -0.057744503
0.44343406 0.34725082 -0.093997955
-0.21027867 0.39940751 -0.11127234
-0.17998762 0.40245795 -0.090415001
-0.12880419 0.40800396 -0.052495956
-0.017423317 0.42878723 -0.061561584
-0.041453779 -0.43820027 -0.02909565
0.012594052 -0.44445333 0.013659
-0.28627664 -0.37011456 -0.037296295
-0.23904024 -0.37852734 -0.014336586
-0.17183532 -0.40123186 -0.012460232
-0.1107195 -0.41944209 -0.0031108856
0.42895299 -0.37229824 -0.019566536
-0.50959349 -0.30340695 -0.035505772
-0.44041288 -0.3106319 -0.018951416
-0.38002229 -0.32444692 -0.011653423
-0.31852001 -0.34283182 -0.0018358231
-0.27158445 -0.354155 0.017575741
0.47333431 -0.34938347 -0.023746014
0.52622354 -0.32918391 -0.0044698715
0.56571043 -0.30648389 -0.0047593117
-0.64824319 -0.24904175 -0.017778873
-0.58706707 -0.27728137 -0.01559782
-0.5197221 -0.28529474 0.0099272728
0.59735143 -0.2714496 -0.018535137
0.6416598 -0.24676551 -0.00028848648
-0.71092886 -0.18602261 -0.0078516006
-0.67626673 -0.21678783 0.0022773743
-0.53262913 -0.21437658 -0.032523155
0.66969711 -0.2083497 -0.011635303
0.70197779 -0.18283199 0.00039434433
-0.75809103 -0.1141084 -0.02557373
-0.74132919 -0.13502465 -0.0065550804
0.72696519 -0.1260469 -0.0068416595
-0.7670688 -0.062613428 -0.025346756
-0.74625671 -0.047402583 0.0095715523
0.74386966 -0.047214571 -0.01538372
0.77268034 -0.024741188 0.014060497
-0.75896543 -0.013386522 -0.022734165
-0.72842336 0.031579174 -0.012015343
0.74013925 0.031274572 -0.033331394
0.77144438 0.031912498 0.0083260536
-0.69852954 0.083614305 -0.025032997
-0.66470152 0.10366996 -0.0068707466
-0.61317146 0.1230694 0.02079916
0.74255174 0.098736942 -0.021724224
0.77302349 0.088799946 0.01565218
-0.6240378 0.14336687 -0.024577141
-0.57906419 0.16000994 -0.012132168
-0.51774913 0.18424349 0.0011205673
-0.47732025 0.19149883 0.023709774
0.72201079 0.16649882 -0.012645721
-0.50033492 0.21036905 -0.026889324
-0.44712293 0.23380364 -0.013353825
-0.39891887 0.25093713 0.009932518
0.66735417 0.24598545 -0.0037183762
0.70166713 0.21234514 -0.0012202263
-0.37304717 0.28389189 -0.018899918
-0.32078564 0.30946785 -0.0066456795
-0.24540327 0.31298998 -0.010594368
0.54105842 0.32304713 -0.019958496
0.59691232 0.2893528 -0.020988941
-0.28618455 0.34326315 -0.03792572
-0.24089657 0.35583884 -0.0085129738
-0.18256564 0.3850857 -0.01703167
-0.1349182 0.39499673 0.013690472
0.069300964 0.37215358 0.012503147
0.41026378 0.39600274 0.020950794
0.44893545 0.36498243 -0.042294502
0.49494463 0.34422004 -0.030155182
-0.097461358 0.41153941 -0.028324604
-0.054861084 0.41632897 0.0044202805
0.025211185 0.43535286 -0.018914223
0.080799773 0.4390204 0.0049061775
-0.02430667 -0.42946634 0.069231987
0.045703076 -0.44865024 0.042350769
0.3204782 -0.42545366 0.040271759
-0.21974741 -0.35898498 0.059405804
-0.17658813 -0.37820145 0.066189289
-0.11549218 -0.40427735 0.053388596
-0.067886174 -0.42383417 0.02858448
0.39091003 -0.40527141 0.060985565
0.46167827 -0.38406208 0.075943947
-0.36767232 -0.29456121 0.048595905
-0.30683321 -0.31606579 0.058626175
-0.24712603 -0.344001 0.063460827
0.58599436 -0.32411391 0.055735588
0.63584745 -0.30324385 0.078551292
-0.63600355 -0.23539294 0.050438404
-0.58019072 -0.26016384 0.049151421
-0.50890541 -0.26727423 0.064704895
-0.44841307 -0.27750891 0.050858498
-0.38306922 -0.27360603 0.071943283
0.61587602 -0.28683737 0.02662611
0.66741842 -0.26690376 0.060329437
0.70134646 -0.23208925 0.056942463
-0.71010089 -0.15080895 0.041719437
-0.67366707 -0.20464268 0.048251152
0.73314273 -0.18529491 0.043258667
0.76861286 -0.15964176 0.066317081
-0.71264893 -0.10064849 0.050861835
0.79597431 -0.10582208 0.068343639
-0.72088277 -0.04497401 0.049615383
0.79310507 -0.050047688 0.044837475
0.83553386 -0.048303246 0.089715481
-0.70261925 0.021099441 0.056127071
0.80166036 0.020966835 0.042232513
0.83245969 0.0097575309 0.076403618
-0.68699408 0.055307712 0.040987015
-0.64631361 0.078731604 0.060656548
-0.59331232 0.10960829 0.063958645
0.79628837 0.089726493 0.043750286
0.83301532 0.079402372 0.078809738
-0.56516278 0.12481558 0.058605671
-0.5138908 0.14790736 0.061221123
-0.44822663 0.16633987 0.079185486
0.75370443 0.16924052 0.031933784
0.79681844 0.14859666 0.072258949
-0.43677497 0.1990214 0.049927235
-0.37466484 0.22901751 0.066862583
0.72850055 0.23233442 0.05833149
0.75783938 0.1934472 0.051827908
-0.3450616 0.26226974 0.050506592
-0.30060345 0.28619245 0.060831547
-0.2516762 0.32986036 0.039045811
0.57189107 0.32968169 0.037498474
0.62886745 0.29529285 0.036444664
0.69060898 0.26324892 0.061107159
-0.21639378 0.3403089 0.063323498
-0.16720249 0.37163523 0.052690029
-0.11638384 0.39015099 0.06274271
0.11442427 0.37613747 0.042947292
0.14880136 0.37667659 0.047066212
0.47892284 0.37374341 0.024652958
0.51607287 0.36553505 0.048938274
0.5784117 0.34641334 0.08195734
-0.081518143 0.40135854 0.059602261
-0.048866615 0.40557244 0.090013504
0.043484792 -0.43616048 0.11754274
-0.15695177 -0.36658025 0.12518215
-0.098630562 -0.39081159 0.1315093
-0.028197318 -0.4156425 0.14023352
0.42260939 -0.4175221 0.15459585
0.51200897 -0.37647635 0.1090889
0.56491482 -0.36970118 0.15221024
-0.29512936 -0.29392534 0.10335684
-0.23914312 -0.31532449 0.1233077
-0.18221329 -0.34481829 0.14173698
0.60720551 -0.34229437 0.11831856
0.66513342 -0.30665752 0.11385632
0.70638233 -0.29790935 0.14648247
-0.63379836 -0.22369643 0.10199642
-0.59162468 -0.23668897 0.12093496
-0.51997745 -0.24814056 0.11597824
-0.45046133 -0.23666878 0.1205039
-0.37882519 -0.23624641 0.11438036
-0.31406611 -0.25232044 0.13286018
-0.26632255 -0.27457851 0.15096426
0.72958916 -0.25312665 0.11921883
0.77713346 -0.22665222 0.14465761
-0.70236987 -0.16709295 0.13901281
-0.65396899 -0.20237045 0.13514853
-0.43175471 -0.20308402 0.14673853
-0.38480425 -0.19136545 0.14962769
-0.33842981 -0.20369405 0.15663576
0.79544991 -0.18378207 0.11944008
0.82622033 -0.17966889 0.15224743
0.81459051 -0.1301544 0.10015202
0.84448904 -0.10777126 0.12849283
-0.70664126 -0.021306913 0.1405282
0.87312788 -0.049007818 0.14972639
-0.68882525 0.010218102 0.13277054
-0.66364735 0.033738688 0.12732697
0.8643328 0.010038021 0.11287117
-0.62854123 0.057313677 0.12784338
-0.57769543 0.085383445 0.12233305
-0.51301402 0.09298528 0.13894129
-0.45008653 0.095545053 0.14357567
-0.40904397 0.10539151 0.15239429
0.86425388 0.080457218 0.11254025
-0.49356604 0.12681408 0.10187197
-0.4441461 0.13665371 0.11240292
-0.38513088 0.15482464 0.13435364
-0.338359 0.17689174 0.15617609
0.81505376 0.17356944 0.10222721
0.84998327 0.13536476 0.11801577
-0.36208361 0.20509391 0.1075983
-0.31728536 0.22564973 0.12899685
-0.26764548 0.24866128 0.16107321
0.79044789 0.21682476 0.1180377
-0.28436911 0.26775098 0.10984135
-0.24012171 0.29333159 0.13154268
-0.1949404 0.31889093 0.14959097
0.66888815 0.30714086 0.11265707
0.72731364 0.27763835 0.13178492
-0.16767485 0.35025927 0.11440468
-0.098539189 0.37969825 0.13043404
-0.053205281 0.39151645 0.16046524
0.5403201 0.38959572 0.14578867
0.58626318 0.36465624 0.13576078
0.63108766 0.33929214 0.12072372
-0.015397221 0.40967268 0.11960459
0.10218922 0.43212068 0.11238813
0.44519401 0.41287619 0.14272404
-0.09157826 -0.37491894 0.19739723
-0.042962134 -0.3981365 0.19021606
0.029022701 -0.4227854 0.19481516
0.5264746 -0.40252376 0.22583675
0.59534752 -0.37497348 0.19787025
-0.22060405 -0.29974005 0.16630077
-0.17489712 -0.32161874 0.18690634
-0.11712287 -0.35273972 0.21524
0.66475767 -0.34105828 0.18064547
0.72749525 -0.31454471 0.19576979
-0.56011564 -0.22983763 0.19063663
-0.52278334 -0.22941515 0.18453741
-0.29249769 -0.22830427 0.16850471
-0.24436404 -0.25080907 0.19042635
-0.19460742 -0.27247033 0.22183561
0.78679287 -0.25390363 0.19105244
-0.69722188 -0.1564541 0.16393471
-0.66126728 -0.18154962 0.18675756
-0.44570452 -0.18107967 0.17901945
-0.38807636 -0.15668309 0.16889429
-0.31102628 -0.17616093 0.18726826
-0.26213175 -0.19495635 0.21170187
0.86023283 -0.17603779 0.19643021
-0.70789981 -0.1094701 0.18892574
-0.68540144 -0.12226149 0.20987511
-0.42155707 -0.1155448 0.1889863
-0.36711574 -0.1094498 0.18716526
-0.30579412 -0.1137824 0.21479464
0.88209528 -0.10956328 0.18730354
0.91282552 -0.098225184 0.21452618
-0.69707805 -0.053551368 0.19341898
-0.68293518 -0.025487198 0.20045185
-0.42674559 -0.032667466 0.1977973
-0.36911422 -0.037492305 0.19951773
-0.31800056 -0.043753166 0.22121859
0.91934282 -0.03271265 0.2016077
-0.65463841 0.018625259 0.184268
-0.61600631 0.035215702 0.22328281
-0.50430089 0.035035517 0.21155548
-0.43964696 0.022654727 0.18933821
-0.3696686 0.022826318 0.20307016
-0.32509488 0.023123417 0.22810602
0.91779542 0.022619803 0.18580627
0.96204638 0.035125457 0.21740246
-0.58244425 0.058601361 0.18361998
-0.5116145 0.058712613 0.18842888
-0.43634719 0.058324765 0.17163467
-0.37175226 0.082648821 0.18652725
-0.32388407 0.083679788 0.21982861
0.92347938 0.079285473 0.18774223
0.96237171 0.083675697 0.2186451
-0.36393923 0.12983495 0.16728258
-0.31254309 0.15534119 0.19792843
0.87665606 0.17144483 0.19800663
0.92050707 0.14003092 0.21287155
-0.292817 0.21360601 0.17080975
-0.25318843 0.22815962 0.20475483
0.80882967 0.25041401 0.18177223
0.85082465 0.21636158 0.20822811
-0.23364885 0.27386844 0.17606735
-0.1812285 0.30513123 0.20155764
0.72441489 0.31010938 0.17925119
0.77630782 0.28808331 0.1989193
-0.14869647 0.34415576 0.16284513
-0.10328133 0.35953414 0.19222546
-0.031681538 0.38891968 0.20242691
0.57289886 0.39797688 0.20983076
0.64101791 0.3584598 0.18256235
0.69498855 0.35029903 0.21604538
0.064192243 -0.42787617 0.23371696
0.088340297 -0.42986262 0.24889565
-0.08359924 -0.35706618 0.25538349
-0.034952357 -0.38250569 0.2638073
0.026467301 -0.40778092 0.26851797
0.55846101 -0.40973827 0.28441095
0.6259616 -0.37985492 0.2401433
0.70781398 -0.36063367 0.2884841
-0.1551453 -0.30586937 0.23265553
-0.11393453 -0.32387999 0.26781082
0.76550746 -0.32139692 0.26678896
-0.1744488 -0.25135565 0.2646699
-0.13518466 -0.28590873 0.28476954
0.80987549 -0.27014104 0.24324274
0.86315328 -0.24436113 0.28060055
-0.64891249 -0.17314404 0.25866413
-0.61096162 -0.20968515 0.25392199
-0.22365899 -0.18161681 0.25400066
-0.18497698 -0.19931386 0.28719568
0.87369365 -0.20974827 0.25495291
0.91307378 -0.17344308 0.26546383
-0.66898745 -0.11805475 0.26495457
-0.27776277 -0.098834507 0.23838377
-0.23574467 -0.11514614 0.27150059
0.93891978 -0.11150284 0.25388432
-0.66513848 -0.033109322 0.2643857
-0.46057612 -0.037828833 0.23678923
-0.28648478 -0.046003215 0.24295664
-0.24603213 -0.038107585 0.27978039
0.942819 -0.062204026 0.23719835
-0.63760173 0.011216943 0.26257277
-0.57958215 0.036061678 0.27821779
-0.29127407 0.011135803 0.24830198
-0.2582767 0.023714717 0.27842331
0.96936631 0.011084746 0.24536896
-0.29112983 0.084528863 0.24727535
-0.25273895 0.09188778 0.28394365
-0.27769464 0.14528413 0.23786402
-0.24472828 0.15913074 0.26890278
0.93161112 0.16989353 0.2411356
-0.21943806 0.2203621 0.26322365
-0.19171275 0.24984819 0.27301836
0.86422396 0.24800399 0.24925995
0.90638012 0.21569863 0.25466156
-0.16554283 0.28949183 0.25688028
-0.1325898 0.31781176 0.25412607
0.74715245 0.32810968 0.2351284
0.80428803 0.30773771 0.27530384
0.84223801 0.28339773 0.27922297
-0.092522413 0.33956847 0.26578617
-0.03523846 0.36865938 0.2688241
0.013098828 0.3841767 0.29425001
0.66480476 0.37910932 0.25310946
0.72747678 0.35545018 0.26065969
0.78037679 0.33286527 0.27925396
0.087681815 0.40868643 0.29166508
0.60710263 0.4069294 0.27824068
-0.025967956 -0.36524057 0.33123398
0.036947764 -0.39797777 0.32517958
0.099527389 -0.41716787 0.3447299
0.5947749 -0.41999781 0.36770678
0.66336709 -0.38912219 0.32040119
0.73799479 -0.36377016 0.31759024
-0.096887946 -0.2978313 0.32693815
-0.056105793 -0.33301061 0.34463835
0.8089928 -0.33243415 0.33815956
0.85236466 -0.29942933 0.34454918
-0.13813798 -0.23877582 0.31964731
-0.12214462 -0.25613654 0.32932758
-0.63092029 -0.16453497 0.33888721
-0.59211636 -0.20623995 0.33415604
-0.15661208 -0.18548664 0.32709122
-0.11656685 -0.21651013 0.36475086
0.9219389 -0.20019515 0.30207348
-0.65103132 -0.10881495 0.32825756
-0.21160208 -0.088159539 0.30419207
-0.17185815 -0.11767331 0.33667612
-0.64303112 -0.038517218 0.33690453
-0.21273471 -0.038364269 0.31470156
-0.18101521 -0.04370562 0.34901905
-0.6066789 0.011836587 0.34306192
-0.22503929 0.024112433 0.31334162
-0.1916319 0.024573177 0.35369635
-0.22312753 0.08176019 0.31862783
-0.19199429 0.087938927 0.35731792
-0.21214862 0.1613097 0.30926371
-0.18442397 0.16958468 0.34501886
-0.16423552 0.23292281 0.33185434
-0.13853733 0.27497286 0.32436275
-0.10521176 0.30442455 0.32614708
-0.065637752 0.31644815 0.36234379
0.85401511 0.31348601 0.33274651
-0.038538814 0.34674826 0.33051252
0.036594518 0.38107055 0.33745003
0.71937668 0.39150992 0.35378981
0.79133666 0.35130841 0.33384657
0.63939393 0.41336098 0.32738924
0.03498359 -0.3801178 0.39039326
0.085916832 -0.39904162 0.40630388
0.70027089 -0.397205 0.39040041
0.77410823 -0.36997825 0.37519407
-0.037204891 -0.31634763 0.40180635
0.0081302822 -0.34932554 0.42333746
-0.53551412 -0.22041792 0.42820549
-0.084383279 -0.25218958 0.39093256
-0.068407238 -0.27056763 0.4073143
-0.58679277 -0.19280806 0.39637089
-0.10377873 -0.18783368 0.3992877
-0.62859386 -0.11547343 0.38301611
-0.61282974 -0.1168188 0.42676735
-0.14306901 -0.10259084 0.37787962
-0.11371715 -0.12284195 0.41187668
-0.62984568 -0.051759385 0.38843775
-0.61179638 -0.039287258 0.42213678
-0.1505817 -0.032583136 0.39139271
-0.12133543 -0.052175518 0.42669678
-0.5825513 0.012323421 0.40630388
-0.1576118 0.025102012 0.39881659
-0.15799744 0.08935646 0.40319014
-0.15457474 0.16075835 0.39338017
-0.14324747 0.21618293 0.37998676
-0.11405478 0.22509289 0.41618156
-0.09309119 0.27476126 0.39422131
-0.042911857 0.30854818 0.4122777
-0.015483618 0.343196 0.37510967
0.034783505 0.36264279 0.39716005
0.099099308 0.39499399 0.38207388
0.79929227 0.3685104 0.37376165
0.85005301 0.34297112 0.37302494
0.13733746 0.39951843 0.41880846
0.67823851 0.42448553 0.41239309
0.75665528 0.39949203 0.41859245
0.63406563 -0.43168429 0.46258879
0.059281357 -0.37764892 0.44636488
0.098127596 -0.39164764 0.45587635
0.13733746 -0.40643233 0.4703126
0.73554176 -0.40352014 0.44508982
-0.019197538 -0.30036765 0.45551777
0.02687785 -0.33430851 0.483922
-0.070294589 -0.22101894 0.43796158
-0.035735503 -0.25467721 0.47408438
-0.57680333 -0.17885581 0.46065378
-0.5487988 -0.19811581 0.49457932
-0.071469024 -0.1830221 0.45703077
-0.047452509 -0.19817679 0.49571133
-0.59030372 -0.12484664 0.47287703
-0.082490101 -0.11285558 0.46704674
-0.58995157 -0.039651908 0.47132587
-0.088534296 -0.044932343 0.47929287
-0.56894851 -0.00038257334 0.46455669
-0.54595274 0.012893748 0.48035955
-0.11326812 0.018007662 0.45851326
-0.11166042 0.091490939 0.47223854
-0.11103272 0.15658534 0.46365595
-0.085168377 0.22224636 0.46751547
-0.047685876 0.25093237 0.50004148
-0.032882199 0.28774446 0.46811819
0.014630154 0.31969097 0.48278666
0.046165921 0.35154587 0.45258904
0.093702257 0.37046182 0.46695471
0.13733746 0.38279578 0.49747849
0.17657837 0.40477222 0.46146297
0.71285015 0.4313274 0.46467781
0.097325802 -0.37298626 0.52717066
0.13733746 -0.38873684 0.5492506
0.043625034 -0.32135588 0.54510117
-0.022375375 -0.22633708 0.5243206
0.0036308467 -0.26737946 0.54023647
-0.55306447 -0.17271017 0.51589298
-0.53122491 -0.18716255 0.54038906
-0.031932443 -0.18275367 0.54009342
-0.56626683 -0.11467224 0.52888393
-0.53647763 -0.14814967 0.56768179
-0.049501196 -0.12007487 0.53373003
-0.56271076 -0.04673408 0.53097534
-0.0746869 -0.013386727 0.50928307
-0.050889 -0.040250286 0.559484
-0.075498685 0.026539445 0.52246428
-0.076053485 0.0933083 0.53147411
-0.075481415 0.1595155 0.52218437
-0.051237091 0.16169848 0.56594419
-0.074539423 0.19849031 0.50688791
-0.036530182 0.22737485 0.54174614
-0.021513388 0.27784026 0.50565767
0.030139841 0.29954422 0.55051708
0.057519831 0.33248997 0.52264118
0.097107843 0.34822154 0.54645586
0.16416118 0.38023421 0.55308151
0.1102796 -0.36513877 0.58135605
0.15089686 -0.38120994 0.60645199
0.055768043 -0.31247449 0.59849548
0.082983732 -0.33950946 0.59681511
0.019635223 -0.25792384 0.59593439
-0.00028038025 -0.17852823 0.64185286
0.00084537268 -0.20447597 0.61260509
-0.52912998 -0.10859708 0.60053968
-0.025812864 -0.12206805 0.59874535
-0.53915799 -0.053991783 0.58160973
-0.027106002 -0.054523539 0.62674236
-0.051984727 0.027203597 0.57981873
-0.03975518 0.09563759 0.6078558
-0.026353091 0.16391738 0.61044073
-0.025122941 0.20322707 0.58380842
0.0079052597 0.23860213 0.60661459
0.042221196 0.28579864 0.59964895
0.08273989 0.31419855 0.61265326
0.11017832 0.33968198 0.59451342
0.15095802 0.35596925 0.62116051
0.16512097 -0.3745726 0.67562151
0.054699622 -0.28884611 0.64476013
0.095919624 -0.33074808 0.65157318
0.13733746 -0.34892976 0.69879532
0.026225023 -0.2356115 0.67491913
-0.0023480058 -0.15307204 0.69557095
-0.028245971 0.014227106 0.65142298
-0.001988709 0.15368643 0.68623638
0.035270043 0.22797902 0.68455172
0.05420126 0.26373392 0.66633987
0.090943843 0.29234675 0.67852068
0.13733746 0.32232046 0.70057392
0.17877471 0.36012116 0.66120338
0.22074772 0.3758606 0.67820692
0.09507443 -0.30913836 0.72555447
0.16577433 -0.35462937 0.76049471
0.053031899 -0.26630378 0.71697474
0.19441746 -0.24170727 0.77389097
0.22274405 -0.26960662 0.7646513
-0.0047498643 -0.013386727 0.75797367
-0.0040006638 0.085499845 0.73850822
0.02388034 0.17090854 0.75106478
0.052252591 0.21350667 0.75071955
0.080471806 0.24250862 0.75996923
0.10909274 0.28309005 0.73553371
0.15148605 0.31246957 0.74752808
0.1935226 0.35181662 0.71576881
0.22247005 0.35552096 0.75278568
0.19484276 -0.35841864 0.80151558
0.10863456 -0.30041555 0.79505253
0.16632536 -0.31703669 0.82377768
0.22419259 -0.30290374 0.8273735
0.051234938 -0.242993 0.7947855
0.094065636 -0.27351236 0.82102489
0.1807318 -0.25879508 0.81534576
0.23862037 -0.24495016 0.82655621
0.13733746 -0.21428961 0.79473162
0.23876983 -0.18729995 0.83208275
0.28155607 -0.15760539 0.81334639
0.23891571 -0.11499131 0.83758211
0.28165704 -0.1144084 0.81596947
0.241869 -0.048244987 0.83927631
0.29608291 -0.042241212 0.81630278
0.25345376 0.030157961 0.8374238
0.29614571 0.029928204 0.81778431
0.021247298 0.10270359 0.83657598
0.25350395 0.088261127 0.83905458
0.29609317 0.087656274 0.81668663
0.041291438 0.15953085 0.81045246
0.25352997 0.16090035 0.83990002
0.28910094 0.1528739 0.82215786
0.094082549 0.23182732 0.81375551
0.25348496 0.23342432 0.83843708
0.28197348 0.23249301 0.82419014
0.1662524 0.29456767 0.81678104
0.23893122 0.29142624 0.8377285
0.19459198 0.3301405 0.7852273
0.23833007 0.33284307 0.81448317
0.093549252 -0.24709703 0.86141634
0.14705403 -0.26645553 0.85999537
0.03945893 -0.20917802 0.88306713
0.093147993 -0.19003215 0.89173555
0.17015678 -0.18506341 0.86300611
0.093043134 -0.11668945 0.90061617
0.16655347 -0.11586545 0.870121
0.092981949 -0.042930432 0.90553331
0.16657777 -0.042683095 0.8729949
0.22469491 -0.013386727 0.84912491
0.092935495 0.030996211 0.90980387
0.16661134 0.030625697 0.87789249
0.22474839 0.030321263 0.85144091
0.038881876 0.085066348 0.90387821
0.092955858 0.090128712 0.90861988
0.16662514 0.089347661 0.87944937
0.22479938 0.088652603 0.85364914
0.049599774 0.13284253 0.86559057
0.093249843 0.16300365 0.88718605
0.16662502 0.16271037 0.87913084
0.22480279 0.1615434 0.85379601
0.10811231 0.22041424 0.86289549
0.16659361 0.23542956 0.86934423
0.22476017 0.23430857 0.8519516
0.18104985 0.27796203 0.85116673
0.02832555 -0.17192176 0.92778254
-0.012256607 -0.11810099 0.95300388
0.033234023 -0.11745372 0.92912149
-0.012384906 -0.058302186 0.95633698
0.030087389 -0.049100827 0.93536949
-0.012067392 0.031398889 0.94808817
0.036117636 0.022332612 0.93284607
0 0 0 1 0 0 0 1 0 0 0 1 0 0 0 0 0 1065 1 0 0
