ply
format ascii 1.0
comment PCL generated
element vertex 451
property float x
property float y
property float z
element camera 1
property float view_px
property float view_py
property float view_pz
property float x_axisx
property float x_axisy
property float x_axisz
property float y_axisx
property float y_axisy
property float y_axisz
property float z_axisx
property float z_axisy
property float z_axisz
property float focal
property float scalex
property float scaley
property float centerx
property float centery
property int viewportx
property int viewporty
property float k1
property float k2
end_header
-0.47966513 -0.15625069 -0.15582752
-0.4332442 -0.153484 -0.15654564
-0.37868038 -0.15203434 -0.15555191
-0.33435571 -0.1469425 -0.15218735
-0.48039845 -0.10643872 -0.17101955
-0.43321791 -0.10645229 -0.17071533
-0.37044889 -0.106509 -0.16937494
-0.31415805 -0.10864479 -0.16217661
-0.26383674 -0.097547852 -0.15926504
-0.2107853 -0.087236345 -0.15475225
-0.47858331 -0.046625383 -0.18206453
-0.43062478 -0.044813283 -0.18358803
-0.37100992 -0.045506649 -0.18258524
-0.3179495 -0.044647068 -0.17608738
-0.25913697 -0.046806924 -0.16819286
-0.19927725 -0.046914823 -0.16040325
-0.14327839 -0.035631862 -0.15491533
-0.47554502 0.0070728753 -0.18507481
-0.42861241 0.0091078859 -0.18725967
-0.37447363 0.011512805 -0.18732452
-0.32097763 0.0071286727 -0.18089104
-0.26056552 0.0072268695 -0.17339039
-0.19637409 0.0073282924 -0.16547251
-0.1428099 0.011938602 -0.15957594
-0.10521827 0.015196186 -0.15436792
-0.4769713 0.066374518 -0.18392372
-0.42947453 0.066277847 -0.18617105
-0.37265292 0.068152867 -0.18455839
-0.31983 0.065030418 -0.1786418
-0.25958887 0.066856258 -0.17249155
-0.19752973 0.067159012 -0.16526127
-0.14286494 0.067419872 -0.15902901
-0.10101078 0.068514757 -0.15399456
-0.47990397 0.12982191 -0.17287779
-0.43197793 0.12960683 -0.17587471
-0.36913985 0.12962426 -0.17556095
-0.3151634 0.13002458 -0.16997671
-0.26087514 0.13043897 -0.16434956
-0.20055106 0.12739982 -0.15936565
-0.14155659 0.11967005 -0.15448666
-0.48384139 0.18638749 -0.15805197
-0.43288559 0.18079013 -0.16120768
-0.37229425 0.18613005 -0.16068554
-0.31956816 0.18451819 -0.15690327
-0.26760125 0.17606005 -0.15531015
-0.20707974 0.16569862 -0.15277576
-0.48301682 -0.26429206 -0.099775791
-0.43423021 -0.26435146 -0.099262238
-0.36943012 -0.26460353 -0.097079754
-0.47834107 -0.21821876 -0.12822819
-0.43180895 -0.22357973 -0.12420368
-0.37635288 -0.21888332 -0.12512493
-0.31688604 -0.2219885 -0.11679411
-0.25738502 -0.21862255 -0.10928059
-0.20294631 -0.20868745 -0.10665083
-0.14612085 -0.20456704 -0.099274635
-0.47850963 -0.17905639 -0.14810038
-0.43093327 -0.17912081 -0.147264
-0.36992967 -0.17385131 -0.14679241
-0.31000823 -0.16496921 -0.14283419
-0.25740087 -0.16402742 -0.13557863
-0.20236751 -0.16461022 -0.12716961
-0.13901326 -0.16535108 -0.11649561
-0.083191209 -0.16613011 -0.10529137
-0.03871239 -0.15420054 -0.10058641
-0.2513794 -0.12724352 -0.14888668
-0.19615376 -0.11418467 -0.14477062
-0.13696915 -0.10784975 -0.13778353
-0.081653275 -0.10828453 -0.12754679
-0.025830105 -0.10880107 -0.11549759
0.028987389 -0.10437286 -0.10448647
0.076196738 -0.091526128 -0.098608017
-0.12267832 -0.056915831 -0.14857769
-0.079100333 -0.045897551 -0.14350367
-0.024491869 -0.049397171 -0.13279009
0.029430367 -0.046179444 -0.1221633
0.086979583 -0.045750447 -0.10925627
0.14471895 -0.036077701 -0.098396778
-0.078122489 0.0061219409 -0.14990139
-0.025277026 0.0058164932 -0.14136457
0.032636594 0.0091516506 -0.13094902
0.088013858 0.010052556 -0.11960363
0.15251498 0.012729455 -0.10736609
0.20026654 0.016159475 -0.096994877
-0.071011193 0.066661365 -0.15003633
-0.024669364 0.068090267 -0.14316654
0.031074595 0.06845814 -0.13434029
0.087328769 0.068852045 -0.12485123
0.15224536 0.069325037 -0.11356688
0.20975357 0.069829695 -0.10163307
0.24685895 0.082315616 -0.096177578
-0.11731217 0.13417141 -0.14928627
-0.080310725 0.12371953 -0.14700413
-0.024807177 0.12420069 -0.14003944
0.031045131 0.12471715 -0.13257933
0.087315917 0.1252099 -0.12540674
0.15213153 0.12584586 -0.11618996
0.20939791 0.12649359 -0.10675669
0.25067759 0.12701967 -0.099217415
-0.46232226 0.2031763 -0.14915943
-0.43823513 0.2030855 -0.15000534
-0.29516438 0.2031994 -0.14894724
-0.25253609 0.19708897 -0.14655399
-0.19501224 0.18766566 -0.1452775
-0.13647866 0.17991488 -0.14304972
-0.080889128 0.18033037 -0.13868904
-0.025109172 0.18088116 -0.13292551
0.030944582 0.18153611 -0.12611532
0.087369286 0.18210693 -0.12015963
0.15224263 0.18274343 -0.11343241
0.20941129 0.18340985 -0.10646677
0.25338176 0.18135212 -0.099457264
-0.48016545 0.23493923 -0.13404751
-0.43092263 0.24544387 -0.13044691
-0.37590113 0.24312763 -0.13604498
-0.31577075 0.24364139 -0.13197517
-0.25811458 0.23730214 -0.13099098
-0.20234728 0.23774149 -0.12741041
-0.13836557 0.23822857 -0.12344837
-0.082204111 0.23869236 -0.1197052
-0.025894731 0.23933582 -0.11451435
0.030674312 0.240079 -0.10847807
0.084274441 0.23722865 -0.10513401
0.15275472 0.23277865 -0.10137653
0.205899 0.22907758 -0.098145008
0.24280331 0.22525573 -0.095846653
-0.48097143 0.28075194 -0.10769844
-0.43189958 0.29172581 -0.10416651
-0.37185499 0.29898322 -0.10225582
-0.31383485 0.28573245 -0.10692263
-0.25394911 0.28111905 -0.10516167
-0.20052329 0.27973151 -0.10349989
-0.14020976 0.2730844 -0.10429907
-0.08368326 0.27391273 -0.098321438
-0.051302642 0.27452582 -0.093897343
-0.47916797 -0.32847637 -0.049983025
-0.43347612 -0.3301726 -0.046456337
-0.37938893 -0.32593465 -0.048285961
-0.31305707 -0.32072049 -0.045513153
-0.27258784 -0.32189673 -0.037024498
-0.47964534 -0.29116398 -0.080940247
-0.43050545 -0.29127389 -0.080102921
-0.3734301 -0.2916072 -0.077458858
-0.31601486 -0.28358209 -0.076104164
-0.25978091 -0.28479302 -0.066269875
-0.19977304 -0.2860834 -0.0557971
-0.14522794 -0.27540416 -0.051888943
-0.079001792 -0.26223779 -0.04533577
-0.037427709 -0.25439397 -0.040345669
-0.24799541 -0.24900813 -0.090319157
-0.19610023 -0.24290355 -0.086206436
-0.13941267 -0.2371729 -0.078260899
-0.086894728 -0.22096679 -0.075822353
-0.028052129 -0.21885936 -0.062768936
0.02738164 -0.21529233 -0.049546719
0.079911888 -0.20399714 -0.041704178
-0.020909354 -0.17353053 -0.086977959
0.030194554 -0.16812976 -0.076519012
0.088101342 -0.16929737 -0.059736729
0.14437859 -0.16550756 -0.045196056
0.19991651 -0.14254999 -0.042372704
0.038580798 -0.13437025 -0.090438843
0.093016684 -0.11833554 -0.083800793
0.15235862 -0.10899428 -0.072022915
0.21276182 -0.10289416 -0.058297634
0.26142517 -0.098596096 -0.045406818
0.29787427 -0.086813167 -0.039516449
0.16704471 -0.058036368 -0.08649683
0.20976391 -0.049435105 -0.077885628
0.26620609 -0.046027049 -0.064477444
0.31864434 -0.04481585 -0.048452854
0.390883 -0.023096763 -0.045167446
0.44201839 -0.044834711 -0.050695896
0.22159204 -0.0006467551 -0.088244438
0.26891199 0.0084374677 -0.079493046
0.33078909 0.010129891 -0.058428288
0.38739547 0.013493329 -0.057164669
0.44305149 0.013272043 -0.07198
0.27492386 0.066320576 -0.087902546
0.32767755 0.071170643 -0.070004463
0.38481253 0.070985079 -0.074255466
0.43746278 0.064200535 -0.083154678
0.28437245 0.12773667 -0.088903904
0.32518205 0.12424336 -0.071129322
0.2860128 0.1890509 -0.084462166
0.31172818 0.1791577 -0.064744473
0.10407244 0.25859785 -0.090684414
0.15349555 0.2594834 -0.083918095
0.21430984 0.25306958 -0.082882881
0.26675802 0.24439617 -0.07339716
0.32085803 0.23128249 -0.043787479
-0.47885099 0.31697756 -0.084033489
-0.43394566 0.32124501 -0.082955837
-0.37243164 0.32543093 -0.082392216
-0.3147274 0.31708729 -0.083379269
-0.25825965 0.31818122 -0.076457024
-0.1986914 0.31525272 -0.072770596
-0.14559627 0.30437386 -0.077078342
-0.085459881 0.30227667 -0.072637081
-0.025561228 0.29607731 -0.069229603
0.027885694 0.29334313 -0.063569546
0.088042207 0.28711081 -0.063254833
0.14211324 0.28382975 -0.057023525
0.20495889 0.28051919 -0.050644398
0.2475529 0.28202796 -0.039756298
-0.47848269 0.35525674 -0.052728653
-0.43198472 0.35639137 -0.053072929
-0.3740451 0.35333824 -0.056948662
-0.31801796 0.3530817 -0.049188614
-0.25418115 0.34768558 -0.04804039
-0.20512888 0.34913826 -0.039463043
-0.13720688 0.33088595 -0.048647404
-0.087733395 0.33230782 -0.039853096
-0.47621325 -0.37931442 0.0066432953
-0.43427834 -0.37994325 0.010533333
-0.3748658 -0.38046706 0.013773441
-0.3330881 -0.38151491 0.020255089
-0.47818223 -0.35807389 -0.020104885
-0.42820901 -0.35860658 -0.016644001
-0.36718822 -0.35522348 -0.016769409
-0.31449348 -0.34904581 -0.01611805
-0.25472888 -0.34720874 -0.0053100586
-0.2003291 -0.33429998 -0.0091505051
-0.1456731 -0.33470964 0.0057811737
-0.091587223 -0.32925165 0.016055584
-0.031466365 -0.31219774 0.017131805
-0.17230189 -0.30563408 -0.033023834
-0.13515553 -0.30243975 -0.025327682
-0.078178979 -0.29683161 -0.01427412
-0.01951614 -0.27628654 -0.01489687
0.026895624 -0.27356637 -0.0016870499
0.08374618 -0.26309597 0.0085115433
0.037879772 -0.23873471 -0.02933979
0.091373391 -0.22845756 -0.019720078
0.1484445 -0.22447921 -0.0022001266
0.20316234 -0.21403717 0.0091862679
0.15588312 -0.18835488 -0.027310371
0.21049091 -0.17557839 -0.017885208
0.26576117 -0.16214603 -0.0075716972
0.31778932 -0.154607 0.0061039925
0.35513878 -0.13998157 0.013694286
0.4522759 -0.1456636 0.012585163
0.48081231 -0.14562957 0.012101173
0.27346361 -0.1206966 -0.03194809
0.32783809 -0.10594337 -0.019030094
0.38762075 -0.10519216 0.00090408325
0.44197217 -0.10297734 -0.016697884
0.48491362 -0.10922417 -0.0039129257
0.34385207 -0.064661115 -0.029738426
0.38144961 -0.055616323 -0.026879787
0.41707054 -0.070307389 -0.028213978
0.49977413 -0.049010761 0.00020647049
0.49487513 0.0093923211 -0.012440205
0.49626559 0.054354519 0.0031485558
0.32985413 0.26152021 -0.013016224
0.3823466 0.26542652 -0.0062651634
0.046304699 0.31688237 -0.031155109
0.088595927 0.3189612 -0.017653942
0.15149689 0.31338876 -0.010098934
0.20267314 0.30703747 -0.0069365501
0.26785505 0.2959699 -0.0011668205
0.3037596 0.28962797 0.01509285
-0.47797188 0.38609797 -0.020924568
-0.42706487 0.38593096 -0.021829605
-0.37623665 0.3858481 -0.022276878
-0.31715626 0.37741858 -0.022348404
-0.25772905 0.36869174 -0.023726463
-0.19443849 0.36662275 -0.016418457
-0.14059883 0.36235219 -0.011878014
-0.082817204 0.35721213 -0.0066003799
-0.021918885 0.34618163 -0.0070090294
0.029088967 0.33800805 -0.0045928955
0.080351889 0.34082305 0.012821198
-0.47670886 0.40871644 0.0087361336
-0.43388811 0.40870196 0.0086612701
-0.37330073 0.40816009 0.0058455467
-0.31360155 0.39980751 0.0066823959
-0.25355104 0.39114666 0.0064029694
-0.20360556 0.39328206 0.017959595
-0.48380706 -0.40968949 0.050107956
-0.43254766 -0.40238208 0.041748047
-0.3725591 -0.40317291 0.046417713
-0.31202489 -0.39790469 0.04927969
-0.26104599 -0.3893134 0.046668053
-0.2002013 -0.38847244 0.06329298
-0.13628224 -0.37743199 0.067342281
-0.095613025 -0.3725208 0.073730469
-0.19635084 -0.36576128 0.029826164
-0.1454837 -0.36161238 0.040274143
-0.079540618 -0.34694201 0.04309845
-0.024222128 -0.33712387 0.051275253
0.024673216 -0.32407725 0.054129124
0.071945861 -0.31859446 0.066011906
0.045842327 -0.29644513 0.02890873
0.092991389 -0.29055208 0.041290283
0.14790577 -0.2765891 0.049213886
0.19924438 -0.27000952 0.063601971
0.24005473 -0.26743138 0.080626011
0.21228665 -0.23826149 0.035110474
0.26679948 -0.22930536 0.050035
0.32336789 -0.22020465 0.066312313
0.37124491 -0.19579102 0.0692873
0.45937023 -0.19586255 0.070216656
0.4910441 -0.20149505 0.066821098
0.28743884 -0.19228564 0.023752213
0.32804576 -0.18911076 0.038760662
0.3847408 -0.15887484 0.040542603
0.43637365 -0.16662817 0.045262814
0.50527215 -0.16516566 0.049188614
0.51378351 -0.10645571 0.033954144
0.50404829 0.080687203 0.050751686
0.38969287 0.12146953 0.075423241
0.4425948 0.1126467 0.075287342
0.49586031 0.10388899 0.076743603
0.433709 0.26260394 0.074773312
0.21947104 0.32756495 0.038229942
0.28918532 0.31063437 0.041203976
0.32454023 0.29987758 0.046773911
0.39025781 0.29873651 0.038846016
0.44257975 0.2921949 0.051986217
-0.066473909 0.37776881 0.027539253
-0.024088442 0.38170838 0.049790859
0.024786219 0.37071598 0.046341419
0.094671741 0.3618539 0.056055069
0.15047359 0.34684646 0.050080776
0.18662779 0.3507303 0.074105263
0.2563934 0.33163178 0.064644814
0.43256697 0.33209378 0.06764555
-0.47827521 0.43437403 0.051300049
-0.42536125 0.43382579 0.048561096
-0.37149099 0.43227947 0.040834427
-0.31117052 0.43161309 0.054778576
-0.26137888 0.41997898 0.048875809
-0.19457451 0.41268003 0.051747799
-0.15027964 0.40273368 0.045268536
-0.085933425 0.40141147 0.061961174
-0.43378401 -0.42793459 0.087835789
-0.37293309 -0.42915583 0.094732761
-0.31413364 -0.43298858 0.11638021
-0.28104743 -0.43638813 0.13558197
-0.46815094 -0.42706519 0.082924843
-0.24728927 -0.41001034 0.086790562
-0.19718936 -0.4148832 0.11556387
-0.13293087 -0.3941533 0.098435402
-0.080157124 -0.38687128 0.10829067
-0.026774473 -0.37972212 0.12050343
-0.0078299269 -0.3568337 0.087073326
0.031885393 -0.35475868 0.10314131
0.095956646 -0.33554703 0.1041832
0.15319055 -0.32564175 0.11986446
0.16083562 -0.30390161 0.089447021
0.21008772 -0.29932421 0.11004305
0.26412246 -0.28176093 0.11322737
0.3212097 -0.26579931 0.12117481
0.29354465 -0.25015378 0.084765434
0.33061755 -0.2456401 0.098911762
0.38465843 -0.21926169 0.10269165
0.4346849 -0.20914081 0.10285091
0.49799529 -0.22234154 0.10398436
0.53155965 -0.21792425 0.12276936
0.39175972 0.14012691 0.089936733
0.43986949 0.13309877 0.090826511
0.49920881 0.12712526 0.0945611
0.52949262 0.1416861 0.11244202
0.34890857 0.1767493 0.10256815
0.38479427 0.18578018 0.10372734
0.43891966 0.18605311 0.10692501
0.49136433 0.18093874 0.10986137
0.53198755 0.16961287 0.12490749
0.34999347 0.22228226 0.11137676
0.38965318 0.24144445 0.096095085
0.4373475 0.23862188 0.097246647
0.49083334 0.23875491 0.10780191
0.34100851 0.32078522 0.11060524
0.37656981 0.3206588 0.10974121
0.47144178 0.29979861 0.088491917
0.14365515 0.37369239 0.10552168
0.21510857 0.35556954 0.10404301
0.28577083 0.33638561 0.09552145
0.45336834 0.33501124 0.086596489
-0.24773696 0.44214648 0.09013319
-0.22283447 0.44495708 0.10417604
-0.13232663 0.42460024 0.0912714
-0.08987198 0.43035841 0.1211915
-0.025990061 0.40834719 0.099502563
0.027111597 0.40163338 0.11122131
0.07214243 0.39314896 0.11440706
-0.47964826 0.4607681 0.094254494
-0.43516454 0.46075112 0.094172955
-0.37331718 0.4612782 0.096709251
-0.32487154 0.46756041 0.12693405
-0.1989252 0.45019263 0.13033581
-0.47961625 -0.46134037 0.1725893
-0.25681984 -0.4403125 0.15774679
-0.1474826 -0.42274344 0.16197634
-0.064625852 -0.40303105 0.15335083
-0.047336705 -0.40639997 0.17419052
0.017367464 -0.38617909 0.16244364
0.10006807 -0.37059909 0.18118811
0.072285242 -0.36612332 0.15058613
0.14571959 -0.34989357 0.16502619
0.21052203 -0.33272028 0.17395306
0.26565474 -0.31416607 0.17278433
0.32456148 -0.29035515 0.16526222
0.37471524 -0.26720405 0.16320515
0.44313821 -0.26077202 0.19087219
0.50198752 -0.2574614 0.15778875
0.40898633 -0.23817693 0.1469779
0.4455328 -0.23827375 0.14802647
0.54206759 -0.24079056 0.17527056
0.56077343 -0.16726415 0.17664337
0.56175107 -0.11203995 0.18134737
0.17289484 0.38270378 0.15873146
0.24664834 0.36563075 0.16627884
-0.06447687 0.43601543 0.15058565
-0.048186518 0.44409919 0.19258976
0.026261285 0.42275232 0.17747259
0.099657223 0.40024799 0.15450287
-0.49020234 0.49670398 0.17841005
-0.30132335 0.47227502 0.14961815
-0.27717155 0.47697729 0.17224121
-0.17336577 0.45325857 0.14565325
-0.15668553 0.4565351 0.16202354
-0.2346507 -0.44781339 0.20011187
-0.12371666 -0.4308213 0.20967293
-0.030395292 -0.41257679 0.21240091
0.044474363 -0.39297938 0.20661259
0.11941508 -0.3761788 0.21933699
0.17489752 -0.35502952 0.20209122
0.19583938 -0.36098218 0.24505138
0.25112173 -0.33932102 0.22439003
0.31774747 -0.32142746 0.23173904
0.36327562 -0.301126 0.21921349
0.44543558 -0.2621884 0.20502424
0.50350469 -0.28211355 0.21685982
0.53561449 -0.28433299 0.23745441
0.56873298 -0.04772497 0.21493864
0.57588285 0.0087600686 0.2493391
-0.14203522 0.46520543 0.20534229
0.27491251 -0.34703583 0.28334475
0.48512253 -0.28828204 0.27409601
0.57912332 0.037586845 0.26492929
0.58347583 0.067012988 0.28587055
0.5048089 -0.31419355 0.51452637
0.48315468 -0.3213377 0.58081579
0.45578346 -0.3251375 0.61607361
0.45622304 -0.35667861 0.70031357
0.49025828 -0.35694689 0.70263767
0.40891409 -0.38857496 0.77691031
0.43232214 -0.38893127 0.77980185
0.34552008 -0.41978931 0.83928061
0 0 0 1 0 0 0 1 0 0 0 1 0 0 0 0 0 451 1 0 0
