ply
format ascii 1.0
comment PCL generated
element vertex 1107
property float x
property float y
property float z
element camera 1
property float view_px
property float view_py
property float view_pz
property float x_axisx
property float x_axisy
property float x_axisz
property float y_axisx
property float y_axisy
property float y_axisz
property float z_axisx
property float z_axisy
property float z_axisz
property float focal
property float scalex
property float scaley
property float centerx
property float centery
property int viewportx
property int viewporty
property float k1
property float k2
end_header
0.013172492 -0.22282608 -0.48511314
0.033193201 -0.22545639 -0.48391724
-0.026745811 -0.17246887 -0.48820972
0.0056037903 -0.18461376 -0.50030041
0.040823936 -0.18744645 -0.48867822
-0.026298381 -0.14191595 -0.49651361
0.0039025918 -0.14144306 -0.5042243
0.033365767 -0.14973624 -0.49138999
0.0032338798 -0.11247878 -0.4871695
0.057866409 -0.30362928 -0.44522405
0.086008683 -0.30647808 -0.44313884
0.020300128 -0.26355532 -0.4552238
0.057035659 -0.26871151 -0.46283007
0.093689047 -0.26758581 -0.44724131
-0.018683031 -0.22151333 -0.44838333
0.0025620982 -0.23449826 -0.46973324
0.050622329 -0.2339894 -0.4744854
0.093637735 -0.22091077 -0.4541893
0.1245371 -0.20723814 -0.43678808
-0.06032569 -0.16102003 -0.43681431
-0.03814476 -0.17427422 -0.46481609
-0.012141228 -0.20329773 -0.47944283
0.063200548 -0.18113182 -0.47380924
0.093611673 -0.17484073 -0.45738721
0.12447415 -0.1762227 -0.43951344
-0.060107253 -0.14542076 -0.43996716
-0.038338631 -0.12885876 -0.46107388
0.051803611 -0.13236676 -0.46630859
0.093667582 -0.12968007 -0.44608164
0.12447012 -0.13005176 -0.43968773
-0.013630047 -0.083634242 -0.4472084
0.008795619 -0.085821122 -0.47489548
0.048009086 -0.088136017 -0.46601939
0.093718477 -0.083904043 -0.44008541
0.13474745 -0.078803383 -0.43893743
0.017558686 -0.049678069 -0.46523213
0.049840048 -0.043218914 -0.46258354
0.093615815 -0.037681676 -0.45271277
0.1415869 -0.039637327 -0.44587684
0.1706564 -0.037768513 -0.43888474
0.093551382 0.00053401478 -0.454633
0.1372835 -0.0027284399 -0.45295548
0.17056575 0.00068661757 -0.4408474
0.093533352 0.038636543 -0.4562633
0.13942339 0.038701762 -0.45449233
0.17053089 0.039099626 -0.44160223
0.093521073 0.084173575 -0.46068263
0.13943258 0.084523886 -0.45427823
0.17053664 0.085213378 -0.4414773
0.093535148 0.12995315 -0.45930052
0.13949937 0.13050663 -0.45209098
0.17060614 0.13143924 -0.43997264
0.093578294 0.17641911 -0.45176244
0.13960373 0.17672798 -0.44855189
0.17072728 0.17784643 -0.43735027
0.10285705 0.21999221 -0.44545007
0.13787362 0.22154665 -0.44210815
0.1245052 0.25473207 -0.43816924
0.097770438 -0.35366541 -0.41282439
0.14101231 -0.3670696 -0.40288305
0.17285462 -0.35324138 -0.39129162
0.031698599 -0.30210757 -0.41919923
0.054929569 -0.32663539 -0.41117692
0.099946648 -0.3220233 -0.43157959
0.14068836 -0.31840929 -0.4140799
0.17265309 -0.32110307 -0.39565468
-0.015716642 -0.25746742 -0.40203261
0.0081930384 -0.27946323 -0.41387153
0.14049399 -0.27088013 -0.4204669
0.17885585 -0.27052328 -0.39775681
-0.036140084 -0.22533415 -0.41032457
0.14230891 -0.22582969 -0.42426825
0.18029411 -0.22628513 -0.40045547
-0.070349626 -0.17884268 -0.40544963
-0.045222402 -0.19224572 -0.43191171
0.14809923 -0.17739995 -0.42423964
0.18613204 -0.17717631 -0.40162683
-0.069970779 -0.13161433 -0.41050076
-0.04564286 -0.11534637 -0.42508459
0.14792457 -0.13063161 -0.42916918
0.18747112 -0.13152471 -0.41291976
0.23094243 -0.13010257 -0.39738011
-0.037314698 -0.087981626 -0.40876889
0.15031755 -0.094369531 -0.43397665
0.18677434 -0.084345266 -0.42591095
0.23501 -0.08504054 -0.40314317
-0.020497844 -0.048346486 -0.41154289
0.016199842 -0.030109085 -0.41800284
0.19599639 -0.040948451 -0.42685342
0.23467389 -0.038009867 -0.4074893
0.057470422 -0.001573164 -0.41063094
0.19271296 -0.0038211159 -0.4301455
0.23450807 0.001046896 -0.40962696
0.26732862 -0.0066285431 -0.39193749
0.056414049 0.043199774 -0.41000509
0.19424823 0.039446302 -0.43034315
0.23443305 0.040053688 -0.41059899
0.26717386 0.040576767 -0.3936131
0.054943684 0.086453661 -0.41822577
0.19425523 0.085818842 -0.43021822
0.2344555 0.086892724 -0.41031504
0.26720986 0.087814733 -0.39322352
0.054897204 0.13339733 -0.41472197
0.19434534 0.13230951 -0.42866397
0.23462567 0.13389239 -0.40811729
0.26736337 0.12728627 -0.39156175
0.062733591 0.18031 -0.41314912
0.19449401 0.17897218 -0.42609382
0.23485047 0.18106382 -0.40519929
0.062565684 0.21395531 -0.39133763
0.082186721 0.23067738 -0.4153285
0.15545678 0.23988836 -0.43395829
0.1868324 0.22558215 -0.42493939
0.23312107 0.22641599 -0.40216947
0.10555857 0.26962364 -0.41546869
0.14215091 0.27356097 -0.42805505
0.18722178 0.27316087 -0.41751671
0.23071092 0.27787733 -0.40055418
0.14604971 0.31635115 -0.40734601
0.18756548 0.32099682 -0.41057563
0.23510703 0.32245731 -0.40185142
0.19828203 0.35840192 -0.40525436
0.23519105 0.36186218 -0.40073872
0.11037561 -0.39100227 -0.35599446
0.14965785 -0.40295178 -0.37806559
0.1897684 -0.40441382 -0.37036228
0.22930244 -0.40461227 -0.35171866
0.054351717 -0.35024861 -0.36046457
0.09414731 -0.37055361 -0.38209987
0.19250858 -0.36481693 -0.3785007
0.23054066 -0.35882443 -0.35680938
0.022679418 -0.31651369 -0.37264276
0.19711077 -0.323268 -0.38084531
0.23867658 -0.3135666 -0.35561013
-0.025077589 -0.26891559 -0.37170577
-0.0010611713 -0.29227266 -0.37559819
0.20093073 -0.27942422 -0.38306117
0.23631063 -0.27627024 -0.36034751
-0.070762388 -0.21934724 -0.36346579
-0.048599608 -0.2366 -0.37707305
0.20476121 -0.22784455 -0.3848722
0.23808897 -0.23001289 -0.3632462
0.27156645 -0.21561904 -0.34606171
-0.091672204 -0.18173596 -0.36787319
0.20458883 -0.19599196 -0.38767076
0.23703575 -0.18108918 -0.3767159
0.28470722 -0.18067719 -0.35593963
-0.092899643 -0.12982604 -0.36918855
0.25207487 -0.14084962 -0.38607001
0.28540653 -0.13386934 -0.36915946
0.31947693 -0.1349251 -0.34953403
-0.065242462 -0.086129442 -0.36584663
-0.048062421 -0.069767185 -0.38579607
0.28473935 -0.085881606 -0.37582803
0.3255595 -0.083373778 -0.35262704
-0.066646986 -0.054588597 -0.34557414
-0.040944114 -0.046225689 -0.37225723
0.28637207 -0.040198561 -0.37926221
0.32849163 -0.04161248 -0.35494137
0.018406447 -0.010370657 -0.3630805
0.046700437 0.0092470087 -0.3841939
0.29233325 0.001401918 -0.3788476
0.32472521 -0.0031684209 -0.35966396
0.030282408 0.041653495 -0.35787654
0.046707243 0.025047202 -0.38463616
0.29223412 0.041001115 -0.37979627
0.32628989 0.041612361 -0.3599689
0.030515544 0.089162305 -0.36797142
0.29223126 0.088535264 -0.3798275
0.32630262 0.089610502 -0.35986733
0.030435443 0.13726817 -0.36450338
0.28890485 0.13836235 -0.37929678
0.32650039 0.13773446 -0.35820484
0.030141659 0.17034361 -0.35178208
0.046586864 0.18395507 -0.37681723
0.28448156 0.18374705 -0.37840223
0.32696185 0.18615681 -0.35433316
0.054317575 0.22517543 -0.36296511
0.25171408 0.24559762 -0.39033031
0.28498071 0.23192652 -0.37341905
0.32456332 0.22384745 -0.3519783
0.06225276 0.25078544 -0.35068774
0.086224087 0.27119458 -0.37639594
0.25178316 0.26935744 -0.38951492
0.28291565 0.27532819 -0.37142563
0.3193768 0.26690459 -0.35040116
0.11045438 0.31502751 -0.35087824
0.12642306 0.33037537 -0.35512304
0.28756914 0.31430104 -0.36761856
0.31988555 0.29971266 -0.34599471
0.1427376 0.34802234 -0.34601426
0.18155205 0.36660194 -0.37582278
0.28382504 0.35857481 -0.36532712
0.23640552 0.38860387 -0.38463974
0.20816112 -0.44435418 -0.32966423
0.24495524 -0.44900769 -0.32689643
0.28471863 -0.45154163 -0.31020784
0.30846664 -0.43334791 -0.30252004
0.094699636 -0.39908347 -0.31035089
0.14349058 -0.42171884 -0.32051325
0.25219399 -0.41457829 -0.33702254
0.28037444 -0.41015434 -0.32144308
0.30814773 -0.40815771 -0.30547881
0.029655531 -0.34680972 -0.33073187
0.045683984 -0.36506164 -0.31817341
0.078320943 -0.37851399 -0.33509731
0.25586188 -0.36132249 -0.34134746
0.28162971 -0.36390421 -0.32537532
0.30772972 -0.36649239 -0.30935788
-0.027586453 -0.29916951 -0.32289696
0.0056297928 -0.32126033 -0.3393364
0.25565958 -0.32868576 -0.34373641
0.28133389 -0.31468597 -0.32846141
0.31452829 -0.31432003 -0.30734539
-0.069821306 -0.26927727 -0.29975724
-0.046239473 -0.27686852 -0.32803893
0.28274646 -0.26895273 -0.33062434
0.31600612 -0.26823887 -0.30881333
-0.084349774 -0.23373614 -0.32546949
0.28048614 -0.23260503 -0.33718777
0.32021523 -0.22501363 -0.31517148
-0.12168596 -0.18158308 -0.31733131
-0.099320807 -0.20001546 -0.34015656
0.30473936 -0.20027362 -0.33710504
0.32973331 -0.18459953 -0.33111167
0.36317402 -0.18281709 -0.31148124
-0.12367465 -0.13960722 -0.32234216
0.33687115 -0.13550213 -0.33884001
0.3723911 -0.13672544 -0.31617308
-0.092856981 -0.087522909 -0.32092524
0.33629641 -0.10299084 -0.34350634
0.37138337 -0.087495655 -0.32343817
0.40726316 -0.071714923 -0.3014636
-0.077115707 -0.04691007 -0.31245327
-0.035218403 -0.030450262 -0.32953811
0.3706342 -0.038617127 -0.32883644
0.40684849 -0.047016487 -0.30415726
0.0049699843 0.0020791627 -0.32201505
0.37023088 0.0019458514 -0.33174729
0.40638897 -0.0059755072 -0.30714178
0.0048950166 0.042833079 -0.31976533
0.37004986 0.042441074 -0.33305264
0.40601367 0.043163341 -0.30957961
0.0051877201 0.091309369 -0.32823896
0.37001964 0.091043502 -0.33326221
0.40593398 0.092290193 -0.31009698
0.0049796999 0.1405194 -0.32227159
0.37027991 0.13979857 -0.331388
0.40621853 0.14158054 -0.30824828
0.021452185 0.18870296 -0.32862473
0.36821014 0.18397602 -0.32959819
0.40665182 0.1828367 -0.30543423
0.02367489 0.22348601 -0.30882859
0.045908071 0.23692934 -0.33272815
0.3362138 0.23551942 -0.34417701
0.37348762 0.22389123 -0.32288027
0.40724903 0.2243318 -0.30155563
0.053834833 0.26310351 -0.31877422
0.078320943 0.28560287 -0.33236003
0.33671585 0.2683315 -0.34010077
0.37203759 0.2712982 -0.31869388
0.094453268 0.30027297 -0.34235573
0.3306849 0.32056126 -0.33667254
0.36789408 0.31853056 -0.31476164
0.30505258 0.38250434 -0.33419871
0.32837671 0.36407301 -0.32881904
0.36222702 0.35978514 -0.31040263
0.28129283 0.40792465 -0.32882285
0.3239221 0.40329167 -0.31127763
0.35798711 0.38890019 -0.30096459
0.32907832 -0.45543614 -0.28472185
0.36992121 -0.45473456 -0.26111197
0.061806932 -0.3856816 -0.29277301
0.33651802 -0.40632483 -0.28812146
0.37082252 -0.40678364 -0.26690722
0.020050324 -0.36392021 -0.27393126
0.33255756 -0.36572471 -0.29360819
0.37227908 -0.35972467 -0.26848578
-0.038409837 -0.31673387 -0.27337956
-0.0042143017 -0.33600736 -0.29367757
0.33859077 -0.32392332 -0.29146528
0.36843461 -0.31912655 -0.27225399
-0.10638504 -0.25745401 -0.25673223
-0.082797579 -0.2725004 -0.2725358
0.34277818 -0.27030894 -0.29088068
0.37002185 -0.2723873 -0.27286601
0.3976576 -0.26607949 -0.25468779
-0.12124903 -0.2218391 -0.27816296
0.34211001 -0.23670214 -0.29630566
0.37754458 -0.22460343 -0.27884269
0.40517735 -0.22354592 -0.26049948
-0.15553707 -0.17271094 -0.2680738
-0.13675427 -0.18781605 -0.28884554
0.3864195 -0.1874349 -0.29390264
0.41999817 -0.180712 -0.27305961
0.44814879 -0.17366675 -0.25427628
-0.15502435 -0.14736789 -0.2728312
-0.1379942 -0.12221117 -0.27645516
0.41805533 -0.13838784 -0.28535128
0.44650042 -0.13954087 -0.26400948
-0.12154432 -0.088969752 -0.27440095
0.41880128 -0.091785848 -0.2910645
0.45455194 -0.089265719 -0.26599121
-0.10407162 -0.055535745 -0.28405237
-0.088227086 -0.039028443 -0.27448344
-0.046558179 -0.022373525 -0.27608109
0.42518467 -0.038898911 -0.29234314
0.45348966 -0.039055124 -0.27212477
-0.027151428 -0.00018329173 -0.2754302
0.42464861 0.0023615137 -0.29565883
0.45867452 0.0043247901 -0.27126145
-0.02846767 0.047684003 -0.27140117
0.42438164 0.043539766 -0.29731035
0.46215066 0.044362519 -0.27053642
-0.029934809 0.094152525 -0.27553773
0.42421451 0.092924461 -0.29834414
0.46200109 0.094377413 -0.27138376
-0.030176595 0.13613226 -0.27069974
0.42453223 0.14249416 -0.29637909
0.46211112 0.13612106 -0.27076054
-0.021935642 0.17818862 -0.26738715
-0.0042966083 0.18418983 -0.29153919
0.42498198 0.18397483 -0.29359674
0.46014422 0.17579789 -0.27004576
0.0033196062 0.22754809 -0.273664
0.42563772 0.22571789 -0.28954053
0.45374009 0.2278973 -0.2706697
0.028251693 0.26974735 -0.26994348
0.053539075 0.28319088 -0.29234505
0.41736048 0.27531099 -0.2897377
0.4528572 0.27522996 -0.26609492
0.053143676 0.30494547 -0.25750065
0.086583212 0.31617844 -0.29271221
0.3913019 0.33179447 -0.29814172
0.41840187 0.31768876 -0.28314567
0.45266807 0.31282958 -0.26067209
0.1115735 0.34340486 -0.27818871
0.16184008 0.37851834 -0.26811528
0.38666385 0.36853957 -0.29232144
0.42024946 0.36125952 -0.27145457
0.44746384 0.34676927 -0.25832105
0.33432436 0.42352709 -0.29266548
0.37713814 0.40091047 -0.28167844
0.40531039 0.40522069 -0.25971055
0.38205779 -0.47797874 -0.24597406
0.41971433 -0.483192 -0.22089243
0.42062938 -0.45199287 -0.23082352
0.45573631 -0.4426786 -0.20947456
0.044396158 -0.39554602 -0.23452663
0.095209524 -0.41869918 -0.24725485
0.41487992 -0.40966183 -0.23861361
0.45533711 -0.40795988 -0.21183157
-0.022812806 -0.34263036 -0.24839592
0.0016710833 -0.37181753 -0.22395706
0.41685557 -0.36084631 -0.23957348
0.45489454 -0.3647159 -0.21444464
-0.075578652 -0.31312397 -0.21640062
0.41670182 -0.31840056 -0.24057865
0.4547562 -0.31325606 -0.21526146
-0.11846586 -0.27047777 -0.21519661
0.42196441 -0.27884537 -0.23771811
0.45465907 -0.27041581 -0.21583557
-0.16007054 -0.20968123 -0.22600842
-0.13287163 -0.23352994 -0.24341583
0.42691299 -0.22882356 -0.23990917
0.45400542 -0.22731036 -0.21969509
-0.16719404 -0.18316075 -0.23883104
0.46372369 -0.18673554 -0.2293911
0.48712835 -0.15864268 -0.22527075
-0.17015219 -0.14097472 -0.23741913
0.47363609 -0.13724841 -0.2435751
0.50586635 -0.13355158 -0.21641493
-0.16142589 -0.10799746 -0.21343279
-0.14147571 -0.089968771 -0.24166632
0.48364732 -0.089941576 -0.24411249
0.51166934 -0.087198958 -0.22187328
-0.11552522 -0.047639981 -0.24808931
-0.074702241 -0.02237366 -0.2293067
0.4823781 -0.039217558 -0.25098228
0.51227272 -0.039401576 -0.22749424
-0.058080696 0.011726912 -0.22311926
-0.048575602 0.0029611271 -0.24073458
0.48180419 -0.0055616479 -0.25408888
0.51144123 0.0030999519 -0.23172951
-0.058003537 0.02874811 -0.22437239
-0.051612236 0.045447994 -0.23703337
0.51102978 0.045493413 -0.23382521
0.54139978 0.054804284 -0.2100172
-0.057378002 0.096362934 -0.2345295
0.51081562 0.096342295 -0.23491669
0.54117787 0.089054376 -0.21108437
-0.057925142 0.14793409 -0.22564507
-0.057618342 0.13055825 -0.23062706
0.51095533 0.13879418 -0.23420429
0.54127628 0.13194926 -0.21061134
-0.058622368 0.17450172 -0.21432304
-0.040186748 0.18083557 -0.23877716
0.48196593 0.19626759 -0.25321341
0.51132035 0.18138309 -0.23234224
-0.029427513 0.22138914 -0.2287755
-0.0062670857 0.24830823 -0.24034452
0.48253715 0.23027061 -0.25012159
0.51012588 0.2292067 -0.22975254
0.0045558512 0.27256894 -0.22774172
0.48360047 0.27314854 -0.24436569
0.51521695 0.2711457 -0.22117043
0.027154483 0.30168071 -0.22243309
0.044151761 0.31931862 -0.21865273
0.078320943 0.33119383 -0.25087523
0.47726151 0.31907284 -0.24221611
0.505261 0.31921238 -0.21955967
0.095289707 0.3509393 -0.23369884
0.12883008 0.36486292 -0.25089622
0.45890236 0.36666435 -0.2407918
0.48725486 0.35248247 -0.22458649
0.43352592 0.40048963 -0.24074507
0.43246186 -0.5061056 -0.19376898
0.46370843 -0.49402541 -0.19644833
0.49686515 -0.4932358 -0.17256927
0.47065544 -0.45779684 -0.19784164
0.50327528 -0.45426375 -0.17570925
0.47465596 -0.41009381 -0.19950914
0.50439721 -0.4049561 -0.17900944
-0.034231581 -0.3602258 -0.1876483
0.47431773 -0.36672145 -0.20141935
0.50399476 -0.3611539 -0.18114567
-0.11342832 -0.30128151 -0.1735549
-0.096328296 -0.3192772 -0.16924572
0.47418359 -0.31496799 -0.20217657
0.50389105 -0.31764936 -0.18168736
-0.14910969 -0.26729867 -0.16538286
-0.13097912 -0.28399879 -0.17226601
0.4741179 -0.27189857 -0.2025485
0.50375527 -0.27414766 -0.18240738
-0.17291209 -0.22157484 -0.1875
-0.14489985 -0.24559411 -0.20744944
0.47366309 -0.2286472 -0.20511675
0.50350142 -0.23061597 -0.18375874
-0.19932452 -0.17862877 -0.18380547
-0.17909229 -0.19398226 -0.20874214
0.50391179 -0.1815445 -0.19076729
0.53313434 -0.17982009 -0.16562176
-0.20019409 -0.13547374 -0.17674589
-0.17938465 -0.12545596 -0.20620966
0.5290215 -0.13508894 -0.18617058
-0.16990012 -0.091676608 -0.18869686
0.52496058 -0.10826591 -0.20646
0.55162007 -0.087506831 -0.18188143
-0.16658369 -0.057359952 -0.16557455
-0.13807994 -0.04827667 -0.1883359
0.55618042 -0.043144885 -0.18904924
-0.088350557 -0.0015259311 -0.18329
0.55063742 -0.0016815905 -0.19889832
0.5854224 0.0038484018 -0.16647482
-0.086444579 0.046955492 -0.18573761
0.55733246 0.042375777 -0.19576263
0.58442682 0.047427397 -0.1709342
-0.085919611 0.089962319 -0.1929059
0.56216073 0.089945093 -0.19326925
0.58399057 0.090966329 -0.17288828
-0.086382069 0.13363269 -0.18661737
0.56236279 0.13321492 -0.19233179
0.58410275 0.13459703 -0.17238522
-0.071844496 0.18549608 -0.1875329
0.55244845 0.18450721 -0.19849873
0.58468831 0.17842901 -0.16976309
-0.069923557 0.21298428 -0.17294264
-0.042521968 0.23657535 -0.19544077
0.5532617 0.22803645 -0.19466066
0.58538175 0.2049294 -0.16665697
-0.031474128 0.26070464 -0.18672132
-0.0084720328 0.29008099 -0.18305826
0.55293453 0.26860514 -0.1880579
0.017501395 0.31658977 -0.18003559
0.061143499 0.3383528 -0.20659065
0.52590042 0.31333226 -0.20176458
0.54922515 0.3090035 -0.17236662
0.095660746 0.36816987 -0.18315029
0.50053507 0.36532837 -0.19947052
0.47306159 0.38952962 -0.20851421
0.5166471 -0.47823283 -0.1603961
0.54334658 -0.45206174 -0.14412451
0.5777542 -0.43262225 -0.12092447
0.0077012181 -0.40155768 -0.1467576
0.060778029 -0.42586043 -0.15911484
0.55273342 -0.40846059 -0.14519596
-0.063214473 -0.35852024 -0.13975763
0.55755103 -0.36280975 -0.14479685
0.59602869 -0.3526383 -0.1189642
-0.13561684 -0.30762416 -0.12206125
-0.079665922 -0.33834735 -0.15766191
0.55189538 -0.31968036 -0.14923382
0.59579664 -0.3167991 -0.1200037
-0.1640825 -0.2708067 -0.13365364
0.55424094 -0.26911247 -0.1485734
0.59560943 -0.27210084 -0.12084293
-0.20524812 -0.21732728 -0.13571167
-0.18609291 -0.23390454 -0.14811468
0.5540514 -0.22497092 -0.14947414
0.59525746 -0.22736618 -0.12241888
-0.22240317 -0.18165886 -0.14005232
0.56387812 -0.18127789 -0.14446449
0.59497392 -0.18271601 -0.12368917
-0.22133008 -0.14575917 -0.14825249
0.56306636 -0.13694812 -0.14833498
0.59479767 -0.13813591 -0.12447834
-0.20645663 -0.093524531 -0.12590027
-0.1847696 -0.083748035 -0.15957499
0.57252699 -0.10181022 -0.14517546
0.59422034 -0.093539789 -0.1270647
-0.17101544 -0.04908479 -0.12437296
-0.11544008 -0.02237366 -0.14979744
0.59040868 -0.040089522 -0.14413834
-0.12309817 -0.0046417434 -0.12964725
0.61339438 0.0043735262 -0.12106991
-0.11614076 0.04831614 -0.14152288
0.61040962 0.048548419 -0.1339941
-0.12236338 0.089719132 -0.13833714
0.60813719 0.092416808 -0.14383411
-0.11620881 0.13681844 -0.14071894
0.60869604 0.13675685 -0.14141417
-0.11757562 0.17352305 -0.124578
-0.097680144 0.1800506 -0.15168476
0.61141568 0.18198873 -0.1296382
-0.08081726 0.22947036 -0.14191008
0.60292339 0.22925155 -0.13595295
-0.06351281 0.26129392 -0.13491297
-0.036490448 0.28671387 -0.14358664
0.57073337 0.29417711 -0.15349722
0.60187554 0.27044562 -0.13267422
-0.0013966188 0.3231658 -0.13623476
0.56676811 0.32480839 -0.14477396
0.59997034 0.30365011 -0.12793589
0.043250661 0.34586447 -0.1601243
0.60512084 -0.40546387 -0.10520697
0.64184666 -0.38593856 -0.076581955
-0.093343906 -0.35678744 -0.090093136
-0.046981312 -0.38038 -0.11268568
0.61253607 -0.36801443 -0.10543823
0.63947749 -0.3572602 -0.086509705
-0.16722941 -0.30431509 -0.075136662
-0.11849362 -0.32654154 -0.11373663
0.61706144 -0.31868294 -0.10519075
0.65174228 -0.31632057 -0.080854893
-0.19475001 -0.27723992 -0.073142052
-0.19030803 -0.25518534 -0.11161089
0.61667508 -0.27360904 -0.10686398
0.64674473 -0.27216792 -0.086511612
-0.21934772 -0.22978418 -0.0947299
0.61632532 -0.2286091 -0.10837889
0.64849967 -0.23052475 -0.0867486
-0.24637389 -0.17572795 -0.094723225
0.61603165 -0.18368952 -0.10965061
0.64822763 -0.18519819 -0.087873459
-0.24758658 -0.14001586 -0.085970879
-0.22536904 -0.12955819 -0.11738873
0.61591768 -0.13885425 -0.11014414
0.64807826 -0.1399364 -0.088486195
-0.22920755 -0.094700277 -0.088057518
0.61561811 -0.094015121 -0.11144114
0.64798945 -0.094711065 -0.088848114
-0.21065584 -0.058495581 -0.091806889
-0.16685024 -0.031462289 -0.078927994
0.61493188 -0.040268801 -0.11441231
0.64984435 -0.044064078 -0.088654041
-0.13725114 0.0045783818 -0.10437012
0.64513385 -0.0007025376 -0.093183041
-0.15766335 0.050214406 -0.079909325
-0.13658428 0.049237628 -0.11158895
0.64681095 0.049808349 -0.093719482
-0.15714669 0.09536007 -0.085071564
-0.13603869 0.10266961 -0.11749506
0.64632082 0.094823956 -0.095748901
-0.15777686 0.13200936 -0.078774929
-0.13690755 0.13908204 -0.10808945
0.6459443 0.13979432 -0.097299099
0.67920738 0.14150459 -0.072628975
-0.1323185 0.18821326 -0.093153477
0.64593101 0.18483798 -0.097348213
0.67901498 0.17785658 -0.073386192
-0.12079123 0.22203137 -0.086603165
-0.10155497 0.23849253 -0.10134983
0.64553869 0.22970702 -0.09896183
0.67876995 0.22326531 -0.074350834
-0.074657373 0.27456522 -0.10016823
0.64545721 0.27468106 -0.099303246
0.67861193 0.26867354 -0.074973106
-0.038669229 0.31065175 -0.099656582
0.61276025 0.33196589 -0.097752571
0.64473313 0.3167702 -0.094789982
0.67879486 0.31425917 -0.074252605
-0.012573592 0.34120438 -0.076496601
0.02440197 0.35505912 -0.10324621
0.06043534 0.37110975 -0.1145978
0.65979993 0.34105107 -0.077495098
-0.068760522 -0.39007705 -0.049700737
-0.031609915 -0.4071314 -0.057933331
0.0044228286 -0.4288131 -0.038094044
-0.12419287 -0.35375974 -0.046432018
0.6626054 -0.36018053 -0.066106319
0.68579888 -0.35372522 -0.046681404
-0.14083546 -0.33284509 -0.06556797
0.69460225 -0.31671923 -0.04837513
-0.21410736 -0.25997141 -0.063783646
0.69348621 -0.27026457 -0.052689075
-0.25065577 -0.20513844 -0.063820839
-0.23518232 -0.24366978 -0.042402267
0.69263893 -0.22408548 -0.055968285
0.7271471 -0.20775244 -0.029863358
-0.27189097 -0.16983134 -0.043592453
0.69228923 -0.17814912 -0.057320118
0.72665602 -0.17982808 -0.031685829
-0.26178262 -0.13272993 -0.050077915
0.69210935 -0.13230266 -0.058022976
0.72607946 -0.13341828 -0.033825874
-0.25280651 -0.086746231 -0.048299313
0.69196212 -0.086482957 -0.058594704
0.72595817 -0.087137803 -0.034276009
-0.21653685 -0.050020032 -0.044129848
-0.17935392 -0.022373525 -0.04708147
0.69179255 -0.040686134 -0.059248924
0.72586811 -0.050125703 -0.034610748
-0.16950005 0.005157901 -0.053957939
0.69155204 0.0050815195 -0.060181618
0.72578365 -0.0038765371 -0.03492403
-0.17953596 0.04208165 -0.045392036
0.69120514 0.041655567 -0.06152916
0.72548586 0.042342048 -0.036029339
-0.17873368 0.08779344 -0.052836418
0.69084799 0.087322012 -0.062917233
0.72499043 0.08848238 -0.037867546
-0.1795375 0.13419551 -0.045378208
0.69436836 0.13011973 -0.061076164
0.72476506 0.13461882 -0.038704395
-0.16538522 0.17534272 -0.04899931
0.7016741 0.179297 -0.056360245
0.72455788 0.1807285 -0.039473057
-0.14233106 0.22589864 -0.049377918
0.7012673 0.22497314 -0.057914257
0.7242623 0.22677577 -0.040570259
-0.11444867 0.26215914 -0.053260326
-0.086405776 0.28877702 -0.060380936
0.70124084 0.27076295 -0.058015347
0.72460788 0.27308086 -0.039288044
-0.068354197 0.30764544 -0.056298256
-0.050657935 0.32771197 -0.044456482
0.70187211 0.31691667 -0.055603504
0.004188098 0.36682379 -0.030470848
0.56364959 0.36224642 -0.058787346
0.60037416 0.36228904 -0.058523178
0.64808947 0.36358511 -0.050506115
0.68097925 0.34287393 -0.065653801
-0.16706032 -0.34325668 0.013990879
-0.10751743 -0.37546647 -0.023894787
-0.20323685 -0.3039315 0.00035619736
-0.18335134 -0.32142749 -0.0099897385
0.72918004 -0.31062236 -0.022317886
0.72955912 -0.27355856 -0.02091074
-0.26196629 -0.23032689 0.017805576
0.72889328 -0.23614393 -0.023382187
-0.29937276 -0.17345107 0.015186787
-0.27514851 -0.18980642 -0.021320343
0.75136745 -0.17193942 -0.0093588829
-0.29919273 -0.15450338 0.014017105
-0.27497691 -0.13394146 -0.022493362
0.75012875 -0.13435338 -0.013828278
0.74917865 -0.087597921 -0.017256737
0.77476138 -0.088260382 0.0071368217
-0.25741151 -0.059677083 -0.01506567
-0.21206668 -0.031748734 -0.0043663979
0.74915624 -0.041007489 -0.017337799
0.77348578 -0.041169904 0.0026578903
-0.20384181 0.0058419444 0.0055952072
0.74890918 0.0055674743 -0.018228531
0.77277291 0.005779298 0.00015497208
-0.20197833 0.04301412 -0.01054287
0.74872673 0.042803314 -0.01888752
0.77251959 0.043292176 -0.00073385239
-0.21038011 0.086309761 -0.0032334328
0.74840504 0.08930482 -0.020048141
0.77219945 0.090150177 -0.0018587112
-0.20261157 0.13683818 -0.0050592422
0.74804896 0.13575533 -0.021332741
0.77251238 0.13710779 -0.00075960159
-0.2043601 0.16608049 0.010083675
-0.18327224 0.1925438 -0.010723591
0.74789697 0.18222179 -0.02188158
-0.17186669 0.22777759 -0.00095033646
0.74870574 0.22902672 -0.018963337
-0.12707061 0.27633801 -0.012639046
-0.081257515 0.32506585 0.0013842583
-0.033530675 0.35046518 -0.016347885
0.6231187 0.39092126 0.002383709
0.63980067 0.38937822 -0.0067272186
-0.092925973 -0.40292239 0.033730507
-0.28640229 -0.2527253 0.055622578
-0.25967708 -0.26472378 0.047244072
-0.22800183 -0.29040611 0.049025059
-0.30457449 -0.2234299 0.048973083
-0.28280213 -0.22197095 0.031007767
-0.34466293 -0.17618589 0.059595108
-0.31484732 -0.1872512 0.033205986
-0.34428018 -0.15683755 0.0573349
-0.31222159 -0.13664211 0.036794662
-0.2817868 -0.11713879 0.024066448
-0.28590432 -0.099052593 0.052217484
-0.22516108 -0.02237366 0.025961399
-0.2257331 0.0061271712 0.030605316
-0.22462168 0.043885764 0.02158165
-0.22426209 0.1100065 0.018661976
-0.22530064 0.13893902 0.027093887
-0.2160694 0.17699806 0.028976917
-0.2069335 0.20583013 0.03237009
-0.18875241 0.2447 0.040126324
-0.15985632 0.27297205 0.037231445
-0.12245842 0.31231204 0.046242237
-0.19499904 -0.35426199 0.098087311
-0.15662232 -0.37478831 0.10532951
-0.25287041 -0.31460154 0.092760086
-0.22613874 -0.32685816 0.086422443
-0.30023956 -0.26503924 0.08385849
-0.26030269 -0.29323989 0.07531929
-0.34091771 -0.22709374 0.09495163
-0.32644781 -0.2151207 0.065851688
-0.35851395 -0.18735628 0.083878517
-0.35949165 -0.13908695 0.089634418
-0.32782951 -0.11907597 0.074398518
-0.30143344 -0.090517908 0.091952801
-0.17253834 0.28637642 0.068730354
-0.15394095 0.3066642 0.076303005
-0.095731147 0.34506968 0.074219227
-0.05725228 0.36497861 0.077919483
-0.16029578 -0.40018338 0.14509583
-0.13902158 -0.39778346 0.12868738
-0.24080524 -0.36144516 0.15297604
-0.20840847 -0.36853606 0.1312151
-0.17724025 -0.37622744 0.11571503
-0.30821738 -0.29983962 0.13655806
-0.2677435 -0.32893112 0.13102722
-0.34535655 -0.26732039 0.14168215
-0.31512007 -0.27811024 0.11746883
-0.37718236 -0.22041865 0.13467312
-0.3556852 -0.23937662 0.12467813
-0.40184674 -0.1758391 0.13401508
-0.37290952 -0.19894207 0.11053991
-0.38606423 -0.13105638 0.12905455
-0.3467803 -0.10145098 0.13010693
-0.31655946 -0.081605718 0.1268177
-0.18392569 -0.40565708 0.18251991
-0.12211648 -0.42324832 0.16575241
-0.2746039 -0.35520449 0.18206215
-0.22409821 -0.38527662 0.18102074
-0.34676582 -0.30576491 0.1915369
-0.31468308 -0.32462797 0.17959404
-0.3871246 -0.26521468 0.19082642
-0.36655319 -0.28525373 0.18885088
-0.39779669 -0.23695639 0.17513084
-0.43583891 -0.18365496 0.18105698
-0.43251345 -0.13661021 0.18127966
-0.40156066 -0.12234905 0.15942955
-0.38396558 -0.10277124 0.1729846
-0.35361591 -0.082636558 0.17146111
-0.021513358 0.39693022 0.15576553
-0.12441225 0.50473273 0.19557524
-0.11618758 0.54090291 0.19405031
-0.06480927 -0.45176411 0.21815968
-0.24933761 -0.39098942 0.22224998
-0.20867881 -0.41187322 0.22502041
-0.14578009 -0.42983007 0.20850134
-0.30030823 -0.36015239 0.22096968
-0.36364704 -0.32046843 0.23246622
-0.40380257 -0.27881876 0.22707415
-0.43996277 -0.22700381 0.21965837
-0.47564211 -0.17627485 0.2272501
-0.47562966 -0.14547366 0.22719049
-0.45354626 -0.12465549 0.21936226
-0.43574557 -0.10462426 0.2331624
-0.40583861 -0.090518564 0.21938467
-0.11439628 0.41221544 0.22504282
-0.085608073 0.39770526 0.2238698
-0.11579562 0.45780346 0.21639299
-0.11160069 0.49313956 0.20546484
-0.086754404 0.51412153 0.24248409
-0.13192722 0.56084657 0.20491362
-0.075457357 0.54156703 0.22605133
-0.045370705 0.54453081 0.23999691
-0.16860175 0.58464652 0.23501015
-0.12588432 0.59026831 0.21481133
-0.075544856 0.58295846 0.22744465
-0.045285106 0.5750559 0.23814344
-0.17000601 -0.43625185 0.25021219
-0.087808855 -0.45846412 0.25960541
-0.27534261 -0.39684075 0.26447916
-0.23423144 -0.41827324 0.26877737
-0.33573237 -0.35361618 0.25134897
-0.31839976 -0.37733412 0.27439022
-0.39117283 -0.32496259 0.27271032
-0.44282869 -0.27249765 0.2698698
-0.48473629 -0.22054049 0.27100468
-0.45884076 -0.2289741 0.2458148
-0.5045504 -0.17852595 0.26618004
-0.49836817 -0.13351962 0.26955557
-0.45355883 -0.095354721 0.27166128
-0.40349281 -0.064270481 0.28327465
-0.15262243 0.3765288 0.28930521
-0.12891024 0.3713659 0.25400639
-0.15137261 0.40568113 0.27454567
-0.12857082 0.39140999 0.2495966
-0.066353805 0.41165081 0.24682236
-0.04608947 0.41306287 0.25555849
-0.1508733 0.4360148 0.2686491
-0.078809924 0.44907776 0.28389406
-0.036481723 0.44722214 0.27316046
-0.075727634 0.49385965 0.26633596
-0.036055394 0.49745309 0.26330519
-0.025063045 0.54624152 0.2479887
-0.19221228 0.60193419 0.26532507
-0.046782114 0.60314178 0.27055502
-0.17114538 0.62186813 0.26165342
-0.11837535 0.61952549 0.25183678
-0.088228919 0.6230073 0.26642656
-0.19576985 -0.44405177 0.30087376
-0.11367994 -0.47037545 0.33328772
-0.30239204 -0.40308654 0.30955315
-0.26088455 -0.42518026 0.31599998
-0.40988019 -0.34076554 0.31935024
-0.35458702 -0.37090102 0.30554676
-0.43979475 -0.30786961 0.30915785
-0.48308334 -0.26598316 0.31395102
-0.51760101 -0.23520295 0.32672739
-0.51157677 -0.21198349 0.29877806
-0.53483695 -0.18097615 0.30859852
-0.53646916 -0.13891907 0.31591034
-0.51937336 -0.10775851 0.33494997
-0.48165593 -0.096316889 0.30710649
-0.4398329 -0.064667672 0.3090744
-0.17705104 0.38196531 0.32647705
-0.17575312 0.41166353 0.31242609
-0.20609573 0.59910548 0.2986002
-0.24191898 0.63945556 0.33535337
-0.21722156 0.63204187 0.30428696
-0.19856277 0.65918642 0.32878256
-0.16656679 0.65906918 0.32830715
-0.28867963 -0.43255055 0.36639261
-0.22268128 -0.45237678 0.35494661
-0.3525455 -0.39933637 0.36033964
-0.43956277 -0.34605077 0.36512184
-0.39180571 -0.36428392 0.33795977
-0.4799237 -0.30149597 0.35115147
-0.45917317 -0.32336995 0.35489464
-0.52475417 -0.25929582 0.35991383
-0.5017339 -0.28017554 0.35278416
-0.54526669 -0.22670764 0.35531807
-0.56568468 -0.18340938 0.35062027
-0.56817496 -0.14084759 0.36140347
-0.55019152 -0.10906503 0.37737894
-0.50062567 -0.08670111 0.34745169
-0.48209521 -0.065482423 0.36200094
-0.16900185 0.3647013 0.35546398
-0.20157427 0.40822122 0.35887575
-0.25566062 0.63478613 0.36080027
-0.25631461 0.66840541 0.36620712
-0.22085238 0.66145122 0.33797646
-0.13593295 0.66323912 0.34523392
-0.31825829 -0.4409849 0.42405748
-0.25247401 -0.46343324 0.4267621
-0.4049609 -0.39581865 0.41563749
-0.3600561 -0.41691273 0.40933609
-0.4704046 -0.3516089 0.41325569
-0.42159942 -0.37014419 0.38554001
-0.50067192 -0.31734994 0.4002924
-0.54512215 -0.27391741 0.40359735
-0.5777216 -0.23018272 0.40274143
-0.59787858 -0.18600821 0.39557123
-0.59970176 -0.14262153 0.40321112
-0.58187258 -0.11039956 0.42071581
-0.53105956 -0.087664217 0.38916683
-0.5125069 -0.066138655 0.40461588
-0.20557174 0.37070858 0.39882088
-0.22753862 0.40362495 0.40001678
-0.22911853 0.43878567 0.41467667
-0.29441312 0.65731782 0.41020441
-0.27357131 0.63742447 0.41900301
-0.29403087 0.67852384 0.40728331
-0.25170988 0.70369428 0.42014503
-0.21893528 0.70425451 0.42234993
-0.43598166 -0.40251011 0.46677065
-0.3905279 -0.42424405 0.46224403
-0.50257075 -0.35750327 0.46430349
-0.45229247 -0.37611583 0.43402338
-0.53283131 -0.32240847 0.44898605
-0.5781312 -0.27825987 0.45263386
-0.61129123 -0.23377302 0.45177555
-0.63152486 -0.1887852 0.44360828
-0.63201982 -0.14441571 0.44561768
-0.61367971 -0.11166386 0.46178436
-0.56296164 -0.088713124 0.43458176
-0.54667622 -0.067015991 0.46161938
-0.25716192 0.38020575 0.46736097
-0.2315788 0.37606889 0.43750525
-0.25396091 0.40958515 0.43963909
-0.30070224 0.64649087 0.45826292
-0.32221222 0.67855877 0.45259285
-0.27541465 0.70720613 0.43396902
-0.3493709 -0.45006534 0.4861412
-0.28435645 -0.4757202 0.50656796
-0.53591764 -0.36361724 0.51725054
-0.48432729 -0.38246834 0.48559999
-0.57764798 -0.31642857 0.5003686
-0.5558058 -0.33943698 0.50397491
-0.62482339 -0.27187651 0.5084815
-0.60090411 -0.29406357 0.50312519
-0.64209425 -0.22499011 0.48651552
-0.66732985 -0.19188528 0.49723196
-0.66693699 -0.14653495 0.49568653
-0.63626254 -0.1017523 0.50897646
-0.59412569 -0.089618325 0.473773
-0.6032204 -0.045091681 0.51315451
-0.58718729 -0.044982325 0.50244808
-0.53317195 -0.045023035 0.5042367
-0.5891391 0.011558894 0.50113916
-0.54490739 0.00028654002 0.50604439
-0.62550902 0.045730244 0.51135492
-0.58841532 0.056729529 0.49796629
-0.54473168 0.056925829 0.50522375
-0.62520611 0.10244881 0.51008558
-0.58856201 0.10196179 0.49861574
-0.53844559 0.10007308 0.50775433
-0.62616557 0.13670389 0.51410675
-0.58949643 0.14741549 0.50271988
-0.53985047 0.13640824 0.50904608
-0.60283399 0.1819731 0.51148129
-0.57896423 0.18161184 0.50626469
-0.54216492 0.1743665 0.51094532
-0.56526351 0.21235499 0.51274443
-0.53577089 0.20506781 0.51654482
-0.28261298 0.38367733 0.49241209
-0.28149495 0.41616017 0.48333454
-0.2625618 0.454862 0.51412487
-0.3526704 0.64677668 0.50870085
-0.31189808 0.6393801 0.50114107
-0.42275199 -0.43234217 0.52068806
-0.38240784 -0.46006587 0.55451536
-0.51827097 -0.389507 0.54274607
-0.4691461 -0.41016281 0.52524662
-0.62497824 -0.31060702 0.55743313
-0.65112996 -0.25032687 0.52319527
-0.67956299 -0.22906922 0.54538774
-0.70083827 -0.17133175 0.53892708
-0.68217981 -0.11455564 0.55568886
-0.65866202 -0.091466069 0.55377197
-0.63109255 -0.068142012 0.53475237
-0.65971345 -0.02237366 0.55804014
-0.62994415 -0.033813585 0.52994013
-0.48527309 -0.037615165 0.53019476
-0.65682197 0.00059954822 0.54630184
-0.62721193 0.00038562901 0.51849127
-0.51328254 -0.010996858 0.51782274
-0.4783797 -0.0071299905 0.53404713
-0.45266601 -0.022373389 0.56100416
-0.65434593 0.034857687 0.53625059
-0.51343358 0.034527201 0.5185771
-0.4821935 0.034825552 0.53408003
-0.65352774 0.080544591 0.53292942
-0.51325208 0.068637654 0.51767015
-0.48236486 0.08061792 0.5350256
-0.65507549 0.12661047 0.53921175
-0.51325971 0.13689792 0.5177083
-0.48208526 0.12630728 0.53352022
-0.65921938 0.17355904 0.55603456
-0.62850082 0.17144927 0.52389193
-0.51382941 0.17121857 0.52055454
-0.48169902 0.17192791 0.53141832
-0.45125404 0.18485121 0.55302954
-0.62032253 0.21815306 0.5374074
-0.58156157 0.22792654 0.51789951
-0.52193075 0.22076869 0.52312183
-0.48274931 0.21809803 0.53696966
-0.45012358 0.21888101 0.54664421
-0.6111002 0.25339496 0.54727507
-0.57307249 0.26334089 0.5309763
-0.52678388 0.26306757 0.52828932
-0.48402491 0.26455328 0.5437541
-0.45196137 0.26583514 0.55702448
-0.56486201 0.29921785 0.54599094
-0.52998918 0.31049594 0.54393339
-0.4855198 0.31134722 0.55167532
-0.52228326 0.34722906 0.56279325
-0.49854401 0.34681988 0.55947208
-0.29998502 0.36737576 0.54022503
-0.3095023 0.39966118 0.52550697
-0.33674189 0.46186632 0.5574522
-0.30181184 0.44897476 0.52470875
-0.33618602 0.49576575 0.55344009
-0.30530581 0.49169981 0.55205345
-0.26793182 0.48546368 0.5606308
-0.34824768 0.54253095 0.55726862
-0.34643605 0.58604711 0.54458523
-0.31360331 0.58854699 0.55684423
-0.3438319 0.61655325 0.52624464
-0.30013704 0.6199069 0.54180431
-0.25476858 0.64390296 0.54654121
-0.45685914 -0.44121045 0.58468676
-0.50396562 -0.41832843 0.58764362
-0.58214849 -0.35844818 0.57257271
-0.66232133 -0.27696919 0.5686264
-0.70817745 -0.1380349 0.56696892
-0.66331983 -0.068726137 0.57268047
-0.43365809 -0.068916917 0.58508635
-0.41410306 -0.069270879 0.60807753
-0.6623407 -0.045519114 0.56870556
-0.44424018 -0.045601245 0.57934952
-0.44191214 -0.0068717347 0.58833075
-0.68948776 0.035773307 0.58445644
-0.44592622 0.035894409 0.58899546
-0.68830889 0.082173884 0.57981586
-0.44667712 0.082639307 0.59325027
-0.69192123 0.11767042 0.5940361
-0.44742981 0.12951253 0.59759188
-0.44239458 0.17197831 0.59119511
-0.66531032 0.21001111 0.58076048
-0.43257084 0.22140753 0.57866621
-0.41415223 0.23558857 0.60838175
-0.62976873 0.26779181 0.5777421
-0.43059501 0.26679036 0.56699944
-0.40374315 0.27312464 0.59234715
-0.62422115 0.30547944 0.60408974
-0.5873282 0.31820938 0.57828426
-0.44293389 0.31356677 0.57157755
-0.40018767 0.31610909 0.59436464
-0.57814401 0.35274944 0.60761166
-0.53835291 0.36164227 0.58509731
-0.48572335 0.36396909 0.57306337
-0.44438323 0.36096567 0.5799284
-0.40483019 0.35948288 0.59903383
-0.48255727 0.39828506 0.59783649
-0.44714704 0.39800498 0.59581518
-0.41363832 0.39930594 0.6052022
-0.3375392 0.43969327 0.56320572
-0.36214119 0.51081747 0.57345247
-0.29197583 0.50992823 0.56842947
-0.25520083 0.50511026 0.58484888
-0.30390188 0.54520732 0.57141161
-0.2716884 0.54931504 0.59316349
-0.29221416 0.59130555 0.570364
-0.27072078 0.59424853 0.58478451
-0.26821324 0.6244905 0.56306887
-0.42097685 -0.49789521 0.65059805
-0.49253234 -0.45051348 0.65182829
-0.44352064 -0.47305492 0.64332247
-0.41464764 -0.46839264 0.61144638
-0.5549221 -0.39762852 0.60868549
-0.39314517 -0.06952025 0.62425613
-0.37139487 -0.069711983 0.63672018
-0.40063342 -0.038067766 0.62203741
-0.35691595 -0.038189542 0.64608765
-0.40776131 -0.0066858232 0.61745834
-0.36429688 -0.0065531768 0.64239645
-0.40412885 0.036465403 0.61930752
-0.3606146 0.036947433 0.64430094
-0.40448794 0.083616257 0.6215682
-0.36076692 0.084436819 0.64536333
-0.40479168 0.13081729 0.623528
-0.36464268 0.12791829 0.64476204
-0.40503919 0.17805949 0.62512064
-0.37278262 0.17944178 0.64620829
-0.40125093 0.22136755 0.62601757
-0.37319773 0.22714996 0.64904642
-0.39327765 0.26058573 0.62511683
-0.3721244 0.2739602 0.64170837
-0.35852307 0.32003373 0.62973976
-0.55745238 0.37792856 0.62085915
-0.39077294 0.37635615 0.60884857
-0.35750866 0.36634994 0.62241364
-0.32514301 0.35735732 0.64502335
-0.53845912 0.40462783 0.64361238
-0.50038308 0.41471565 0.63072443
-0.4526737 0.42600343 0.62756824
-0.40066877 0.41737294 0.62213135
-0.3584578 0.41441831 0.62895536
-0.38893044 -0.5376187 0.67492199
-0.39824578 -0.49894023 0.65738535
-0.32780287 -0.034317806 0.66534805
-0.32789785 0.0015217997 0.66607475
-0.3276501 0.03732717 0.66418123
-0.32772306 0.085111052 0.66473866
-0.35014582 0.14425226 0.65418673
-0.32797778 0.13297755 0.6666851
-0.35078788 0.18026607 0.65882015
-0.32874665 0.18116491 0.67256069
-0.35124984 0.22820948 0.66215372
-0.32165033 0.23363714 0.67965412
-0.35070106 0.27554789 0.65819311
-0.31795755 0.27785456 0.68210888
-0.31639439 0.3245101 0.66980696
-0.2749742 0.33091548 0.6911869
-0.3038834 0.35983086 0.66510677
-0.26905885 0.37292802 0.67433596
-0.43656257 0.4565587 0.67275047
-0.39890721 0.4548547 0.66168213
-0.37523624 0.45505482 0.66298437
-0.33531049 -0.58199263 0.72271776
-0.38179696 -0.53092486 0.70783997
-0.38184753 -0.50676161 0.70818567
-0.28449872 0.29206973 0.70410442
-0.23576275 0.38835111 0.70050669
-0.31394762 -0.58625954 0.74681759
0 0 0 1 0 0 0 1 0 0 0 1 0 0 0 0 0 1107 1 0 0
