ply
format ascii 1.0
comment PCL generated
element vertex 580
property float x
property float y
property float z
element camera 1
property float view_px
property float view_py
property float view_pz
property float x_axisx
property float x_axisy
property float x_axisz
property float y_axisx
property float y_axisy
property float y_axisz
property float z_axisx
property float z_axisy
property float z_axisz
property float focal
property float scalex
property float scaley
property float centerx
property float centery
property int viewportx
property int viewporty
property float k1
property float k2
end_header
0.11423098 -0.084153287 -0.36117744
0.14880438 -0.098173618 -0.3665967
0.19179815 -0.10219105 -0.36163855
0.10353372 -0.040833905 -0.3653717
0.14691962 -0.043422777 -0.37534094
0.19179259 -0.04982888 -0.36612654
0.098200314 0.013150215 -0.36755848
0.14698355 0.012966696 -0.37948895
0.18841945 0.0084911995 -0.36967707
-0.039648145 0.086135253 -0.36439466
0.10353195 0.067206144 -0.36530352
0.14694144 0.069403686 -0.37715387
0.19215414 0.073088326 -0.36668682
-0.052162498 0.13678591 -0.37338829
0.11420545 0.1188312 -0.3603487
0.14823809 0.1324691 -0.36620378
0.19393307 0.13267086 -0.36306381
-0.047243476 0.17890027 -0.36914587
0.20413584 -0.21924825 -0.30461407
0.26257402 -0.21934113 -0.30360889
0.10146503 -0.16353205 -0.30744791
0.14759783 -0.17403325 -0.32366419
0.20382997 -0.17548992 -0.33431387
0.27043486 -0.17676076 -0.31613588
0.32967347 -0.1697315 -0.29768562
0.041594461 -0.098449573 -0.30389071
0.086783774 -0.11156501 -0.32927704
0.1424472 -0.12933831 -0.35088968
0.21884684 -0.11718382 -0.34858513
0.26816463 -0.11402463 -0.31441069
0.3375614 -0.11094346 -0.30374336
0.38912636 -0.10273556 -0.3005867
0.027543038 -0.043470129 -0.3193779
0.071623988 -0.047295358 -0.34444952
0.22287521 -0.038335614 -0.34220648
0.25126851 -0.049709596 -0.30931091
0.34875154 -0.047489092 -0.30991125
0.39701772 -0.046460062 -0.30846882
0.43015355 -0.035950713 -0.2963872
-0.031057164 0.019465279 -0.31442976
0.021077529 0.011072213 -0.33501148
0.064944841 0.013417803 -0.3503232
0.2201495 0.013528112 -0.3425765
0.2456788 0.014036164 -0.30993652
0.35827035 0.0099442247 -0.30556154
0.39365703 0.010723596 -0.31018066
0.42964941 0.0058305338 -0.30075359
-0.08245407 0.075365335 -0.3006258
-0.044706121 0.062642239 -0.34234047
0.028381348 0.062940307 -0.33637524
0.071715072 0.074221179 -0.34620428
0.22280541 0.065294147 -0.34517479
0.25391796 0.072054304 -0.31313372
0.36300713 0.047633037 -0.29894352
0.3962307 0.064290397 -0.30097151
0.430121 0.056073338 -0.29666901
-0.084358171 0.13725214 -0.33045435
0.046775192 0.12146311 -0.32024527
0.085164934 0.13935113 -0.33449268
0.13020623 0.16030073 -0.34998417
0.2248686 0.14070007 -0.3500185
0.26456973 0.13991822 -0.3198247
-0.087555334 0.18082289 -0.30449629
-0.034033135 0.20218378 -0.3395896
-0.0030001551 0.2291901 -0.3187232
0.096134223 0.19661143 -0.31374407
0.14619127 0.20327744 -0.33015347
0.20375557 0.2021614 -0.34055567
0.27026978 0.20419875 -0.32036018
0.31299222 0.20660952 -0.29693651
0.011957139 0.23159501 -0.29789734
0.087197706 0.23153692 -0.2984004
0.14571014 0.24827212 -0.29825449
0.20771265 0.25446248 -0.3061595
0.2673395 0.25475967 -0.30374718
0.31301397 0.23174697 -0.29658222
0.22214705 -0.2771737 -0.23604488
0.27359736 -0.27665013 -0.24057722
0.090041474 -0.22482772 -0.24430275
0.14731535 -0.2378749 -0.26477003
0.20446312 -0.24738912 -0.27483177
0.2747373 -0.24409227 -0.27955151
0.33242437 -0.24059786 -0.25863409
0.38048333 -0.22481376 -0.2444334
-0.0099122375 -0.15672991 -0.23709536
0.027704969 -0.17068173 -0.25381136
0.079683296 -0.18634705 -0.27544451
0.1288051 -0.20387462 -0.28931427
0.35336125 -0.19341809 -0.28038406
0.39820406 -0.17544745 -0.26483154
0.44243884 -0.16230153 -0.23969555
-0.028984308 -0.11230393 -0.24335623
0.013187543 -0.11448899 -0.27476549
0.28829351 -0.086366072 -0.28931475
0.40811795 -0.12360778 -0.28326845
0.45037651 -0.11067894 -0.2560606
-0.079047963 -0.019218154 -0.2338047
-0.043926135 -0.047141932 -0.25692415
-0.0058864951 -0.061294541 -0.28463793
0.28393984 -0.041146521 -0.27544212
0.3208189 -0.042809077 -0.27915478
0.46278983 -0.047095601 -0.26673889
-0.081761405 0.019248351 -0.24754381
-0.044577897 -0.0023017619 -0.27703857
0.28070492 0.014587224 -0.27331686
0.32839775 0.01291126 -0.26059008
0.46728337 0.014668014 -0.26911163
-0.1042027 0.072936423 -0.25267553
0.28905734 0.073700003 -0.27450371
0.33926171 0.076214679 -0.25633192
0.3972159 0.098195836 -0.29106998
0.46280569 0.076511204 -0.2664628
-0.10847919 0.1330758 -0.27199125
0.29697001 0.13220741 -0.28383303
0.34058177 0.14211534 -0.2633028
0.39897367 0.14148958 -0.27347565
0.45347863 0.13572706 -0.25615692
-0.073855385 0.20006701 -0.27877474
-0.023688316 0.20895766 -0.27404118
-0.0081760734 0.21921717 -0.25759935
0.061514691 0.19928107 -0.28666782
0.34490204 0.19883955 -0.27410173
0.40131849 0.20292941 -0.25040197
0.44541854 0.1869234 -0.23861408
-0.022875503 0.23333359 -0.28284025
0.035443962 0.2428427 -0.27393246
0.088766158 0.26331493 -0.26865435
0.14528196 0.27702323 -0.2713275
0.19940172 0.28087348 -0.28007555
0.27692831 0.28079754 -0.28057575
0.3382197 0.25975317 -0.26905394
0.38780409 0.2551516 -0.2425561
0.16198397 0.30723971 -0.23799562
0.20474802 0.30526698 -0.25148439
0.27297321 0.30475581 -0.25497961
0.32530737 0.30739996 -0.23690128
0.099852443 -0.28350776 -0.18119001
0.14761302 -0.28921726 -0.19298124
0.19953379 -0.29250002 -0.20448589
0.27559263 -0.29950091 -0.19439173
0.33569655 -0.27999458 -0.21161461
0.37336123 -0.2840299 -0.17666674
-0.020862401 -0.21925716 -0.17736769
0.02395463 -0.22693077 -0.19873762
0.07666596 -0.25249904 -0.20478249
0.12737784 -0.26089627 -0.22751093
0.40363234 -0.2437166 -0.20802402
0.4482947 -0.21814205 -0.19009352
-0.0859804 -0.1606297 -0.173769
-0.039317384 -0.17648919 -0.20043278
0.0061776638 -0.19220674 -0.22281933
0.46399909 -0.18197452 -0.20507288
0.49564856 -0.15987705 -0.185987
-0.098001614 -0.10901424 -0.18842649
-0.05784677 -0.12042777 -0.2172761
0.48465532 -0.11146417 -0.22369576
0.51018888 -0.11702169 -0.18994474
-0.13876547 -0.045749657 -0.17553091
-0.10162462 -0.050613645 -0.20508862
0.52549678 -0.04193474 -0.19850063
-0.14543085 0.019598473 -0.17858362
-0.107581 0.0068473537 -0.2126689
0.52872193 0.015716873 -0.20049143
-0.14280339 0.074371979 -0.18900681
-0.11510403 0.050021723 -0.22136831
0.52233446 0.073818035 -0.20389557
-0.13618053 0.13854903 -0.19418621
0.028887376 0.15755714 -0.17362547
0.49101317 0.14538859 -0.21944046
0.52005619 0.13540433 -0.18769836
-0.11418281 0.17059602 -0.22840738
-0.039870009 0.21728292 -0.19452
0.025151074 0.20293994 -0.19640875
0.058375284 0.20510727 -0.22840738
0.46471262 0.20675297 -0.21240234
0.49963915 0.18712187 -0.1890378
-0.032105759 0.25655112 -0.18333769
0.017751873 0.27305734 -0.20352697
0.092819542 0.29162896 -0.22665691
0.40461528 0.27269286 -0.21749496
0.45460922 0.25621781 -0.18652201
0.029063106 0.29859704 -0.17637014
0.08571355 0.31093144 -0.19316864
0.14078541 0.3227129 -0.20417547
0.20538396 0.33965766 -0.19640398
0.26940256 0.3315897 -0.21438789
0.34099177 0.32629362 -0.19768953
0.39885244 0.30577713 -0.18781185
-0.019892097 -0.27256486 -0.11923981
0.020164102 -0.29025179 -0.12300444
0.078937903 -0.29848158 -0.14481974
0.13859582 -0.32147461 -0.1263442
0.20610684 -0.32476798 -0.1351757
0.26064697 -0.32689998 -0.11888409
0.33070588 -0.30441839 -0.15446711
-0.087204531 -0.22234462 -0.12457752
-0.042238548 -0.24066894 -0.13821125
0.018982321 -0.26245749 -0.1580472
0.4654963 -0.23400269 -0.14512062
-0.15120541 -0.15955445 -0.11845922
-0.11032636 -0.1830495 -0.13840103
-0.069541261 -0.19686592 -0.16228819
0.52046645 -0.17185056 -0.13705206
0.5599004 -0.14612979 -0.11482
-0.16243987 -0.10913555 -0.13512421
-0.11719643 -0.13776135 -0.16023636
0.54107112 -0.10819566 -0.15800285
0.57855165 -0.11174177 -0.12540674
-0.20104338 -0.046420056 -0.11806774
-0.16935165 -0.046064444 -0.14852571
0.55252314 -0.063680902 -0.16045523
0.58574158 -0.050056554 -0.13032007
-0.21172251 0.011812203 -0.11630583
-0.17313762 0.012020856 -0.15292597
0.57423884 0.0077663567 -0.13720942
-0.20032166 0.071156107 -0.12253237
-0.17058222 0.077098697 -0.15225029
0.010396734 0.10512748 -0.16243792
0.55326217 0.087692969 -0.15588331
0.57747543 0.071338698 -0.11809826
-0.2023351 0.1170423 -0.11007738
-0.17279352 0.13752706 -0.13419437
0.013334557 0.14069448 -0.16201925
0.53527719 0.15883735 -0.15699291
0.5564391 0.13351394 -0.13623095
-0.15309401 0.19388816 -0.12445974
-0.11085959 0.21280138 -0.15167236
0.0016035289 0.17610034 -0.1633997
0.523251 0.20289333 -0.14256001
-0.096769437 0.25674254 -0.1250515
-0.045797855 0.27357516 -0.15098858
0.47730988 0.27898049 -0.12251329
-0.025741756 0.3122786 -0.12138462
0.023515433 0.32508925 -0.13676739
0.072418071 0.33076423 -0.15842152
0.16135208 0.35487384 -0.15591049
0.27698618 0.35417849 -0.16021061
0.39375746 0.32955527 -0.1466651
0.088783093 0.36021248 -0.12288475
0.13438588 0.3568213 -0.14386272
0.18826175 0.38083327 -0.1078124
0.31441426 0.35931543 -0.12843466
0.030599132 -0.33481544 -0.058398247
0.068548001 -0.33263576 -0.075054169
0.15127175 -0.35391328 -0.05454874
0.18850657 -0.35452136 -0.050161839
-0.090254799 -0.2793133 -0.056622982
-0.041927978 -0.29256883 -0.076683044
0.014196143 -0.31236273 -0.089965343
0.096645027 -0.33089179 -0.088381767
0.28845674 -0.3288756 -0.10378838
-0.15530075 -0.23289964 -0.056374073
-0.10568069 -0.24587233 -0.083074093
-0.2157159 -0.16326977 -0.056116104
-0.17734654 -0.18258789 -0.079955101
0.58665717 -0.15877064 -0.085455418
0.63839209 -0.15623853 -0.064840794
-0.22368325 -0.10899626 -0.07824707
0.61678994 -0.10127859 -0.10129404
0.64603174 -0.11414948 -0.071843147
-0.26761824 -0.047187917 -0.05171299
-0.23404013 -0.055969059 -0.084599495
0.61673355 -0.064792186 -0.10159969
0.6430912 -0.049256504 -0.071839809
-0.26563323 0.017845348 -0.062457085
-0.24335097 0.008325167 -0.083631516
0.60040689 0.00829296 -0.090838432
0.64394343 -0.019217968 -0.054948807
-0.26671225 0.073703833 -0.05661726
-0.23313998 0.072418816 -0.089795113
-0.2687121 0.11141299 -0.04579258
-0.2285697 0.13852876 -0.074946404
0.57257903 0.13617399 -0.093241692
-0.21484508 0.19866996 -0.061460495
-0.1826859 0.20525204 -0.090030193
-0.16095732 0.25497958 -0.072792053
-0.11308654 0.27307978 -0.097024441
0.50800651 0.25481573 -0.096800804
-0.13709868 0.29704639 -0.053298473
-0.09854655 0.31404495 -0.065119743
-0.045310423 0.33417776 -0.07949543
0.0057338178 0.345851 -0.098810673
0.027643144 0.37237042 -0.070732594
0.087005518 0.38603923 -0.07707262
0.14269473 0.38180265 -0.10208797
0.22487849 0.38284191 -0.095952034
0.26229429 0.3869907 -0.071453571
-0.029049769 -0.34086668 -0.012157917
0.02730979 -0.3607454 -0.0052442551
0.085210636 -0.35736552 -0.029635429
0.12300708 -0.35617176 -0.038251877
0.22621834 -0.3577866 -0.026596546
0.31133881 -0.34020936 -0.017181396
-0.15405528 -0.28575736 0.0031733513
-0.10439391 -0.30279255 -0.014504433
-0.055511281 -0.31956032 -0.031529903
-0.21451123 -0.22363779 -0.011489391
-0.16546972 -0.25994545 -0.017448902
-0.27200067 -0.171731 0.0063652992
-0.24452849 -0.16987231 -0.023899555
0.60205424 -0.18838972 -0.028222084
0.65244377 -0.18322936 -0.035257816
0.70918995 -0.17068221 -0.011383057
0.75411838 -0.15337378 0.019613266
-0.28941935 -0.11131307 -0.0074672699
-0.25104189 -0.13144639 -0.040193081
0.70696175 -0.11344165 -0.02180624
0.75324166 -0.13403328 0.015817165
-0.33786279 -0.019218154 0.017552853
-0.30168802 -0.051705018 -0.013788223
0.70517045 -0.068400592 -0.012612343
-0.33708817 0.019023597 0.01382494
-0.30215502 0.013010062 -0.025134087
-0.33765024 0.057347573 0.01652956
-0.30182981 0.075108148 -0.019928455
-0.29416239 0.13220949 -0.010975838
-0.25113285 0.16786802 -0.03967905
-0.28219563 0.18532559 0.0013408661
-0.24685223 0.21077877 -0.0214715
-0.22274376 0.26564258 -0.0035953522
-0.18629317 0.27127656 -0.035406113
-0.15812011 0.31813106 -0.0084667206
-0.11331521 0.33925515 -0.019105911
-0.064154461 0.35512087 -0.038599014
-0.096145406 0.36046401 -0.0038962364
-0.038731605 0.38340244 -0.0088963509
0.018955812 0.39534292 -0.022135258
0.10335632 0.41668737 -0.0080118179
0.14148259 0.41405892 -0.022857666
0.17916597 0.41605365 -0.011593342
0.045018405 0.42155218 0.01946497
0.074240223 0.41951698 0.0079689026
0.19826218 0.41999429 0.010665894
-0.10266878 -0.34960005 0.054577351
-0.042835742 -0.3618885 0.037631035
0.032485649 -0.39077815 0.070368767
0.081812181 -0.38903311 0.058437824
0.1403864 -0.38821873 0.052868843
0.25668991 -0.36807585 0.047659397
-0.21598183 -0.27836016 0.054402828
-0.17071278 -0.31079644 0.054785252
-0.11969881 -0.32766691 0.03428793
-0.2757836 -0.22927 0.055464268
-0.2385966 -0.24418482 0.034604549
0.67119396 -0.21218766 0.036743641
0.71939039 -0.21702774 0.036227226
0.76373672 -0.22383919 0.061234951
-0.32828897 -0.16563343 0.065393925
-0.29939753 -0.17877862 0.041701794
0.77026492 -0.17760934 0.039187431
0.80568284 -0.16606392 0.073338509
-0.34626985 -0.11650535 0.057772636
-0.32089996 -0.11538484 0.028476238
0.77074504 -0.11198915 0.041156769
0.80667412 -0.12705347 0.077362537
-0.35454464 -0.052419223 0.044333935
0.76755559 -0.078057215 0.077798843
-0.38926029 0.010158494 0.076228142
-0.36256796 0.019475471 0.043328285
-0.38908792 0.059161462 0.075456619
-0.35393912 0.081204318 0.038911819
-0.35345709 0.13241148 0.054958344
-0.32058221 0.15377136 0.026888371
-0.3318553 0.19008559 0.058781147
-0.30251801 0.20238999 0.032899857
-0.28716785 0.25279605 0.053655624
-0.24658372 0.29041842 0.043928623
-0.27119392 0.29407582 0.073626041
-0.22355352 0.31549749 0.05056715
-0.18212028 0.3421011 0.044138908
-0.15355049 0.37875235 0.072392464
-0.10140841 0.38733077 0.044407845
-0.04280968 0.40535575 0.036985397
-0.016727239 0.43133625 0.074724197
0.01435101 0.42661408 0.048053265
-0.03043212 -0.39843616 0.12272549
0.17916597 -0.3968311 0.11175251
-0.2000014 -0.33851704 0.12238026
-0.15720628 -0.34902203 0.10036182
-0.098412469 -0.37596044 0.10456181
0.0019665509 -0.39330584 0.087650299
-0.26952636 -0.28846049 0.12061977
-0.23755138 -0.30212414 0.10803938
-0.33888835 -0.21846981 0.11835194
-0.30942416 -0.23718126 0.1032033
0.71665823 -0.23819643 0.11600733
0.78792697 -0.25086886 0.10873604
0.82291698 -0.22493747 0.11615705
-0.36085761 -0.17823645 0.1118989
0.82840168 -0.18273565 0.10503864
-0.4062534 -0.1143177 0.12980795
-0.37379783 -0.12786496 0.095428944
0.83873105 -0.12909071 0.12636042
-0.40685308 -0.058979932 0.11024332
-0.41665858 0.01054522 0.1099925
-0.4078238 0.083881922 0.10580063
-0.40340137 0.13514413 0.11710835
-0.37198013 0.1579359 0.086995602
-0.39388257 0.2019635 0.14197779
-0.36595327 0.19881837 0.10486507
-0.34419084 0.24577045 0.11155176
-0.31759268 0.27883685 0.11123085
-0.27843297 0.31905052 0.11465263
-0.23418666 0.3350842 0.086953163
-0.21943854 0.36603823 0.11863327
-0.15863372 0.39806375 0.11125994
-0.097391531 0.41537184 0.096130371
-0.11989169 0.41939971 0.11991167
-0.049318582 0.43764701 0.11036634
-0.097598687 -0.40869612 0.19287395
-0.063255504 -0.40305206 0.15428591
-0.22810899 -0.35181373 0.1751442
-0.16593371 -0.37791908 0.16724396
-0.33371049 -0.28591371 0.1949811
-0.29366475 -0.3039639 0.17171717
0.82611156 -0.28620344 0.19787455
-0.39484972 -0.22422378 0.19309711
-0.35192341 -0.2462461 0.16300249
0.77632856 -0.26632002 0.20495129
0.84257561 -0.25616354 0.16801643
0.87711084 -0.22449616 0.19663477
-0.41274625 -0.18251331 0.18123341
0.86609554 -0.17074266 0.15454865
0.87097114 -0.20234281 0.17317724
-0.45706803 -0.11159869 0.19610023
-0.43082094 -0.13108806 0.1713171
0.8711502 -0.14133321 0.17386103
-0.45954108 -0.049846631 0.17771435
-0.4757365 0.011466753 0.18856907
-0.44551718 0.021075573 0.14769745
-0.46621889 0.086963542 0.18279266
-0.44595832 0.061442941 0.14954519
-0.45480269 0.14446639 0.18660784
-0.42703956 0.15257329 0.15494347
-0.42306215 0.20533586 0.18174744
-0.39285874 0.25664529 0.1838603
-0.36144876 0.27812177 0.16336441
-0.33687663 0.31352067 0.17600822
-0.3018927 0.33991414 0.17028618
-0.26913512 0.36795101 0.17708778
-0.22872524 0.39547503 0.17921305
-0.1836461 0.4040623 0.14836645
-0.1573786 0.42939943 0.17895746
-0.095004454 0.44776323 0.16750383
-0.21974523 -0.39713386 0.25736904
-0.15814205 -0.41977158 0.26859665
-0.13314216 -0.41480851 0.23466396
-0.3252216 -0.33446044 0.26007462
-0.27091223 -0.36474124 0.24977684
-0.23451172 -0.3708443 0.21691227
-0.19403605 -0.39242026 0.22335052
-0.35370201 -0.30135301 0.24466276
-0.29626882 -0.32928428 0.21524811
0.80919015 -0.29222867 0.25808144
-0.45207572 -0.20859046 0.26335335
-0.41369295 -0.2376098 0.23216438
-0.38152397 -0.26841375 0.22761726
-0.46943045 -0.16567537 0.2479043
-0.44268441 -0.18504496 0.2226882
-0.48121196 -0.12344247 0.23883772
-0.51219696 -0.040219355 0.25153303
-0.48273379 -0.081271276 0.21697521
-0.50729674 0.022377059 0.23224354
-0.51089597 0.085336536 0.24641037
-0.50872129 0.064162008 0.23785067
-0.51359761 0.10673852 0.25704575
-0.4853369 0.1365575 0.22754145
-0.4802196 0.19009641 0.24908543
-0.44366938 0.22991592 0.22695255
-0.45116502 0.25392547 0.2594099
-0.41703153 0.272019 0.23174191
-0.37248194 0.32427859 0.23424578
-0.33454084 0.36871943 0.25388145
-0.28866857 0.38629127 0.23120403
-0.23533054 0.41600332 0.22223043
-0.19618236 0.43954098 0.2388401
-0.13138087 0.4569535 0.21941137
-0.24969654 -0.40519446 0.31554079
-0.18487971 -0.42609268 0.31181479
-0.35689598 -0.34085521 0.31545591
-0.29929316 -0.37018794 0.29271269
-0.40684885 -0.2856198 0.29830027
-0.37868994 -0.31960201 0.31721258
0.80385548 -0.29925153 0.32825756
-0.47256124 -0.22216965 0.3056469
-0.43714291 -0.25299037 0.29071665
-0.52977085 -0.15888733 0.32071209
-0.49682629 -0.17363442 0.29569721
-0.53579897 -0.10463978 0.30219603
-0.57398129 -0.040736668 0.32532978
-0.54376489 -0.04052344 0.292099
-0.55810589 0.0063041132 0.2978282
-0.55573273 0.065998919 0.29692411
-0.57293385 0.10971338 0.32144356
-0.53456771 0.1337253 0.28926611
-0.53223705 0.18941674 0.30930614
-0.50153261 0.21477202 0.29328871
-0.48293179 0.25847957 0.30437803
-0.4164021 0.32113668 0.29317808
-0.37800086 0.36651298 0.31376934
-0.30965126 0.4058404 0.29083204
-0.26578528 0.42573294 0.28241825
-0.22517376 0.44896486 0.29448462
-0.15868343 0.4664402 0.27299166
-0.010784775 0.48731738 0.27169943
-0.28356618 -0.41584569 0.3924098
-0.21457116 -0.43482989 0.37154913
-0.39063966 -0.34795228 0.37691641
-0.3327086 -0.37874895 0.35996819
-0.45888329 -0.28752208 0.35556507
-0.4244231 -0.31741485 0.3640089
0.78802818 -0.29110143 0.35476494
-0.51543075 -0.22547153 0.34970808
-0.48459625 -0.25010324 0.34161186
-0.54719102 -0.17099464 0.34661007
-0.58604205 -0.095797308 0.3700943
-0.59581488 -0.051855009 0.36547279
-0.61426389 0.0028317794 0.39304066
-0.61465263 0.068983935 0.39444256
-0.58305264 0.14420524 0.35899973
-0.52528065 0.25165537 0.34550285
-0.46865106 0.32429951 0.35394001
-0.42871869 0.34985444 0.35023022
-0.41188216 0.38209894 0.37357235
-0.3528167 0.4042922 0.35095549
-0.29678756 0.43510127 0.34036827
-0.36886573 -0.39944574 0.43546724
-0.31347507 -0.42228818 0.43890333
-0.40768528 -0.36253032 0.40694332
-0.3724097 -0.3722266 0.39606762
0.77292591 -0.29386675 0.42265081
-0.56030566 -0.22089225 0.44091129
0.7601099 -0.26500225 0.43256712
-0.57424611 -0.17433223 0.40855885
-0.5989486 -0.13037735 0.41799688
-0.62027645 -0.063631684 0.41473579
-0.61590153 0.069141112 0.39894962
-0.61623859 0.11334918 0.40016556
-0.58617622 0.20378491 0.42579985
-0.5301587 0.29111141 0.40949535
-0.41706353 0.40035099 0.39860773
-0.35381144 0.43979916 0.41500187
-0.2902481 0.47244981 0.43315792
-0.34075993 -0.42611656 0.46653366
-0.27883559 -0.45431975 0.50480413
-0.25440085 -0.45278513 0.49431133
-0.46984124 -0.34943104 0.48823833
-0.52801371 -0.29296529 0.49339485
-0.50174713 -0.3142806 0.47843695
0.72984403 -0.27161235 0.5106287
0.75963652 -0.30375558 0.48713636
0.72933751 -0.24845612 0.50788736
0.7455256 -0.26841655 0.47288752
-0.61271846 -0.17912923 0.49733782
-0.64037353 -0.11035944 0.48725462
-0.66256237 -0.030599194 0.48523235
-0.6609152 0.014842089 0.47944975
-0.66157651 0.071688339 0.48177052
-0.64704227 0.13995183 0.48390484
-0.64320409 0.18637419 0.49746895
-0.61806011 0.20856072 0.48893118
-0.60106933 0.25617805 0.51109552
-0.23111747 0.50502205 0.49090147
-0.44615674 -0.38977987 0.53858232
-0.55854881 -0.27280724 0.52474451
0.71847087 -0.29354411 0.55004168
0.75573468 -0.31903392 0.52593613
-0.59407562 -0.23850659 0.5284481
0.70277613 -0.25195825 0.55338049
-0.60555559 0.28082263 0.52818251
-0.58439279 0.30471623 0.53572941
-0.5529424 0.34106401 0.54926682
-0.52266449 0.37848607 0.56901169
0.66620302 -0.28058466 0.61658859
0.70019799 -0.31133378 0.60705519
0.65881866 -0.24723841 0.61524248
-0.5029723 0.4041779 0.58559465
-0.44001168 0.45707226 0.62359428
0.63966537 -0.29796785 0.67888594
0.62095296 -0.31374288 0.71831942
0 0 0 1 0 0 0 1 0 0 0 1 0 0 0 0 0 580 1 0 0
