# .PCD v0.7 - Point Cloud Data file format
VERSION 0.7
FIELDS x y z normal_x normal_y normal_z curvature
SIZE 4 4 4 4 4 4 4
TYPE F F F F F F F
COUNT 1 1 1 1 1 1 1
WIDTH 587
HEIGHT 1
VIEWPOINT 0 0 0 1 0 0 0
POINTS 587
DATA ascii
0.066468924 0.024630673 -0.47079128 0.30546623 0.10789964 0.94606984 0.0044687777
0.070799977 0.028365193 -0.47339272 0.25459221 0.067933045 0.96465951 0.014876386
0.082968369 0.025967527 -0.47833863 0.20373966 -0.077376254 0.97596264 0.099547088
0.098321393 0.027267819 -0.47667712 -0.14477925 -0.4445661 0.88396835 0.18965824
0.10664605 0.028575705 -0.47532779 -0.035646509 -0.86707634 0.49689835 0.18243895
0.1435594 0.02499981 -0.47558233 -0.7517274 -0.39957175 0.5246411 0.060603
-0.14180462 0.032954697 -0.47605601 0.64124441 -0.64544576 0.41497645 0.090258345
-0.13536157 0.036270037 -0.47549573 0.22734945 -0.92596507 0.30149788 0.079697274
-0.12507886 0.033514787 -0.4759441 -0.0017316642 -0.95551932 0.29492334 0.068619065
-0.11813256 0.031653538 -0.47343016 0.072495215 -0.9625358 0.26128405 0.062562034
-0.095314816 0.037258722 -0.47341472 0.35079613 -0.11798115 0.92899007 0.21304725
-0.081889004 0.034355327 -0.47939861 0.044211149 0.081200533 0.99571675 0.12256028
-0.075109385 0.034791674 -0.4764781 -0.11416528 0.072665215 0.99080074 0.056079805
-0.065519527 0.034662101 -0.47221622 -0.22086348 0.1265111 0.9670648 0.011759996
0.064124361 0.037540473 -0.47218728 0.21997531 0.14901811 0.96405625 0.011746198
0.072749592 0.032994933 -0.47510436 0.19688815 0.09237083 0.97606492 0.04316413
0.081483848 0.032963987 -0.47896421 0.044016484 0.021822575 0.99879241 0.10454398
0.095092036 0.036694452 -0.47473073 -0.54524773 -0.34797162 0.76264054 0.23116404
0.1165308 0.03122432 -0.4757604 -0.0022126092 -0.94060367 0.33949944 0.080788895
0.12880276 0.034512583 -0.47571334 -0.091379255 -0.94473076 0.31485492 0.088112012
0.13379477 0.035850182 -0.47314161 -0.12390796 -0.95297426 0.27656254 0.085980669
0.14104405 0.035138845 -0.47685599 -0.58939332 -0.65185702 0.47717705 0.091841422
-0.092248254 0.043332517 -0.47500205 0.43679234 0.13465808 0.88942659 0.20329982
-0.089451022 0.046360228 -0.47944993 0.39952034 0.40780574 0.82102251 0.18211852
-0.074827947 0.045559429 -0.47858939 -0.13771011 0.25906011 0.95599365 0.057956841
-0.0655827 0.045311421 -0.47499686 -0.20451085 0.19213681 0.95982224 0.022927912
-0.055250973 0.045950897 -0.47125679 -0.25099042 0.22172572 0.94225341 0.0040556025
0.054874863 0.047241896 -0.47149032 0.24556956 0.21417892 0.94542211 0.005395019
0.06570144 0.045759689 -0.47517267 0.24055758 0.21672213 0.94613087 0.014525936
0.07588467 0.043968905 -0.47869396 0.14051555 0.19384465 0.97091693 0.062116567
0.092705727 0.043233115 -0.4738023 -0.57657778 -0.032408517 0.81639928 0.23562446
-0.1022692 0.05904517 -0.47593346 0.55192441 0.66128844 0.50801289 0.098502629
-0.096645154 0.055798125 -0.47438192 0.66280985 0.42384955 0.61728013 0.12468556
-0.089004181 0.051386613 -0.47504258 0.49400693 0.45073897 0.74349952 0.16039884
-0.064804383 0.056924865 -0.47808781 -0.28161517 0.28443483 0.91640043 0.0066974415
-0.05252526 0.053316403 -0.47251794 -0.23296764 0.2357475 0.94347715 0.0040335855
-0.045327354 0.056489136 -0.47154549 -0.19562131 0.25910905 0.94583029 0.0037409309
0.037181266 0.059582315 -0.4703455 0.16856442 0.27368227 0.94693404 0.004436655
0.046495635 0.054009348 -0.47094378 0.20533308 0.24351324 0.94791323 0.0043023648
0.055139489 0.054462861 -0.47388449 0.26160514 0.26275581 0.92872071 0.0030306936
0.06394016 0.055297453 -0.47728479 0.28821173 0.26725712 0.91951489 0.0058521475
0.08917062 0.051448472 -0.47533992 -0.45810497 0.44689155 0.76839304 0.16918659
0.094194844 0.05438339 -0.47699898 -0.66979873 0.43895662 0.59890467 0.17434298
0.10039411 0.057962541 -0.47633728 -0.57486844 0.70243478 0.41965666 0.10844294
-0.12078376 0.069734551 -0.47285384 0.79500496 0.55606884 0.24239355 0.073303171
-0.11434391 0.066016495 -0.4735359 0.67382282 0.69937319 0.2384112 0.055087324
-0.10730332 0.061951622 -0.47497874 0.68233651 0.63359022 0.36466482 0.062851429
-0.060095176 0.061568126 -0.47778243 -0.28373641 0.30651483 0.90859365 0.0004045922
-0.055101573 0.069983214 -0.47952431 -0.3123647 0.26002851 0.91368127 0.027681218
-0.044495173 0.065439276 -0.47470433 -0.18923628 0.24736804 0.95026249 0.012194267
-0.035321385 0.065612391 -0.47243196 -0.15825239 0.27599499 0.94804162 0.0050584096
-0.025583724 0.067980908 -0.47163522 -0.09031184 0.25597838 0.96245456 0.0079931356
-0.013390716 0.06927339 -0.47059664 -0.058424987 0.28650829 0.95629472 0.0070173582
-0.0056716925 0.069935992 -0.47042868 -0.039649181 0.28350633 0.95815033 0.0064899614
0.0015792152 0.069774635 -0.47009614 0.014472551 0.29237071 0.95619559 0.0062044715
0.015498103 0.069402508 -0.47079825 0.068140283 0.30389374 0.950266 0.0049373731
0.020780185 0.066985428 -0.47031403 0.082932167 0.28379923 0.95529062 0.0052897371
0.032042969 0.065166391 -0.47159728 0.12794787 0.27400392 0.95317954 0.0076757246
0.040362597 0.061286472 -0.47192091 0.17205797 0.26325297 0.9492597 0.0050833048
0.05685528 0.063622519 -0.47761834 0.29108885 0.26876393 0.91816843 0.0060224291
0.062983476 0.062342785 -0.47897571 0.28353557 0.30111638 0.91045952 0.0057797683
0.10638133 0.061419263 -0.47423786 -0.71255535 0.65008831 0.26391307 0.067387387
0.11418392 0.065924093 -0.47555333 -0.71884161 0.64181441 0.26709759 0.081053346
-0.12546614 0.073804818 -0.4755044 0.84276634 0.44359082 0.30491322 0.086203188
-0.047204368 0.074185014 -0.47881821 -0.28763652 0.22297864 0.9314214 0.051572789
-0.034492955 0.074857011 -0.47631165 -0.14370252 0.19686048 0.96984309 0.042946674
-0.025281552 0.074439883 -0.47443843 -0.045091663 0.27554241 0.96023077 0.023981808
-0.013431159 0.075079463 -0.47335669 -0.053721499 0.35480091 0.93339717 0.0029469598
-0.0075192777 0.076356471 -0.47359353 -0.031048296 0.35018966 0.93616414 0.0028579184
0.0065688207 0.076090179 -0.47340766 0.035504941 0.36730766 0.92942154 0.0028991853
0.016138623 0.075035408 -0.47350782 0.038118206 0.27218485 0.96148974 0.019821486
0.025995821 0.078846708 -0.47651967 0.041316498 0.16171698 0.98597187 0.079522073
0.034784097 0.074065678 -0.47601479 0.067271478 0.14703567 0.98684096 0.067200482
0.041585125 0.07892327 -0.47941142 0.25520194 0.079720229 0.96359575 0.083268628
0.052498758 0.073187858 -0.47998321 0.30286771 0.16485068 0.93866682 0.062648557
0.12419936 0.073890746 -0.47451952 -0.89620674 0.18156719 0.40478 0.10957834
-0.12249094 0.083777107 -0.47045305 0.88761944 -0.17148204 0.42746407 0.08560998
-0.11494716 0.087120093 -0.47829172 0.80436033 -0.31007534 0.50681126 0.060663011
-0.04696393 0.089374267 -0.47895038 -0.30688441 -0.3666012 0.87830836 0.1882232
-0.029237069 0.08454363 -0.47963524 -0.078035973 0.11614899 0.99016148 0.082749538
-0.01463215 0.087804481 -0.4794755 0.10324607 0.3520588 0.93026596 0.051226772
-0.007127746 0.083664924 -0.4770402 -0.025638469 0.4165341 0.90875846 0.00085512968
0.0050432393 0.083795309 -0.47697178 0.011814168 0.40613985 0.91373456 0.0034125042
0.014914132 0.084841035 -0.47808564 -0.0027819218 0.30713764 0.95166105 0.046843037
0.025895374 0.082178555 -0.47797585 -0.014182689 0.18936069 0.98180521 0.096496701
0.035988554 0.081651084 -0.47959274 0.15575886 0.058223143 0.98607767 0.10825337
0.051010869 0.088385515 -0.47855848 0.33757925 -0.27652869 0.89976233 0.1575232
0.11819822 0.087190576 -0.47308797 -0.85742116 -0.26835525 0.43910635 0.082564645
0.12119044 0.083043411 -0.47338712 -0.87569904 -0.20684667 0.43630907 0.081384219
-0.11322347 0.091367431 -0.4758743 0.75902641 -0.43894613 0.48083812 0.02446021
-0.10401763 0.099974647 -0.47996998 0.61192197 -0.57605821 0.54194874 0.014272695
-0.052728139 0.092575312 -0.47432441 -0.44309187 -0.6098671 0.65706295 0.16492975
-0.042320602 0.091821775 -0.47743952 -0.13588819 -0.45028222 0.88248539 0.21987802
-0.035476759 0.095791191 -0.47416914 0.26840031 -0.76951051 0.57949549 0.23820864
-0.00037523682 0.090409935 -0.47982147 -0.015242104 0.41723973 0.90866858 0.0025300481
0.026775734 0.09821827 -0.47756174 -0.41781634 -0.051396061 0.90707666 0.17565946
0.033355761 0.096459672 -0.47477469 -0.36389935 -0.35432926 0.8614105 0.22647394
0.046040889 0.091268644 -0.47459215 0.039762586 -0.64581072 0.76246148 0.17427197
0.056892518 0.098540694 -0.47314274 0.59985363 -0.67744505 0.42572743 0.13177341
0.10684542 0.09805432 -0.47783774 -0.6198864 -0.58010387 0.52841312 0.0093800919
0.11313408 0.0931798 -0.47382551 -0.7737298 -0.44001564 0.45577231 0.035669386
-0.10401832 0.10361446 -0.47497314 0.6354484 -0.61337411 0.46901757 0.0034542677
-0.098543368 0.10668361 -0.47750163 0.59025657 -0.64941478 0.47943461 0.0033268628
-0.06245571 0.10817648 -0.47099513 -0.70482796 -0.66089875 0.25774086 0.056688666
-0.058813509 0.10186803 -0.47272408 -0.68096662 -0.61480218 0.39787281 0.11171535
-0.028402653 0.10600019 -0.47393051 0.69172674 -0.35023907 0.63154304 0.15965679
0.028209044 0.1052775 -0.47582364 -0.77024168 -0.1970434 0.60654896 0.19055864
0.058217593 0.10083579 -0.47344553 0.69150007 -0.61538941 0.37831664 0.10297511
0.098026633 0.10896373 -0.47453594 -0.58445728 -0.6624518 0.46858007 0.0028565594
0.10387944 0.10465547 -0.4738487 -0.62090689 -0.64088321 0.4513793 0.0017726336
-0.094615467 0.11144334 -0.47475299 0.46463072 -0.76998651 0.43730897 0.027024062
-0.084137961 0.11755474 -0.47778904 0.22008318 -0.87378716 0.43365824 0.07015495
-0.065766506 0.11391096 -0.47448868 -0.67840171 -0.67738533 0.28446501 0.068154499
-0.031062914 0.11592841 -0.47547683 0.95962113 -0.030213473 0.27966839 0.087153994
0.030875802 0.11522994 -0.47433296 -0.94978076 0.011719003 0.3126967 0.091484003
0.067131542 0.1162752 -0.4732995 0.62290871 -0.75322086 0.21128894 0.083137654
0.08538463 0.11757473 -0.47625148 -0.29137304 -0.84870076 0.44137156 0.073544145
0.094682641 0.11032512 -0.47643247 -0.5069285 -0.72845727 0.46084002 0.015686994
-0.074345775 0.12573069 -0.47580618 -0.31337506 -0.88496917 0.34442058 0.10026168
-0.069327846 0.12007938 -0.47000724 -0.54498821 -0.81208098 0.20859624 0.085727118
-0.03379368 0.12611976 -0.47334063 0.97844356 -0.11142199 0.17387761 0.073438227
0.033826604 0.12624249 -0.47450572 -0.96660495 -0.069799237 0.24658258 0.072132006
0.072716698 0.12387761 -0.47559959 0.36139292 -0.87779951 0.31442508 0.10293914
0.083640642 0.1215682 -0.47207087 -0.20676197 -0.90180624 0.37946668 0.071759999
-0.035672635 0.13313213 -0.47593376 0.93757421 -0.18671861 0.2934123 0.081863731
0.03633368 0.13559896 -0.47484708 -0.89984715 -0.29051685 0.32538438 0.076803088
-0.03356969 0.14143257 -0.47539032 0.59186798 -0.66891199 0.44972101 0.080212273
-0.02599732 0.14553198 -0.47144261 0.38737833 -0.81806022 0.42510641 0.049782895
-0.014700294 0.14529213 -0.47484091 0.25969991 -0.85001057 0.45829889 0.037502319
-0.0020894932 0.14670928 -0.47531924 0.03029101 -0.89431196 0.44641751 0.0017453359
0.0030123158 0.14651604 -0.47546044 -0.016962644 -0.89592868 0.44387385 0.001931486
0.015224622 0.14587756 -0.47355327 -0.246738 -0.84619451 0.47230846 0.034294408
0.027926937 0.14223395 -0.47743192 -0.61158431 -0.65984571 0.43654138 0.087294027
0.033329304 0.14290591 -0.4747104 -0.72841728 -0.56399649 0.38899392 0.087537296
-0.017092463 -0.15074447 -0.46243545 0.21283838 0.89727646 0.38677508 0.016112648
-0.0050475788 -0.15178438 -0.46373957 0.022962168 0.91662097 0.39909747 0.0017953552
0.0054336004 -0.1517572 -0.46368316 -0.0391118 0.915007 0.40153772 0.0011939012
0.017500771 -0.15070865 -0.4623926 -0.26027989 0.8860774 0.38356364 0.03039331
0.022460543 -0.15081552 -0.46057713 -0.35445562 0.84895045 0.39197499 0.059269875
-0.035014909 -0.14688118 -0.46473169 0.70984989 0.6056506 0.35958385 0.097699702
-0.026730478 -0.14842683 -0.46492761 0.50290954 0.7700451 0.39257187 0.083602302
-0.019080164 -0.14878863 -0.46648327 0.29543787 0.85961682 0.41686401 0.046595357
-0.0055195703 -0.14975184 -0.4684442 0.027357062 0.90341169 0.4279007 0.0018131591
0.0027728167 -0.14959297 -0.46946833 -0.012557761 0.90621674 0.42262694 0.0017723687
0.015013743 -0.14784065 -0.46974534 -0.28698963 0.85306257 0.43579948 0.044026565
0.026270911 -0.14848691 -0.46494231 -0.48023787 0.76695669 0.42561615 0.075652041
0.035996687 -0.14617856 -0.46464327 -0.75985491 0.5214898 0.38816097 0.10023654
-0.076739758 -0.13162854 -0.46311843 -0.35013267 0.90439558 0.2438765 0.08816544
-0.035838794 -0.13375227 -0.46584669 0.95584631 0.15569583 0.2492321 0.092998922
0.036767047 -0.13721642 -0.46362019 -0.94614094 0.21167727 0.24496959 0.083451353
0.07673426 -0.13055903 -0.46311975 0.16617534 0.94342309 0.28694683 0.090350665
-0.084892854 -0.12523776 -0.46399844 0.053753268 0.92192078 0.38363084 0.10844491
-0.073738046 -0.12552534 -0.46591824 -0.5031535 0.80909479 0.30364832 0.089831941
-0.03286374 -0.12264922 -0.46362147 0.9904995 0.057410572 0.12495865 0.041709594
0.03361164 -0.12544028 -0.46459073 -0.99244928 0.073607594 0.098114118 0.053472418
0.06993106 -0.1211241 -0.46408945 0.59135145 0.78742886 0.17395183 0.078192949
0.074555404 -0.12737638 -0.46758869 0.38577935 0.89520085 0.22313617 0.10270097
0.085158192 -0.12376507 -0.46636474 -0.21142584 0.89870477 0.38422504 0.09527453
0.093146428 -0.12089942 -0.46018451 -0.40576929 0.81613648 0.41142756 0.038810764
-0.10276903 -0.11192285 -0.46322989 0.61754966 0.67926991 0.39651588 0.0012642413
-0.09604729 -0.11633392 -0.46465755 0.50199544 0.75569421 0.42062664 0.021871507
-0.067520186 -0.11694844 -0.46475053 -0.67207599 0.73370576 0.099948816 0.06761048
-0.03129242 -0.11678499 -0.46740347 0.97256947 0.052786764 0.22654399 0.065805212
-0.029804371 -0.11123151 -0.46575817 0.9613325 0.14972487 0.2311327 0.093209274
0.029815912 -0.11127442 -0.46487582 -0.93035758 0.11876798 0.34688467 0.10680997
0.030687455 -0.11452708 -0.46381766 -0.984433 0.061866961 0.1645118 0.076489858
0.06693802 -0.11594001 -0.4648973 0.64762139 0.74619907 0.15418623 0.063297227
0.094917886 -0.11660082 -0.46574566 -0.45090419 0.78318417 0.42814478 0.036470663
0.10225669 -0.11174805 -0.46431577 -0.61027688 0.68285823 0.40158036 0.0015135994
-0.11243235 -0.10301618 -0.4618932 0.68342519 0.62488079 0.37743086 0.0012894246
-0.10790195 -0.10489766 -0.46777302 0.65499622 0.63800263 0.40488598 0.0015400387
-0.062423617 -0.10812093 -0.4664343 -0.67324263 0.71891862 0.17291728 0.047873326
-0.058879487 -0.10198232 -0.46451536 -0.6259917 0.74410164 0.23333901 0.075144276
-0.031502936 -0.10070405 -0.46475285 0.57034022 0.55685246 0.60384375 0.16006406
-0.028370073 -0.104591 -0.46584058 0.79912508 0.31496328 0.512052 0.16416192
0.02858256 -0.10667151 -0.4647499 -0.89764047 0.18588872 0.3996084 0.13384959
0.033374961 -0.10076028 -0.46235579 -0.44045943 0.62202328 0.64736587 0.159042
0.059227075 -0.10258428 -0.46373352 0.681508 0.71670574 0.14791779 0.064525917
0.061460193 -0.10645214 -0.46387956 0.66026187 0.74363434 0.10517724 0.045782007
0.106886 -0.10744463 -0.46538886 -0.64967024 0.64308572 0.40542483 0.0020028772
0.11209364 -0.10134985 -0.46495223 -0.67702365 0.61916524 0.39783579 0.0017044768
-0.1205366 -0.092566557 -0.46172881 0.82608724 0.38865378 0.40807852 0.04051115
-0.1173385 -0.094268695 -0.4653461 0.80851597 0.41260609 0.41959292 0.039415047
-0.053744685 -0.095002174 -0.46656051 -0.20228145 0.80213273 0.56184083 0.16865064
-0.046690434 -0.094754815 -0.46376818 0.16909902 0.84143364 0.51322013 0.1706136
-0.035137534 -0.098499753 -0.46676707 0.3048493 0.61839682 0.72432894 0.18764202
0.033691823 -0.098756634 -0.46775281 -0.41122288 0.64548212 0.6436215 0.18449284
0.044794925 -0.09490148 -0.46560857 -0.13705423 0.82030004 0.55526924 0.15167372
0.054417502 -0.095931284 -0.4642486 0.27675489 0.84208286 0.46292898 0.14801177
0.11590388 -0.095262647 -0.46653885 -0.77340579 0.4885233 0.40396592 0.020140812
-0.12459512 -0.085001603 -0.46502799 0.89517558 0.18131112 0.40716925 0.077050783
0.12420813 -0.08618845 -0.46405542 -0.88617826 0.25240287 0.38856256 0.060605515
-0.12463718 -0.071959347 -0.46568671 0.84561598 -0.50127959 0.18344574 0.095929176
0.12560363 -0.072517313 -0.46328118 -0.85845941 -0.47108909 0.20278676 0.08892905
0.13084669 -0.076236248 -0.46433148 -0.92665023 -0.23321302 0.29484078 0.087816164
-0.1201548 -0.06937144 -0.46566102 0.84826368 -0.49619374 0.18504186 0.088267334
-0.11427667 -0.0659777 -0.46365175 0.78470808 -0.61284822 0.093006641 0.057237502
-0.10657187 -0.061529323 -0.4641439 0.74932814 -0.63671255 0.18194619 0.04706423
-0.034541313 -0.060014565 -0.46975163 -0.15201649 -0.2600399 0.9535566 0.0054648044
-0.023857536 -0.062374741 -0.46900725 -0.088736467 -0.22140108 0.97113717 0.0063917888
-0.013465893 -0.062902071 -0.46842918 -0.033416193 -0.24711289 0.96841037 0.0058978088
-0.0060668155 -0.06379544 -0.46875435 -0.005520537 -0.22068433 0.97532964 0.0054643597
0.0057391203 -0.065429702 -0.4689256 0.028563354 -0.23808189 0.97082496 0.0053067552
0.012316471 -0.064830616 -0.46861106 0.048961461 -0.25656518 0.96528602 0.0053665047
0.024728943 -0.063033417 -0.46928883 0.078051835 -0.23869915 0.96795177 0.0075771273
0.10665562 -0.061577655 -0.46802369 -0.70014596 -0.67241132 0.24012205 0.056278538
0.11316407 -0.065335311 -0.466524 -0.71361488 -0.68625671 0.1407323 0.04855923
0.12022088 -0.069409572 -0.46489516 -0.77663445 -0.60991055 0.15763283 0.092490539
-0.10212819 -0.058963772 -0.46492538 0.71125144 -0.66090298 0.23943403 0.065251343
-0.094270706 -0.053646255 -0.4655087 0.72927296 -0.31586516 0.60695153 0.15967941
-0.041357733 -0.052199379 -0.46875757 -0.17856945 -0.20715594 0.96187288 0.0056266612
-0.034395754 -0.052545473 -0.46842918 -0.12522434 -0.18301404 0.97510237 0.0075734658
-0.021983933 -0.055437461 -0.46842915 -0.038176861 -0.13855423 0.98961878 0.0054463344
-0.014142966 -0.055955838 -0.46842915 -0.0088827368 -0.109947 0.99389774 0.0041040084
-0.0039842082 -0.05264375 -0.46842912 -0.0059409803 -0.080339007 0.99674994 0.0031277256
0.0013741995 -0.056193423 -0.46842918 0.0052705482 -0.12227258 0.99248254 0.0053941277
0.017214131 -0.055066582 -0.46842915 0.033052888 -0.11144186 0.9932211 0.0046595242
0.025351176 -0.055913955 -0.46842918 0.086365007 -0.18501353 0.97893363 0.0061136186
0.035373885 -0.0527074 -0.46842921 0.11777648 -0.14585294 0.9822706 0.0066006514
0.094579279 -0.054233111 -0.46402189 -0.8575986 -0.27748683 0.43304244 0.15016645
0.10028343 -0.057898656 -0.46287164 -0.7402913 -0.65138274 0.16634142 0.070811376
-0.094698794 -0.045106206 -0.46582097 0.82117772 -0.057652764 0.56775284 0.17123191
-0.051679224 -0.045103714 -0.4696523 -0.21971159 -0.20071203 0.95469451 0.0054317936
-0.045704443 -0.045962423 -0.46904585 -0.20667852 -0.20259501 0.95720387 0.0051459139
-0.035203453 -0.046033621 -0.46842918 -0.069451816 -0.095926948 0.99296248 0.0051600686
-0.023723232 -0.045828432 -0.46842918 -0.029297234 -0.053686056 0.998128 0.0022991307
-0.013284415 -0.046755269 -0.46842918 -0.01057769 -0.050990038 0.9986431 0.0020435052
-0.0054235095 -0.043745056 -0.46842915 -0.0028785674 -0.011072062 0.99993455 6.2027328e-05
0.0049139964 -0.042473529 -0.46842918 0.0057835281 -0.011389883 0.9999184 0
0.015310062 -0.043486129 -0.46842915 0.0093422355 -0.026573425 0.99960321 0.0007833119
0.027025141 -0.045862116 -0.46842918 0.045047499 -0.064443626 0.99690408 0.0026067789
0.034683537 -0.044641402 -0.46842915 0.061701864 -0.084492669 0.99451184 0.0036634838
0.043993484 -0.045578059 -0.46851259 0.12936047 -0.15466526 0.97946137 0.005461256
0.095907159 -0.044357322 -0.46323237 -0.88828975 -0.0057996241 0.45924687 0.14186205
-0.14558432 -0.03669142 -0.46583605 0.56056535 0.76622999 0.31409886 0.098959707
-0.13844596 -0.037096497 -0.46683609 0.34865341 0.88914651 0.29641065 0.11507022
-0.12809907 -0.034324054 -0.46794465 0.07878276 0.98702407 0.13991719 0.065551683
-0.11722092 -0.031409264 -0.46575958 0.030338237 0.98567545 0.16590151 0.042489693
-0.10104429 -0.032780021 -0.46224731 0.58499062 0.59744298 0.54849607 0.1680329
-0.098044813 -0.03508997 -0.46813506 0.66844022 0.39535344 0.62998682 0.19155173
-0.055836499 -0.033433937 -0.4687531 -0.21995044 -0.11236977 0.96901739 0.0060043302
-0.044354826 -0.037390504 -0.46842921 -0.10069332 -0.085251436 0.9912582 0.0050861081
-0.03772223 -0.038171802 -0.46842921 -0.066448346 -0.061645307 0.99588376 0.0031756791
-0.025090724 -0.033410221 -0.46842915 -0.0084870141 -0.0083011212 0.99992955 0
-0.012888809 -0.032827608 -0.46842918 8.9967971e-06 1.1101006e-05 1 0
-0.0051623322 -0.031158062 -0.46842918 3.4349139e-06 -7.8712073e-06 1 0
0.0043579345 -0.033464599 -0.46842918 -3.5976457e-06 8.8011857e-06 1 0
0.017471351 -0.034229707 -0.46842918 0.0010321053 -0.0038886154 0.99999189 0
0.025020078 -0.033537216 -0.46842918 0.0012614623 -0.0053869463 0.99998474 0
0.034317456 -0.034095511 -0.46842915 0.0219195 -0.023906007 0.99947387 0.00094491307
0.044951502 -0.034387048 -0.46842918 0.10472388 -0.097645819 0.98969603 0.0053118942
0.053929612 -0.037336644 -0.46867332 0.17055401 -0.14812973 0.9741503 0.0060642199
0.061411388 -0.030027527 -0.46954232 0.23783708 -0.12573595 0.96313238 0.0056914785
0.097398698 -0.036791392 -0.46796626 -0.80601054 0.24892959 0.53701121 0.19291945
0.100842 -0.032862764 -0.46273181 -0.65976948 0.5753932 0.48334974 0.14568052
0.1271501 -0.034069769 -0.46194005 -0.02041118 0.99327183 0.11399345 0.039731309
0.13460065 -0.036066145 -0.46651798 -0.23439839 0.94992054 0.20666029 0.084331132
0.14466415 -0.035999455 -0.46491671 -0.4146561 0.86303312 0.28850323 0.089694053
-0.147801 -0.026462287 -0.46647799 0.79093283 0.47374508 0.38728651 0.060458191
-0.11089862 -0.02971521 -0.46740118 0.01323572 0.96827084 0.24955247 0.088673338
-0.10366307 -0.028460147 -0.46653968 0.31320417 0.84359783 0.43617186 0.17020072
-0.062247258 -0.024659783 -0.46892825 -0.23003177 -0.095480934 0.96848786 0.0062611294
-0.055128045 -0.025586734 -0.46842918 -0.18499927 -0.073373817 0.97999567 0.0063704029
-0.046408687 -0.026683193 -0.46842921 -0.085018039 -0.048194304 0.99521315 0.0035231225
-0.036550045 -0.025520293 -0.46842915 -0.01246359 -0.013687644 0.99982864 0.00034540732
-0.024692293 -0.021614382 -0.46842915 5.4299308e-06 3.9826505e-06 1 0
-0.015907662 -0.023657715 -0.46842918 8.6975288e-06 3.7126526e-06 1 0
-0.0071584228 -0.023819966 -0.46842918 2.48435e-06 4.2377001e-06 1 0
0.0053431783 -0.027826993 -0.46842915 -4.4384633e-06 2.9214505e-05 1 0
0.012653152 -0.026803419 -0.46842921 2.9935711e-06 9.2055243e-06 1 0
0.025327286 -0.024839561 -0.46842918 0.00022224404 -0.00022696161 0.99999994 0
0.03609474 -0.023758166 -0.46842912 0.0091925403 -0.0020734915 0.99995559 0
0.045765661 -0.024146188 -0.46842918 0.074271396 -0.043437254 0.99629164 0.0025875529
0.056282304 -0.02416932 -0.46842912 0.18509933 -0.065159917 0.9805572 0.0063518942
0.062987991 -0.022525616 -0.46910962 0.21477023 -0.079893097 0.97339147 0.0064556752
0.10453883 -0.028011091 -0.46391255 -0.35541892 0.82737219 0.43489388 0.13793798
0.1108531 -0.029702997 -0.46685621 -0.08624424 0.96069849 0.26385659 0.099384494
0.14796142 -0.025741747 -0.46636438 -0.81103623 0.4243581 0.40266663 0.068262771
0.15104267 -0.021893132 -0.46021301 -0.85107136 0.34154525 0.39877862 0.055094555
-0.15095221 -0.016048061 -0.46226764 0.88258654 0.22938685 0.4103933 0.026019318
-0.1495645 -0.016021216 -0.46559164 0.8806085 0.22165082 0.41880733 0.026141046
-0.062229592 -0.014130455 -0.4684388 -0.18669167 -0.054098867 0.98092788 0.0077006174
-0.055877585 -0.017059162 -0.46842921 -0.14553195 -0.044366688 0.98835826 0.0054412633
-0.045869738 -0.014528004 -0.46842918 -0.037562411 -0.013600257 0.99920177 0.0012876318
-0.034684155 -0.014369098 -0.46842918 -0.0024325249 -0.0019005762 0.99999529 0
-0.024104491 -0.016533695 -0.46842918 2.1696713e-05 1.6609764e-06 1 0
-0.013475596 -0.017603353 -0.46842918 3.5092976e-06 1.8748697e-05 1 0
-0.0067981384 -0.014337927 -0.46842921 9.0356816e-06 9.0116955e-06 1 0
0.004887816 -0.014517169 -0.46842918 -2.3390844e-06 8.1770704e-06 1 0
0.014966299 -0.015735278 -0.46842918 -7.4792847e-06 1.1945775e-05 1 0
0.025236074 -0.014329947 -0.46842915 -1.5348902e-05 1.7100741e-05 1 0
0.034113053 -0.016491739 -0.46842915 0.0047401749 -0.0013802963 0.99998784 0
0.046117753 -0.013670564 -0.46842918 0.045391906 -0.017820027 0.99881029 0.001412192
0.053048272 -0.016407829 -0.46842921 0.10213637 -0.042599242 0.99385786 0.0041564265
0.063592248 -0.016873794 -0.4689517 0.20645911 -0.059399053 0.9766506 0.006959104
0.15168016 -0.015480426 -0.46070704 -0.90326387 0.19291379 0.38327354 0.015608271
-0.15188666 -0.0039133863 -0.46383587 0.91549921 0.011977742 0.40214133 0.0015385249
-0.14890544 -0.0095916819 -0.4690547 0.90151805 0.096363284 0.42187595 0.0044127549
-0.066239789 -0.0064459504 -0.46909922 -0.25915718 -0.014919568 0.96571994 0.0055774669
-0.057270635 -0.0065985797 -0.46842918 -0.15067916 -0.015605506 0.98845953 0.0054526655
-0.044220902 -0.0058476762 -0.46842918 -0.016403699 -0.0004574958 0.99986529 0.00022798254
-0.0336392 -0.0063809752 -0.46842918 -3.017386e-05 -7.8423536e-06 1 0
-0.024035631 -0.0057657277 -0.46842918 1.7338914e-07 1.8209503e-06 1 0
-0.015964527 -0.0065678535 -0.46842918 7.0234241e-06 4.516985e-06 1 0
-0.0044531301 -0.0061013815 -0.46842915 7.3548613e-06 4.427161e-06 1 0
0.00487749 -0.0050832913 -0.46842912 -7.3021243e-07 2.8088177e-06 1 0
0.013826462 -0.0048874649 -0.46842918 -2.101274e-06 2.8745201e-06 1 0
0.022820964 -0.0029156699 -0.46842918 -1.6557768e-05 1.1039585e-06 1 0
0.035265252 -0.0049956036 -0.46842915 -1.8239423e-05 -9.8439716e-07 1 0
0.043926667 -0.0026415333 -0.46842918 0.021415103 0.0028355448 0.99976659 0.00021178398
0.055806626 -0.0058463165 -0.46842918 0.10526492 -0.00982414 0.99439561 0.0030848323
0.062985234 -0.0063512796 -0.46842921 0.20052543 -0.0083340146 0.979653 0.005999798
0.15169977 -0.0045101992 -0.46411088 -0.91364408 0.033158045 0.40516046 0.0014002505
-0.15109411 0.0038920026 -0.46575227 0.91133106 -0.024162522 0.41096458 0.0013106276
-0.14980502 0.0062925438 -0.46802947 0.90517771 -0.041923862 0.42296052 0.0014424658
-0.065640979 0.0034475639 -0.46869689 -0.22377309 0.017597096 0.97448242 0.0061484789
-0.053042982 0.0043491949 -0.46842918 -0.089780651 0.0041852379 0.99595273 0.0035098039
-0.045167472 0.0061691469 -0.46842918 -0.023378931 0.0067645754 0.99970376 0.00048699017
-0.03637844 0.0042811353 -0.46842915 -0.0021179819 0.00041441669 0.99999762 0
-0.024255114 0.0052367267 -0.46842915 1.6133079e-05 -5.1099153e-07 1 0
-0.016260864 0.0043895659 -0.46842912 2.0868956e-05 -4.434645e-07 1 0
-0.0026190858 0.0016500592 -0.46842918 1.6532856e-06 -1.7943709e-06 1 0
0.0042394516 0.0057859193 -0.46842912 -1.6519682e-06 -5.0922445e-06 1 0
0.013832929 0.002858656 -0.46842915 -7.4930244e-06 -6.2974476e-07 1 0
0.022896567 0.0036927462 -0.46842918 -1.2396683e-05 -2.1712465e-06 1 0
0.03417623 0.006168698 -0.46842915 -1.7479379e-05 -4.0395171e-06 1 0
0.047552366 0.00082510465 -0.46842918 0.042989291 0.0036699369 0.9990688 0.00091029861
0.056082234 0.0034736302 -0.46842915 0.10122589 0.0096709365 0.99481648 0.0026253753
0.066076756 0.0048893909 -0.46901017 0.27083936 0.017090911 0.9624728 0.0048822388
0.14975217 0.0036684801 -0.46892312 -0.90366066 -0.010369641 0.42812356 0.0016427541
0.1514135 0.004187481 -0.46489635 -0.91311538 -0.014064041 0.40745869 0.0017375045
-0.15097339 0.013234774 -0.46310192 0.90524805 -0.14538142 0.3992371 0.015445039
-0.14923035 0.015697332 -0.4664818 0.89463538 -0.2063088 0.39631331 0.019363033
-0.063544266 0.016656997 -0.4686718 -0.2071504 0.060931828 0.97640973 0.0073938617
-0.054423064 0.015451821 -0.46842918 -0.13355984 0.036427088 0.99037111 0.0060917991
-0.045524266 0.014937696 -0.46842918 -0.035544038 0.013347426 0.99927896 0.00087515725
-0.035860937 0.016163802 -0.46842912 -0.0036054358 0.00049742055 0.99999338 0
-0.025053181 0.014531701 -0.46842918 1.9569585e-05 -1.0875029e-05 1 0
-0.014456766 0.015099862 -0.46842918 7.1846471e-06 -4.893418e-06 1 0
-0.0075653158 0.014502395 -0.46842915 5.7842926e-06 -1.0624373e-05 1 0
0.0052343681 0.014989841 -0.46842915 -6.1315222e-06 -1.2594269e-05 1 0
0.014911612 0.013449204 -0.46842915 -8.2483784e-06 -9.4048237e-06 1 0
0.023434078 0.01625278 -0.46842921 -1.9747995e-08 -1.3248048e-05 1 0
0.037519868 0.014968212 -0.46842918 0.0064878189 0.0033470464 0.99997336 0
0.045483977 0.014639541 -0.46842918 0.05277371 0.014382507 0.99850291 0.0017295127
0.055385273 0.013090729 -0.46842915 0.10340762 0.02617014 0.99429464 0.0028278357
0.1487997 0.018429611 -0.46666151 -0.85484397 -0.24727134 0.45617837 0.033306062
0.15123497 0.013023113 -0.46254361 -0.90870726 -0.12673138 0.39773139 0.0076330942
-0.15009251 0.023450797 -0.46199304 0.82473511 -0.37093505 0.42687136 0.063585758
-0.14819558 0.022389919 -0.46685907 0.79645079 -0.39158306 0.46079144 0.061745111
-0.11094852 0.029728577 -0.46485871 0.1228679 -0.95702618 0.26268673 0.089847594
-0.10522275 0.028329665 -0.46422148 0.20752263 -0.92496139 0.31840345 0.11558999
-0.062963091 0.023703845 -0.46906981 -0.22136138 0.089919537 0.97103739 0.0070626289
-0.055742845 0.024987994 -0.46842918 -0.18527184 0.080539182 0.97938132 0.0069452762
-0.045602094 0.024497237 -0.46842918 -0.074785411 0.039042883 0.99643505 0.0033585818
-0.036462791 0.021556545 -0.46842921 -0.01264396 0.0031480521 0.99991512 6.5949665e-05
-0.023857558 0.021780962 -0.46842918 1.6865408e-05 -8.4963976e-06 1 0
-0.013794029 0.022374703 -0.46842915 1.1241039e-05 -1.2417227e-05 1 0
-0.0061875433 0.023276865 -0.46842918 3.2013459e-06 -8.2592451e-06 1 0
0.0037837662 0.023928748 -0.46842918 -3.9884094e-06 -2.0724969e-05 1 0
0.01646501 0.024478158 -0.46842918 -4.104686e-06 -1.1718802e-05 1 0
0.028121535 0.022129493 -0.46842915 -2.0019042e-05 -1.5792031e-05 1 0
0.03562241 0.024647033 -0.46842918 0.015761595 0.010404616 0.99982166 0.00031420653
0.043928631 0.026025226 -0.46842915 0.058963224 0.026061619 0.99791992 0.0019241752
0.055188138 0.02734088 -0.46842918 0.17079146 0.07248342 0.98263752 0.0064741634
0.063765295 0.022617275 -0.46922565 0.24992581 0.075945616 0.96528202 0.0060417694
0.10402441 0.028838918 -0.46646646 -0.3733241 -0.76465726 0.52528888 0.16687357
0.11098146 0.029737379 -0.46580353 -0.1086238 -0.92918211 0.35330075 0.11521335
0.14774844 0.027652889 -0.46627212 -0.82888186 -0.37254038 0.41733503 0.052837014
-0.14554322 0.036797266 -0.46545458 0.56238669 -0.70523113 0.43170622 0.081701621
-0.13654351 0.036586739 -0.46395749 0.18411307 -0.96904701 0.16446948 0.09813229
-0.12411004 0.033255201 -0.46399871 0.035276502 -0.98667938 0.15880622 0.042817682
-0.11509975 0.030840896 -0.46612489 0.038772438 -0.97875887 0.20131508 0.060505878
-0.10074579 0.031531475 -0.46459836 0.542018 -0.57074952 0.61681551 0.17682475
-0.098855168 0.034732033 -0.46622667 0.65540838 -0.24702884 0.71373427 0.1873017
-0.053092733 0.033693392 -0.46842918 -0.16542386 0.093412839 0.98178864 0.0063093426
-0.047171161 0.03387887 -0.46842918 -0.095785357 0.056219231 0.99381316 0.004826399
-0.036779836 0.035777405 -0.46842915 -0.046887148 0.036375448 0.99823773 0.0016870404
-0.024788946 0.034622531 -0.46842918 -0.0053707981 0.0059205107 0.99996805 0
-0.014038432 0.036208324 -0.46842918 -0.00085813465 0.0018933255 0.99999779 0
-0.0052400925 0.036193591 -0.46842918 -5.3985564e-06 0.00047406193 0.99999988 0
0.0047624568 0.035592962 -0.46842918 -2.2958648e-06 -8.5359825e-06 1 0
0.01343001 0.033952657 -0.46842912 5.6883819e-05 0.0010700165 0.99999946 0
0.023752224 0.03280222 -0.46842912 0.00061771204 0.00020058634 0.99999976 0
0.034908757 0.033742141 -0.46842918 0.043324247 0.044445354 0.99807185 0.0025123227
0.045903176 0.037608143 -0.46842918 0.13423429 0.10439401 0.98543549 0.005836132
0.06019837 0.030975347 -0.46917921 0.22770989 0.11541639 0.96686465 0.0062613804
0.098591603 0.036678787 -0.46466222 -0.73210675 -0.38930994 0.55897892 0.17770077
0.101362 0.031621326 -0.46271512 -0.66821158 -0.57053953 0.47747037 0.16180742
0.11511326 0.030844487 -0.46656832 -0.02978188 -0.96852511 0.24712797 0.079693988
0.12550955 0.033630162 -0.4644829 -0.029287336 -0.98479962 0.17120735 0.057093777
0.13511094 0.036202855 -0.46516752 -0.17391038 -0.96366227 0.20275649 0.09189371
0.14714083 0.035069987 -0.4649705 -0.61566174 -0.70591784 0.35020077 0.091398507
-0.095222019 0.04375786 -0.46592262 0.85035014 -0.048536059 0.52397412 0.16369328
-0.053004254 0.042215779 -0.46931368 -0.18981758 0.1614719 0.96845031 0.0062423246
-0.043821722 0.045943335 -0.46842918 -0.15409735 0.16842906 0.97359419 0.0053907586
-0.03415405 0.044995435 -0.46842918 -0.052211165 0.077098653 0.99565548 0.0028400582
-0.024378071 0.044276912 -0.46842918 -0.039815992 0.056081653 0.99763203 0.0025418128
-0.013813885 0.0436773 -0.46842915 -0.0057416004 0.025503369 0.99965829 0.00068696786
-0.004529899 0.043485671 -0.46842918 -0.0016766695 0.021256888 0.99977261 0.00029473889
0.0048261043 0.042929247 -0.46842918 0.0044533019 0.024167813 0.99969804 0.0004456187
0.015992215 0.046384107 -0.46842918 0.02373782 0.052704208 0.99832797 0.001568854
0.02419669 0.045825705 -0.46842915 0.019391904 0.041480511 0.99895108 0.0010465924
0.036709804 0.045143999 -0.46842918 0.09229672 0.10344344 0.99034375 0.0055864821
0.045944136 0.044608623 -0.46842918 0.14507563 0.12947412 0.98091263 0.0067114094
0.052182216 0.040759742 -0.46857661 0.16621608 0.12885055 0.97763479 0.0068139988
0.094807811 0.045511082 -0.46502352 -0.84368956 -0.060092051 0.5334574 0.13750218
-0.10239612 0.059118446 -0.46681902 0.69095975 0.67184567 0.26682967 0.068454713
-0.093167864 0.052904151 -0.46649772 0.73318982 0.39201388 0.55565971 0.15689984
-0.043310218 0.052519597 -0.46944863 -0.17485714 0.22155431 0.95934284 0.0055811922
-0.039124183 0.05027654 -0.46842918 -0.1344607 0.1731821 0.97566813 0.0068627386
-0.023743659 0.053024787 -0.46842918 -0.056350112 0.14126463 0.98836678 0.0045532198
-0.016958227 0.054924324 -0.46842915 -0.035729285 0.11982828 0.9921515 0.0036300514
-0.004932682 0.054012455 -0.46842918 -0.023176022 0.098466024 0.99487048 0.0031503434
0.0050132247 0.055035926 -0.46842918 0.0051785968 0.095071502 0.99545693 0.0031638343
0.01299229 0.055128168 -0.46842921 0.033180878 0.1230345 0.99184752 0.0044333902
0.023782823 0.054272741 -0.46842915 0.046489153 0.15177277 0.98732156 0.0056074308
0.03729843 0.051910054 -0.46842918 0.14759047 0.16737817 0.97478282 0.0073587871
0.09518978 0.054930579 -0.4662182 -0.82305998 0.4085722 0.39451379 0.13655446
0.10299389 0.059463523 -0.46388954 -0.74423963 0.65384406 0.13636437 0.065763637
-0.12030365 0.06945736 -0.46639046 0.81112462 0.48677659 0.32423037 0.093017742
-0.1166864 0.06736894 -0.46822229 0.74563241 0.64203852 0.17837848 0.070878021
-0.10769389 0.062177122 -0.46541753 0.72511035 0.64565283 0.23947333 0.047498174
-0.025758123 0.060876861 -0.46892652 -0.088226587 0.18866634 0.97807008 0.0058344584
-0.01405271 0.064203553 -0.46842918 -0.04054584 0.20241061 0.97846103 0.007135604
-0.0045773759 0.064691678 -0.4685401 -0.018874222 0.21698876 0.97599161 0.0070371754
0.0061060102 0.066264138 -0.46904731 0.0355995 0.25466123 0.96637487 0.0069669322
0.017167853 0.063388228 -0.46871707 0.053823967 0.22709787 0.97238344 0.0075310897
0.021388382 0.06199111 -0.46842918 0.078526698 0.2249839 0.97119296 0.0077732475
0.10780321 0.062240191 -0.46414626 -0.71758884 0.68556482 0.12274787 0.043829903
0.11442945 0.066065855 -0.46493232 -0.69760996 0.69075298 0.19026498 0.054301672
0.12041921 0.069524042 -0.46657091 -0.78661054 0.57658523 0.22089228 0.09577091
-0.13064253 0.076782182 -0.46275774 0.92849082 0.20294817 0.31099331 0.081721179
-0.12646158 0.073695384 -0.46442902 0.884857 0.38516864 0.26205572 0.10348134
0.1266485 0.07362517 -0.46636593 -0.882801 0.34103727 0.32304165 0.11307981
0.13081993 0.076723717 -0.46323955 -0.93130022 0.22202589 0.28876376 0.10019123
-0.12384012 0.085079655 -0.46637514 0.89182681 -0.16629453 0.42070302 0.085517071
0.12471336 0.08361651 -0.46687239 -0.90330452 -0.096357241 0.41803858 0.10854808
-0.11525045 0.096916601 -0.4654215 0.74802756 -0.49649099 0.44039902 0.015669713
-0.054730251 0.094795607 -0.46594393 -0.30209821 -0.82409561 0.47916919 0.14931487
-0.044539835 0.095022857 -0.46556312 -0.061231922 -0.86209762 0.50302923 0.16178825
0.038472906 0.09873423 -0.462109 -0.4004707 -0.74302489 0.53622502 0.13885027
0.04552092 0.095662907 -0.462547 -0.092334993 -0.77897221 0.62022293 0.12560558
0.053309478 0.0933652 -0.46483573 0.23196681 -0.83941376 0.49150366 0.12156229
0.11464441 0.097944066 -0.46508583 -0.72554165 -0.54162323 0.42453921 0.0089218589
-0.1119533 0.10304787 -0.46276253 0.68431246 -0.61746293 0.38788664 0.0016451749
-0.10533398 0.10710909 -0.46818686 0.63460243 -0.64753574 0.42187345 0.00226
-0.063028537 0.10916866 -0.46322647 -0.7185331 -0.68610352 0.11389465 0.030012231
-0.059730202 0.10345577 -0.4651036 -0.68192977 -0.71283805 0.16380979 0.056772869
-0.033570003 0.10069699 -0.46230522 0.54161114 -0.67753166 0.49760255 0.14701845
-0.028172629 0.10385731 -0.46489105 0.76460427 -0.4743858 0.43627796 0.15167561
0.028309014 0.10565059 -0.46300256 -0.88586336 -0.25186995 0.38962504 0.12984724
0.030009666 0.10009109 -0.46830249 -0.57729161 -0.44777235 0.68281347 0.17202674
0.059584722 0.10320371 -0.46832168 0.71433288 -0.66226476 0.22612815 0.06941358
0.061957009 0.10731264 -0.46674252 0.70774359 -0.68384719 0.1773472 0.040232524
0.10698167 0.10505995 -0.46842718 -0.64007425 -0.64002913 0.42505029 0.001898375
0.11063303 0.10531709 -0.46195775 -0.6688028 -0.63532609 0.38608766 0.0015833176
-0.10016315 0.11046749 -0.46958718 0.61638892 -0.67141676 0.41141748 0.0017800921
-0.09703362 0.11525926 -0.46525696 0.48176351 -0.76897323 0.420219 0.020600228
-0.067515254 0.11693987 -0.46697256 -0.64590073 -0.75057375 0.13946804 0.078654237
-0.030604817 0.11421879 -0.46291536 0.98309308 -0.11770504 0.14026235 0.059417967
-0.029590094 0.1104318 -0.46538615 0.94590676 -0.17096259 0.27573934 0.094131678
0.030864358 0.11518724 -0.46502367 -0.98159069 -0.078693159 0.17403185 0.056727085
0.064996473 0.11257714 -0.46464071 0.72274071 -0.68591559 0.084650308 0.035815459
0.095688023 0.11616418 -0.46546996 -0.51084179 -0.75037545 0.41949657 0.014009784
0.10025468 0.11264228 -0.46554315 -0.60790414 -0.68175572 0.40701562 0.0012872491
-0.083613798 0.12561582 -0.46514434 0.085947558 -0.91012979 0.40531072 0.091640718
-0.074655302 0.126626 -0.46589854 -0.33427259 -0.89601213 0.292274 0.10501784
-0.069826879 0.12094373 -0.46112326 -0.66657251 -0.72799832 0.16031078 0.073443286
-0.033818077 0.12621082 -0.46568537 0.98866004 -0.016420441 0.14927058 0.057118542
0.033618819 0.125467 -0.4654184 -0.98652196 -0.029952576 0.16086444 0.056109149
0.069579944 0.12051593 -0.46644777 0.59035176 -0.78855556 0.17223492 0.088528201
0.072387792 0.12537925 -0.46488944 0.5268501 -0.82443309 0.20673433 0.092323765
0.085962005 0.12344722 -0.46584186 -0.23207857 -0.89678609 0.37671506 0.07710439
0.090820715 0.12229228 -0.46093342 -0.32950541 -0.87073272 0.36503494 0.054232743
-0.036476701 0.13613296 -0.46659881 0.96761948 -0.11887961 0.2226661 0.090234779
0.036022957 0.13443936 -0.46597934 -0.95011264 -0.21219945 0.22859865 0.10075852
0.076492898 0.13107425 -0.46461332 0.32578918 -0.91699827 0.23016451 0.094025716
-0.035352957 0.14674683 -0.4649657 0.71182841 -0.61941928 0.33108932 0.087546162
-0.021717114 0.14863968 -0.46600962 0.38748112 -0.81625032 0.42847848 0.05639682
-0.019442983 0.1478264 -0.46862596 0.32990128 -0.82440239 0.45991945 0.047681671
-0.0051697474 0.14916421 -0.46969104 0.047910906 -0.90204138 0.42898241 0.0015886286
0.0083762687 0.1489397 -0.46930218 -0.057238344 -0.90488005 0.42180073 0.0017993624
0.015699439 0.1485962 -0.46800649 -0.27606162 -0.8586114 0.43194497 0.03741404
0.029101586 0.1481721 -0.46480402 -0.48904601 -0.77197504 0.40606466 0.073599644
0.035827141 0.14515303 -0.46586913 -0.70925158 -0.61552882 0.34363711 0.091382094
-0.025799349 0.15031438 -0.46072423 0.45422173 -0.79903424 0.39398849 0.074639767
-0.014924637 0.1513781 -0.4616034 0.19683765 -0.90517306 0.37671825 0.018084742
-0.0055864281 0.15184383 -0.46342802 0.028092476 -0.91675884 0.39845213 0.0015582157
0.0028323687 0.1523103 -0.46317983 -0.015189026 -0.91712898 0.39830095 0.0016732854
0.012642193 0.15161443 -0.46175677 -0.16926399 -0.90595496 0.38806623 0.015733007
0.024226934 0.1505301 -0.46070349 -0.4183532 -0.81785297 0.39509115 0.059513632
-0.036786288 -0.15188763 -0.45344904 0.79366916 0.54171365 0.27683139 0.08489804
-0.024986697 -0.15289743 -0.45477358 0.44010848 0.82200789 0.36139682 0.070157491
-0.016197484 -0.15373373 -0.45555913 0.21069786 0.89996916 0.38165683 0.017128997
-0.0059229494 -0.15633167 -0.45259714 0.030966021 0.93369943 0.35671628 0.001607276
0.0056648622 -0.15529902 -0.45511931 -0.045633052 0.93172967 0.36027411 0.0017424667
0.016770802 -0.15508872 -0.45206621 -0.26205242 0.89309043 0.36567476 0.03388093
0.023836477 -0.15250079 -0.45611772 -0.38316625 0.84133947 0.38122365 0.05345118
0.035179742 -0.15098715 -0.45609212 -0.68831015 0.61552465 0.38387322 0.09366975
0.040745184 -0.15206303 -0.45173773 -0.80271828 0.50014621 0.32480347 0.10242517
-0.038098902 -0.14644627 -0.45631981 0.82746661 0.48376587 0.28507823 0.080640525
0.038154516 -0.14239454 -0.45364058 -0.89971226 0.32750809 0.28854162 0.091423005
-0.083557576 -0.13134658 -0.45422912 0.060386389 0.94671476 0.31636158 0.1067019
-0.078007117 -0.134018 -0.45414239 -0.27613875 0.92659342 0.25528812 0.090956569
-0.036571644 -0.13648731 -0.45421964 0.98117703 0.05286302 0.18573399 0.07138411
0.036280382 -0.13540018 -0.4543592 -0.97291619 0.024589829 0.22984615 0.075453781
0.078801453 -0.13366002 -0.45681822 -0.030943492 0.94265926 0.33231923 0.095401578
0.085853949 -0.13063067 -0.45227778 -0.12501602 0.93105817 0.34278518 0.094960213
-0.09289436 -0.12384567 -0.45483297 0.36295584 0.85324055 0.37449121 0.064653203
-0.087164693 -0.12593105 -0.45934001 0.21063168 0.91331655 0.34855008 0.073501319
-0.071620651 -0.12405068 -0.45478427 -0.60130173 0.78291351 0.15963277 0.078352407
-0.033267412 -0.12415575 -0.45427668 0.99562049 0.005848275 0.093303561 0.033226617
0.033069648 -0.12341754 -0.4558785 -0.99059403 -0.0076700947 0.13661829 0.040442131
0.0723648 -0.12533945 -0.45305708 0.58696216 0.78808033 0.1854852 0.084809542
0.086049609 -0.12857516 -0.4559207 -0.20066386 0.92135394 0.33292797 0.084049687
0.095113799 -0.12218434 -0.45484167 -0.42007062 0.83591968 0.35324076 0.047488078
-0.1037468 -0.1153099 -0.45531973 0.61915648 0.69437349 0.36672977 0.0012836359
-0.066161066 -0.11459438 -0.45279944 -0.69607681 0.71313858 0.083129793 0.035321373
-0.031134922 -0.11619719 -0.45345142 0.97651154 0.15994009 0.1443762 0.050764944
0.029813409 -0.11126509 -0.45658666 -0.93546367 0.31493753 0.16038089 0.094033256
0.03049456 -0.11380718 -0.45490918 -0.97071028 0.17670585 0.16277742 0.087441422
0.067292117 -0.11655332 -0.45538992 0.6791845 0.72211623 0.13136393 0.055848267
0.09869004 -0.1195721 -0.45458946 -0.52519405 0.77522492 0.35099503 0.019122677
0.10307536 -0.11626916 -0.45441112 -0.61520708 0.70342135 0.35597563 0.0016191981
0.11085571 -0.11081404 -0.45341802 -0.67840928 0.64214587 0.35694471 0.0019241539
-0.1138444 -0.10604588 -0.45473841 0.68923688 0.62611157 0.36460489 0.0012585378
-0.062105179 -0.10756937 -0.4559997 -0.69153094 0.71987045 0.059762422 0.04015635
-0.058646668 -0.10157907 -0.45781007 -0.54385155 0.83503664 0.083301812 0.078532785
-0.042690657 -0.10030815 -0.45253664 0.26705727 0.93529904 0.23215558 0.10667475
-0.03694867 -0.10165515 -0.4555096 0.49390751 0.82771939 0.26633811 0.10359889
-0.029629901 -0.10688613 -0.4555589 0.82076597 0.53197026 0.20820861 0.10155979
0.029382596 -0.10766592 -0.4562695 -0.87642151 0.41368425 0.24647649 0.088028923
0.036195327 -0.10145489 -0.45698631 -0.48345932 0.7840724 0.38922697 0.11524576
0.058604788 -0.10150643 -0.45247328 0.57091159 0.80899847 0.13993341 0.065268092
0.061326467 -0.10622053 -0.45378608 0.6676361 0.74230587 0.056955326 0.054117959
0.11426013 -0.10573833 -0.45440525 -0.68535942 0.63058573 0.36420348 0.0020558129
-0.12472104 -0.093580753 -0.45215738 0.84477746 0.38011575 0.37664717 0.042779528
-0.11835002 -0.098149911 -0.45771825 0.77503347 0.48085147 0.41000605 0.022298947
-0.054094627 -0.096023455 -0.45533162 -0.21868174 0.95711118 0.19004348 0.081006527
-0.044526756 -0.098577745 -0.45533219 0.30038783 0.90514868 0.30078745 0.1107595
-0.039607584 -0.099752389 -0.45781958 0.40427551 0.82276708 0.39951921 0.1196989
0.044869661 -0.098337755 -0.45561457 -0.19250803 0.93207347 0.30688739 0.11327251
0.053465594 -0.096542656 -0.45552397 -0.016496284 0.96692771 0.25451651 0.091451354
0.11809224 -0.098277956 -0.45802334 -0.8026467 0.45210311 0.38905138 0.029552538
0.12394841 -0.093134388 -0.45435452 -0.85946542 0.33717296 0.38423127 0.057963748
-0.13131043 -0.084250271 -0.45328695 0.91538948 0.13421848 0.37953585 0.06887117
-0.1284468 -0.088365123 -0.45276904 0.90665305 0.1992206 0.37187552 0.068108059
0.12877986 -0.088475063 -0.4518733 -0.90023756 0.23809642 0.3645305 0.074093662
0.13239186 -0.082675233 -0.45353779 -0.92144746 0.024783695 0.38771167 0.087965876
-0.13242255 -0.077283293 -0.4570182 0.95345592 -0.16366105 0.25325248 0.082051888
-0.12267904 -0.07082881 -0.45190382 0.80397737 -0.58147913 0.12450888 0.077900149
0.12583578 -0.072651334 -0.45550534 -0.81283414 -0.55940956 0.16236274 0.08364892
0.1321758 -0.077305377 -0.45487604 -0.92403561 -0.25871286 0.28147087 0.10688287
-0.11626339 -0.067124732 -0.45536497 0.74517959 -0.6591863 0.10089988 0.05211496
-0.10737791 -0.06199469 -0.45665336 0.73493278 -0.67061055 0.1007738 0.04510168
0.10670818 -0.061607998 -0.45525128 -0.73141783 -0.68004102 0.050716359 0.05111568
0.1157872 -0.066849776 -0.45474333 -0.69726139 -0.70809793 0.11146212 0.041552424
0.12026243 -0.069433555 -0.45509738 -0.74768966 -0.65562254 0.10544772 0.07334853
-0.10305201 -0.059497137 -0.45439848 0.81685513 -0.55972368 0.13948873 0.065217517
0.096434511 -0.053884707 -0.45556459 -0.92207897 -0.2965318 0.24867517 0.10053113
0.10333324 -0.059659462 -0.4591285 -0.75334382 -0.64603156 0.12294844 0.059801504
-0.10052277 -0.041874293 -0.45289266 0.92695963 0.21824524 0.30514714 0.11826862
-0.0975665 -0.046473719 -0.45592242 0.95310992 0.041521087 0.29976228 0.093209408
0.098531164 -0.046324734 -0.45331994 -0.95019418 0.02577387 0.31059086 0.093671724
0.10035965 -0.042185262 -0.45299175 -0.89792097 0.29093328 0.33029658 0.13001592
-0.15238284 -0.033068951 -0.45349544 0.72111815 0.57896137 0.38051569 0.08392673
-0.1462703 -0.03914696 -0.45789957 0.5820269 0.7565695 0.29807252 0.082421124
-0.13104366 -0.035113052 -0.45952952 0.048783831 0.98312157 0.17632946 0.064479239
-0.12485187 -0.033453971 -0.45637378 -0.041483935 0.9936555 0.10453613 0.027705127
-0.11526583 -0.030885398 -0.45285797 0.13440366 0.97960305 0.14937688 0.060500819
-0.10233253 -0.037057307 -0.45342731 0.80353111 0.5513531 0.22438289 0.13675174
0.099392474 -0.038887583 -0.45971674 -0.80274516 0.40323022 0.43932402 0.11521913
0.10278202 -0.035859194 -0.45356235 -0.83084476 0.47671694 0.28712001 0.10563288
0.11668769 -0.031266373 -0.45610639 -0.067727633 0.98586076 0.15326938 0.05983106
0.12637289 -0.033861514 -0.45328766 -0.065381855 0.9886831 0.13502172 0.048020579
0.13466869 -0.036084376 -0.45499429 -0.032193795 0.98647588 0.16071391 0.073888488
0.14561255 -0.037883166 -0.45582712 -0.41653588 0.87257856 0.25515571 0.10247663
0.15108864 -0.033514459 -0.45642278 -0.53905129 0.79901081 0.2664685 0.09217564
-0.15363595 -0.024462016 -0.45320868 0.85392416 0.401113 0.33154473 0.051527236
-0.10999191 -0.029472258 -0.45295388 0.34713313 0.90548968 0.24410452 0.075715706
0.10431329 -0.027950658 -0.45961252 -0.37211698 0.87332612 0.31437299 0.099286981
0.15291353 -0.02402886 -0.45506465 -0.80902261 0.43987447 0.38986266 0.075522721
-0.1534255 -0.014893292 -0.45672137 0.91218609 0.15833388 0.37795091 0.0059878887
0.15394591 -0.014771965 -0.45551634 -0.91026795 0.17408176 0.37564328 0.013826561
-0.15623204 -0.0053768451 -0.45297119 0.93470496 0.032569624 0.35392907 0.0016347977
0.155964 -0.0037006524 -0.45415285 -0.93241388 0.016728347 0.36100483 0.0017654481
