# .PCD v0.7 - Point Cloud Data file format
VERSION 0.7
FIELDS x y z normal_x normal_y normal_z curvature
SIZE 4 4 4 4 4 4 4
TYPE F F F F F F F
COUNT 1 1 1 1 1 1 1
WIDTH 574
HEIGHT 1
VIEWPOINT 0 0 0 1 0 0 0
POINTS 574
DATA ascii
-0.096001849 0.072723806 -0.12562792 0.74946159 -0.6116817 -0.25328422 0.031183129
-0.085836038 0.07626424 -0.12224449 0.70726264 -0.6796189 -0.1946733 0.050453085
0.087035544 0.075651571 -0.12288921 -0.75325358 -0.62988544 -0.18934999 0.053809445
0.095563404 0.076480575 -0.12646177 -0.77031016 -0.60128826 -0.21230786 0.033013102
0.10055909 0.072718702 -0.12665701 -0.79307765 -0.56427443 -0.22939542 0.034812193
-0.090677381 0.085928448 -0.12706898 0.69080567 -0.68125027 -0.24225107 0.032625206
-0.086045727 0.083237953 -0.12545282 0.68118149 -0.69898087 -0.21775566 0.040436883
-0.074897557 0.085078999 -0.12079933 0.679977 -0.72136354 -0.13139971 0.055221856
-0.06998378 0.08853326 -0.12043835 0.63140136 -0.76445508 -0.13015643 0.063621305
0.076897219 0.085518599 -0.1224315 -0.60406786 -0.75904882 -0.24279004 0.050038431
0.085243486 0.087772943 -0.12604462 -0.64620996 -0.73286319 -0.21289486 0.044397779
0.093521617 0.082621358 -0.12847573 -0.73119807 -0.63022339 -0.26108977 0.030776151
-0.073800139 0.095624864 -0.12568329 0.61759061 -0.75942373 -0.20459084 0.037712757
-0.066842474 0.09470953 -0.12314359 0.56602603 -0.79539692 -0.21669869 0.048340201
0.058127068 0.098067135 -0.12093602 -0.49492541 -0.84699643 -0.19402547 0.053241387
0.061173558 0.098230585 -0.12321071 -0.52671349 -0.82114959 -0.21974149 0.048897114
0.074961387 0.094206728 -0.12546633 -0.56846565 -0.78065991 -0.25964755 0.033295136
0.080360912 0.094079256 -0.12784889 -0.58546185 -0.76005328 -0.2820524 0.021300729
-0.067162149 0.10188159 -0.12608869 0.54224825 -0.80418265 -0.24342778 0.03130215
-0.053393904 0.10408739 -0.12340704 0.47031951 -0.84685773 -0.24825706 0.040334009
-0.043971669 0.1084636 -0.12440188 0.37859944 -0.88452768 -0.27253109 0.034906559
-0.034925159 0.107422 -0.12010553 0.31201887 -0.91881138 -0.24172266 0.049490709
0.027677849 0.10998329 -0.12016997 -0.24264088 -0.95627111 -0.1633123 0.063173659
0.036672555 0.10840967 -0.1221212 -0.30714381 -0.91765594 -0.25213128 0.049643971
0.046718948 0.10610186 -0.12332476 -0.33677876 -0.91912383 -0.20442978 0.059762739
0.055274826 0.10573567 -0.12520826 -0.45404464 -0.85386682 -0.25446987 0.039783478
0.065017141 0.1055133 -0.12716249 -0.50036377 -0.81780905 -0.28429654 0.02834948
-0.054230336 0.11181016 -0.12726952 0.4724876 -0.83462763 -0.28311172 0.025022145
-0.044492662 0.11630523 -0.12717603 0.34141484 -0.89791077 -0.27783477 0.022910818
-0.033942379 0.11709505 -0.12585764 0.25287849 -0.92742479 -0.27556434 0.038056213
-0.024429226 0.11641409 -0.12520702 0.16706567 -0.93105739 -0.32437822 0.028148049
-0.015239827 0.1167126 -0.1243967 0.17705488 -0.93722999 -0.300419 0.031412534
-0.0047508096 0.11642017 -0.12353946 0.009879142 -0.96523023 -0.26121449 0.038218737
0.0049820202 0.11581472 -0.12306026 -0.034473561 -0.96940792 -0.24302223 0.046121314
0.019489976 0.11191203 -0.12138371 -0.2165125 -0.95899367 -0.18290298 0.056721624
0.026458317 0.11612161 -0.12505218 -0.256257 -0.92368257 -0.28485593 0.041026589
0.036672175 0.11741805 -0.12620398 -0.27191484 -0.92501581 -0.26534513 0.040152363
0.047653582 0.1153743 -0.12901153 -0.35747772 -0.90000176 -0.24941218 0.032572836
0.050449509 0.1141735 -0.12791361 -0.40802807 -0.87438303 -0.26261663 0.032994464
0.060175404 0.11010082 -0.12776652 -0.48070979 -0.84452873 -0.23598585 0.028613867
-0.032241795 0.12150252 -0.1291059 0.24714531 -0.93325704 -0.26067331 0.027078757
-0.023885403 0.12165707 -0.12648803 0.16324824 -0.92999166 -0.32934102 0.025765903
-0.015690643 0.12309207 -0.12735403 0.13482346 -0.94985944 -0.28211668 0.026416881
-0.0062388275 0.12344848 -0.12704737 0.03455187 -0.96083212 -0.27496874 0.033657882
0.006117221 0.12311332 -0.12622955 -0.0817426 -0.9661153 -0.24482511 0.038136691
0.013918327 0.12392825 -0.1280888 -0.13281864 -0.96561903 -0.22347052 0.036362372
0.025068481 0.12228893 -0.12829892 -0.20570047 -0.93947554 -0.27399471 0.03164478
0.032112394 0.12080911 -0.12805763 -0.26724949 -0.92036527 -0.28549147 0.032432947
-0.015470485 -0.11091828 -0.11578068 0.13619897 0.99002045 -0.036185145 0.053662792
-0.0052798502 -0.11166529 -0.11409312 0.055798776 0.99560899 -0.075161308 0.053501852
0.0024294569 -0.11204186 -0.11357234 0.027206633 0.99852735 -0.046935618 0.059309509
0.015604593 -0.11071873 -0.11424953 -0.18686214 0.98221707 0.018227628 0.057964474
-0.045082599 -0.1024284 -0.11427358 0.47039247 0.88172686 -0.035897095 0.067998961
-0.026952729 -0.10939804 -0.11100606 0.24496652 0.96934193 0.01917397 0.065704718
0.027908811 -0.10890398 -0.11531617 -0.31477103 0.94766086 -0.053460464 0.060208496
0.03423902 -0.10666854 -0.11561898 -0.38978344 0.92023301 -0.035215057 0.072039902
0.045951799 -0.1017151 -0.11517702 -0.46555963 0.88404495 -0.041459657 0.074756019
0.050756715 -0.10010627 -0.11829184 -0.52160907 0.84808916 -0.093105495 0.068253145
-0.065780677 -0.090157345 -0.11248323 0.63096625 0.7757622 -0.0086418847 0.071786895
-0.056938663 -0.096730426 -0.11342086 0.53590381 0.84425122 -0.0068573663 0.070053205
-0.049533829 -0.099943712 -0.11462829 0.52265537 0.85253704 0.0034694092 0.066244461
0.054990839 -0.097884424 -0.11526378 -0.48851839 0.87147313 0.043410409 0.077760503
0.063277364 -0.092171848 -0.11697758 -0.60494053 0.7924301 -0.078112401 0.070187062
-0.071748212 -0.085447237 -0.11556172 0.66324103 0.7468527 -0.048192136 0.071929574
-0.068127617 -0.088475615 -0.11214674 0.61741853 0.78647429 -0.015894298 0.075608499
0.067344412 -0.088897176 -0.11470027 -0.58359528 0.80937803 -0.065754786 0.06783282
0.074058264 -0.084268898 -0.1143429 -0.64063901 0.76715487 -0.032481126 0.074009396
-0.085275963 -0.072504066 -0.11596006 0.73153806 0.67144209 -0.11839607 0.068504609
-0.079089254 -0.07972838 -0.11586095 0.71482086 0.6956439 -0.07148952 0.073884174
0.078928985 -0.079898186 -0.11325745 -0.66552365 0.7455259 0.035628092 0.074683458
0.081982173 -0.076468937 -0.11248793 -0.67783177 0.73479283 0.024973733 0.067988187
-0.090342805 -0.065462679 -0.11427705 0.79512781 0.60586405 -0.026469465 0.074254274
-0.088655218 -0.067795113 -0.11364063 0.76142442 0.6453436 -0.061354764 0.074140593
0.089536667 -0.066615187 -0.11365227 -0.80854881 0.58702224 -0.040665433 0.069567464
0.091247469 -0.064985521 -0.11234833 -0.81322879 0.58164257 0.018732252 0.065708779
-0.096605986 -0.056708332 -0.11555602 0.85597819 0.51625931 -0.027886961 0.067686439
0.10011788 -0.05058543 -0.11117333 -0.88544375 0.46468318 -0.0076724635 0.069782458
-0.1026026 -0.043219045 -0.11471256 0.88712698 0.46094388 -0.023161585 0.069627039
0.10267126 -0.043920219 -0.11469939 -0.91496646 0.39864141 -0.062621258 0.068648987
-0.10507212 -0.037588745 -0.11610781 0.94921398 0.31448391 -0.0096256547 0.066902235
0.10722019 -0.032984916 -0.11439837 -0.94038528 0.33976716 -0.015291309 0.063725434
-0.11021632 -0.02130161 -0.11074293 0.98412257 0.16650531 0.06147217 0.069881707
-0.10919566 -0.025794411 -0.11394346 0.97198194 0.22964109 0.050160766 0.06643901
0.1094824 -0.024430918 -0.11479067 -0.96637446 0.2305353 -0.11390314 0.065849558
-0.11108985 -0.011389948 -0.11750671 0.98968101 0.077940494 -0.12023631 0.064365923
0.11082859 -0.014976732 -0.11441346 -0.99014848 0.13894823 0.01730164 0.072193533
-0.11179933 -0.0042728488 -0.11523968 0.99901348 -0.01323696 -0.042388104 0.071752973
0.11218176 -0.0029151947 -0.11336447 -0.99918181 -0.040378209 0.0022977244 0.069143817
-0.11224376 0.0060682665 -0.11857409 0.99082875 -0.054886829 -0.12347411 0.064948156
0.1118335 0.0049481862 -0.11603312 -0.99702787 -0.030268949 -0.070845306 0.070017062
-0.11100504 0.013147324 -0.11603447 0.99374151 -0.09881188 -0.052096087 0.071799077
0.11089158 0.012820509 -0.11581966 -0.98457247 -0.12296797 -0.12448359 0.070351511
-0.1102462 0.02147132 -0.11883329 0.96978396 -0.18719679 -0.15644911 0.061909854
-0.10955777 0.023728259 -0.11607239 0.96303332 -0.21279885 -0.16517724 0.062118515
0.10944386 0.025174145 -0.11702599 -0.98249125 -0.17374164 -0.067266889 0.07204365
0.11040106 0.020965099 -0.11907531 -0.96844852 -0.18408987 -0.16798311 0.058317684
-0.10639384 0.034853816 -0.11641201 0.95548749 -0.27921158 -0.0953127 0.06832505
0.10646273 0.03504834 -0.11379794 -0.93730271 -0.34075263 -0.073152557 0.068377376
-0.10245334 0.044844519 -0.11648639 0.8889181 -0.44678771 -0.10102187 0.064987049
0.1015716 0.045981903 -0.11325728 -0.90257788 -0.4292919 -0.032585204 0.069163494
-0.097028293 0.056446593 -0.11577924 0.86029452 -0.5092786 -0.022995925 0.069427155
0.097254425 0.055332992 -0.11442726 -0.87111819 -0.48777592 -0.056813363 0.06969931
-0.091722921 0.063747793 -0.11541767 0.79424256 -0.60533017 -0.052479334 0.071994096
-0.088315971 0.068077743 -0.11284174 0.75902247 -0.64989907 0.038935866 0.072108015
0.087443277 0.069831342 -0.11111063 -0.76705027 -0.64136738 0.016786609 0.074424602
0.091976412 0.063943364 -0.11728477 -0.82159746 -0.55363274 -0.13589859 0.061525151
-0.083883315 0.073957957 -0.11428008 0.72225094 -0.69113249 -0.026257692 0.064912379
-0.078993767 0.079961799 -0.11723053 0.69887483 -0.71450365 -0.032534063 0.070617072
0.08171995 0.07656157 -0.1145172 -0.73337883 -0.66533446 -0.13959104 0.078176215
-0.073451839 0.084401526 -0.11565206 0.66942602 -0.74276859 0.012794442 0.06992276
-0.068528406 0.088656366 -0.11498404 0.6612041 -0.75004321 0.015633948 0.069045939
0.068189062 0.08836744 -0.11552963 -0.57174289 -0.81585354 -0.086562626 0.069161326
0.074626654 0.083162501 -0.11595048 -0.64549404 -0.75628531 -0.10663086 0.067554332
-0.063022338 0.092687979 -0.11638251 0.58087695 -0.81340504 -0.030891517 0.072261192
-0.056726445 0.097325176 -0.11800583 0.51531398 -0.85359764 -0.07630641 0.070800319
0.049925137 0.099950455 -0.11641634 -0.47151595 -0.87292796 -0.12517813 0.072765961
0.056261327 0.096997835 -0.11435119 -0.50851667 -0.85878652 -0.062422935 0.079303816
0.062852792 0.092376992 -0.11341342 -0.54724151 -0.83482397 -0.059963834 0.072511598
-0.050406478 0.10029723 -0.11096285 0.43581137 -0.89629334 0.08201658 0.064714655
-0.044810254 0.10239144 -0.11445855 0.42755064 -0.9003346 -0.081228212 0.064953923
-0.036140919 0.10567475 -0.11413831 0.32564849 -0.93431622 -0.14493561 0.069709606
-0.025738975 0.10896323 -0.11592434 0.27544048 -0.95291954 -0.12679505 0.061777323
-0.019532284 0.1098901 -0.11700942 0.16256 -0.97581428 -0.14615303 0.066004097
0.019118225 0.10997148 -0.11722992 -0.20257714 -0.97444701 -0.097034201 0.072127387
0.027772471 0.10889962 -0.11448493 -0.25468567 -0.96378046 -0.079136275 0.062867373
0.03450748 0.10668653 -0.1123403 -0.32628593 -0.94517547 -0.013444734 0.079275884
0.04254052 0.10293841 -0.11457352 -0.33848122 -0.93028998 -0.14138979 0.078207321
-0.015265471 0.11086652 -0.11553766 0.17747961 -0.97919238 -0.098403886 0.06990134
-0.0053479443 0.1121021 -0.11554478 -0.011782742 -0.99816245 -0.059438709 0.072479956
0.0047428366 0.11203317 -0.11458737 -0.06603124 -0.99749815 -0.025245991 0.079505652
0.015592161 0.11060584 -0.11523818 -0.19721165 -0.97931355 -0.04530593 0.075479679
0.020316061 0.11003399 -0.11783398 -0.19797495 -0.97545624 -0.096389808 0.07302212
-0.02412303 -0.12039414 -0.1003354 0.22663295 0.96877396 0.10057074 0.0376762
-0.015266994 -0.1210736 -0.10109043 0.12356934 0.99070817 0.056814466 0.040968318
-0.004129068 -0.12251277 -0.10105477 0.03501201 0.99742037 0.062664352 0.042681795
0.0027201471 -0.12252183 -0.10135845 -0.0032085427 0.99890912 0.046584856 0.040922377
0.013004893 -0.12198196 -0.10014211 -0.10347221 0.99193019 0.073267385 0.033689935
-0.051169153 -0.1112143 -0.10062231 0.40442181 0.90773249 0.11164552 0.03669088
-0.04022589 -0.11582764 -0.10050546 0.32516703 0.93771839 0.12227249 0.03824389
-0.034651153 -0.116226 -0.10234318 0.31304318 0.94259638 0.11625832 0.038591638
-0.024341242 -0.1139461 -0.10598069 0.23101477 0.96989197 0.077082194 0.044515558
-0.015529788 -0.11485378 -0.1062682 0.13866426 0.98296374 0.12064202 0.042754203
0.0060250508 -0.11843551 -0.10440015 -0.034521043 0.99191624 0.12210878 0.038894877
0.017494258 -0.11372648 -0.1069596 -0.19336125 0.97665834 0.093541391 0.049341097
0.025513183 -0.1169765 -0.10370034 -0.25838211 0.96132082 0.095398985 0.042641502
0.036248285 -0.11524681 -0.10274986 -0.33711037 0.93603116 0.10100598 0.039636225
0.041691992 -0.11088955 -0.10432854 -0.36772573 0.92167145 0.12369092 0.047499873
0.052731019 -0.11092828 -0.10009108 -0.43990847 0.89401942 0.084910043 0.041457679
-0.064238794 -0.10324731 -0.10212545 0.5251261 0.84112716 0.12941287 0.042531591
-0.055116225 -0.10458121 -0.10471287 0.48490557 0.85739833 0.17243734 0.042611945
-0.048046667 -0.10406471 -0.10708696 0.43200821 0.88776767 0.15886316 0.04057885
-0.036815006 -0.10652475 -0.10976676 0.34966913 0.93376964 0.076195091 0.051843505
0.038924851 -0.10754983 -0.10717943 -0.35711783 0.92455083 0.13293865 0.047095463
0.046308327 -0.10640811 -0.10586039 -0.41313377 0.89706713 0.15681542 0.044109467
0.054210216 -0.10522471 -0.10449799 -0.4788461 0.86012286 0.17576988 0.044379592
0.062559322 -0.10661476 -0.10008425 -0.53058022 0.83840746 0.12473031 0.040306997
-0.073302723 -0.095275007 -0.10305346 0.60664862 0.78264642 0.13943444 0.040843707
-0.064780921 -0.095815361 -0.1066344 0.58472788 0.79600382 0.15643266 0.041134655
0.05994086 -0.09620849 -0.10908996 -0.56272024 0.8117702 0.15612528 0.06593886
0.066208713 -0.094633356 -0.10652009 -0.56790239 0.80397701 0.17637418 0.040229853
0.073919512 -0.094578736 -0.10298919 -0.61534935 0.77801192 0.12665935 0.03823759
-0.084751844 -0.085665189 -0.10352153 0.70474011 0.69929636 0.11969063 0.039573021
-0.074964486 -0.086925931 -0.10717724 0.6647588 0.7387827 0.11088599 0.051056966
0.074120983 -0.086377516 -0.10791236 -0.63459426 0.76343167 0.12025931 0.058186684
0.082963027 -0.083618902 -0.10516978 -0.68688321 0.72087425 0.092367806 0.049159013
0.09018065 -0.083080582 -0.10095033 -0.70846516 0.69390839 0.12871738 0.043187238
-0.09546306 -0.072310537 -0.10283118 0.7720657 0.62312794 0.12500474 0.040289864
-0.085585907 -0.075200848 -0.10788964 0.73477018 0.65904897 0.16052215 0.0471926
0.086521856 -0.073097073 -0.10871756 -0.75622857 0.64212322 0.1256827 0.063579828
0.095546894 -0.072236933 -0.10312075 -0.79394078 0.59078896 0.14361922 0.040604327
0.10081175 -0.070075363 -0.10013795 -0.81960577 0.55018705 0.1598143 0.03536649
-0.10107438 -0.06826508 -0.10154188 0.80051708 0.58442312 0.13274813 0.039517779
-0.095821775 -0.067052841 -0.10517028 0.77865165 0.60928684 0.14990386 0.042596608
0.09600392 -0.063813552 -0.10665679 -0.84149599 0.52445418 0.1297396 0.048939377
0.10136397 -0.068936676 -0.10053864 -0.81709892 0.55407465 0.15921922 0.037013337
-0.10560592 -0.05450432 -0.10409645 0.85739076 0.49380347 0.14504914 0.042097181
-0.097187214 -0.058196433 -0.10970826 0.82476389 0.51123536 0.24166709 0.049338743
0.098943032 -0.057439968 -0.10806318 -0.86212617 0.49404815 0.11249408 0.052513886
0.10484277 -0.054759987 -0.10435759 -0.88023835 0.46497527 0.094753921 0.046240531
0.11108823 -0.050125204 -0.10143284 -0.8974911 0.42490345 0.1181818 0.035435863
-0.11251064 -0.04408066 -0.10257529 0.90930378 0.40698445 0.086777039 0.043783873
-0.1051122 -0.047602993 -0.10656764 0.88846105 0.43301958 0.15208898 0.044844348
0.1048668 -0.044707328 -0.10801403 -0.90011722 0.42150417 0.11010557 0.046635747
0.11109021 -0.044691928 -0.10383827 -0.92037982 0.37141329 0.1222826 0.035939604
-0.11345138 -0.035082333 -0.10413962 0.92738849 0.34450561 0.14583045 0.047292296
-0.10851083 -0.033399709 -0.10884491 0.92720282 0.35819426 0.1095069 0.056193445
0.10789244 -0.039821595 -0.10640692 -0.92643535 0.34644315 0.14729136 0.044262402
0.11370637 -0.035933483 -0.10416352 -0.93666857 0.31613269 0.15070516 0.041373294
-0.12051657 -0.02247021 -0.10048363 0.97932941 0.1666528 0.11463386 0.04294477
-0.1172981 -0.026266519 -0.10346133 0.97271997 0.20349635 0.11137869 0.048994407
0.11703879 -0.023922529 -0.10395388 -0.97025913 0.21388678 0.11335654 0.04348908
-0.12196432 -0.01084369 -0.10061276 0.99436665 0.051048297 0.092892624 0.036928441
-0.1128177 -0.013825877 -0.10803105 0.98588628 0.089526385 0.14146797 0.056163374
0.11605785 -0.01584224 -0.1054099 -0.98293358 0.1510624 0.10498462 0.052170724
-0.11787122 -0.0020747969 -0.10501266 0.99646336 -0.013357813 0.082960494 0.043384612
0.1151979 -0.0045592533 -0.10695329 -0.99141467 -0.050268643 0.12070685 0.05317948
0.12225729 -0.0041775629 -0.10152332 -0.99232173 0.0067252289 0.12350036 0.046214148
-0.12126628 0.0012343439 -0.10328247 0.99608994 -0.018430974 0.086400248 0.041996133
-0.1139941 0.0066163102 -0.10782065 0.98983949 -0.018259468 0.14101192 0.049159024
0.11536949 0.0042920639 -0.10719363 -0.99164671 -0.054857515 0.11673636 0.043365795
0.12255055 0.0057115173 -0.10075203 -0.9933697 -0.064235687 0.095344141 0.046001032
-0.12045676 0.015953673 -0.10191301 0.98772925 -0.12060706 0.099221587 0.04131937
-0.11695701 0.016921649 -0.10449556 0.98099589 -0.13795489 0.1364387 0.039008979
0.11293953 0.016095303 -0.10773559 -0.97393805 -0.17228621 0.14752035 0.051723745
0.12084505 0.014295377 -0.1016346 -0.98390239 -0.13265786 0.11974158 0.042632561
-0.11460236 0.026176624 -0.10530131 0.9745211 -0.20212796 0.097226366 0.047811903
0.11440299 0.023502503 -0.10588608 -0.97387511 -0.1996381 0.10822159 0.052824549
-0.11519182 0.034128767 -0.10362098 0.95245302 -0.27793169 0.12484939 0.046892103
-0.10845775 0.036790524 -0.10715291 0.93661916 -0.32622585 0.12775458 0.047100615
0.10695972 0.036744237 -0.10920213 -0.93607152 -0.3345795 0.10875021 0.060645081
0.11479381 0.0331599 -0.10379054 -0.9588027 -0.25164667 0.1318001 0.038516842
-0.11219001 0.043241598 -0.10351357 0.92158109 -0.37621555 0.09565714 0.042792514
-0.10550322 0.046559066 -0.10668511 0.8887127 -0.42846981 0.1631051 0.049790666
0.10574768 0.044065926 -0.10708242 -0.90481496 -0.40164158 0.14139998 0.049553208
0.11299799 0.044720113 -0.10176411 -0.92540866 -0.36666748 0.0957793 0.042562757
-0.10284694 0.054534547 -0.10616435 0.85589337 -0.48955974 0.16666719 0.040638097
-0.099822566 0.054524768 -0.10858635 0.85078281 -0.50056845 0.15999928 0.044280894
0.097400859 0.058934662 -0.10851331 -0.86274481 -0.50063032 0.070997834 0.055230115
0.10392129 0.055750784 -0.10503802 -0.86815101 -0.48526314 0.10408421 0.042186726
-0.10341576 0.06218487 -0.10351297 0.8384918 -0.52796924 0.13483328 0.040739059
-0.09531901 0.065869398 -0.10612271 0.8233735 -0.5578987 0.10394779 0.044757653
0.089911044 0.06859085 -0.10859004 -0.795205 -0.60300589 0.063504599 0.062563926
0.094627373 0.064685956 -0.10695327 -0.83399874 -0.53965533 0.11497049 0.056071032
0.10148383 0.066908427 -0.1019971 -0.83195895 -0.54191244 0.11905988 0.038704969
-0.091599204 0.0735958 -0.10512286 0.74253589 -0.65592062 0.13567834 0.044824362
-0.086012706 0.076035649 -0.10690263 0.7147972 -0.67371505 0.18754467 0.048937131
0.088706233 0.079385012 -0.10429647 -0.75037926 -0.65454668 0.092192963 0.046743594
0.093720697 0.073589064 -0.10341299 -0.75468957 -0.65250444 0.068421565 0.046038784
-0.091300517 0.081751123 -0.10082605 0.72676158 -0.67505646 0.12695023 0.038949203
-0.084550798 0.087531544 -0.10229949 0.68823451 -0.7081849 0.15750356 0.037508767
-0.077876896 0.084921539 -0.10681489 0.66870987 -0.71194321 0.21439223 0.035808444
0.06985449 0.088935845 -0.10859536 -0.63617688 -0.76574886 0.09437988 0.063128404
0.073069863 0.087318629 -0.10803427 -0.60024774 -0.79734641 0.062779516 0.065359071
0.083495736 0.083948426 -0.1046113 -0.69863701 -0.7071017 0.1091491 0.04742451
0.091273367 0.082095429 -0.10053059 -0.73775619 -0.66847563 0.094107389 0.042162176
-0.080145843 0.092077702 -0.10139261 0.66558295 -0.72942483 0.15791985 0.038971297
-0.070939094 0.095057294 -0.10425664 0.58662832 -0.78406912 0.20273873 0.03381611
-0.068237193 0.093133613 -0.10604681 0.56363797 -0.78263122 0.26419812 0.030107407
-0.058028623 0.099148206 -0.10736816 0.49283051 -0.85122162 0.18038827 0.043762434
0.057805702 0.097791828 -0.10904276 -0.50990099 -0.85941714 0.03745997 0.068401001
0.064269722 0.095777251 -0.10684833 -0.54656523 -0.83063298 0.1063733 0.053891666
0.075820155 0.093337029 -0.103205 -0.62708312 -0.76556772 0.14378035 0.042532891
-0.070198447 0.10068675 -0.10017601 0.57104796 -0.80838037 0.14291708 0.039414555
-0.0653001 0.10237622 -0.10226566 0.52662677 -0.83173043 0.17575186 0.039873719
-0.052454472 0.10612958 -0.10445384 0.40450436 -0.89806503 0.17278752 0.041189168
-0.044990841 0.10586102 -0.10675408 0.37346318 -0.91075784 0.17619672 0.04207598
-0.03716347 0.10835901 -0.10709094 0.34678823 -0.93368834 0.089240901 0.049833827
0.038403582 0.10663113 -0.10871074 -0.36394492 -0.92617148 0.09874469 0.067257479
0.044974346 0.10623851 -0.10677175 -0.34930551 -0.93229371 0.093882993 0.057522066
0.055489559 0.10524142 -0.10442996 -0.47531185 -0.87369561 0.10360868 0.06153756
0.06347958 0.10399632 -0.10236818 -0.53257531 -0.83952481 0.10752553 0.051532846
-0.043520391 0.11185487 -0.10339446 0.33369276 -0.93795133 0.094321333 0.040149692
-0.032986633 0.11323918 -0.10495253 0.29322466 -0.95222861 0.08532279 0.047363538
-0.026007921 0.11464664 -0.10517567 0.25860745 -0.96523964 0.037876144 0.051271424
-0.016058564 0.11584627 -0.1055624 0.14860018 -0.98090738 0.12545414 0.042132717
-0.007501673 0.11565194 -0.10589576 0.021361431 -0.98731875 0.15730681 0.043084215
0.0028032109 0.11740058 -0.10541467 -0.057183262 -0.98702574 0.15003453 0.048374549
0.015128684 0.11560082 -0.10532381 -0.14645113 -0.97195894 0.18397805 0.048703156
0.025099801 0.11431918 -0.10554814 -0.26146832 -0.95676643 0.12740649 0.048175406
0.033849489 0.11436824 -0.10411489 -0.27527034 -0.95348895 0.1228215 0.049306009
0.045839895 0.11208441 -0.10240362 -0.38705787 -0.91432351 0.11915843 0.049675569
0.050278768 0.11143392 -0.1008388 -0.41261923 -0.90547353 0.099312194 0.045379519
-0.0040802131 0.12131473 -0.10277768 0.03497909 -0.98887873 0.14455222 0.04394681
0.0039588828 0.1215448 -0.1023993 -0.088711299 -0.988388 0.12336739 0.043362368
0.012266217 0.12205931 -0.1001731 -0.10941831 -0.98547006 0.12990887 0.042195391
0.022645967 0.1205985 -0.10031996 -0.20478906 -0.97344923 0.10226429 0.043747418
-0.032002434 -0.12144096 -0.093668178 0.25450921 0.96652657 0.032424498 0.05027695
-0.024007229 -0.12262702 -0.092360809 0.19966176 0.97985911 -0.0033526479 0.052401215
-0.014452819 -0.12373353 -0.092747152 0.097895443 0.99515533 0.0090779001 0.047506012
0.0062602856 -0.12442825 -0.095356204 -0.047646206 0.9935475 0.10292296 0.048561979
0.015266043 -0.12261754 -0.097143441 -0.13029453 0.9875738 0.08787071 0.042682681
0.027143992 -0.12187049 -0.094692402 -0.2190621 0.97552603 0.018992266 0.047733627
0.032978073 -0.12100592 -0.093415767 -0.21965297 0.97557068 0.0038142619 0.049452197
-0.054049414 -0.11220855 -0.095176779 0.45577151 0.88370502 0.10647892 0.044964276
-0.048029758 -0.11514582 -0.092545867 0.38999197 0.92046529 0.025496313 0.053655315
-0.037355129 -0.11859372 -0.096245326 0.32745343 0.94079906 0.087586358 0.044192117
0.036377732 -0.11938535 -0.095994927 -0.27017096 0.96105033 0.05822257 0.046645973
0.044114321 -0.11606418 -0.096014701 -0.36813548 0.92598182 0.083869137 0.049428049
0.052230638 -0.11252533 -0.09482868 -0.45271564 0.88940823 0.063257486 0.044836003
-0.070985407 -0.10080671 -0.098977938 0.57818854 0.80392295 0.13930485 0.037702117
-0.066608198 -0.10546444 -0.09526699 0.53236789 0.836447 0.13015734 0.042391222
-0.059679955 -0.1095814 -0.09659335 0.51090157 0.84964883 0.13067703 0.044209503
0.057705771 -0.10975211 -0.09834668 -0.47502485 0.87540901 0.089500964 0.043162417
0.063795142 -0.10753592 -0.095058419 -0.51027179 0.85440534 0.098051563 0.050496094
0.071911015 -0.10183518 -0.093179666 -0.56064373 0.82197481 0.10017983 0.04439136
-0.084368333 -0.092498384 -0.092984818 0.65876693 0.7502628 0.055963062 0.052882921
-0.079033464 -0.096047603 -0.094755419 0.66849214 0.73897338 0.083884381 0.045769107
0.076941401 -0.097254485 -0.096705258 -0.63255936 0.76369268 0.1290047 0.036572341
0.082815424 -0.092706971 -0.095871009 -0.62447399 0.76770335 0.14374921 0.038715295
-0.09117464 -0.085256435 -0.095265344 0.72893608 0.67713279 0.10071477 0.045864224
0.088439256 -0.087030813 -0.098782919 -0.68559945 0.71842098 0.11757871 0.043698538
0.092882395 -0.082857177 -0.095197603 -0.73157108 0.6565125 0.18383434 0.041590534
-0.10179817 -0.071939871 -0.092690371 0.81907499 0.56595266 0.09388119 0.054962624
-0.097001456 -0.076847389 -0.096838094 0.7758618 0.61397082 0.14518377 0.040809005
0.09626399 -0.07817255 -0.09619756 -0.74775493 0.64442492 0.1599347 0.040845238
0.10136168 -0.0710494 -0.097904876 -0.81413084 0.55892551 0.15745866 0.035681896
-0.11012569 -0.060362902 -0.09188056 0.88162261 0.46919471 0.050970279 0.049303126
-0.10597323 -0.066053592 -0.094071291 0.82646132 0.56164581 0.038931835 0.054898836
0.10557257 -0.066097133 -0.095876776 -0.86905932 0.47864407 0.12504266 0.038415935
-0.11188882 -0.055363756 -0.093390554 0.8912484 0.44465271 0.089219794 0.046181101
0.11301526 -0.051699191 -0.09606 -0.90488917 0.41592935 0.090434022 0.035470262
-0.11518466 -0.046757635 -0.094013527 0.91522658 0.39253742 0.090965569 0.051211763
0.11599658 -0.045906279 -0.093148649 -0.91033721 0.41132513 0.045802433 0.050434154
-0.12159391 -0.030634133 -0.093075901 0.96066171 0.27228576 0.054676577 0.062297773
-0.11900842 -0.03656809 -0.096379638 0.94517124 0.3074261 0.11018357 0.057625305
0.12102151 -0.033043317 -0.093780912 -0.95125246 0.29951596 0.073546059 0.046091571
-0.12182053 -0.026036644 -0.094552882 0.97389686 0.20864636 0.089395985 0.05982428
-0.11990145 -0.029874934 -0.099854685 0.96154147 0.25691938 0.09711013 0.045148972
0.12118967 -0.023377884 -0.09894447 -0.97108573 0.19890672 0.13201809 0.038055427
-0.12297494 -0.014653588 -0.097035341 0.99434406 0.044803634 0.096293211 0.043128252
0.12287239 -0.014428298 -0.097734869 -0.9809745 0.12297525 0.15022014 0.038293283
0.12478144 -0.0061695813 -0.094200648 -0.99725688 -0.0044471598 0.073884577 0.0539288
-0.12473718 0.0050975629 -0.094577074 0.99298376 -0.0091477921 0.11789658 0.036990598
0.12502608 0.0026284507 -0.094993539 -0.98880976 -0.0047537596 0.14910625 0.048333436
-0.12269578 0.0155587 -0.096645251 0.98898315 -0.10632027 0.10299642 0.039264258
0.12270761 0.012682229 -0.098713517 -0.98806524 -0.11815 0.098831885 0.038189966
-0.12295268 0.020341437 -0.094629705 0.99064112 -0.12634596 0.051640879 0.050728347
0.12233581 0.025918135 -0.092578612 -0.97723109 -0.19898842 0.073641397 0.051123615
-0.1207372 0.030396702 -0.097892351 0.96744817 -0.24031892 0.079314187 0.051638149
-0.11890264 0.039128333 -0.091529459 0.94736511 -0.31412199 -0.061859749 0.057192218
0.11869238 0.038863402 -0.094210081 -0.93742764 -0.32755625 0.11805226 0.048190791
0.12066165 0.033090562 -0.09523987 -0.95999187 -0.26536945 0.08941336 0.049061742
-0.11696684 0.043525815 -0.09250278 0.92284906 -0.36513224 0.12258849 0.038452972
0.11556157 0.044926412 -0.096441075 -0.93124682 -0.3411684 0.12799831 0.043525465
-0.11197967 0.054563377 -0.09463466 0.87993461 -0.45252323 0.14469901 0.041072682
-0.1097331 0.058588192 -0.09749572 0.86980128 -0.48578125 0.086384498 0.040533591
0.10899582 0.058487982 -0.099205136 -0.86874795 -0.47073185 0.1539112 0.035707027
0.11204483 0.055623278 -0.092132255 -0.88842386 -0.4549332 0.061146535 0.046359919
-0.10572232 0.066071063 -0.095100835 0.84769875 -0.52047509 0.10252989 0.051812202
0.10448352 0.068243593 -0.094791904 -0.84221369 -0.52156198 0.13656223 0.038483825
-0.10024637 0.074347124 -0.092710994 0.8103112 -0.57452375 0.1154046 0.047650557
-0.096946605 0.077338912 -0.095750086 0.79476452 -0.58360523 0.16659623 0.038123257
0.098503917 0.074639194 -0.097575329 -0.80707783 -0.58140314 0.10293571 0.037297335
-0.092350192 0.082962424 -0.097182631 0.738729 -0.66658133 0.099744044 0.040031482
0.088877954 0.087869361 -0.096372232 -0.69723815 -0.70169824 0.14655532 0.039081484
0.093090393 0.082891144 -0.09513697 -0.74437541 -0.65673941 0.12082463 0.045057759
-0.082379237 0.09376049 -0.094007634 0.66308981 -0.74394232 0.08283551 0.045296662
-0.07561107 0.098155893 -0.096786469 0.60241449 -0.78254318 0.15723525 0.039405208
0.07684765 0.098119594 -0.093331166 -0.57865506 -0.80402333 0.13676552 0.042788461
0.082048967 0.09303648 -0.097310081 -0.66296577 -0.74210966 0.098739989 0.045026299
-0.072260216 0.1016347 -0.093817018 0.56562442 -0.81996441 0.087905355 0.054691527
-0.066670962 0.10540265 -0.095010571 0.52189004 -0.85147631 0.051174119 0.052543398
-0.059934601 0.10913214 -0.097618505 0.44537437 -0.8806923 0.16131604 0.040934697
0.059714392 0.10923194 -0.09759412 -0.49070418 -0.8576299 0.1538842 0.041334536
0.068239324 0.10346837 -0.096756272 -0.56555516 -0.80962574 0.15701453 0.040928151
0.072727099 0.10073273 -0.095276058 -0.58050567 -0.80406713 0.12840991 0.034594037
-0.055566099 0.11160866 -0.094319142 0.40409985 -0.90474886 0.13465831 0.0465413
-0.04536033 0.11544956 -0.096316934 0.30749792 -0.94055825 0.14420536 0.036772195
-0.038642388 0.11837086 -0.096392266 0.31315908 -0.93921113 0.14076167 0.04229939
0.04701817 0.11467574 -0.096414052 -0.39682943 -0.90660679 0.1434937 0.037601765
0.053543583 0.11235556 -0.094801009 -0.42446837 -0.89411628 0.14276768 0.043466121
-0.024317035 0.12251902 -0.091919407 0.22256519 -0.97475731 0.017687229 0.051659003
-0.017246099 0.12366982 -0.091429465 0.17037655 -0.98537588 0.0024715387 0.050564613
-0.0056773331 0.12445033 -0.094193436 0.091783375 -0.9953689 0.028573351 0.051193088
0.0034429259 0.12511824 -0.094087452 -0.029114569 -0.99171644 0.12510364 0.037790127
0.016150991 0.1232568 -0.094739191 -0.15435453 -0.97795016 0.14067048 0.045555282
0.025553906 0.12221628 -0.094045438 -0.19206683 -0.96769035 0.16335799 0.040642079
0.033314649 0.12098185 -0.093381859 -0.25869134 -0.95390284 0.15214552 0.040838268
-0.031892505 -0.12081065 -0.086291902 0.23751447 0.95544225 -0.17526233 0.04690304
-0.015077985 -0.12227947 -0.084204666 0.131246 0.98131859 -0.14067112 0.035259128
-0.0051157335 -0.12450077 -0.086872108 0.037537836 0.97101837 -0.23603879 0.030720897
0.0033964331 -0.12350285 -0.083658002 -0.06231929 0.96367729 -0.25969693 0.024747605
0.015778981 -0.12316115 -0.086971432 -0.13026014 0.96923834 -0.20882858 0.03970398
-0.052921709 -0.11158764 -0.085813597 0.40495935 0.89879245 -0.16786899 0.039892782
-0.045784783 -0.11427628 -0.084355116 0.36849058 0.90074986 -0.22992249 0.03522842
-0.037180044 -0.11691314 -0.082868256 0.30927977 0.93192476 -0.18937366 0.041594058
-0.02458057 -0.11870035 -0.080313832 0.20332162 0.96798378 -0.1472002 0.039677311
0.026906505 -0.11917615 -0.081383251 -0.18776368 0.96690303 -0.17275237 0.040114693
0.036050741 -0.11785834 -0.08312802 -0.31473291 0.926099 -0.20804773 0.039818425
0.043892756 -0.11637945 -0.087263197 -0.34588259 0.9057914 -0.24475941 0.040133212
0.054600406 -0.11218637 -0.088359319 -0.44099033 0.88038689 -0.17448941 0.039852608
-0.070339352 -0.10177912 -0.085314527 0.56794614 0.80258268 -0.18247776 0.037627712
-0.066703305 -0.10425158 -0.084941357 0.51458728 0.83964723 -0.17375992 0.042961061
-0.056525487 -0.10907815 -0.082540356 0.48638052 0.84569573 -0.21961947 0.032237031
0.05448816 -0.1092966 -0.081888758 -0.38681087 0.89766592 -0.21112379 0.036197353
0.064858727 -0.10601173 -0.085411787 -0.49655768 0.84103882 -0.21467213 0.036696665
-0.081610203 -0.092573643 -0.084313609 0.67118871 0.71702379 -0.18810274 0.038224619
-0.073197432 -0.098131694 -0.08263015 0.59088188 0.78302157 -0.19425718 0.035713945
0.069916539 -0.099228948 -0.080786601 -0.53896791 0.82321286 -0.17842102 0.040307939
0.075787015 -0.096093334 -0.082713768 -0.57934481 0.79500043 -0.17981628 0.036149934
0.083063886 -0.092158124 -0.085561059 -0.63516629 0.74884093 -0.18921186 0.033694603
-0.091989242 -0.084920421 -0.089017496 0.72856528 0.66290724 -0.17247185 0.038747448
-0.087215409 -0.087613478 -0.083906367 0.70722294 0.68257618 -0.18418877 0.03058292
0.088357545 -0.08534874 -0.081937261 -0.70257759 0.69245481 -0.16398472 0.036451865
0.092114389 -0.084101349 -0.08750923 -0.71147501 0.69582736 -0.098120034 0.049587514
-0.09840221 -0.072900496 -0.083200015 0.78285933 0.58059311 -0.22370259 0.032274615
0.095702864 -0.078860618 -0.086611435 -0.77653027 0.61237031 -0.14833508 0.045304038
0.10106623 -0.072181724 -0.086579971 -0.84366304 0.52633917 -0.10582835 0.044808824
-0.10533192 -0.065073177 -0.084643461 0.84687412 0.49972615 -0.18187365 0.03425426
0.10508762 -0.065651894 -0.085198246 -0.8530497 0.48293048 -0.19769752 0.029749043
-0.11174931 -0.053107761 -0.086127281 0.87461811 0.45224223 -0.17470036 0.03570367
0.10849841 -0.056754813 -0.081784606 -0.89018589 0.44993919 -0.071580067 0.04275706
0.11240686 -0.05154866 -0.086370043 -0.89122427 0.4328188 -0.13559963 0.049001113
-0.11534714 -0.044367265 -0.085439213 0.91539228 0.35180646 -0.1956764 0.035900645
0.11539788 -0.0445939 -0.085654557 -0.91260016 0.34801251 -0.21458881 0.039165501
-0.12105602 -0.032614361 -0.087465703 0.96987373 0.21731183 -0.11009378 0.059202362
-0.11823243 -0.037724908 -0.086039156 0.91251624 0.33060363 -0.2408638 0.041323788
0.11844543 -0.035884 -0.085195348 -0.94064981 0.29151326 -0.17377584 0.041748319
0.12093925 -0.033413738 -0.088173926 -0.95238996 0.28003672 -0.12055196 0.049575109
-0.12213381 -0.027724175 -0.089193739 0.97322345 0.18832347 -0.13179666 0.057819203
0.1218401 -0.026553798 -0.087382108 -0.94721037 0.23059234 -0.22275449 0.032672688
-0.12333366 -0.018016292 -0.088919155 0.97905064 0.16563302 -0.11842922 0.05523736
0.12335224 -0.013750076 -0.086802252 -0.96932727 0.11981004 -0.21459295 0.037979081
-0.1244693 -0.0050686277 -0.086416647 0.98527604 0.019801827 -0.16982038 0.031494658
0.12420941 -0.007610322 -0.087294638 -0.98724794 0.0088707525 -0.15894255 0.044978574
-0.12368703 0.0033583613 -0.084090561 0.97585958 -0.042067748 -0.21430889 0.037004065
0.12338188 0.0042702858 -0.084260084 -0.97416431 -0.032177277 -0.22353615 0.039920557
-0.12250149 0.014902221 -0.085310474 0.97439331 -0.10181418 -0.20047836 0.031949762
0.12357468 0.012752165 -0.086981192 -0.97297299 -0.10915972 -0.20348907 0.039594967
-0.12212515 0.023224106 -0.086942822 0.96223027 -0.18228577 -0.20220008 0.041483492
0.12149705 0.022612827 -0.084480733 -0.96643966 -0.16588183 -0.19615677 0.036858026
-0.12096763 0.03207659 -0.086994931 0.94375348 -0.24396218 -0.22318578 0.038848352
-0.11779033 0.038359266 -0.085360929 0.93798041 -0.25938067 -0.23003118 0.036641099
0.11873183 0.033860013 -0.083266243 -0.94593805 -0.27015653 -0.17949004 0.041877467
0.1209107 0.032947127 -0.087100662 -0.95962167 -0.2308054 -0.16079514 0.050844882
-0.11631547 0.044053961 -0.08767052 0.9195829 -0.36100861 -0.15504834 0.048212644
0.11462541 0.04572212 -0.085636161 -0.90688586 -0.36807486 -0.20513164 0.035744298
-0.11219476 0.052651256 -0.085502028 0.88659674 -0.43961063 -0.14383571 0.040015895
-0.10862361 0.057359755 -0.08241038 0.86022204 -0.4733094 -0.18972704 0.038035966
0.10790361 0.055447966 -0.080332749 -0.8605684 -0.47476548 -0.18444471 0.0408464
0.11188801 0.052901994 -0.085103422 -0.90382218 -0.39846733 -0.15597823 0.035695713
-0.1046891 0.064826816 -0.083407305 0.84245765 -0.51355129 -0.16288069 0.034969859
0.099439792 0.069167405 -0.080439113 -0.8326084 -0.54481971 -0.099672839 0.044493664
0.10503324 0.066170886 -0.086135536 -0.82440555 -0.53818005 -0.17526451 0.037152581
-0.10044064 0.072317198 -0.085428141 0.79761499 -0.57294708 -0.18852578 0.039285868
-0.099199891 0.075252712 -0.088128582 0.77258927 -0.62265164 -0.12413988 0.047857065
0.09970665 0.073572561 -0.085771099 -0.79534411 -0.59041733 -0.13724159 0.043937434
0.10209209 0.070965692 -0.086857304 -0.81220883 -0.56882781 -0.12942889 0.045919273
-0.09192045 0.083439559 -0.085253187 0.71052051 -0.66392934 -0.23314886 0.035420969
-0.088157311 0.087533347 -0.085090213 0.67077404 -0.70343244 -0.23504247 0.033005226
0.088155054 0.085645124 -0.082155608 -0.68961138 -0.68041688 -0.24792923 0.023206541
0.090837501 0.081589878 -0.08156988 -0.73334187 -0.65679234 -0.17559451 0.032806177
-0.083613425 0.092201054 -0.087021187 0.67263001 -0.70557076 -0.22302167 0.03396754
-0.074839659 0.097184919 -0.08320605 0.62235451 -0.76014942 -0.18667541 0.036890887
0.075469002 0.09687674 -0.083465084 -0.6089009 -0.7782532 -0.15349798 0.034895375
0.08350575 0.092944011 -0.088496149 -0.63005829 -0.75819981 -0.1678082 0.038144961
-0.070908614 0.10058858 -0.083595112 0.58224279 -0.79292697 -0.17961107 0.038545392
-0.065621138 0.10610151 -0.087726086 0.4856638 -0.86395007 -0.13312006 0.049434062
-0.05895485 0.10831781 -0.083042189 0.49241552 -0.85894686 -0.14048918 0.038329925
0.054692309 0.10865211 -0.080881663 -0.49180517 -0.8515954 -0.18141915 0.036036786
0.066104084 0.10361968 -0.083255932 -0.53351617 -0.83152258 -0.15469547 0.035668477
-0.054868266 0.1116228 -0.086811095 0.42187184 -0.89893025 -0.11810438 0.048319373
-0.045012381 0.11453936 -0.084687866 0.30401298 -0.93444467 -0.18544346 0.031520247
-0.03579732 0.11784608 -0.083633728 0.29132679 -0.94600761 -0.14212079 0.037120715
-0.018502429 0.11979032 -0.080659553 0.1738735 -0.97939128 -0.10276534 0.045871373
0.024248939 0.11921524 -0.080876067 -0.1855257 -0.97645032 -0.11011326 0.047495712
0.034793623 0.11943284 -0.085051201 -0.27680323 -0.9476428 -0.15922643 0.038091414
0.048228651 0.11337388 -0.084786966 -0.38931167 -0.90094316 -0.19167134 0.031690635
0.054912642 0.11187401 -0.087607957 -0.43851423 -0.89069444 -0.11986917 0.047270071
-0.023422042 0.12223969 -0.087478362 0.22456056 -0.95780975 -0.17936809 0.038337965
-0.014345929 0.12236542 -0.084875204 0.16101393 -0.97211277 -0.1705028 0.037032001
-0.0067540016 0.12295355 -0.083430141 0.063575819 -0.98172897 -0.17934993 0.039415374
0.0056569371 0.12286837 -0.083718881 -0.025960581 -0.98764378 -0.15455037 0.032155402
0.014469543 0.12210585 -0.083883986 -0.10988126 -0.97147405 -0.21015307 0.032282617
0.021598792 0.12153145 -0.084920578 -0.15018359 -0.97015017 -0.19040367 0.033134222
0.030929737 0.12079532 -0.085940346 -0.25339437 -0.94743174 -0.19535705 0.039105739
0.0064005675 -0.12033127 -0.079404131 -0.11846192 0.97524756 -0.18670534 0.051525902
-0.045228928 -0.11058643 -0.079100572 0.35517099 0.92205852 -0.15382348 0.046297505
-0.035360694 -0.11280843 -0.078317642 0.35430223 0.9228999 -0.15075088 0.047428474
-0.02445084 -0.11439139 -0.077539526 0.23977907 0.9584716 -0.15439613 0.04641743
-0.015741656 -0.11401974 -0.075905398 0.11201293 0.97725689 -0.18006137 0.049301852
-0.0033907627 -0.11418696 -0.074794367 -0.041660488 0.98042154 -0.19245249 0.051607039
0.0039977641 -0.11573669 -0.076079488 -0.1215676 0.98053849 -0.15416096 0.049973894
0.014996441 -0.11343763 -0.07557527 -0.15245315 0.97329855 -0.17160419 0.059980392
0.0233563 -0.11425044 -0.077492416 -0.16327275 0.97149128 -0.17189179 0.054223794
0.037043393 -0.11084933 -0.077873416 -0.29452649 0.94227964 -0.15925866 0.048655864
0.044865064 -0.11125173 -0.079232603 -0.33488971 0.92986739 -0.1523006 0.047442008
-0.063467547 -0.10315695 -0.079812333 0.51476252 0.84387958 -0.15128377 0.042795762
-0.053696103 -0.10652363 -0.07888554 0.4333576 0.88888651 -0.14860021 0.049397454
-0.044624392 -0.10561371 -0.07590127 0.4022629 0.88834435 -0.2214247 0.047000546
-0.033999994 -0.1071889 -0.073193602 0.37345037 0.91080767 -0.17596646 0.059968013
-0.027128542 -0.10876466 -0.071699373 0.29172826 0.9558897 -0.034198653 0.075235501
0.017697539 -0.10959166 -0.070681579 -0.18599986 0.98211294 -0.029294193 0.07834927
0.026426109 -0.10866133 -0.071457721 -0.3140198 0.9492749 -0.016394926 0.078223698
0.031733051 -0.10776047 -0.072312318 -0.28849617 0.95309561 -0.09153527 0.074649431
0.044471599 -0.10580283 -0.075494863 -0.40235806 0.90168273 -0.15835512 0.056706712
0.052015077 -0.10334934 -0.077071987 -0.43522325 0.88166219 -0.1823525 0.049022298
0.063513026 -0.10267605 -0.079510808 -0.50189519 0.84392619 -0.18944582 0.043229286
-0.071831726 -0.093416974 -0.07844951 0.61936969 0.77286637 -0.13805301 0.045111865
-0.064350158 -0.094534129 -0.0755141 0.53733224 0.82511169 -0.17454129 0.048014052
-0.054425538 -0.098289847 -0.072301134 0.44497031 0.88733816 -0.12096456 0.072135769
0.049546812 -0.099828415 -0.071476825 -0.40616396 0.90452743 -0.12984972 0.070266783
0.05446725 -0.099265277 -0.073930033 -0.45357275 0.87108409 -0.18837264 0.058979291
0.064329386 -0.096081473 -0.077034518 -0.52539039 0.82690251 -0.20049228 0.044342224
0.073838957 -0.094278842 -0.079160452 -0.58987141 0.79447037 -0.14445947 0.039964467
-0.087503001 -0.08039365 -0.078674138 0.72440535 0.66678727 -0.17501889 0.044239774
-0.075296663 -0.085904635 -0.075211294 0.69729799 0.69918644 -0.15784064 0.054859985
0.067149214 -0.089084387 -0.072233967 -0.54513711 0.81252062 -0.20648442 0.053307734
0.07619448 -0.085389383 -0.075519219 -0.6626308 0.71835548 -0.2118628 0.044007551
0.08183343 -0.086930387 -0.078822337 -0.68461651 0.69908333 -0.20635608 0.036689941
-0.090815604 -0.075496972 -0.078625686 0.75078791 0.64690822 -0.13351886 0.047123086
-0.087232925 -0.074464351 -0.075786814 0.74963647 0.6362018 -0.18246196 0.050215092
-0.079567529 -0.079408295 -0.072051704 0.71759588 0.67870599 -0.15625118 0.059308872
0.086174347 -0.077025302 -0.076982297 -0.70683682 0.68752313 -0.16641358 0.044284984
0.09182322 -0.07650847 -0.079047032 -0.74681103 0.64351755 -0.16780482 0.04259491
-0.10267029 -0.063320883 -0.079249732 0.81643558 0.56037158 -0.13934395 0.045912839
-0.094130002 -0.065983064 -0.075716361 0.7871024 0.58867061 -0.18421923 0.04476022
-0.087562904 -0.069031894 -0.072106786 0.7633431 0.62997001 -0.14298636 0.068909355
0.096943945 -0.064723849 -0.076662779 -0.795331 0.58006698 -0.17598556 0.043269124
0.10171673 -0.063045904 -0.079084113 -0.86226642 0.4956086 -0.10425332 0.041100617
-0.10167397 -0.054735985 -0.076714195 0.86452031 0.47232738 -0.17178902 0.051725321
-0.098759398 -0.054102167 -0.073052563 0.87011534 0.45868224 -0.18030518 0.060140766
0.097907685 -0.054748561 -0.071984589 -0.88303423 0.44821101 -0.13913091 0.063058048
0.10563905 -0.052772548 -0.078393497 -0.88682139 0.4373256 -0.1493126 0.041715004
-0.11093932 -0.043951884 -0.079008617 0.9210825 0.34538943 -0.17975868 0.041363452
-0.10575818 -0.045212928 -0.076091528 0.91571164 0.3462638 -0.20389603 0.042526193
0.10648964 -0.046129487 -0.076432556 -0.9079529 0.38820174 -0.15786353 0.051813144
0.11103407 -0.044678681 -0.079385206 -0.92031509 0.36882806 -0.13033059 0.047563355
-0.11177351 -0.034681164 -0.077710867 0.94410926 0.2805137 -0.17311786 0.046013132
-0.10782664 -0.033888936 -0.073988825 0.92703664 0.30641562 -0.2161307 0.051796958
0.10693382 -0.034796771 -0.073248774 -0.9360134 0.32983777 -0.12282453 0.066264808
0.11287367 -0.035567876 -0.078002639 -0.93974257 0.31584853 -0.13085775 0.048841938
-0.1139022 -0.026680386 -0.07756456 0.95762879 0.23802164 -0.16215055 0.046974532
-0.10821351 -0.027222186 -0.070031129 0.94779998 0.30457342 -0.094394028 0.074289024
0.11177905 -0.021525592 -0.075464278 -0.96599466 0.20307185 -0.16005041 0.052082766
-0.11546082 -0.013673265 -0.076901317 0.97480577 0.13721003 -0.17586094 0.045688502
0.11448298 -0.016291054 -0.076505549 -0.97647989 0.15318644 -0.15172651 0.042642329
-0.12061352 -0.0077304449 -0.079949729 0.98518425 0.06686192 -0.15792878 0.042924963
-0.11453171 -0.0065073734 -0.075559571 0.98815727 0.059447691 -0.14146078 0.054729961
0.11468089 -0.0057571037 -0.075280711 -0.98025268 0.026183393 -0.19600829 0.054184787
0.12080295 -0.00012990569 -0.079174377 -0.98881704 -0.055268571 -0.13851425 0.046618294
-0.12071994 0.0041682329 -0.079582028 0.99040997 -0.062965453 -0.12297713 0.048854433
-0.11503133 0.0049070185 -0.076078109 0.98632544 -0.067423418 -0.15038723 0.044287656
0.11317592 0.0043111029 -0.074035339 -0.98048705 -0.069135137 -0.18402542 0.054384127
-0.11363362 0.014410594 -0.076210707 0.98075122 -0.10149159 -0.16681266 0.048224095
-0.10946184 0.019925306 -0.071343288 0.9722501 -0.19675662 -0.12655681 0.064360082
0.10954635 0.019315248 -0.071352012 -0.9724319 -0.18514211 -0.14176971 0.070095301
0.11486292 0.014507605 -0.076603822 -0.97252125 -0.14367214 -0.1831961 0.049497698
-0.11631213 0.026445078 -0.07887613 0.96595991 -0.20667444 -0.15558602 0.047103912
-0.10903262 0.023794863 -0.07118737 0.97013122 -0.20824896 -0.12440971 0.068353042
0.10997793 0.028640253 -0.074463174 -0.94427067 -0.2738187 -0.18269168 0.065140739
0.11271175 0.025021117 -0.076333784 -0.96754992 -0.20616031 -0.14609973 0.051231239
-0.11330647 0.033786997 -0.078197189 0.94758588 -0.27949557 -0.1548004 0.047899861
-0.10659881 0.033583656 -0.071773067 0.94845587 -0.28799933 -0.13224182 0.07313443
0.10697144 0.036948152 -0.074245118 -0.93693179 -0.301375 -0.17700824 0.059973937
0.11368357 0.032510899 -0.078231737 -0.95710522 -0.23697968 -0.16670427 0.053208537
-0.11308023 0.041295946 -0.0795708 0.94216698 -0.29977593 -0.14985245 0.044834204
-0.10462577 0.044782892 -0.074991137 0.89641833 -0.39535841 -0.20031469 0.056352135
0.10564584 0.043955479 -0.075263567 -0.9050588 -0.36830041 -0.21265814 0.046898846
0.11113171 0.044204641 -0.079374656 -0.92735845 -0.33003715 -0.17630045 0.041653417
-0.10487953 0.055997714 -0.078711919 0.86919385 -0.46952078 -0.15508775 0.042607028
-0.097590208 0.056196343 -0.072632626 0.8428455 -0.50555396 -0.18446313 0.060154177
0.098196089 0.053414173 -0.071418278 -0.87880909 -0.46869686 -0.08954215 0.070602417
0.10325646 0.055520277 -0.077591226 -0.85028905 -0.49036816 -0.19117421 0.044512529
-0.10273952 0.062879764 -0.079334766 0.8380487 -0.53062397 -0.12693582 0.044069689
-0.093880869 0.066229455 -0.076404452 0.76939893 -0.61161411 -0.18426447 0.04678043
-0.089654572 0.066690326 -0.072594732 0.80292326 -0.57808131 -0.14538254 0.067570522
0.086539194 0.069373615 -0.070280559 -0.78441155 -0.61813456 -0.051069736 0.075998962
0.095332392 0.065358035 -0.076294154 -0.80163848 -0.56281567 -0.20152991 0.042982887
0.10299861 0.063389264 -0.079678573 -0.84541804 -0.52477652 -0.09938816 0.04764602
-0.093966946 0.07287541 -0.078979038 0.76534206 -0.63448423 -0.1080799 0.048163123
-0.083630972 0.078561619 -0.075204514 0.70437795 -0.68464285 -0.18739231 0.053668972
-0.078498282 0.079744928 -0.071149193 0.67312676 -0.7305212 -0.11506164 0.075680584
0.085673384 0.075052582 -0.075262547 -0.73660165 -0.65644133 -0.16279715 0.05154866
0.092747517 0.072791435 -0.078373984 -0.76310879 -0.62975353 -0.14517364 0.038595755
-0.082212828 0.085898466 -0.078453682 0.67703128 -0.71412867 -0.1779011 0.043861456
-0.076347597 0.085717775 -0.075450182 0.67859399 -0.70812625 -0.19510877 0.046717051
-0.068951249 0.088426821 -0.073167987 0.5655936 -0.80138004 -0.19466364 0.063667096
0.074414313 0.087201141 -0.075726852 -0.64694184 -0.73617959 -0.19876124 0.048516065
0.083140641 0.084206305 -0.078337684 -0.68633163 -0.71182364 -0.14918467 0.037969802
-0.074837893 0.093032263 -0.079141639 0.64243269 -0.75401258 -0.13691351 0.0431467
-0.066067502 0.092391402 -0.074851774 0.56906372 -0.80153108 -0.18361486 0.0504345
-0.055820666 0.09853518 -0.073772319 0.52418923 -0.83470422 -0.16880292 0.058045957
0.058911733 0.097754627 -0.075212821 -0.48389173 -0.85470253 -0.18796916 0.047266919
0.06431298 0.093392514 -0.073482148 -0.56468439 -0.80083531 -0.19948514 0.046544455
0.076888755 0.09074682 -0.078828543 -0.65037596 -0.74412453 -0.15261011 0.044845473
-0.05963587 0.10485645 -0.079142772 0.48755279 -0.85879695 -0.15735373 0.039852984
-0.045150124 0.10506225 -0.075705662 0.33221555 -0.92868757 -0.16484022 0.052577294
-0.034117345 0.10735407 -0.073298998 0.28074396 -0.94718724 -0.15498084 0.05750085
-0.026898555 0.10832397 -0.070386529 0.30804953 -0.95135474 -0.0054488345 0.07637275
-0.019526508 0.1098678 -0.072074123 0.18955061 -0.97249448 -0.13536993 0.069748096
0.032502845 0.10880037 -0.074527159 -0.2735998 -0.93928045 -0.20711195 0.054712489
0.044911388 0.10386609 -0.07414569 -0.45158204 -0.8798337 -0.1482103 0.049678572
0.051947542 0.10570838 -0.078015044 -0.44749695 -0.88181674 -0.14881442 0.041428953
