# .PCD v0.7 - Point Cloud Data file format
VERSION 0.7
FIELDS x y z normal_x normal_y normal_z curvature
SIZE 4 4 4 4 4 4 4
TYPE F F F F F F F
COUNT 1 1 1 1 1 1 1
WIDTH 564
HEIGHT 1
VIEWPOINT 0 0 0 1 0 0 0
POINTS 564
DATA ascii
-0.11951435 0.0082515934 0.0081070568 0.99611861 -0.074761957 -0.046457853 0.0019795902
0.11988361 0.0075576492 0.00044383528 -0.99704474 -0.069075018 -0.033621922 0.0022942377
0.12032647 0.0024718868 0.0073295599 -0.99927676 -0.015163697 -0.034871392 0.0023485003
-0.11877581 0.014776748 0.0048969281 0.98948365 -0.14044119 -0.034616467 0.0022880507
0.11881873 0.014797676 0.0038887458 -0.99351156 -0.10715324 -0.038117349 0.001624234
-0.117542 0.024277333 0.0047577457 0.97649574 -0.21188879 -0.039485946 0.001878733
0.11735505 0.025122117 0.0071698762 -0.97502834 -0.21809426 -0.041889183 0.0019811373
-0.11553523 0.033718158 0.0061414624 0.96325493 -0.26584089 -0.038320955 0.0018623123
0.11451599 0.036262359 0.005816042 -0.95335901 -0.2990759 -0.040745351 0.0022605851
-0.11155792 0.043478351 0.0055307699 0.92835754 -0.36969319 -0.038460743 0.001891155
-0.10871881 0.049786702 0.0092293303 0.91026431 -0.41110376 -0.049117461 0.0016421236
0.10917612 0.049411181 0.0035639892 -0.90569633 -0.42240715 -0.035865426 0.0023248601
0.11119412 0.044416077 0.0042229746 -0.92210853 -0.38502353 -0.038374458 0.0015567342
-0.10653432 0.055360124 0.0070005036 0.88465548 -0.46419597 -0.043666497 0.001648816
0.10735095 0.053478502 0.0062713972 -0.89212841 -0.44996852 -0.04043632 0.0017857257
-0.10143552 0.064396396 0.0060696239 0.84597033 -0.53170186 -0.040340055 0.0020792901
-0.098692559 0.068240628 0.00062596356 0.83449972 -0.54989398 -0.035026692 0.0019850496
0.1026535 0.062740892 0.0065369424 -0.85195583 -0.52178574 -0.043714479 0.0021938649
-0.093454577 0.074949987 0.0030698914 0.7658962 -0.64135367 -0.045479644 0.002065547
0.089610443 0.079736069 0.0071252584 -0.73959827 -0.67159754 -0.044170391 0.0016966109
0.093712732 0.074514955 0.0047409725 -0.77774894 -0.62705183 -0.043731887 0.0022582493
-0.085258238 0.084854692 0.0070182174 0.70781386 -0.70526642 -0.039985087 0.0019070378
0.079373255 0.089972444 0.0061096931 -0.66649479 -0.74461836 -0.036446098 0.0019401766
0.084890798 0.085408524 0.0046312599 -0.70878106 -0.70435959 -0.038818307 0.0022863697
-0.074094243 0.094073884 0.0041779913 0.62717074 -0.77810431 -0.034792703 0.0015034631
-0.068432793 0.098405413 0.0037805494 0.56444669 -0.82388163 -0.051176794 0.0018942083
0.067465916 0.099038348 0.0064639985 -0.55578637 -0.83017129 -0.043784816 0.0020541635
0.075125501 0.09325131 0.0047968137 -0.63694167 -0.77003014 -0.036863469 0.002247591
-0.063949883 0.10181227 0.0051879296 0.53417218 -0.84410954 -0.046250813 0.0017329913
-0.054061309 0.10720111 0.0042925817 0.45730984 -0.88844568 -0.039141104 0.001426224
-0.048339341 0.10964974 0.0023426933 0.3999705 -0.91579014 -0.036770672 0.0016019333
0.048423648 0.10957202 0.0041047172 -0.39412206 -0.91791892 -0.045745641 0.0011789525
0.055788267 0.1064394 0.0054206513 -0.47456512 -0.8793059 -0.040113263 0.0018762045
0.063917421 0.1019568 0.0025049814 -0.53219521 -0.84538746 -0.045697574 0.0018333755
-0.043515515 0.11155667 0.0048209527 0.38935065 -0.92006588 -0.043414425 0.0018684044
-0.034525756 0.11527121 0.0045853429 0.27180079 -0.96130258 -0.044962276 0.0020708616
-0.025475644 0.11737476 0.0050546937 0.2090482 -0.97715032 -0.038420416 0.0018506087
-0.012069586 0.11914895 0.0051888879 0.098736741 -0.99419612 -0.042719875 0.0019820901
-0.007767749 0.11968185 0.0065308642 0.070930853 -0.99648255 -0.044625096 0.0022423828
0.007777506 0.11964922 0.0065775439 -0.073690094 -0.99619615 -0.046507373 0.0020935943
0.012516527 0.11911096 0.0043174224 -0.097216152 -0.99385709 -0.05288738 0.0022140567
0.025450967 0.11746122 0.0030456723 -0.20874153 -0.97703707 -0.042727128 0.001812475
0.035712022 0.11484206 0.0027306082 -0.28299206 -0.95777571 -0.050805219 0.0015768928
0.044893276 0.11098173 0.0049309265 -0.36925051 -0.92812592 -0.047291331 0.0017494529
-0.0019363501 0.12047759 0.0061054602 -0.0013475533 -0.99907571 -0.042964112 0.0026532195
0.0030373994 0.12040014 0.0039022551 -0.0080714086 -0.99907029 -0.042349041 0.0026159442
-0.0010769739 -0.12024744 0.011317301 -0.0011836285 0.99793881 -0.064161725 0.0026109146
0.00066704233 -0.12007949 0.014686313 -0.0011013892 0.99833143 -0.05773266 0.0026466346
-0.043846019 -0.11084668 0.013937692 0.37997359 0.92314672 -0.058482699 0.0022546947
-0.035716917 -0.11429545 0.012351987 0.28327739 0.9577108 -0.050436564 0.00153251
-0.025319995 -0.11682337 0.014846399 0.21701925 0.97476298 -0.052342501 0.001493492
-0.01603156 -0.11813354 0.013520361 0.12914348 0.99026203 -0.051991701 0.0020886848
-0.0069611794 -0.1192599 0.014549186 0.059049044 0.99675232 -0.05475425 0.0023795296
0.0044796965 -0.11941028 0.017225616 -0.025400149 0.99754524 -0.065255612 0.0020781795
0.012703748 -0.11842191 0.015793215 -0.09051127 0.99431652 -0.056056827 0.0022948876
0.026863545 -0.11653696 0.01610885 -0.22756574 0.97243118 -0.050905753 0.0019396284
0.034531489 -0.11475958 0.01248281 -0.2773709 0.95956618 -0.047938254 0.0017912562
0.043049823 -0.11121209 0.01343433 -0.37718299 0.9248023 -0.049735837 0.0020402437
-0.06419313 -0.10067291 0.017621996 0.53764856 0.84114975 -0.058319818 0.0020031752
-0.05457148 -0.10640052 0.013987079 0.47718018 0.87714195 -0.05404567 0.0019210615
-0.047556434 -0.10927759 0.014392635 0.41434288 0.90807289 -0.061020963 0.0019631214
0.047989871 -0.1089808 0.0160523 -0.40267095 0.91378653 -0.053387959 0.0014991314
0.054801106 -0.10635633 0.013267276 -0.46389645 0.88431299 -0.052826539 0.0022177363
0.064632624 -0.10076186 0.012445248 -0.53505212 0.84267348 -0.060172133 0.0019498311
-0.072990276 -0.094230875 0.01387707 0.61528784 0.78649729 -0.053318538 0.001913198
-0.068881892 -0.097063206 0.017766446 0.57863712 0.81404018 -0.050176326 0.002280636
0.067906439 -0.097992986 0.015564423 -0.55957848 0.82707942 -0.053023588 0.0024890094
0.074964106 -0.092785373 0.01303807 -0.63752723 0.76838756 -0.056032337 0.0014152848
-0.08540421 -0.084003471 0.013561482 0.71349245 0.69839442 -0.056336351 0.0023421105
-0.079261631 -0.089619346 0.011439409 0.66494894 0.74531609 -0.048444249 0.0022239373
0.07934431 -0.089282095 0.014765806 -0.66481394 0.74561799 -0.045566741 0.002242082
0.084228173 -0.085189365 0.015458443 -0.70148492 0.71130461 -0.044324402 0.0021844611
-0.093736053 -0.073517621 0.014972367 0.78472203 0.61788744 -0.049258828 0.0023355382
-0.089468703 -0.07946378 0.011385027 0.7373144 0.67343056 -0.053467941 0.0021234197
0.088918686 -0.079464875 0.018056912 -0.7344225 0.67655295 -0.053848553 0.0017238789
0.092119731 -0.075475149 0.016360983 -0.77112216 0.63427174 -0.055407286 0.0019540442
-0.10199752 -0.063000664 0.012645619 0.84996045 0.52433193 -0.051413108 0.0021891827
-0.098687373 -0.067058451 0.015032727 0.82717526 0.55939674 -0.053444654 0.0027605649
0.097381689 -0.068731725 0.015297879 -0.81644505 0.57488692 -0.05406021 0.0020912464
0.10233866 -0.062224157 0.015741114 -0.84928942 0.52455121 -0.059611987 0.0022829303
-0.10581008 -0.055853609 0.014827061 0.88047534 0.47151726 -0.049341679 0.0017535456
0.10628247 -0.054900654 0.013729572 -0.88615263 0.4609409 -0.047612 0.00187418
-0.1112388 -0.042623948 0.015552056 0.92936808 0.36571741 -0.050256316 0.0025553971
-0.10903623 -0.047985017 0.015296429 0.90672666 0.41884875 -0.049117401 0.0016381225
0.10876945 -0.048583701 0.015562713 -0.91201878 0.40597185 -0.058383547 0.0014501052
0.11038153 -0.044961892 0.013980066 -0.91571736 0.39720333 -0.060755942 0.0015261776
-0.11376498 -0.036808889 0.01388985 0.95041907 0.30717781 -0.04842959 0.0018653494
0.11439832 -0.034955416 0.015783746 -0.95638132 0.28684366 -0.055276025 0.0021890926
-0.11681076 -0.025371574 0.014934329 0.97543114 0.21316662 -0.055623319 0.0016092572
0.11705036 -0.024152957 0.013732341 -0.97735471 0.20316198 -0.059185468 0.0020732209
-0.11830002 -0.014245806 0.01456175 0.99146765 0.11950289 -0.052065544 0.0019414708
0.11819126 -0.015441915 0.013822439 -0.99114203 0.12070996 -0.0553771 0.00073050655
-0.11919468 -0.0064954087 0.016469942 0.99645859 0.061964106 -0.056840315 0.001777371
0.11919587 -0.0062539992 0.016934583 -0.99665725 0.057858791 -0.057676692 0.0019728602
-0.12015436 0.0019218414 0.011041665 0.9985137 -0.011182956 -0.053342104 0.0020811576
-0.11928505 0.0064279083 0.015232909 0.99561936 -0.07124944 -0.060543779 0.0019980618
0.11943705 0.005301944 0.015176072 -0.99715257 -0.040154539 -0.063831337 0.0025714459
0.12026424 0.00099585392 0.011224558 -0.99842447 0.00086112536 -0.056105416 0.0025055134
-0.11818679 0.01482144 0.015130106 0.9907403 -0.1218367 -0.059912261 0.001865439
0.1181501 0.01513453 0.015061689 -0.98872912 -0.13931336 -0.054832041 0.0013860123
-0.11697958 0.024038464 0.01503577 0.97540098 -0.2144224 -0.051145766 0.001992058
0.11679817 0.02700475 0.011861337 -0.97081226 -0.23546417 -0.045609552 0.0018761252
-0.11460374 0.034750797 0.013453139 0.95724922 -0.28486907 -0.050234258 0.0022535729
0.11472853 0.034299634 0.01443802 -0.95921445 -0.27849275 -0.048470847 0.0018465226
-0.11160643 0.041969486 0.014186378 0.93446958 -0.35253862 -0.049830504 0.0027940646
-0.10893162 0.048227616 0.015354816 0.91057026 -0.41049168 -0.048561919 0.0019722697
0.10907605 0.048402824 0.012285708 -0.91124851 -0.40805399 -0.055839408 0.0013343396
0.11082308 0.04351389 0.016218677 -0.92583251 -0.37326482 -0.059223849 0.0019859788
-0.10629534 0.05447882 0.016018983 0.8877905 -0.45759752 -0.049320213 0.0015951452
0.10617524 0.054719381 0.016309187 -0.87949699 -0.47373116 -0.045428939 0.0018590994
-0.10285073 0.061396312 0.017237151 0.85751474 -0.51152301 -0.054887954 0.0022199312
-0.098478079 0.067171939 0.016518278 0.82910824 -0.55672729 -0.051323626 0.0025328707
0.09786091 0.068254471 0.01392578 -0.81866032 -0.57256967 -0.044262655 0.0024087089
0.10247646 0.062158413 0.014680954 -0.84975964 -0.52530336 -0.044328239 0.0021681977
-0.09420383 0.072948545 0.014594934 0.78694195 -0.61413521 -0.059668098 0.0023754418
-0.089070991 0.079788059 0.013193953 0.73226887 -0.67885149 -0.054249112 0.0016191042
0.089394748 0.079002805 0.016581032 -0.7454958 -0.66452771 -0.051370315 0.0025143386
0.092981577 0.074415386 0.015770409 -0.77394766 -0.63134801 -0.049038071 0.0016305414
-0.084999412 0.084248289 0.015250723 0.707425 -0.70545298 -0.04342901 0.0022602438
-0.078842819 0.089478277 0.017057458 0.66513252 -0.74512875 -0.048804764 0.0019858209
0.079948202 0.08869268 0.016296929 -0.68100899 -0.73030531 -0.053674269 0.0019640315
0.084325276 0.08504755 0.013614258 -0.70540172 -0.70686603 -0.052429326 0.002585178
-0.073293597 0.093994752 0.013918519 0.61991769 -0.78313506 -0.04900527 0.0025623387
-0.066968068 0.098654859 0.016271275 0.55609208 -0.8293066 -0.054883126 0.0021687571
0.067022517 0.098651536 0.015804779 -0.55970562 -0.82753026 -0.043856509 0.0020650965
0.074161284 0.093260489 0.014750592 -0.63337827 -0.77164036 -0.058336478 0.0021409597
-0.062688299 0.10214101 0.013815779 0.5303545 -0.84603792 -0.054257873 0.0021942891
-0.054981291 0.1060984 0.015861114 0.47865331 -0.87605488 -0.058471452 0.0020913379
-0.048424505 0.10888669 0.01483709 0.41699219 -0.90753436 -0.049989007 0.0017883655
0.046847869 0.1093418 0.017637691 -0.40003192 -0.91485298 -0.05494073 0.0014280498
0.054236367 0.1065572 0.013736147 -0.45903504 -0.88647437 -0.058735739 0.0015838265
0.06200425 0.1026163 0.014419085 -0.50698888 -0.85998493 -0.058208436 0.0024112267
-0.04522958 0.11007899 0.016691413 0.3944211 -0.91721386 -0.056133136 0.001394499
-0.035335131 0.11438242 0.013790924 0.29276788 -0.95508605 -0.045798805 0.0022263853
-0.024396546 0.11690684 0.015424535 0.20686972 -0.97722822 -0.047223412 0.001952727
-0.014583449 0.11833533 0.013350822 0.10847916 -0.99257386 -0.055039071 0.0017897699
-0.0048689698 0.11944792 0.015876073 0.044553805 -0.99745393 -0.05568381 0.0019942957
0.0057466128 0.11945351 0.014037156 -0.045575678 -0.99719357 -0.05939528 0.0016911617
0.01420325 0.11833248 0.014154213 -0.10764481 -0.9927265 -0.053913191 0.0018123884
0.025024703 0.11680555 0.015706718 -0.21178517 -0.97604376 -0.049855374 0.0015220974
0.036548972 0.11361718 0.017201521 -0.29843068 -0.95293909 -0.053351335 0.0014963708
0.043420419 0.11100157 0.014241356 -0.38136044 -0.92285919 -0.053806219 0.0011865668
-0.00031035504 0.12034192 0.011415098 -0.0021783852 -0.99851543 -0.054426294 0.0025958945
0.0016288679 0.1201328 0.011954525 -0.017281421 -0.99834299 -0.054887302 0.0023487578
-0.042710941 -0.11022916 0.029324738 0.36204618 0.92979199 -0.066403292 0.0025272423
-0.035537422 -0.11348706 0.025181485 0.31022707 0.94921643 -0.052415144 0.001701636
-0.02366484 -0.11635923 0.025200622 0.19891228 0.97852707 -0.054024458 0.0020357801
-0.014899969 -0.11740597 0.026827807 0.13750605 0.98782647 -0.072738744 0.0021344211
-0.0036498439 -0.11903606 0.024565883 0.026083637 0.99706745 -0.071944855 0.0020832829
0.0048423028 -0.11896172 0.02331071 -0.028340008 0.99718624 -0.069399498 0.0020539169
0.014905404 -0.11764912 0.023124997 -0.13262415 0.98881567 -0.068222977 0.0013443115
0.024183501 -0.11625211 0.025789803 -0.20779458 0.97660369 -0.055378005 0.0016542518
0.034868304 -0.11371064 0.025632683 -0.29563075 0.95384467 -0.052751873 0.0016734635
0.042354889 -0.11064015 0.025598153 -0.36995488 0.92714757 -0.059420031 0.0017418552
-0.061401229 -0.10225773 0.024394564 0.50637323 0.86006576 -0.062234264 0.002173323
-0.055972483 -0.10495836 0.026179938 0.48783448 0.87064791 -0.063164651 0.002237458
-0.046918187 -0.10880623 0.024800939 0.40150332 0.9135977 -0.064299092 0.0016595996
0.0468302 -0.10885825 0.024581663 -0.39624181 0.91602218 -0.062415939 0.0011320667
0.055036571 -0.10532831 0.0264313 -0.48036912 0.87479717 -0.063051045 0.0019787748
0.061117727 -0.10246864 0.024475861 -0.50578737 0.86019075 -0.065200038 0.0019086542
-0.072968617 -0.093314908 0.025206661 0.63423264 0.77072728 -0.06106123 0.0015742332
-0.067815863 -0.097251751 0.025413487 0.55871993 0.82681686 -0.064852409 0.0027768253
0.066514529 -0.098157287 0.026543727 -0.5433386 0.83739883 -0.059550773 0.0023040061
0.073222004 -0.092975989 0.026962124 -0.63292092 0.77176887 -0.061513975 0.0017381051
-0.085015967 -0.08343605 0.023667017 0.71147805 0.69958949 -0.066132545 0.0023235618
-0.079395846 -0.088572823 0.022902103 0.67512131 0.73460394 -0.067589872 0.0022925502
0.078698643 -0.088969663 0.024580218 -0.66865832 0.7410931 -0.060639303 0.002084329
0.084980555 -0.083432838 0.024817742 -0.71397501 0.69781607 -0.057380386 0.0024056337
-0.093158007 -0.073295839 0.024062144 0.77362001 0.63041008 -0.063993454 0.0015218208
-0.088857293 -0.078846738 0.024564486 0.73929369 0.67028815 -0.064487502 0.0019807995
0.089140564 -0.07852298 0.024141589 -0.7580086 0.6492269 -0.062668771 0.0019654338
0.092863895 -0.073526047 0.025489738 -0.77728307 0.62588352 -0.064038277 0.0024874215
-0.10088561 -0.062971219 0.026428379 0.84838092 0.52573502 -0.062068872 0.0022672892
-0.098163888 -0.066756122 0.024210613 0.83410329 0.54804879 -0.062564097 0.0025395728
0.098107815 -0.06679076 0.024569821 -0.82746089 0.55860591 -0.057165235 0.0021992412
0.1017591 -0.061942942 0.025403272 -0.85352129 0.51724434 -0.062925331 0.0023817187
-0.10554532 -0.05490084 0.024156181 0.87760496 0.47564426 -0.059767216 0.0018997211
0.10559492 -0.054518268 0.025697129 -0.87495339 0.47963673 -0.066371694 0.0021313247
-0.11092144 -0.041742288 0.025208298 0.93116844 0.35885486 -0.06440898 0.0025435453
-0.1087659 -0.046749979 0.026358336 0.91334409 0.40148878 -0.067892611 0.0015459222
0.10817164 -0.048000075 0.027439939 -0.90977103 0.40965697 -0.067066111 0.0022407703
0.1106968 -0.04236396 0.024743428 -0.93451977 0.34813634 -0.073985964 0.0021831389
-0.11406648 -0.034401953 0.023728639 0.96088129 0.26949647 -0.063865744 0.0022452711
0.11371677 -0.035027239 0.024780635 -0.94743294 0.3107124 -0.076345354 0.0017627947
-0.11603364 -0.025871057 0.025733534 0.97273868 0.22397995 -0.060103685 0.0016234146
0.11624752 -0.024626588 0.024973592 -0.97621232 0.21071085 -0.051092885 0.0022763407
-0.11764312 -0.013909526 0.025206413 0.98917764 0.13097608 -0.066127472 0.0023325193
0.11748568 -0.015404484 0.024608493 -0.98931444 0.12841323 -0.069042936 0.0019299443
-0.11875681 -0.0051792888 0.02574802 0.99593443 0.050855007 -0.074353114 0.0019802765
0.11895593 -0.003993107 0.025096068 -0.99699438 0.038953237 -0.066968583 0.0015622536
-0.11884608 0.0052969046 0.024157709 0.99613994 -0.050322317 -0.07192196 0.0016138894
0.11894352 0.0050273361 0.023217537 -0.9971633 -0.030696638 -0.068724416 0.0021791016
-0.11738244 0.015991241 0.025003405 0.98620695 -0.1510912 -0.067581579 0.0024573342
0.11772208 0.014331162 0.023165464 -0.99058449 -0.1215592 -0.06297379 0.0022376971
-0.11625589 0.025257938 0.023584936 0.97310925 -0.22308147 -0.057384748 0.0017104775
0.11595977 0.026086299 0.026424835 -0.97298628 -0.22396007 -0.056031831 0.0018394807
-0.11485836 0.032389425 0.02431904 0.96082413 -0.27046609 -0.060540408 0.0022153407
0.1137774 0.034330811 0.028234875 -0.94701874 -0.3151314 -0.062030245 0.0018774284
-0.11007245 0.04421252 0.022743845 0.92477071 -0.37519869 -0.063444234 0.0019569239
-0.10839473 0.047982715 0.024385599 0.91632044 -0.39560643 -0.062067434 0.0013944856
0.10873266 0.046970855 0.025534505 -0.91527647 -0.39780593 -0.063399523 0.0012446371
0.11053472 0.042826179 0.024327787 -0.9262687 -0.37152013 -0.063238785 0.0018063696
-0.1051015 0.055823497 0.025016896 0.87843466 -0.47400537 -0.060591765 0.0020733569
0.10511176 0.055694412 0.025555234 -0.8707487 -0.48830205 -0.057946827 0.0024379273
-0.10129143 0.062649921 0.024494316 0.85200799 -0.5201841 -0.05908376 0.0023718532
-0.098472014 0.066381678 0.023958635 0.83773559 -0.5430243 -0.057651486 0.0022867627
0.097775042 0.06716039 0.025167659 -0.82558936 -0.56141627 -0.056691576 0.0028626786
0.10193691 0.061571538 0.026706159 -0.85071135 -0.52286839 -0.053841438 0.0023535425
-0.092174098 0.074612848 0.023738546 0.76760101 -0.63822228 -0.058830198 0.0017883581
0.088776596 0.079110019 0.023091273 -0.74410915 -0.66457516 -0.068128176 0.0019111204
0.092675202 0.073894985 0.024343356 -0.76710194 -0.63823736 -0.064866491 0.0019533082
-0.083973452 0.084551021 0.024752757 0.70738292 -0.70530391 -0.046430226 0.0025379225
-0.077954963 0.08965642 0.023169793 0.65150344 -0.75677919 -0.053182159 0.0017760774
0.079067849 0.088724375 0.024118431 -0.67920154 -0.73132032 -0.062096611 0.0018199553
0.084976301 0.083327629 0.025898024 -0.71510243 -0.69521737 -0.072811417 0.0024932297
-0.074533604 0.092227548 0.023828069 0.63590288 -0.76918787 -0.063066997 0.001892112
-0.067559041 0.097459026 0.02528978 0.55909646 -0.82710087 -0.057577863 0.0015539806
0.068334378 0.096981429 0.023864556 -0.58467799 -0.80887699 -0.062206142 0.0021944519
0.072384484 0.093667939 0.026363388 -0.61839223 -0.78352934 -0.060603313 0.0021501926
-0.062273353 0.10137713 0.02696351 0.534693 -0.84280914 -0.061449837 0.0018310673
-0.052877456 0.10632596 0.024969853 0.44703043 -0.89276528 -0.055982288 0.0021480205
-0.047629464 0.10854905 0.0242725 0.39854419 -0.91503382 -0.062254347 0.0013930621
0.046684116 0.10882801 0.025865657 -0.40669149 -0.9111101 -0.066936493 0.0020811334
0.054065455 0.10587545 0.024382269 -0.46210921 -0.88491434 -0.05815259 0.00156878
0.063467152 0.10060018 0.025274284 -0.53659374 -0.84209019 -0.054325063 0.0020396351
-0.033588249 0.1144524 0.023037273 0.2821579 -0.95742208 -0.061072502 0.0018738449
-0.025650201 0.11607187 0.025594503 0.23141411 -0.97101861 -0.059752595 0.0022081099
-0.015707921 0.11745732 0.024432598 0.13553832 -0.98878479 -0.062721752 0.0011717398
-0.0073299273 0.11850748 0.025234628 0.067905121 -0.9950335 -0.072781488 0.001926012
0.0042818962 0.11898039 0.024147455 -0.051593017 -0.99632102 -0.068429187 0.0017002487
0.014406834 0.11774506 0.022665396 -0.14070508 -0.98779023 -0.066877134 0.0013818321
0.025162773 0.11612926 0.025697755 -0.21835762 -0.97393113 -0.061466027 0.0012888561
0.035969511 0.11349602 0.021945601 -0.3025077 -0.95110536 -0.062351212 0.0017928418
-0.040975347 -0.11028233 0.038742758 0.34229484 0.93706864 -0.068823352 0.0020902029
-0.033894058 -0.11349423 0.034761976 0.26869047 0.9608953 -0.066974454 0.0024147143
-0.026005212 -0.11535086 0.035830956 0.2226917 0.97264159 -0.06615705 0.0016556518
-0.015584014 -0.1169021 0.033109941 0.13554448 0.98799485 -0.074120387 0.0020757657
-0.0056427843 -0.11814321 0.034137692 0.056471575 0.99514478 -0.08060953 0.0017833448
0.0052479738 -0.11823054 0.033600412 -0.059866358 0.99561477 -0.071883567 0.0019273564
0.014009365 -0.11695112 0.03551254 -0.12325086 0.98946995 -0.075883955 0.0023521823
0.025060352 -0.11566897 0.032889951 -0.22481294 0.97241384 -0.062212266 0.0014570957
0.033938952 -0.1134249 0.035517972 -0.26544639 0.96213579 -0.061909877 0.0020486994
0.042621635 -0.11007413 0.032042261 -0.36640799 0.92796391 -0.068029732 0.0018561527
-0.063399777 -0.10013242 0.031583864 0.53729349 0.84050089 -0.069814004 0.0020962926
-0.05767376 -0.10381199 0.032334089 0.48916802 0.86894405 -0.075172409 0.0020631913
-0.045548804 -0.10857551 0.036089346 0.39936414 0.91365063 -0.075834036 0.0013393501
0.045068394 -0.10894564 0.033669531 -0.38307506 0.92119461 -0.06821999 0.00099613762
0.053887438 -0.10520705 0.034837775 -0.47047842 0.87884533 -0.079252042 0.0018686897
0.06150056 -0.10105395 0.038093321 -0.51644248 0.85249382 -0.080879621 0.0021738301
-0.074502379 -0.091417722 0.033957388 0.64389288 0.76190096 -0.070063367 0.0016980569
-0.066136278 -0.097810417 0.034283344 0.54981041 0.83202338 -0.073794685 0.0024121616
0.066354111 -0.097533785 0.035613801 -0.55221355 0.83124077 -0.064024322 0.0023328096
0.073515922 -0.091997445 0.036110125 -0.63908595 0.76580161 -0.071533762 0.0015211476
-0.084076166 -0.083339855 0.035662521 0.71140057 0.69969165 -0.065885268 0.0021304891
-0.077979393 -0.088488929 0.037125148 0.66776884 0.74127227 -0.067824706 0.0020154251
0.077465199 -0.088945389 0.036373131 -0.65918386 0.74857396 -0.071510181 0.0021925243
0.08402127 -0.08347775 0.035962556 -0.71414232 0.69711679 -0.063474104 0.0022885071
-0.091793992 -0.073801734 0.035916917 0.76427883 0.64075524 -0.072873369 0.0013784087
-0.08812163 -0.078459956 0.03710727 0.74260259 0.6656146 -0.074152648 0.0020770151
0.088041097 -0.078702003 0.035829581 -0.73744178 0.67179859 -0.069759265 0.0021602747
0.0917463 -0.073786065 0.036642883 -0.76796043 0.63645422 -0.071852386 0.0020556345
-0.10118206 -0.061784167 0.033892758 0.85397696 0.51629543 -0.064516596 0.0024365915
-0.096385822 -0.067783117 0.036238112 0.81285077 0.57847828 -0.068091907 0.0024241752
0.097129121 -0.066888608 0.035547342 -0.81827664 0.57020575 -0.072723493 0.0022389127
0.10072921 -0.061792307 0.039318789 -0.85198987 0.51766837 -0.0783123 0.0020138745
-0.10472175 -0.055024598 0.035082169 0.87532192 0.47853723 -0.069380097 0.0021439509
0.10463893 -0.055543553 0.033213206 -0.87039179 0.48708817 -0.071856633 0.0021124252
-0.11036475 -0.041787818 0.032816902 0.93111259 0.35640672 -0.077482745 0.0032454729
-0.10813716 -0.046386998 0.037380118 0.91285819 0.40161818 -0.073435023 0.0013344192
0.10888673 -0.045101453 0.034309167 -0.91573375 0.39413339 -0.078042142 0.0014549362
-0.11180043 -0.038277417 0.033076741 0.94157296 0.32845855 -0.074534006 0.0022572542
0.11243926 -0.036395747 0.034807686 -0.94628769 0.31593066 -0.068755455 0.0017474195
-0.11561477 -0.024632603 0.034567773 0.9736256 0.21553399 -0.074821666 0.0020605249
0.1155205 -0.025259947 0.034744971 -0.97251368 0.22216506 -0.069712617 0.0015456694
-0.1168719 -0.015069945 0.034595296 0.98797923 0.13908949 -0.067462154 0.0024043648
0.11672703 -0.015572591 0.035790071 -0.9894489 0.12932925 -0.065305561 0.0019229909
-0.11820726 -0.0045182463 0.035412423 0.99708253 0.038248852 -0.066056043 0.0015390726
0.11816742 -0.0051065194 0.034841411 -0.99625325 0.045562066 -0.073508866 0.0015777181
-0.11839133 0.0037489729 0.034155533 0.9969129 -0.023364395 -0.074958064 0.0019693484
0.11816975 0.0048230723 0.035372861 -0.99546415 -0.051173959 -0.080202103 0.002306581
-0.11687505 0.014099953 0.036486104 0.98999673 -0.11684202 -0.079084463 0.0024808918
0.11683585 0.014291654 0.036698747 -0.99062842 -0.1072982 -0.084513225 0.002243794
-0.11553033 0.025453269 0.034209333 0.9734866 -0.21886599 -0.066494666 0.001647387
0.1153669 0.026342297 0.034913938 -0.96962631 -0.2332954 -0.073471539 0.002113929
-0.11282689 0.035570391 0.034314062 0.94934255 -0.30677187 -0.068115495 0.0018460787
0.11315516 0.034238677 0.037330192 -0.95502794 -0.28914058 -0.06572222 0.00220579
-0.11003127 0.042753033 0.031878799 0.9313699 -0.35750467 -0.068851389 0.0020673252
-0.10883846 0.045055702 0.035259966 0.91663939 -0.39293563 -0.073306181 0.00096834055
0.10837248 0.046382807 0.034075443 -0.91555059 -0.39602309 -0.070234366 0.0011861216
-0.10458502 0.0554973 0.034246989 0.87617183 -0.47644719 -0.072944574 0.0020258385
0.10495082 0.054415494 0.03530496 -0.88274819 -0.46341655 -0.07746426 0.0025760003
-0.10084138 0.062335432 0.032893218 0.85259169 -0.51822042 -0.067342095 0.0025595187
-0.098427534 0.06510175 0.036430363 0.83989519 -0.53791535 -0.072271548 0.0021771167
0.097793981 0.066338621 0.032597918 -0.83010936 -0.55450749 -0.058650006 0.0018013248
0.10167751 0.061370261 0.031733386 -0.85482091 -0.51478183 -0.065428503 0.0028235249
-0.091983877 0.073661193 0.034920599 0.76776832 -0.637043 -0.068614587 0.0016821267
-0.089139916 0.077292033 0.035624076 0.75784558 -0.64880925 -0.068677656 0.0013703706
0.088394463 0.078348286 0.034834366 -0.74683034 -0.66198504 -0.063406006 0.0024691503
0.09166684 0.074084878 0.034823131 -0.76457375 -0.64039773 -0.072922409 0.0018011816
-0.083126001 0.084425442 0.035517309 0.69833863 -0.7128278 -0.06480597 0.0023429345
-0.077099711 0.089116372 0.037702896 0.65085942 -0.75544715 -0.0753754 0.0014392087
0.077646367 0.088741004 0.037167162 -0.65301967 -0.75415236 -0.069422327 0.0016703503
0.083783276 0.083978735 0.033444267 -0.71046156 -0.70076835 -0.06455981 0.0024098821
-0.074156001 0.091688067 0.033901975 0.63621157 -0.76834935 -0.069815032 0.0018220213
-0.066413611 0.097621851 0.033989217 0.5501352 -0.83279753 -0.061639804 0.0018685841
0.067206524 0.096843481 0.036053736 -0.56779599 -0.82013631 -0.07059858 0.0026580514
0.073268823 0.092352778 0.034096766 -0.63147807 -0.77248651 -0.06708236 0.0014821171
-0.061483882 0.10126717 0.035658609 0.52444679 -0.84903711 -0.063965462 0.0021446331
-0.056843631 0.10403702 0.033657484 0.48883241 -0.86926335 -0.073648676 0.0022442187
-0.046440873 0.10823708 0.035650834 0.40779757 -0.91038531 -0.069998547 0.0014304668
0.0459226 0.10836099 0.036934696 -0.3981733 -0.91421407 -0.07530392 0.0014229357
0.054713231 0.10491781 0.034133665 -0.48333687 -0.87282264 -0.06757272 0.0020060008
0.06149913 0.10155036 0.032076586 -0.50764865 -0.85885417 -0.068281293 0.0023386972
-0.040748641 0.11063307 0.035110451 0.34226876 -0.93730843 -0.065612011 0.0021676267
-0.034498725 0.11322813 0.034765944 0.29346803 -0.95429724 -0.056509603 0.0020168968
-0.02564802 0.11545699 0.034933444 0.22501512 -0.9718464 -0.069876976 0.0017154705
-0.014474712 0.1169084 0.035230864 0.1184867 -0.99008805 -0.075408876 0.0015198069
-0.004743034 0.11823387 0.034558959 0.030898523 -0.99603701 -0.083400503 0.0019183786
0.0047985665 0.11813442 0.035958089 -0.038563512 -0.99631661 -0.076589994 0.0016057686
0.014032913 0.11703078 0.034256671 -0.13770464 -0.98782527 -0.072378837 0.0020359964
0.023824586 0.11562177 0.036076639 -0.20258792 -0.97693431 -0.067508861 0.0019260545
0.036857076 0.11232007 0.034048192 -0.3161436 -0.94665188 -0.062477976 0.0019347457
0.040874049 0.11073104 0.032989435 -0.34064129 -0.93791538 -0.065408967 0.0023513951
-0.033968944 -0.11273398 0.045032308 0.28672317 0.95460087 -0.080790244 0.0023738996
-0.025588559 -0.11482741 0.044610444 0.23852624 0.96713859 -0.088023946 0.0018970956
-0.010971387 -0.11671378 0.045188166 0.079189815 0.99294025 -0.088310428 0.0018770115
-0.0063229576 -0.117479 0.0428617 0.06618578 0.99424279 -0.084265731 0.0018224147
0.0068061999 -0.11735249 0.04381638 -0.076561563 0.9931348 -0.088440068 0.0020117976
0.014590414 -0.11630947 0.044092383 -0.13647069 0.98665941 -0.088763461 0.0016237613
0.026250606 -0.11473028 0.04476143 -0.23011783 0.96970999 -0.081903435 0.0015077763
0.035882588 -0.11174492 0.047894824 -0.30799741 0.94749975 -0.085917361 0.0022746967
0.040330097 -0.11002219 0.046204787 -0.33591622 0.93797427 -0.085817508 0.0021555054
-0.060935747 -0.10087695 0.045508564 0.5114854 0.85407132 -0.094577275 0.0021617401
-0.0535128 -0.10462913 0.045251373 0.46156466 0.88243866 -0.090884916 0.0022652105
-0.044924971 -0.10811656 0.046238083 0.39906228 0.91226333 -0.092330806 0.0012147297
0.03991472 -0.10998407 0.049178049 -0.33633006 0.93670237 -0.097317874 0.001997726
0.045170762 -0.1080484 0.04576242 -0.39519674 0.91373634 -0.094368353 0.0011717174
0.056791056 -0.10336004 0.043710712 -0.48794606 0.86915189 -0.08052098 0.0021677979
0.060618717 -0.10136916 0.042484358 -0.50830835 0.85766405 -0.077685677 0.0023160109
-0.07231836 -0.092186853 0.044972546 0.63312286 0.76972097 -0.081762463 0.0016258577
-0.067913696 -0.095495149 0.045841593 0.58164001 0.80807441 -0.093331009 0.0020955128
0.068754286 -0.094605565 0.048812766 -0.5915817 0.80081636 -0.093403749 0.0017903525
0.072066285 -0.09236069 0.045210529 -0.63126898 0.77118593 -0.082290009 0.0018470217
-0.082547054 -0.083940834 0.046275619 0.70364708 0.70589727 -0.081177697 0.0023992851
-0.078121841 -0.087698527 0.045399509 0.66566151 0.74237573 -0.075980596 0.0026411812
0.078249134 -0.087868594 0.042146672 -0.66627306 0.74105024 -0.083214864 0.0018319329
0.083501726 -0.083190635 0.044979587 -0.69754088 0.7115314 -0.084615864 0.0023279118
-0.092561714 -0.072098076 0.042471748 0.77858311 0.62268513 -0.077920325 0.0019508604
-0.088571981 -0.076985732 0.045378689 0.75453949 0.65101403 -0.082770005 0.0017226768
0.087714233 -0.078126021 0.045169707 -0.74085236 0.66622365 -0.085345313 0.0020048253
0.091655657 -0.073166177 0.043522678 -0.77121294 0.63098747 -0.084174812 0.0019259026
-0.10042857 -0.061852932 0.042405576 0.84666026 0.52604187 -0.08028917 0.0024233626
-0.097006574 -0.066231802 0.043158248 0.82588047 0.55937308 -0.070873857 0.0029202302
0.095776655 -0.067573816 0.04559011 -0.8172394 0.56998569 -0.085065499 0.0026115484
0.10030999 -0.06157716 0.046417225 -0.84296376 0.53050482 -0.089312688 0.0022034573
-0.1033587 -0.056420736 0.045923285 0.86996055 0.48631942 -0.081621304 0.0022073786
0.10429475 -0.05436467 0.044629015 -0.87335783 0.47945279 -0.085855454 0.0019609598
-0.11042351 -0.040134475 0.041673735 0.93520719 0.34410095 -0.083558969 0.0020474885
-0.10687711 -0.048101138 0.045161255 0.90606135 0.41458824 -0.084671855 0.001783022
0.10826001 -0.044567574 0.046303459 -0.91228706 0.39815229 -0.09595339 0.0013192943
-0.11254559 -0.034343991 0.045583881 0.95292616 0.29026511 -0.087623313 0.0021313783
0.11211731 -0.035195258 0.046536308 -0.94316328 0.32062891 -0.087407798 0.0016929893
-0.11478639 -0.02591062 0.044589248 0.9702161 0.22751939 -0.083160348 0.0016190725
0.11491759 -0.02492805 0.044561319 -0.97396886 0.21334168 -0.076616101 0.0018803703
-0.11639498 -0.014409942 0.043154955 0.98984474 0.12129431 -0.074128911 0.0026184928
0.1162749 -0.014506022 0.04478579 -0.99149239 0.097035915 -0.086757123 0.0020172198
-0.11718078 -0.0071924827 0.045650925 0.99303716 0.066511609 -0.097228691 0.0017443374
0.11774169 -0.0038066567 0.043902844 -0.99555796 0.03684881 -0.086639971 0.0016520197
-0.11754195 0.0053603826 0.043829739 0.99484199 -0.05477187 -0.085377388 0.0016045226
0.11768358 0.003576217 0.045245815 -0.99583733 -0.020317869 -0.088854752 0.0021928612
-0.11616448 0.015018307 0.045438334 0.98984343 -0.11515537 -0.083361931 0.0016612861
0.1163643 0.013965823 0.044508643 -0.98768318 -0.12563786 -0.093258075 0.0019315199
-0.11477394 0.025790589 0.04501801 0.96916854 -0.23499727 -0.074084781 0.0020686493
0.11477052 0.026711121 0.043230459 -0.97187877 -0.2237605 -0.073368497 0.0017615228
-0.11260128 0.03427159 0.045160696 0.9513427 -0.29679909 -0.082809106 0.0024686633
0.11234355 0.034595151 0.046918638 -0.94748443 -0.30478755 -0.096839629 0.0019768525
-0.11044219 0.040172443 0.041187081 0.9360708 -0.34298584 -0.078307942 0.0023149769
-0.10819419 0.044911653 0.045218352 0.9150269 -0.39338893 -0.089279838 0.0010629779
0.1074677 0.046741389 0.04477407 -0.90861052 -0.40971053 -0.081020206 0.0016105613
0.1100535 0.040448021 0.045070726 -0.93703771 -0.34002307 -0.079654105 0.0024412184
-0.10512522 0.0525336 0.043971766 0.89479494 -0.43726358 -0.090236224 0.0017312389
0.10341612 0.056630701 0.044141848 -0.86882174 -0.48711583 -0.088695794 0.002336567
-0.10079179 0.061166078 0.044396218 0.85183716 -0.51590866 -0.090618148 0.0022314917
-0.097236998 0.065554895 0.046669319 0.82531977 -0.55768853 -0.088491693 0.0025751849
0.09702643 0.066026323 0.04483312 -0.82745379 -0.55424821 -0.090162098 0.0022741088
0.1006425 0.061758742 0.040685412 -0.84455079 -0.52888453 -0.083756626 0.0020412013
-0.092848584 0.071611561 0.043522261 0.77720523 -0.62408835 -0.080410175 0.0016669249
-0.087236129 0.07866326 0.045969803 0.73474699 -0.67342865 -0.081490546 0.0017356628
0.087743402 0.078261428 0.043553259 -0.74098098 -0.66691226 -0.078583129 0.0020574371
0.092548281 0.071864448 0.044813424 -0.77931094 -0.62036538 -0.08843758 0.0021086927
-0.082514368 0.084295809 0.044183746 0.69684285 -0.71206647 -0.085856639 0.0022725314
-0.077882163 0.087856516 0.045714222 0.65985626 -0.74667674 -0.084045105 0.0021031424
0.076704741 0.088745013 0.045896154 -0.64423591 -0.76018476 -0.084137216 0.001607287
0.083749115 0.082960024 0.04456953 -0.70291853 -0.70623189 -0.084511511 0.0021462908
-0.072824791 0.091840751 0.04445637 0.63961351 -0.76344067 -0.08973787 0.0016047881
-0.068179823 0.095026374 0.049055766 0.57855439 -0.81030953 -0.093130171 0.0019712131
0.066431351 0.096708223 0.044922773 -0.56157941 -0.8234005 -0.081487402 0.0024417096
0.072760984 0.091983758 0.043313622 -0.63718504 -0.76590699 -0.08591637 0.001626746
-0.061347347 0.10041837 0.047242969 0.52382773 -0.8471483 -0.089129917 0.0024407231
-0.055796474 0.10390544 0.042108051 0.4870407 -0.86956549 -0.081530228 0.0020027147
-0.046093624 0.10779959 0.043874647 0.38365075 -0.91902018 -0.090631142 0.0016596481
0.045605008 0.10800848 0.043782674 -0.39284191 -0.91619837 -0.079092525 0.0013063154
0.055618439 0.10361624 0.04660812 -0.48300308 -0.87148249 -0.085007988 0.0020671654
0.061091702 0.10080821 0.044890083 -0.50795579 -0.85739988 -0.082741819 0.0025629431
-0.033148464 0.11307365 0.044768315 0.29517663 -0.95249951 -0.074936338 0.0017053479
-0.025347402 0.11470935 0.046884511 0.21571726 -0.97246599 -0.088181213 0.001784398
-0.017433858 0.11582984 0.045690723 0.15983328 -0.98254937 -0.095131263 0.0021179682
-0.0032303738 0.11787551 0.043022953 0.019244153 -0.99627584 -0.084048472 0.0021608151
0.0048478907 0.11744515 0.046323895 -0.043243956 -0.99496508 -0.090413004 0.0016684377
0.01518828 0.1162845 0.043276917 -0.14773004 -0.98590088 -0.078583591 0.0013924781
0.025436586 0.11482497 0.044951078 -0.21379985 -0.97310263 -0.085795462 0.0015800028
0.035771336 0.11181992 0.047485713 -0.31597695 -0.94447684 -0.090122402 0.0016983787
0.040179662 0.11019909 0.044583611 -0.33663878 -0.93783849 -0.084458522 0.0022833224
-0.034456376 -0.11194889 0.053241372 0.3057597 0.94532675 -0.11343849 0.001901814
-0.026338357 -0.11388808 0.055659637 0.2172489 0.97022122 -0.10711525 0.0017017004
-0.016295142 -0.11530981 0.054524262 0.13803349 0.98401672 -0.11250731 0.0014984878
-0.0032544776 -0.11701477 0.054723967 0.021171823 0.99303603 -0.11589324 0.0020518948
0.0057673138 -0.11665323 0.055557862 -0.073911063 0.99044228 -0.1164524 0.0015838244
0.014543071 -0.11545534 0.055473424 -0.13750295 0.98507375 -0.10355055 0.0016770629
0.026434371 -0.11388347 0.056101575 -0.21615387 0.97048241 -0.10696499 0.0018720085
0.034614988 -0.11180487 0.053262871 -0.28243554 0.9542985 -0.097696245 0.0022859771
-0.055667289 -0.10286529 0.055350836 0.4797655 0.86991727 -0.11431971 0.0019869218
-0.045708653 -0.10705646 0.054830771 0.38930169 0.91411656 -0.11329217 0.001402154
0.039824687 -0.1096862 0.053599074 -0.3441661 0.93258196 -0.10881424 0.0018968303
0.046735991 -0.10679526 0.053652804 -0.41578415 0.90309906 -0.10740394 0.0013996336
0.056334071 -0.10251518 0.055762332 -0.47890612 0.87093037 -0.11013291 0.0021810876
0.060725499 -0.10054217 0.051535703 -0.50972259 0.85475665 -0.097845964 0.0023470775
-0.072432987 -0.091049641 0.055928193 0.62821245 0.76840597 -0.12207145 0.0017587657
-0.066115066 -0.09592247 0.055751614 0.56268328 0.81806928 -0.11895429 0.0016485241
0.064837649 -0.096827321 0.056394286 -0.53141063 0.83934504 -0.11446651 0.0021986859
0.071718775 -0.091842368 0.053769331 -0.62628084 0.77216995 -0.10735896 0.0022341763
-0.082827702 -0.08286909 0.054283064 0.70954943 0.69556886 -0.11279894 0.0025109905
-0.075959049 -0.088314228 0.056214407 0.64367092 0.7572903 -0.11045016 0.0021654835
0.076824486 -0.08756385 0.056639381 -0.65819335 0.74436653 -0.11269477 0.0020193581
0.083338358 -0.082101457 0.057540741 -0.70596641 0.69637787 -0.12910961 0.0020760202
-0.091033854 -0.072803803 0.053832192 0.77150124 0.62750936 -0.10496564 0.0016490846
-0.087483324 -0.076940633 0.057071507 0.7379145 0.66387689 -0.12144852 0.002423988
0.088120997 -0.076316915 0.055750024 -0.7505362 0.65196341 -0.10788497 0.0026447037
0.091422677 -0.072359227 0.05387513 -0.76590055 0.63413775 -0.10613964 0.0022540863
-0.10046643 -0.060720757 0.05249989 0.85034716 0.51551086 -0.10563236 0.0025148168
-0.097085454 -0.064518794 0.056110322 0.82702273 0.54934782 -0.11937462 0.0016370889
0.096056744 -0.066328473 0.053515453 -0.81803483 0.56513029 -0.10699014 0.0017591969
-0.10224313 -0.057363007 0.055075847 0.86984795 0.48026082 -0.11275701 0.0021725588
0.10440825 -0.052698866 0.052853663 -0.87916678 0.4632411 -0.11168443 0.0016619459
-0.1077891 -0.044413913 0.053163353 0.92110169 0.37383592 -0.10871208 0.001537489
0.10794654 -0.043334767 0.055632677 -0.92289144 0.36936596 -0.10881238 0.0020679135
-0.11236627 -0.033100218 0.053962182 0.95445353 0.27960742 -0.10410652 0.0020049068
0.11190496 -0.034190405 0.054785416 -0.95540714 0.27761763 -0.1006261 0.0022064284
-0.11393965 -0.024412256 0.05771511 0.97235906 0.20271599 -0.1158623 0.0023220526
0.11424756 -0.024262831 0.054471895 -0.97440428 0.1989198 -0.10472459 0.0021824008
-0.11539286 -0.015808806 0.054514758 0.9841761 0.13865343 -0.11032995 0.002077952
0.1153041 -0.015410369 0.055614136 -0.98530859 0.12986569 -0.11091413 0.001737176
-0.11668902 -0.0042614113 0.056790609 0.99206483 0.046605982 -0.11677014 0.0017857041
0.11688835 -0.005283786 0.053563248 -0.99141407 0.066786245 -0.11241744 0.0018375876
-0.1167927 0.0050329403 0.054692894 0.99282926 -0.035998773 -0.11399185 0.0020894965
0.11689715 0.0051113642 0.053822059 -0.99266768 -0.04238867 -0.11319942 0.0023374192
-0.11567086 0.014136272 0.054027818 0.98808676 -0.11019624 -0.10743027 0.0021188403
0.11574509 0.013511002 0.054384802 -0.98717028 -0.11625934 -0.10944669 0.002183021
-0.11368509 0.027201217 0.056697864 0.96200716 -0.2494313 -0.11102302 0.0025143712
0.1141808 0.025726208 0.053565133 -0.96930736 -0.2223063 -0.10499051 0.0016573132
-0.11147022 0.034975071 0.055199843 0.94525498 -0.30512774 -0.11571513 0.0022398559
0.10926328 0.03990623 0.057321191 -0.93472022 -0.33586523 -0.11615765 0.0020777134
0.1116519 0.03522221 0.052979965 -0.94558799 -0.3084676 -0.10349498 0.0016703556
-0.10715494 0.045049228 0.056370247 0.90802646 -0.40175733 -0.118655 0.001206736
0.10707929 0.045545269 0.055464491 -0.9144451 -0.38829032 -0.11410885 0.0015243588
-0.10346425 0.054487925 0.054847337 0.87769312 -0.46513852 -0.11532933 0.0021468834
0.10331248 0.055217691 0.052980002 -0.87001973 -0.47967085 -0.11393637 0.0020686351
-0.10063609 0.060545009 0.052077185 0.85761964 -0.5037486 -0.10356553 0.0020576362
-0.096456371 0.065450482 0.05554923 0.82100391 -0.55805945 -0.12050846 0.002257183
0.096259259 0.065731056 0.055453598 -0.81871384 -0.56008768 -0.12652865 0.0019856256
0.10072982 0.060078535 0.055286862 -0.85538888 -0.50396276 -0.1197139 0.0019787503
-0.091193706 0.072491735 0.054601718 0.76626062 -0.63309664 -0.10969654 0.0020804445
-0.087226532 0.07701987 0.058063608 0.74346918 -0.65712464 -0.12426071 0.0024352069
0.087996483 0.076461889 0.055311441 -0.75337464 -0.64771789 -0.11352618 0.0020583493
0.091356918 0.07226254 0.054126304 -0.77066296 -0.62931889 -0.10018151 0.0016271252
-0.08344195 0.082418799 0.054423496 0.7109077 -0.69416606 -0.11288822 0.0023253127
-0.076859094 0.087658122 0.055661496 0.65576667 -0.74743754 -0.10633547 0.0023870131
0.078157552 0.086729847 0.055380266 -0.66699487 -0.73646218 -0.11287777 0.0028259819
0.082784094 0.082783245 0.056610558 -0.69979745 -0.70443469 -0.11855518 0.002251277
-0.072084069 0.091498256 0.054593783 0.63344944 -0.76560062 -0.11223867 0.0016904759
-0.064868808 0.097055048 0.054312754 0.54049718 -0.83415651 -0.10975327 0.0020616071
0.065939173 0.096199833 0.054660797 -0.56112707 -0.82048613 -0.10926524 0.0020872939
0.072428942 0.091330275 0.054052059 -0.63674682 -0.7640202 -0.10405111 0.0020004376
-0.060499355 0.10000057 0.057631407 0.51231617 -0.85075736 -0.11723547 0.0023562824
-0.055657376 0.10306869 0.054030575 0.48041999 -0.86990207 -0.1116553 0.0021377681
-0.04608449 0.10701874 0.053956572 0.3962442 -0.91142339 -0.11089683 0.0011947845
-0.039293539 0.10955568 0.056481343 0.34911597 -0.92992491 -0.11557517 0.0019728672
0.044357728 0.10757536 0.055540487 -0.38380605 -0.9166463 -0.11159062 0.0012661642
0.056207735 0.10259452 0.055820983 -0.48478395 -0.86854839 -0.10299598 0.0021151451
0.061106339 0.10015838 0.052647844 -0.51772618 -0.84870464 -0.1079815 0.0022952801
-0.035116214 0.11159345 0.053919654 0.31157139 -0.94399709 -0.10859446 0.0021483304
-0.024225062 0.11418484 0.055733729 0.20492966 -0.97297144 -0.10644376 0.0016523391
-0.014083194 0.11555069 0.055364661 0.11558408 -0.98567599 -0.12281297 0.001782304
-0.0040611969 0.11701957 0.053803291 0.024888616 -0.99375111 -0.10880896 0.0019140556
0.0064445511 0.11661766 0.054657888 -0.065210417 -0.99195969 -0.1084597 0.0022879767
0.01476256 0.11539754 0.055708364 -0.13170594 -0.98442769 -0.11642934 0.0017199424
0.024517629 0.11413686 0.05537454 -0.20679592 -0.97293955 -0.10307332 0.0016176635
0.034372836 0.11169598 0.055554915 -0.28680104 -0.95126462 -0.11331718 0.002054696
-0.033984173 -0.11038678 0.064626977 0.3001146 0.94209474 -0.14962855 0.0020603386
-0.025506619 -0.11247952 0.065475933 0.2316065 0.9626283 -0.14037548 0.0021902726
-0.016230423 -0.11372255 0.065347582 0.14614372 0.97852725 -0.14534917 0.001890193
-0.0054219374 -0.11538205 0.063952848 0.054397423 0.988639 -0.14012061 0.001616104
0.0068837828 -0.11501697 0.064970858 -0.067819893 0.98812884 -0.1378476 0.0018483887
0.015396528 -0.11389536 0.064975888 -0.15818927 0.97801507 -0.13587767 0.0015952523
0.024848994 -0.11303595 0.062705249 -0.20911796 0.97051513 -0.11987524 0.0016460079
0.032253169 -0.11104073 0.064973317 -0.28098074 0.94801569 -0.14938569 0.0026418348
-0.054099731 -0.10188721 0.065547399 0.48605084 0.86272478 -0.13950098 0.0020855032
-0.04459234 -0.10579748 0.065700062 0.37897563 0.91406065 -0.14446612 0.0019011542
-0.037316717 -0.10899809 0.064672679 0.32660031 0.93452001 -0.14143771 0.0013198528
0.034865808 -0.10955057 0.067215241 -0.30261734 0.94068402 -0.15341549 0.0019537145
0.044328157 -0.10638869 0.063052528 -0.37673053 0.91592383 -0.13841093 0.0016143103
0.054679282 -0.10179365 0.06473963 -0.47301263 0.87040538 -0.13657802 0.0020027382
-0.065166019 -0.094671309 0.065881662 0.57427573 0.80709261 -0.13714524 0.0019348926
-0.058656514 -0.09965425 0.065938361 0.50603449 0.85107911 -0.1399768 0.0024666947
0.058900148 -0.098631769 0.069881089 -0.50013614 0.85351008 -0.14623392 0.0021944919
0.06541729 -0.094474703 0.065899774 -0.57082611 0.80732101 -0.14963388 0.0020343235
0.070597343 -0.091085166 0.063137867 -0.62545103 0.7682364 -0.13646902 0.0014658656
-0.081676468 -0.082277834 0.064107507 0.69751287 0.70224899 -0.14255635 0.0019401979
-0.077093519 -0.085670263 0.065167755 0.65823108 0.73935765 -0.1417115 0.0022283967
0.075629301 -0.086788975 0.065190718 -0.63668036 0.7585327 -0.13880293 0.0012872167
0.082395658 -0.08122059 0.065532163 -0.70173895 0.69704258 -0.14728884 0.0019687437
-0.090995148 -0.070981666 0.062171027 0.78264046 0.60723907 -0.13687484 0.0019790635
-0.087508485 -0.074830748 0.064686999 0.75276333 0.64245647 -0.14351659 0.0020683059
0.086807109 -0.075447172 0.065764688 -0.74091703 0.65535253 -0.14681654 0.0018359754
0.090427592 -0.071166806 0.064178899 -0.77610195 0.61558414 -0.13682811 0.0020734617
-0.09469486 -0.06559404 0.064220868 0.81682241 0.56068981 -0.13575032 0.0018870408
0.095969938 -0.063662499 0.0651979 -0.83143485 0.53991401 -0.13118255 0.0012708521
-0.10227692 -0.054365851 0.062745176 0.87200654 0.47037074 -0.13548395 0.0020581533
-0.099372774 -0.059043616 0.06586495 0.8457213 0.51381463 -0.14404845 0.0023690329
0.098648667 -0.059209362 0.068681784 -0.85023701 0.50670093 -0.1426577 0.0019399577
0.1012888 -0.05573149 0.065066114 -0.86924344 0.47610652 -0.13318591 0.0020657054
-0.10570259 -0.0450585 0.065160446 0.90852273 0.39411026 -0.1387933 0.001739777
0.10560092 -0.045885023 0.063837878 -0.90431476 0.40870038 -0.12320216 0.0016927504
-0.11050896 -0.033151679 0.065850347 0.9454782 0.28964746 -0.14891407 0.0025393795
-0.10885306 -0.037376355 0.065333828 0.93631434 0.32070184 -0.1430583 0.0016396376
0.10906072 -0.035713267 0.067978285 -0.93721449 0.31406111 -0.15164018 0.0018383737
0.11103282 -0.032851931 0.063654043 -0.94986385 0.28031325 -0.13850337 0.0028704701
-0.11259098 -0.025118209 0.06512025 0.9683218 0.20532759 -0.14210384 0.0021382666
0.11271209 -0.025396073 0.06419044 -0.96642011 0.21421705 -0.14192666 0.0022596798
-0.11422859 -0.012978247 0.064888373 0.98608112 0.096098602 -0.13567965 0.0021197828
0.11395186 -0.015931072 0.064227834 -0.98131543 0.13961494 -0.13239217 0.0013626426
-0.11546469 -0.004683564 0.064038828 0.98838896 0.046897464 -0.14452693 0.0019970757
0.1148351 -0.0061335741 0.066625997 -0.98825526 0.058108289 -0.14133304 0.0015458185
-0.11522721 0.0035470901 0.066321574 0.98963541 -0.029310403 -0.14057963 0.0019350757
0.11492393 0.0065771593 0.065757647 -0.98797399 -0.04879659 -0.14671853 0.0016232183
-0.11405892 0.015388697 0.064017527 0.98264742 -0.12654804 -0.13560812 0.0021733036
0.11375009 0.015638759 0.065644592 -0.98034364 -0.13939373 -0.13962698 0.0011820148
-0.11276166 0.024921285 0.064266607 0.96797073 -0.2133577 -0.13232972 0.0027620792
0.11270335 0.02449373 0.064942524 -0.96805012 -0.21057044 -0.13615836 0.0016692264
-0.11252977 0.030542426 0.060684815 0.95690578 -0.26012138 -0.12910526 0.0021926798
-0.10917947 0.035208739 0.068473935 0.93732244 -0.31175026 -0.15568645 0.0016931834
0.10896222 0.036654919 0.066376157 -0.93780786 -0.31236452 -0.15147555 0.0014539171
0.11113354 0.032351285 0.064240202 -0.95083058 -0.2755903 -0.14131959 0.0023293367
-0.1060743 0.043955926 0.065627441 0.91768718 -0.37085754 -0.14253066 0.0016333518
0.10533714 0.046038702 0.064937584 -0.90091324 -0.40817595 -0.14747117 0.0018788362
-0.10265805 0.052865554 0.064120606 0.88189858 -0.45302632 -0.13046888 0.0023863367
-0.098904908 0.059304386 0.067128502 0.85019433 -0.50598466 -0.14542761 0.0022068652
0.10166375 0.05445914 0.065864421 -0.86895609 -0.47395515 -0.14241472 0.0019713752
-0.095658861 0.064231403 0.064605907 0.81909138 -0.55463314 -0.14653109 0.0018456419
0.094420381 0.065569356 0.065605462 -0.81028461 -0.56787884 -0.14474922 0.0017022257
-0.09011241 0.072034582 0.06252405 0.7670908 -0.62680012 -0.13672327 0.0015777063
-0.087052889 0.075566188 0.0641739 0.75223947 -0.64541769 -0.13255855 0.0020880932
0.086876355 0.075434797 0.065482654 -0.75578642 -0.64007068 -0.13818975 0.0021392843
0.090384334 0.070804328 0.065695554 -0.78058428 -0.60851818 -0.14280699 0.001882485
