# .PCD v0.7 - Point Cloud Data file format
VERSION 0.7
FIELDS x y z normal_x normal_y normal_z curvature
SIZE 4 4 4 4 4 4 4
TYPE F F F F F F F
COUNT 1 1 1 1 1 1 1
WIDTH 562
HEIGHT 1
VIEWPOINT 0 0 0 1 0 0 0
POINTS 562
DATA ascii
-0.031223804 -0.015472443 -0.40540743 -0.67796487 -0.33799669 0.65278018 0.013872273
-0.029558614 -0.017431233 -0.40453005 -0.63827091 -0.4192982 0.64560002 0.012795782
0.028722517 -0.019641019 -0.40507731 0.63719583 -0.43920675 0.63330781 0.01357423
0.033039164 -0.013982739 -0.40673187 0.73497385 -0.2777909 0.61858362 0.0095998403
0.13970593 -0.016145948 -0.40583578 -0.99402899 0.10904461 -0.0039505051 0.0023523334
-0.13978469 -0.0044812281 -0.40561211 0.99906957 0.043101329 0.0014936789 0.0010416836
-0.034085717 -0.0053009703 -0.40468189 -0.74663025 -0.10143502 0.65746039 0.014105515
0.035471983 -0.0051129949 -0.40679669 0.75917155 -0.12276407 0.6392085 0.0095773973
0.13978469 -0.0033361502 -0.40532032 -0.99994761 0.010144816 0.001367831 0.0012447098
-0.13978469 0.0044673439 -0.4063912 0.99972326 -0.023152415 0.0041799876 0.00096589664
-0.034312002 0.0048103202 -0.4051114 -0.75389081 0.085650094 0.65139294 0.0099595608
0.033926003 0.0063743596 -0.40494654 0.74142385 0.14870504 0.65435266 0.011170986
0.13978469 0.0038427915 -0.40646744 -0.99979991 -0.019833434 -0.0026205361 0.0011496268
-0.13976789 0.016141258 -0.40618822 0.99294007 -0.11804099 -0.011678861 0.0021420785
-0.03241292 0.01318383 -0.40525931 -0.71376628 0.27572238 0.64382833 0.015297303
-0.027299898 0.018640172 -0.40258759 -0.60422754 0.46124029 0.64974332 0.014061383
0.02882264 0.015940286 -0.40254271 0.63362908 0.37020916 0.67930806 0.014981718
0.031640768 0.017087324 -0.40694767 0.69050729 0.3725706 0.61999261 0.010353518
0.13978469 0.012398503 -0.40404415 -0.99579787 -0.091427334 0.0052511818 0.0018902459
-0.13721819 0.027981367 -0.40390825 0.97837526 -0.20679115 -0.0043908232 0.0014020554
-0.030051991 0.021792263 -0.40827778 -0.61199081 0.49296498 0.61842757 0.012473837
-0.026127419 0.02348672 -0.4057574 -0.60703492 0.48832008 0.62693858 0.013359654
-0.015550554 0.028963313 -0.40243772 -0.33768964 0.67007232 0.66103619 0.013847547
0.0095724128 0.029654225 -0.40003556 0.22380289 0.66896176 0.70880359 0.014931186
0.016888823 0.028506164 -0.40283078 0.38994417 0.63916314 0.66288298 0.014114595
0.025079977 0.024346845 -0.4054856 0.56918406 0.54449141 0.61608326 0.010704153
0.030717585 0.02151813 -0.4089092 0.65773517 0.44672617 0.60648179 0.015053119
0.13768405 0.026242744 -0.40406829 -0.98382145 -0.17914884 -0.0010076029 0.0018254172
-0.13486359 0.03676888 -0.40389055 0.96368718 -0.26701897 -0.0028036803 0.00092935172
-0.014626851 0.032699347 -0.40667301 -0.34912404 0.70197403 0.62076151 0.01116786
-0.0045556254 0.035756581 -0.40698731 -0.10208873 0.76947802 0.63046134 0.011405524
0.0058161132 0.033741657 -0.40446278 0.15351294 0.73011994 0.66585183 0.011488008
0.016329141 0.03238833 -0.40744743 0.35882482 0.69596761 0.62199181 0.011881625
0.020415358 0.030678757 -0.40806845 0.43574238 0.65083134 0.62172908 0.018415056
0.1355377 0.034253057 -0.40398592 -0.9681443 -0.25038642 0.0017887468 0.00041585497
-0.13265534 0.045010194 -0.40379056 0.95046753 -0.3107937 0.0043307552 0.0016198821
0.13274194 0.044687003 -0.40520933 -0.95031083 -0.31127486 0.0041704183 0.0014132388
-0.13058564 0.05263067 -0.40440848 0.92061371 -0.390434 0.005630997 0.0025482296
-0.12918185 0.05581991 -0.4060736 0.91647595 -0.40008557 -0.0018260166 0.0024017843
0.12841466 0.057148702 -0.40216303 -0.91366708 -0.40640184 0.0070721889 0.0020229758
0.1308548 0.051729891 -0.4045628 -0.92823601 -0.37192738 0.0069195395 0.0027653454
-0.12417531 0.064491495 -0.40433329 0.88675255 -0.46223703 0.00260578 0.0013380839
0.12390786 0.064954713 -0.40436307 -0.8748343 -0.48442218 -0.00028822655 0.0012186219
-0.11819085 0.074856862 -0.40309837 0.84875774 -0.52874792 0.0059850598 0.0010765303
0.11841676 0.074465565 -0.40552962 -0.84700823 -0.53156847 -0.0034611493 0.00095427665
-0.1123273 0.084801286 -0.40322113 0.79562342 -0.60571676 0.0095193153 0.0022543848
-0.10979129 0.087894119 -0.40489328 0.78188014 -0.62332314 0.011477226 0.002360608
0.10854796 0.089137442 -0.40128523 -0.77861881 -0.62746948 0.0059052915 0.0022308652
0.1130804 0.083582535 -0.40559122 -0.79730505 -0.60357368 -0.0018920457 0.0022223492
-0.10249856 0.095186844 -0.40464869 0.73240155 -0.68087298 -6.2043975e-05 0.0012196471
0.099293895 0.098391503 -0.40903693 -0.70112598 -0.71303314 -0.0024867204 0.00032321096
0.10445627 0.09322913 -0.40624839 -0.7413314 -0.67112452 0.0044255136 0.0016907806
-0.09356235 0.10412306 -0.40686578 0.66660899 -0.7453838 0.0059535531 0.001676693
-0.088887595 0.1087978 -0.40398738 0.63388091 -0.77336723 -0.0099059697 0.0026321618
0.089581937 0.10810348 -0.40471926 -0.64677304 -0.76266855 -0.0046231817 0.0022191631
0.09525609 0.10242932 -0.40492511 -0.68786997 -0.72583371 -0.00050139823 0.00098158792
-0.085347332 0.11197561 -0.40438938 0.61242181 -0.7905308 0.00076037418 0.0025741472
-0.075444356 0.11785167 -0.4056997 0.5260182 -0.85047007 0.0023228056 0.00094872649
0.075933799 0.11756907 -0.40656558 -0.53384399 -0.84558243 0.00093359052 0.0011347727
0.08410272 0.11265232 -0.40263152 -0.60692811 -0.79475355 0.002236594 0.0024012267
-0.065566547 0.12355461 -0.40379569 0.48037475 -0.87705904 -0.0027482696 0.0010843459
-0.056894489 0.12856145 -0.40604395 0.41607267 -0.90930825 0.0064781001 0.0021929408
0.057620663 0.12814218 -0.40622053 -0.40961811 -0.91223121 0.0068658874 0.0021893221
0.06511794 0.12381363 -0.40570459 -0.48063412 -0.87692058 0.0010466211 0.00098028115
-0.051693533 0.13086455 -0.40417281 0.3719525 -0.9282099 0.0088138031 0.0028702761
-0.043887015 0.13295628 -0.40342876 0.31274873 -0.94982272 0.0050032795 0.0013750978
-0.034848768 0.13537808 -0.40324882 0.25226098 -0.96765548 -0.00272025 0.00044657732
-0.026594128 0.13758989 -0.40405709 0.19533816 -0.98072869 0.0037802625 0.0013031795
-0.012909099 0.13978469 -0.40710685 0.082777455 -0.99656343 -0.003041737 0.0019614149
-0.0029457046 0.13978469 -0.40485728 0.017920598 -0.99983925 -0.00068109139 0.00096743333
0.0058133504 0.13978469 -0.4051218 -0.035757408 -0.99936038 0.0006133194 0.00055472594
0.014122079 0.13978469 -0.40558511 -0.09424939 -0.99553788 0.0046200845 0.0018243346
0.023036245 0.13854322 -0.40407497 -0.17166868 -0.98515087 -0.0027649719 0.0022198674
0.035982031 0.13507441 -0.4062674 -0.25554222 -0.96679777 -0.00056304334 0.00046894071
0.044704415 0.13273725 -0.40435892 -0.31364331 -0.94953525 -0.0032701674 0.0014315415
0.051606134 0.13088796 -0.4081192 -0.36304414 -0.93175769 -0.0051501072 0.0027657994
-0.054230139 -0.1300997 -0.3968944 0.38816476 0.92155737 0.007764101 0.0028266818
-0.044072598 -0.13290656 -0.39467302 0.30443311 0.95253032 -0.0025416545 0.0015197269
-0.034495458 -0.13547273 -0.39681885 0.24175327 0.97033465 -0.0024587831 0.000998175
-0.024587117 -0.13812765 -0.39436498 0.16123816 0.98691243 0.002454042 0.0019946245
-0.015624266 -0.13977402 -0.39378947 0.11820107 0.99295568 0.0082158977 0.0019454036
-0.0049620792 -0.13978469 -0.39439535 0.055811409 0.99843997 -0.0016767125 0.0012899711
0.0050230417 -0.13978469 -0.39381805 -0.016399849 0.99986112 0.0029521405 0.00096446404
0.01518793 -0.13967898 -0.3949782 -0.11096643 0.99381119 0.0050736438 0.001717244
0.02518649 -0.13796706 -0.39492443 -0.19115122 0.98155594 0.0030322513 0.0015205354
0.036184311 -0.13502021 -0.39526138 -0.25685576 0.96644908 -0.0010952087 0.00043807446
0.04567856 -0.13247624 -0.39401734 -0.32129827 0.94697398 0.0027822549 0.0014557296
0.052002139 -0.13078186 -0.39544988 -0.37520808 0.9269405 -0.00050433469 0.0026903686
-0.071389586 -0.12019269 -0.39618289 0.52019131 0.85404754 -0.0019655593 0.00090416131
-0.066739492 -0.12287742 -0.39489502 0.4835512 0.87531483 -0.0014413111 0.00089923746
-0.058379095 -0.12770429 -0.39651608 0.4266943 0.9043321 0.0107405 0.0022096976
0.05675602 -0.12864138 -0.39430526 -0.40880442 0.91261542 0.0034898594 0.0020519663
0.065185852 -0.12377442 -0.39430735 -0.47996914 0.87728298 0.0020848834 0.00099281082
-0.082934693 -0.11352711 -0.39403614 0.59746712 0.80189109 0.0018995802 0.0022844537
-0.076593645 -0.11718812 -0.39625779 0.54071504 0.84118348 -0.0061304639 0.0013849206
0.073741227 -0.11883497 -0.39408028 -0.52906364 0.84858185 -0.00074288371 0.0009682533
0.083515272 -0.11319192 -0.39493233 -0.59677786 0.80240619 0.00075608469 0.0021770522
-0.09343081 -0.1042546 -0.39612368 0.66559464 0.74629033 -0.005868868 0.0017694741
-0.088242188 -0.10944322 -0.39458579 0.63043576 0.77622741 0.0046671508 0.0023382853
0.08840245 -0.10928296 -0.39442462 -0.61688691 0.78703874 0.0045296429 0.0021770017
0.094864696 -0.10282071 -0.39600673 -0.68518555 0.72833806 -0.0066725668 0.0014232199
-0.10425163 -0.093433768 -0.39503607 0.75219125 0.6588707 0.00988812 0.0019189923
-0.099009193 -0.098676212 -0.39239842 0.70985216 0.70435035 0.00072922301 0.0010478279
0.098972775 -0.098712631 -0.39889744 -0.71412545 0.70001751 0.00058163161 0.0011200663
0.10346659 -0.094218813 -0.39376807 -0.73415881 0.67896527 0.0041088876 0.0014495824
-0.11264571 -0.084184945 -0.39634261 0.79392767 0.60779285 -0.016332509 0.0021602833
-0.10891037 -0.088775039 -0.39526534 0.77612919 0.63056052 -0.0041186241 0.0020774032
0.11355801 -0.082752243 -0.3935501 -0.80998653 0.58644646 0.0015382768 0.0019832421
-0.12052359 -0.070816435 -0.39379889 0.86574429 0.50048345 0.0017802044 0.0012833818
-0.1175129 -0.076031119 -0.39415222 0.83579558 0.54900259 -0.0064753452 0.0017629438
0.11668567 -0.077463903 -0.39611262 -0.83032423 0.55728024 -0.00069635385 0.0017658222
0.12054209 -0.070784405 -0.39641443 -0.86328357 0.50470191 0.0041670413 0.0013877893
-0.12278175 -0.0669052 -0.39124057 0.87862223 0.47751743 1.3035436e-05 0.0011046021
0.12328259 -0.066037707 -0.39564756 -0.8784638 0.47777823 0.0054151472 0.0009663013
-0.13057949 -0.052757364 -0.39576879 0.92172301 0.38784769 0.00087641523 0.0027083035
-0.12848486 -0.057027124 -0.39554229 0.91112244 0.41212821 0.0025060875 0.0025380692
0.12796344 -0.057930246 -0.39519218 -0.90576428 0.42376098 -0.0042016953 0.0020559069
0.13071369 -0.05221539 -0.39446807 -0.92544794 0.37883732 0.0053160465 0.0029340968
-0.13304006 -0.043574434 -0.39366746 0.94920152 0.31464747 -0.0036762224 0.0022603369
0.13287289 -0.044198152 -0.39458534 -0.94782901 0.3187446 0.0046923845 0.0021404391
-0.13570842 -0.03361582 -0.39368874 0.96974391 0.2441176 -0.0018037712 0.00070158718
0.1348767 -0.03671987 -0.39355889 -0.96590185 0.25889015 -0.0030736327 0.00038077662
-0.13781375 -0.02575865 -0.39603728 0.98288381 0.18417175 -0.0044881674 0.001958655
-0.012295741 -0.023938026 -0.39614192 -0.30268824 -0.60526872 0.73622656 0.018423928
-0.0051181437 -0.025244575 -0.39514625 -0.14801033 -0.646074 0.74878657 0.018026212
0.0063917851 -0.02544692 -0.39560765 0.16104403 -0.63669407 0.75411236 0.015228596
0.016623029 -0.022134498 -0.39682755 0.39871183 -0.54425496 0.73811609 0.019653998
0.13841127 -0.023528708 -0.39448586 -0.98752207 0.15741639 -0.0045078467 0.0025901434
-0.13978469 -0.01523727 -0.39333323 0.99409986 0.10822945 0.0071943947 0.0020629219
-0.024037492 -0.014853835 -0.39742318 -0.58933061 -0.36825302 0.71908218 0.015745156
-0.017075622 -0.014798303 -0.39233366 -0.4583036 -0.36139086 0.81200641 0.025625056
0.017170241 -0.01581322 -0.39300275 0.46100393 -0.37978277 0.80202276 0.023713509
0.024551226 -0.013873882 -0.39738491 0.58935642 -0.36287045 0.72179222 0.018065067
0.13977703 -0.015627928 -0.3932896 -0.99270588 0.120501 0.0038209432 0.0020169416
-0.13978469 -0.0079085827 -0.39426017 0.99748361 0.070380911 0.0085411938 0.001626568
-0.024551999 -0.0054439977 -0.39463079 -0.62490964 -0.10197438 0.77400845 0.019012848
-0.019465093 -0.0087643191 -0.39096627 -0.53272301 -0.18393594 0.8260591 0.0233883
0.019146658 -0.0088611823 -0.39075765 0.48342907 -0.21211424 0.84929615 0.026034093
0.023470316 -0.0043265973 -0.39337829 0.63276869 -0.059428912 0.77205694 0.018174082
0.13978469 -0.0059278831 -0.39411944 -0.99918741 0.040278707 -0.0014991211 0.00069882401
-0.13978469 0.003328999 -0.39455658 0.99991268 -0.013133785 -0.001485671 0.0015688314
-0.024763972 0.0048804949 -0.39471921 -0.64240146 0.14931278 0.75168216 0.014333261
0.024326274 0.0050299247 -0.39434227 0.62429225 0.14394799 0.76781392 0.018202968
0.13978469 0.0052368073 -0.3927145 -0.99931991 -0.036303598 0.0064556226 0.0013356537
-0.13978469 0.011694498 -0.39600748 0.99699676 -0.076750442 -0.010333609 0.0017916423
-0.027257437 0.012417148 -0.39898345 -0.65445048 0.225915 0.72156572 0.015737448
-0.014073033 0.01738809 -0.39204922 -0.35602254 0.47272083 0.80609113 0.024285125
-0.0099673159 0.018189555 -0.39050454 -0.23762554 0.45469296 0.85836375 0.027397718
0.016105492 0.015901869 -0.39250696 0.38888878 0.42548338 0.81714714 0.018083274
0.024187656 0.012883497 -0.39665481 0.61127788 0.3001982 0.7322706 0.017963124
0.13978469 0.01449462 -0.3943634 -0.99483705 -0.1013976 0.0042241518 0.0017306634
-0.13801 0.025026221 -0.39438322 0.98294067 -0.18392241 0.0003162066 0.0015502673
-0.02173318 0.021333436 -0.39942196 -0.532206 0.46338427 0.70854205 0.017086856
-0.015387434 0.022905378 -0.39696079 -0.40487921 0.52642095 0.74763221 0.020553062
-0.0053537036 0.025858471 -0.39572614 -0.12092164 0.66673499 0.73541981 0.017241182
0.0041034534 0.02387494 -0.39372197 0.11106268 0.61562586 0.780173 0.016335996
0.016269863 0.022902455 -0.39728615 0.39495936 0.54250222 0.74141651 0.017113514
0.021671416 0.02202216 -0.39982882 0.48775053 0.51338714 0.70606869 0.015052054
0.13824399 0.024152996 -0.39691716 -0.98391593 -0.17862809 0.0011539287 0.001873414
-0.13543627 0.034631576 -0.39582738 0.96768266 -0.25216195 -0.0021512872 0.0004985446
0.13546696 0.034516972 -0.39638129 -0.97073632 -0.24014112 -0.0018367219 0.00094756577
-0.13243949 0.045815669 -0.39439267 0.93986148 -0.3414939 -0.0065030046 0.0020762917
0.13259163 0.045247942 -0.39546141 -0.94463372 -0.32812646 0.00018816355 0.0020921682
-0.13107698 0.050900679 -0.39433748 0.92749125 -0.37384295 -0.001238631 0.0026896584
-0.12829019 0.057364319 -0.39442199 0.90686083 -0.4214274 -0.0014995715 0.0020684975
0.12907636 0.056002617 -0.39609629 -0.91126496 -0.41181886 0.0011339342 0.0023756512
0.13096602 0.051314753 -0.39432868 -0.93372399 -0.35795224 0.0054564057 0.0026695211
-0.12377115 0.0651915 -0.39545947 0.87422043 -0.48552886 -0.00065736787 0.00091177243
0.12379402 0.065151908 -0.39621171 -0.87518162 -0.48372105 -0.0084269419 0.0010787139
-0.12016931 0.07143008 -0.39499584 0.85712594 -0.51509678 -0.0032394638 0.0010764004
-0.11790732 0.07534796 -0.39538082 0.84729749 -0.53111798 -0.00079017319 0.0010869262
0.11772148 0.075669847 -0.39632672 -0.84549272 -0.53396875 -0.0044006458 0.0014104864
-0.11384216 0.082389012 -0.39319214 0.8230176 -0.56799185 0.0052253366 0.0018480682
-0.1087497 0.088935703 -0.39434022 0.77292651 -0.63432866 0.014551057 0.0023250049
0.10865103 0.089034371 -0.39509904 -0.77689415 -0.62942374 0.01616071 0.0026298915
0.11199328 0.085465342 -0.39642793 -0.79109681 -0.61155379 0.012956309 0.0021587233
-0.10377048 0.093914919 -0.39743856 0.74261343 -0.66968036 0.007315997 0.0017028032
-0.098684981 0.099000424 -0.39269921 0.70596772 -0.70824015 -0.0023292894 0.00020936878
0.099042572 0.098642826 -0.3932007 -0.71345586 -0.70069897 0.0013009148 0.0010602763
0.104477 0.093208417 -0.39536983 -0.74046016 -0.67209607 0.0023745601 0.0017449789
-0.093300365 0.10438505 -0.39308128 0.66765016 -0.74447405 0.0013239059 0.0016060722
-0.088277049 0.10940835 -0.39622974 0.62409472 -0.78128231 -0.010183565 0.0024275456
0.088687018 0.10899839 -0.39295024 -0.63473505 -0.77272308 0.0032377907 0.0024426226
0.093668245 0.10401717 -0.3964667 -0.67846602 -0.73461998 -0.0041756756 0.0014171661
-0.084098913 0.1127731 -0.39564362 0.60680258 -0.79482722 -0.0063446718 0.0025488227
-0.075300187 0.1179349 -0.39623559 0.53153336 -0.84703577 -0.0016927409 0.00099219743
0.07867907 0.1159841 -0.39673936 -0.56419796 -0.82563919 -0.00079536502 0.0018511669
0.084249593 0.11256751 -0.39720741 -0.60707915 -0.79462004 -0.0058232644 0.0021816522
-0.070653893 0.12061744 -0.39309952 0.50637013 -0.86230838 -0.0036757907 0.001355925
-0.065629728 0.12351813 -0.39463872 0.48226577 -0.87601769 0.0035542888 0.00098755793
-0.056098267 0.12902114 -0.3943359 0.39792117 -0.91741896 0.001088158 0.0024732351
0.056938268 0.12853616 -0.39752114 -0.41764376 -0.90860426 -0.0034662378 0.0020945829
0.06407734 0.12441441 -0.39415559 -0.47188804 -0.88165826 -0.00062299042 0.0010113382
0.070968911 0.12043557 -0.39385521 -0.50885308 -0.86084908 -0.0027050138 0.0013381181
-0.052398883 0.13067365 -0.39388335 0.37710381 -0.92609894 0.011553518 0.002873942
-0.045856815 0.13242847 -0.39406431 0.32885081 -0.94437176 0.0043734205 0.0020140845
-0.036241893 0.13500477 -0.39290288 0.25249094 -0.96759194 0.0037548002 0.00038876664
-0.024059938 0.13826892 -0.39469016 0.17469004 -0.98462337 0.00047251181 0.0019470514
-0.0146865 0.13972643 -0.39519402 0.091125235 -0.99581128 -0.0074871583 0.0016846202
-0.0048193303 0.13978469 -0.39557093 0.027564215 -0.99961919 0.0013165098 0.00079155149
0.0044007134 0.13978469 -0.3965092 -0.023334716 -0.99972457 -0.0024988614 0.00085736334
0.01375392 0.13974006 -0.39554551 -0.080335788 -0.99676204 -0.0034009328 0.0020461513
0.026803991 0.13753365 -0.39491943 -0.20347808 -0.97907746 0.0019815427 0.0011393834
0.034591075 0.13544713 -0.39356813 -0.2553781 -0.96684021 0.001423527 0.00045874942
0.046850644 0.13216218 -0.39462095 -0.33203754 -0.94326454 -0.0017660945 0.0019618943
0.051173374 0.13100392 -0.39702636 -0.36667874 -0.93034273 -0.0030148348 0.0025656279
-0.052555345 -0.13060722 -0.38438335 0.3905358 0.92055881 0.0073039257 0.0026618114
-0.047769535 -0.13191597 -0.38541165 0.34579703 0.93827677 0.0078202933 0.0023782004
-0.031303935 -0.13632789 -0.38474599 0.2113065 0.97741574 -0.0028322756 0.0014434684
-0.023372712 -0.13845305 -0.38434044 0.16023122 0.98707831 -0.0015065133 0.0024184012
-0.014909491 -0.13978469 -0.38668314 0.089610413 0.99597687 -8.9357316e-05 0.0019959798
-0.0042736591 -0.13978469 -0.38401982 0.0427767 0.99908441 0.00062982587 0.00091618078
0.0075054853 -0.13978469 -0.38604954 -0.051540658 0.99865758 -0.0051556649 0.0012593488
0.014001973 -0.13978469 -0.38519782 -0.08155559 0.99661094 -0.010740847 0.0020399743
0.026211539 -0.13769239 -0.38483325 -0.19736515 0.98032862 0.0016666668 0.0013150573
0.035134096 -0.1353016 -0.38520628 -0.24079439 0.97057605 0.00045865413 0.00068971945
0.045820203 -0.13243829 -0.38520002 -0.33820543 0.94105995 -0.0048178276 0.0021173367
0.05262142 -0.13059881 -0.38450864 -0.39076239 0.92048484 -0.0035258043 0.0026023465
-0.071140409 -0.12033655 -0.3851698 0.51850712 0.85505962 -0.0048340238 0.0014810737
-0.063687794 -0.12463932 -0.38496044 0.4753277 0.87980396 -0.0029326098 0.0010846455
-0.056044977 -0.12905191 -0.38685188 0.40845695 0.91277647 0.0014180127 0.0023565763
0.057054881 -0.12846884 -0.38809875 -0.41347384 0.91051304 -0.0023493122 0.0019096119
0.065520562 -0.12358117 -0.38595349 -0.48056558 0.87695557 -0.0023563902 0.00090901775
0.071653128 -0.12004052 -0.38510895 -0.50782198 0.86146188 -0.00042959146 0.00089487719
-0.083607361 -0.11301763 -0.38535237 0.5977971 0.80161172 -0.00756871 0.0021936139
-0.075353548 -0.11790408 -0.38519922 0.53351009 0.84579349 0.00057493529 0.0010491996
0.074627832 -0.11832308 -0.38518125 -0.52899045 0.8486262 0.0016497396 0.0011745794
0.084503613 -0.11244377 -0.38514224 -0.59949929 0.80036592 0.0038624397 0.0022752364
-0.094793275 -0.10289212 -0.38605809 0.67949313 0.73367763 0.0024781749 0.0017842737
-0.08891587 -0.10876954 -0.3840667 0.62127638 0.78358436 0.003366159 0.002050923
0.088393442 -0.10929197 -0.3853536 -0.62592179 0.77981979 -0.010154772 0.0024571535
0.093790799 -0.10389461 -0.38408434 -0.66491872 0.74688339 -0.0069476156 0.0018530567
-0.10225755 -0.095427856 -0.38436535 0.73226333 0.68102056 -0.001238396 0.0010926372
-0.099767089 -0.097918317 -0.3845017 0.727 0.68663573 -0.0015391877 0.00099298812
0.098546922 -0.099138483 -0.38325101 -0.70913577 0.70507032 -0.0015155786 0.00093970285
0.1033319 -0.094353504 -0.38475814 -0.73669207 0.67622817 -0.00054416049 0.0015400525
-0.11373401 -0.082576312 -0.3841939 0.80849487 0.58836865 0.012584243 0.0019315513
0.10950366 -0.088181749 -0.38517225 -0.78143245 0.62397295 -0.0045985864 0.0023229369
0.11281311 -0.084062263 -0.38646728 -0.79588151 0.60544074 0.0037644028 0.0022187536
-0.12042277 -0.070991069 -0.38819292 0.86603129 0.49998367 -0.0024758149 0.0010030456
-0.11793622 -0.075297907 -0.38447377 0.83922428 0.54378545 0.00033612491 0.0014017982
0.11752029 -0.076018296 -0.38537735 -0.84102052 0.54100317 -7.100965e-05 0.0015649025
0.12056459 -0.070745416 -0.38408566 -0.8636077 0.50413746 -0.0052001076 0.0013510147
-0.12437189 -0.064150982 -0.38597339 0.88230163 0.47068399 -0.0006026433 0.0011368821
0.12286354 -0.066763513 -0.38382077 -0.87701952 0.4804545 0.00044324939 0.00087197631
-0.13030741 -0.053772748 -0.38361534 0.91625178 0.40059531 0.0024543889 0.0027808547
-0.12777214 -0.058261603 -0.38461846 0.90461111 0.42623556 0.001428126 0.0026711596
0.12842633 -0.057128511 -0.3841539 -0.90754044 0.4199464 0.0039183972 0.0019803762
0.13082804 -0.051829737 -0.38638869 -0.92397141 0.38230777 -0.010848976 0.0025225938
-0.13231982 -0.046262309 -0.38482502 0.93799359 0.34664929 0.0015449569 0.0028274811
0.13277744 -0.044554472 -0.38621274 -0.94059581 0.33952507 -0.0015212483 0.0022155778
-0.13568029 -0.033720896 -0.38408902 0.97353405 0.22853844 -0.0013068041 0.0013163489
0.13547349 -0.034492623 -0.38165963 -0.96626842 0.25752619 -0.0023731587 0.00043343983
-0.13819414 -0.024339003 -0.38500297 0.98633516 0.16472478 0.0029542283 0.0021519421
-0.0028332884 -0.0200227 -0.38989651 -0.054216109 -0.53679895 0.84196645 0.023185778
0.13748854 -0.026972333 -0.38549897 -0.97867215 0.20507184 -0.012098578 0.0011569744
-0.13972479 -0.015113637 -0.38627204 0.99647045 0.083943576 0.00033341453 0.0019598927
-0.013633169 -0.012579333 -0.38857174 -0.36096716 -0.35259715 0.86335266 0.026010364
-0.0045637353 -0.016459817 -0.38803491 -0.12076785 -0.46586886 0.87657368 0.02663123
0.0036907599 -0.013953549 -0.38633561 0.12015703 -0.34583241 0.9305709 0.03030676
0.012334858 -0.01395947 -0.38853741 0.2511633 -0.37268963 0.89331931 0.02673398
0.13978469 -0.014730084 -0.38344869 -0.99499691 0.099893846 -0.0015675465 0.0020393457
-0.13978469 -0.0041887271 -0.38508335 0.9989391 0.046022877 -0.0016163226 0.0011291059
-0.015071734 -0.004176537 -0.38699007 -0.44393888 -0.086007886 0.89191973 0.028355358
-0.006706397 -0.002780501 -0.3840549 -0.14812295 -0.11840518 0.98185533 0.030951515
0.0051604784 -0.0055502681 -0.38415322 0.12346663 -0.13383886 0.98328185 0.02871789
0.01591441 -0.0038717787 -0.3874287 0.48347244 -0.085978888 0.87112689 0.025688184
0.13978469 -0.0042573442 -0.38513121 -0.99972177 0.023576932 -0.00078817783 0.00089326018
-0.13978469 0.0057063862 -0.38549268 0.99851406 -0.054494951 -4.0502371e-05 0.0012396027
-0.015515638 0.0050583095 -0.38720113 -0.41049314 0.15934657 0.89783299 0.026905015
-0.0053108623 0.002709541 -0.38364735 -0.16787975 0.10137143 0.98058158 0.031458728
0.0037803624 0.0060712416 -0.38405862 0.11669798 0.17148331 0.97825104 0.029259631
0.016727302 0.0049433159 -0.38778943 0.4543421 0.17363231 0.87374198 0.02535723
0.13978469 0.0046045394 -0.3853482 -0.99975067 -0.021245772 0.0068717757 0.00074278325
-0.13978469 0.014701782 -0.38488615 0.99576896 -0.091869824 0.002025316 0.0019704432
-0.012425718 0.012095382 -0.38763148 -0.36310342 0.28825277 0.88603961 0.028772028
-0.0042919959 0.014737895 -0.38685048 -0.11869652 0.4013465 0.90820271 0.031748042
0.003971932 0.01467659 -0.38676199 0.16097297 0.3899956 0.90663725 0.027422462
0.012639989 0.012939075 -0.38834557 0.32875246 0.33150363 0.884323 0.023359023
0.13967255 0.016246041 -0.3843672 -0.99302059 -0.11793898 -0.00067505206 0.0020653305
-0.13757326 0.026656181 -0.38611194 0.97947764 -0.20150967 0.0041727335 0.0015553621
0.13823499 0.024186576 -0.38494959 -0.98315036 -0.18279332 -0.0014156809 0.0018985742
-0.13541745 0.034701783 -0.38404498 0.97028911 -0.24194837 -0.00019462904 0.00099308614
0.13538972 0.034805328 -0.38734651 -0.96752077 -0.25278571 0.0017173893 0.0004428915
-0.13262336 0.045129538 -0.38484532 0.94208193 -0.33537462 0.0023468598 0.0021968675
0.13288118 0.044167291 -0.38293031 -0.94793183 -0.31845415 0.003487644 0.0020561521
-0.13010091 0.054228038 -0.38255703 0.92467517 -0.38065261 0.0089075137 0.0027776146
-0.12756211 0.058625359 -0.38822216 0.90811276 -0.41872406 0.0011825905 0.0022634349
0.12892683 0.056261618 -0.38417563 -0.91247344 -0.40913472 -0.0010177002 0.00225228
0.13067649 0.052351687 -0.38344428 -0.92857414 -0.37110466 0.0055999933 0.0028712316
-0.12442734 0.064054936 -0.3844333 0.88096946 -0.47313595 0.0059309853 0.00091924157
0.12344373 0.065758631 -0.38527843 -0.87514395 -0.48385096 0.0033644573 0.00077594293
-0.12063549 0.070622608 -0.38755706 0.86513388 -0.50153947 0.0012579827 0.0011721916
-0.11847176 0.074370317 -0.38694778 0.84991282 -0.52692318 -0.00043378488 0.00096531905
0.11673988 0.077370018 -0.38479456 -0.83132416 -0.55576259 -0.0053030639 0.0017407482
0.12054922 0.070772037 -0.38555983 -0.864986 -0.50179195 0.0020057647 0.0012579105
-0.11274317 0.084292516 -0.3818233 0.80021662 -0.59970838 0.0017908387 0.0021691415
-0.10942814 0.088257268 -0.38563049 0.7867952 -0.61719048 -0.0054166936 0.002724021
0.10958342 0.088101991 -0.3841753 -0.78292656 -0.62207901 0.0066053728 0.0024326434
0.11256571 0.084294483 -0.38410372 -0.79665059 -0.60442859 0.0037337691 0.0025489512
-0.10382418 0.09386123 -0.38475543 0.75064635 -0.66066784 0.0069297669 0.0022518761
-0.098545052 0.099140346 -0.38601887 0.69918269 -0.71494007 -0.0020843637 0.00061034219
0.09995392 0.097731486 -0.38152352 -0.71620667 -0.69788802 -0.00059961429 0.00069772132
0.10532032 0.092365071 -0.38595295 -0.74599624 -0.66595018 7.4585645e-05 0.0015388487
-0.093462661 0.10422274 -0.38510281 0.67243302 -0.74015516 0.0020712349 0.0017804933
-0.087707579 0.10997783 -0.38229886 0.61666781 -0.78721291 0.0040942952 0.0024648746
0.088278793 0.10940661 -0.38381052 -0.6226719 -0.78248298 -0.00045702723 0.0021714095
0.093875423 0.10380998 -0.38397491 -0.67056096 -0.74185419 0.00063204591 0.0016381411
-0.083022013 0.11346142 -0.38551345 0.58689404 -0.80966347 -0.000570559 0.0024260224
-0.075796112 0.11764857 -0.38497397 0.53467554 -0.84505147 0.0031789173 0.0014933643
0.075817816 0.11763603 -0.38446355 -0.53555304 -0.84449857 -0.0022474066 0.0012122282
0.084782124 0.11230776 -0.38483414 -0.61520535 -0.78835994 -0.0033387225 0.0025227084
-0.065409109 0.12364551 -0.38452885 0.47601575 -0.87943494 -0.0018065448 0.0010010259
-0.057271753 0.12834363 -0.38648131 0.41693947 -0.90892071 -0.0049699405 0.002438054
0.0575177 0.12820163 -0.3861334 -0.41621307 -0.90926617 0.0012804599 0.0022202723
0.064674668 0.12406955 -0.38626105 -0.47620535 -0.87933403 -0.00029590607 0.00089232222
-0.0519058 0.13080765 -0.38479686 0.37125501 -0.92849588 -0.008066901 0.0031629312
-0.045465458 0.13253334 -0.3840417 0.32724753 -0.94493443 0.0028376882 0.0021348072
-0.033353161 0.13577881 -0.38418129 0.23942682 -0.97090459 0.0043843011 0.00082418404
-0.023468809 0.13842732 -0.38441941 0.17467056 -0.98462504 0.0019219782 0.0018663402
-0.014413588 0.13978469 -0.38609347 0.089993961 -0.99593878 -0.0026517659 0.0020271824
-0.00622667 0.13978469 -0.38628832 0.045054004 -0.99898016 -0.0029605443 0.00099686475
0.0055664578 0.13978469 -0.38365209 -0.02594563 -0.99966031 0.0024818261 0.00086752267
0.014113739 0.13978469 -0.38373542 -0.092657007 -0.99569714 0.0013877478 0.0018769389
0.023960855 0.13829546 -0.38577825 -0.19287105 -0.98122329 -0.001283657 0.0013247995
0.036053758 0.13505518 -0.38521302 -0.25612816 -0.96664196 -0.0012666221 0.00044090237
0.045108154 0.13262908 -0.38484219 -0.33348933 -0.94275385 -8.3561288e-05 0.0023137988
0.051229231 0.13098894 -0.38148659 -0.36284217 -0.93184888 -0.0017631694 0.0027463119
-0.051760916 -0.13084036 -0.37592331 0.38738176 0.92191827 0.0014153123 0.00299499
-0.046751611 -0.13218872 -0.37569895 0.34279174 0.93941045 0.0013475433 0.0024370027
-0.036906719 -0.13482665 -0.37421337 0.25619447 0.9666248 -0.00094482535 0.0011079656
-0.027029892 -0.13747311 -0.3752203 0.20573613 0.97860676 0.0011820185 0.0012764372
-0.014070376 -0.13974841 -0.37490836 0.071554907 0.99740511 -0.0079281442 0.0018346282
-0.0053772242 -0.13978469 -0.3734394 0.03365843 0.99942064 0.0050481861 0.001209085
0.0045000887 -0.13978469 -0.37576452 -0.024226706 0.99969614 0.0045415191 0.00086670043
0.014464714 -0.13978469 -0.3738814 -0.095831275 0.99539763 -0.00012727673 0.0020642006
0.024002371 -0.13828434 -0.37404582 -0.17869703 0.98388422 -0.0062653292 0.0019109804
0.035769884 -0.13513125 -0.37524 -0.25010949 0.96820688 0.0045468542 0.00040022263
0.045634463 -0.13248806 -0.3735722 -0.34388965 0.93901002 -0.00044534545 0.0023248333
0.050722599 -0.13112471 -0.37452507 -0.37447134 0.92719585 0.0088957082 0.0029253345
-0.070481256 -0.12071712 -0.37130779 0.50091565 0.86549604 -0.00032154459 0.0010901026
-0.063149281 -0.12495023 -0.37488502 0.4615683 0.88710439 0.00076563167 0.0012337896
-0.058017273 -0.12791319 -0.37387341 0.42300016 0.90610009 -0.0073034414 0.0020552676
0.055977855 -0.12909067 -0.37613937 -0.40638885 0.91367918 -0.0062103528 0.0023724786
0.06472788 -0.12403882 -0.37502545 -0.47549823 0.87971407 0.0021051269 0.00089250196
0.071281299 -0.1202552 -0.37703744 -0.50934446 0.86056125 0.001623084 0.00174389
-0.086003482 -0.11134507 -0.37385133 0.60975248 0.79258358 0.003634053 0.0022554602
-0.076103583 -0.11747105 -0.37594688 0.54456413 0.8387171 -0.0018776542 0.0015042584
0.076890491 -0.11701673 -0.3734453 -0.53997463 0.84166455 0.0052899481 0.0015673826
0.083756596 -0.11292214 -0.3769235 -0.59002388 0.80736953 -0.0051167575 0.0019135139
-0.093009025 -0.10467638 -0.37336326 0.65656346 0.75426984 -0.0011887408 0.0020277109
-0.088675484 -0.10900992 -0.37464491 0.63152021 0.77535009 -0.0037979947 0.0022247592
0.088094205 -0.1095912 -0.37609404 -0.62266976 0.78245854 -0.0064042239 0.0025435202
0.094747789 -0.10293762 -0.37508565 -0.67603666 0.73686779 0.00036715961 0.0016245682
-0.10364211 -0.094043307 -0.37522948 0.74109441 0.67134666 0.0085286452 0.0014548131
-0.098596349 -0.099089071 -0.37528908 0.70853877 0.70567107 0.0011051525 0.0010175618
0.10549313 -0.09219227 -0.3765327 -0.75900006 0.65105772 -0.0065411837 0.0018188716
-0.11346123 -0.083014496 -0.37679291 0.80118918 0.59839219 0.0047785616 0.0024606481
-0.10974985 -0.087935552 -0.37767839 0.78000724 0.62569612 0.0096524497 0.0023432297
0.10892668 -0.088758729 -0.37591788 -0.77539313 0.63143945 -0.0070568207 0.0022519345
0.11242156 -0.08460886 -0.37572759 -0.79539675 0.60606724 -0.0051461146 0.0023676904
-0.12075789 -0.070410624 -0.37559751 0.86232233 0.50635463 -0.002276002 0.0014758348
-0.11701643 -0.07689102 -0.37569419 0.83243442 0.55410302 -0.0047666328 0.0017484988
0.11767209 -0.07575535 -0.37471387 -0.84768015 0.53050107 -0.0026073295 0.0011356636
0.12077689 -0.070377715 -0.37878686 -0.86834204 0.49596432 -0.0012185104 0.0010149945
-0.12356805 -0.065543301 -0.37581179 0.87649781 0.48139393 0.0033826511 0.0010067764
0.12367197 -0.06536328 -0.37498477 -0.87648702 0.48142135 -0.002013043 0.0010634174
-0.13057603 -0.052770242 -0.37613401 0.91648346 0.40005568 -0.003673669 0.0024905291
-0.12854034 -0.056931037 -0.37521008 0.90964907 0.41525432 -0.010125639 0.0022899343
0.12826779 -0.05740308 -0.37330335 -0.91002828 0.41439095 0.011345984 0.0019887174
0.13068047 -0.052380465 -0.37402955 -0.92319304 0.38432196 -0.003373747 0.0028745579
-0.13250834 -0.045558788 -0.37792331 0.94221979 0.33498949 0.0019337444 0.0023696837
0.13265961 -0.04499425 -0.37546399 -0.94118261 0.33789197 -0.0020427301 0.0022764853
-0.13559335 -0.034045309 -0.37444544 0.97007221 0.2428156 0.00067172875 0.00090982747
0.1349086 -0.036600873 -0.37850356 -0.96608663 0.25821552 -0.0012087764 0.00041364215
-0.13844846 -0.023389872 -0.37688905 0.9845736 0.17479928 -0.0077464571 0.0018407728
0.13785522 -0.025603903 -0.3744013 -0.98013216 0.19827051 0.0054511717 0.0013457672
-0.13978425 -0.013684914 -0.37717399 0.99656469 0.082803786 -0.0015013438 0.0018574015
0.13978177 -0.015162116 -0.37477815 -0.99491912 0.10057776 0.0044868523 0.0021305254
-0.13978469 -0.0062532565 -0.37346214 0.99846244 0.054879807 0.0078114853 0.0013539729
0.13978469 -0.0054986817 -0.37333545 -0.9994427 0.033208717 0.0033990671 0.00052231899
-0.13978469 0.0031655957 -0.37767321 0.99982136 -0.018324222 0.0046378914 0.0010577129
0.13978469 0.0053108176 -0.37428114 -0.99937969 -0.035196003 -0.0011926744 0.00051143096
-0.13978469 0.015065751 -0.37181529 0.99549145 -0.094727278 0.0048640734 0.0017056182
0.13978469 0.013833227 -0.37646902 -0.99639082 -0.084882848 -0.00045198176 0.0019022523
-0.13763866 0.026412077 -0.37618637 0.97977823 -0.20003922 0.0043482794 0.0013702374
0.13817866 0.024396805 -0.37578654 -0.98123115 -0.19282131 -0.0023184987 0.0013215638
-0.13467321 0.037479345 -0.3744863 0.96094084 -0.2766687 -0.0068710875 0.00109156
0.13530041 0.035138581 -0.37389705 -0.96683836 -0.25536808 0.0032647606 0.00041370699
-0.13266766 0.044964183 -0.37353754 0.94375247 -0.33063287 0.0036266986 0.0021859116
0.13215697 0.046870079 -0.37473881 -0.93863022 -0.34492454 -0.00064166967 0.002183794
-0.13085157 0.051741917 -0.37577099 0.92855221 -0.3711445 0.0065246238 0.0026947407
-0.12907787 0.056000009 -0.3742511 0.91004258 -0.41441354 0.0091589466 0.00215887
0.12817459 0.057564545 -0.37484649 -0.90930742 -0.41611078 -0.0034488644 0.0022063542
0.13090187 0.051554233 -0.37710258 -0.93480736 -0.35502481 -0.0096246377 0.00220022
-0.12456876 0.063810013 -0.37482581 0.88554984 -0.46452972 0.0036923378 0.001373119
0.12328267 0.066037573 -0.3740581 -0.87502146 -0.48405966 -0.0048728567 0.0009707784
-0.12067543 0.070553444 -0.37637347 0.86350191 -0.50434005 0.0023803841 0.0014228185
-0.1179604 0.07525602 -0.37673762 0.84806126 -0.52981853 -0.0091847349 0.0010636616
0.11635192 0.078041971 -0.37668452 -0.82964408 -0.55828381 -0.0031281479 0.0015536586
-0.11225266 0.084849104 -0.37600672 0.79474682 -0.60688174 -0.0084854634 0.0024065902
-0.10944281 0.088242598 -0.37344426 0.78359771 -0.62123036 0.0068900273 0.0022853904
0.10868844 0.088996969 -0.37290773 -0.77956808 -0.62629533 -0.0052621434 0.002395679
0.11209606 0.085042134 -0.37561291 -0.78883559 -0.61452121 -0.010101855 0.0025399039
-0.10471805 0.092967354 -0.37471041 0.74931043 -0.66221827 -0.00083956751 0.0019781925
-0.099189013 0.0984964 -0.37202752 0.71247238 -0.70169955 -0.00091740472 0.00053834374
0.098713756 0.098971643 -0.37501061 -0.70707262 -0.70713568 0.0027284359 0.0011143151
0.10343719 0.094248213 -0.37745422 -0.72242802 -0.69143134 -0.0045227543 0.00095441664
-0.091683544 0.10600185 -0.37418801 0.66073531 -0.75060451 0.0046500834 0.0017312518
0.093409702 0.10427571 -0.37247995 -0.66508549 -0.74676287 -0.0025335762 0.0016753545
-0.082552627 0.1137477 -0.37397456 0.58737797 -0.8092922 0.0057778531 0.0021451155
-0.074852705 0.11819325 -0.37350246 0.52739018 -0.84962285 -0.00077491323 0.00095385511
0.075705968 0.11770061 -0.37564138 -0.53949326 -0.84198338 -0.0033297285 0.0015445482
0.083585426 0.11302076 -0.37500158 -0.59556949 -0.8032915 -0.0044317851 0.0021566821
-0.064209692 0.124338 -0.37308392 0.47165531 -0.88178283 0.00046253708 0.0010312294
-0.056932855 0.12853928 -0.37744641 0.41439095 -0.91009319 -0.0032531342 0.0022094843
0.057306528 0.12832355 -0.37689447 -0.40816531 -0.91290247 -0.0031874294 0.0023484069
0.065507025 0.12358899 -0.3747474 -0.48070088 -0.8768667 0.0056065121 0.00088923011
0.071390718 0.12019203 -0.37955889 -0.50385731 -0.86378676 0.00056564499 0.0014099169
-0.052254602 0.13071421 -0.37744617 0.38270184 -0.92380923 -0.010761097 0.002639272
-0.044038594 0.13291566 -0.37335411 0.31191692 -0.95010936 -2.2547667e-05 0.00145352
-0.035971865 0.13507715 -0.37601614 0.25322205 -0.96740818 0.00034060693 0.00041468596
-0.025052287 0.13800304 -0.37381339 0.19676028 -0.980443 0.0041118884 0.001378867
-0.014435783 0.13978469 -0.37292656 0.096246101 -0.99535471 0.0024016341 0.002068432
-0.0051607499 0.13978469 -0.37458435 0.021952594 -0.99975878 -0.0006602286 0.00084645674
0.0063638343 0.13978469 -0.37536764 -0.060683556 -0.99815446 -0.0022835108 0.0013220378
0.015313305 0.13977079 -0.37331557 -0.099575184 -0.99501801 0.0048888526 0.0019411645
0.024451088 0.13816412 -0.37602755 -0.181613 -0.98336917 -0.0013320834 0.002104704
0.034176212 0.13555828 -0.37429765 -0.24050277 -0.97063679 0.004756283 0.00088696158
0.044427097 0.13281156 -0.3763563 -0.31670624 -0.94851804 0.0032785619 0.0019832444
0.052267194 0.13071084 -0.37523425 -0.38142794 -0.92439705 -0.0016834281 0.0029435367
-0.052953161 -0.13049826 -0.36340839 0.39496669 0.91868347 0.0046841814 0.0027241195
-0.045376062 -0.13255729 -0.36742878 0.33448917 0.94239545 0.0028089888 0.002416017
-0.033568136 -0.13572121 -0.36324969 0.2438336 0.9698121 0.0031053536 0.0007215087
-0.023532627 -0.13841021 -0.3644188 0.15671997 0.98760033 -0.0091942465 0.0022248421
-0.014613034 -0.13973975 -0.36486509 0.10185366 0.99471349 -0.013074494 0.001995404
-0.0087239183 -0.13978469 -0.36978242 0.067258775 0.99773461 0.0013969252 0.001565179
0.005802087 -0.13978469 -0.36666176 -0.044368539 0.99898857 -0.0072946143 0.001544516
0.013644441 -0.13978469 -0.36546403 -0.089290746 0.99599469 0.0046588057 0.0019751447
0.025838628 -0.13779232 -0.36469442 -0.19777648 0.98020953 0.0085853385 0.0012601388
0.035286468 -0.13526079 -0.3640652 -0.24172112 0.9703458 0.00014010801 0.00091314147
0.046392825 -0.13228485 -0.36575755 -0.3410784 0.94003451 -0.00083003967 0.002264715
0.052028008 -0.13077492 -0.3668693 -0.37925076 0.9252243 -0.011349512 0.0027802342
-0.071262747 -0.12026592 -0.36420643 0.51212782 0.85890311 0.0032514085 0.0015965359
-0.065217637 -0.12375607 -0.36527669 0.48608738 0.87390274 0.0036105644 0.00079342071
-0.056862608 -0.12857984 -0.36805579 0.41973394 0.90762115 -0.0068833292 0.0019826307
0.056616344 -0.12872203 -0.36688492 -0.41535828 0.90964347 -0.0051252618 0.0018817545
0.065747954 -0.12344988 -0.36664096 -0.47976837 0.87739515 0.00034543822 0.00090614543
0.07097882 -0.12042984 -0.36362231 -0.50882292 0.86086529 0.0032122179 0.0011540024
-0.084636822 -0.11236893 -0.36662963 0.61170536 0.79105586 -0.0068714879 0.0023330811
-0.075412698 -0.11786994 -0.36577198 0.53802961 0.84288502 -0.0083049787 0.0014967209
0.074527808 -0.11838081 -0.3631826 -0.53036356 0.84776586 0.0027384381 0.0011986631
0.084626563 -0.11238438 -0.36610174 -0.59883791 0.80081904 -0.0090566771 0.0022010158
-0.094779663 -0.10290574 -0.36348739 0.67329818 0.73936301 -0.0034378334 0.001566053
-0.088883534 -0.10880187 -0.3649483 0.63660955 0.77117562 -0.0040454613 0.002172583
0.089079179 -0.10860623 -0.36617434 -0.6374293 0.77049762 -0.004180409 0.0022986471
0.093711965 -0.10397345 -0.36593807 -0.66953981 0.74277353 0.0019619719 0.0019747757
-0.10433418 -0.093351215 -0.36562657 0.7487576 0.6628167 0.0060016927 0.0016678345
-0.09830074 -0.099384665 -0.36006519 0.70141298 0.71275121 -0.002380898 0.0014162356
0.098257497 -0.099427916 -0.36013693 -0.70707637 0.70713276 -0.00252711 0.00091031077
0.10379334 -0.093892068 -0.36488584 -0.74310243 0.66916853 -0.0035008858 0.0017053285
-0.11406032 -0.082011141 -0.36113539 0.8105489 0.58565611 0.0041781995 0.0021777863
-0.10895723 -0.088728182 -0.3658464 0.77284765 0.63458359 -0.0031816943 0.002260627
0.10859308 -0.089092329 -0.36471152 -0.77662259 0.62996477 -0.0012874507 0.0021188748
0.11304513 -0.083618611 -0.36628371 -0.79470974 0.6069693 -0.0049707959 0.0023325197
-0.11726038 -0.076468468 -0.36726302 0.84159428 0.54010731 0.0017461741 0.0010249714
0.11728365 -0.076428168 -0.36523992 -0.84404176 0.53627712 -0.00053048483 0.0011261504
0.12026578 -0.071262978 -0.3672964 -0.85717565 0.51500392 -0.0045676585 0.0011940728
-0.12414182 -0.064549491 -0.36509094 0.87776458 0.47908276 0.0029884269 0.00078359951
0.12410855 -0.064607106 -0.36439162 -0.88022542 0.47455549 0.00053412735 0.0010569443
-0.13026761 -0.053921331 -0.36421001 0.92158037 0.38818741 0.00011542329 0.0029145421
-0.12805085 -0.05777888 -0.36677942 0.90358025 0.42836788 -0.0066060713 0.0020890003
0.12857457 -0.056871742 -0.36532605 -0.90999651 0.41461417 0.0012038933 0.0021134256
0.13086513 -0.051691309 -0.36628997 -0.92683434 0.37546921 -0.0010071513 0.0027529055
-0.13217676 -0.046796244 -0.36644819 0.94321406 0.33217761 0.002285108 0.0021752492
0.13269047 -0.04487906 -0.36361784 -0.94251204 0.33416608 -0.0020454307 0.0021320153
-0.13530453 -0.035123166 -0.36418676 0.96770477 0.25208449 -0.00095291395 0.00042831042
0.13541195 -0.034722317 -0.36416715 -0.97071874 0.24021739 0.00084203883 0.00078463409
-0.13790219 -0.025428595 -0.36350456 0.98065853 0.19566682 -0.0048410632 0.0014405884
0.1385121 -0.023152331 -0.36313242 -0.98588294 0.16724302 0.0080407523 0.0021285051
-0.13972934 -0.014833484 -0.36594626 0.99428999 0.10630281 -0.0093337893 0.0016918575
0.13975337 -0.014146993 -0.36403227 -0.99578619 0.091653802 0.0030690765 0.0019836605
-0.13978469 -0.0043192087 -0.3664344 0.99990702 0.0136341 2.0159136e-05 0.0007038801
0.13978469 -0.0059598894 -0.36618701 -0.99870294 0.050913904 -0.00040635761 0.0011823985
-0.13978469 0.0055747926 -0.36447689 0.99920547 -0.039685503 -0.0036786308 0.0013625437
0.13978469 0.0044407635 -0.36530465 -0.9996106 -0.027428858 -0.005128732 0.00086415681
-0.13973346 0.015446847 -0.36411619 0.99440265 -0.10564115 0.00181932 0.0017577845
0.13976628 0.014965 -0.36455849 -0.99548143 -0.09468396 -0.0071873139 0.0018756127
-0.13809292 0.024716765 -0.36716571 0.98283672 -0.18441464 0.0048120394 0.0020469567
0.1378606 0.025583819 -0.36148736 -0.9803648 -0.19719228 0.00018856209 0.0013675253
-0.13597269 0.032629579 -0.36518544 0.97261482 -0.23239851 -0.0033633613 0.0010943945
0.13528512 0.035195634 -0.36441612 -0.9666127 -0.25621834 0.003462414 0.0005168388
-0.13132372 0.049979832 -0.36756212 0.93691736 -0.3494716 -0.0074453074 0.0025219354
0.13254108 0.045436557 -0.36347815 -0.94077837 -0.33900645 -0.0032536853 0.0023411866
-0.13087064 0.051670738 -0.36388656 0.93098998 -0.36496106 0.0078188712 0.0030932452
-0.12868062 0.056688052 -0.36516464 0.91352171 -0.40677708 0.0032392927 0.0022686936
0.12775961 0.058283299 -0.36584458 -0.90499926 -0.42540991 0.001694456 0.0020598453
0.1307186 0.052238166 -0.36534941 -0.92149329 -0.38838544 -0.0026009965 0.0024849717
-0.12482837 0.063360341 -0.3630785 0.88774711 -0.46031138 0.0043049888 0.0012834922
0.12389537 0.064976342 -0.36436591 -0.87618732 -0.48195356 0.0040623047 0.00099703786
-0.12076963 0.070390292 -0.3684243 0.8644833 -0.50266135 0.00043440217 0.00081146619
-0.11696372 0.076982304 -0.36505908 0.82788599 -0.56087381 -0.0050436314 0.0021361373
0.11698747 0.076941177 -0.36562291 -0.83009869 -0.55761456 -0.001473842 0.0018258726
0.12065913 0.070581682 -0.36348987 -0.86622578 -0.49964461 0.0028611049 0.0010358145
-0.11199869 0.085051678 -0.36657259 0.80311221 -0.59578323 -0.007287066 0.0021735509
0.10898989 0.088695496 -0.36643323 -0.77905595 -0.62695187 -0.0017473983 0.0023831148
0.1122667 0.084829934 -0.36716086 -0.79812086 -0.60249627 -0.0011752208 0.0024422193
-0.10212193 0.095563479 -0.36454833 0.72312784 -0.69071192 0.0018102848 0.0009582878
-0.098215856 0.099469543 -0.36616471 0.70344156 -0.71075308 5.2901309e-05 0.0011460072
0.098075598 0.099609807 -0.36566246 -0.70405453 -0.71014553 -0.0006864341 0.0010444766
0.10471654 0.092968859 -0.36446008 -0.74671841 -0.66511369 -0.0059554088 0.0019894382
-0.094217598 0.1034678 -0.36392012 0.66802776 -0.74412578 -0.0039759884 0.0018897689
-0.087778233 0.10990717 -0.36143744 0.61604995 -0.78769892 0.0035866462 0.0025628302
0.088899374 0.10878603 -0.36407471 -0.63485521 -0.77261305 0.0052859411 0.0022352769
0.093931556 0.10375385 -0.36671171 -0.67373091 -0.73897654 0.00066039502 0.0014244216
-0.08504086 0.11231112 -0.36409724 0.60726625 -0.79448074 0.0052887485 0.0027625149
-0.074829496 0.11820665 -0.36502829 0.53411371 -0.84540892 0.0025352817 0.0014939511
0.075288378 0.1179417 -0.36358789 -0.53775507 -0.84309554 0.003081345 0.0013799757
0.083928436 0.11280657 -0.36672822 -0.60642213 -0.79512256 0.0056853332 0.0024312921
-0.070968919 0.12043556 -0.36205977 0.50727379 -0.86178339 0.0016581551 0.0013610751
-0.064268105 0.12430428 -0.36477849 0.47181126 -0.88169211 -0.0036302367 0.0010095012
-0.056687266 0.12868108 -0.36352515 0.40070653 -0.91620636 0.00031459195 0.0023474388
0.056239031 0.12893987 -0.36445072 -0.40110862 -0.91600251 0.0071583064 0.0023327428
0.062399298 0.12538323 -0.36677098 -0.4644905 -0.8855781 0.00022546606 0.00084716268
0.071551926 0.12009895 -0.36793187 -0.51406604 -0.85774809 -0.0020375566 0.0011536584
-0.052168846 0.13073719 -0.36542523 0.37562585 -0.92663616 -0.015832761 0.0026723095
-0.045006756 0.13265625 -0.36588767 0.32644498 -0.94519639 -0.0061066314 0.0018288094
-0.034248989 0.13553877 -0.36494479 0.23738724 -0.97141504 0.00015645746 0.00087935617
-0.022899846 0.13857977 -0.36661598 0.15868521 -0.98729432 -0.0083033089 0.0021225794
-0.013595007 0.13978469 -0.36512542 0.094626077 -0.99550796 -0.0031281142 0.0018446002
-0.004973101 0.13978469 -0.36578721 0.05051985 -0.99872154 -0.0017470199 0.0011863735
0.0061537158 0.13978469 -0.36437449 -0.040955495 -0.99916077 -0.00071889831 0.0014353391
0.016934883 0.13969269 -0.36746705 -0.12359925 -0.99233192 -0.00077492371 0.002133931
0.026909368 0.13750541 -0.36651859 -0.20255768 -0.97926503 0.0032361241 0.0013167494
0.033881553 0.13563722 -0.36571166 -0.23354034 -0.97234559 0.001695711 0.001052871
0.046061072 0.13237374 -0.36535212 -0.34030229 -0.94030577 -0.0043995087 0.0021874574
0.050647337 0.13114487 -0.36266336 -0.37656245 -0.92636764 0.0066097295 0.0026298161
-0.051905021 -0.13080788 -0.35616949 0.38514936 0.92283458 -0.0060218293 0.0027151657
-0.046839751 -0.1321651 -0.35655183 0.3380037 0.94113863 -0.003393926 0.0024303922
-0.037120793 -0.13476928 -0.35402226 0.27056566 0.96270126 -0.00066720042 0.0010232991
-0.025143849 -0.13797849 -0.35362118 0.18281068 0.98313773 0.0045122574 0.0020351224
-0.0140497 -0.13978469 -0.35322183 0.10325001 0.99464154 0.005257987 0.0017037358
-0.003272396 -0.13978469 -0.35524976 0.028244112 0.99959749 -0.0026724532 0.00042937408
0.00300133 -0.13978469 -0.35520491 -0.020046758 0.99979693 0.0020794417 0.001172182
0.015972378 -0.13976231 -0.35445696 -0.12103127 0.99263614 0.0049826442 0.0022137957
0.028083047 -0.13719094 -0.35337505 -0.20617218 0.9784888 0.0072591389 0.0012148449
0.036588121 -0.13491201 -0.35678762 -0.26449996 0.96438497 0.0011127482 0.00085846451
0.044353649 -0.13283125 -0.35498825 -0.32200006 0.94673955 0.00027773189 0.0020262327
0.050775554 -0.1311105 -0.35757056 -0.37485653 0.92702192 -0.01062212 0.0027957
-0.071520321 -0.1201172 -0.35160264 0.51784617 0.85547239 0.0015490557 0.0010768767
-0.064948142 -0.12391165 -0.35405812 0.46537757 0.88511223 -0.00024255108 0.0015946036
-0.057057798 -0.12846714 -0.35500517 0.40534091 0.91416264 -0.0023408611 0.0023847765
0.058314674 -0.1277415 -0.35671067 -0.42911127 0.90323794 -0.0049726316 0.0019762365
0.064429365 -0.12421117 -0.35556144 -0.45513216 0.89042348 -0.00094112346 0.0013946079
0.070793331 -0.12053693 -0.35100296 -0.50546724 0.862845 0.0012032555 0.0014774484
-0.083027273 -0.11345866 -0.35429925 0.59956539 0.80032188 0.0025030253 0.0020149034
-0.076097146 -0.11747477 -0.35335726 0.55426455 0.83233917 0.0015189943 0.001848205
0.076025531 -0.11751612 -0.35575446 -0.54331028 0.83952963 -0.0019683668 0.0016927313
0.08318688 -0.11338151 -0.35525918 -0.59896535 0.80075842 0.0051407539 0.0023977014
-0.093729578 -0.10395582 -0.35654542 0.65987146 0.75135386 -0.0060835923 0.0016214487
-0.089765161 -0.10792024 -0.35530829 0.64279097 0.76603925 0.0018938993 0.0021696519
0.089997783 -0.10768762 -0.35078987 -0.63444841 0.7729646 -0.00097196415 0.0022645683
