# .PCD v0.7 - Point Cloud Data file format
VERSION 0.7
FIELDS x y z normal_x normal_y normal_z curvature
SIZE 4 4 4 4 4 4 4
TYPE F F F F F F F
COUNT 1 1 1 1 1 1 1
WIDTH 559
HEIGHT 1
VIEWPOINT 0 0 0 1 0 0 0
POINTS 559
DATA ascii
0.046246596 -0.10870777 -0.26420775 -0.38116127 0.9244833 0.0068315547 0.0015877126
0.053913727 -0.10553193 -0.26372659 -0.45992583 0.88794184 0.0052383579 0.0017576234
0.062821813 -0.10114522 -0.26367229 -0.5261783 0.85034305 0.0072933263 0.002350949
-0.073981747 -0.092152521 -0.26387104 0.63706189 0.77081162 0.0012711927 0.0022598542
-0.06660641 -0.095819846 -0.26550192 0.57058704 0.82123697 -0.00042550056 0.0026266184
0.067195766 -0.09778896 -0.2638934 -0.56388962 0.82584155 0.003763271 0.0019797161
0.0741679 -0.092439055 -0.26521263 -0.6282993 0.77796131 0.0040276889 0.0019963935
-0.083283409 -0.083640017 -0.26566622 0.69463533 0.71934754 -0.0045749224 0.0037817527
-0.07703159 -0.088433608 -0.26396924 0.65113515 0.7589404 0.0057100551 0.0032152697
0.078375585 -0.089210376 -0.26744443 -0.6499539 0.7599535 -0.005532769 0.0021492466
0.085762903 -0.083038531 -0.26468834 -0.71381986 0.70031363 0.0046881782 0.0023741361
-0.092854872 -0.073181681 -0.26443735 0.77716929 0.62927246 0.0049084499 0.0022550197
-0.087513253 -0.077547729 -0.26493937 0.75060177 0.66071576 0.0071913665 0.0026800269
0.093069166 -0.073825121 -0.26326728 -0.77061361 0.63729888 -0.0021989397 0.0018145427
-0.10141577 -0.060710281 -0.26413158 0.85991365 0.51039368 0.0068418304 0.0032650391
-0.095803447 -0.066149354 -0.26619714 0.81956542 0.5729847 -0.0010261422 0.0034539369
0.096869826 -0.068872012 -0.26372534 -0.80836123 0.58865207 0.0063880524 0.0028195439
0.10276515 -0.061189085 -0.26567042 -0.85590237 0.5171265 0.0033377579 0.0020995846
-0.1039383 -0.055179413 -0.26577732 0.87754518 0.479471 -0.0046960809 0.003802489
0.10618565 -0.054395437 -0.26451182 -0.88252473 0.47025517 0.003204209 0.0017062378
-0.11073684 -0.04313913 -0.26667759 0.9266718 0.37578562 -0.0080285864 0.0042177429
-0.10805269 -0.045868978 -0.26377219 0.91673446 0.39948815 0.0026686674 0.0036799314
0.10888022 -0.048061565 -0.26541606 -0.91341841 0.40701589 -0.0022050261 0.0014543207
0.11101171 -0.042915728 -0.26793668 -0.93002522 0.36749563 7.7478311e-05 0.0023675587
-0.11243486 -0.033998832 -0.2652528 0.96068627 0.27763429 -0.0011084233 0.0032177786
-0.1099145 -0.037946448 -0.2685445 0.94671917 0.32194406 -0.0086518871 0.0029584435
0.1136163 -0.03662768 -0.26526818 -0.94982284 0.31257805 0.011467615 0.001719988
-0.11426664 -0.024825158 -0.26461843 0.979285 0.20248646 -0.00033732914 0.0023227057
0.11666575 -0.026228683 -0.26616746 -0.97678131 0.2142196 -0.0028930795 0.0019701088
-0.11617096 -0.015787892 -0.26610684 0.98726147 0.15910579 0.00043720027 0.0016978773
0.11796978 -0.016323602 -0.26480573 -0.98662251 0.16295993 0.0044817971 0.0016481568
-0.11746909 -0.0049801809 -0.26497063 0.99901366 0.044401679 0.00051066134 0.0028052148
0.11945754 -0.0050228452 -0.2662034 -0.99897885 0.045179371 -0.00020075189 0.0020996216
0.12000503 -0.00086426339 -0.26366299 -0.99999422 0.0012054431 0.0032036896 0.0032433467
-0.11735001 0.0028771563 -0.26391611 0.99986076 -0.015446355 0.0063158916 0.0026390625
0.11945687 0.0050279582 -0.26461351 -0.99822086 -0.059615258 -0.0010589282 0.0025135188
0.1200493 0.00052797806 -0.26862979 -0.99998331 -0.0057643475 0.00030189913 0.0031167774
-0.11594398 0.01476269 -0.26493606 0.98742527 -0.15800638 -0.0050291126 0.0024189865
0.11795361 0.01644635 -0.2645655 -0.98689783 -0.16132544 0.0026097239 0.0013171565
-0.11453283 0.024830537 -0.26465115 0.9797551 -0.20016162 0.0039117127 0.0025542022
0.11683837 0.024917526 -0.26582634 -0.97733396 -0.21168597 -0.0027065729 0.0017224665
-0.11245611 0.035193048 -0.26514375 0.95164967 -0.30718395 0.00097084197 0.0030155035
-0.10928313 0.039470688 -0.26355335 0.94492739 -0.32725829 0.0037774597 0.0032447081
0.11477508 0.033830147 -0.26410848 -0.9591586 -0.28286579 0.0013154695 0.0018403754
-0.11074339 0.043735027 -0.26540568 0.92808807 -0.37224469 -0.0093008969 0.0040423591
-0.10758077 0.047643948 -0.26495752 0.91505021 -0.40333992 -7.6215932e-05 0.0034859793
0.10856297 0.048827495 -0.26736453 -0.90677166 -0.42161992 -0.0013671524 0.0018088152
0.11127867 0.042271227 -0.26667404 -0.93307269 -0.35967585 -0.0029418869 0.002403606
-0.10420839 0.054777496 -0.26554018 0.8828398 -0.46960169 0.0082576731 0.0035861859
0.10562106 0.055871911 -0.26471087 -0.8755734 -0.48304847 -0.0059544952 0.0017923935
-0.10052258 0.062710173 -0.26503426 0.85634661 -0.51633215 0.0084614158 0.0037253476
-0.096485049 0.066944741 -0.26443905 0.8171196 -0.57641053 0.0081506148 0.0029337909
0.097916909 0.067507431 -0.26607427 -0.81520534 -0.57917058 -0.0012703353 0.002491666
0.10177147 0.062484063 -0.26214266 -0.84593272 -0.53328872 0.00098035065 0.0020227705
-0.092169151 0.073774703 -0.26489156 0.77128172 -0.63647312 0.0051410915 0.0020730542
-0.08873301 0.076998286 -0.26497504 0.75486124 -0.65587473 0.0035830666 0.0024797777
0.089294292 0.078744642 -0.26158297 -0.74801838 -0.66365457 0.0055770301 0.0020989871
0.093406558 0.07338544 -0.264202 -0.77694398 -0.62944132 0.012712293 0.0023259418
-0.083536044 0.08329992 -0.26437947 0.7108621 -0.70332748 0.0023558142 0.0033592249
-0.076672785 0.088535704 -0.26363268 0.64094138 -0.76755619 0.0071848058 0.0030849348
0.079178631 0.088594183 -0.26266959 -0.65837598 -0.75266671 0.0058222758 0.0018341304
0.083147004 0.085418731 -0.26543161 -0.69553483 -0.71848971 -0.0019460648 0.0024320018
-0.074112669 0.092530146 -0.26380891 0.62515754 -0.78048539 -0.0045409789 0.0024167236
-0.066193052 0.096137017 -0.26422119 0.5631845 -0.82632363 -0.0035340253 0.0026424611
0.067972571 0.097192891 -0.26469016 -0.56294185 -0.82648182 -0.0049320725 0.0029077742
0.072705515 0.093561172 -0.26397315 -0.61852866 -0.78574413 -0.0053287554 0.0013085549
-0.060192123 0.1007417 -0.26662126 0.5206579 -0.85375673 -0.0038577074 0.0018808882
-0.054424733 0.10387123 -0.26400366 0.47938156 -0.87759817 -0.0038480028 0.0018796731
-0.044396628 0.10816697 -0.2658627 0.40443477 -0.9145667 -0.00048576877 0.0013895215
0.045859043 0.10886829 -0.26488778 -0.38519296 -0.92281991 0.0054567908 0.0013984694
0.056567986 0.10443251 -0.26392376 -0.47535768 -0.87977028 0.0062837643 0.0023010091
0.062258478 0.1015564 -0.26270279 -0.49659723 -0.8679809 0.00065935263 0.0025647839
-0.037266321 0.11112045 -0.26498273 0.31791171 -0.94811505 0.0031572045 0.0018887245
-0.026481053 0.11484701 -0.26253328 0.231215 -0.97290236 0.00078427716 0.0016079661
-0.012691821 0.11666241 -0.2653518 0.11199535 -0.99370152 -0.0037843946 0.0021747358
-0.0053448123 0.11762965 -0.2655344 0.064171463 -0.99793422 0.003056857 0.0019498322
0.0044675716 0.11810613 -0.26509494 -0.025121994 -0.9996841 -0.00083053572 0.0015393789
0.014291446 0.11686725 -0.26434487 -0.10874412 -0.99404675 0.0067623989 0.0021985585
0.025135174 0.11543965 -0.26577669 -0.20958792 -0.97777909 -0.0045666951 0.0014129814
0.034806132 0.11339945 -0.26367944 -0.29622445 -0.95511329 -0.0030830097 0.0019981186
0.04169162 0.1105945 -0.26646844 -0.35344124 -0.93544644 0.0043885396 0.0028032414
-0.033451594 -0.11270056 -0.25367269 0.28380245 0.95887804 0.0030148316 0.002375562
-0.026371464 -0.11484506 -0.25353074 0.23802222 0.97124863 0.0046466929 0.0017969562
-0.014444754 -0.11643162 -0.25519207 0.12434615 0.99219161 0.0096852789 0.0014926679
-0.0065843877 -0.11746646 -0.25527322 0.08575289 0.99631494 0.0017109058 0.002147601
0.00505812 -0.1180191 -0.25518233 -0.027716018 0.99961174 0.0028569172 0.0023502014
0.013248488 -0.11700457 -0.25442547 -0.10656264 0.99430525 0.0012127794 0.0019733959
0.024489736 -0.11552462 -0.25529343 -0.20703669 0.97832876 -0.0029307588 0.0013249615
0.033635389 -0.11382797 -0.25376263 -0.26525253 0.96417773 -0.0015361017 0.0019596915
0.041447338 -0.11069569 -0.25369734 -0.33765098 0.94127136 -0.00026022579 0.0022819364
-0.055823136 -0.10323826 -0.25546923 0.48276249 0.87572652 0.0065810033 0.0018197619
-0.045483537 -0.10771677 -0.25442159 0.40660635 0.91359204 0.0045592934 0.0015680466
0.04659187 -0.10856475 -0.25397938 -0.38144472 0.92438585 -0.0032652807 0.001625326
0.054804355 -0.10516303 -0.25585747 -0.4692035 0.88308716 0.0022814898 0.0019616608
0.062331211 -0.10145437 -0.2529774 -0.51064545 0.85977751 0.0048746946 0.0023864722
-0.072219729 -0.09279637 -0.25431019 0.62299252 0.78222787 -7.792603e-05 0.001983139
-0.064417705 -0.097499304 -0.25509375 0.53849149 0.84262991 0.0012963542 0.0016170231
0.066860385 -0.098046303 -0.25325072 -0.54781038 0.83657604 0.0066510676 0.0027619274
0.074431002 -0.092237167 -0.2547316 -0.63077605 0.77596295 0.0017298398 0.0019709659
-0.083352551 -0.083182305 -0.25489584 0.70617092 0.70802903 0.004190403 0.0035375897
-0.078114375 -0.087621056 -0.25521234 0.66409516 0.74762201 0.0062374291 0.0032750613
0.078848824 -0.08884725 -0.25602663 -0.6675604 0.74455506 -0.00087346998 0.002530036
0.083931163 -0.084791824 -0.25574616 -0.69873697 0.71535242 -0.006119722 0.0025023506
-0.092214473 -0.074219115 -0.25450823 0.77385545 0.63330895 0.0082194321 0.0023064113
-0.088426664 -0.076196603 -0.25532958 0.76671535 0.64197552 0.0038840161 0.0022651022
0.089038983 -0.079077363 -0.25651109 -0.73244435 0.68081015 -0.0047801253 0.0022853322
0.093201973 -0.073652059 -0.2557354 -0.76156098 0.64809024 -0.0019930815 0.0018589855
-0.10053553 -0.062228441 -0.25631002 0.85333633 0.5213607 0.000232109 0.0032329804
-0.097265832 -0.065521047 -0.25437641 0.83158493 0.55536056 0.0064075771 0.0030681163
0.098124579 -0.067236796 -0.25486973 -0.82737607 0.56163877 -0.0032575778 0.0024465229
0.10128783 -0.06311436 -0.25293985 -0.84229887 0.53899854 0.0036357215 0.0020514922
-0.10456874 -0.054037172 -0.2557309 0.89120626 0.45359689 0.0011087069 0.0032831202
0.105614 -0.055946898 -0.25632063 -0.87595677 0.48238021 -0.0029960079 0.0021491945
-0.11088101 -0.04260505 -0.25287071 0.93260854 0.36087182 0.0035861332 0.0036794592
-0.10772213 -0.045007072 -0.25433925 0.91762549 0.39743581 0.002883306 0.0035993385
0.1089787 -0.047823809 -0.25744331 -0.91229939 0.40952188 0.0012772699 0.0016888563
0.1109667 -0.043024383 -0.25494093 -0.93511599 0.35430777 0.0049176496 0.0023840661
-0.11282041 -0.03394074 -0.25546867 0.9613505 0.27526915 0.0056694322 0.0025364179
0.11438715 -0.03476667 -0.25605381 -0.95471519 0.29752067 -0.0004653889 0.0016009888
-0.11448998 -0.025842298 -0.25462812 0.97559607 0.21950687 0.0053965827 0.0024963496
0.11680469 -0.025173292 -0.25644085 -0.97671503 0.21448207 -0.0050197984 0.0018669646
-0.11578865 -0.014735981 -0.25533059 0.98996258 0.14131007 -0.0023728951 0.0024998933
0.11822017 -0.014421646 -0.25352937 -0.99110067 0.13304533 0.0042838175 0.0020314418
-0.11763553 -0.00522165 -0.2541858 0.99811584 0.061292324 0.0028417914 0.0019976322
0.11954518 -0.0043571102 -0.25340939 -0.99944061 0.033400897 0.0016857379 0.0025764373
-0.11796856 0.0030750015 -0.2544989 0.99991077 -0.013352212 -0.00024006986 0.0030002249
0.11943047 0.0052284505 -0.25592241 -0.99756926 -0.069631815 0.0026226998 0.0022725703
0.12010443 0.00010920512 -0.25360602 -0.99996978 0.007716734 -0.00093684479 0.0030623977
-0.11650252 0.014684721 -0.2543582 0.99000138 -0.14102986 0.0027881851 0.0033272
0.11824159 0.014258984 -0.25694597 -0.99075735 -0.13561645 -0.0028359732 0.0019467945
-0.1141092 0.026253594 -0.25385743 0.97600591 -0.21773905 -0.001505897 0.0021619671
0.11678147 0.025349667 -0.25597286 -0.97731638 -0.21174568 -0.0040553943 0.0020354786
-0.11253068 0.034576565 -0.25578263 0.95369643 -0.30055672 -0.011345023 0.0032183796
-0.10930347 0.039421581 -0.25515544 0.94634092 -0.3231698 -0.00026349424 0.0036158399
0.1144307 0.034636356 -0.25401127 -0.95829707 -0.28571901 0.0055957967 0.0018191685
-0.11113559 0.042260487 -0.25496796 0.93840069 -0.34554902 0.00013897085 0.003981634
-0.10789152 0.046658728 -0.25483143 0.9135313 -0.40676832 -0.00023099521 0.0036236662
0.10892314 0.047957946 -0.2572796 -0.90970212 -0.41525838 0.0015615771 0.0019696904
0.11118888 0.042487971 -0.25503629 -0.9380762 -0.34638336 0.0056145545 0.0024906986
-0.10357495 0.055911191 -0.2547349 0.88081479 -0.47346082 0.00040787552 0.0031804391
0.10559446 0.055951908 -0.25499213 -0.87388563 -0.48613149 0.0003574416 0.0020204931
-0.10041016 0.061541997 -0.25461787 0.85582268 -0.51725924 -0.0032241927 0.0030731657
-0.09649387 0.066863425 -0.25494525 0.82052934 -0.57160276 0.0013824812 0.0023293209
0.098976173 0.066126972 -0.25651979 -0.83630365 -0.54826492 -0.0013422926 0.0018696975
0.10100584 0.063481852 -0.25569057 -0.83975339 -0.54294479 -0.0050136866 0.00200608
-0.092853241 0.072662525 -0.25422949 0.77170676 -0.63597238 0.0027988937 0.0022194982
-0.088063546 0.078026496 -0.2548199 0.74288762 -0.6694147 -0.001411961 0.0029350906
0.088801764 0.079386517 -0.2534546 -0.73037541 -0.68302608 0.0052116346 0.0023380455
0.093794584 0.072879739 -0.25534478 -0.78052825 -0.62512046 -3.6928286e-05 0.0023827564
-0.083895914 0.083211854 -0.25357217 0.71459335 -0.69952804 -0.004091925 0.0030936622
-0.077410556 0.08752954 -0.25482923 0.65185732 -0.75834155 0.00037876004 0.0035368698
0.085029848 0.083714843 -0.25370869 -0.71138561 -0.70280176 -0.00022843476 0.0023978045
-0.072938524 0.091729566 -0.25504008 0.6243428 -0.7811389 -0.0042616138 0.0024601261
-0.064820372 0.097190313 -0.2536405 0.53860509 -0.84253162 -0.0067167603 0.0016795216
0.066769898 0.098115742 -0.25588205 -0.55253059 -0.83347738 -0.0050249235 0.002465345
0.075710908 0.091255061 -0.25474197 -0.63468158 -0.77275336 0.0056069884 0.001909727
-0.055229705 0.10365591 -0.25514412 0.48706591 -0.87330669 -0.010111208 0.0019265224
-0.043467492 0.10855184 -0.2566871 0.38586304 -0.92251676 -0.008516252 0.0022017336
0.047446609 0.10821071 -0.25534269 -0.38961908 -0.92097086 0.0031016029 0.0016428382
0.053706545 0.10561776 -0.255454 -0.45657307 -0.8896848 -0.001410897 0.0019327333
0.061432213 0.10212516 -0.25447658 -0.50597829 -0.86250854 0.0080584865 0.002702035
-0.03492333 0.11209095 -0.25479192 0.3021743 -0.95324749 0.0031570282 0.0017897255
-0.025070518 0.1150021 -0.25485712 0.21999423 -0.97550029 -0.0013095051 0.0020932956
-0.01530494 0.11631838 -0.25423267 0.14855652 -0.98890209 0.0018980112 0.0022621553
-0.0050069401 0.11767416 -0.25442487 0.044963244 -0.9988876 -0.014209602 0.0020316595
0.004231967 0.1181916 -0.25504473 -0.0011445903 -0.99993503 -0.011341414 0.0023404455
0.014185503 0.1168812 -0.2551471 -0.087163642 -0.99618667 0.003834273 0.0019811569
0.025056362 0.11545002 -0.25467369 -0.21199694 -0.97725314 -0.0057864552 0.001523647
0.035467207 0.11315598 -0.2573235 -0.30412638 -0.95262986 -0.0018513957 0.0020316967
-0.034294084 -0.11235159 -0.24549726 0.2874772 0.95778739 -0.00022305004 0.0022244796
-0.023030747 -0.11530127 -0.24616639 0.20173554 0.97943991 -0.00039018496 0.0024987725
-0.016364982 -0.11617883 -0.24456899 0.16751425 0.98586959 0.00049029267 0.001522525
-0.0053727985 -0.11762597 -0.24505146 0.063402735 0.99798775 -0.00070441037 0.0026117684
0.0048545366 -0.11810964 -0.24452309 -0.01580294 0.99984515 -0.0077422755 0.0023869083
0.015730688 -0.11667776 -0.24436533 -0.14229153 0.98982441 0.00083887216 0.0019461714
0.023896646 -0.11560271 -0.2449069 -0.19291617 0.98120856 -0.0036225307 0.0020225865
0.035901338 -0.11299292 -0.24558243 -0.30473059 0.95243824 -0.00086215202 0.0021186059
0.041835293 -0.11053499 -0.24384733 -0.35260794 0.93576562 0.0032193931 0.0024444715
-0.053996377 -0.10409521 -0.24436769 0.46344426 0.8861202 0.0032256357 0.001440185
-0.044687826 -0.10804636 -0.24520908 0.38126504 0.92446554 0.00068568258 0.0018077209
0.045138337 -0.10916682 -0.24505687 -0.37484324 0.92707825 0.004300111 0.0014408861
0.055391721 -0.10491973 -0.24422221 -0.46585044 0.88485265 -0.0043930858 0.00212786
0.062297024 -0.10151684 -0.24299233 -0.50928658 0.86056 0.0079772202 0.0025935292
-0.073302656 -0.092644453 -0.24496712 0.62597877 0.7798292 -0.0040999637 0.0020670493
-0.064258292 -0.09762162 -0.24736251 0.54591668 0.8378368 -0.0021337292 0.0015197562
0.066758223 -0.098124698 -0.24324912 -0.53649652 0.84389174 0.004266242 0.0024189109
0.073580936 -0.092889436 -0.24489732 -0.62668777 0.77918857 -0.011295483 0.0018957726
-0.082789972 -0.083779752 -0.24429138 0.70152551 0.71263278 0.00406578 0.0031371338
-0.077486381 -0.088335596 -0.24505602 0.64606977 0.76327616 0.0018437599 0.0027501823
0.078454949 -0.089149475 -0.24487495 -0.65799212 0.75296783 -0.0092580365 0.0018655185
0.083779119 -0.084860869 -0.24388941 -0.69930935 0.7148152 -0.002404304 0.0023040171
-0.09203323 -0.073969796 -0.2449127 0.77005094 0.63798171 -0.00096734107 0.0026716746
-0.088418461 -0.076756872 -0.24435413 0.75976551 0.65015858 0.0070832078 0.0021471255
0.091260709 -0.076181971 -0.24466984 -0.76054621 0.64928198 0.0015350011 0.0017860326
-0.10017948 -0.062842518 -0.24295859 0.84602481 0.53296757 0.013699237 0.0030886221
-0.096831195 -0.065617889 -0.24574332 0.82999551 0.55774915 0.0048326603 0.0032397348
0.097046614 -0.068641625 -0.24365115 -0.81628597 0.57756263 0.0099307988 0.0023270068
0.1013715 -0.063005321 -0.24583654 -0.83937049 0.54350889 0.0074318163 0.0022869238
-0.10391614 -0.054026965 -0.24437083 0.87973475 0.4754644 0.00065615546 0.0034372297
0.10575472 -0.055607192 -0.24337184 -0.87932324 0.47620133 0.004784835 0.0017232874
-0.11084528 -0.042737406 -0.24499609 0.93174523 0.36297584 -0.0099649904 0.003355965
-0.10748746 -0.044770047 -0.24610521 0.92336249 0.3838515 -0.0077222707 0.0031685559
0.10887574 -0.048072405 -0.24492276 -0.91403753 0.40562293 -0.002338018 0.0014988321
0.11100745 -0.042925958 -0.24398382 -0.92775124 0.37317279 -0.0044518961 0.0026928012
-0.1120224 -0.035242978 -0.24486193 0.95769256 0.28779078 -0.0012152888 0.0025243696
-0.10983995 -0.038126376 -0.24221194 0.94531637 0.32611769 0.004910409 0.0027541635
0.11505412 -0.03312986 -0.24481483 -0.9585678 0.28475946 -0.0077333609 0.0017841316
-0.11459237 -0.025428414 -0.24508364 0.97861147 0.2056883 0.0034449613 0.0023345863
0.1166008 -0.02672193 -0.24527244 -0.97504091 0.22184166 -0.0090253027 0.0019388044
-0.11697999 -0.014188837 -0.24419992 0.99102938 0.13346487 -0.006921513 0.0022853329
0.11826026 -0.014117208 -0.24464667 -0.98957425 0.14401801 0.0012462797 0.0012346428
-0.11740075 -0.0056360331 -0.2440751 0.99887472 0.047361594 0.0024661771 0.0018278437
0.11968931 -0.003262409 -0.24474613 -0.99996644 0.0080206627 0.0016888464 0.0030430835
0.12002032 -0.00074807624 -0.24482782 -0.99999791 -0.000334321 0.0020295733 0.0030189431
-0.11712661 0.0038326252 -0.24467608 0.9994666 -0.031727768 0.0077335988 0.0023439615
0.11937619 0.0056407326 -0.24396862 -0.99827033 -0.057875387 -0.010332132 0.0026819587
0.1200389 0.00060696556 -0.24511912 -0.99999791 -0.00033333269 0.002045545 0.0030234163
-0.1165529 0.014773509 -0.24410613 0.9892177 -0.14644231 0.0017016748 0.0025256574
0.11802462 0.015906947 -0.24562836 -0.98674208 -0.16228078 -0.0022341353 0.0014319282
-0.11475503 0.025237724 -0.24475297 0.97750652 -0.21090455 0.00051073881 0.0021319373
0.11684895 0.024837069 -0.24602763 -0.97745985 -0.21095379 -0.0084076077 0.0020142056
-0.11245897 0.034330111 -0.24461505 0.95569319 -0.2943579 -0.0019957502 0.0030366057
-0.10973235 0.038386155 -0.24599811 0.9470073 -0.32105502 -0.01004912 0.0031039212
0.11442646 0.034661442 -0.24440977 -0.95583379 -0.29389399 0.0028427695 0.0023946136
-0.11150265 0.040880371 -0.24834651 0.94104457 -0.33820054 -0.0074446253 0.0034502067
-0.10713051 0.047950234 -0.24419872 0.91034955 -0.41376841 -0.0077001764 0.0034544871
0.10876244 0.048345942 -0.24464996 -0.90648168 -0.42215809 -0.0085694129 0.0021940335
0.11161328 0.041463356 -0.24374846 -0.93750995 -0.34790596 0.0060402164 0.0015746957
-0.10390487 0.055449963 -0.24505559 0.87907493 -0.47661531 -0.008069152 0.0032129153
0.10618798 0.054561235 -0.24550161 -0.87867188 -0.47741169 -0.003719019 0.0018467327
-0.10105026 0.061437048 -0.24709177 0.86225832 -0.50646371 -0.0022520388 0.0034326056
-0.096791707 0.066370115 -0.24427696 0.82733786 -0.5617047 0.00015614118 0.002164183
0.097543359 0.067994259 -0.24446143 -0.81852847 -0.5744639 -0.0015122326 0.0019246597
0.10217114 0.061963219 -0.2424702 -0.85444069 -0.51952922 0.0045226594 0.0023310804
-0.092761762 0.07269185 -0.24327239 0.77742082 -0.62897331 -0.003074609 0.0029563212
-0.088592477 0.077259287 -0.24546307 0.75448418 -0.65627187 -0.0078008813 0.0025605296
0.08913558 0.078951485 -0.24433403 -0.73725516 -0.67559385 0.0052711247 0.0023557025
0.09351556 0.073243372 -0.2445599 -0.77738696 -0.62901944 0.0019983381 0.0024200517
-0.084166422 0.083105594 -0.24579811 0.7071743 -0.70701545 -0.0058003166 0.0035067322
-0.077813454 0.088507399 -0.24459217 0.64745516 -0.76205689 0.0084325671 0.0032233838
0.078402206 0.089189947 -0.24326999 -0.66321409 -0.74841571 0.0045794202 0.0021023639
0.08509402 0.08371558 -0.24297634 -0.70999932 -0.70418471 0.0049885046 0.0024955424
-0.07404203 0.092063665 -0.24386115 0.63184273 -0.77503252 0.0099721299 0.0025054116
-0.066372827 0.09599907 -0.24510561 0.56284976 -0.82652646 0.0073652202 0.0026356771
0.06773255 0.097377062 -0.24470796 -0.56755602 -0.82333434 -0.00080895523 0.002785875
0.07511498 0.091712318 -0.24609014 -0.62973887 -0.77680594 -0.0011940338 0.0021155914
-0.060403906 0.1005792 -0.24239522 0.51440984 -0.85753834 0.0032517053 0.001971913
-0.054760877 0.10375189 -0.24386677 0.48320359 -0.87550646 0.0016519004 0.0018100948
-0.045959771 0.10751949 -0.2451292 0.40023366 -0.91641313 0.00024858734 0.0016149975
0.045325838 0.10908915 -0.24368933 -0.38154006 -0.92435127 -0.001373931 0.0015835429
0.0562087 0.10458133 -0.24454017 -0.47958526 -0.87749034 -0.0029338636 0.0021727909
0.061954189 0.10181095 -0.2454966 -0.51467741 -0.85713542 -0.020645287 0.0023348117
-0.038387176 0.11065616 -0.2445385 0.32496116 -0.94572312 -0.0028315498 0.0014906941
-0.023399502 0.11525271 -0.24533491 0.20614363 -0.97849339 -0.0074470951 0.0022282628
-0.014815589 0.11638281 -0.24549434 0.14711645 -0.98910183 -0.0058585275 0.0011288899
-0.0063256891 0.11750052 -0.24573164 0.04144283 -0.99911845 -0.0066832928 0.0017306523
0.005116533 0.11800066 -0.24479124 -0.0178826 -0.99983782 0.0021086107 0.0022403698
0.016281206 0.1166053 -0.24543324 -0.13954642 -0.99019581 0.0062477798 0.0016381718
0.022916503 0.11573174 -0.24367358 -0.17979933 -0.98366815 0.0083193006 0.0023814342
0.034944493 0.11332892 -0.24517302 -0.29172507 -0.95650047 -0.0018494087 0.0018767705
0.041849665 0.11052904 -0.24329515 -0.34132907 -0.9399243 0.0060652769 0.0020140449
-0.035033613 -0.11204527 -0.23286855 0.33222029 0.94317997 -0.0064187981 0.0017997811
-0.02319633 -0.11527946 -0.23544352 0.20236692 0.97928119 -0.007478788 0.0025566788
-0.017253445 -0.11606185 -0.23414619 0.15424609 0.98802686 0.0033249045 0.00077295635
-0.0047836499 -0.11770353 -0.23468597 0.036502901 0.99932903 -0.0030288408 0.0019904424
0.002544451 -0.11841376 -0.23534563 -0.0012206921 0.99998629 0.0051010214 0.0023247832
0.015370683 -0.11672515 -0.23646387 -0.13549778 0.99077702 -0.0010971926 0.0020725862
0.024259066 -0.11555499 -0.23579633 -0.20235892 0.97929704 0.0053069275 0.0022091635
0.032801446 -0.11421396 -0.23476471 -0.25730655 0.96627152 0.010610804 0.0022750455
0.042061355 -0.11044136 -0.23977935 -0.33980128 0.94049454 -0.0022655472 0.0025940544
-0.060611688 -0.10041976 -0.23249441 0.51452333 0.85747343 0.0022519578 0.0021339471
-0.055939931 -0.10321672 -0.23360255 0.48375815 0.87520027 -0.0015414222 0.0016365667
-0.046494961 -0.10729782 -0.23453 0.40614912 0.91379607 0.0044301893 0.0014486042
0.046676774 -0.10852958 -0.2331496 -0.38352159 0.92352986 -0.001930212 0.0014022398
0.054921795 -0.10511439 -0.23472355 -0.44573385 0.89516521 0.00086547405 0.0015208003
0.062804013 -0.10115887 -0.2350269 -0.51852196 0.85505921 -0.0029618146 0.0026008843
-0.07322751 -0.092144884 -0.23447351 0.6236639 0.78166074 -0.0070534186 0.0017898515
-0.065662988 -0.096543767 -0.23668393 0.54942465 0.83553159 -0.004407662 0.0014563751
0.065314434 -0.099232554 -0.23634367 -0.52634513 0.85025281 -0.0055741211 0.0024529295
0.072981946 -0.093349054 -0.23603949 -0.61404002 0.78926826 -0.0032378435 0.0020599177
-0.083402917 -0.083142348 -0.2353459 0.69934994 0.71477467 0.0026079423 0.0035804815
-0.078358136 -0.08760114 -0.23356113 0.66008377 0.75119197 -6.1744438e-05 0.0030965682
0.08483991 -0.083855242 -0.23626983 -0.70285577 0.71133202 0.00075756409 0.0024749797
-0.092637911 -0.073880412 -0.23560925 0.76902163 0.63915443 -0.0093527455 0.0022907935
-0.088835575 -0.0763776 -0.23393011 0.76751864 0.64102274 0.0022246684 0.0022976219
0.088751175 -0.079452448 -0.23206669 -0.74606472 0.66584063 0.0066157938 0.0015908388
0.093339674 -0.073472604 -0.23417918 -0.7740829 0.63308412 0.00043442854 0.0027350194
-0.10099985 -0.061427616 -0.23494154 0.85811448 0.51340753 -0.0072278623 0.0039489488
-0.097367384 -0.065546848 -0.2356644 0.82876271 0.55958956 0.0034504712 0.003196565
0.098748818 -0.066423267 -0.23418334 -0.83747923 0.54640579 -0.0083125606 0.0021867538
0.10097156 -0.063526534 -0.23304699 -0.8415544 0.54016024 -0.0036191589 0.0023465995
-0.10355245 -0.055300031 -0.2354186 0.87987655 0.47507671 -0.010929899 0.003374951
0.10563345 -0.055871841 -0.23335372 -0.87614375 0.48204976 -0.00018847163 0.002129053
-0.11020215 -0.045120027 -0.23514679 0.92708379 0.3748523 -0.0011671183 0.0035148428
-0.1078016 -0.045836762 -0.23540249 0.92028654 0.39123592 0.0026847676 0.0030886556
0.10878548 -0.048290294 -0.23613237 -0.90721387 0.42064634 -0.0044404892 0.0022383523
0.11104948 -0.042824518 -0.23504421 -0.92899036 0.37010339 -0.0005976918 0.0019379085
-0.11221423 -0.034501415 -0.23474292 0.95263749 0.30410773 0.00059963757 0.0033285283
0.11488408 -0.033552814 -0.23594481 -0.96000218 0.27994701 -0.0050585475 0.0019643242
-0.11471625 -0.024802908 -0.23472978 0.97854435 0.20602883 -0.0017599068 0.0022352189
0.11715526 -0.022510421 -0.23492642 -0.97977448 0.20005608 0.0044236546 0.0022905702
-0.11631193 -0.016041834 -0.23435225 0.9877767 0.15586007 -0.0022095046 0.001835774
0.11800892 -0.016026223 -0.23406807 -0.98659456 0.16319066 -0.00011285627 0.0015800494
-0.11686368 -0.0048579546 -0.2362214 0.99944931 0.031662114 -0.0099340491 0.0019216213
0.1193018 -0.0062058703 -0.23446141 -0.99742568 0.07156764 -0.0044761919 0.0024027103
-0.11763746 0.0046553505 -0.23564069 0.99943066 -0.0324862 -0.0091073038 0.0023103992
0.11954955 0.0043240073 -0.23781466 -0.99926615 -0.038292058 -0.00091016619 0.0022721069
-0.11656246 0.01484799 -0.23499025 0.98681015 -0.16184419 -0.0034892259 0.0022935225
0.11803862 0.015800651 -0.23548211 -0.98712999 -0.15987159 -0.0039467127 0.0014635387
-0.11468532 0.024671393 -0.23503284 0.97984862 -0.1997378 -0.0012466477 0.0024502117
0.11684731 0.024849555 -0.23546235 -0.97868335 -0.2050747 0.011100882 0.0018550918
-0.11213592 0.034931224 -0.23630969 0.95332521 -0.30193359 0.002663882 0.0030024711
-0.10929885 0.039432742 -0.23463091 0.94224131 -0.3349044 0.0045122537 0.0037504463
0.11393645 0.035854772 -0.23495902 -0.94670671 -0.32201895 -0.0070875301 0.0019766497
-0.11087991 0.043221701 -0.23497236 0.93103492 -0.3649227 0.0023179729 0.0040196003
-0.10808198 0.046706967 -0.23424621 0.91947412 -0.39314851 -0.0012808988 0.0033067071
0.10917538 0.047348984 -0.23960102 -0.91224504 -0.40964431 -0.00069704611 0.0015334187
0.11129064 0.0422423 -0.23533569 -0.93885481 -0.34430751 0.0019880945 0.001956284
-0.10411055 0.054305874 -0.23543863 0.8838883 -0.46769679 0.0011021801 0.0032072614
0.10645632 0.053913392 -0.2355551 -0.88478684 -0.46597421 -0.0045110625 0.0015926012
-0.10111409 0.061681271 -0.23539263 0.85914642 -0.51138419 -0.018806722 0.0036039108
-0.097005874 0.065934338 -0.2353874 0.83953571 -0.54329729 -0.0027816759 0.0026789731
0.096754648 0.069022119 -0.23490231 -0.80570287 -0.59231979 0.00045876473 0.0019992893
0.10206938 0.062095828 -0.23292735 -0.84853202 -0.52913362 0.003334634 0.0022657996
-0.092912756 0.073495753 -0.23560154 0.77597797 -0.63069719 -0.008904146 0.0022147736
-0.087812319 0.077635542 -0.23427276 0.75036877 -0.66100943 0.0036496152 0.003471151
0.088813841 0.079370789 -0.23709491 -0.72648144 -0.68715292 -0.0067499857 0.0019212656
0.092878111 0.074074127 -0.23483902 -0.76678836 -0.6419 3.6954134e-05 0.0018765351
-0.083175085 0.083645217 -0.23537555 0.69899309 -0.71506119 0.0097994488 0.0034006671
-0.076043442 0.08905939 -0.23590723 0.63331932 -0.77385765 -0.007141395 0.0026227108
0.078585722 0.089049131 -0.23338088 -0.66349363 -0.74818158 0.00064376026 0.0020000357
0.08374694 0.084960744 -0.23530234 -0.68724906 -0.72642165 0.00053868402 0.0022493517
-0.074205719 0.092011981 -0.23333885 0.62490106 -0.78065521 0.0087275039 0.0025979634
-0.066195317 0.096135288 -0.23524883 0.55719799 -0.83037078 -0.0038549227 0.0023339398
0.067921877 0.097231798 -0.23466231 -0.56348735 -0.82612121 -0.0024093557 0.0029250802
0.074165165 0.092441149 -0.23352915 -0.62601411 -0.77981174 0.0001478741 0.0019140576
-0.054371309 0.10393325 -0.23507594 0.47648412 -0.87918043 0.0021246441 0.0014110017
-0.045042455 0.10789946 -0.23404199 0.39058298 -0.92056549 0.0020468563 0.0026315155
0.047308773 0.1082678 -0.23779565 -0.38520959 -0.92282718 0.0018544677 0.0015895377
0.052580513 0.10608417 -0.23465005 -0.44189399 -0.89706481 -0.0021216271 0.0021904462
0.061777666 0.10194643 -0.23509629 -0.50847816 -0.8610602 -0.0050398437 0.002527467
-0.034645688 0.11220595 -0.23520997 0.32122764 -0.94700199 0.00031279839 0.0014791535
-0.025856722 0.11486894 -0.23630175 0.23670262 -0.97158039 -0.0018530926 0.0018841871
-0.016846651 0.11611541 -0.23593935 0.16898096 -0.98561436 -0.0031240908 0.0017863911
-0.0026175957 0.1179887 -0.23521827 0.02726016 -0.99958694 0.009098608 0.0022027756
0.0057940166 0.11798593 -0.23590305 -0.021216927 -0.99975538 -0.0062482944 0.0017629481
0.015778117 0.11667152 -0.23478183 -0.14787759 -0.9889943 0.0047387751 0.0018719813
0.023934001 0.11559778 -0.23586257 -0.2027919 -0.97911483 -0.014476436 0.0016803332
0.035465471 0.11311657 -0.2351408 -0.29085433 -0.95676684 0.0010582593 0.0019187533
0.04185722 0.11052591 -0.23366439 -0.33910477 -0.94065845 0.013024437 0.0019924478
-0.035306122 -0.11193239 -0.22522239 0.32730314 0.94488209 -0.0083982022 0.0016164016
-0.025221109 -0.11501288 -0.22405222 0.23564303 0.97183782 -0.0019379 0.0018315436
-0.015817963 -0.11625084 -0.22405554 0.16265675 0.98668134 -0.0016242643 0.0017134612
-0.0043941834 -0.11775482 -0.22631317 0.047012236 0.99888653 -0.003933134 0.0015002089
0.0048420238 -0.11811129 -0.22729903 -0.022880526 0.99973595 -0.0021216173 0.0022472974
0.016322892 -0.1165998 -0.22603038 -0.1408751 0.99002731 -0.00050041295 0.002000758
0.025811946 -0.11535054 -0.22469252 -0.21979395 0.97553259 0.0051803081 0.0016280219
0.03485857 -0.11333854 -0.22369076 -0.28239316 0.95929056 0.0039662765 0.0016619731
0.041927122 -0.11049696 -0.22527248 -0.34807992 0.93746072 -0.0027931253 0.0025486911
-0.060278889 -0.10067513 -0.2282041 0.51410741 0.85772526 0.00098818168 0.0020534147
-0.054888867 -0.10382093 -0.2256061 0.48209065 0.87612003 0.0014847843 0.0018235146
-0.044566464 -0.10809663 -0.223608 0.38323289 0.92365062 0.0014315319 0.0022174909
0.048590526 -0.10773688 -0.22898844 -0.41173363 0.91128886 -0.005300072 0.0021032118
0.055070296 -0.10505287 -0.2246884 -0.45980456 0.88801765 0.00211159 0.0019270761
0.062504806 -0.10134862 -0.22492364 -0.51435322 0.85757774 -0.0010752608 0.00225523
-0.073482811 -0.091698512 -0.22509682 0.63173068 0.77518725 -0.001036586 0.0017873361
-0.065578021 -0.096608959 -0.22501957 0.55960178 0.82875264 -0.0038525816 0.0020371182
0.066399977 -0.098399594 -0.22555631 -0.54139483 0.84076279 -0.0031033691 0.0022709791
0.073902115 -0.092642993 -0.22635648 -0.62147146 0.7834329 0.0024787909 0.0024029117
-0.083173133 -0.083556592 -0.22598052 0.70069659 0.71345502 -0.0025028172 0.0033528428
-0.076812707 -0.0889754 -0.22495568 0.63786221 0.77014613 -0.0025770285 0.0018419274
0.079378925 -0.088440485 -0.22444534 -0.66570115 0.74621791 0.00092043588 0.0022581408
0.085216351 -0.083590716 -0.22652698 -0.70414501 0.71004093 0.0046646604 0.0026659612
-0.093696848 -0.072916716 -0.22577688 0.77568591 0.63110995 -0.0033999009 0.0022914261
-0.088205859 -0.077412926 -0.22374654 0.75248927 0.65860343 -0.0011910744 0.0026711428
0.089114927 -0.078978397 -0.22236335 -0.74643826 0.66545469 -3.5755373e-05 0.0016125332
0.093268901 -0.073564827 -0.22505306 -0.78121096 0.62419933 0.0092017818 0.0020059131
-0.1014537 -0.060644872 -0.22564034 0.86808217 0.49642041 0.00037825474 0.0037282757
-0.096828908 -0.065648429 -0.22630145 0.83313543 0.55306846 -0.0008567659 0.0036530646
0.09764035 -0.067867838 -0.22362109 -0.82513654 0.56493324 0.00032046007 0.002346121
0.10183242 -0.062404647 -0.22709811 -0.85176587 0.52391863 0.0020202673 0.0023897265
-0.10365679 -0.054990485 -0.22531939 0.88022828 0.47453254 0.0041264142 0.0033650657
0.1064446 -0.053941678 -0.22439417 -0.88232636 0.47063193 0.0023797713 0.0017593382
-0.11059111 -0.043679025 -0.22620918 0.93231857 0.36163023 -0.0023677978 0.0038117089
-0.10836238 -0.044759564 -0.22528665 0.92229807 0.38647911 0.00053390127 0.0028885705
0.10885759 -0.048116222 -0.22731036 -0.90904284 0.41665831 0.0060910657 0.0023286368
0.1113477 -0.042104576 -0.22339077 -0.93228924 0.36170092 0.0030161093 0.0031984053
-0.11176364 -0.034299124 -0.22565678 0.9542008 0.29905745 -0.0080911107 0.0028350244
-0.10954762 -0.038832143 -0.22676352 0.94161385 0.33657405 -0.0090141557 0.0034848978
0.11400249 -0.035695333 -0.2263622 -0.95083362 0.30963808 -0.0063045975 0.0018111733
-0.11469118 -0.025195267 -0.22581431 0.97715878 0.21248142 -0.0035150666 0.0020797942
0.11675473 -0.025552774 -0.22251831 -0.97599632 0.21777517 -0.002241123 0.0019929695
-0.11656123 -0.014347106 -0.22443222 0.99045873 0.13749592 -0.0092930244 0.0026514889
0.11828413 -0.013935769 -0.22152872 -0.99126554 0.13183057 0.0036530537 0.0017781291
-0.11751319 -0.0035305335 -0.22489727 0.99970907 0.02411888 -0.00017386489 0.0018134408
0.11931576 -0.0060998313 -0.22463839 -0.99843973 0.054740969 -0.011025194 0.0020273102
0.12000898 -0.00083431095 -0.2293936 -0.99995619 0.0070514558 -0.0061530308 0.0028393203
-0.11703266 0.0060009295 -0.22490481 0.99821317 -0.057912607 -0.014718755 0.001930975
0.11953429 0.0044399081 -0.22655866 -0.99933255 -0.03592905 -0.0065945992 0.0025402829
0.12010565 9.9982935e-05 -0.22714584 -0.99992532 -0.0031448801 -0.011811485 0.0030559187
-0.11633559 0.015183334 -0.22611541 0.98964328 -0.14324817 -0.0092790192 0.0028770815
0.11831046 0.013735798 -0.22543973 -0.99101448 -0.13373615 0.0022324414 0.0019485197
-0.11457161 0.025653211 -0.22438647 0.97804612 -0.20835556 -0.0036953993 0.0024557207
0.11655359 0.027080577 -0.22388987 -0.97620904 -0.21681455 0.0027287665 0.0017703584
-0.11254639 0.034348737 -0.22553071 0.95890319 -0.28368607 -0.0051757456 0.0035627442
-0.10981028 0.038198031 -0.22429837 0.94662297 -0.32234254 -0.00048269791 0.0032938689
0.11401235 0.035671532 -0.22478679 -0.95264202 -0.30408975 0.0016249886 0.0015373445
-0.11088381 0.043184839 -0.22547524 0.92781353 -0.37290552 -0.01017671 0.0036913964
-0.10735258 0.047648225 -0.22448799 0.91435009 -0.40492451 -0.00035909633 0.0033479317
0.10955572 0.046430744 -0.22767743 -0.9119494 -0.41030246 0.00054105243 0.001553805
0.11130937 0.042197093 -0.2241504 -0.93272269 -0.3605943 0.00037847407 0.0029143987
-0.10386788 0.054811928 -0.22771491 0.87956131 -0.47573459 -0.0069674645 0.0035400037
0.10576493 0.055582535 -0.22516052 -0.87426835 -0.48544121 -0.0012991517 0.0020061687
-0.10095941 0.06138844 -0.22421405 0.85979688 -0.51056147 0.0087363869 0.0035496217
-0.096294194 0.066412918 -0.22537573 0.82153714 -0.57014841 -0.0027337552 0.0025756147
0.097514339 0.068032071 -0.22517185 -0.81884235 -0.57385689 0.013619719 0.0024812121
0.10078279 0.063772544 -0.22180271 -0.84640902 -0.53249526 0.0063759633 0.0018082416
-0.092072196 0.073608801 -0.22531363 0.77423888 -0.63289076 0.0018648965 0.002563644
-0.087770402 0.077453203 -0.22530295 0.75646955 -0.65399379 -0.0067788609 0.0027501786
0.088861212 0.079309046 -0.22297508 -0.7352137 -0.67778867 0.0079557821 0.0023085708
0.092101425 0.075086333 -0.22451994 -0.7626425 -0.64681709 0.0020209297 0.002053224
-0.083946705 0.082708091 -0.22470519 0.72489846 -0.68885386 -0.001585894 0.003402526
-0.07738436 0.087999798 -0.22333597 0.64858896 -0.76101518 0.013718531 0.0031553437
0.07869152 0.088967949 -0.22765996 -0.66148794 -0.74993211 -0.0059625725 0.0021504124
0.085649401 0.083077192 -0.22601297 -0.71384656 -0.7002914 -0.003881545 0.0021280458
-0.074019425 0.092107758 -0.22337136 0.62166876 -0.78326696 0.0045620482 0.0025792508
-0.067807063 0.094898552 -0.22574705 0.57164723 -0.82049704 -0.0020207798 0.0029531724
0.067856565 0.09728191 -0.22602513 -0.56667775 -0.82391042 -0.0069305776 0.0026436911
0.074491054 0.092191093 -0.22407691 -0.6276387 -0.77850455 0.00055993797 0.0019913199
-0.05405933 0.10407675 -0.22439124 0.4789857 -0.87778968 0.0076104137 0.0017492475
-0.044614233 0.10807685 -0.22542551 0.39158753 -0.92012346 0.0056560035 0.0023382124
0.048018318 0.1079739 -0.22313064 -0.38414431 -0.92325556 0.0056809643 0.0016284573
0.054221928 0.10540427 -0.22438651 -0.45951521 -0.88815415 0.0052955211 0.0027166838
0.06209654 0.10165741 -0.22644676 -0.51432341 -0.85759622 0.00035313217 0.0024290918
-0.035178013 0.11198546 -0.22554196 0.31864333 -0.94786632 -0.0039871354 0.0016901657
-0.024334667 0.1151296 -0.22631796 0.22356071 -0.97467828 -0.0047894097 0.0019841224
-0.01798881 0.11596504 -0.22492068 0.19469102 -0.98085421 0.0045170905 0.0022348776
-0.0056930804 0.11758381 -0.22414534 0.056726828 -0.99838972 -0.00013975006 0.0014628294
0.004198099 0.11819606 -0.22342415 -0.0098880595 -0.99990052 0.010064219 0.0019562158
0.013886034 0.11692062 -0.2242509 -0.12501459 -0.99215293 0.0019911439 0.0015870465
0.026246727 0.1152933 -0.22407189 -0.23285349 -0.97247535 0.0084297881 0.0017866546
0.034269717 0.11366876 -0.22349454 -0.28274697 -0.95919371 0.0012747218 0.0017916161
0.042361643 0.11031697 -0.22610158 -0.34216085 -0.93964076 -0.0011427832 0.0030267502
-0.034779985 -0.11215033 -0.21693125 0.30702251 0.95168716 -0.0053670071 0.0022890128
-0.023827801 -0.11519632 -0.21469036 0.23001447 0.97318655 0.0011048299 0.0017919354
-0.01578754 -0.11625485 -0.21532862 0.1462014 0.98925382 -0.0014207939 0.00092643587
-0.006293864 -0.11750471 -0.21694338 0.07026045 0.99752623 -0.0022298403 0.0018805254
0.0070153209 -0.11782379 -0.21333537 -0.053734172 0.99855423 -0.0014902591 0.0021963783
0.015792646 -0.11666962 -0.21623528 -0.14495957 0.98943323 -0.0029334526 0.0019298344
0.025024427 -0.11545423 -0.21452118 -0.22201851 0.9750396 -0.0023638592 0.0017889012
0.033988543 -0.11367713 -0.21540853 -0.2738227 0.9617793 -0.0013009151 0.0019565152
0.042913277 -0.11008848 -0.21927488 -0.3539905 0.93524903 0.00029450411 0.0023030529
-0.06082736 -0.10025427 -0.21081014 0.5146327 0.85740954 0.0014682226 0.0020106679
-0.055347592 -0.1034905 -0.21613933 0.48724332 0.87325394 -0.0046503656 0.0019591409
-0.044751216 -0.10802011 -0.21619315 0.39500359 0.91866779 -0.0046385257 0.0014835285
0.046562605 -0.10857688 -0.21560438 -0.39026743 0.92068779 -0.0050310688 0.0011273288
0.054478556 -0.10529797 -0.21526501 -0.45913747 0.88826174 -0.013560133 0.0017757671
0.063129522 -0.1009091 -0.21428584 -0.51934856 0.85452014 -0.0085034436 0.0022402776
-0.072905049 -0.091918103 -0.21329582 0.6248672 0.78073096 0.00010919022 0.0020531539
-0.064541526 -0.097404286 -0.21673171 0.54321939 0.83957869 -0.0045228298 0.001546009
0.06693922 -0.097985819 -0.21469693 -0.54529047 0.83819091 -0.0097167101 0.0031431871
0.073065303 -0.093285114 -0.21368401 -0.61769933 0.78641343 -0.0011967137 0.0016646888
-0.083116397 -0.083505705 -0.21643642 0.70045757 0.71365982 -0.0069911592 0.0028883447
-0.077896163 -0.087649435 -0.21567963 0.65087605 0.75910312 -0.011079231 0.0024906197
0.078360595 -0.08922188 -0.21143061 -0.65106094 0.75901592 0.0038097121 0.0024887712
0.084383637 -0.084261626 -0.21559511 -0.69668818 0.71737152 0.0019175535 0.0024400181
-0.091976136 -0.073992342 -0.21577545 0.76544273 0.64345902 -0.0076133409 0.0020924415
-0.087491758 -0.077741101 -0.2149598 0.75055391 0.6607604 -0.0080317622 0.0024026434
0.089128017 -0.078961343 -0.2152497 -0.73878217 0.67391014 -0.0067986632 0.0020742633
0.092994019 -0.073923074 -0.21453497 -0.76731163 0.64125228 -0.0053285756 0.0021736836
-0.10137823 -0.060775019 -0.21537431 0.86131388 0.50791359 -0.012736288 0.0035929387
-0.09749192 -0.065241106 -0.21497084 0.83659494 0.54758537 -0.016101059 0.0039572059
0.097947642 -0.067467391 -0.21474296 -0.82060951 0.57148576 0.0019841995 0.0029929657
0.10229912 -0.061796416 -0.21591307 -0.85094589 0.52521169 -0.0066206185 0.0022578565
-0.10370025 -0.056106884 -0.21438415 0.87843078 0.47775608 -0.010418461 0.0035508862
0.10530304 -0.056625724 -0.21464252 -0.87020278 0.4926925 0.001056415 0.0019536421
-0.11120892 -0.04139021 -0.21431375 0.93937081 0.34289852 0.0018055663 0.0037861085
-0.10814352 -0.045038674 -0.21521319 0.92324799 0.38420302 -0.0010997514 0.0029717884
0.10995783 -0.045460004 -0.21904479 -0.91580033 0.40163392 -2.9705505e-05 0.0016200443
0.11036658 -0.044473186 -0.216391 -0.92341763 0.38379654 0.00021796745 0.0020912942
-0.11207122 -0.035527401 -0.21504728 0.95158637 0.30734548 0.0047025504 0.0026405687
-0.10966614 -0.038546026 -0.21538377 0.94268739 0.33364391 -0.0047195805 0.0035912101
0.11439761 -0.034741458 -0.21475393 -0.95162511 0.30720252 0.0060177664 0.001728763
-0.11495955 -0.024766108 -0.21586083 0.9773162 0.21178038 0.0014699631 0.0020254075
0.11677875 -0.025370335 -0.21373717 -0.97770596 0.20988742 0.0061985417 0.001664063
-0.11615314 -0.015398545 -0.21354628 0.98988467 0.14181815 0.0039914893 0.0025609662
0.11794405 -0.016518904 -0.21373038 -0.98595333 0.16698292 0.0035580958 0.0017839669
-0.11712572 -0.0049658064 -0.21367517 0.99886501 0.047413018 0.0045520961 0.0012738323
0.11955242 -0.0043021822 -0.21704406 -0.9996115 0.026963064 -0.0070559261 0.0024370258
-0.11725653 0.0055038147 -0.21579464 0.9982664 -0.05874246 -0.0036775286 0.0020980553
0.11953799 0.0044117589 -0.21684493 -0.99899274 -0.044246245 -0.0074652112 0.0021498329
0.12000209 0.00088659924 -0.21130221 -0.99996644 -0.0078785336 0.0022434969 0.0030041856
-0.11642507 0.014580583 -0.21431109 0.99025357 -0.13926831 -0.0014964232 0.0032964903
0.11790463 0.016818423 -0.21543202 -0.98664224 -0.16267715 0.0085538644 0.0017109464
-0.11415855 0.02633057 -0.21533296 0.97552013 -0.21990936 -0.00050007692 0.0022926461
0.11677396 0.025406765 -0.21465366 -0.97779524 -0.20951112 -0.0046515553 0.002079512
-0.11206453 0.034836788 -0.21456721 0.95803887 -0.2865102 0.0085603623 0.0034850179
-0.10946628 0.039028518 -0.21980177 0.94319719 -0.33223322 -0.00030487674 0.0033310042
0.11423671 0.035110351 -0.21604091 -0.95885956 -0.2838594 -0.0034832195 0.0018199414
-0.11098453 0.042828411 -0.21245906 0.9344064 -0.35620317 0.0019917348 0.003900483
-0.10704127 0.047029592 -0.21410643 0.91587377 -0.40144283 0.004337118 0.0035645736
0.1090644 0.047616951 -0.2145499 -0.90927875 -0.41617939 -0.0026361465 0.0013644402
0.11126582 0.04230221 -0.21442229 -0.92802137 -0.37252259 0.0018111148 0.00169835
-0.10331733 0.054632939 -0.21539341 0.87904358 -0.47670031 0.0062651671 0.0033466041
0.10581743 0.055455793 -0.21382818 -0.87844652 -0.47776267 0.008633378 0.001895681
-0.1009495 0.061619949 -0.21580839 0.86046451 -0.50940269 0.010471104 0.0037552132
-0.097477272 0.064800553 -0.21579559 0.85054153 -0.52586704 0.0065497491 0.0032410065
0.098728299 0.066450015 -0.21546707 -0.8398658 -0.54274595 -0.0072268541 0.0019531492
0.10048009 0.064167038 -0.21451481 -0.83942276 -0.54347891 0.00021067358 0.0020563586
-0.093029574 0.073614337 -0.21547094 0.77966464 -0.62616563 0.0062913052 0.0025154457
-0.088251784 0.076769799 -0.21642211 0.75944525 -0.65055341 0.0048074257 0.0030376092
0.089443676 0.078549959 -0.21064676 -0.74779588 -0.6639275 0.0012858913 0.0016883168
0.093422644 0.073364474 -0.21542349 -0.76268846 -0.6467309 -0.0067318915 0.0018909852
-0.083961107 0.083586931 -0.21377204 0.70848805 -0.70571333 0.0036544441 0.0039319033
-0.078383684 0.087954715 -0.21657991 0.65906537 -0.75207818 0.0033580004 0.0033332638
0.077355839 0.089992858 -0.2147961 -0.63751382 -0.77043712 -0.0016770038 0.0017255531
0.085401624 0.083242394 -0.21696997 -0.71374762 -0.70039678 -0.0029419051 0.001989149
-0.074317053 0.091217399 -0.2155606 0.6255883 -0.7801227 -0.0069127241 0.0026870333
-0.064690053 0.097290322 -0.21551499 0.535106 -0.84478438 -0.00091213512 0.0014093913
0.066341028 0.098444819 -0.21575508 -0.53441542 -0.84522074 0.0014576603 0.0023247087
0.073583081 0.092887796 -0.21363309 -0.62966979 -0.77684951 -0.0045632455 0.0019169782
-0.060380213 0.10059737 -0.21419939 0.5003593 -0.86581784 0.00018852293 0.0017385435
-0.055064153 0.10374578 -0.21641572 0.4815422 -0.87642288 -0.00026277371 0.0016935461
-0.044659305 0.10805817 -0.2154787 0.3911083 -0.9203431 0.0017205128 0.0019905849
0.046200432 0.1087269 -0.21711123 -0.37004134 -0.92901522 0.00027911292 0.001518373
0.054483104 0.1052961 -0.21498209 -0.46351719 -0.88608611 0.0018089851 0.0022418573
0.060464308 0.10281859 -0.21390396 -0.4917911 -0.8707034 0.0041373367 0.0024124575
-0.035864919 0.11170093 -0.21446832 0.3237468 -0.94613731 0.0034832035 0.0014864252
-0.025834214 0.11491857 -0.21434394 0.2385394 -0.97113067 0.0020619405 0.0017613794
-0.014892926 0.11637262 -0.21508592 0.1459603 -0.98928863 0.0018890422 0.0010187267
-0.0059780572 0.11754629 -0.21334781 0.040793013 -0.99916762 -0.00022052809 0.0019771704
0.0042551244 0.11815166 -0.21392775 -0.024730664 -0.99967992 0.0053316653 0.0019266608
0.015540946 0.11670276 -0.21569471 -0.14387922 -0.98955911 -0.008457643 0.0018027674
0.023350595 0.1156746 -0.21590318 -0.19738382 -0.98032618 0.00031810268 0.002191616
0.035864837 0.11291448 -0.2157397 -0.29589397 -0.9552086 -0.0048211282 0.0016584771
0.042054351 0.11044426 -0.2135011 -0.33371112 -0.94267303 -0.0020990609 0.0019042405
-0.035395436 -0.1118954 -0.20624489 0.32500792 0.9456948 -0.0055861468 0.001968896
-0.023592377 -0.11522732 -0.2050785 0.20747818 0.978239 -0.0011019792 0.0023588275
-0.01404654 -0.11648405 -0.20520619 0.12729014 0.9918648 -0.0011790129 0.0016620759
-0.0042398782 -0.11777513 -0.20467485 0.049833354 0.9987548 0.0023365528 0.0014027968
0.0052634603 -0.11803392 -0.20448682 -0.011955276 0.99986523 0.011251073 0.0020408856
0.014418843 -0.11685047 -0.20560308 -0.11468633 0.99338472 -0.0058090338 0.0025512818
0.026897239 -0.11520767 -0.20803182 -0.22303338 0.97480261 -0.0039971117 0.0019161889
0.034902189 -0.11328147 -0.20486078 -0.27004856 0.96282727 0.006122638 0.00202513
0.042383552 -0.11030789 -0.20516939 -0.35804376 0.93368411 0.0062234187 0.002527802
-0.061137058 -0.10001663 -0.20273873 0.52670527 0.85004735 -0.0010062796 0.0018525415
-0.054188818 -0.10408663 -0.20396642 0.47708622 0.87884372 -0.0047321729 0.0017963911
-0.046397101 -0.10733835 -0.20484519 0.41557932 0.90955114 0.0032523721 0.0016330353
0.046397448 -0.10864528 -0.20508362 -0.38567546 0.92263412 0.00087526272 0.0011704568
0.054065552 -0.10546905 -0.20496862 -0.45893282 0.88846755 0.0024568611 0.0022732469
0.06334433 -0.10074428 -0.20342046 -0.52732944 0.84964871 0.0045457287 0.0023113573
-0.072371595 -0.092799075 -0.2048763 0.61796504 0.78618914 -0.0050873538 0.0027087287
-0.066201292 -0.096130706 -0.20656824 0.57238317 0.81997669 -0.0039566066 0.0024481919
0.066578105 -0.098262906 -0.20454967 -0.5485903 0.83608842 -0.0021958279 0.0024900972
0.073512807 -0.092941724 -0.20435402 -0.62981772 0.77673841 0.0026862728 0.0021489065
-0.082691565 -0.083957762 -0.2040831 0.69319445 0.72074765 0.0020523742 0.0032395627
-0.077619143 -0.087741286 -0.20438786 0.64829308 0.76138598 -0.0027121189 0.0028078789
0.078263573 -0.089296333 -0.20524533 -0.65880495 0.75229627 0.0051230383 0.0021825302
0.083470754 -0.085064173 -0.20435548 -0.69659501 0.71746296 -0.0015171721 0.0021819519
