# .PCD v0.7 - Point Cloud Data file format
VERSION 0.7
FIELDS x y z normal_x normal_y normal_z curvature
SIZE 4 4 4 4 4 4 4
TYPE F F F F F F F
COUNT 1 1 1 1 1 1 1
WIDTH 577
HEIGHT 1
VIEWPOINT 0 0 0 1 0 0 0
POINTS 577
DATA ascii
-0.041631974 -0.030620322 0.31000912 0.80649602 0.55288422 -0.20948327 0.0095834732
-0.035610471 -0.035800207 0.31487718 0.67189538 0.71622479 -0.18862289 0.012500339
0.035089344 -0.036593862 0.31397063 -0.66509837 0.72333729 -0.18554607 0.011037999
0.041229151 -0.030314475 0.31225038 -0.79760557 0.56786126 -0.20336917 0.013460534
-0.044128466 -0.025573712 0.31369939 0.84272426 0.50030035 -0.19878487 0.011945011
0.039789006 -0.029740226 0.3188625 -0.7829591 0.58804256 -0.20293102 0.010815219
0.045487385 -0.023210684 0.31322107 -0.86009628 0.46213239 -0.21602799 0.010779556
-0.048454419 -0.015455369 0.31390551 0.93198556 0.29943755 -0.20430385 0.01088718
0.048272673 -0.013850152 0.31716844 -0.94214749 0.27009186 -0.19851552 0.012157955
-0.050714672 -0.0060161692 0.31268233 0.96277696 0.15849808 -0.21894962 0.0093487557
-0.049339712 -0.0073656724 0.31794262 0.96751595 0.144694 -0.20730814 0.0091192648
0.049477257 -0.0071569397 0.31745926 -0.96598047 0.16875969 -0.19596405 0.0095718307
0.050851237 -0.0020433844 0.31438056 -0.97533584 0.055198889 -0.21371259 0.01252414
-0.050813943 0.0069511472 0.31170544 0.96925682 -0.13420337 -0.20622963 0.0092712659
-0.04990986 0.00081196812 0.31922835 0.97873187 -0.0094513781 -0.20492561 0.010736538
0.049292184 0.0061001903 0.3188836 -0.96402705 -0.15809454 -0.21367703 0.0083429161
0.050533284 0.0036791461 0.31483135 -0.97778273 -0.087550081 -0.19046238 0.0105902
-0.05048728 0.011259456 0.31064874 0.95855641 -0.19433478 -0.20833525 0.011807449
-0.048159972 0.016007328 0.31466025 0.93369228 -0.30047631 -0.19476336 0.010808025
0.048554771 0.014592066 0.31488422 -0.94662678 -0.26788056 -0.17926982 0.011484272
0.050348662 0.011648094 0.31103304 -0.94089198 -0.25103951 -0.22737934 0.010420644
-0.044087391 0.024436325 0.31603023 0.85320485 -0.48436314 -0.19347788 0.0123963
0.039545525 0.029963348 0.31911662 -0.79357409 -0.575863 -0.1965244 0.0124725
0.044344641 0.024535865 0.31495565 -0.85045904 -0.48464921 -0.20453472 0.010885128
-0.035015102 0.03660012 0.31446376 0.69125289 -0.69734538 -0.18941723 0.010989602
0.035475515 0.036031045 0.31509358 -0.70228326 -0.68360239 -0.19871095 0.012307949
-0.030805729 0.040779967 0.31250432 0.5440684 -0.81488997 -0.1998595 0.011577409
-0.024266444 0.044328988 0.3155995 0.49348366 -0.84914726 -0.18820919 0.010345802
-0.014867275 0.048440248 0.31499907 0.25952446 -0.94773912 -0.18557389 0.012123968
-0.0059357956 0.04962039 0.31753647 0.13189399 -0.97197086 -0.19461957 0.0089928424
0.0065321065 0.049278993 0.31869155 -0.12490427 -0.97010368 -0.20808107 0.0091904597
0.014627954 0.048448581 0.31540677 -0.26469278 -0.9426735 -0.20323496 0.013145735
0.025038844 0.043965831 0.31499645 -0.5259462 -0.82311559 -0.21415269 0.010366039
-0.004198811 0.050657172 0.31398612 0.12511364 -0.96540016 -0.22879921 0.0088578127
0.0053520752 0.051097572 0.31138426 -0.12279882 -0.96753204 -0.22091207 0.0072248313
-0.023627857 -0.04226438 0.3263658 0.47715998 0.86308587 -0.16553313 0.016656144
-0.016022522 -0.045883711 0.32489413 0.34531516 0.92142606 -0.17813362 0.015524298
-0.0073460527 -0.047721911 0.32650256 0.16901055 0.97285521 -0.15807635 0.011783244
0.0050784829 -0.048210096 0.32529315 -0.10946789 0.97476947 -0.19452876 0.012398195
0.016774129 -0.045690384 0.32429719 -0.35896486 0.91615915 -0.17831635 0.013673265
0.023919785 -0.043079365 0.32129899 -0.48975146 0.8483274 -0.20120651 0.01116138
-0.033417612 -0.035551779 0.3236711 0.65498501 0.73268366 -0.18484958 0.013957638
-0.028816963 -0.038722109 0.32656395 0.59734571 0.78337544 -0.17175889 0.00996086
0.028507978 -0.038725153 0.32775837 -0.58777303 0.7916823 -0.16661888 0.012165236
0.035011284 -0.033321515 0.32611388 -0.7252028 0.66513574 -0.17797557 0.012805277
-0.042910464 -0.023266621 0.323883 0.86135095 0.46616957 -0.2018922 0.01392266
-0.039082438 -0.028093215 0.32755914 0.80838013 0.56168419 -0.17616028 0.014387934
0.038641535 -0.028391831 0.32863986 -0.78074318 0.59785807 -0.18167503 0.013093662
0.042292681 -0.024268368 0.32415521 -0.8330006 0.52259457 -0.18167228 0.010092858
-0.047066674 -0.012935638 0.32477951 0.95133328 0.25164607 -0.177874 0.013712973
0.046332158 -0.014872569 0.32469356 -0.92503947 0.33210248 -0.1844179 0.011153231
-0.048504498 -0.0028701322 0.32539678 0.97508544 0.050890606 -0.21591334 0.015006165
0.0483867 -0.0071930885 0.32270017 -0.95912349 0.18747751 -0.21197695 0.011734915
-0.048055589 0.006123879 0.32553115 0.97551143 -0.07934241 -0.20513962 0.012361725
0.0484052 0.0051037525 0.32408583 -0.96541518 -0.15421775 -0.21021549 0.0087504992
-0.045794509 0.015434933 0.32687062 0.94083947 -0.29621735 -0.16454932 0.011084516
0.045570739 0.015822319 0.32661328 -0.91348583 -0.35393131 -0.20068975 0.013029412
-0.041921627 0.024522878 0.32688403 0.84670824 -0.50215626 -0.17585303 0.013800274
-0.03896042 0.027688403 0.3297669 0.79997826 -0.57597113 -0.16820246 0.010760816
0.038038123 0.029358491 0.32793394 -0.7864899 -0.59078467 -0.18001981 0.013769393
0.043363683 0.022448542 0.32394904 -0.85256803 -0.49099851 -0.17901999 0.011852155
-0.03332632 0.035841007 0.32365617 0.65979683 -0.73059189 -0.17579442 0.012611425
-0.029085092 0.039851151 0.32041129 0.55213505 -0.80999202 -0.19763558 0.010219346
0.029233858 0.039748862 0.3203696 -0.56862324 -0.79674399 -0.20461336 0.013220047
0.035127386 0.033819936 0.32383424 -0.71780819 -0.67065179 -0.18702279 0.010099803
-0.023557238 0.042432293 0.32663742 0.51155365 -0.84071165 -0.17752977 0.013512515
-0.015058645 0.046218455 0.32496157 0.30368769 -0.93651193 -0.17526878 0.0086841304
-0.0067662783 0.048157025 0.32421452 0.14365989 -0.96649218 -0.21273151 0.01357714
0.0044157491 0.048404358 0.32464388 -0.096891962 -0.97485918 -0.20065279 0.011045625
0.016214386 0.045737986 0.3248485 -0.35919037 -0.91323024 -0.19233495 0.012666459
0.023875544 0.042633895 0.32343143 -0.52260411 -0.82956159 -0.19675483 0.010386195
-0.02362466 -0.041407134 0.33250725 0.51598018 0.83990276 -0.16830876 0.013696645
-0.014044359 -0.044834089 0.33574596 0.29326358 0.94222355 -0.16189894 0.013571408
-0.0066965604 -0.046242569 0.33648205 0.12845631 0.97748327 -0.16740786 0.013575404
0.0033896593 -0.047498167 0.33125114 -0.065449797 0.97765815 -0.19975206 0.012478764
0.015468473 -0.044340573 0.33519858 -0.34086815 0.9251703 -0.16693956 0.015144984
0.022144444 -0.041756283 0.33404806 -0.48250031 0.85914189 -0.17049536 0.014754644
-0.032741077 -0.033910453 0.33520091 0.67643178 0.7109623 -0.19228287 0.011337589
0.027884768 -0.037540663 0.33624324 -0.57755393 0.80051261 -0.16003412 0.012060225
0.03354726 -0.033123314 0.33424854 -0.73557937 0.65296292 -0.1804502 0.010390485
-0.042459905 -0.021653274 0.33130947 0.88421094 0.42792055 -0.18722945 0.014964631
-0.037953973 -0.02837625 0.33220947 0.78996885 0.58437568 -0.18561883 0.014407187
0.038818035 -0.026733302 0.3342334 -0.80254269 0.57511383 -0.15864846 0.010944958
0.041343957 -0.023820778 0.33165869 -0.82996267 0.5311417 -0.17044182 0.0099900998
-0.044047985 -0.016924279 0.3335835 0.90618688 0.37577692 -0.19395109 0.011127752
0.044901628 -0.014292747 0.33432922 -0.93990189 0.30339265 -0.15664418 0.012798309
-0.046998776 -0.0036858823 0.33418709 0.98200107 0.060792506 -0.17882445 0.014122738
0.04667991 -0.0061714244 0.33413419 -0.97836035 0.12182911 -0.16723835 0.015089069
-0.046518356 0.0068704402 0.33457729 0.97213256 -0.12527582 -0.19815227 0.013416842
0.046373386 0.0054170578 0.33672237 -0.97480434 -0.12102322 -0.18737622 0.0099358885
-0.044805989 0.014435255 0.33481598 0.94724059 -0.2751981 -0.1643202 0.010521026
0.045246445 0.01474977 0.33181411 -0.93784702 -0.28997403 -0.19067766 0.014264767
-0.041553386 0.022225924 0.33524519 0.86452091 -0.47584304 -0.16179302 0.014835848
-0.037588172 0.02737237 0.33800706 0.78109837 -0.60298419 -0.16215852 0.012883263
0.038296636 0.026930247 0.33612299 -0.8080194 -0.57059175 -0.14672984 0.013423438
0.041245293 0.023216078 0.33449617 -0.84708428 -0.5086444 -0.1540423 0.015169421
-0.034107454 0.032412332 0.33492249 0.72389919 -0.66904914 -0.16835438 0.011542289
-0.026216004 0.038765986 0.33652467 0.56856495 -0.80517417 -0.16860729 0.01152881
0.02778331 0.03768187 0.3359198 -0.61246651 -0.77947009 -0.13157225 0.014991557
0.033096023 0.03404827 0.33344644 -0.66275883 -0.72625273 -0.18250403 0.010593544
-0.023549426 0.041101284 0.33328587 0.52493531 -0.83127654 -0.1828177 0.0090122689
-0.015659016 0.044370528 0.33435982 0.36571604 -0.91601157 -0.16484728 0.012014718
-0.0066652163 0.046194781 0.33681309 0.12704548 -0.97681284 -0.17232549 0.01436424
0.0065374137 0.046204668 0.33685744 -0.14688896 -0.97420055 -0.17133893 0.013759105
0.016893554 0.044022851 0.33380851 -0.35613871 -0.9204914 -0.16081296 0.012325123
0.021111041 0.042411167 0.33300465 -0.42914736 -0.88490099 -0.18106025 0.015108526
-0.021840626 -0.040542565 0.34231326 0.46953914 0.86874253 -0.15754145 0.013764204
-0.014620915 -0.043057658 0.34478584 0.32864842 0.92984933 -0.16543983 0.01666598
-0.0035048786 -0.045474466 0.34406003 0.03193979 0.98186159 -0.18688953 0.01172232
0.0049576634 -0.044670537 0.34796718 -0.091578022 0.98398846 -0.15290581 0.011102151
0.014517414 -0.042747416 0.34669986 -0.31035057 0.93670303 -0.16208005 0.017754881
0.022269772 -0.040312611 0.34262341 -0.49771604 0.84877276 -0.17850348 0.015125616
-0.032113694 -0.032255314 0.34558767 0.70676887 0.68801504 -0.16466032 0.0098816287
-0.025529308 -0.037992455 0.34288746 0.60320973 0.78247952 -0.15447944 0.012800022
0.024434485 -0.038495701 0.34487993 -0.52074397 0.83948165 -0.15523013 0.01375651
0.031981654 -0.033348493 0.34067774 -0.70486748 0.69051909 -0.16231249 0.0078343647
-0.0416255 -0.020079384 0.34021306 0.87785894 0.45153657 -0.15961963 0.015226969
-0.03750984 -0.026329793 0.34248921 0.7928859 0.58417058 -0.17342623 0.010901495
0.0367424 -0.026031232 0.34757462 -0.77903289 0.60403764 -0.1680667 0.011039193
0.040563926 -0.020982483 0.34429866 -0.86213338 0.47862411 -0.16626751 0.016134176
-0.042935066 -0.015243563 0.34433436 0.92122746 0.362553 -0.14105052 0.012110359
0.044095792 -0.012935279 0.34242517 -0.95527166 0.25636232 -0.14742585 0.012784655
-0.045261223 -0.0039069792 0.34508237 0.98491788 0.070122629 -0.15817577 0.012656854
0.04479716 -0.0053771948 0.34680772 -0.98103416 0.11483661 -0.15615557 0.012775805
-0.045067262 0.0040091532 0.34623343 0.98481625 -0.091344565 -0.14762513 0.010815688
0.045354851 0.0056814332 0.34299579 -0.97579426 -0.13119879 -0.17496409 0.012408229
-0.042930875 0.015461613 0.34372768 0.91087842 -0.37249961 -0.17760806 0.013448519
0.042916704 0.015691211 0.34334159 -0.92384392 -0.34654728 -0.16253431 0.014220565
-0.040192418 0.023326023 0.34056181 0.85384285 -0.50007361 -0.14449477 0.014332515
-0.037675664 0.025603153 0.34448829 0.80281729 -0.57405901 -0.16106118 0.011762812
0.037235819 0.025409011 0.34749314 -0.7723456 -0.60929304 -0.1795667 0.01393095
0.040686153 0.021364812 0.34263119 -0.87492377 -0.45261341 -0.17219031 0.013697566
-0.03222758 0.032543454 0.34369346 0.6730336 -0.7192772 -0.17223856 0.010997593
-0.026624372 0.036943834 0.34422421 0.60054511 -0.77867323 -0.1816964 0.012050407
0.026903421 0.037073888 0.34246776 -0.60800904 -0.77119702 -0.18862695 0.011342837
0.032479379 0.032310106 0.34325859 -0.7166698 -0.67627746 -0.17039105 0.010553176
-0.02218329 0.040461414 0.34195197 0.48661488 -0.85528511 -0.17802648 0.017415348
-0.013529986 0.043632496 0.3444078 0.29019085 -0.94291425 -0.16340737 0.014493833
-0.004822426 0.045307502 0.34401861 0.077133745 -0.98436671 -0.15834355 0.011865842
0.0043661455 0.045186602 0.34517276 -0.087723605 -0.98562652 -0.1443778 0.010302474
0.014365983 0.043195125 0.34471866 -0.32572412 -0.93121904 -0.16350847 0.014365132
0.020027349 0.040926017 0.34449795 -0.46124807 -0.87623018 -0.13953829 0.015548102
-0.013808041 -0.041810751 0.35430032 0.30509692 0.93704408 -0.16989452 0.016808322
-0.0050161458 -0.043662831 0.35434446 0.091237515 0.98244482 -0.1627201 0.014046866
0.0071473308 -0.043285679 0.35496041 -0.1582742 0.97413492 -0.16127753 0.014503146
0.016306333 -0.041162059 0.35225463 -0.38981184 0.90709007 -0.15885335 0.012615313
-0.030189518 -0.032082252 0.35507292 0.69188207 0.69887698 -0.18130109 0.015813449
-0.026799485 -0.034750484 0.35465679 0.61755073 0.7682144 -0.16875346 0.015489167
-0.018544104 -0.039538465 0.3563948 0.42998838 0.89128131 -0.14397083 0.017454842
0.019824466 -0.039384887 0.35415578 -0.4650974 0.87015635 -0.16282591 0.016767902
0.024618553 -0.036334921 0.35470545 -0.59447867 0.78734291 -0.16335937 0.012957067
0.031574916 -0.031084388 0.35415792 -0.73317313 0.65630436 -0.17810631 0.014322765
-0.035784591 -0.025237024 0.35514808 0.7599234 0.62815809 -0.16713433 0.013289633
0.035886358 -0.024992011 0.35569558 -0.76291037 0.62231857 -0.17517796 0.012519201
-0.042179566 -0.012877075 0.35425943 0.93785924 0.31467217 -0.14629249 0.015500587
-0.039111346 -0.019295173 0.35708418 0.88509268 0.44883588 -0.12311513 0.014123738
0.039802574 -0.019287756 0.35299471 -0.87119794 0.46269545 -0.16409495 0.015799878
0.041192684 -0.015152469 0.35491294 -0.92837024 0.34218988 -0.14503436 0.014463227
-0.043213934 -0.0074473694 0.35516611 0.97648132 0.16675597 -0.1366629 0.018345091
0.043339942 -0.0065293484 0.35513338 -0.97422493 0.15961865 -0.15939796 0.015478713
-0.043725833 0.004478564 0.35439396 0.98130709 -0.10824011 -0.15912405 0.012426247
0.043303978 0.0058438275 0.35593832 -0.98189121 -0.12071344 -0.1460069 0.013012274
-0.041555516 0.014442817 0.35422832 0.92844737 -0.32580563 -0.17842676 0.015480298
-0.039366663 0.019883536 0.35411862 0.87107754 -0.45857951 -0.17586568 0.017499331
0.039232627 0.019149721 0.35672149 -0.88626158 -0.44301534 -0.13519509 0.018025016
0.041482858 0.014920297 0.35376 -0.92109096 -0.35308808 -0.16407369 0.014878727
-0.036856379 0.024418034 0.35306716 0.79812777 -0.57852072 -0.16824339 0.01163552
0.035462841 0.025723932 0.3552272 -0.77933067 -0.60893995 -0.14776924 0.014293862
-0.030957872 0.03121604 0.35637483 0.66934085 -0.72009194 -0.18289465 0.016659064
-0.025830487 0.035826355 0.35254344 0.61288047 -0.77184254 -0.16922356 0.013556707
-0.018388564 0.039847326 0.35494211 0.44621256 -0.87919652 -0.16705616 0.015598638
0.018117944 0.039825711 0.35573673 -0.44004944 -0.88115233 -0.17299466 0.016493147
0.024254553 0.036538839 0.35503387 -0.55681115 -0.81359082 -0.16742572 0.01604718
0.031424612 0.030906349 0.35529867 -0.7000609 -0.68502837 -0.20162025 0.013074356
-0.015538444 0.041100685 0.3545095 0.36518449 -0.91566724 -0.16790996 0.016883006
-0.0041217213 0.043673556 0.35502693 0.1013983 -0.98354614 -0.14951725 0.016720779
0.0042423168 0.04372675 0.35458654 -0.066007718 -0.99109638 -0.11563256 0.011948816
0.013881879 0.041699931 0.35502613 -0.30205375 -0.94241863 -0.14356397 0.020268129
-0.013783446 -0.040841401 0.3603704 0.35158473 0.92507625 -0.14360356 0.017354487
-0.0035947866 -0.042349909 0.36391053 0.12212851 0.98916125 -0.081514142 0.017522512
0.0039777788 -0.041988276 0.36589533 -0.10894115 0.98878932 -0.10211556 0.019798528
0.013168769 -0.040269271 0.36528337 -0.31721741 0.93790042 -0.14041364 0.018895613
-0.024871478 -0.034057528 0.36564654 0.61760646 0.77965212 -0.10346374 0.022222387
-0.016920349 -0.039068416 0.36318502 0.38956746 0.91227448 -0.12646173 0.013572776
0.016336733 -0.039306495 0.36320674 -0.40559766 0.90221971 -0.14659527 0.013006139
0.025874684 -0.033579502 0.36409649 -0.64078146 0.75610501 -0.13305746 0.017436253
0.030243579 -0.030594351 0.36245409 -0.68967682 0.70803761 -0.15175149 0.019888526
-0.035125077 -0.02364812 0.36476395 0.80232859 0.58632761 -0.11175311 0.019739794
-0.029827539 -0.02960987 0.36884853 0.71096057 0.69823432 -0.083688982 0.019512249
0.034671266 -0.02425104 0.36493114 -0.78829199 0.60893059 -0.088313393 0.014270319
-0.041334126 -0.011325109 0.36349356 0.94904357 0.28841856 -0.1270078 0.019460984
-0.038950659 -0.015855733 0.36650538 0.922014 0.37197831 -0.10734205 0.017199673
0.03923557 -0.016111154 0.3641836 -0.91925478 0.37257525 -0.12711588 0.019276707
0.041527469 -0.010808568 0.36286202 -0.96421421 0.22574767 -0.1390287 0.019127974
-0.042117819 -0.0061987131 0.36320457 0.97719014 0.16107073 -0.13840388 0.017815173
0.041989297 -0.0055431426 0.36457467 -0.98150241 0.15901105 -0.10662323 0.018926589
-0.041985642 0.004738206 0.36527362 0.98639065 -0.096766062 -0.13292792 0.01697818
0.041907929 0.0053843218 0.36522695 -0.98558033 -0.13447322 -0.10270569 0.01313349
-0.040770683 0.012596199 0.36329782 0.94631678 -0.28059471 -0.16047171 0.017946567
-0.03801658 0.018461511 0.36564207 0.91373509 -0.38195693 -0.13855344 0.020079684
0.038727213 0.016454702 0.36635885 -0.93256599 -0.34467554 -0.1073291 0.017567543
0.040458929 0.012409167 0.36602607 -0.96453625 -0.23323166 -0.12358318 0.021088602
-0.035140861 0.023476627 0.36575049 0.80334032 -0.58484638 -0.11224502 0.014952288
0.033790514 0.025729526 0.36366689 -0.75072026 -0.64632761 -0.13667344 0.015017346
-0.026677528 0.032779206 0.36517808 0.62722397 -0.76493555 -0.14650512 0.012924606
-0.01797075 0.038339611 0.36493039 0.40072986 -0.9030301 -0.15476502 0.019625898
0.016782129 0.038542222 0.36665219 -0.36798918 -0.92299056 -0.11257175 0.016482703
0.025546547 0.033666611 0.36505657 -0.62077361 -0.77022046 -0.14628926 0.014446096
-0.01157588 0.041722927 0.36056575 0.23729476 -0.95796847 -0.16120648 0.015851397
-0.0059167896 0.042004809 0.36416194 0.17047295 -0.97891939 -0.11249797 0.017335018
0.0065886984 0.041908599 0.36421144 -0.12578921 -0.98309058 -0.13307881 0.014414473
0.011339707 0.040249884 0.36990082 -0.24335358 -0.96350288 -0.11154045 0.022306345
-0.0059089842 -0.040679619 0.37465099 0.21456043 0.97381085 -0.075207897 0.020545786
0.0055956948 -0.040692072 0.37313443 -0.13672501 0.98728555 -0.08107648 0.017375333
-0.020322898 -0.035938788 0.37578282 0.51251197 0.85730249 -0.04862101 0.020941865
-0.01566093 -0.038063347 0.37445131 0.40647995 0.91010046 -0.080567993 0.013360634
0.016270481 -0.0377912 0.37425026 -0.3848868 0.9160012 -0.11315429 0.013099822
0.023942566 -0.033437368 0.37462711 -0.601345 0.79597604 -0.069328338 0.017803149
-0.03188175 -0.026172053 0.37412873 0.74207222 0.66752434 -0.061157048 0.018364195
-0.029657846 -0.028666651 0.3764714 0.71309513 0.69810575 -0.064372353 0.019671978
0.029415242 -0.028956428 0.37437439 -0.71701276 0.69469905 -0.057323076 0.020837933
0.033349592 -0.024135847 0.3737565 -0.78945339 0.60934186 -0.073931567 0.014750112
-0.040357828 -0.010693143 0.37065515 0.96447033 0.24444048 -0.10022934 0.020905394
-0.037812036 -0.016155545 0.37382901 0.90428329 0.41653639 -0.093643337 0.014245012
0.038141973 -0.01530231 0.37461412 -0.93524355 0.34515414 -0.078665487 0.015504763
0.040090419 -0.010660593 0.37238786 -0.9574734 0.26862827 -0.10527872 0.021525176
-0.040367931 -0.0090132356 0.37495148 0.97892338 0.19319893 -0.066205397 0.018647546
0.040726438 -0.0046921205 0.37493226 -0.9841311 0.15229997 -0.091053031 0.016506016
-0.040793847 0.004912029 0.37477848 0.98489225 -0.15682127 -0.073446847 0.015110726
0.040492449 0.006653334 0.37666437 -0.98706216 -0.15219252 -0.050456457 0.01406232
-0.038262162 0.015001976 0.3754696 0.94294631 -0.32665184 -0.064427011 0.017507525
0.038097281 0.015147403 0.37623069 -0.93920642 -0.33442673 -0.077782094 0.017068487
-0.031965379 0.025788724 0.37367508 0.75897658 -0.64693743 -0.073664404 0.015571167
-0.029806316 0.028488632 0.37334728 0.71185088 -0.69937444 -0.064372063 0.021938803
0.032612458 0.024903284 0.37505499 -0.77151096 -0.63208461 -0.072387107 0.015280341
-0.024587281 0.03290778 0.37324664 0.58950442 -0.80462128 -0.071197979 0.020173479
-0.014846726 0.038493872 0.37265116 0.32707947 -0.93923599 -0.10418662 0.020709725
0.01465569 0.038508419 0.3735092 -0.30412811 -0.94667065 -0.10639884 0.018009443
0.023983102 0.033376548 0.3757259 -0.61551517 -0.78681576 -0.045409225 0.01608127
-0.0058572097 0.040704153 0.37479395 0.16326658 -0.98342592 -0.078851976 0.017657716
0.0035156438 0.040950917 0.37440801 -0.05661292 -0.9950636 -0.081507377 0.017217739
-0.010039995 -0.040012173 0.38421464 0.28386319 0.95883238 -0.0078830002 0.024000878
-0.0053184852 -0.040633749 0.38634071 0.18948813 0.98165655 0.021087501 0.019793635
0.003249241 -0.040906169 0.38622671 -0.065073743 0.99779481 0.013080454 0.026129846
-0.023824809 -0.033373158 0.3859314 0.53149253 0.84664899 0.026478514 0.022299627
-0.013649908 -0.038694974 0.38362533 0.3290796 0.94320595 -0.045486722 0.021267895
0.015314658 -0.038013268 0.38451114 -0.3277508 0.94458264 -0.018520767 0.01783102
0.024761928 -0.032626435 0.38392362 -0.63703108 0.77036834 -0.026906831 0.018606612
-0.033126149 -0.024146708 0.38535598 0.80164361 0.59687674 -0.033252537 0.023769567
-0.029771037 -0.028519141 0.38508186 0.69783068 0.71599501 0.019583879 0.02332866
0.029827278 -0.02844587 0.38642418 -0.74850374 0.66289985 0.017490517 0.024266832
0.03287065 -0.024479687 0.38641837 -0.7999264 0.60007668 -0.0050767311 0.018687069
-0.038334478 -0.014533063 0.38393587 0.9196834 0.39022607 -0.043658238 0.019628428
0.037670832 -0.016141372 0.38429591 -0.91558772 0.40123057 -0.026705567 0.014332245
0.040011249 -0.010047014 0.38961968 -0.95770836 0.28474432 0.041417379 0.024845153
-0.040675361 -0.005002344 0.38286972 0.98945647 0.13484257 -0.052852329 0.021740953
0.040705994 -0.0047696992 0.38846573 -0.98448884 0.16929206 0.04606472 0.020695616
-0.040732156 0.0045709759 0.38621944 0.98961037 -0.14354669 -0.0080967322 0.019900642
0.040633831 0.0053179055 0.38678098 -0.98477101 -0.17335989 0.013128331 0.019871945
-0.038939796 0.013077798 0.38416564 0.94245708 -0.33402711 0.014160507 0.019176502
0.037719291 0.016024379 0.38464355 -0.93469459 -0.35531223 -0.0099624759 0.017805226
-0.033704303 0.023354158 0.38653791 0.83739018 -0.54525346 0.038422756 0.02821189
-0.028995501 0.029405516 0.38720334 0.68915451 -0.7184943 0.093979456 0.026736556
0.029115848 0.029136255 0.38519359 -0.72255391 -0.69048476 0.033862285 0.024369612
0.032929629 0.024402831 0.38479388 -0.79351932 -0.60798192 -0.026172817 0.014281544
-0.023580831 0.033547286 0.3864688 0.57893467 -0.81346333 0.055785257 0.02141091
-0.013424381 0.038784396 0.38434234 0.35504565 -0.93405807 -0.03844754 0.016814306
0.016553275 0.03750021 0.3858884 -0.39976451 -0.91645956 0.017035335 0.020372782
0.02409913 0.033162668 0.38581559 -0.57869899 -0.81388527 0.051944256 0.02119044
-0.0068797949 0.040428203 0.38515663 0.20438011 -0.97884321 -0.0097359624 0.018031342
0.0039811172 0.040809814 0.38442615 -0.12348285 -0.99187726 -0.030519828 0.019336326
-0.010078309 -0.040007129 0.3927474 0.27797839 0.95619988 0.091704898 0.025138209
-0.0048972811 -0.0406892 0.39198449 0.158089 0.98593897 0.054150477 0.030559644
0.0033751533 -0.040889587 0.39413702 0.11110359 -0.98756284 -0.11124557 0.027356058
-0.022495713 -0.034352217 0.3953191 0.5153811 0.85239309 0.088364236 0.023048759
-0.014708472 -0.038258798 0.39542434 -0.35179535 -0.92973918 -0.10874306 0.021655107
0.012951134 -0.038977798 0.39552373 0.31580305 -0.93492454 -0.1618164 0.020219976
0.023690982 -0.033459235 0.3948814 0.5779323 -0.80519825 -0.13285334 0.025707198
-0.032863487 -0.024486938 0.39559922 -0.77925789 -0.61627167 -0.11386964 0.022576487
-0.029173575 -0.029100617 0.39430493 0.69729769 0.70936698 0.10283227 0.022443624
0.029941456 -0.028297067 0.39337236 -0.73849887 0.66907078 0.083448596 0.026388675
0.032456227 -0.025019772 0.39577839 0.8091827 -0.57220846 -0.13341944 0.021330396
-0.037637677 -0.016221412 0.39424238 0.90723705 0.40937576 0.096604653 0.018067185
0.038667992 -0.013672143 0.39425871 0.93693173 -0.33273086 -0.10700116 0.020208381
-0.040723506 -0.0046366104 0.39382827 -0.98219401 -0.1460048 -0.11822674 0.026499331
0.040796559 -0.0040817643 0.39555356 0.97365993 -0.18778174 -0.12932207 0.020044833
-0.041021094 0.0023761813 0.39548168 -0.98457789 0.07872013 -0.15623547 0.024326146
0.04084504 0.0037135526 0.39489219 0.98947865 0.092724435 -0.11105891 0.029375795
-0.037937481 0.015497608 0.39478788 -0.91033244 0.39580011 -0.12098372 0.018644853
0.038533892 0.01405775 0.39472395 -0.93151766 -0.35188383 0.09193866 0.02317713
-0.032957137 0.024361609 0.39548171 0.78835678 -0.60655862 0.10285987 0.02142185
-0.029505715 0.028864916 0.3954272 -0.7108646 0.69033098 -0.13459088 0.027439993
0.028778218 0.029572258 0.39482012 0.69162536 0.71039563 -0.13035519 0.023270573
0.032364264 0.025139615 0.39406028 -0.79087478 -0.60452259 0.095234133 0.015797371
-0.024298504 0.033009667 0.39653713 -0.61861402 0.7728833 -0.14130856 0.021183297
-0.015431879 0.037964709 0.39502138 -0.38688061 0.91124105 -0.14129148 0.015563641
0.01568957 0.037857968 0.39370936 -0.39532757 -0.91309112 0.099903643 0.019666577
0.024907103 0.032512192 0.39661822 0.57859117 0.79977691 -0.15996604 0.021937285
-0.0037117347 0.040845267 0.39353389 0.087635674 -0.9908914 0.10224564 0.029269962
0.0059300959 0.040553235 0.39579588 0.19527556 0.97464597 -0.10923697 0.021639151
-0.016802963 -0.040745147 0.40984863 -0.39260849 -0.90176195 -0.18078704 0.021357125
-0.0045118751 -0.041811988 0.40686533 -0.12077108 -0.98191476 -0.14580029 0.025893377
0.0018061181 -0.04201955 0.40683547 0.048519291 -0.9887194 -0.14170341 0.024689613
0.010096104 -0.041142121 0.40816951 0.2117068 -0.95931524 -0.1868007 0.024225123
-0.030472739 -0.031416919 0.40933743 -0.68562531 -0.70071107 -0.19728626 0.025716664
-0.024120631 -0.034302559 0.40582162 -0.59150475 -0.78516424 -0.18341026 0.023551023
-0.016836166 -0.037460241 0.4045155 -0.38997164 -0.90880293 -0.14832136 0.020748328
0.014543064 -0.03862457 0.4043355 0.38534069 -0.90394485 -0.18546247 0.017335132
0.02456671 -0.033713192 0.40515861 0.60427016 -0.78018904 -0.16174874 0.024130216
-0.033267818 -0.02563226 0.40703768 -0.76417708 -0.62304217 -0.16688889 0.02387335
-0.029653752 -0.028671987 0.40148199 -0.70357913 -0.6974206 -0.13631183 0.026868675
0.029071271 -0.029211203 0.40325186 0.70154476 -0.70176029 -0.12396564 0.025680857
0.035236552 -0.022525307 0.40551335 0.81905144 -0.54664809 -0.17415699 0.02937106
-0.041030254 -0.01304018 0.40884367 -0.92601985 -0.31723243 -0.20457481 0.019476727
-0.038368892 -0.014504865 0.40417412 -0.92201447 -0.3586311 -0.14585267 0.026654789
0.038007692 -0.015969787 0.40533698 0.90943873 -0.38121095 -0.16613089 0.020193979
0.040280029 -0.014630439 0.40877149 0.90410542 -0.38166019 -0.19216882 0.018161898
-0.041497108 -0.0038384863 0.40533054 -0.98138875 -0.096103191 -0.1662534 0.029085338
0.041169871 -0.0051318351 0.40495604 0.97154719 -0.1728427 -0.16193005 0.022204518
-0.041173287 0.0055063367 0.40392444 -0.98167777 0.1286196 -0.14059053 0.021840384
0.041660611 0.0043850159 0.40597221 0.98918658 0.091858752 -0.11433224 0.029202029
-0.041305255 0.012019306 0.40876856 -0.94442332 0.24981041 -0.21368055 0.022322496
-0.039226327 0.012467205 0.40296856 -0.95021731 0.27286491 -0.15043871 0.025275897
0.038132232 0.016487483 0.40477109 0.8887412 0.43100494 -0.15612149 0.018780721
0.043033063 0.011272793 0.40990198 0.9473955 0.23493183 -0.21736789 0.026527917
-0.033132445 0.024692679 0.40627971 -0.78609359 0.59052265 -0.1825922 0.027266456
0.028609127 0.029702008 0.40643606 0.69070226 0.70520627 -0.16004495 0.023849897
0.033762053 0.024155458 0.40525466 0.78825271 0.59278733 -0.16510868 0.018958878
-0.025415866 0.033704165 0.40650341 -0.63473588 0.74915558 -0.18941048 0.022645876
-0.016206898 0.038004253 0.40498161 -0.39874277 0.89658272 -0.1927266 0.01817679
0.017153591 0.038199171 0.40650272 0.37652391 0.90593135 -0.19369598 0.025637627
0.024146669 0.033329885 0.40560567 0.63613683 0.76053774 -0.1300474 0.021561543
-0.012648565 0.041075427 0.40785271 -0.28102139 0.93495995 -0.21651049 0.022596609
-0.0063405954 0.040585611 0.40426147 -0.1478693 0.97431314 -0.16984878 0.018486481
0.0055433181 0.041455492 0.40664303 0.13971099 0.97160721 -0.1909458 0.023541205
0.015841067 0.040838592 0.40960795 0.37878245 0.90261245 -0.20448646 0.024082607
-0.025286155 -0.040660307 0.4152084 -0.52616036 -0.82484871 -0.20683306 0.020227572
-0.014518881 -0.044181801 0.41496944 -0.31701049 -0.92320794 -0.21723591 0.021727864
-0.0048475321 -0.046046108 0.41466156 -0.093741678 -0.98088777 -0.17050421 0.021017954
0.0066413656 -0.044916313 0.41550866 0.14411221 -0.96998358 -0.19586633 0.023056105
0.014768315 -0.043911725 0.41698849 0.33721662 -0.92021364 -0.1987254 0.016041121
0.021828933 -0.041748371 0.41446874 0.46750602 -0.8556242 -0.22213793 0.020692373
-0.033989854 -0.032501794 0.41652671 -0.70930552 -0.67712426 -0.19592966 0.015279944
-0.027258264 -0.036729753 0.41428217 -0.62868297 -0.75107098 -0.20161848 0.020998878
-0.018700302 -0.038336869 0.41967186 -0.47694746 -0.85609818 -0.19904053 0.022100497
0.019333443 -0.037722956 0.41982281 0.47416386 -0.85612017 -0.20549192 0.020379582
0.026523117 -0.035155889 0.41558659 0.61942339 -0.75253743 -0.22361131 0.021032006
0.034491248 -0.032252286 0.41445166 0.69909847 -0.68671227 -0.19921739 0.021620758
-0.041374639 -0.023557751 0.414958 -0.83686441 -0.50630373 -0.20812112 0.017967701
-0.037601389 -0.02464086 0.41617483 -0.76312894 -0.60987759 -0.21373715 0.02051406
0.036426015 -0.026227104 0.41860771 0.76306587 -0.61663473 -0.19362868 0.020408064
0.040958263 -0.022339176 0.4173142 0.85372531 -0.47822991 -0.20603207 0.018679755
-0.044428214 -0.014501998 0.41344297 -0.90312499 -0.33736029 -0.2656188 0.023844505
0.039371818 -0.014926659 0.4198986 0.89459229 -0.39345169 -0.21189693 0.017200269
0.044512697 -0.013357037 0.41539383 0.92237025 -0.33237895 -0.19686845 0.023299994
-0.04507691 -0.0078933761 0.41603303 -0.96019006 -0.15378162 -0.23320855 0.023129463
0.046327632 -0.0025461307 0.415436 0.98566318 -0.028163839 -0.1663578 0.019423204
-0.046022888 0.0059896191 0.41580197 -0.97332746 0.098321863 -0.20728354 0.018594317
0.046238758 0.0029214297 0.41552341 0.98394281 0.04771005 -0.17198904 0.020426191
-0.043457329 0.016937783 0.41523129 -0.90260577 0.37585318 -0.2098504 0.01547557
-0.039437246 0.017719669 0.41937381 -0.89055008 0.40735024 -0.20245089 0.017994197
0.043595515 0.015691837 0.41638508 0.90324384 0.36628422 -0.22357641 0.01747646
-0.041107941 0.023676906 0.41545027 -0.84026647 0.50218874 -0.20434943 0.022280276
-0.037615851 0.027170267 0.41371611 -0.75440544 0.62733757 -0.19318384 0.020080352
0.035257835 0.026739059 0.41659671 0.76661313 0.60661554 -0.21052781 0.016067322
0.041710377 0.023208911 0.4170261 0.82538188 0.52732909 -0.201665 0.014894499
-0.034325384 0.032386854 0.4157165 -0.71144545 0.67517853 -0.19488294 0.015446532
-0.026381945 0.038163099 0.4154627 -0.59383088 0.7863974 -0.17012964 0.018000484
-0.019587813 0.03961907 0.41896355 -0.49022818 0.84753132 -0.20338906 0.023295691
0.025912626 0.038394231 0.41470331 0.60082728 0.77355975 -0.20152421 0.018266648
0.0318892 0.032939751 0.41476852 0.67530769 0.71373039 -0.185872 0.016238429
-0.021564774 0.041460007 0.41332445 -0.46011052 0.86750519 -0.18903181 0.021138106
-0.014448763 0.043526582 0.41642714 -0.33340579 0.91827536 -0.2135673 0.018892003
-0.0057589356 0.045380171 0.41475707 -0.074672587 0.97160435 -0.22451958 0.018045736
0.0036919189 0.046012718 0.41558149 0.061641224 0.97423345 -0.21695508 0.018761775
0.013108636 0.045133624 0.41318446 0.27172869 0.93941033 -0.20897806 0.020075629
0.023323532 0.040944908 0.41620731 0.50058866 0.84127033 -0.20414498 0.020086121
-0.023179958 -0.042869061 0.4253498 -0.5235092 -0.83403409 -0.17414144 0.019660551
-0.014953995 -0.046354856 0.42568108 -0.29989523 -0.94375134 -0.1392704 0.012468963
-0.0041436804 -0.046515264 0.42338011 -0.059308253 -0.97691429 -0.20523384 0.017675066
0.0046897233 -0.046927046 0.42260501 0.093040459 -0.97765011 -0.18853049 0.018936481
0.015077029 -0.044198472 0.42359734 0.37323979 -0.91106361 -0.17508629 0.01443926
0.022109898 -0.042356718 0.42163086 0.49112657 -0.84961456 -0.19222328 0.018247522
-0.033975694 -0.034858204 0.42542556 -0.70279914 -0.69321167 -0.15978414 0.016023146
-0.024184164 -0.035389904 0.42029163 -0.60335034 -0.77484733 -0.18862636 0.017894048
-0.015458815 -0.039182175 0.42031911 -0.37961566 -0.90392756 -0.19699466 0.019207876
0.015090818 -0.038351454 0.42038745 0.39150888 -0.89871174 -0.19758025 0.015397439
0.026469778 -0.034803703 0.42029333 0.60929888 -0.76432484 -0.21109825 0.020035386
0.033529691 -0.034750212 0.42301863 0.6730718 -0.7140559 -0.19260979 0.016512573
-0.043383531 -0.022705162 0.42400736 -0.85084069 -0.49366888 -0.17989236 0.019196549
-0.036228519 -0.025463575 0.42130548 -0.77454644 -0.60182256 -0.19464689 0.019487686
0.03203306 -0.028933998 0.42038745 0.71923286 -0.66562665 -0.199111 0.020616449
0.042040817 -0.024495233 0.4241966 0.83045727 -0.52964604 -0.17267244 0.015358478
-0.044414192 -0.014338849 0.42135948 -0.92402738 -0.3239339 -0.20307712 0.018474633
-0.037902966 -0.017858621 0.42038748 -0.87491137 -0.44507268 -0.19089359 0.019806795
0.038875852 -0.018356588 0.42038748 0.84987861 -0.4806872 -0.21597695 0.019127475
0.045150686 -0.01739773 0.4249301 0.91500491 -0.37515596 -0.14840484 0.016483026
-0.046702795 -0.0047575636 0.42278638 -0.97938901 -0.079271816 -0.18577681 0.017765628
0.046960913 -0.0055082571 0.42426339 0.97359353 -0.15074648 -0.17143849 0.01780613
-0.047451481 0.005242032 0.42387524 -0.97794855 0.1015646 -0.18248616 0.016556835
0.046206702 0.0057536005 0.42209214 0.9773429 0.081556074 -0.1953188 0.018278029
-0.045472361 0.014181928 0.42250142 -0.93665922 0.3042751 -0.17345394 0.014440476
-0.037621792 0.019545782 0.42038751 -0.86149633 0.47079659 -0.19019602 0.022508385
0.039022069 0.017060312 0.42038748 0.87256938 0.44859228 -0.1933585 0.021291126
0.045145441 0.015973112 0.42421627 0.91373003 0.36459866 -0.17934678 0.017743852
-0.042837743 0.023708403 0.42382488 -0.85118526 0.49651033 -0.17017986 0.017895823
-0.036308952 0.025152082 0.42035943 -0.77955365 0.5960449 -0.19242287 0.016879033
0.034740478 0.024288837 0.42038745 0.79992825 0.56651235 -0.19793572 0.015473659
0.042433549 0.024309412 0.42434826 0.82479781 0.53766799 -0.17499082 0.016377462
-0.033740345 0.034708828 0.42417774 -0.68851739 0.70592672 -0.16616625 0.013337751
-0.026892373 0.037307549 0.4209713 -0.59529608 0.78162819 -0.18622582 0.016514787
-0.0169212 0.039522301 0.42038751 -0.43225661 0.88166237 -0.1892767 0.019068547
0.018959034 0.037832111 0.42038748 0.48098698 0.85751987 -0.18251382 0.020098297
0.026152939 0.034562699 0.4203124 0.60355109 0.77433723 -0.19007345 0.016329598
0.034205832 0.034762222 0.42483705 0.70506769 0.69091779 -0.1597252 0.01245856
-0.023639686 0.042850349 0.42409742 -0.50051695 0.85098195 -0.15909868 0.016439753
-0.013601616 0.045795985 0.42300782 -0.24408522 0.95698965 -0.15682246 0.011409679
-0.0034080148 0.046613846 0.42293987 -0.035927214 0.9831183 -0.17940921 0.014549023
0.0045325374 0.047014255 0.42206115 0.085621029 0.97480881 -0.2059533 0.018665606
0.013527961 0.04606453 0.42556164 0.26438957 0.95126092 -0.15874761 0.01588344
0.022376467 0.042337544 0.42308989 0.4640719 0.86620271 -0.1852839 0.017060621
-0.024472065 -0.042592775 0.43458056 0.54604131 0.83681136 0.039821081 0.017709399
-0.015173598 -0.046613757 0.43362594 0.27796867 0.95932478 0.049288146 0.017083576
-0.0067055677 -0.048532594 0.43574217 0.1260943 0.99113601 0.041828271 0.020281555
0.0054127364 -0.048702799 0.43521872 -0.13586655 0.98922092 0.054611024 0.018770773
0.014815256 -0.046892598 0.43418056 -0.31322923 0.94939685 0.023088807 0.018272998
0.023223393 -0.043333445 0.4333379 -0.46387902 0.88327873 0.068080202 0.018435199
-0.034529071 -0.034879092 0.43573982 0.70618409 0.7080214 -0.0031199898 0.02058042
-0.028397456 -0.039963767 0.43018687 0.57031286 0.81535995 0.09965644 0.018252827
0.029802823 -0.038885392 0.43429863 -0.61669254 0.78526169 0.055267431 0.022833144
0.03422603 -0.035039011 0.43523121 -0.70355088 0.70981354 0.034364868 0.021457525
-0.042968277 -0.023461027 0.43535337 0.8616066 0.50744307 0.011647187 0.017730007
-0.039820753 -0.028583819 0.43126449 0.80590808 0.58850509 0.064606078 0.021979241
0.042111706 -0.025335038 0.43385702 -0.82870066 0.55787528 0.045060556 0.017792039
-0.04696114 -0.014517482 0.43648699 0.95493364 0.29669935 -0.0084399413 0.014247759
0.047140755 -0.013748332 0.43443543 -0.95125204 0.30818725 0.01183882 0.017417056
-0.049068168 -0.002637347 0.43410116 0.9980703 0.049856011 0.03701438 0.018922163
0.048568126 -0.0064360248 0.43508977 -0.99453658 0.092298381 0.048765022 0.018365122
-0.04878268 0.0048059728 0.43646851 0.99518538 -0.091964372 0.033891726 0.020267174
0.048279319 0.0086296573 0.43786845 -0.98222882 -0.18615878 -0.023905642 0.016994473
-0.046783943 0.014700326 0.43632361 0.94885361 -0.31550205 -0.011630416 0.015794693
0.046788588 0.015026269 0.43535635 -0.95030606 -0.31121859 -0.0078415964 0.016025312
-0.042265665 0.025024528 0.43564755 0.85910112 -0.51177782 -0.0053581693 0.015567204
-0.039968625 0.028391114 0.43697774 0.80609649 -0.59171182 -0.0092515796 0.015633985
0.042249098 0.025057156 0.43455514 -0.842556 -0.53824598 0.01976314 0.015902821
-0.035547957 0.03382019 0.43524078 0.71265894 -0.70117229 0.021788433 0.020112589
-0.029116672 0.039411888 0.43903157 0.61601198 -0.78735298 -0.024587097 0.018508928
0.029132456 0.039399777 0.43621433 -0.60313046 -0.79762888 0.0046738223 0.019296918
0.034403518 0.034910191 0.43622869 -0.72947538 -0.6838395 -0.015140664 0.016417574
-0.023617392 0.04306623 0.43536758 0.48433149 -0.87480426 0.011853668 0.017349657
-0.016624732 0.046072848 0.4340255 0.33297527 -0.94292063 0.0053074141 0.012951905
-0.0036484317 0.048935063 0.43453887 0.061771311 -0.99754912 0.032861721 0.017233022
0.0050982032 0.048744213 0.43419096 -0.091924042 -0.99427229 0.05452298 0.020165795
0.014246394 0.046816252 0.43246061 -0.29901573 -0.95352012 0.037267957 0.015819298
0.023461068 0.043049932 0.43383181 -0.47187492 -0.87874657 0.071682304 0.018800579
-0.026248271 -0.04158581 0.44547859 0.53744817 0.83849496 -0.089864694 0.016591361
-0.014020032 -0.047024667 0.44568866 0.26471037 0.96172822 -0.07076221 0.020152226
-0.0056078983 -0.048677105 0.44539952 0.12486491 0.98713458 -0.09987025 0.015981324
0.0046525318 -0.048802882 0.44339663 -0.15802944 0.98586053 -0.055729102 0.015067236
0.013787367 -0.047010414 0.44544774 -0.25264761 0.96486294 -0.072172023 0.014001596
0.024041848 -0.042784542 0.44422096 -0.51432675 0.85563183 -0.057984266 0.017080395
-0.035231661 -0.033984262 0.4465895 0.71140969 0.69241095 -0.12026401 0.014474029
-0.029661041 -0.038994186 0.44269657 0.62271726 0.77886897 -0.074741654 0.01885906
0.028555874 -0.039842203 0.44832909 -0.60707116 0.78432798 -0.12764907 0.017004451
0.034426525 -0.035005305 0.44291782 -0.68591148 0.72708243 -0.029607451 0.018300069
-0.042447381 -0.02425934 0.44373131 0.86092889 0.50260663 -0.078664072 0.015285421
-0.039487626 -0.029017961 0.4422121 0.82332879 0.56408846 -0.062719323 0.016097022
0.042796794 -0.023930518 0.44651401 -0.86550659 0.49637455 -0.067162193 0.013717383
-0.046691142 -0.015301619 0.44514543 0.94595933 0.311508 -0.09013097 0.015026994
0.0462441 -0.016380873 0.44610867 -0.9377805 0.33728153 -0.082516253 0.014994162
-0.048646621 -0.0058394088 0.4449876 0.98776317 0.12562387 -0.092425987 0.015155642
0.048672602 -0.0054625985 0.44595468 -0.98822123 0.098976783 -0.11671532 0.016887974
-0.048747666 0.0050101015 0.4441205 0.98962295 -0.12061359 -0.078094557 0.018272819
0.049068585 0.0025430932 0.44438264 -0.99326921 -0.036821947 -0.10982019 0.01668133
-0.046952318 0.014173486 0.44615155 0.94478697 -0.31578591 -0.08750388 0.014915392
0.046240475 0.016347313 0.44494221 -0.9146412 -0.39013869 -0.10593906 0.016830666
-0.042833835 0.024094485 0.4449552 0.8663733 -0.4928346 -0.080693327 0.013710056
-0.039901178 0.02847901 0.44133878 0.83279377 -0.55048454 -0.058491927 0.013916886
0.04418822 0.021344176 0.44466498 -0.90524226 -0.41760781 -0.078358278 0.016321694
-0.033887781 0.035369743 0.44450015 0.70863611 -0.70353788 -0.053566642 0.019827113
-0.029060917 0.039451942 0.44977915 0.60587424 -0.77820075 -0.16528779 0.019776933
0.029301994 0.039269686 0.44040066 -0.61128569 -0.78958887 -0.053658713 0.016624574
0.03409493 0.0353515 0.44569936 -0.70141476 -0.70642126 -0.094796583 0.017783176
-0.025330905 0.042078506 0.44627181 0.51506466 -0.85169369 -0.09657301 0.014802382
-0.013924279 0.047057778 0.44697982 0.25637707 -0.96151423 -0.098799348 0.014722572
-0.0048651304 0.048774883 0.44517937 0.090410747 -0.99039769 -0.10458606 0.013630828
0.005376142 0.048707616 0.44464126 -0.14921525 -0.98603016 -0.074022993 0.016080931
0.015663402 0.046464015 0.4442153 -0.32110447 -0.94439304 -0.070807144 0.015343267
0.02320013 0.043302808 0.44515896 -0.43544438 -0.89466983 -0.099770077 0.01872514
-0.021008015 -0.043799974 0.45015627 0.45694867 0.8747831 -0.16109754 0.016586449
-0.012929218 -0.043437064 0.4536117 0.25177494 0.95573854 -0.15222749 0.015920075
-0.0060286969 -0.04517407 0.4527359 0.10265104 0.98107517 -0.16417737 0.013950611
0.0054162322 -0.044003062 0.4545598 -0.099036403 0.98516488 -0.14014994 0.011682775
0.014927432 -0.043574829 0.4520635 -0.29128042 0.94823986 -0.12647906 0.017272022
-0.032931805 -0.03131742 0.45361573 0.73582268 0.652556 -0.18092988 0.014508832
-0.024970215 -0.03602137 0.45483556 0.60413063 0.77770263 -0.17379519 0.016563188
0.016913526 -0.039777935 0.45949057 -0.45354393 0.87782764 -0.15400203 0.024114052
0.02522639 -0.035798989 0.45522356 -0.59619534 0.78501272 -0.16824432 0.017401274
0.033266813 -0.033073183 0.45143911 -0.71562767 0.67792815 -0.16819789 0.014410444
-0.040855326 -0.023034547 0.45166805 0.85942346 0.48405758 -0.1645588 0.013950072
-0.037213419 -0.024505483 0.45479855 0.83273941 0.52153766 -0.18585891 0.017459344
0.03628372 -0.0251766 0.4558517 -0.75900328 0.62553191 -0.18062066 0.019531388
0.042334914 -0.024077471 0.45029536 -0.86947304 0.47034562 -0.15096898 0.016208099
-0.042370092 -0.01529901 0.45422211 0.92290258 0.35294682 -0.15388079 0.020582138
-0.039639562 -0.017247565 0.45804781 0.90381008 0.40323767 -0.14327192 0.016347406
0.038610369 -0.019732539 0.45835593 -0.8593573 0.49180526 -0.14011654 0.024215631
0.042975467 -0.014544585 0.45324415 -0.93839139 0.30588275 -0.16080232 0.023425478
-0.044434194 -0.0046518091 0.4539431 0.97918385 0.12262338 -0.1617482 0.018010372
0.045587599 -0.0059742178 0.4521212 -0.9823339 0.11243076 -0.1495975 0.016502205
-0.044165254 0.0043105492 0.45474502 0.98548931 -0.059607629 -0.15892689 0.020989858
0.044571873 0.0053663347 0.45475042 -0.98708081 -0.048449058 -0.15272255 0.017409068
-0.043145385 0.013564344 0.45354092 0.92774266 -0.33523104 -0.16405404 0.018184809
-0.0398513 0.016736383 0.4554075 0.88780612 -0.43278146 -0.15652616 0.015040429
0.039481893 0.017628485 0.45880347 -0.88465452 -0.44624212 -0.1351088 0.019713437
0.043785919 0.013825148 0.45220217 -0.93846923 -0.30582246 -0.16046225 0.018817555
-0.042796422 0.02138867 0.4507637 0.89104247 -0.42621061 -0.15616591 0.014673553
-0.035129212 0.027377361 0.45502695 0.78367394 -0.59648991 -0.17336382 0.019564288
0.036164328 0.024651498 0.45609143 -0.77987695 -0.60421568 -0.1634486 0.016782049
0.042560991 0.020253325 0.45127052 -0.88942957 -0.42678937 -0.1636028 0.01521929
-0.031228328 0.034819037 0.45161054 0.65706754 -0.73227835 -0.17897131 0.019876799
-0.025461758 0.03674059 0.45366207 0.61133808 -0.77070516 -0.17966448 0.019715788
0.019391216 0.038751666 0.45898813 -0.434551 -0.88568884 -0.16346499 0.023607045
0.02647358 0.035861827 0.45504558 -0.63620961 -0.75172001 -0.17365018 0.016940845
0.031378035 0.034201313 0.4519206 -0.67893106 -0.71487796 -0.16733839 0.013735114
-0.024928514 0.040584989 0.4510358 0.57092911 -0.80673873 -0.15235645 0.01655071
-0.014283173 0.041852828 0.45433041 0.29258606 -0.9397912 -0.17659564 0.01883797
-0.0037515319 0.044050511 0.45539823 0.08982373 -0.98341739 -0.15754959 0.015404274
0.0056902231 0.044843175 0.45400339 -0.16522284 -0.97173262 -0.16863312 0.01634131
0.014194908 0.043080661 0.4533276 -0.31060135 -0.93479258 -0.17230661 0.020931587
0.020906216 0.043561589 0.45035776 -0.39993796 -0.90436262 -0.14892228 0.014494433
-0.011988861 -0.041764665 0.46881136 0.30084035 0.9462539 -0.11873778 0.023606641
-0.0045105824 -0.043001704 0.4640328 0.076318316 0.98949081 -0.12281473 0.022239946
0.0033323059 -0.043156844 0.46478748 -0.06315773 0.99310923 -0.098717719 0.019270716
0.012852102 -0.041400407 0.4633891 -0.2877233 0.9504537 -0.11769874 0.025706723
-0.030811904 -0.030809587 0.46484721 0.71791875 0.67691469 -0.16241649 0.021448761
-0.025232663 -0.035028223 0.46462503 0.60809082 0.78370404 -0.1266239 0.027308378
-0.018382678 -0.039169364 0.4682793 0.44456315 0.8882938 -0.11531556 0.019579085
0.01887738 -0.038964484 0.46390185 -0.46822971 0.87804937 -0.098945335 0.028026665
0.02382363 -0.036116213 0.46375653 -0.53721154 0.83636266 -0.10909281 0.022940805
-0.03486076 -0.025519902 0.46541533 0.77839309 0.61216074 -0.13915257 0.019042723
0.035407037 -0.024838842 0.46395177 -0.77911949 0.61573541 -0.11765502 0.020060617
-0.041056409 -0.013770754 0.46661916 0.93404222 0.34053037 -0.10772315 0.023537414
-0.038984217 -0.018829715 0.4644056 0.88506544 0.44252485 -0.1443287 0.021431744
0.038742468 -0.019413626 0.46135038 -0.8644349 0.48446581 -0.1343324 0.026675083
0.041861575 -0.011709772 0.46526229 -0.96674472 0.23397009 -0.10325985 0.020512234
-0.04304577 -0.0041758344 0.46618372 0.9905628 0.10648712 -0.086289607 0.019973058
0.043032497 -0.0042770361 0.46520489 -0.99123925 0.089335345 -0.09728273 0.015496424
-0.042908914 0.005215426 0.46568686 0.97899121 -0.15727527 -0.12977175 0.022598036
0.042997118 0.0045458218 0.46387231 -0.9849149 -0.10756924 -0.13554186 0.024470517
-0.041122422 0.013667596 0.46774349 0.94177914 -0.31387496 -0.12055943 0.020904941
-0.039453875 0.01769585 0.46373597 0.89575088 -0.41878998 -0.14914867 0.017133018
0.04121859 0.01336996 0.46350858 -0.93519938 -0.3233932 -0.14428796 0.025045838
-0.033526491 0.027308259 0.46599373 0.77056855 -0.62285644 -0.13518097 0.020314137
0.034873683 0.025552643 0.46478686 -0.77312887 -0.62575275 -0.10346565 0.01828702
-0.030968232 0.030610424 0.4648321 0.70867711 -0.69197381 -0.13765553 0.019481709
-0.025253061 0.035014097 0.4659774 0.62548065 -0.76842934 -0.13524167 0.019034427
-0.018063841 0.039301459 0.46302381 0.38277295 -0.91438979 -0.13181873 0.017009394
0.019046757 0.038894348 0.46948773 -0.42919296 -0.89692038 -0.10642941 0.021306515
0.025186447 0.035056852 0.46563065 -0.61489159 -0.77983218 -0.11734625 0.017955886
0.030221013 0.031291459 0.46298403 -0.68049937 -0.72139293 -0.1285021 0.02343124
-0.013937115 0.041010853 0.46800277 0.31596345 -0.94356143 -0.099292092 0.023333041
-0.0063104411 0.04276479 0.46486256 0.14397956 -0.9861775 -0.081998959 0.021338599
0.0048515205 0.04295687 0.46561795 -0.12818359 -0.9858979 -0.10758424 0.019514939
0.013399635 0.041233499 0.46568885 -0.30317262 -0.94755441 -0.10112855 0.026864134
-0.013981485 -0.040967613 0.47526646 0.31201237 0.93977433 -0.13954386 0.025861414
-0.005084021 -0.042926207 0.47460634 0.098710001 0.98736584 -0.12395629 0.018649647
0.0046483539 -0.042983577 0.47454652 -0.10509163 0.989241 -0.10177457 0.014208719
0.014056113 -0.040961504 0.47476956 -0.31195641 0.93572932 -0.16460235 0.02307201
-0.031330109 -0.030170657 0.47891286 0.70983094 0.66891336 -0.22066915 0.025371369
-0.02462709 -0.035488989 0.47328261 0.61574322 0.77696717 -0.13108154 0.016772332
-0.018441185 -0.039145127 0.47678232 0.43864426 0.88091946 -0.17768556 0.019469265
0.018358542 -0.039179392 0.47367454 -0.4250983 0.89344847 -0.1450564 0.018725418
0.026461903 -0.034130856 0.47381157 -0.63772506 0.75782347 -0.137878 0.022461571
-0.035326455 -0.024815105 0.47705495 0.78699833 0.58699751 -0.18991446 0.026407514
0.035442229 -0.024719549 0.4755747 -0.77023226 0.61990476 -0.14986812 0.019921536
-0.041676857 -0.011956947 0.47221518 0.94217354 0.31242949 -0.12123056 0.020040315
0.039423816 -0.017768705 0.47220629 -0.91804647 0.37552541 -0.12716618 0.019046975
