# .PCD v0.7 - Point Cloud Data file format
VERSION 0.7
FIELDS x y z normal_x normal_y normal_z curvature
SIZE 4 4 4 4 4 4 4
TYPE F F F F F F F
COUNT 1 1 1 1 1 1 1
WIDTH 592
HEIGHT 1
VIEWPOINT 0 0 0 1 0 0 0
POINTS 592
DATA ascii
-0.11586893 -0.074542664 0.25186425 0.20126577 0.27660698 -0.9396705 0.17183094
-0.10577616 -0.073686153 0.25560623 0.21767911 0.45854282 -0.8615998 0.1721772
-0.093492039 -0.077540107 0.25978348 0.63723999 0.18512456 -0.74810034 0.19127527
0.11725771 -0.075757988 0.25119248 -0.486498 0.09229932 -0.86879253 0.20048685
0.16498537 -0.076703258 0.25503221 -0.40102687 0.048099417 -0.91480261 0.16578048
0.17531529 -0.072678909 0.25089383 -0.36302766 -0.015473169 -0.93164986 0.15590927
-0.16130565 -0.065575093 0.25846815 0.31367189 0.072990425 -0.94672197 0.17806318
-0.12226547 -0.062469862 0.25202969 0.32907164 -0.0035780463 -0.94429815 0.17514446
-0.10925438 -0.063183993 0.25753868 0.24314846 0.17452013 -0.95416015 0.16964979
0.11686679 -0.066714399 0.25338608 -0.43217731 0.15288591 -0.88873428 0.17829086
0.12250767 -0.062320456 0.25196362 -0.4614937 0.012266538 -0.88705868 0.21088715
0.16662964 -0.060945604 0.2571032 -0.40874672 0.13217722 -0.90302575 0.18241085
0.17272201 -0.068740152 0.25297385 -0.39412117 0.17109831 -0.90299165 0.17290089
-0.18344477 -0.053816784 0.25073797 0.38921854 0.03694969 -0.92040408 0.12373486
-0.17691527 -0.051926654 0.25433815 0.37561277 0.039948333 -0.9259153 0.15245348
-0.16530763 -0.051674429 0.25917178 0.13206597 0.068933718 -0.98884106 0.16863135
-0.12686729 -0.055285905 0.25145727 0.3589063 0.010505484 -0.9333145 0.15391836
-0.11819796 -0.056019854 0.25468907 0.37319282 0.082344353 -0.92409223 0.21771084
0.13274814 -0.050207801 0.25026965 -0.30474058 0.12028517 -0.94480932 0.20891139
0.16775239 -0.050432093 0.25839835 -0.36317214 0.10091639 -0.92624068 0.17680414
0.17996036 -0.050447032 0.25314069 -0.32347727 0.17996001 -0.92896551 0.16594392
-0.17311037 -0.045339115 0.25698176 0.37093312 -0.063894249 -0.9264589 0.18428236
-0.16897812 -0.04825642 0.2582683 0.068346672 0.26655746 -0.9613927 0.17784978
-0.13580082 -0.044916078 0.25002971 0.32658312 -0.0074402229 -0.94513923 0.15273337
0.11763336 -0.049191374 0.25626269 -0.31942654 0.086726002 -0.94363415 0.17755622
0.13488242 -0.046066973 0.25015289 -0.11284786 0.22060698 -0.96881258 0.21623018
0.17660217 -0.042828269 0.25559661 -0.41543004 0.20598885 -0.88599467 0.17706917
-0.18070808 -0.03580001 0.25406367 0.47959009 0.060664926 -0.87539309 0.15618242
-0.17759091 -0.033962172 0.25569963 0.59564435 0.10467485 -0.79639876 0.16130538
-0.13223943 -0.035931796 0.25240284 0.2994574 0.42037261 -0.85651159 0.16512768
-0.11993212 -0.039910376 0.25699991 0.71172076 0.01524436 -0.70229703 0.19561671
0.11910502 -0.039510317 0.25752869 -0.12254368 0.48526415 -0.86573768 0.16781446
0.12694502 -0.03448046 0.25478974 -0.27503654 0.25235301 -0.9277246 0.19439065
0.13771532 -0.031024799 0.25070667 -0.37641498 -0.13742143 -0.91620249 0.17306012
0.17332266 -0.036405262 0.25739679 -0.088141665 0.055924229 -0.99453688 0.19247417
0.18311702 -0.032401472 0.25302732 -0.36964568 0.24908735 -0.89516342 0.15524004
-0.18728635 -0.023356831 0.25145361 0.58596289 -0.007062234 -0.81030715 0.13574819
-0.17306837 -0.020033373 0.25843298 0.40501714 -0.098702513 -0.90896583 0.18830767
-0.13466641 -0.024567803 0.25212085 0.33482945 0.23765947 -0.91181529 0.1787609
-0.12204012 -0.024280736 0.25813118 0.4516679 -0.064958036 -0.88981825 0.20160399
0.12120561 -0.026566401 0.25841266 -0.34267601 0.10619085 -0.9334327 0.20181683
0.13307664 -0.028620694 0.25250196 -0.57552105 -0.01540153 -0.81764191 0.18346806
0.17424408 -0.0247878 0.25765824 -0.25152963 0.27998078 -0.92646837 0.13667944
0.18635334 -0.025913659 0.25176874 -0.47493893 0.29632771 -0.82862711 0.14041506
-0.1755998 -0.013701634 0.25770286 0.50656867 -0.081747748 -0.85831547 0.17538805
-0.12664074 -0.016855765 0.25613171 0.38466337 0.13633585 -0.91293293 0.15618564
0.13023612 -0.010705054 0.2547434 -0.36856592 0.22287777 -0.90248811 0.19251189
0.17862229 -0.01554805 0.25629863 -0.45325574 0.13854466 -0.88054794 0.13997625
0.18594226 -0.019882467 0.25240543 -0.41147435 0.15789571 -0.89764011 0.13000426
-0.19010735 -0.0078252694 0.2510435 0.60766423 -0.03774903 -0.7932964 0.14712983
-0.17247106 -0.0049415645 0.25954425 0.51805109 -0.034897618 -0.85463756 0.15892804
-0.14281601 -0.00054456346 0.25033492 0.40819418 -0.10597274 -0.90672338 0.19744165
-0.13520941 -0.0047932062 0.25289679 0.2874288 -0.32739413 -0.90010983 0.19784696
-0.12614158 -0.0020939042 0.25742581 0.21518189 -0.17440152 -0.96087503 0.19865049
0.12642264 -0.0041111652 0.25711113 -0.18136388 0.28770322 -0.94039029 0.1650929
0.14236195 -0.0028854739 0.25038415 -0.13109675 0.31791356 -0.93901253 0.20476192
0.17597423 -0.0046497481 0.25805432 -0.47983298 0.13385235 -0.86708933 0.14020611
0.18280163 -0.0064197304 0.25498787 -0.5099951 0.039540973 -0.85926795 0.13014422
-0.1906614 0.0087091476 0.2506893 0.66923237 0.10383769 -0.73576206 0.1536139
-0.17902151 0.0045932666 0.25674713 0.43707466 -0.097323336 -0.89414424 0.16953047
-0.12168728 0.0059041115 0.25975674 0.36475608 0.060949359 -0.92910606 0.15764347
0.12675245 0.0012276882 0.2571398 -0.27530479 0.14265241 -0.95071423 0.22498131
0.13143052 0.002975883 0.2546753 -0.16203403 0.57934201 -0.7988165 0.20763385
0.14158162 0.0024629897 0.25066617 -0.040331405 0.37154138 -0.92753994 0.2210606
0.17355809 0.004067156 0.25912631 -0.55761087 -0.057302769 -0.82812226 0.11357453
0.18610196 0.0033118972 0.25347367 -0.51764148 -0.17599592 -0.8373009 0.12646022
-0.18615691 0.015554788 0.25259301 0.70847219 0.17905056 -0.68264788 0.14409903
-0.13069217 0.012291547 0.25444335 0.32241514 -0.12765712 -0.93795109 0.21785712
-0.12495456 0.015341704 0.25718057 0.30088863 -0.13160497 -0.94453496 0.17791602
0.17677018 0.010955292 0.25735506 -0.5584625 -0.19610627 -0.80601609 0.13246
-0.17611489 0.023234485 0.25694168 0.41938075 0.10143503 -0.90212572 0.1567481
-0.14103357 0.021367649 0.25004002 0.30442014 -0.036975008 -0.95181996 0.18209222
-0.12657765 0.024377707 0.25569358 0.34993505 -0.047323473 -0.93557781 0.18868178
0.12079021 0.023585834 0.25887769 -0.11137781 0.025073575 -0.99346185 0.16114357
0.13985412 0.025173318 0.25024027 -0.51239544 0.41409162 -0.75231582 0.15044376
0.17646545 0.022117829 0.25685418 -0.49806529 -0.2053073 -0.84248435 0.11811642
-0.18322776 0.036771726 0.25266483 0.47040191 0.0010161002 -0.88245177 0.15266378
-0.17741446 0.036071688 0.25565609 0.34220272 -0.070548117 -0.93697399 0.16057816
-0.13607633 0.031550054 0.25123161 0.18424366 -0.014934694 -0.98276711 0.19611858
-0.12441608 0.036943339 0.25545913 0.40817428 -0.064744242 -0.91060525 0.21988037
-0.11766348 0.035646521 0.25916055 0.36918372 -0.044675551 -0.92828196 0.17058793
0.174463 0.030961452 0.25721461 -0.59511977 -0.017987346 -0.80343568 0.16073224
-0.17444733 0.044779703 0.25641367 0.48955977 -0.061720077 -0.86978263 0.14963315
-0.1283972 0.042924892 0.25274932 0.46058363 0.22063094 -0.85975856 0.16173147
0.11293872 0.049733125 0.25856507 -0.066308573 -0.19277498 -0.97899997 0.14692207
0.16837913 0.047426403 0.2586461 -0.52443159 -0.066288158 -0.84886825 0.1495502
0.1787053 0.040833775 0.25477171 -0.41083112 0.25293323 -0.87592387 0.16015609
0.1871959 0.042557728 0.25016585 -0.31080604 0.19769153 -0.92968684 0.16421987
-0.18127567 0.051443283 0.25228992 0.45247123 -0.18107647 -0.87320167 0.14997043
-0.16358683 0.055755392 0.25918397 0.41459769 -0.13758956 -0.89954317 0.18969384
-0.12425921 0.05911094 0.25184786 0.25850514 0.03888033 -0.96522713 0.18468556
0.11876585 0.056110643 0.2544345 -0.072742604 -0.48054677 -0.87394696 0.12782548
0.12021111 0.052685589 0.25442332 -0.044663474 -0.40060514 -0.91516155 0.13797697
0.16660565 0.050674092 0.2588177 -0.47206667 -0.10943902 -0.87474346 0.1551301
0.17182919 0.059080496 0.25532925 -0.4446359 -0.20630772 -0.8716284 0.14673255
0.18227167 0.051579971 0.25177172 -0.47539428 -0.060739066 -0.87767369 0.15925851
-0.17389995 0.06208761 0.25375056 0.41278684 -0.21666013 -0.88468379 0.16430126
-0.16344891 0.065276958 0.25765881 0.40267181 -0.26526621 -0.87606466 0.17040147
-0.15859121 0.06936086 0.25892752 0.54201865 -0.13056669 -0.83016145 0.15338229
-0.11103386 0.068045259 0.2552256 -0.089308761 -0.42515031 -0.90070587 0.12680437
-0.10674664 0.067786157 0.25706717 0.034505345 -0.35088375 -0.93578315 0.14439513
0.10557994 0.063637629 0.25907111 -0.66302365 0.1230671 -0.73841327 0.18081784
0.11410856 0.065391846 0.25466779 -0.27379429 -0.37052193 -0.88755286 0.21623617
0.12103301 0.064631768 0.25215316 -0.15908362 -0.37712935 -0.9123956 0.20966895
0.16405827 0.062424701 0.25788811 -0.47200474 -0.23279721 -0.85030407 0.14322722
-0.1768579 0.07013344 0.25065345 0.46083069 0.05941084 -0.88549727 0.12716049
-0.16426665 0.074146807 0.2558589 0.44308177 -0.0052877297 -0.8964656 0.14240827
-0.15581973 0.075037256 0.25909597 0.52539366 0.01183793 -0.85077685 0.13055237
-0.10792001 0.075472742 0.25427014 -0.035610713 -0.37365818 -0.92688262 0.14149058
0.099023044 0.077917062 0.25704411 -0.47960946 -0.23253755 -0.84610939 0.20973527
0.10989019 0.07200899 0.25451639 -0.51527715 0.043185696 -0.85593486 0.24093693
0.11412054 0.075182937 0.25225115 -0.55761868 0.05952936 -0.8279599 0.1958698
0.12084761 0.072280705 0.25094363 -0.11684981 -0.11300738 -0.98669922 0.21299148
0.15843162 0.077048101 0.25771555 -0.27807295 -0.44469768 -0.85142201 0.15680927
0.16947195 0.073523894 0.25359845 -0.41347039 -0.35565019 -0.83818561 0.14801516
-0.16659783 0.084444605 0.25278637 0.46796641 -0.1328143 -0.8737092 0.14721848
-0.1547417 0.083985761 0.25804263 0.41676098 -0.29340339 -0.86036313 0.1337375
-0.09040875 0.081875421 0.25965822 0.45537546 -0.7744894 -0.43908912 0.26751843
0.10807827 0.08299014 0.25226736 -0.34594813 -0.074227527 -0.93531287 0.20320553
0.11246459 0.080391616 0.25152662 -0.60783613 0.074495614 -0.79056031 0.2042243
0.16973419 0.086161889 0.25089198 -0.39675021 -0.39190659 -0.83005941 0.15980358
-0.16505098 0.095020436 0.2509433 0.3661148 -0.16937327 -0.91502607 0.1414734
-0.15078676 0.098061964 0.25621191 0.24123761 -0.31869248 -0.91664577 0.14627428
-0.14504105 0.096524201 0.25859505 0.34643602 -0.44872078 -0.82379109 0.16260625
-0.10099916 0.098300204 0.25091204 0.15852746 -0.22998205 -0.96019655 0.19593456
-0.093701027 0.093042865 0.25453418 0.21487239 -0.14172414 -0.96630436 0.20498312
-0.085381329 0.094239444 0.25668299 0.30308604 -0.61468887 -0.72821456 0.23549597
0.085509807 0.095571309 0.25607005 -0.29509756 -0.50296456 -0.81236941 0.24123351
0.091630794 0.093894303 0.25485566 -0.24476433 -0.091121927 -0.9652912 0.20616673
0.15599152 0.096700996 0.25470892 -0.45259985 -0.38281342 -0.80536157 0.15400432
-0.15108383 0.10663499 0.25356105 0.35929084 -0.26985845 -0.89335692 0.14697349
-0.089321755 0.10276261 0.25241122 0.11175137 -0.33215806 -0.9365803 0.16053206
-0.074371532 0.10835601 0.25441572 0.24641156 -0.3749961 -0.89367735 0.19809662
-0.067329116 0.10540328 0.25784755 0.031689845 -0.43294752 -0.90086192 0.233279
0.064442575 0.10590408 0.25858688 -0.21850635 -0.39524949 -0.89220667 0.13631362
0.0777165 0.10402709 0.25506234 -0.22729915 -0.23263188 -0.94563073 0.23216121
0.084369361 0.10534823 0.25280595 0.11894847 -0.32716295 -0.93745166 0.2009986
0.093243837 0.10468602 0.25100282 -0.13409671 -0.17468761 -0.97544986 0.18685995
0.14429229 0.10408467 0.25682589 -0.53781039 -0.22341457 -0.81292433 0.16588934
0.15464802 0.10689645 0.25196937 -0.3558515 -0.10435861 -0.92869747 0.15967046
-0.14348373 0.11432087 0.25426447 0.46478802 -0.22242714 -0.85702872 0.12981559
-0.13444883 0.11437453 0.25752664 0.5642767 -0.24210155 -0.78929001 0.13112345
-0.08423844 0.11416449 0.25028652 0.29873821 -0.19358875 -0.9344939 0.21686028
-0.067239329 0.11136136 0.25534475 0.17047024 -0.38929248 -0.90520239 0.18053216
-0.045136716 0.11896073 0.25643066 0.26003891 -0.23057964 -0.93766344 0.20424008
0.058591511 0.11748368 0.25454155 -0.11090554 -0.076017879 -0.99091941 0.1842767
0.064603336 0.11750817 0.2534841 0.15535863 0.22582418 -0.96170008 0.23726466
0.074186295 0.11146659 0.25334385 -0.10243849 -0.41018289 -0.906232 0.22523969
0.12433982 0.11859789 0.25989008 -0.29658684 -0.210244 -0.93157589 0.15641841
0.13058659 0.11418949 0.25890455 -0.43592367 -0.035975244 -0.89926428 0.1532732
0.14898013 0.11726265 0.25100276 -0.42666256 -0.13122353 -0.89484036 0.14931954
0.15059276 0.1142158 0.25130939 -0.43176696 -0.045442354 -0.90083975 0.14192128
-0.1403219 0.12700966 0.2515012 0.49686077 -0.13231732 -0.85768378 0.14546864
-0.13580397 0.12661833 0.25353825 0.52403802 -0.15612525 -0.83726287 0.15026158
-0.1246364 0.1222143 0.2587983 0.23598297 -0.29860145 -0.92474282 0.16387591
-0.060597219 0.12177339 0.25249422 0.36767364 -0.4344404 -0.82223934 0.19145423
-0.051813643 0.12708637 0.25188059 0.58587509 -0.43214336 -0.68556726 0.14016417
-0.04717312 0.12226784 0.25451863 0.70713562 -0.28147 -0.64864004 0.17821023
-0.017401399 0.12116194 0.25913242 -0.097547732 -0.36870772 -0.92441279 0.1805875
-0.0035600197 0.12882355 0.2559104 -0.17621832 -0.38309267 -0.90674537 0.22895418
0.011236256 0.12955931 0.25501728 -0.19505739 -0.4466148 -0.87320548 0.21771145
0.026533078 0.12498033 0.25632951 -0.097118281 -0.63241887 -0.76851434 0.20924598
0.048892193 0.12374121 0.25367585 -0.2338891 -0.14507289 -0.96137911 0.22870158
0.05157933 0.12900135 0.2512691 -0.20725363 -0.44160622 -0.87294322 0.21987091
0.068253949 0.12180842 0.25137082 -0.038452864 0.29445493 -0.9548915 0.24720232
0.12347349 0.12929858 0.25689641 -0.32958749 -0.21670918 -0.91891742 0.13674541
0.13218904 0.12846184 0.25446856 -0.43451068 -0.15697029 -0.88688266 0.13916062
0.14319862 0.12434384 0.25114983 -0.5448727 -0.07994999 -0.83469856 0.15789478
-0.12457782 0.13296273 0.25529104 0.24920161 -0.33420667 -0.9089579 0.13422936
-0.11453847 0.13512728 0.25724992 0.24491519 -0.35908028 -0.90059859 0.13362633
-0.10620654 0.13355911 0.2599895 0.27211532 -0.18380617 -0.9445467 0.15708753
-0.054254599 0.13026145 0.25052446 0.46869648 -0.41217455 -0.78130394 0.12220265
-0.01724039 0.13362995 0.25288445 -0.38356948 -0.53332442 -0.75394922 0.18945065
0.018410536 0.13764662 0.25128546 -0.17499681 -0.5284906 -0.83070678 0.20373328
0.10984759 0.1318801 0.25960588 -0.1250484 -0.40288261 -0.90666884 0.15367663
0.1272421 0.13143913 0.25509867 -0.42554101 -0.35769758 -0.83124441 0.14031173
0.13424283 0.1310824 0.2527501 -0.39876789 -0.34474441 -0.84978551 0.15472876
-0.12463128 0.14488606 0.25034314 0.33303228 -0.28568423 -0.89859569 0.14028686
-0.11277387 0.14425509 0.25445658 0.33123335 -0.29284748 -0.89695305 0.13908017
-0.104081 0.14642605 0.25612319 0.11328388 -0.44163328 -0.89001507 0.16877496
-0.094402768 0.14795165 0.25815368 0.076531939 -0.42807746 -0.90049565 0.17571272
4.0923867e-05 0.14304148 0.25028124 0.19677988 -0.35639429 -0.91337872 0.21313894
0.010831906 0.14008591 0.25079909 -0.039120499 -0.2651867 -0.96340311 0.22292863
0.095902584 0.14599961 0.25842935 -0.44525516 -0.41673917 -0.7925126 0.1831487
0.10302973 0.14553097 0.25670874 -0.1565965 -0.50902861 -0.84638494 0.17084573
-0.11349619 0.15361616 0.25026459 0.23129752 -0.43249071 -0.8714661 0.15456511
-0.10890719 0.15674908 0.25042877 0.1024757 -0.49658972 -0.86191499 0.13251747
-0.09335079 0.15422286 0.25624534 0.14982663 -0.43430132 -0.88821983 0.15641576
-0.08621335 0.15490094 0.25760859 0.21186069 -0.3356089 -0.91786802 0.16319464
-0.070636511 0.15746649 0.25916651 0.10172544 -0.30017358 -0.9484449 0.16719028
-0.067200199 0.15800603 0.25952065 0.15908594 -0.25319961 -0.9542439 0.16905816
0.077516541 0.15732108 0.25808281 -0.26224738 -0.40190667 -0.87732399 0.14750779
0.088802844 0.15804243 0.25592044 -0.3582077 -0.49193001 -0.79353136 0.18323348
0.099088877 0.1506974 0.25597152 -0.31889203 -0.5110262 -0.79822302 0.16198599
-0.091502637 0.16116306 0.25402275 0.28210703 -0.50115377 -0.81808347 0.15464236
-0.085581318 0.16434023 0.25366503 0.33576605 -0.46151438 -0.82113677 0.1712354
-0.069959715 0.16976167 0.25418261 0.18268988 -0.30076367 -0.93603724 0.17152907
-0.052077997 0.16411665 0.25958204 0.29215336 -0.38037813 -0.87747306 0.17106774
0.027168201 0.16981201 0.2594294 -0.05975439 -0.4168798 -0.90699542 0.1532802
0.053047061 0.16669399 0.25838843 -0.29588136 -0.41554034 -0.86010492 0.14208329
0.076644987 0.16290735 0.25598899 -0.16572787 -0.47319731 -0.86522752 0.15939565
0.09046898 0.16902669 0.25036198 -0.2836493 -0.31314668 -0.90635651 0.15824211
-0.073191933 0.17226273 0.2522921 0.16525316 -0.374293 -0.91246706 0.1635977
-0.068647288 0.17390516 0.25241029 0.21422879 -0.38208115 -0.89895499 0.1646603
-0.054452725 0.17669705 0.25393045 0.043053593 -0.36060166 -0.93172574 0.15191819
-0.042972259 0.1718173 0.25767237 0.098522663 -0.34342605 -0.93399781 0.16528831
-0.031358562 0.17578359 0.25662425 0.091336131 -0.46036565 -0.8830182 0.16892901
-0.023435444 0.17457613 0.25759202 0.11530614 -0.49984393 -0.85840583 0.14203957
-0.017848615 0.17676957 0.25696507 -0.00070995995 -0.38625687 -0.92239106 0.1568713
-0.0059819515 0.17511894 0.25834674 -0.072156839 -0.33490092 -0.9394865 0.14194073
0.0055750269 0.17860553 0.25687045 -0.043037169 -0.32045498 -0.94628561 0.16399099
0.020396555 0.17995192 0.25545236 -0.12105042 -0.31065333 -0.94278383 0.15840046
0.040186778 0.1726042 0.25749165 -0.2037129 -0.30447868 -0.93048042 0.13218623
0.061760008 0.17824203 0.25167963 -0.24242903 -0.30026206 -0.92253506 0.16648751
-0.057155691 0.18205544 0.25074109 0.044534367 -0.33736381 -0.94032037 0.14540203
-0.045008216 0.18270096 0.25237024 0.12417208 -0.552154 -0.82444364 0.14452945
-0.031093933 0.18608266 0.25155142 0.033505999 -0.54792839 -0.83585399 0.13951416
-0.024232857 0.18417704 0.25303549 0.033129048 -0.54416025 -0.83832693 0.16131145
-0.0035741387 0.18741795 0.25276014 0.093264498 -0.58821273 -0.80331045 0.12399272
0.0076765423 0.18096887 0.25573519 0.012823605 -0.29756114 -0.95461667 0.14154556
0.015687911 0.18543784 0.25296372 -0.053129144 -0.40370524 -0.91334522 0.15968183
0.02366237 0.18639734 0.25190207 -0.10149514 -0.34076914 -0.93465239 0.14501154
0.031774156 0.18526624 0.25193545 -0.15606426 -0.39174783 -0.90674007 0.12393962
0.047131222 0.18423669 0.2514112 -0.15136701 -0.26501057 -0.95229065 0.11642634
0.0065659992 0.19156818 0.2503593 0.13619351 -0.473748 -0.87006557 0.13427024
-0.053169236 -0.1601339 0.26099685 0.17902696 0.4465417 -0.87666976 0.14212842
-0.024456318 -0.16514562 0.26158953 -0.16952637 0.46745038 -0.86761218 0.19531639
-0.016296037 -0.1647276 0.26223129 -0.286201 0.4570463 -0.84213877 0.17054053
0.026430666 -0.16499519 0.26154244 0.03950223 0.44350576 -0.89540058 0.1784353
0.038254287 -0.16128907 0.26246679 0.15714937 0.32465857 -0.93268478 0.16951439
-0.040288478 -0.15969042 0.26303908 0.17437758 0.32005462 -0.93121296 0.17855078
-0.033551276 -0.15710542 0.26457691 -0.11219694 0.42974088 -0.89595455 0.19725084
-0.012914631 -0.15921892 0.2648395 -0.068186782 0.6686911 -0.74040711 0.15881221
-0.0040332368 -0.15747662 0.26623398 -0.058928896 0.61883485 -0.78330761 0.18505582
1.7317092e-05 -0.15558481 0.26739326 -0.10534398 0.68072581 -0.72492409 0.17183825
0.013838933 -0.15159658 0.2684319 -0.127413 0.71908146 -0.68314546 0.20675738
0.020868964 -0.15592878 0.26591372 -0.0041564992 0.69984049 -0.71428704 0.17546357
0.03215415 -0.15540899 0.26545811 0.041333068 0.69050026 -0.72215027 0.18524952
0.045050688 -0.15757126 0.26337129 0.038261343 0.34165439 -0.9390465 0.16246672
0.055502251 -0.15624441 0.2621682 -0.13392441 0.43349472 -0.89114892 0.17831123
0.067552358 -0.15277511 0.26155832 -0.22452784 0.43499279 -0.87199116 0.17015837
-0.047719389 -0.1459482 0.26795173 0.56624436 0.40138647 -0.71990019 0.22045822
-0.03980267 -0.14718769 0.26886204 0.15610553 0.58168709 -0.79829264 0.17436911
-0.027876923 -0.14867519 0.2689459 0.24997127 0.53447998 -0.80736953 0.19523352
0.049293112 -0.14590743 0.26767898 -0.044801027 0.67850506 -0.73322839 0.17416777
0.055154577 -0.14062518 0.26895291 -0.23976322 0.6238187 -0.74388427 0.13268794
0.064710453 -0.14567536 0.26494244 -0.053164721 0.63039607 -0.77445096 0.17193004
-0.098497815 -0.13131276 0.26279786 0.27019861 0.46618491 -0.84241581 0.14112176
-0.080068894 -0.13489415 0.26666597 0.041850068 0.57189494 -0.81925863 0.17652328
-0.076422967 -0.13726787 0.26651949 0.033317067 0.61986381 -0.78400183 0.19244194
0.060959138 -0.13736312 0.26933572 -0.023912666 0.58995402 -0.80708271 0.1305137
0.075297214 -0.13885361 0.26601988 -0.27278256 0.47824115 -0.83479047 0.15290633
0.080758892 -0.13399112 0.26680917 -0.29150075 0.50564486 -0.81200409 0.158043
0.1043452 -0.13363919 0.2604534 -0.12674366 0.43268716 -0.89259052 0.13269021
-0.11766818 -0.12366505 0.26036772 0.41576219 0.43092662 -0.80090207 0.14652252
-0.10433163 -0.12296055 0.26413155 0.21748972 0.44132501 -0.870592 0.13185468
-0.091892444 -0.12679559 0.26629269 0.16830561 0.40709919 -0.89774352 0.16732337
-0.086735636 -0.12333 0.26913738 -0.079773277 0.43869981 -0.89508587 0.17494532
0.088621497 -0.12279148 0.26878917 -0.46897769 0.4233332 -0.77514446 0.13985056
0.092187159 -0.12326755 0.26755816 -0.31440854 0.47864074 -0.81978679 0.14950369
0.11838896 -0.12149656 0.26092362 -0.27432793 0.23147635 -0.93336105 0.14269283
-0.12584245 -0.11343993 0.26073489 0.32917815 0.28049642 -0.90164495 0.15921992
-0.11322579 -0.11897767 0.26315364 0.3243255 0.27943972 -0.9037292 0.11937935
-0.10500802 -0.11701347 0.26618469 0.30793235 0.15090622 -0.93936414 0.13111801
-0.043768287 -0.11248636 0.26023918 0.26591074 0.12893473 -0.95533615 0.20205383
-0.035867553 -0.11175692 0.26275274 0.15204397 0.97915876 -0.13465025 0.30074334
-0.026581742 -0.11480542 0.26258725 0.37723362 0.12784944 -0.91725093 0.19840957
-0.014659827 -0.1123784 0.26551268 0.19316457 -0.54676396 -0.81470037 0.23225597
0.0068714102 -0.11330865 0.26558805 -0.40133208 0.5137226 -0.75830179 0.23764908
0.017186791 -0.11492954 0.26337293 -0.29234195 0.52305299 -0.80059457 0.24724181
0.020325923 -0.11009283 0.26673269 -0.11027474 0.64249444 -0.75831425 0.26870215
0.03424238 -0.113365 0.2621341 -0.081502728 0.46698931 -0.88049889 0.23553795
0.042796202 -0.11197066 0.26078969 0.20068233 0.10303819 -0.9742226 0.20607615
0.10944405 -0.11621553 0.26518595 -0.17605336 0.26330778 -0.9485116 0.15042137
0.11024435 -0.1156002 0.26518643 -0.21362294 0.24158299 -0.94657427 0.16621791
0.1247445 -0.11130828 0.26167557 -0.5562858 0.12987706 -0.82077891 0.16914751
-0.13057637 -0.10794899 0.26055577 0.36178693 0.086672574 -0.92822307 0.16242914
-0.12100185 -0.10225795 0.26546487 0.20135126 0.162453 -0.96595377 0.16398169
-0.11514023 -0.10203036 0.26777828 0.30524099 0.085046016 -0.94846994 0.19086587
-0.10882197 -0.10833342 0.26834613 0.45840791 0.10775682 -0.88218516 0.16860701
-0.067414731 -0.10023999 0.26030928 0.1524501 0.4898921 -0.85834992 0.21105364
-0.05572056 -0.10188684 0.26385024 0.28514659 0.53494942 -0.79531163 0.10519326
-0.049893573 -0.10505104 0.26335001 0.3444224 0.48161894 -0.8058638 0.086488627
-0.02929993 -0.10556915 0.26941568 0.52847695 0.62739789 -0.57191253 0.24905898
0.0011739263 -0.10998365 0.26901793 -0.50603658 0.57795775 -0.64022785 0.21868305
0.019221263 -0.1066474 0.26986364 -0.22777364 0.87102401 -0.43524277 0.27062032
0.029871877 -0.10634711 0.26858732 -0.066853203 -0.60975069 -0.78976882 0.23301812
0.032840457 -0.10702833 0.26710832 0.25797412 -0.69947553 -0.66647077 0.21670155
0.044755995 -0.10394771 0.26564693 0.48104826 -0.70763743 -0.51753432 0.19242334
0.062212139 -0.10119219 0.2619032 -0.4152571 0.13798644 -0.89917815 0.19260283
0.11338644 -0.10257253 0.268291 -0.36218646 0.011572794 -0.93203378 0.14736259
0.12846822 -0.10345374 0.26246813 -0.40172121 0.15388979 -0.90273917 0.18515988
-0.14204757 -0.090407595 0.26124009 0.43874252 0.27261466 -0.85626292 0.17992125
-0.1261126 -0.093745053 0.26605383 0.30385861 0.18103608 -0.9353587 0.19249815
-0.065132216 -0.091299593 0.26650989 0.24765345 0.58194989 -0.774598 0.16182019
0.057989944 -0.095859647 0.26711261 -0.12488453 0.12439373 -0.98434246 0.21037173
0.067317143 -0.09373796 0.26392752 -0.29794705 0.31886581 -0.89975119 0.20140681
0.12965417 -0.09752661 0.26362503 -0.45550311 0.17119113 -0.8736192 0.15445237
0.13368747 -0.092347085 0.26360476 -0.41553006 0.20724699 -0.88565427 0.17396356
-0.074635796 -0.086087041 0.26519111 0.17712907 0.38263479 -0.90676123 0.2257366
-0.066679165 -0.089400142 0.26696682 0.24982911 0.56323266 -0.78762567 0.1628028
0.08415959 -0.083253302 0.26227212 -0.091801099 0.33428359 -0.93799096 0.2782419
0.12622598 -0.08440046 0.26871425 -0.52599859 0.34324521 -0.77814412 0.20028836
0.13684566 -0.087366596 0.26385888 -0.34095502 0.34136087 -0.87591231 0.14758936
0.14390343 -0.081931196 0.26272672 -0.39268529 0.18942034 -0.8999545 0.16585335
-0.14580208 -0.075568378 0.26305872 0.41742712 0.16733158 -0.89317113 0.17403255
-0.1387435 -0.078537628 0.26547 0.27360672 0.0024949147 -0.96183842 0.19582902
-0.090601586 -0.078380138 0.26093948 0.43574941 0.40528801 -0.80365664 0.23953474
-0.087944105 -0.078663409 0.26230103 0.47934997 0.41498137 -0.7733137 0.24695759
0.079781547 -0.077118196 0.26809424 -0.23816162 0.34218329 -0.90894967 0.23445725
0.08679904 -0.077447578 0.26344997 0.86892772 0.19723825 -0.45394036 0.24525803
0.13251746 -0.073210135 0.26923358 -0.66944194 0.34495282 -0.65791714 0.1636595
0.14733984 -0.07394509 0.26267523 -0.51308852 -0.049395025 -0.85691321 0.1529551
-0.1552867 -0.062735096 0.26135147 0.24301632 -0.071556471 -0.96737933 0.16836962
-0.14116132 -0.063469775 0.26717642 0.53718674 -0.26077262 -0.8021397 0.16024211
-0.093745261 -0.064627528 0.26520523 0.61524457 0.14639832 -0.77462357 0.21791768
0.088723838 -0.069323473 0.26610389 -0.95120955 0.10520401 0.29005596 0.20281966
0.091709673 -0.068199523 0.26475751 -0.31026876 0.36737344 -0.87679535 0.20143341
0.142804 -0.065702714 0.26603052 -0.57687145 -0.016627733 -0.81666559 0.1921462
0.15493476 -0.063630849 0.26134384 -0.23455414 0.16663016 -0.95771539 0.18369007
-0.10500862 -0.051757094 0.26292959 0.28765091 0.40371102 -0.86848962 0.21680792
-0.094299383 -0.059839245 0.26721162 0.841263 0.49000511 -0.22841084 0.231011
0.095518097 -0.054352924 0.2688781 -0.36875519 -0.25294414 -0.894449 0.22195365
0.10967842 -0.050209302 0.26032314 -0.43237624 0.0055849673 -0.901676 0.16202439
0.14754982 -0.054322664 0.26601622 -0.66233373 0.17694348 -0.72801453 0.22123352
0.15138628 -0.055706881 0.264081 -0.46750316 0.24077432 -0.85056955 0.17755653
-0.155604 -0.047534887 0.2638036 0.26105517 0.15721831 -0.95243508 0.18255171
0.10023248 -0.044181429 0.26874036 -0.79906595 0.58350432 -0.1449697 0.19828452
0.14318463 -0.044951007 0.26969692 -0.68047196 -0.38299951 -0.62471545 0.24349517
-0.16455533 -0.033287559 0.26134339 0.099895678 0.28476408 -0.95337832 0.16207175
-0.15479372 -0.033685833 0.26566339 0.31222472 0.39724904 -0.86296523 0.16210467
-0.11180332 -0.036370128 0.26258308 0.58274978 0.10831317 -0.80540115 0.18175007
-0.10765046 -0.035174128 0.26584348 0.38861087 0.1129761 -0.91444951 0.18695441
0.10279104 -0.038240947 0.2686604 -0.71187621 0.22966166 -0.66369259 0.22612339
0.11403263 -0.034140635 0.26176691 -0.46524298 0.12573561 -0.87620747 0.21988557
0.16391629 -0.036605723 0.26143038 -0.36738309 -0.01822122 -0.92989123 0.16082029
-0.16445887 -0.02708596 0.26173598 0.30006284 0.16350336 -0.93980265 0.18560156
-0.10776329 -0.027325615 0.26794708 0.3941409 -0.21006784 -0.89472032 0.23033261
0.10688546 -0.023877179 0.26911372 0.18782343 0.30670953 -0.93308717 0.24328572
0.11378419 -0.028840426 0.26304182 -0.41259217 0.1277761 -0.90190965 0.22956459
-0.16513686 -0.014994582 0.26212895 0.39748532 -0.087054119 -0.91346973 0.18831456
-0.15641257 -0.019917466 0.265742 0.55852658 -0.26403609 -0.78634155 0.21150102
-0.11594763 -0.015858034 0.26284704 0.45224833 0.14401884 -0.88018745 0.21499774
0.10742374 -0.014897726 0.2696777 -0.62111181 0.026115682 -0.78328675 0.17239234
0.15652281 -0.012692448 0.26614481 -0.42314774 0.22801235 -0.87690157 0.17112605
0.16275528 -0.010503081 0.26340741 -0.23140013 0.27291283 -0.93379474 0.15958497
-0.16161276 -0.0043414203 0.26424751 0.57880241 -0.13277529 -0.80458593 0.21484384
-0.15532419 -0.0092182979 0.26693791 0.6238476 -0.084080197 -0.77701008 0.18973012
-0.11825567 -0.0083336327 0.26178962 0.21020389 -0.010482749 -0.97760135 0.1755877
0.11258432 -0.0050107338 0.26643157 -0.35758555 0.12654918 -0.92526633 0.20985892
0.14993045 -0.0071508307 0.26965162 -0.36344647 0.25227144 -0.89680862 0.18601094
0.15907784 -0.0022983353 0.26557651 -0.30490035 0.35212943 -0.8848958 0.16943532
0.16629791 -0.0059309825 0.26214284 -0.14445741 0.40134338 -0.90446424 0.15027548
0.17086118 -0.0043816506 0.26026821 -0.20873737 0.26995373 -0.93997538 0.12123231
-0.16415776 0.0091797737 0.26287919 0.45134053 -0.13218166 -0.88250768 0.18706009
-0.11361711 0.0028176855 0.26590192 0.41610137 -0.067097053 -0.90683931 0.16203535
0.11429036 0.0054426705 0.26500136 -0.35193053 0.063911498 -0.93384165 0.25728241
0.12105799 0.0045961696 0.26027232 -0.33077145 -0.0015657258 -0.94370961 0.19046985
0.15887468 0.0036911427 0.26558599 -0.26063803 0.29000467 -0.92085022 0.17050537
0.16520086 0.0013015555 0.26287666 -0.24653557 0.33262545 -0.9102639 0.15405861
-0.1693534 0.017111462 0.26019591 0.40194154 0.11963484 -0.90781635 0.16779986
-0.14908981 0.018719602 0.26932472 0.62750041 -0.07137727 -0.7753377 0.22761855
-0.10845589 0.013079023 0.26898327 0.61277944 -0.13864553 -0.7779966 0.12720145
0.11245049 0.017554831 0.26515362 -0.7620979 -0.56506115 0.31608963 0.17274493
0.14867839 0.011836787 0.26995581 -0.36091232 0.1179663 -0.92510873 0.15537852
0.15414974 0.015907388 0.2670787 -0.50452232 -0.024367698 -0.86305469 0.13448836
0.16458291 0.014244564 0.26240966 -0.46514067 -0.20486887 -0.86120439 0.14032727
-0.15648846 0.025436461 0.26537585 0.54106104 -0.017476313 -0.84080172 0.23105752
-0.11508918 0.024840789 0.2625885 0.4896746 -0.054459542 -0.87020284 0.13835466
-0.10735053 0.026046995 0.26845607 0.59187412 -0.11412176 -0.79791057 0.11177821
0.10740075 0.026084701 0.26840779 -0.83304679 -0.29908872 -0.46538052 0.18171114
0.11046584 0.026394516 0.26580408 0.35727957 0.061099369 -0.93199694 0.18227118
0.15832837 0.020102406 0.26481283 -0.56425571 -0.082981892 -0.82141924 0.1302124
0.16510138 0.024037454 0.26163229 -0.54584807 -0.16931261 -0.8205992 0.11765231
-0.16238573 0.034926016 0.26218361 0.32457709 -0.23304974 -0.91669923 0.19881207
-0.15383069 0.030984005 0.2662808 0.50455248 -0.0086216433 -0.86333799 0.21852601
-0.11114033 0.036693871 0.26293558 0.46858761 0.0423938 -0.88239926 0.14095727
0.10221898 0.039397288 0.26873639 -0.61049533 -0.22094141 -0.76057893 0.15666707
0.11087696 0.030055653 0.26502657 -0.20542879 -0.11579095 -0.97179812 0.19266829
0.15779994 0.039551858 0.26389375 -0.53163618 -0.097970054 -0.84128755 0.12745599
0.16029902 0.037799831 0.26291829 -0.60284215 -0.006093638 -0.79783726 0.12731776
-0.16075778 0.04299866 0.26242664 0.33474281 -0.096963733 -0.93730742 0.19451539
-0.15935656 0.041257974 0.26312774 0.38877824 -0.13286269 -0.91170114 0.18815289
-0.14928338 0.041129842 0.26768139 0.61533511 0.076856226 -0.7845099 0.19964707
-0.1039257 0.042466521 0.26637888 0.54160166 -0.16430499 -0.824422 0.1721926
0.10160272 0.044369418 0.26757306 -0.69882786 -0.1589749 -0.6973998 0.15478808
0.14788434 0.045194618 0.2675544 -0.5957312 -0.095526792 -0.79748285 0.12183312
-0.1525266 0.056744993 0.2634517 0.61342794 -0.12005311 -0.78057247 0.17864692
-0.147588 0.052388478 0.26635674 0.3492648 0.015491703 -0.93689603 0.19738357
-0.10262953 0.053426992 0.26402804 0.35535979 -0.19904041 -0.91329199 0.14595105
-0.099912651 0.052825637 0.26615828 0.56791246 -0.13533975 -0.81188583 0.14778212
0.096225709 0.058189258 0.26681778 -0.46440536 -0.44570991 -0.76529098 0.24545209
0.1514121 0.054218017 0.26435965 -0.50192493 -0.25437132 -0.82665986 0.10866746
-0.15891039 0.06204392 0.26001412 0.56235802 -0.16730142 -0.8097924 0.1897057
-0.14582466 0.064587623 0.26489493 0.59278458 -0.053859428 -0.80355805 0.16729595
-0.13616458 0.065537795 0.26902419 0.46525222 -0.13396926 -0.87498146 0.1519973
0.098414749 0.06805183 0.26099718 -0.42526937 -0.1971141 -0.88334131 0.19187832
0.10268115 0.060117304 0.26197106 -0.74351114 0.15212275 -0.65119112 0.21150066
0.13811681 0.060508139 0.26908275 -0.23286074 -0.35628161 -0.90489745 0.18177409
0.14069697 0.062221043 0.26761454 -0.1418515 -0.42119542 -0.89580834 0.15830399
0.15588082 0.063097455 0.26105326 -0.52071744 -0.26210737 -0.81249803 0.14375499
-0.13694501 0.070148245 0.26782358 0.44813991 -0.1787148 -0.87591761 0.15372665
-0.12955345 0.077079684 0.26959187 -0.029445997 -0.57616085 -0.81680572 0.17551848
-0.091341309 0.079508543 0.26011306 0.69518024 -0.54231024 -0.47183049 0.22877271
-0.085005797 0.074668393 0.26598376 0.60501897 -0.47122359 -0.64179468 0.20139006
0.084737331 0.079747416 0.26361996 -0.54143006 -0.31038165 -0.78135568 0.17190804
0.14479613 0.071591996 0.26408511 -0.39424947 -0.40175232 -0.82653642 0.17979707
-0.14314397 0.089568369 0.26108444 0.39750057 -0.30320263 -0.86606085 0.15847334
-0.13457426 0.086592004 0.26487029 0.55501884 -0.36411318 -0.7479142 0.12672977
-0.12981136 0.087000713 0.26657546 0.29298538 -0.3032636 -0.90674734 0.15384537
-0.088610709 0.080475315 0.26113674 0.40140048 -0.65388644 -0.64133471 0.22833748
-0.073152997 0.089825034 0.2636041 0.14993599 -0.95699048 -0.24837132 0.20735407
-0.069072247 0.087372616 0.26710093 0.15411307 -0.89509052 -0.41840422 0.17721827
0.075814113 0.086899862 0.26410964 -0.45149994 -0.34729749 -0.8219077 0.25154397
0.080132216 0.083628833 0.26408538 -0.55593133 -0.28429139 -0.78110093 0.2314661
0.12794046 0.084281228 0.26809227 -0.37075922 -0.17184463 -0.91269219 0.2497001
0.1351299 0.085320063 0.26503283 -0.50002158 -0.12461077 -0.85700089 0.19092652
0.14436553 0.084352851 0.26204121 -0.19923268 -0.29212236 -0.93539876 0.18944247
0.15036267 0.080495879 0.26037663 -0.40473744 -0.23809309 -0.88289261 0.17495576
-0.14254554 0.094273657 0.26004797 0.29887673 -0.41440997 -0.85961443 0.1545496
-0.13106033 0.094247282 0.26400703 0.47290719 -0.3564941 -0.80577338 0.17007287
-0.12677887 0.093468577 0.26583561 0.48223913 -0.25934735 -0.83677024 0.15280321
-0.07246349 0.090641409 0.26343969 0.18442783 -0.93654549 -0.29810902 0.2162579
-0.063933671 0.095462218 0.26445362 0.27635443 0.032889877 -0.96049285 0.20448677
-0.056061033 0.096996486 0.26735327 0.053526964 -0.42355663 -0.9042868 0.2170658
-0.045716636 0.098297231 0.2698009 0.3198463 -0.4970814 -0.80660301 0.17659993
0.062763996 0.095511943 0.26499122 -0.19627613 -0.42488033 -0.88371515 0.12763867
0.11539108 0.09709195 0.26913446 -0.41448051 -0.16777486 -0.89445931 0.21445404
0.1279083 0.098271988 0.26405072 -0.53111112 -0.17503607 -0.82902551 0.17973338
0.13154763 0.097495891 0.26298159 -0.3824338 -0.093996562 -0.91918939 0.17662737
-0.12307364 0.10815227 0.26308382 0.19413118 -0.25265911 -0.94787991 0.16800402
-0.11448433 0.10336743 0.26763648 0.049138222 -0.54105157 -0.83955264 0.20193355
-0.051814992 0.10589685 0.26225588 0.3207199 -0.25462848 -0.91230649 0.18825813
-0.042296659 0.10569072 0.2651121 0.27142394 -0.36028564 -0.89248157 0.17872079
-0.037860949 0.10221908 0.26925573 0.24258529 -0.37794784 -0.89348078 0.20034544
0.035660971 0.10671093 0.26640898 -0.13819818 -0.98907095 -0.051379435 0.23605433
0.10932709 0.10978011 0.26768675 -0.36701378 -0.30301678 -0.8794781 0.18330157
0.120502 0.10316274 0.2653904 -0.55391246 -0.18090206 -0.81268412 0.17772375
-0.12729198 0.11388685 0.26011813 0.19460386 -0.27735573 -0.94085234 0.14612731
-0.11952211 0.11448313 0.26263434 0.13605373 -0.18145172 -0.97394288 0.18735187
-0.10828789 0.11666371 0.26535422 0.14034283 -0.1727753 -0.97491157 0.18100154
-0.022496568 0.11547891 0.26246271 -0.18856439 0.17339519 -0.96663213 0.1881285
-0.018255431 0.11516669 0.26304975 -0.16594982 0.18688647 -0.96826339 0.19720963
0.0085911313 0.11225736 0.26624626 0.1454768 -0.98900437 0.026585272 0.20421007
0.018409301 0.11434395 0.26366144 0.34068355 -0.37728238 -0.86115789 0.25428122
0.029972095 0.11718564 0.26061422 -0.091471262 -0.69383287 -0.71430308 0.21364899
0.095557302 0.11585874 0.26940653 -0.12445515 -0.40027729 -0.90790361 0.21236433
0.10975004 0.11718969 0.26472265 -0.3433924 -0.33893445 -0.87590253 0.16084974
0.11613902 0.11471857 0.26363352 -0.30660009 -0.26134753 -0.91525614 0.18091373
0.12897629 0.11201211 0.26003358 -0.52367109 -0.10442684 -0.84549612 0.1470421
-0.11625508 0.12370288 0.26072782 0.13730542 -0.23220547 -0.96292675 0.1403884
-0.094411351 0.12648068 0.26567268 0.29653463 -0.27640763 -0.91414773 0.19512258
-0.082459241 0.12691215 0.26902214 -0.10962579 -0.69066799 -0.71481466 0.20141149
-0.0057895128 0.12110438 0.26014143 0.14930265 -0.3604767 -0.92074168 0.22263619
0.0037180739 0.12079511 0.26051578 0.09016367 -0.38442236 -0.91874361 0.21998855
0.089599766 0.12707561 0.26685965 -0.10129746 -0.3522352 -0.93041342 0.19005361
0.092766352 0.12647936 0.26615691 -0.1354088 -0.35474038 -0.92510742 0.19558814
0.10142265 0.12628233 0.2637566 -0.13394453 -0.27216974 -0.9528811 0.19032259
0.11449025 0.12487773 0.26078957 -0.32227167 -0.354985 -0.87756866 0.14193225
-0.094531298 0.13426252 0.26283932 0.072816849 -0.31095546 -0.947631 0.19399849
-0.087532297 0.1356018 0.26421735 -0.062653273 -0.56785303 -0.82074207 0.15763271
-0.057284568 0.1388042 0.26937187 0.30025396 -0.54139847 -0.78532487 0.15846713
0.059179708 0.13962363 0.26865584 -0.24518199 -0.26713058 -0.93194801 0.22606099
0.066920541 0.13638839 0.26866871 -0.1690045 -0.6017487 -0.78059971 0.22999775
0.071638495 0.13552678 0.26818109 -0.067170851 0.22955582 -0.97097486 0.19893205
0.082335718 0.13669147 0.26531056 -0.1964682 -0.32593602 -0.92475182 0.18544234
0.097030744 0.13981417 0.2602599 -0.21493408 -0.50267082 -0.83733237 0.18481144
0.10052069 0.13418505 0.26127541 -0.2505739 -0.53057051 -0.80975777 0.16138662
-0.094643891 0.14090362 0.26051521 0.12351248 -0.3824079 -0.91570127 0.17727789
-0.080911815 0.14510792 0.26241326 0.31569368 -0.42032576 -0.85068429 0.17768306
-0.047342006 0.1421676 0.26970881 0.56834781 -0.31290346 -0.76096797 0.17585321
-0.029751042 0.14880833 0.26876402 -0.083753996 -0.52605045 -0.8463192 0.11799384
0.043846063 0.14669812 0.26833314 -0.30210736 -0.57015419 -0.76397336 0.18480206
0.053429283 0.14030817 0.26941335 -0.44535568 -0.51104003 -0.73518461 0.22140807
0.066863552 0.14256564 0.26592231 -0.047301188 -0.15512832 -0.98676121 0.20890959
0.071971104 0.14073871 0.26579347 -0.0024040306 -0.34488857 -0.93864053 0.2007878
0.083423354 0.14727561 0.2610954 -0.31765044 -0.56367493 -0.76247543 0.18199642
0.091898844 0.14027326 0.26145694 -0.38023248 -0.55907202 -0.73679149 0.17141365
-0.061025392 0.15891264 0.26018226 0.2293781 -0.45289713 -0.86155081 0.16225544
-0.059543248 0.15983146 0.2600601 0.16728906 -0.48518428 -0.85826015 0.16400182
-0.041986961 0.15711448 0.26405066 0.14970556 -0.56854093 -0.80891877 0.15725538
-0.012099673 0.15146594 0.26860416 0.048832718 -0.51903749 -0.85335535 0.19311288
0.0053372271 0.15561941 0.26704127 -0.16645603 -0.46029821 -0.87201941 0.20694369
0.034482434 0.15334797 0.26629144 -0.098353624 -0.58651072 -0.80394757 0.16376467
0.041410219 0.15522026 0.2649579 -0.40657505 -0.69573432 -0.59215748 0.18327403
0.06358064 0.15707895 0.26049298 -0.10008331 -0.48441777 -0.869093 0.15006804
-0.040464915 0.16512814 0.26069078 0.19668119 -0.3251313 -0.92498982 0.16195783
-0.031481318 0.16254731 0.26230919 0.16109043 -0.35138151 -0.9222694 0.15852201
-0.025916798 0.16614842 0.26107562 0.07809829 -0.35726368 -0.93073267 0.19330193
-0.011698582 0.16511181 0.26232636 -0.067006096 -0.46471143 -0.88292325 0.17110829
-0.0047074961 0.16125256 0.26438302 -0.13555248 -0.43395329 -0.8906796 0.19011208
0.0091258446 0.16480584 0.26260358 -0.07378906 -0.298785 -0.95146352 0.17506313
0.014387853 0.16447909 0.26244619 0.0076300306 -0.25576067 -0.96671003 0.15815371
0.040336609 0.1618697 0.26209924 -0.2376097 -0.46298808 -0.85392249 0.164709
-0.0095178587 0.17034367 0.26019999 0.063263126 -0.31464851 -0.94709772 0.16988836
-0.03269333 -0.14508533 0.27036154 0.1565299 0.71090484 -0.68564767 0.17714922
-0.025181632 -0.14225592 0.27247 0.3024123 0.62884569 -0.71630996 0.18688874
-0.0045748511 -0.14409935 0.27316034 -0.091771342 0.83373028 -0.5444923 0.15513068
0.009705429 -0.14732419 0.27073875 -0.10882713 0.80382282 -0.58482945 0.19413167
0.010462889 -0.14606375 0.27129468 -0.1026942 0.82306546 -0.55858487 0.18568307
0.021018645 -0.14252192 0.27266619 -0.081870668 0.62207657 -0.77866411 0.2153455
0.039780132 -0.14367723 0.27043298 -0.097160265 0.70091426 -0.70659685 0.16770515
-0.064270154 -0.13417488 0.27014655 0.20592855 0.17997973 -0.96187359 0.17933683
-0.0568063 -0.13382456 0.27173287 0.14177716 0.34566784 -0.92758453 0.24837905
-0.036244825 -0.13549075 0.27616212 0.36365569 0.57637805 -0.73180795 0.2126154
-0.023575336 -0.13180561 0.27988511 0.36693326 0.44235876 -0.81833905 0.19650754
-0.013965882 -0.13855959 0.27606767 0.030198194 0.69085115 -0.72236609 0.13394916
-0.0094398549 -0.13802247 0.27685568 0.0012425007 0.76375639 -0.6455034 0.17014463
0.0022577846 -0.13883524 0.27694803 -0.12931496 0.67070359 -0.73036593 0.19271623
0.012630769 -0.13703898 0.27724749 -0.12384044 0.74699736 -0.65319097 0.20942797
0.029127445 -0.13400102 0.27784985 -0.070949294 0.58260971 -0.80964935 0.23075239
0.033922452 -0.13367926 0.27762204 -0.12900567 0.48567128 -0.86456984 0.2070266
0.046651509 -0.13448457 0.27403411 -0.12298813 0.67818207 -0.72452962 0.18537343
0.057350695 -0.13348618 0.27214158 -0.19093122 0.6291405 -0.75347704 0.17049773
0.063327998 -0.13177666 0.27147657 -0.28108418 0.61599791 -0.73589283 0.17986248
-0.072457783 -0.12531896 0.27302706 -0.29364321 0.31179425 -0.90363598 0.23909226
-0.057286486 -0.12435637 0.27774018 0.32654724 0.40107927 -0.85586351 0.25566876
0.042748868 -0.12876794 0.27878368 -0.12586096 0.64947557 -0.74989361 0.23315838
0.064501137 -0.1240925 0.27597445 -0.25574914 0.52140063 -0.81408465 0.17304544
0.075040653 -0.12638763 0.27156526 -0.46918157 0.4023003 -0.78614438 0.16030926
-0.083280951 -0.11732807 0.2728523 -0.049092844 0.39965925 -0.91534823 0.20582001
0.062981375 -0.11946826 0.27937937 -0.19594738 0.29170558 -0.93622249 0.18145455
0.073582985 -0.11985523 0.27558726 -0.45410004 0.25258455 -0.85439694 0.18072964
0.087869331 -0.11644368 0.27158132 -0.4982686 0.45726341 -0.73664004 0.17516018
-0.093569137 -0.10508642 0.27530086 0.15232195 0.3299596 -0.93162477 0.18785982
-0.086971819 -0.10396376 0.27871373 -0.33993086 0.63252449 -0.69595963 0.20910548
-0.01469893 -0.10226813 0.27485967 0.14422259 0.64294934 -0.7522074 0.20573856
-0.0063527948 -0.10642797 0.27176353 -0.20235972 0.038201328 -0.97856587 0.22928213
0.014038216 -0.10301739 0.27416712 0.037397992 0.81159312 -0.58302492 0.22740294
0.084150322 -0.10835982 0.27747211 -0.61748862 0.46937242 -0.6311872 0.21940349
0.092999712 -0.10980779 0.27288726 -0.35613218 0.43273228 -0.82819849 0.22899492
-0.10493434 -0.097785726 0.27355561 0.47328442 0.30227283 -0.82742554 0.20306145
-0.093767129 -0.097850509 0.27911812 0.55357027 0.54391271 -0.63064963 0.24597012
-0.053989157 -0.090317041 0.27355951 0.33830574 0.80085349 -0.49414867 0.19111496
-0.04124989 -0.093432762 0.27616933 0.5678463 0.7158128 -0.40640196 0.17015798
0.01839927 -0.098113887 0.27927816 0.5399251 0.79611081 -0.2732918 0.22939435
0.038283162 -0.093422674 0.27763364 -0.53531814 0.67555833 -0.50700629 0.22583883
0.048444718 -0.093457863 0.27316892 -0.89533573 0.40735492 -0.18010008 0.19728585
0.053742342 -0.090457261 0.27360153 -0.41568005 0.64324206 -0.64300066 0.21993758
0.096223712 -0.096127197 0.27876216 -0.7535333 0.2540305 -0.60634661 0.20609257
0.10307465 -0.098068908 0.27446967 -0.36061913 0.35577041 -0.86219555 0.19916241
-0.060383949 -0.082532667 0.27601641 0.49025637 0.6196816 -0.61289752 0.21295057
-0.05848375 -0.082164422 0.2778669 0.4595964 0.59651685 -0.65798086 0.17877166
0.059545953 -0.080882549 0.27832946 -0.12324859 0.76824117 -0.62818414 0.19912249
0.068384856 -0.0822258 0.27120924 -0.36109635 0.79108447 -0.49375582 0.2531094
0.10728226 -0.085455954 0.27751422 -0.43754041 0.63875926 -0.63288629 0.18219204
0.11348123 -0.089276239 0.27243295 -0.55585241 0.35868263 -0.74991655 0.16333714
-0.1230234 -0.077768154 0.27203685 0.33770898 0.41573301 -0.84446359 0.23231596
-0.11636197 -0.078672945 0.27535772 0.67747444 0.42181191 -0.60258037 0.19458348
0.059694625 -0.079490773 0.27962622 -0.057008468 0.84537321 -0.53112543 0.20205699
0.11672255 -0.072115235 0.27795744 -0.63668793 0.13188176 -0.75976026 0.20700328
0.12246226 -0.071035422 0.27522427 -0.68753392 -0.053648856 -0.7241677 0.16746138
-0.13163418 -0.062233578 0.27169549 0.62403822 0.24266058 -0.74275976 0.25406447
-0.12236638 -0.067318678 0.27633679 0.67814541 0.32165575 -0.66079974 0.2154081
-0.08346764 -0.063015722 0.27364293 0.88816512 0.12835647 -0.44123393 0.23749101
-0.079102695 -0.066948049 0.27464443 0.26127222 0.60575718 -0.75152856 0.21726139
0.086314544 -0.060094964 0.2729767 0.61159909 -0.39500439 -0.68550575 0.2465007
0.12681435 -0.063361943 0.27451628 -0.58239937 0.24320708 -0.77566832 0.1773753
-0.090582311 -0.058048077 0.27088052 0.53175074 0.38402003 -0.75483096 0.22907747
-0.087096982 -0.053947352 0.27638233 0.84908891 0.15310836 -0.50557482 0.20450258
0.084624112 -0.05649966 0.27690446 -0.71950907 -0.24483933 -0.64989269 0.26040524
0.13234329 -0.053791448 0.27350223 -0.59799105 0.23107572 -0.7674703 0.25117707
-0.13405575 -0.046166778 0.27443919 0.69910765 0.22911426 -0.67731476 0.21244784
-0.091009647 -0.044359948 0.27751061 0.67153245 0.29598194 -0.67929292 0.23004153
0.0956579 -0.044744812 0.27273208 -0.7106095 0.31593597 -0.62866426 0.18893002
0.13334505 -0.045299087 0.27513275 -0.84898305 -0.21268925 -0.48372632 0.21506777
0.1412524 -0.043242194 0.27087519 -0.87315911 -0.12160417 -0.47202286 0.20751923
-0.13120225 -0.036829874 0.27879494 0.78658181 0.42272761 -0.45010039 0.22661842
-0.093823761 -0.037351191 0.27761579 0.78558415 0.22230926 -0.57743931 0.23348011
0.097468719 -0.039008372 0.27317435 -0.63125604 0.19826266 -0.74980509 0.23575543
0.13601425 -0.036767408 0.27569315 -0.85534948 -0.51489657 0.057084721 0.20843165
0.14528662 -0.034256376 0.27016664 -0.68819094 0.3344911 -0.64382368 0.22953402
-0.14545134 -0.020351399 0.27096444 0.61482185 0.066663489 -0.78584355 0.21054953
-0.13586752 -0.02328963 0.27708626 0.5117597 0.22531828 -0.82905585 0.22276507
-0.10187361 -0.02954766 0.2726115 0.61933213 -0.0067782099 -0.7850998 0.19925021
0.10523858 -0.023635576 0.27066398 -0.9777723 -0.10518663 -0.18137553 0.24033281
0.13487674 -0.02849417 0.27729884 -0.78340912 0.44275251 -0.43616557 0.21911947
-0.14580394 -0.011178392 0.27137399 0.40440243 0.056111816 -0.91285819 0.23972359
-0.13740711 -0.019706385 0.27634364 0.66848725 0.062415447 -0.74109995 0.25472659
-0.10398666 -0.011554692 0.27346766 0.73114485 0.020198395 -0.68192315 0.11754228
-0.099148318 -0.019586029 0.27776802 0.73835456 0.19254626 -0.64634228 0.18900521
0.10188357 -0.015081387 0.27528042 -0.89563298 0.014277313 -0.44456479 0.19953264
0.13482091 -0.015288353 0.27854681 -0.54777557 -0.0029287587 -0.83662021 0.2356402
-0.14153472 -0.0020682095 0.27508789 0.061350297 -0.22042027 -0.97347367 0.22619469
-0.1346568 -0.0022508996 0.27985466 0.52806026 0.17332472 -0.83133078 0.26429629
0.10817204 -0.0011910016 0.27068469 -0.67510712 0.15136509 -0.72202426 0.17344601
0.13817811 -0.0024794682 0.27738476 -0.42801976 0.41586429 -0.80240637 0.24799599
0.14299101 -0.00085230137 0.27418646 -0.50520951 0.29161072 -0.81223553 0.19778951
-0.14724484 0.0020898713 0.27125695 0.45795497 -0.30590022 -0.83468699 0.19680507
-0.1362668 0.0063681062 0.27835798 0.86884379 0.02549416 -0.49442953 0.23930655
-0.10554235 0.0015744688 0.27320966 0.69911009 -0.07127396 -0.71145284 0.094337642
-0.0993177 0.0072278669 0.27961671 0.82421941 -0.10802448 -0.55587143 0.15329373
