# .PCD v0.7 - Point Cloud Data file format
VERSION 0.7
FIELDS x y z normal_x normal_y normal_z curvature
SIZE 4 4 4 4 4 4 4
TYPE F F F F F F F
COUNT 1 1 1 1 1 1 1
WIDTH 559
HEIGHT 1
VIEWPOINT 0 0 0 1 0 0 0
POINTS 559
DATA ascii
-0.12312558 -0.055999584 -0.055024102 0.90620196 0.42283103 0.0034566713 0.0013962284
0.12379546 -0.054334261 -0.05816514 -0.91218793 0.40973738 0.0053222948 0.0011749038
-0.12778379 -0.044749018 -0.05533123 0.94099194 0.33841726 0.0028249775 0.0012134733
0.12838379 -0.043295145 -0.055680651 -0.94863111 0.31630751 0.0069697113 0.001907766
-0.13049485 -0.038243804 -0.052730128 0.9579767 0.28677973 0.0061620963 0.0022828591
0.12978679 -0.039898507 -0.056301426 -0.95425737 0.29897031 -0.0031141618 0.0019996946
0.13155009 -0.03430694 -0.055734817 -0.96313924 0.26900327 -9.2550988e-05 0.0023513827
-0.13309436 -0.024669379 -0.056326807 0.98332202 0.18186961 0.0011132122 0.0009896449
0.13303769 -0.025151858 -0.055157777 -0.98499876 0.17252073 0.0037588167 0.0010549985
-0.13432984 -0.015385636 -0.054083083 0.99424714 0.10644493 0.011923724 0.0010822325
0.13451138 -0.013986818 -0.054508209 -0.9932338 0.11612785 0.00094671524 0.0013500337
-0.13566409 -0.005248345 -0.054142047 0.99949056 0.030577069 0.0091458354 0.0019768393
0.13586983 -0.0036778438 -0.054293543 -0.99985784 0.016838571 0.00091709563 0.0024253083
-0.13555808 0.006070991 -0.053747606 0.99874008 -0.049815901 0.0060588531 0.0017188888
0.13586727 0.0037497452 -0.053122357 -0.99947309 -0.03185067 0.0062409034 0.0024739443
-0.13444793 0.01450288 -0.053763315 0.99318558 -0.11644441 0.0048044608 0.0013321824
0.13420522 0.016324945 -0.054232962 -0.99044508 -0.13785055 0.0039785621 0.00093553797
-0.13319448 0.023960993 -0.055163242 0.98715621 -0.15975724 0.00046078407 0.0010923112
0.13299379 0.025466705 -0.055572968 -0.98461872 -0.17464581 0.0049828375 0.0011163381
-0.13173045 0.033808339 -0.054889478 0.96742135 -0.25297639 0.0099399658 0.0026885059
0.12988164 0.039741293 -0.051615551 -0.95160478 -0.30710587 0.011588534 0.0020956967
0.13183887 0.03343749 -0.054318413 -0.96953791 -0.24490367 0.0042968336 0.0021980242
-0.12791958 0.044428866 -0.05482772 0.942267 -0.3348237 0.0051043248 0.0012952257
0.12783121 0.044631049 -0.055559549 -0.94433087 -0.32894537 0.0058408836 0.0015547371
-0.12331282 0.055545624 -0.055150442 0.90968186 -0.41529429 0.0030966706 0.0010713744
0.12250626 0.057505101 -0.054348487 -0.90609604 -0.42306864 0.001712448 0.0015379192
-0.12075951 0.061714482 -0.054845903 0.89582437 -0.44433743 0.0079300711 0.0023751741
-0.11898099 0.065949947 -0.056761198 0.87470806 -0.48462659 -0.0047785933 0.0023625265
0.11864025 0.066752173 -0.055660363 -0.87250483 -0.48857757 0.0052333507 0.0025693893
0.12045264 0.062432997 -0.056303233 -0.88290918 -0.46954265 -0.001088159 0.0022512202
-0.1127721 0.075088918 -0.055695482 0.82464266 -0.56564081 0.0038701622 0.001567679
0.10953149 0.079332285 -0.053605136 -0.81576431 -0.57832676 0.0081664613 0.001470865
0.11270446 0.075180575 -0.055331159 -0.8209219 -0.57103956 -0.0010580907 0.0012451119
-0.10474152 0.085556388 -0.055506159 0.76964897 -0.63845748 0.0035398686 0.0018688164
0.10459138 0.085765444 -0.054114837 -0.77276701 -0.63457215 0.012217715 0.00167665
-0.10068828 0.090851508 -0.054173965 0.73091763 -0.68231732 0.014225929 0.0020002313
-0.096057847 0.096164659 -0.055135295 0.69891816 -0.71514773 0.0087781595 0.002551035
0.096095718 0.096213803 -0.054297071 -0.70912969 -0.70506078 0.0049342415 0.0022950524
0.10062474 0.090918541 -0.055811483 -0.73808026 -0.67463982 0.0099286893 0.0016046005
-0.0904966 0.10097337 -0.052449029 0.66690749 -0.7450695 0.010292917 0.0018676767
-0.085014403 0.10515508 -0.055820405 0.62565172 -0.7800619 0.0079642506 0.0014767534
0.083770767 0.10612641 -0.053516462 -0.61471534 -0.78872561 0.0060816575 0.0013377809
0.090641446 0.10081974 -0.058197234 -0.67109597 -0.7413525 0.005167936 0.0018706446
-0.075566329 0.11241007 -0.055114236 0.56851447 -0.82266623 0.0034006375 0.0014380958
-0.066491716 0.11875374 -0.053574055 0.49693751 -0.86777896 -0.0035711112 0.0028255056
0.069795132 0.11686499 -0.051526487 -0.52470678 -0.85123557 0.0089833485 0.0023733773
0.073609687 0.11391493 -0.054646995 -0.54397631 -0.83907884 0.0060395002 0.0018231559
-0.062102038 0.12062162 -0.051271461 0.46287346 -0.88640553 0.0057887617 0.0022244689
-0.054481559 0.12375381 -0.055100609 0.41784441 -0.90849566 0.006460683 0.0012069141
-0.043477237 0.12831275 -0.05497035 0.33985099 -0.94047934 0.00012870329 0.0010949257
0.039628759 0.1299002 -0.056014687 -0.29953244 -0.95408446 0.0017960182 0.0021961164
0.046839092 0.12693331 -0.052909065 -0.35782987 -0.93378234 0.002877746 0.0012137431
0.054836057 0.1236092 -0.054752588 -0.40821049 -0.91280645 0.012185704 0.0014429468
0.060701214 0.12115002 -0.059444681 -0.4380998 -0.89890224 0.0065880488 0.0017642911
-0.03809936 0.13054661 -0.053980626 0.290755 -0.95679688 -0.0010299428 0.0024332777
-0.024597306 0.13310239 -0.056560591 0.17144328 -0.98519391 0.00047712942 0.0011856529
-0.014044485 0.13449137 -0.056624517 0.11425295 -0.99344677 0.0031274648 0.0011791968
-0.005773982 0.13558018 -0.056627255 0.04530964 -0.99894005 0.0081117051 0.0018640931
0.0027018462 0.13599682 -0.054559022 -0.020511273 -0.99975157 0.0087218247 0.0023737091
0.014270865 0.13446759 -0.055589255 -0.098303728 -0.99507821 0.012475859 0.0017038763
0.027522301 0.13270901 -0.05795173 -0.19998281 -0.97979617 -0.0025312859 0.0015357875
0.036036432 0.13118383 -0.055590481 -0.27796084 -0.96058589 -0.0035407157 0.002247225
-0.035798997 -0.13123503 -0.045985036 0.27003706 0.96276367 0.012891659 0.0023001893
-0.024956146 -0.13311997 -0.045615826 0.17341928 0.98483288 0.0054710829 0.0013418053
-0.014098778 -0.13454081 -0.047064248 0.10221785 0.99474555 0.0057203085 0.0011674283
-0.0049910909 -0.13574919 -0.045486014 0.029331114 0.99956971 0.00029642798 0.0018923362
0.0048457705 -0.13577725 -0.043968663 -0.028040817 0.99948084 0.015864279 0.0021076642
0.013817625 -0.13459009 -0.044979379 -0.093638718 0.99557918 0.0073426086 0.00095641386
0.025285957 -0.13308249 -0.044602763 -0.19086015 0.98158902 0.0074510011 0.0011495202
0.034776755 -0.13160078 -0.0450694 -0.26052091 0.96543068 0.0085102888 0.0019253824
-0.062085539 -0.12067872 -0.043355551 0.45616776 0.88978136 0.014146426 0.0021411316
-0.05461783 -0.12375522 -0.045991227 0.39924043 0.91678298 0.010770633 0.00072466815
-0.044349909 -0.12802295 -0.043693736 0.33845693 0.9408434 0.01614001 0.0011236771
-0.039849639 -0.12989157 -0.042979218 0.29958761 0.95395821 0.014522621 0.0023701265
0.04633547 -0.12719867 -0.043983523 -0.34152681 0.93987107 0.0013165032 0.00098986819
0.055298951 -0.12347218 -0.046137493 -0.42072088 0.90718865 0.0016392049 0.0014617001
0.062906519 -0.12030137 -0.049233384 -0.48469958 0.87464941 0.0073941513 0.0018866737
-0.074268483 -0.11347768 -0.045407791 0.56383938 0.82571328 0.016813928 0.0015810598
-0.067846984 -0.11808335 -0.045894668 0.51190305 0.85904109 0.0019192254 0.0027571465
0.067055672 -0.11861386 -0.044326764 -0.49552596 0.86829054 0.022922223 0.002211527
0.074481204 -0.11331519 -0.045306746 -0.55418015 0.83237034 0.0066232649 0.0015526389
-0.090366989 -0.10112406 -0.045516897 0.66729695 0.74477947 0.0042852848 0.0018602678
-0.084998831 -0.10523833 -0.046175152 0.62699544 0.77891499 0.012967302 0.0017610418
0.079288699 -0.10963014 -0.044782415 -0.59092832 0.80672044 0.0024145746 0.001314948
0.083688378 -0.10624439 -0.046104234 -0.62085164 0.78390908 0.0054571466 0.0012967952
0.091362312 -0.10035327 -0.046468198 -0.67733467 0.73558241 0.011670277 0.0017927649
-0.10042322 -0.091314316 -0.041985929 0.73338407 0.67976433 0.008259831 0.0017672187
-0.095951132 -0.096403971 -0.043790422 0.70925403 0.70482022 0.013680885 0.0025388817
0.093104489 -0.099017926 -0.045351278 -0.68095136 0.73221278 0.013026181 0.0020705638
0.10135144 -0.090105325 -0.041915964 -0.73982638 0.67276448 0.0066974373 0.002247571
-0.10404831 -0.086559512 -0.045154046 0.77202469 0.63558352 0.0034025586 0.0015141866
0.10436985 -0.086152159 -0.043938514 -0.7729848 0.63442266 0.0015258773 0.0017329296
-0.11265851 -0.075333759 -0.045643065 0.82842189 0.56003332 0.0089297667 0.0014072546
-0.10984138 -0.079037398 -0.042290326 0.81620777 0.57760841 0.013171687 0.0016854467
0.10909949 -0.079978146 -0.045000792 -0.80210507 0.59716672 0.00440025 0.0014444769
0.11362191 -0.074100949 -0.043286301 -0.83428299 0.55119073 0.012672991 0.0015129948
-0.12076712 -0.061837085 -0.045644034 0.88879502 0.45827991 0.004792247 0.0025589012
-0.11868224 -0.066839151 -0.043837775 0.8687675 0.49498546 0.015250335 0.0022889052
0.11889219 -0.066222943 -0.048108939 -0.87410569 0.48572451 0.0033176197 0.0024874401
0.12098391 -0.061340727 -0.043879665 -0.88875598 0.45830441 0.0083683403 0.0027361936
-0.12391602 -0.054263953 -0.043755695 0.91101837 0.41227651 0.0085772285 0.0011085273
0.12327475 -0.055784289 -0.045571517 -0.9115535 0.41105625 0.010149 0.0013408551
-0.12789527 -0.044625804 -0.045807049 0.94112813 0.33804113 0.0024533137 0.0010831972
0.12767857 -0.045173362 -0.044215366 -0.94090229 0.33847398 0.011760309 0.0010946628
-0.13152999 -0.035005003 -0.044891279 0.96269041 0.27059966 0.0017523851 0.0022887436
0.13210726 -0.032607574 -0.045167811 -0.97263682 0.23220024 0.0077907559 0.0024829276
-0.13309003 -0.025217993 -0.04484209 0.98299617 0.1834688 0.0076089455 0.0009606664
0.13308054 -0.025302902 -0.044549402 -0.98509747 0.1716693 0.010614286 0.0012503569
-0.13442361 -0.015200332 -0.042350799 0.99575824 0.091135122 0.012642858 0.0014311111
0.13437456 -0.015508077 -0.0437796 -0.99461728 0.10292021 0.011992901 0.0011478973
-0.13583329 -0.00432275 -0.046136517 0.99980533 0.01961273 0.0021202534 0.0021397623
0.13561007 -0.0060505881 -0.045395117 -0.99937713 0.035278905 0.00092099712 0.0020076714
0.13590863 0.003742439 -0.046292268 -0.99975616 -0.020607403 0.0079293549 0.0022300505
-0.1346129 0.013683189 -0.044116139 0.99323756 -0.11565779 0.010117335 0.0015133423
0.1345486 0.014136765 -0.044879239 -0.99551481 -0.093504533 0.014394669 0.0015492362
-0.13347444 0.022417869 -0.042176079 0.98729384 -0.15852863 0.010933395 0.0011088798
0.13332859 0.023438774 -0.044107869 -0.98715717 -0.15909122 0.014516163 0.0013497522
-0.13131611 0.035853345 -0.044217084 0.96125948 -0.27543327 0.010805296 0.002689936
-0.12981245 0.039996494 -0.045860827 0.95436537 -0.29863518 -0.0019183689 0.0024947708
0.13159001 0.034734227 -0.044552758 -0.96228629 -0.27146173 0.017708132 0.0023683701
-0.12912509 0.041686781 -0.043845553 0.95082349 -0.30905646 0.020463081 0.0022938438
0.12756109 0.045444358 -0.045038581 -0.94033688 -0.34009314 0.010157364 0.0010492118
-0.12377387 0.054572623 -0.046007603 0.91032833 -0.41386116 0.0046191462 0.0011721199
0.12362522 0.05495457 -0.044501822 -0.90624148 -0.42241725 0.017031124 0.0015920837
-0.12074798 0.061929226 -0.042646583 0.89577389 -0.44434521 0.01210406 0.0021358111
-0.11872209 0.066777579 -0.045422126 0.87691951 -0.4805927 0.0065495232 0.002685331
0.11877193 0.066661619 -0.045139205 -0.87266338 -0.48819044 0.011344597 0.0026873434
0.12121201 0.060755711 -0.04612112 -0.90162629 -0.43247771 0.0057626059 0.0015980462
-0.11315348 0.074694984 -0.044990893 0.82694924 -0.56220418 0.0090260906 0.0014715283
-0.10952314 0.079400979 -0.047602385 0.81713355 -0.57635653 0.010297459 0.0017227948
0.10997891 0.078818575 -0.04640149 -0.81124008 -0.58470166 0.0036698652 0.0013271691
0.11353846 0.074211031 -0.043147746 -0.83115911 -0.55588579 0.012865736 0.001485168
-0.10410132 0.086509839 -0.043139018 0.7686348 -0.63958669 0.011374931 0.0019724781
0.10445758 0.086026706 -0.045094725 -0.77288449 -0.63454497 -0.0015415433 0.0013194705
-0.096312106 0.095892958 -0.044081524 0.70536757 -0.70871836 0.013225719 0.0027550706
0.096405655 0.096070975 -0.044715222 -0.70912933 -0.70501202 0.0096713323 0.0025669243
0.10060672 0.091061041 -0.043453123 -0.74796873 -0.66369385 0.0073053725 0.0016094106
-0.085384347 0.10495269 -0.044796731 0.63149524 -0.77535236 0.0065123378 0.0017327882
-0.079524264 0.1094465 -0.045173787 0.59238654 -0.80559629 0.0096268095 0.0011439201
0.086836711 0.10383418 -0.04534933 -0.64096516 -0.76754928 0.0056299879 0.0016574791
0.090154886 0.10128545 -0.045701906 -0.66299301 -0.7485866 0.0076417066 0.0018853812
-0.074206606 0.11352184 -0.045855045 0.56047791 -0.82815218 0.0053452062 0.0015458362
-0.067469008 0.11835098 -0.044039246 0.48834717 -0.87249893 0.016206855 0.0025639664
0.066178881 0.11898205 -0.043534636 -0.49597046 -0.86825591 0.012046996 0.0027246692
0.074412391 0.11336601 -0.045577731 -0.5639537 -0.82579714 0.0039117453 0.0014944944
-0.062066492 0.12069252 -0.042418122 0.45913312 -0.88818753 0.017881908 0.0024006038
-0.055778034 0.12326746 -0.047114599 0.41775557 -0.90852189 0.0082639791 0.0012101637
-0.045373932 0.12759727 -0.043911528 0.33830664 -0.94100255 0.0079197381 0.0011353729
-0.039921809 0.12983756 -0.046756983 0.30342695 -0.95285338 0.0015857264 0.0024343363
0.044948433 0.12775825 -0.046322249 -0.34110945 -0.94002277 -0.0011945923 0.0011753977
0.055002846 0.12359446 -0.046186298 -0.40327197 -0.91505909 0.0061956067 0.00061477069
0.06115045 0.12104395 -0.046834737 -0.4422397 -0.89689291 0.0026637004 0.0018664406
-0.037175391 0.1309797 -0.043483496 0.28348008 -0.95880288 0.018336022 0.0024128242
-0.025423137 0.13306116 -0.045147818 0.17079127 -0.98526412 0.0092139831 0.0011247117
-0.015242905 0.13440078 -0.045260269 0.12225935 -0.9924801 0.0059985323 0.00059304619
-0.0067987377 0.13550889 -0.045869824 0.046417523 -0.99891907 -0.0024911603 0.0015930954
0.0035120319 0.13593052 -0.047734864 -0.017788449 -0.99981093 0.0078472272 0.002238668
0.015656341 0.13433775 -0.046699353 -0.11704177 -0.99311107 0.0056208512 0.00058013567
0.024761859 0.13314275 -0.046054404 -0.18780971 -0.98220509 0.00076896086 0.0010583965
0.035035487 0.13152619 -0.044631567 -0.27080798 -0.96262974 -0.0026623446 0.0022327697
-0.033425242 -0.13188632 -0.034770377 0.23285536 0.97242111 0.013248545 0.0025965238
-0.025600389 -0.13310686 -0.033489686 0.19008838 0.9814992 0.022926958 0.0013401243
-0.015001667 -0.13450386 -0.033210527 0.10329951 0.99431401 0.025863253 0.0012647933
-0.0056217173 -0.13572171 -0.036090735 0.040895078 0.99912906 0.0082842177 0.0022316035
0.005772193 -0.13570838 -0.034990385 -0.04584318 0.9988997 0.0098937219 0.0018847729
0.014811926 -0.13451682 -0.035236675 -0.096129172 0.99525034 0.015359545 0.0012793157
0.023101792 -0.13342533 -0.035257969 -0.15290438 0.98816532 0.012231302 0.001778599
0.033480201 -0.13193451 -0.034876332 -0.23260885 0.97241259 0.017515084 0.002424727
-0.062272836 -0.12064783 -0.035996459 0.47711936 0.87883592 0.0021340922 0.0022753545
-0.055186681 -0.12358829 -0.035168882 0.41510621 0.90972561 0.0092822602 0.0013143279
-0.047714613 -0.12669608 -0.033161033 0.35900661 0.93310308 0.020804781 0.0015942901
0.045629296 -0.12756452 -0.032426123 -0.34772307 0.93733323 0.022250704 0.0011857082
0.054410588 -0.12390762 -0.035507191 -0.41827089 0.90822077 0.013587243 0.0012428584
0.062678963 -0.12049365 -0.033785358 -0.4678551 0.88354683 0.021366283 0.0028299601
-0.074361511 -0.11348084 -0.035321172 0.54685104 0.83713651 0.012511928 0.0022485098
-0.066672593 -0.11873422 -0.035974711 0.48705742 0.87336069 0.0040301313 0.0025526502
0.069299206 -0.11737639 -0.033818342 -0.5096547 0.86030346 0.011402654 0.0029312605
0.074995033 -0.11300309 -0.034187216 -0.56484544 0.82504874 0.015624809 0.0015917135
-0.086394347 -0.10425186 -0.034759257 0.6285699 0.77733004 0.025647981 0.0016433196
-0.079226218 -0.10974555 -0.035654876 0.57657242 0.81695426 0.012241078 0.0016583829
0.079587922 -0.10945667 -0.037185736 -0.58939624 0.80772728 0.01373603 0.0017653251
0.086542279 -0.10412733 -0.036251765 -0.63888693 0.7692107 0.011765984 0.0016814984
0.091514945 -0.10032728 -0.034139816 -0.67437291 0.73812145 0.019945025 0.0018956021
-0.095278561 -0.097224504 -0.032944284 0.70162404 0.7120024 0.027862137 0.0025832788
0.094738677 -0.09765368 -0.035159506 -0.68873769 0.72481108 0.017008308 0.0022040093
0.10111307 -0.090485722 -0.034674399 -0.74067694 0.67182243 0.0072310762 0.0022435305
-0.10520975 -0.085145406 -0.034820557 0.78458023 0.61967754 0.020821661 0.0014210086
0.10524862 -0.085095666 -0.034725726 -0.78536046 0.61901063 0.0059061181 0.0014252941
-0.11372966 -0.074034639 -0.035591055 0.82797974 0.56057346 0.014387785 0.0016668317
0.11561505 -0.071600065 -0.033253677 -0.83538437 0.54937106 0.018009977 0.0015257212
-0.12106063 -0.061328743 -0.032571703 0.89106852 0.45328656 0.022979349 0.0026176104
-0.11873773 -0.066748038 -0.035193697 0.87462151 0.48474815 0.0075126844 0.0025756734
0.11881133 -0.06657131 -0.035808321 -0.86009008 0.50993812 0.014424317 0.0029207049
0.1208248 -0.061892636 -0.032928187 -0.89088458 0.45398855 0.014798341 0.0027470912
-0.12370113 -0.054918051 -0.034922365 0.90852547 0.41751441 0.016221795 0.0011983452
0.12408321 -0.0540254 -0.032979582 -0.91651636 0.39971447 0.015036923 0.00087346882
-0.12790413 -0.04475496 -0.035979375 0.94565481 0.32507095 0.008118513 0.001717047
0.1282071 -0.044066902 -0.03314827 -0.9458524 0.32393616 0.020703586 0.0017598009
-0.13145693 -0.035526045 -0.034962498 0.96336639 0.26814991 0.004563645 0.0022680082
0.1315968 -0.034690041 -0.035272755 -0.96493053 0.26246163 0.0047968561 0.0028307824
-0.1331238 -0.025396416 -0.03516008 0.98252308 0.18556918 0.014578481 0.00093956065
0.13321301 -0.024752371 -0.034406878 -0.98452604 0.17436285 0.017493952 0.0013376974
-0.13436803 -0.015939152 -0.03530509 0.99337184 0.11409312 0.013964585 0.0016199158
0.13438323 -0.015821949 -0.035327397 -0.99375147 0.11115389 0.01013548 0.0016913988
-0.13597785 -0.0037330531 -0.034824178 0.99974012 0.006832201 0.021750078 0.0024841242
0.13560352 -0.0066903364 -0.032259908 -0.99770027 0.064290769 0.021466453 0.0017482294
-0.13577253 0.0053547425 -0.03343356 0.99902385 -0.035363577 0.026472645 0.0016300075
0.13587585 0.0045079915 -0.034786932 -0.99970329 -0.016349548 0.018056616 0.0024065431
-0.13471271 0.013388772 -0.033794712 0.99581867 -0.086592495 0.029101271 0.0021818774
0.1346423 0.0139239 -0.033770647 -0.99546313 -0.093245231 0.018931024 0.0018424867
-0.133356 0.023684755 -0.033999354 0.98616654 -0.16426842 0.022167599 0.0012521415
0.13294405 0.026801588 -0.034267437 -0.9802705 -0.19736418 0.010818481 0.0015445972
-0.13113809 0.036856856 -0.035851173 0.96171331 -0.27360776 0.015693713 0.002690322
-0.1299305 0.039808825 -0.039507207 0.95578492 -0.29370755 0.014528773 0.0026469037
0.13070811 0.038015775 -0.034008406 -0.95985013 -0.2798219 0.019682597 0.0024822191
-0.12790045 0.044785872 -0.034543343 0.94281292 -0.33289012 0.016966395 0.0015423322
0.12805384 0.044420503 -0.034217957 -0.94001383 -0.34060171 0.019089935 0.0011836971
-0.12326957 0.055959843 -0.034925569 0.91065896 -0.41263413 0.020814855 0.0012581374
0.12442058 0.053205412 -0.033337895 -0.92277604 -0.38512024 0.012913963 0.0014093383
-0.1215167 0.060228955 -0.032490149 0.89750499 -0.44063357 0.018077713 0.0021611326
-0.1194406 0.065193996 -0.033880387 0.87672406 -0.48059016 0.019699955 0.002750664
0.11826053 0.067638077 -0.038284879 -0.85741103 -0.51462758 0.002188222 0.0025969422
0.12053633 0.062540993 -0.036065381 -0.88775462 -0.46022549 0.0091759684 0.0023908452
-0.11305597 0.074918374 -0.034991939 0.8306554 -0.55636102 0.021772714 0.0016203428
0.10993823 0.078941494 -0.039144263 -0.81192535 -0.58363789 0.01200313 0.0012344035
0.11405363 0.073628642 -0.033907667 -0.82994264 -0.55777812 0.0088801971 0.0017806928
-0.10429414 0.086346507 -0.034005683 0.76338899 -0.64541149 0.026103346 0.0017540557
0.10497354 0.085449368 -0.035224058 -0.76794726 -0.64036798 0.013638745 0.002037985
-0.098268956 0.094212547 -0.032566909 0.72965837 -0.68320221 0.028869448 0.0022033874
0.095817633 0.09672121 -0.03326099 -0.70525098 -0.70830268 0.030469326 0.002926918
0.10067557 0.091080897 -0.032079745 -0.74439687 -0.66727287 0.024905777 0.0019907143
-0.091106854 0.10064963 -0.03289276 0.67607057 -0.73644429 0.024049567 0.0020332357
-0.084875815 0.10540235 -0.036750734 0.62733477 -0.77855819 0.017269433 0.0014369192
-0.079275079 0.10972638 -0.033173569 0.57849276 -0.81549209 0.017850794 0.0015029305
0.079671279 0.10943763 -0.03111184 -0.5889011 -0.80803651 0.016509155 0.0019485545
0.084901214 0.10538837 -0.036010537 -0.63799292 -0.76996189 0.011115057 0.0017380714
0.091531701 0.10030681 -0.035169732 -0.67600948 -0.73648208 0.024602002 0.0021759169
-0.074268855 0.11355118 -0.035420567 0.55754924 -0.82988405 0.020766808 0.0017155318
-0.066160478 0.11891725 -0.035089787 0.49508834 -0.86876494 0.011619317 0.0025729924
0.066139415 0.11903699 -0.037455309 -0.49187195 -0.87060332 0.010570488 0.0022538358
0.074204616 0.11359534 -0.03611774 -0.55948573 -0.82874137 0.012782007 0.0016706411
-0.054827474 0.12373905 -0.034846067 0.41356057 -0.91044015 0.0081489403 0.0013075287
-0.044013903 0.12822171 -0.034283288 0.33852288 -0.94063908 0.024501288 0.0012282422
0.045995809 0.12739506 -0.03518847 -0.33979946 -0.9403646 0.015834788 0.0010770928
0.055212777 0.12356668 -0.036861625 -0.41851768 -0.90809184 0.01456717 0.0011522558
0.063489646 0.12013458 -0.037451085 -0.49181786 -0.87062037 0.011637111 0.0024544368
-0.035141535 0.13145645 -0.033237558 0.26513404 -0.9640035 0.020028865 0.0026332596
-0.024467491 0.13323919 -0.036313154 0.18087566 -0.98346728 0.008721808 0.00082555605
-0.014048403 0.13462409 -0.034088008 0.095491052 -0.99526376 0.018208753 0.0016915287
-0.0039589549 0.13596638 -0.031734146 0.01239148 -0.9996776 0.022159131 0.002587232
0.0057449052 0.13571797 -0.033966705 -0.056316774 -0.99836874 0.0093943635 0.0018744733
0.014664898 0.13453542 -0.035350975 -0.090301633 -0.99580705 0.014622277 0.0013830668
0.024283033 0.13326949 -0.03528861 -0.17772548 -0.98401159 0.011608676 0.0014556113
0.034356777 0.13171184 -0.033143356 -0.24551493 -0.96915609 0.021420993 0.0025238686
-0.035318453 -0.13160916 -0.026919749 0.27552298 0.9610315 0.02248339 0.0022065018
-0.02474265 -0.13331249 -0.024809165 0.19102016 0.98139966 0.019133668 0.0011592873
-0.017422142 -0.13432167 -0.023378342 0.14073648 0.9899106 0.016437592 0.0014541984
-0.0050722859 -0.13588543 -0.026091386 0.038021319 0.99899626 0.023683636 0.0023426944
0.0053412379 -0.13583823 -0.025696039 -0.047983959 0.9985925 0.02259521 0.0018024561
0.014384515 -0.13465869 -0.026249692 -0.11849489 0.9928202 0.016338995 0.00074488146
0.026250083 -0.13311574 -0.02421952 -0.19310334 0.98082578 0.026304765 0.0011630628
0.036991082 -0.13108294 -0.024196967 -0.27941024 0.95944464 0.037360337 0.0023671088
-0.062519781 -0.12059837 -0.027674161 0.45969713 0.88778865 0.022577856 0.0026671111
-0.055382129 -0.12362874 -0.024157401 0.41920891 0.90770322 0.018402586 0.0014955422
-0.045528196 -0.12769972 -0.023975864 0.32871926 0.94416541 0.022256555 0.0015877202
0.044529777 -0.12812826 -0.024611192 -0.34210819 0.93903393 0.03431239 0.0012585449
0.055300545 -0.12361959 -0.025245477 -0.41668102 0.90879118 0.021806795 0.0013061969
0.062437192 -0.12065262 -0.026121238 -0.4602679 0.88772422 0.0099589089 0.0024868287
-0.075248457 -0.11290853 -0.025843689 0.56773078 0.82302135 0.017823825 0.0015360909
-0.067952335 -0.11824999 -0.024098026 0.50642222 0.86212701 0.016539823 0.0027394239
0.067400761 -0.11842952 -0.025537079 -0.49954897 0.86614585 0.015561119 0.0028712666
0.076356396 -0.11211406 -0.023534302 -0.56613898 0.8239674 0.023756113 0.0016807793
-0.090711869 -0.10107222 -0.025504144 0.67050326 0.74165469 0.019331323 0.0021478499
-0.084914632 -0.1055503 -0.024017235 0.61873156 0.78538811 0.018354001 0.0016543622
0.079404905 -0.10967285 -0.026940087 -0.59750593 0.80157834 0.021422528 0.0017462467
0.085714579 -0.104982 -0.022240441 -0.63640511 0.7712425 0.013175925 0.0017833016
0.091254637 -0.10058463 -0.026345627 -0.65912819 0.75162673 0.024640936 0.001804515
-0.10131542 -0.090419434 -0.022941533 0.75500858 0.65546876 0.017961927 0.0015237161
-0.096521713 -0.096185647 -0.024080982 0.70944971 0.70447063 0.020056924 0.0023658508
0.096520431 -0.096095845 -0.024949197 -0.70437735 0.70928842 0.027615309 0.0022695689
0.10133847 -0.090278469 -0.025694516 -0.74566156 0.66598117 0.021397689 0.0020545479
-0.10651541 -0.083633788 -0.023757961 0.79506594 0.60623878 0.01856501 0.0010939515
0.10608506 -0.084309198 -0.021706223 -0.7855559 0.61847401 0.019793911 0.0016301892
-0.11277743 -0.075517014 -0.022819554 0.82684958 0.56203175 0.020978333 0.0018419815
0.11221617 -0.076208256 -0.023880729 -0.82415187 0.56566614 0.028205646 0.0016973655
-0.12077454 -0.062149148 -0.024104148 0.8893801 0.45630878 0.028024057 0.0023800361
-0.11837483 -0.067843542 -0.023361553 0.86225986 0.50610876 0.019021856 0.0027251944
0.11878569 -0.066895172 -0.02772513 -0.86761987 0.49667752 0.023393443 0.0031459946
0.12073396 -0.06241896 -0.02395436 -0.88331348 0.46822086 0.022946991 0.0024121129
-0.1235516 -0.055483673 -0.026043558 0.90872568 0.41671771 0.023747012 0.0014058666
0.12407959 -0.054354087 -0.023462001 -0.91360939 0.40618941 0.018115062 0.0010573498
-0.1283851 -0.043853492 -0.025182409 0.94538665 0.32535091 0.019770516 0.001936432
0.12800489 -0.044662621 -0.027005574 -0.94022018 0.33981806 0.022577047 0.0012729921
-0.13148943 -0.035394732 -0.027037194 0.96083778 0.27620581 0.022386068 0.0025330032
0.13203385 -0.033630617 -0.025113419 -0.97154051 0.23491518 0.030396199 0.0026138625
-0.13336335 -0.024252299 -0.025513355 0.98282707 0.18251237 0.027206529 0.0010664971
0.1334998 -0.023175165 -0.025872594 -0.98614168 0.1638675 0.025923628 0.0017440442
-0.13452245 -0.01544789 -0.025877964 0.99271548 0.11825138 0.023078538 0.0017316567
0.13465966 -0.014293298 -0.025695106 -0.99594569 0.087318726 0.021622201 0.0017321124
-0.13598047 -0.0040636072 -0.027020019 0.99963081 0.0136382 0.023499303 0.0023775792
0.1358252 -0.005911794 -0.023768187 -0.99816424 0.054810002 0.025768645 0.001692571
-0.13570458 0.0063769738 -0.02559787 0.99832332 -0.052013442 0.025396867 0.0020386898
0.13587935 0.0054869428 -0.024426013 -0.99918258 -0.034676909 0.020774206 0.0022321669
-0.13454081 0.015277413 -0.02505073 0.99176782 -0.12606691 0.022443227 0.00059618475
0.13452382 0.015544111 -0.0247998 -0.99392956 -0.10750363 0.023387259 0.0014918892
-0.13332045 0.024519725 -0.025884211 0.98584712 -0.1661485 0.022364164 0.0012356857
0.13314426 0.02585303 -0.025733681 -0.97925681 -0.20205434 0.015169259 0.001647916
-0.13158281 0.034582086 -0.026741441 0.96852738 -0.24789523 0.022418203 0.0026371647
0.12993781 0.03994824 -0.029257579 -0.95362675 -0.30073562 0.012413887 0.0029045523
0.13180408 0.03450343 -0.026197582 -0.96832818 -0.24930453 0.013706177 0.0029515843
-0.12748456 0.046060901 -0.024696767 0.93801433 -0.34568334 0.025140602 0.0014784228
0.12772603 0.045591526 -0.023268413 -0.93691498 -0.34929073 0.013651882 0.0010951436
-0.12388626 0.054692004 -0.024917347 0.90480036 -0.42505559 0.025768179 0.0015428222
0.12364139 0.05520929 -0.026218634 -0.91243595 -0.40871036 0.020406688 0.00094111526
-0.12079412 0.062339418 -0.022313349 0.88782847 -0.45976129 0.019495839 0.0022244691
-0.11919183 0.06608326 -0.025239071 0.87113833 -0.49059308 0.020892452 0.0023649097
0.11856311 0.06739635 -0.026490932 -0.86784798 -0.49655312 0.016579974 0.003212838
0.12082785 0.062194675 -0.024427244 -0.89275837 -0.44999552 0.022057937 0.002277435
-0.11391191 0.073931508 -0.025903778 0.83636653 -0.54768986 0.022952367 0.0017813721
-0.10946029 0.079819106 -0.02277457 0.803877 -0.59437811 0.022280557 0.001573918
0.11294692 0.075202949 -0.024967998 -0.82701188 -0.56201029 0.013985828 0.001543785
-0.10584507 0.084455699 -0.02464411 0.78872538 -0.61382818 0.033574745 0.0018942036
0.10434685 0.086419456 -0.025322171 -0.76815563 -0.63991892 0.020992683 0.00201009
-0.098041542 0.094635129 -0.024962135 0.72254151 -0.69069469 0.029574841 0.0024031044
0.096849427 0.095863618 -0.025488261 -0.71626228 -0.69727975 0.027735669 0.0028527719
0.10061361 0.091215849 -0.026448507 -0.7457152 -0.66590744 0.021821009 0.0021486792
-0.091686815 0.10023972 -0.028141433 0.68316424 -0.72996718 0.020845324 0.0021433518
-0.086308911 0.10439599 -0.026308181 0.64408934 -0.7646001 0.02314231 0.0016841464
0.085202076 0.1052864 -0.024549311 -0.62798917 -0.77778882 0.025962813 0.0017759557
0.092083693 0.10008729 -0.02219661 -0.67130339 -0.74092555 0.019521743 0.0016562495
-0.075504825 0.11276948 -0.024152817 0.56417549 -0.82531166 0.023805128 0.0018652589
-0.066314116 0.11915227 -0.022096751 0.48274198 -0.87564397 0.014412526 0.0022108858
0.066663511 0.11881094 -0.026503647 -0.48854226 -0.87238818 0.016285283 0.0026892328
0.075217165 0.11291423 -0.026667381 -0.5651412 -0.8248229 0.016811425 0.0016482604
-0.060857773 0.12138158 -0.024153374 0.4312053 -0.90206635 0.018390113 0.0020747858
-0.055911243 0.12343056 -0.024091352 0.41342726 -0.91028541 0.021410793 0.0012590531
-0.044277135 0.12823239 -0.024255088 0.33972442 -0.94019228 0.025013715 0.0011915567
0.045346957 0.12776397 -0.025177659 -0.34114763 -0.93945098 0.032406818 0.0010814739
0.05487074 0.12381128 -0.024909057 -0.41060644 -0.91155881 0.021514295 0.0012720431
0.061357539 0.12124612 -0.021722235 -0.44965178 -0.89307475 0.015192896 0.0019509292
-0.03398817 0.1318059 -0.023144776 0.24896413 -0.96833766 0.018413978 0.0025389437
-0.025535315 0.13319106 -0.024509884 0.18353941 -0.98280627 0.020128388 0.00096625998
-0.012915423 0.13488862 -0.024796393 0.083074197 -0.99611753 0.029129507 0.0016837252
-0.0050466489 0.13588932 -0.025058946 0.036598489 -0.99888396 0.029856579 0.0025467358
0.0052782809 0.13584009 -0.026488742 -0.043557696 -0.99880666 0.022091284 0.0016505511
0.014523412 0.13463797 -0.025043966 -0.096372023 -0.99501139 0.025781948 0.0015103973
0.024689607 0.13326776 -0.026530556 -0.16468371 -0.98579299 0.033038054 0.0017167028
0.037115749 0.13099928 -0.027079718 -0.27625817 -0.96090353 0.01859526 0.0024111699
-0.034425922 -0.13224497 -0.015996346 0.25731093 0.96628004 0.0096944822 0.0023360197
-0.023607831 -0.13387156 -0.015549719 0.16898939 0.98554748 -0.011779104 0.0016997881
-0.016180893 -0.134803 -0.016431987 0.12896261 0.99148434 0.018093478 0.0012227263
-0.007012723 -0.13614357 -0.013888759 0.057008654 0.99833024 -0.0093198018 0.0021730552
0.0049513467 -0.13638668 -0.014426857 -0.030636763 0.99951887 -0.0048393984 0.0024909198
0.014528589 -0.1351088 -0.014751209 -0.11031542 0.99387509 -0.0065470878 0.0013607143
0.026660327 -0.13341063 -0.016674252 -0.18307532 0.98307002 0.007534185 0.0012443576
0.037307162 -0.13160662 -0.014032342 -0.28637344 0.95780516 0.024484467 0.0027426381
0.040407106 -0.13034479 -0.014044354 -0.29051706 0.95661014 0.022292184 0.0026708404
-0.061923094 -0.1213423 -0.01564662 0.46156165 0.88705069 0.010096383 0.0025538045
-0.055785149 -0.12385403 -0.016191641 0.41699773 0.90890199 0.0031729306 0.0016688849
-0.044844136 -0.12846516 -0.014786151 0.31891862 0.94778025 0.0019032321 0.0019836917
0.048548687 -0.12683527 -0.016478324 -0.36040094 0.93260694 0.018854097 0.0012958969
0.055335999 -0.12405741 -0.015882989 -0.41166601 0.91132075 0.0050532999 0.0011815972
0.064009644 -0.12049498 -0.015345386 -0.46531212 0.88514668 -0.00019877787 0.0024298998
-0.07499966 -0.11364082 -0.015423719 0.55717641 0.83037096 0.0062073534 0.0018261917
0.068769246 -0.11830635 -0.015996207 -0.4970786 0.86770457 0.0012510734 0.0028089208
0.073105402 -0.11509473 -0.015417833 -0.53797054 0.84292418 -0.008165895 0.0020717033
-0.091183044 -0.10142253 -0.012381194 0.67509997 0.737378 -0.022663336 0.0029095809
-0.08617235 -0.10506234 -0.015505272 0.63016033 0.77644861 0.0050450428 0.0017463085
-0.079955548 -0.10989748 -0.014517591 0.57697737 0.81675941 0.0011417872 0.0020959012
0.085075594 -0.10598564 -0.01425999 -0.62337267 0.78189552 -0.0067725624 0.0017162057
0.090971053 -0.10142944 -0.014754452 -0.65820622 0.75280958 0.0065139863 0.0018421706
-0.10143882 -0.090913385 -0.015285878 0.74721611 0.66457212 0.0034526149 0.0021947743
-0.097352944 -0.095985636 -0.01507668 0.7123726 0.70176512 0.0071443156 0.0027154156
0.093381055 -0.099443845 -0.016831895 -0.67186838 0.74056184 0.012693754 0.0015810647
0.10199321 -0.090596765 -0.010540377 -0.75038546 0.65990067 -0.038115315 0.0025964163
-0.10471655 -0.086769223 -0.013795845 0.76883745 0.63943869 0.002685847 0.0018274544
0.10581554 -0.08535137 -0.013627718 -0.77692795 0.6295439 -0.0075725764 0.0022274284
-0.11451553 -0.073821947 -0.015865248 0.83248752 0.55404192 0.0014398238 0.0018625415
-0.10975625 -0.079867952 -0.017694 0.80888599 0.5878002 0.013945258 0.0018783422
0.1139321 -0.074701548 -0.014470861 -0.82879955 0.55954474 0.00099116331 0.0021097923
-0.121246 -0.06231777 -0.014454623 0.88747227 0.46085599 0.0021522248 0.0027625081
-0.11879385 -0.068016559 -0.015241314 0.86280501 0.50547099 0.0081636831 0.0030920182
0.11880114 -0.068080135 -0.012309588 -0.86874652 0.49407631 -0.034176588 0.0032095932
0.12109885 -0.062242758 -0.017616617 -0.89072186 0.45453832 0.0030645865 0.0023829597
-0.12445164 -0.054456946 -0.015349184 0.9121778 0.40967828 0.009763333 0.0014978107
0.12346717 -0.057051111 -0.013750987 -0.91088444 0.41252154 -0.01074214 0.001741341
-0.13037527 -0.040775768 -0.010794716 0.95374614 0.30018765 -0.015991613 0.0025880828
-0.12770408 -0.046403941 -0.016826024 0.94014955 0.34043241 0.014987377 0.0012314873
0.12794504 -0.045951039 -0.01587962 -0.94255078 0.33401093 0.0058907978 0.0014265877
0.13022654 -0.040440369 -0.015899219 -0.95534897 0.29531899 0.0097478339 0.00211855
-0.13204807 -0.035168812 -0.014273332 0.96386343 0.26631171 0.0067366157 0.0023185289
0.13218756 -0.03452298 -0.016352469 -0.96847188 0.24901232 0.0074201603 0.0024600776
-0.1338674 -0.022953693 -0.017269127 0.98582655 0.1676169 0.0071156798 0.0012205753
0.13400409 -0.023430239 -0.013470237 -0.9836098 0.17970091 -0.014808388 0.001906839
-0.13510919 -0.014060373 -0.015917841 0.99466443 0.10315151 -0.0015795906 0.0016534374
0.13485463 -0.016271129 -0.0152204 -0.99232984 0.12359723 0.002308937 0.0012813299
-0.13631868 -0.0052909912 -0.014870514 0.99946731 0.031654712 0.0079388963 0.0022777463
0.13638778 -0.0049110148 -0.014504513 -0.99934947 0.035898238 -0.0034453964 0.0021847612
-0.13642038 0.0045682206 -0.014745758 0.99961907 -0.026609682 -0.0073225135 0.0026548076
0.13583525 0.008211608 -0.016751122 -0.99760282 -0.068967573 0.0056668222 0.0016068777
-0.13503675 0.014982177 -0.014985693 0.99369633 -0.11183719 -0.0077514509 0.0014383099
0.1350427 0.014474453 -0.016142735 -0.99297112 -0.11761001 0.013272115 0.0010119192
-0.13379626 0.024227249 -0.015430644 0.98532617 -0.17065006 -0.0032968477 0.0015868661
0.13400321 0.0230876 -0.014344923 -0.9855352 -0.16916543 -0.010167191 0.0017475272
-0.13123816 0.037916686 -0.01556123 0.95576823 -0.2941094 0.002589402 0.00228462
0.13208167 0.03548396 -0.014606949 -0.96559018 -0.25984785 -0.01071018 0.0025210008
-0.13066739 0.040036794 -0.011041949 0.95747781 -0.28774199 -0.020994604 0.002954148
-0.12815224 0.045706902 -0.013996516 0.93977582 -0.34159791 -0.011500994 0.0018341593
0.12786214 0.046095498 -0.016288359 -0.94119662 -0.33772749 -0.0094381534 0.001455926
0.1303933 0.040433332 -0.012990808 -0.95388639 -0.29950494 -0.019939171 0.0023825078
-0.12494402 0.053374521 -0.014567182 0.91650671 -0.39983553 -0.01212099 0.0018783601
0.12362409 0.056398697 -0.01576129 -0.91088134 -0.41266841 4.6693389e-05 0.0010510082
-0.12106662 0.06241262 -0.016939852 0.88287866 -0.46955422 0.0066418713 0.0023919048
-0.11896212 0.067661278 -0.013791273 0.87186176 -0.48971453 -0.0060622557 0.0023397666
0.11956825 0.065967783 -0.017397486 -0.87944996 -0.47596204 0.0052849711 0.0019517321
0.12095235 0.062660411 -0.017146325 -0.89772087 -0.44056353 0.00093268382 0.0015239916
-0.11215977 0.076955177 -0.015126906 0.82809359 -0.56057215 0.0044515221 0.001532729
-0.10969983 0.079915151 -0.018001821 0.80922693 -0.58730787 0.014871607 0.0015901566
0.11479529 0.073537305 -0.014930515 -0.83562177 -0.54930514 0.00042903531 0.0015175317
-0.10625632 0.084546782 -0.016318507 0.7851578 -0.6189695 0.020101801 0.0016656463
0.1077587 0.08266443 -0.015434898 -0.79644543 -0.60469168 0.0047618854 0.0009926667
-0.10026672 0.09260419 -0.013376527 0.73882771 -0.67345983 -0.02419664 0.0027053398
-0.096515119 0.09681984 -0.015681235 0.70599478 -0.70809984 0.01288761 0.0027040555
0.097679831 0.09576758 -0.01391248 -0.71865708 -0.69536233 0.0018033359 0.0028560716
0.1011611 0.091368824 -0.014192482 -0.74763721 -0.66406876 -0.0071599055 0.0021174236
-0.090649962 0.10167924 -0.014702628 0.67469442 -0.73809367 -0.0022828896 0.0026178136
-0.08472582 0.10611742 -0.016341915 0.60894889 -0.79320848 0.0012228166 0.0012687627
0.085861072 0.10537436 -0.014390412 -0.62756193 -0.77854061 -0.0063712262 0.0021635599
0.090890147 0.10124778 -0.018468531 -0.66523921 -0.74652231 0.012696227 0.0016608802
-0.075372882 0.1134271 -0.014316697 0.55743706 -0.83015025 -0.010702644 0.0023849518
-0.068599038 0.11842009 -0.01604466 0.50616932 -0.86243409 0.00025106219 0.0025869431
0.066892505 0.11931402 -0.015112001 -0.47693625 -0.87892193 -0.0052890973 0.0025274879
0.072961882 0.11525875 -0.014596254 -0.54184049 -0.84046781 -0.0047653634 0.001907724
-0.062971234 0.12085108 -0.016658872 0.46421707 -0.88570714 -0.0050306497 0.002141055
-0.053432416 0.12499355 -0.013263476 0.39120278 -0.92014891 -0.01691852 0.0021436599
-0.04457939 0.12852614 -0.015648546 0.33349001 -0.9427436 -0.0043515456 0.0018082493
0.044942826 0.12844889 -0.014347586 -0.32338798 -0.94626534 -0.0014561362 0.0023507455
0.053762853 0.12490945 -0.012326286 -0.39148167 -0.92003703 -0.016556982 0.001972737
0.062108409 0.1213692 -0.013806785 -0.45378068 -0.89107794 -0.007945966 0.0025564483
-0.040661804 0.13023119 -0.01418771 0.30345091 -0.95264179 -0.019779263 0.0024884841
-0.034882776 0.1323013 -0.014877154 0.26251006 -0.96492851 0.0011865259 0.0025106885
-0.025309658 0.13371965 -0.014172821 0.19002727 -0.98177373 -0.0031621167 0.0017283093
-0.014385259 0.13515975 -0.014137615 0.11274773 -0.99351001 -0.0150297 0.0017500737
-0.003345489 0.13655168 -0.015309417 0.020949062 -0.99977332 0.003808124 0.0024359594
0.0044862293 0.13656917 -0.012116435 -0.044106599 -0.99897105 -0.010555348 0.0022585567
0.016035574 0.1349234 -0.014502222 -0.13189238 -0.99126381 -0.00074521865 0.0013991566
0.025972784 0.13361044 -0.014591365 -0.1897773 -0.98182255 -0.0030099219 0.0019975086
0.032836337 0.13266367 -0.013806262 -0.23961914 -0.97078753 -0.012418975 0.0025909049
0.040448282 0.13034002 -0.013824997 -0.29379582 -0.95582163 -0.0094293943 0.0027997221
-0.034836706 -0.13255097 -0.005196014 0.24676484 0.96720982 -0.060101911 0.0040595969
-0.026560837 -0.13398297 -0.0051366421 0.19669005 0.97803056 -0.069059812 0.0034303437
-0.012361537 -0.13582198 -0.0055145691 0.083064817 0.99415928 -0.068902999 0.0032586958
-0.0043561594 -0.13692914 -0.0055900607 0.036339283 0.99803358 -0.051073097 0.0033924319
0.0031223122 -0.13700357 -0.0026358881 -0.00088473753 0.9943139 -0.10648465 0.0060030315
0.015449661 -0.13543497 -0.0052776574 -0.11061247 0.9928031 -0.045899227 0.002072992
0.024732767 -0.13421242 -0.0048459489 -0.17033665 0.98407102 -0.05088893 0.0030952755
0.037431885 -0.13201241 -0.0053643235 -0.28403378 0.95624024 -0.070210367 0.005281975
0.041068614 -0.13063851 -0.0017862676 -0.29508233 0.94970357 -0.10483054 0.0060664825
-0.064852975 -0.1206862 -0.0045248629 0.47509712 0.87594754 -0.083657771 0.0049033519
-0.057343327 -0.12362987 -0.0040273 0.42389271 0.89830381 -0.11560819 0.0055258372
-0.046448816 -0.12833749 -0.0052427421 0.34614238 0.93590474 -0.065328188 0.004203802
0.046082065 -0.1283161 -0.008331107 -0.3524273 0.93506432 -0.038074885 0.002954327
0.05555021 -0.12453321 -0.0033484935 -0.41253129 0.90347236 -0.11642864 0.0052480954
0.063933656 -0.12108729 -0.0035813942 -0.46263668 0.8805666 -0.10280922 0.0049154847
-0.080596261 -0.11019274 -0.0025275771 0.57897413 0.80757689 -0.11228768 0.0051267417
-0.07299152 -0.11578361 -0.0058163791 0.52650207 0.84671152 -0.076649174 0.0043170811
-0.068597578 -0.11931047 -0.002643537 0.50276023 0.85973406 -0.089941658 0.0046274317
0.068143457 -0.11907981 -0.0084090102 -0.50994861 0.85856408 -0.053104322 0.0031285719
0.075664692 -0.11371681 -0.0044426601 -0.55875188 0.82284129 -0.10357913 0.0049801278
-0.091084324 -0.10193998 -0.0055409321 0.65505868 0.75245756 -0.068598926 0.0037226023
-0.085853606 -0.10589368 -0.0054769642 0.64199471 0.76383752 -0.066294454 0.0036422885
0.085795641 -0.10599086 -0.0037841271 -0.61068475 0.78564221 -0.099148735 0.0048504961
0.090601794 -0.10242407 -0.0018021341 -0.65635157 0.74624443 -0.11100435 0.0053075631
-0.10253784 -0.090108275 -0.0079530161 0.75449121 0.65345526 -0.061149646 0.0035647328
-0.095717572 -0.098288596 -0.0071159778 0.69605064 0.71531391 -0.061963692 0.0039486713
0.096846685 -0.097108856 -0.0053302464 -0.71454769 0.69554478 -0.075093172 0.0037683933
0.10147534 -0.09180136 -0.003133826 -0.73809594 0.66682529 -0.10275426 0.005298764
-0.10735169 -0.083980404 -0.0049665216 0.78590274 0.61083198 -0.096130677 0.0035421294
0.1070122 -0.084439933 -0.0046116202 -0.78736556 0.6126166 -0.068966232 0.0027409035
-0.11424272 -0.075005464 -0.0051160138 0.82013655 0.56369865 -0.098080851 0.0044248868
0.1149867 -0.07401818 -0.0039221644 -0.83794403 0.53857762 -0.088227034 0.0040906658
-0.12084036 -0.064308271 -0.0050908006 0.88190514 0.46459028 -0.079994954 0.0048176222
-0.11956591 -0.067504711 -0.0044227303 0.86375916 0.49711347 -0.082451962 0.0047733849
0.11884622 -0.068708226 -0.007145247 -0.86427474 0.50014365 -0.053717181 0.0029981167
0.12131263 -0.063405335 -0.0052791266 -0.88506651 0.46029744 -0.069162793 0.003945115
-0.12518801 -0.0538642 -0.0063675265 0.91464257 0.40039098 -0.055821285 0.0028857659
0.12467226 -0.055073876 -0.0038917933 -0.9097324 0.40655208 -0.084274977 0.0036114363
-0.1288667 -0.04507219 -0.0039370749 0.94312757 0.32355618 -0.076300435 0.003324141
0.12846175 -0.046083093 -0.0057403087 -0.93691278 0.34208789 -0.071905687 0.003950296
0.13004881 -0.042355537 -0.0049759476 -0.94729513 0.31186736 -0.073284656 0.0041704131
-0.13256665 -0.035100278 -0.0046569174 0.96632892 0.2471458 -0.071606115 0.0041265739
0.13305616 -0.033695113 -0.0035336688 -0.9678151 0.23319082 -0.094635218 0.0053443322
-0.1341446 -0.024901219 -0.0047642346 0.97943985 0.18417342 -0.082326934 0.0036576653
0.13427769 -0.024481468 -0.0056245099 -0.98412699 0.16519484 -0.064843304 0.0031336169
-0.1350679 -0.01751847 -0.0066499664 0.98848444 0.1387535 -0.060381792 0.0027331265
0.13540532 -0.015695883 -0.0052821222 -0.99166894 0.1070198 -0.071689807 0.0034150896
-0.13675065 -0.0053366581 -0.0048840265 0.99663728 0.038928725 -0.072101794 0.0039597945
0.1368778 -0.0047340877 -0.0041581118 -0.99644291 0.033954769 -0.077126794 0.0039923126
-0.13708059 0.0030402308 -0.0054370128 0.99751818 -0.018749902 -0.067866638 0.0041438672
0.13687284 0.0039977273 -0.0056696306 -0.99766779 -0.025761008 -0.063208476 0.0038026026
-0.13542821 0.015447551 -0.0054501016 0.99137104 -0.11837702 -0.056305733 0.0029162965
0.13563403 0.014549652 -0.0046937289 -0.99131364 -0.10939747 -0.073003955 0.0036677332
-0.13431686 0.024265027 -0.0049668853 0.98428428 -0.16034456 -0.073987275 0.003225778
0.13447931 0.023202738 -0.0037382338 -0.98208761 -0.1691089 -0.083103389 0.0033744269
-0.13228439 0.036238514 -0.0050563985 0.96173292 -0.26501769 -0.06953799 0.0042309966
0.13279779 0.034507871 -0.0036865673 -0.96821123 -0.24215086 -0.062689319 0.0034945474
-0.1302785 0.041847531 -0.0046330574 0.94817895 -0.30451727 -0.090696424 0.0047802487
-0.12827227 0.046504144 -0.0044537196 0.93217683 -0.35099015 -0.088613056 0.004498451
0.12811722 0.046826914 -0.0063856104 -0.94028091 -0.33681208 -0.049288504 0.0024621664
-0.12399286 0.056866985 -0.0039793435 0.90683526 -0.41399983 -0.079081677 0.0044207373
0.12411347 0.056473017 -0.0047038314 -0.90913188 -0.41213691 -0.060186278 0.0026224016
-0.1211828 0.063619807 -0.0060062869 0.8848871 -0.46328527 -0.048390429 0.0035899046
-0.11946046 0.067741908 -0.004222983 0.86322534 -0.49921593 -0.075003184 0.0045143091
0.12136739 0.063293748 -0.0046133595 -0.88164115 -0.46434969 -0.084191598 0.0048381635
-0.11380395 0.075709209 -0.0036521922 0.82503474 -0.55494946 -0.10653093 0.0051788022
0.11414704 0.07514555 -0.0060045272 -0.83321738 -0.54985315 -0.058397856 0.0028544767
-0.10667174 0.084854253 -0.0049753292 0.78669018 -0.61485082 -0.05547161 0.0025048004
0.10574002 0.086201236 -0.0031203721 -0.77142906 -0.63068724 -0.084444113 0.0040269699
-0.10144087 0.091777444 -0.0048270794 0.73122323 -0.67785507 -0.07632117 0.0041337367
-0.096542671 0.097479321 -0.0046579186 0.70228052 -0.70745862 -0.079399399 0.0045267423
0.096059896 0.097902201 -0.0046846396 -0.70067477 -0.7079705 -0.088502146 0.0044671791
0.10128844 0.091898836 -0.0058696577 -0.74595082 -0.66227299 -0.070369795 0.0041042576
-0.091425203 0.10165462 -0.0042054136 0.65793055 -0.74649882 -0.099332057 0.0044762283
-0.086008579 0.10577482 -0.0051414133 0.62796712 -0.77483857 -0.0726806 0.0034467098
0.085420363 0.10628842 -0.0052530076 -0.61760771 -0.78321105 -0.071702182 0.0028055329
0.092547491 0.10086014 -0.0049973829 -0.67972338 -0.72806549 -0.088863261 0.004467071
-0.080335625 0.11032526 -0.0035556378 0.5937205 -0.79843664 -0.099974871 0.0045451294
-0.074092075 0.1149961 -0.0037127843 0.54007626 -0.83459306 -0.10849912 0.0053128875
-0.06873019 0.11883527 -0.0083359824 0.508623 -0.85929155 -0.054042798 0.0032755816
0.069015764 0.11866742 -0.0058070673 -0.51198816 -0.85535693 -0.078946739 0.0049327668
0.076528214 0.11311246 -0.0054092929 -0.57028162 -0.81904 -0.062868245 0.0030029055
-0.06275139 0.12158323 -0.0039516231 0.46512693 -0.88232106 -0.071877584 0.0035881526
-0.053704821 0.12527607 -0.0041274042 0.38755733 -0.91672361 -0.097042128 0.0038621731
-0.04734258 0.12796037 -0.0048274579 0.34711531 -0.9350518 -0.072035469 0.0037929879
0.046197183 0.12844197 -0.0042189774 -0.34824723 -0.93193567 -0.10109314 0.0038649077
0.056834415 0.12404243 -0.0044384035 -0.39912203 -0.91114837 -0.10251977 0.0039993017
0.062266361 0.12171948 -0.006430753 -0.45544294 -0.88631129 -0.083810255 0.0044245189
-0.0415118 0.13032362 -0.0054747146 0.30760363 -0.94833779 -0.077687718 0.0044175014
-0.035297073 0.13245541 -0.0045969328 0.25434688 -0.96210086 -0.09833432 0.0051212837
-0.025651325 0.13417022 -0.0047376035 0.17683429 -0.97933465 -0.098148845 0.0049321214
-0.014196472 0.13560651 -0.0061033154 0.10985427 -0.99134582 -0.071871251 0.003288008
-0.005980745 0.1366424 -0.0056258119 0.052529551 -0.99642813 -0.06611824 0.0040850332
0.0025052542 0.13708244 -0.0039012507 -0.011085521 -0.99569136 -0.092064403 0.0046702847
0.013397462 0.13576956 -0.0042865151 -0.10352746 -0.99151868 -0.078566998 0.0036395858
0.022728739 0.1344769 -0.0050771902 -0.15223868 -0.98493743 -0.081985533 0.0032827286
0.03555375 0.13259088 -0.0051513072 -0.27035803 -0.95999038 -0.072972894 0.0051809778
0.040506449 0.13061875 -0.0084518678 -0.30421308 -0.95157957 -0.044166602 0.0028192371
-0.040512189 -0.13038023 0.0007772086 0.29966894 0.94326752 -0.14298528 0.0065739756
-0.034034822 -0.13182332 0.0038740276 0.23098646 0.94394457 -0.23582605 0.0078421272
-0.025505656 -0.13315347 0.0042705475 0.17031406 0.9643057 -0.20275052 0.0084202765
-0.013366938 -0.1346899 0.0046176319 0.10121778 0.97583777 -0.19363807 0.0059823939
-0.0056346571 -0.13578697 0.0041726427 0.046730503 0.98128998 -0.18677805 0.0062269606
0.0074155638 -0.13558827 0.0039712247 -0.057971068 0.98318255 -0.17318028 0.007169846
0.013780171 -0.13443072 0.0057698204 -0.097168729 0.96563429 -0.2410572 0.006406209
0.023876363 -0.13330224 0.0046402668 -0.1692836 0.96484792 -0.20102639 0.0062971734
0.034778155 -0.13177252 0.0032871673 -0.25037885 0.94975746 -0.18780644 0.0084953243
0.040872745 -0.13023525 0.00075380935 -0.30140081 0.94304425 -0.1408014 0.0069717695
-0.061703902 -0.12095348 0.0041798023 0.45121562 0.86853504 -0.20506395 0.0086169997
-0.055558942 -0.12345143 0.0044281622 0.41047058 0.88699442 -0.21155313 0.0081837336
