# .PCD v0.7 - Point Cloud Data file format
VERSION 0.7
FIELDS x y z normal_x normal_y normal_z curvature
SIZE 4 4 4 4 4 4 4
TYPE F F F F F F F
COUNT 1 1 1 1 1 1 1
WIDTH 583
HEIGHT 1
VIEWPOINT 0 0 0 1 0 0 0
POINTS 583
DATA ascii
0.28284091 -0.13793364 -0.087690428 -0.87924361 0.37351069 -0.29566953 0.12606432
-0.26001483 -0.12212206 -0.085334457 0.94228035 0.23920381 -0.23428449 0.18639523
0.28458202 -0.12908137 -0.08301878 -0.91402429 0.20809995 -0.34821531 0.19775008
-0.29211605 -0.11393362 -0.086074725 0.73495847 0.55623263 -0.38786763 0.24634817
-0.26112676 -0.11802222 -0.083767094 0.93801415 0.31369606 -0.14739114 0.18773054
0.26239005 -0.11553971 -0.084395289 -0.93578464 0.2745412 -0.22121105 0.21584295
0.291682 -0.11037885 -0.081449471 -0.68150353 0.30578467 -0.6648674 0.21144699
-0.29572961 -0.10466671 -0.085529067 0.3702139 0.91762602 -0.14458328 0.19002034
-0.2670092 -0.10822605 -0.088645242 0.83184123 0.43151397 -0.34904987 0.13703176
0.26656425 -0.10657907 -0.085631855 -0.96150565 0.2747812 0.001507884 0.21185291
0.29388362 -0.10668027 -0.083073944 -0.91684043 0.36083433 -0.17088637 0.27432859
-0.2723977 -0.091502868 -0.084532544 0.85538381 0.47099066 -0.21560679 0.24629681
0.2727721 -0.090445161 -0.084362015 -0.78911752 0.5026505 0.35303825 0.23670162
0.29966787 -0.094337039 -0.084703133 -0.9334119 0.34002909 0.11455311 0.25788572
0.30160525 -0.091434464 -0.086486518 -0.94787574 0.30770364 -0.082764916 0.25540137
-0.30377737 -0.084758744 -0.085444316 0.93022233 0.054767441 -0.36288685 0.1925654
-0.2754392 -0.087241516 -0.087944537 0.91268826 0.40537855 0.051656984 0.23430268
0.30148256 -0.087828696 -0.082565434 -0.8778742 0.44588587 -0.17470767 0.23225828
-0.30438602 -0.075382389 -0.081192464 0.89863551 0.08810091 -0.42975879 0.21790919
-0.27847642 -0.075715095 -0.083300635 0.99712652 0.070153415 0.02858478 0.26376587
0.28016418 -0.074397922 -0.087825 -0.99672592 0.060278188 -0.05388828 0.24688229
0.3054485 -0.07515192 -0.083879583 -0.90814292 0.22496913 -0.35307968 0.17346138
-0.28018034 -0.069380298 -0.084995441 0.95253807 0.24689388 0.17808606 0.24292611
0.28059414 -0.064828597 -0.084463254 -0.94837582 0.28716183 -0.13461582 0.22427914
0.30643347 -0.067201056 -0.083718859 -0.97125715 0.071028396 -0.22718813 0.23015702
-0.30899218 -0.054890968 -0.086160995 0.89000356 0.26611072 -0.37024149 0.1520092
-0.28180793 -0.056042463 -0.084627159 0.50170422 -0.14609343 -0.85261339 0.22551769
0.28223717 -0.05472701 -0.085361592 -0.95464617 0.28867331 -0.072927698 0.2597006
0.3082481 -0.055215381 -0.084335029 -0.90217167 0.31324586 -0.29658601 0.2399196
0.31009895 -0.050825149 -0.087648906 -0.95905286 0.10524342 -0.26294744 0.22641321
-0.31124365 -0.046141386 -0.089023754 0.95986563 0.09100651 -0.26528436 0.2082216
-0.30992737 -0.045915473 -0.085519359 0.89141268 0.10310806 -0.44130731 0.22434181
0.28442979 -0.045958061 -0.088339888 -0.84506851 0.28755891 -0.45074281 0.19675124
0.31130451 -0.041212786 -0.087492764 -0.89292842 0.06117139 -0.44602349 0.24223492
-0.31144875 -0.033435293 -0.085202664 0.8895247 0.17008536 -0.4240481 0.21185036
-0.28333342 -0.036058921 -0.081455976 0.93761766 0.079190351 -0.33852923 0.22294931
0.28465417 -0.031147372 -0.083389826 -0.86288023 -0.0039236248 -0.50539333 0.23794918
0.31235164 -0.033447128 -0.087557323 -0.89100856 0.18776222 -0.41333884 0.2085485
-0.31247503 -0.026017556 -0.085331917 0.88696599 0.09111844 -0.45275682 0.23131759
-0.28588158 -0.026908778 -0.085310265 0.75015074 0.65808696 -0.06477198 0.20763643
0.28757751 -0.023077406 -0.08872854 -0.7909109 0.077033915 -0.60706317 0.24655502
0.31274584 -0.023564085 -0.085196137 -0.88298327 0.1971752 -0.42598417 0.19663961
-0.31391966 -0.017249571 -0.086087845 0.8326326 0.11821273 -0.54106265 0.2011143
-0.28754056 -0.013196873 -0.084890768 0.97863472 0.0010156325 -0.20560414 0.23968138
0.28757286 -0.01074989 -0.084059179 -0.6913752 0.010123573 -0.72242498 0.26173866
0.31457448 -0.015583109 -0.087221421 -0.89888757 0.18382511 -0.39775547 0.19365446
-0.28864688 -0.0043741977 -0.084732488 0.96601588 -0.045272894 -0.25448731 0.19525138
0.28810295 -0.004097607 -0.083067529 -0.57197213 0.6092028 0.5492903 0.26293641
0.31451082 -0.0077279857 -0.084363319 -0.95524734 0.083525121 -0.28377113 0.19531327
-0.31419122 0.0078085819 -0.083558895 0.88057965 0.033058107 -0.47274369 0.1584772
0.28751302 0.0070026238 -0.08247225 -0.60570598 0.52192098 0.60059863 0.21576096
0.31442413 0.0047265398 -0.083108895 -0.82221609 -0.31501257 -0.47405452 0.22041918
-0.31374601 0.015505147 -0.08503776 0.70033967 -0.021533603 -0.71348488 0.21734267
-0.28540528 0.01881665 -0.080887571 0.8852849 0.103909 -0.45329198 0.26013631
0.28738335 0.014986598 -0.085115612 -0.992854 -0.11931272 -0.0023013565 0.21610114
-0.31201512 0.025990203 -0.084125198 0.83567452 -0.41113627 -0.36416358 0.23580404
-0.28636613 0.025132207 -0.086029373 0.85074586 -0.061565571 -0.52195889 0.2615068
-0.31011227 0.032604437 -0.081438363 0.57368064 -0.4983857 -0.65000165 0.26045066
-0.30924165 0.035706751 -0.080235086 0.78238142 -0.6152522 -0.096665271 0.26547894
-0.2846562 0.036207888 -0.085307039 0.83158922 -0.2753478 -0.48233074 0.2101974
0.28601173 0.031630822 -0.087466992 -0.93274826 -0.19641209 -0.30232957 0.19443831
0.31213871 0.036954522 -0.088205069 -0.8970629 -0.11302628 -0.42720407 0.2173841
-0.28453767 0.041401602 -0.086928651 0.86216277 -0.29245204 -0.41369927 0.21081421
0.31111476 0.040679947 -0.086816169 -0.93631202 0.11442873 -0.33200282 0.22429912
-0.30890512 0.054997362 -0.085970826 0.99668187 0.077716805 0.024194036 0.24316829
-0.28223851 0.055025 -0.085478127 0.97557735 0.0096530821 -0.21944404 0.22844706
0.3067863 0.055141993 -0.080504119 -0.82285666 -0.21949047 -0.52414757 0.18465579
-0.30893216 0.064751022 -0.089384295 0.82499832 0.51701111 0.2282047 0.28281796
-0.27997711 0.064278111 -0.082485422 0.9734875 0.058746424 -0.22106779 0.25271592
0.27928966 0.067395762 -0.08169052 -0.89528984 -0.41407442 -0.16431192 0.25063983
0.30651477 0.065958157 -0.083504453 -0.79193079 -0.11414559 -0.5998469 0.17114073
-0.30568543 0.074431278 -0.084249511 0.79221702 -0.47371942 -0.3846845 0.21234545
-0.27998757 0.073394075 -0.085958391 0.99647617 -0.060853098 0.057725526 0.22943814
0.27898812 0.074986562 -0.08532989 -0.70579571 -0.39173245 -0.59025252 0.22212146
0.30538601 0.075341299 -0.083781928 -0.93362004 -0.13869016 -0.33033136 0.17105162
-0.30361554 0.085265674 -0.085164517 0.87802327 -0.27148178 -0.39417356 0.15558447
-0.27470082 0.085709766 -0.08427456 0.8915621 -0.18333864 -0.41413033 0.2355224
0.27339876 0.088863559 -0.084285907 -0.55804294 -0.77855152 -0.28713328 0.27816626
0.30360511 0.085855372 -0.085731819 -0.92876691 -0.30158862 -0.21549098 0.16428314
-0.27113026 0.096514747 -0.08669392 0.59410399 -0.34213033 -0.72800225 0.2400579
0.26981103 0.095437601 -0.081974313 -0.97360587 0.12967034 -0.18782227 0.26969159
0.27249143 0.091967233 -0.085297033 -0.36771533 -0.62220478 -0.69111997 0.30098239
0.29651916 0.099007547 -0.081757635 -0.85060638 -0.16073412 -0.500633 0.26637363
0.30238518 0.092529945 -0.089479506 -0.92001557 -0.18819241 -0.34373656 0.18813932
-0.29399461 0.10764503 -0.084312752 0.81714964 -0.41226462 -0.40287006 0.20772241
-0.26657367 0.10727456 -0.086427346 0.43477729 -0.6737237 -0.59754932 0.24939799
0.26811484 0.10640919 -0.08958894 -0.76085681 -0.027731046 -0.64832699 0.26001841
0.29317436 0.10875078 -0.083433911 -0.50435144 -0.65635687 -0.56109291 0.21644318
-0.29226422 0.11640224 -0.088914856 0.76455593 -0.46207762 -0.44937557 0.2280177
-0.26118693 0.11882319 -0.084814914 0.92811632 -0.3710683 -0.030138487 0.18045229
0.26526096 0.11151281 -0.087611057 -0.68288481 -0.27003086 -0.67878687 0.23221073
0.28946733 0.11587647 -0.081601039 -0.78746414 -0.2736899 -0.55226278 0.24684611
0.29224885 0.11427043 -0.086735263 -0.5630374 -0.63014942 -0.5346967 0.25509709
-0.25813773 0.12570322 -0.084281914 0.90659529 -0.38459989 -0.17368908 0.17413294
0.28849027 0.12280621 -0.086194403 -0.80284095 -0.39873913 -0.44323075 0.20990501
0.25372282 0.13360861 -0.081233159 -0.73182738 -0.61648756 -0.29046825 0.2136904
0.28068286 0.13857752 -0.083101973 -0.70849854 -0.45327839 -0.54089594 0.22581938
-0.25183371 0.14119436 -0.08458291 0.80062437 -0.54744101 -0.24353421 0.21918443
-0.24954134 0.14377131 -0.081308231 0.79873919 -0.49876684 -0.33652216 0.25598979
0.24611259 0.14886098 -0.082205258 -0.84358895 -0.31724602 -0.43325838 0.19631663
0.25186175 0.14113925 -0.084596783 -0.70514309 -0.35785955 -0.61213535 0.24160317
0.27886167 0.14781937 -0.087970778 -0.77153999 0.0070904037 -0.63614136 0.26457626
-0.27487791 0.15583977 -0.08647237 0.801296 -0.35744205 -0.4797498 0.18318653
-0.24171953 0.15345103 -0.080205873 0.37670437 -0.64147025 -0.66828865 0.25049791
-0.2379389 0.15838414 -0.080216572 0.7569074 -0.29792735 -0.58166182 0.21484664
0.23787116 0.15905561 -0.081243798 -0.80824572 -0.55582243 -0.19442321 0.23218578
0.24330811 0.15484296 -0.086304478 -0.75790685 -0.63522553 -0.14854477 0.22288778
0.27504632 0.15711296 -0.088491246 -0.84705228 -0.29503816 -0.44210276 0.23682596
-0.26629382 0.16631022 -0.083521724 0.69904065 -0.50743073 -0.50384146 0.18943733
-0.23428164 0.16434281 -0.082317054 0.83777404 -0.41212323 -0.3581748 0.23854847
0.26812437 0.16362992 -0.083050728 -0.80458647 -0.45901963 -0.37675136 0.22851163
0.27174419 0.16182601 -0.087708101 -0.74826008 -0.40562707 -0.52495104 0.24742641
-0.2618596 0.17135647 -0.082350709 0.71730214 -0.52115339 -0.46246812 0.21008174
-0.25668108 0.17689896 -0.080422342 0.61989725 -0.61297363 -0.48988849 0.19972207
-0.22693129 0.17531259 -0.084766619 0.81714201 -0.57243508 -0.067800827 0.25265247
0.22746116 0.17566276 -0.086599752 -0.93653148 -0.30594265 -0.1711953 0.22268862
0.23042578 0.17067558 -0.084620535 -0.93896496 -0.23847708 -0.24793829 0.24140939
-0.25399947 0.1856017 -0.088747755 0.52909142 -0.57147968 -0.62727451 0.19055133
-0.21855596 0.18634713 -0.084977269 0.84161609 -0.48300147 -0.24164428 0.19369936
0.21952692 0.18611929 -0.086804837 -0.83989924 -0.48346737 -0.24663463 0.22417517
0.22117053 0.18508102 -0.088749073 -0.82974315 -0.47008076 -0.30091581 0.24750596
0.25138295 0.18844828 -0.087847181 -0.94455683 -0.25304365 -0.20923972 0.23993056
-0.24255511 0.19799837 -0.08472272 0.80870903 -0.48910341 -0.32675296 0.19710833
-0.21431723 0.1923874 -0.085886709 0.23176949 -0.39228135 -0.89016759 0.25611591
0.2093308 0.19587019 -0.080574572 -0.85871488 -0.34610417 -0.37791625 0.26319927
0.21141282 0.19771238 -0.088599086 -0.45069203 -0.7413007 -0.49734285 0.24088697
0.24169739 0.19823968 -0.083321631 -0.9756152 -0.077669114 -0.20528632 0.24851441
-0.23835795 0.20293485 -0.083870098 0.75829619 -0.51694691 -0.39718109 0.22277199
-0.20142044 0.20841296 -0.088244326 0.6411829 -0.65056521 0.40700042 0.27340001
-0.19912404 0.20925026 -0.086121351 0.51712424 -0.83697546 -0.17903832 0.24193913
0.20326141 0.20513685 -0.084147245 -0.72256809 -0.69054788 0.032233916 0.23833737
0.23768879 0.20369941 -0.083698228 -0.5786047 -0.72384816 -0.37584636 0.22897302
-0.23053193 0.21514124 -0.087078884 0.37901109 -0.92479151 -0.03333658 0.25426069
-0.22724955 0.21736738 -0.083799362 0.42391038 -0.87380451 0.23825541 0.24598074
-0.19516754 0.2123142 -0.086185664 0.54784411 -0.83622402 0.024418419 0.23529734
-0.18324165 0.21928404 -0.081178412 0.65551472 -0.68918347 -0.30874988 0.21909712
0.22752345 0.21628213 -0.08263512 -0.66048348 -0.71097606 -0.24140143 0.16339289
0.23075427 0.21241069 -0.083177194 -0.7308352 -0.64206767 -0.2315793 0.2263294
-0.22074333 0.22403744 -0.082504287 0.4258759 -0.88382262 -0.19361648 0.26373702
-0.18215305 0.22186877 -0.085194409 0.78919756 -0.39973849 -0.46623626 0.21854936
-0.17563242 0.22463885 -0.080067374 0.64493263 -0.76083708 0.07203386 0.2329129
-0.16887861 0.22992742 -0.080311179 -0.15284885 -0.16650066 0.97412258 0.24118918
0.17706287 0.22607009 -0.085872687 -0.81412029 -0.47624573 -0.33226237 0.23699248
0.18063791 0.22488183 -0.089442387 -0.61475027 -0.70891786 -0.34571299 0.20753551
0.22294305 0.22266383 -0.083710492 -0.7258839 -0.63104373 -0.27363527 0.14401151
-0.21373352 0.23201522 -0.087918706 0.82891107 -0.3763755 -0.4138211 0.27683145
-0.20348313 0.23848794 -0.085017353 0.67682517 -0.49621537 -0.54376286 0.24902791
0.16254717 0.23534253 -0.081589453 -0.33857527 -0.65538961 -0.67515272 0.22088328
0.17164351 0.23080245 -0.087190256 -0.47603124 -0.7808035 -0.4046483 0.2559993
0.20710079 0.23469488 -0.082898363 -0.65710032 -0.74254715 -0.12978041 0.20474342
0.21369748 0.23303497 -0.089985535 -0.76276851 -0.63639796 -0.11481232 0.21911152
-0.19380997 0.24569574 -0.084570035 0.78200638 -0.29458329 -0.5492602 0.24347517
-0.15522 0.24144691 -0.082696021 0.39895156 -0.8614465 -0.31424114 0.22852983
0.14542064 0.24797449 -0.080419376 -0.67332017 -0.37754524 -0.6356883 0.21352579
0.15147825 0.24352686 -0.080879778 -0.31868625 -0.69646531 -0.64294261 0.20603594
0.18775806 0.24981892 -0.083485492 -0.57793707 -0.72101331 -0.38226774 0.23216099
0.19680898 0.24343407 -0.084652506 -0.57841998 -0.76870245 -0.27299586 0.25884122
-0.19018644 0.25004703 -0.087842613 0.71469849 -0.63313395 -0.29723305 0.15527152
-0.18238075 0.25234467 -0.080151349 0.50090057 -0.65252066 -0.56860828 0.20134003
-0.13344185 0.25424269 -0.082438268 0.72478813 -0.59391493 -0.34920931 0.17026831
0.12118065 0.25946057 -0.082810178 -0.058619987 -0.53582567 -0.84229124 0.20465295
0.13306364 0.25594345 -0.086566098 -0.35290867 -0.21064541 -0.91163808 0.21506818
0.14173411 0.25310522 -0.088579729 -0.57173324 -0.33516476 -0.74885631 0.19572763
0.17632931 0.2594116 -0.08520031 -0.49950886 -0.84987444 -0.16794141 0.26862311
0.18665132 0.25152141 -0.085263185 -0.5642153 -0.55266267 -0.61337179 0.23199025
-0.16685948 0.26682067 -0.085497364 0.28806221 -0.85123962 -0.438647 0.19448549
-0.11176287 0.26518604 -0.087687686 0.27602983 -0.93772912 -0.21088305 0.26140994
-0.10250896 0.26875246 -0.086974643 0.16757742 -0.97522026 -0.14444101 0.25138101
-0.097498879 0.26864478 -0.081139095 -0.53794223 -0.83550811 0.11200127 0.25305745
0.099128872 0.26946029 -0.08512415 -0.29786992 -0.69479889 -0.65462059 0.22927685
0.10339589 0.26801124 -0.08597526 -0.13942592 -0.74339801 -0.65415579 0.23703764
0.11414407 0.26483688 -0.08939103 -0.27443144 -0.81500173 -0.51035243 0.17434652
0.16990352 0.26184911 -0.080006175 -0.24423452 -0.89846802 -0.3648352 0.2542983
0.17191291 0.26276982 -0.085136488 -0.19713196 -0.2448944 -0.94929749 0.24103817
-0.0954872 0.27163321 -0.086900584 0.00033996673 -0.88405746 -0.46737817 0.25766045
-0.086540163 0.27528644 -0.086759485 0.54004401 -0.74452877 -0.39246568 0.23896202
-0.06781017 0.27927235 -0.081797376 0.74375743 -0.41575214 0.52342623 0.23185492
0.066845655 0.27923632 -0.081329748 0.13726765 -0.96681631 -0.21546181 0.29149699
0.077881046 0.27775562 -0.083771929 -0.15611173 -0.89767259 0.41208377 0.22788131
0.084726714 0.27505901 -0.084143437 -0.70385498 -0.7055918 -0.08202678 0.25480062
0.095866561 0.27158147 -0.087182216 -0.44834176 -0.86453259 -0.22709729 0.22198135
0.13959399 0.27972192 -0.081792071 -0.3489759 -0.75530195 -0.55473846 0.18069215
0.14683071 0.27878609 -0.086793892 -0.46455103 -0.81899887 -0.33679846 0.14765544
0.15395215 0.27361155 -0.081396483 -0.55891031 -0.67544669 -0.48103118 0.21944806
-0.13581228 0.28290144 -0.085705496 0.8050077 -0.59065598 0.055570666 0.21222198
-0.1236359 0.28727329 -0.084075622 0.55166304 -0.83351159 -0.030436642 0.19186938
-0.11854584 0.28796762 -0.080645248 0.16744564 -0.84966892 -0.50002468 0.19391458
-0.055406015 0.28129262 -0.082908303 0.23189512 -0.80775625 -0.54199123 0.27589688
-0.037324946 0.28526115 -0.087464444 -0.10314517 -0.97519457 0.19584845 0.26317984
-0.025696488 0.28654674 -0.086760677 -0.48387387 -0.78656572 -0.38364106 0.23401751
-0.016857408 0.28745133 -0.086017393 -0.38131273 -0.90682638 -0.17962873 0.25632322
-0.0073172795 0.28951174 -0.088325113 -0.22245178 -0.9071418 -0.35722396 0.21930493
0.0075804722 0.28841621 -0.085281529 0.016474092 -0.94328296 -0.33158079 0.17916435
0.016013253 0.28883186 -0.089658976 -0.066104747 -0.87529963 -0.47904146 0.18075208
0.022488117 0.28623009 -0.084640272 0.27774975 -0.88302833 -0.3783069 0.19626063
0.037377745 0.28401515 -0.08390969 -0.37655801 -0.85956514 -0.34547308 0.22695702
0.044975128 0.28355446 -0.085457504 -0.40296033 -0.86344558 -0.30345467 0.22526595
0.054243885 0.28351587 -0.088847473 -0.74380851 -0.66168976 -0.094422385 0.23949574
0.071737915 0.28106147 -0.088413455 -0.4104104 -0.90995818 0.059493449 0.2287062
0.12509067 0.28608203 -0.082647584 -0.14066269 -0.86559993 -0.48057342 0.18901287
0.13837188 0.28247041 -0.087231979 -0.41538313 -0.73407823 -0.53720206 0.19333036
0.14365321 0.28000158 -0.08654967 -0.58221161 -0.7318148 -0.35422677 0.1592025
-0.11250775 0.29122186 -0.082472466 0.34031096 -0.80849522 -0.48012909 0.24541931
-0.10291143 0.29683584 -0.086448953 0.47614112 -0.80216897 -0.36029789 0.20489486
-0.093171693 0.29911906 -0.082200624 0.42207062 -0.81187415 -0.40338159 0.14845952
0.0039259074 0.2901544 -0.088887945 0.041211978 -0.83521187 -0.54838187 0.1794571
0.098311797 0.29794857 -0.084526286 -0.039608229 -0.48272383 -0.87487656 0.26918933
0.1033784 0.296341 -0.085717618 -0.73250675 -0.58133966 -0.35422882 0.24838902
0.11264326 0.29181617 -0.084050536 -0.1119998 -0.98465258 -0.13384829 0.27020234
-0.097061612 0.30061084 -0.089728728 0.53356397 -0.79303432 -0.29394922 0.22976983
-0.08525385 0.30475485 -0.087916687 0.31749377 -0.87384027 -0.3682403 0.117652
-0.074771687 0.3068347 -0.087358229 0.10816628 -0.95098191 -0.28971279 0.14395739
-0.06628155 0.30779755 -0.086955011 0.0064005204 -0.95083338 -0.30963689 0.20782635
-0.053783316 0.30878279 -0.085236229 0.16394278 -0.93542504 -0.31321377 0.21157031
-0.044188384 0.30885458 -0.082134433 0.037768345 -0.96397549 -0.26329622 0.20162596
-0.034509514 0.30947411 -0.080429912 -0.25084925 -0.89218128 -0.37561569 0.22295839
0.038380038 0.30902424 -0.080585346 0.086991131 -0.93048054 -0.35586303 0.22027083
0.045198198 0.30897129 -0.082784355 -0.35157126 -0.89944392 -0.2596117 0.20479964
0.057789702 0.30713594 -0.082321852 -0.13158715 -0.93134844 -0.3395215 0.18357542
0.064773373 0.30672526 -0.083646357 -0.28403652 -0.9365778 -0.20529306 0.21102931
0.083009675 0.30251998 -0.080239616 -0.25723332 -0.82562417 -0.50217098 0.23091267
-0.033803649 0.31082898 -0.083715335 -0.096058011 -0.98887205 -0.11359987 0.22645614
-0.024268769 0.31262344 -0.085119039 -0.18001559 -0.93417233 -0.30808517 0.22483438
-0.018501766 0.31242615 -0.082628675 -0.21243875 -0.96977454 -0.12002935 0.21830995
-0.0046738982 0.3151868 -0.085076474 -0.049220514 -0.79538321 -0.604105 0.27536356
0.018380206 0.31416529 -0.087114856 0.29474673 -0.84893119 -0.43867993 0.20785379
0.028978014 0.31123391 -0.083115473 0.27602762 -0.8437537 -0.46031356 0.20858663
0.03424101 0.31139544 -0.085339926 0.53465325 -0.5329296 -0.65584457 0.25194883
-0.0038703703 -0.31145033 -0.075073242 0.30680063 0.92686307 -0.21632852 0.176314
0.0049336264 -0.31175584 -0.076233089 0.13817672 0.93831629 -0.31696954 0.18972655
0.017621901 -0.31083828 -0.078193128 -0.029382052 0.88818353 -0.45854846 0.20894392
0.020152753 -0.31114984 -0.079871766 0.032321516 0.85667205 -0.51484782 0.17740245
-0.075110644 -0.30178595 -0.074330136 0.42679086 0.86887532 -0.25080913 0.24710383
-0.066409551 -0.30165538 -0.071007855 0.16838054 0.71267337 -0.68098801 0.21225096
-0.058923095 -0.30385667 -0.074172921 -0.052348599 0.95404571 -0.29505304 0.24673516
-0.044007476 -0.30700126 -0.077247329 -0.022696903 0.84930402 -0.52741581 0.24622875
-0.039663076 -0.30542687 -0.071659394 0.087258495 0.83082056 -0.54965729 0.20965216
0.021447327 -0.30795217 -0.071990475 0.093971319 0.91776258 -0.38585135 0.20182262
0.035862375 -0.30815852 -0.077468485 -0.25564799 0.88041145 -0.3993994 0.19260497
0.046550129 -0.30751985 -0.079469025 -0.13681774 0.82966685 -0.5412336 0.17473733
0.056176707 -0.30463457 -0.075256862 0.027615514 0.78835511 -0.6146003 0.22702919
0.068096384 -0.30445105 -0.07886456 -0.056604236 0.81874657 -0.57135797 0.26428726
0.079575464 -0.3012864 -0.07455986 -0.16250351 0.95021272 -0.26587299 0.21808715
0.08223395 -0.30164254 -0.077331357 -0.20136955 0.9612909 -0.18806967 0.23872206
-0.10398083 -0.29164919 -0.074940525 0.80396104 0.43127421 -0.40944982 0.18942188
-0.094161734 -0.29441944 -0.071794041 0.36287761 0.82445985 -0.43426463 0.22587633
-0.08500801 -0.2977761 -0.070738919 0.16658537 0.85737377 -0.48699021 0.19585329
0.088176228 -0.2976639 -0.073650457 -0.12282572 0.95728308 -0.26176894 0.21200405
0.0927504 -0.29535148 -0.072636865 -0.31378576 0.86587113 -0.38962245 0.19620247
-0.11437978 -0.28705221 -0.074237891 0.63953537 0.69068623 -0.33756045 0.20114732
-0.10864457 -0.28922153 -0.073737532 0.79077226 0.20058194 -0.57831311 0.20685007
-0.031673219 -0.28308141 -0.079076573 0.21054494 0.87326348 -0.43941072 0.17227492
-0.025613824 -0.28246248 -0.075012483 0.20200081 0.91447937 -0.35060409 0.19600467
-0.011647876 -0.2839646 -0.074047029 0.0116871 0.93120748 -0.36430207 0.22126672
-0.0028501009 -0.28474483 -0.072962612 -0.37441289 0.91131592 0.17122567 0.27963895
0.0049279863 -0.2858355 -0.076876298 0.51461411 0.68904209 -0.51028764 0.2681129
0.016960206 -0.28352016 -0.074778415 -0.027359042 0.54039693 -0.84096533 0.25411823
0.04097667 -0.28038716 -0.074861154 -0.22165371 0.85470903 -0.46940598 0.20880526
0.10677166 -0.28954273 -0.072634608 -0.47833735 0.77085459 -0.42068577 0.22979702
0.11358014 -0.28818259 -0.076176725 -0.47907311 0.84895819 -0.2230671 0.17585762
0.12477971 -0.28311685 -0.075141512 -0.29421729 0.93349385 -0.20500098 0.20766287
0.13155597 -0.28088367 -0.076533154 -0.42091191 0.86999035 -0.25680736 0.20855588
-0.15419677 -0.27047861 -0.074041776 0.61426365 0.66462594 -0.42538524 0.26562047
-0.14358431 -0.27629644 -0.077491611 0.098298021 0.91424167 -0.39306459 0.27050605
-0.1397476 -0.27563882 -0.072040692 0.1195123 0.74953347 -0.65108871 0.26347226
-0.086157337 -0.27193186 -0.077367894 -0.07149183 0.76180607 -0.64384824 0.24918222
-0.074096166 -0.2751298 -0.073377497 0.29417735 0.88865155 -0.35179269 0.24707431
-0.066068865 -0.2768552 -0.074205555 0.49394158 0.80727381 -0.32300249 0.23651153
-0.055548172 -0.27821192 -0.074124217 0.29046923 0.94680506 -0.13852035 0.22858661
-0.049927443 -0.27854341 -0.07295233 0.20994864 0.97329229 -0.092863418 0.25563025
-0.038791645 -0.27906704 -0.070248671 -0.083156064 0.97045875 -0.22648361 0.27332136
0.048297431 -0.27934492 -0.074636087 -0.22634201 0.87566465 -0.42659199 0.2160642
0.057891704 -0.27874756 -0.076546006 -0.3744224 0.87603354 -0.30392951 0.21246152
0.06538859 -0.27704132 -0.074482575 0.11086535 0.65658069 -0.74606347 0.25006083
0.073397756 -0.2775048 -0.078837171 -0.021477535 0.8686859 -0.49489743 0.27475443
0.082677796 -0.27371126 -0.078271776 -0.20515886 0.96905565 -0.13726281 0.25102952
0.13642743 -0.27683038 -0.071594954 -0.36753979 0.85290474 -0.37076691 0.2469162
0.15272158 -0.27281874 -0.078236595 -0.50620931 0.79379809 -0.33710054 0.1977361
-0.1655646 -0.26321882 -0.075923704 0.51477915 0.78508586 -0.34444541 0.23157176
-0.10806546 -0.26160049 -0.074008279 0.50783336 0.78836745 -0.34724918 0.15420826
-0.099545471 -0.26556599 -0.075174883 0.68229276 0.39250576 -0.61677855 0.22236738
-0.088644415 -0.26911825 -0.07260026 0.050818693 0.79588008 -0.6033178 0.2745786
0.08909487 -0.2690174 -0.072829485 -0.10156823 0.90887296 -0.40451658 0.22214572
0.091126494 -0.26742217 -0.07081455 -0.23380855 0.87312299 -0.42777318 0.23773059
-0.17139518 -0.25810254 -0.074585497 0.53334713 0.83720207 -0.12096907 0.2579011
-0.13610862 -0.25110641 -0.077007145 0.63895422 0.62656587 -0.44626531 0.23957527
-0.12398041 -0.25565165 -0.075728096 0.21688911 0.92652667 -0.3074207 0.21171911
0.11825845 -0.2574743 -0.074264541 -0.19206285 0.89604074 -0.40027854 0.21819513
0.1774423 -0.25390562 -0.075508885 -0.08084397 0.7695393 -0.63346153 0.24190268
0.18212149 -0.25133342 -0.077630252 -0.8245393 0.43831486 -0.35779187 0.22607769
-0.19155905 -0.24276689 -0.074870184 0.67578143 0.73710197 -7.5798795e-05 0.18742992
-0.18306106 -0.24838568 -0.07299114 0.55104339 0.80653036 -0.2141495 0.19639449
-0.15115511 -0.2421025 -0.077040806 0.20553587 0.86893189 -0.45023578 0.23246379
-0.14903398 -0.24386427 -0.077348858 0.29336849 0.85554898 -0.42658055 0.21360433
-0.1385971 -0.24857859 -0.073005058 0.64076895 0.28756085 -0.7118454 0.26163739
0.14802122 -0.24421787 -0.076376535 -0.47064966 0.84534854 -0.25273442 0.23863065
0.15318102 -0.24121051 -0.078561738 -0.1139738 0.93650156 -0.33162442 0.23316899
0.18530515 -0.24661633 -0.072892427 -0.69597554 0.70314193 -0.14563441 0.23374492
0.19520178 -0.240632 -0.07624574 -0.67860675 0.67530763 -0.28888127 0.20097865
-0.20427623 -0.23262456 -0.074070036 0.61191034 0.78332651 -0.109386 0.19037847
-0.19716923 -0.2380325 -0.073975302 0.60994941 0.77896935 -0.14549373 0.18685642
-0.15597028 -0.23828205 -0.076752409 0.14932546 0.95496523 -0.25640461 0.20846829
0.15358217 -0.2373403 -0.07038381 -0.47805193 0.77413356 -0.41494998 0.19454928
0.16302033 -0.23087561 -0.072168581 -0.27865899 0.8650009 -0.41728011 0.21725462
-0.22000244 -0.22188792 -0.076841839 0.73730141 0.61227471 -0.28549322 0.1886109
-0.21408592 -0.22462048 -0.073076576 0.83832037 0.48908937 -0.24085377 0.2284054
-0.20865348 -0.22964698 -0.074864179 0.58593178 0.77273428 -0.24406086 0.25200185
0.16657677 -0.22852148 -0.073029026 -0.60028017 0.7042833 -0.37901026 0.21860047
0.17750937 -0.22068989 -0.074308358 -0.54615712 0.73234588 -0.40667164 0.16777465
0.21642056 -0.22423984 -0.076015696 -0.49227014 0.75005585 -0.44168571 0.23574737
-0.23023748 -0.21030624 -0.07873638 0.59197128 0.51824802 -0.61724311 0.20376131
-0.22196552 -0.21660905 -0.071578868 0.72412872 0.4962143 -0.47896659 0.22276865
-0.18266742 -0.21559057 -0.071688145 0.934551 0.23423313 -0.26786071 0.24587062
0.18826318 -0.21251479 -0.074484155 -0.62633038 0.6880672 -0.36643404 0.13801953
0.22660784 -0.21244766 -0.074598014 -0.7524296 0.64849865 -0.11532241 0.21022974
-0.2347564 -0.20430295 -0.078553952 0.55683655 0.81120872 -0.17853163 0.24200001
-0.20255902 -0.20124084 -0.075056724 0.82747585 -0.021415226 -0.56109279 0.24578597
0.18986949 -0.20984299 -0.071180254 -0.52422488 0.81096059 -0.25986752 0.16812541
0.19343552 -0.20803843 -0.073319174 -0.47288114 0.81822067 -0.32695305 0.21076864
0.20262699 -0.20180556 -0.075640321 -0.84134048 0.48528963 -0.2379919 0.21837924
0.23468341 -0.20436208 -0.078496449 -0.66920805 0.60379273 -0.43312228 0.17683885
-0.24321383 -0.19282697 -0.077828169 0.59460211 0.62527603 -0.5054484 0.19955331
-0.23655984 -0.19793284 -0.07212802 0.63498574 0.48676792 -0.59987521 0.22564606
-0.21072984 -0.19137917 -0.075875424 0.88827544 0.28029722 -0.36386824 0.2352739
-0.20888108 -0.19603619 -0.079834715 0.9591921 0.28183904 0.022742538 0.26598653
0.20691995 -0.19535255 -0.074128397 -0.6113323 0.69984931 -0.36943719 0.19631287
0.24355198 -0.19206275 -0.077310957 -0.69769889 0.6205917 -0.35788557 0.14038435
-0.24535154 -0.18956868 -0.077073023 0.79092354 0.34484258 -0.5054934 0.24971369
-0.21456738 -0.18530716 -0.073989145 0.39279059 0.69518489 -0.6020245 0.23154199
0.21363135 -0.18639182 -0.073750995 -0.29027531 0.84854841 -0.44238651 0.21520807
0.2466639 -0.18516281 -0.072764009 -0.7100606 0.55089271 -0.43855575 0.19939844
-0.22339615 -0.17409492 -0.07450635 0.64069319 0.43291762 -0.63410926 0.20016213
0.22354646 -0.17558336 -0.077473268 -0.85163844 0.39908937 -0.33976406 0.21759503
0.25790757 -0.1737538 -0.0779498 -0.7424472 0.5285095 -0.41164291 0.19693971
-0.26513553 -0.16353095 -0.076665826 0.73537308 0.64279258 -0.21457903 0.22245035
-0.23109247 -0.16456041 -0.07537926 0.8031559 0.42633447 -0.41614845 0.21115416
-0.22939666 -0.16767168 -0.076966859 0.81768 0.4363727 -0.37547064 0.21671435
0.22506672 -0.16944654 -0.070153274 -0.69246763 0.48955312 -0.52993047 0.20077662
0.25806695 -0.16887702 -0.070485942 -0.69231468 0.41983011 -0.58689284 0.23376404
0.26202804 -0.1694327 -0.079626322 -0.67057663 0.53585392 -0.51301819 0.18541616
-0.27325356 -0.15167494 -0.078239754 0.63078749 0.77594924 0.0031258364 0.23155186
-0.24015844 -0.15067667 -0.071735233 0.80439734 0.46626467 -0.36816049 0.19607273
0.23783153 -0.15611625 -0.075975195 -0.68099332 0.53006113 -0.5052557 0.22056857
0.24135828 -0.15119514 -0.075402811 -0.77781838 -0.53946829 -0.32244775 0.27477345
0.26726905 -0.15759392 -0.071619801 -0.73959839 0.56055105 -0.37252748 0.18389131
0.27258152 -0.15477245 -0.079722025 -0.77319121 0.44249788 -0.45428076 0.17382793
-0.273577 -0.14457111 -0.071885832 0.89023995 0.38640833 -0.24116671 0.2389407
-0.24626346 -0.14523028 -0.077035032 0.78657705 0.57835692 -0.21633266 0.21336061
0.24683373 -0.14317632 -0.074898727 -0.30930647 0.78993368 -0.52946597 0.22982515
0.27522877 -0.14488916 -0.0762126 -0.80850708 0.50568509 -0.30099651 0.19748299
-0.27697095 -0.13581432 -0.07131999 0.94768846 -0.28988746 0.1336109 0.20309725
-0.25215933 -0.1311104 -0.074287243 0.90046704 0.28737769 -0.32645565 0.23654386
0.25156498 -0.13699503 -0.079214476 -0.60949135 0.67085314 -0.42246461 0.24641947
0.27842408 -0.13335089 -0.07236971 -0.88674974 0.35440975 -0.29676345 0.18994053
-0.28257862 -0.12471738 -0.073773123 0.9521234 0.26060411 0.15983288 0.20725954
-0.25509268 -0.12331714 -0.073499389 0.7781933 0.6274147 -0.027676448 0.25727582
0.28162134 -0.12777939 -0.074527621 -0.95151991 0.19670413 -0.23646858 0.19625381
-0.26054931 -0.11269605 -0.076325625 0.93171114 0.3477321 -0.10486557 0.20025729
0.26123947 -0.11167526 -0.077040315 -0.90391588 0.28319308 -0.32052732 0.240894
0.28749186 -0.11508364 -0.076011866 -0.86910546 0.2706418 -0.41401526 0.233752
-0.29263753 -0.1007133 -0.074054718 0.89532197 0.33190364 -0.29704979 0.21241175
-0.26327744 -0.10452246 -0.074568041 0.85977209 0.50980294 -0.029883223 0.21994105
0.26246741 -0.1076544 -0.075870544 -0.93364793 0.30547276 -0.18705049 0.26297775
0.29081506 -0.1049262 -0.073866829 -0.8530212 0.33725059 -0.39826736 0.20135237
-0.29630053 -0.092211775 -0.07439816 0.65277255 0.37010261 -0.66099328 0.25635758
-0.2682915 -0.093948938 -0.076263912 0.88143945 0.35262433 0.31419829 0.21995394
0.26826003 -0.094301626 -0.076570161 -0.96550757 -0.083570398 -0.24659896 0.25195575
0.29444194 -0.097598411 -0.075302139 -0.84672809 0.32540497 -0.4209075 0.21481217
-0.29834494 -0.084381707 -0.071489513 0.9618566 0.26333213 -0.074082144 0.25620931
-0.27089801 -0.088696435 -0.077415712 0.74065369 0.66880453 -0.064286128 0.24285415
0.2991378 -0.087616242 -0.076663375 -0.94361615 0.31013566 -0.11577751 0.15779464
-0.30276349 -0.074073061 -0.076519549 0.92666334 0.022956444 -0.37519068 0.19912204
-0.27275416 -0.078833148 -0.071455941 0.98492855 -0.16608937 -0.048271183 0.24555618
0.30287194 -0.07620734 -0.077533476 -0.92593408 0.15269467 -0.34544238 0.16706018
-0.30181074 -0.06342613 -0.0703898 0.89634711 0.16345078 -0.41212347 0.18650071
-0.27743018 -0.065650016 -0.075696796 0.82777649 0.56064552 -0.021510843 0.26138681
0.27837759 -0.062409669 -0.077190876 -0.8697049 0.47928259 -0.11790517 0.2314571
0.30437607 -0.066935696 -0.078271523 -0.90552562 0.15516946 -0.3948997 0.19703768
-0.30441177 -0.053021125 -0.073595122 0.79182816 0.18866166 -0.58087432 0.23393302
-0.27936432 -0.057476573 -0.078158528 0.90316916 -0.26238132 0.33976683 0.20506026
0.27746162 -0.05846652 -0.073073871 -0.86558527 0.49595296 0.069230296 0.25993782
0.30531755 -0.051275983 -0.075355142 -0.90753841 0.24748634 -0.33930004 0.23483302
-0.30690372 -0.044061728 -0.077012002 0.94544613 0.038637985 -0.32347897 0.19996774
-0.28112382 -0.036125772 -0.075142294 0.90680003 0.29545131 -0.30070293 0.24739788
0.28227443 -0.035947919 -0.078375965 -0.98934782 0.0026905546 -0.14554615 0.21253335
0.30560631 -0.037576005 -0.071411215 -0.89247584 -0.051759753 -0.44811577 0.18629573
-0.30715403 -0.025136715 -0.071177043 0.76987636 0.2713477 -0.57763374 0.20469108
-0.28067219 -0.029964322 -0.071519569 0.88451689 0.38312835 -0.26616254 0.21785161
0.28229198 -0.024534784 -0.074115716 -0.93472773 -0.016466444 -0.35498306 0.23907191
0.30849609 -0.023102069 -0.073973671 -0.61120832 0.080246054 -0.78739119 0.22950678
-0.3114033 -0.017796017 -0.07972382 0.89716214 0.18978526 -0.39885056 0.17020746
-0.30913493 -0.015439404 -0.073010512 0.94800854 0.12156014 -0.29411364 0.12757047
0.283007 -0.014544117 -0.072393589 -0.65795004 -0.26421547 -0.70518935 0.21480663
0.31049496 -0.013564104 -0.075908571 -0.86703223 0.12843478 -0.48141411 0.20536157
-0.3119092 -0.0060635004 -0.07701958 0.92557454 -0.01645189 -0.3782078 0.1246242
0.28480268 -0.007518888 -0.074891821 0.22965118 0.0067587025 0.97324955 0.24880818
0.30996698 -0.0074460302 -0.072436929 -0.64325213 0.021024847 -0.76536566 0.23356862
0.31159097 -0.00023624348 -0.074193731 -0.84970391 0.031976145 -0.52628964 0.21862318
-0.31303403 0.0057312357 -0.079834238 0.88980675 -0.062608644 -0.45202217 0.18122457
-0.28621548 0.009074308 -0.079532363 0.73120743 -0.44071952 -0.52067459 0.2082227
0.28557068 0.003392078 -0.075536445 -0.78047341 0.0053371261 -0.62516624 0.2255944
0.30948862 0.0080037341 -0.071382761 -0.92077529 0.011548331 -0.38992253 0.22663754
0.31117854 0.0019667137 -0.073713101 -0.90373755 -0.077771716 -0.42096323 0.22672956
-0.28430742 0.011781925 -0.075081199 0.96018529 -0.26566184 -0.086417325 0.24966957
0.28301227 0.01400838 -0.072206385 -0.95290619 0.15091644 -0.26304737 0.21275645
0.30899173 0.013391254 -0.071935683 -0.95244569 0.033673 -0.30284211 0.19001473
-0.30843127 0.026924524 -0.075115167 0.43514845 -0.74289101 -0.50868332 0.29213822
-0.28325707 0.0205785 -0.075390257 0.9634307 -0.20547548 -0.17199191 0.19508272
0.3088412 0.026753146 -0.076123551 -0.96000928 0.02214268 -0.279091 0.20992191
-0.30814061 0.038568098 -0.078349285 0.97174054 0.02750529 -0.23444319 0.27988529
-0.28048947 0.035417579 -0.073054992 0.88225728 -0.07671576 -0.46447462 0.2125002
0.28191081 0.030628176 -0.075323537 -0.97792971 -0.20292558 -0.049746308 0.2032637
0.30896163 0.034039684 -0.078934632 -0.9671433 -0.07893391 -0.24166773 0.20806475
-0.30605632 0.044181794 -0.074846998 0.97778374 -0.088108271 0.19019973 0.2599622
-0.28055698 0.048834935 -0.078316256 0.96010441 0.011671259 -0.27939814 0.22210668
-0.27773452 0.048726082 -0.070178032 0.92254031 0.012472419 -0.385699 0.21591003
0.27781418 0.049707279 -0.070776962 -0.48629904 -0.16746995 -0.85759372 0.24650739
0.28176719 0.042759109 -0.079493165 -0.97212636 -0.025205443 -0.23309895 0.17779692
-0.30504292 0.056712143 -0.076503456 0.83051658 -0.17309453 -0.52941525 0.20827481
-0.27819949 0.05649073 -0.07444448 0.93802118 0.22101866 -0.26695889 0.22938755
0.27872324 0.057000663 -0.076139487 -0.8424409 -0.44637218 -0.30173701 0.25203767
0.28052196 0.053334184 -0.079914987 -0.94334441 -0.02674349 -0.33073568 0.23745465
0.30478236 0.059216272 -0.07668338 -0.78817213 -0.045669693 -0.61375803 0.22175837
-0.30213782 0.067611605 -0.072675988 0.90389609 0.12119015 -0.41022527 0.21506408
-0.27686876 0.06542661 -0.074001908 0.94939923 -0.22539492 -0.21871933 0.30058876
0.27625668 0.064494669 -0.071893774 -0.69951892 -0.52760583 -0.48198071 0.23471987
0.30348518 0.064059854 -0.074966416 -0.83425528 -0.26382256 -0.48416516 0.25628525
-0.30282488 0.073301435 -0.076414883 0.92647094 -0.074837513 -0.36885086 0.21697368
0.27371079 0.078438781 -0.073576443 -0.79444158 -0.077080064 -0.60242939 0.24374098
-0.30044222 0.083586544 -0.075778529 0.86181504 -0.18208601 -0.47341257 0.19945824
-0.27107194 0.083581232 -0.072216541 0.86576104 -0.46338564 -0.18902819 0.23756887
0.26971954 0.088021606 -0.073517874 -0.79675192 -0.36788794 -0.47942129 0.22554831
0.27251348 0.082734704 -0.075132571 -0.6251685 -0.31770471 -0.71290112 0.24651358
0.29956198 0.084743097 -0.07480529 -0.93838954 -0.28787377 -0.19119048 0.20397884
0.30151564 0.084008843 -0.078807101 -0.82652098 -0.24412693 -0.50721318 0.15647089
-0.29426205 0.095479667 -0.072736666 0.85612965 -0.2449028 -0.45504364 0.18255648
-0.2647309 0.097593933 -0.07078141 0.70580673 -0.30006883 -0.64171302 0.27487934
0.26763988 0.096386872 -0.077221297 -0.61306673 -0.42086726 -0.66859549 0.27257696
0.29421496 0.099819638 -0.076983564 -0.26759651 -0.61044627 -0.74548471 0.29013231
-0.29269519 0.10417899 -0.07767728 0.78108144 -0.53685302 -0.31890553 0.19400179
-0.26478851 0.10196482 -0.075775437 0.96991277 0.021817653 0.24247289 0.26929772
0.26290363 0.10565862 -0.074826717 -0.78133625 -0.55695111 -0.28163657 0.20972641
0.28877068 0.1073336 -0.071326293 -0.70406753 -0.68931198 -0.17069833 0.25314051
0.29151538 0.10015617 -0.070772439 -0.78560126 -0.52781868 -0.32285917 0.2619563
-0.29028451 0.11039019 -0.078070596 0.87635183 -0.26558065 -0.40183881 0.23386988
-0.28780842 0.11686926 -0.07857424 0.94958913 -0.17195016 -0.26213294 0.22462085
-0.25778782 0.11557905 -0.072135791 0.83487242 -0.43096671 -0.34242645 0.22242655
0.25796229 0.11382329 -0.070657879 -0.93857616 -0.27858782 -0.20362604 0.17729768
0.28710985 0.11792098 -0.077936269 -0.87462163 -0.44300067 -0.19694543 0.25860071
-0.28243896 0.12746736 -0.076197699 0.83645612 -0.54400682 0.066315442 0.22353409
-0.25718608 0.12232559 -0.077997647 0.85895127 -0.41385368 -0.30154231 0.22069903
0.25690359 0.12396728 -0.079060234 -0.93248028 -0.2413345 -0.26877156 0.18313888
0.28346589 0.12875795 -0.079986013 -0.89683992 -0.3541593 -0.26504609 0.25215143
-0.27748013 0.13924555 -0.076003306 0.96566045 -0.21759211 -0.14196333 0.2346883
-0.25009954 0.139057 -0.077580296 0.93958467 -0.30715585 -0.15111548 0.26200652
0.25340202 0.13057356 -0.077014811 -0.92860591 -0.31799489 -0.19123371 0.19809271
0.27632004 0.13840578 -0.072344944 -0.89532822 -0.36468789 -0.25571495 0.17219467
-0.24721156 0.14293413 -0.074919753 0.77224731 -0.582017 0.25473553 0.26116619
0.24676415 0.14504971 -0.076987475 -0.89660865 -0.24136348 -0.37126347 0.20692727
-0.27106917 0.15498208 -0.076263681 0.66816705 -0.59442157 -0.44745469 0.1906797
-0.26885447 0.15670115 -0.073495589 0.81476218 -0.44546148 -0.37111554 0.22178814
0.23585248 0.15734799 -0.07360173 -0.60272729 -0.44302127 -0.66366553 0.23913415
-0.26605773 0.16237506 -0.076739267 0.7900275 -0.41135481 -0.45458084 0.19104616
-0.23368402 0.16047612 -0.074133992 0.85203195 -0.17672446 -0.49275759 0.19275145
-0.22863095 0.16557825 -0.071521401 0.63762361 -0.48114669 -0.60160941 0.21878281
0.22810082 0.16722059 -0.073197395 -0.58525598 -0.63569146 -0.50336039 0.243763
0.23255816 0.16196997 -0.074180812 -0.53117329 -0.59213996 -0.60599113 0.2625117
0.26310384 0.16268861 -0.071086682 -0.8069185 -0.55500746 -0.2021122 0.21873558
-0.25185469 0.17910035 -0.073886715 0.5913251 -0.58707577 -0.55288035 0.21659906
0.22055273 0.17733452 -0.073685445 -0.70996022 -0.41112235 -0.57178223 0.22992508
0.25585097 0.17465113 -0.075099729 -0.67149013 -0.39123103 -0.62931645 0.20149845
0.26062486 0.17090039 -0.079049356 -0.80746996 -0.28102797 -0.51866722 0.2111512
-0.24856678 0.18333951 -0.073813573 0.75134641 -0.26972696 -0.60226732 0.21555467
-0.21411085 0.18738464 -0.076600544 0.70066392 -0.66711956 -0.25302505 0.23199782
0.21640265 0.18496591 -0.077601001 -0.64930195 -0.64263302 -0.40673071 0.25816983
0.24834713 0.18355651 -0.073702931 -0.66138107 -0.4250946 -0.61795604 0.21485835
0.25042683 0.18282589 -0.076867566 -0.78916854 -0.34477413 -0.50827527 0.21813141
0.20600221 0.19674638 -0.074476771 -0.96958345 -0.17034166 -0.17576034 0.19586264
0.2382568 0.19790414 -0.075617477 -0.49688074 -0.74114752 -0.451453 0.24421094
0.24011843 0.19665916 -0.077505551 -0.80361003 -0.51876491 -0.29170877 0.2596356
-0.23162669 0.20817593 -0.078225061 0.84407693 -0.50012904 -0.19340421 0.2052187
-0.2270219 0.20914176 -0.070175953 0.856062 -0.37173739 -0.35912293 0.19479476
-0.19742414 0.20632973 -0.076422587 0.56015086 -0.80980378 -0.1744964 0.20912027
0.19828759 0.20371389 -0.071938515 -0.52604121 -0.46984905 -0.70888835 0.24811125
0.22978476 0.20582116 -0.070623577 -0.70271671 -0.66853553 -0.2434119 0.2114398
0.23570034 0.20254025 -0.077702709 -0.68121195 -0.53141707 -0.5035336 0.2398234
-0.22398137 0.21621382 -0.075146765 0.64967424 -0.73927099 -0.17720562 0.19808701
-0.18231991 0.21885195 -0.078562818 0.6408655 -0.66297954 -0.3869749 0.23058715
0.1807113 0.21675904 -0.070924737 -0.62250412 -0.63668013 -0.45511198 0.21289518
0.19426675 0.2100549 -0.079412431 -0.45780617 -0.85488135 -0.24411373 0.21549237
-0.21564603 0.22374229 -0.073741078 0.49422529 -0.83190107 -0.25235263 0.19237721
-0.1758662 0.22365795 -0.078227431 0.81149554 -0.36779842 -0.45409173 0.21116081
-0.16847396 0.22904712 -0.077577561 0.68887132 -0.017196925 -0.72467959 0.25402281
0.16997026 0.22546253 -0.07198438 -0.5646472 -0.68214929 -0.4645921 0.1958593
0.17526591 0.2219224 -0.073185869 -0.37970454 -0.8136307 -0.44026083 0.23265626
0.1806187 0.22015135 -0.078549132 -0.5136286 -0.77704257 -0.36385512 0.21735446
0.20968848 0.22735748 -0.071749032 -0.64680362 -0.67116052 -0.36219975 0.11237473
0.21196406 0.22803545 -0.076799057 -0.73387945 -0.61422658 -0.29008052 0.20152795
-0.20490244 0.23022814 -0.070078611 0.61972076 -0.75257325 -0.22266509 0.22947522
-0.16236365 0.2330377 -0.07597515 -0.57590753 -0.21440078 0.78889972 0.22838736
-0.150381 0.23976696 -0.070315644 0.21937446 -0.76500183 -0.60551375 0.19892681
0.15280578 0.23828655 -0.071188457 -0.47190765 -0.85848975 -0.20074508 0.22160192
0.19466138 0.23939747 -0.072810009 -0.32649967 -0.75123119 -0.57362849 0.227487
0.20690525 0.23172008 -0.076388426 -0.61930072 -0.70638055 -0.34277266 0.17984699
-0.18910657 0.24348859 -0.07245326 0.77742249 -0.16238429 -0.60765588 0.29268885
-0.15184602 0.242273 -0.078649186 0.23456816 -0.84120488 -0.4871881 0.18924403
0.14590326 0.2456753 -0.075991422 -0.30320102 -0.6599071 -0.68745315 0.28931326
0.15098244 0.24214436 -0.076832667 -0.42552534 -0.82329094 -0.37565985 0.21366619
0.18276754 0.2496855 -0.075229891 -0.80385864 -0.50968629 -0.30664518 0.23571733
-0.17253681 0.25587004 -0.071759522 -0.2087058 -0.88073796 -0.42513838 0.23905548
-0.16926084 0.25799146 -0.070942186 -0.14191225 -0.90586573 -0.39908424 0.22867307
-0.13553813 0.25123101 -0.076708511 0.6246103 -0.65938705 -0.41841438 0.1890343
-0.11560383 0.25802168 -0.072788335 0.21020132 -0.83163112 -0.51400888 0.20222999
0.11400831 0.25890639 -0.073386624 -0.37402686 -0.8577407 -0.35268229 0.23528551
0.12867619 0.25167695 -0.070302203 -0.38394001 -0.92019552 -0.076356456 0.2324827
0.13531134 0.25145024 -0.077043377 -0.30369201 -0.72879791 -0.61369771 0.25232041
0.17596421 0.25582853 -0.077152006 -0.31259078 -0.81831145 -0.48234153 0.22069335
-0.16648529 0.26285103 -0.076629236 0.40443501 -0.70343804 -0.58447182 0.15156658
-0.10024919 0.26618505 -0.077608995 -0.17502145 -0.8490594 -0.49846336 0.22499655
-0.092690304 0.2665846 -0.070306972 0.25290647 -0.86060917 -0.44202951 0.22354889
0.096025586 0.26868901 -0.079625882 -0.45750856 -0.8160156 -0.35327676 0.25287309
0.10509982 0.26335388 -0.075411521 -0.39750934 -0.91416955 0.079248197 0.23640957
0.11239273 0.26149175 -0.078509055 -0.43701375 -0.87797052 0.19541441 0.25783715
0.16485041 0.26490965 -0.078304514 -0.47693646 -0.7959336 -0.37285557 0.19736315
-0.14266787 0.27434856 -0.071844921 0.61031854 -0.76020986 -0.222693 0.19987965
-0.13675134 0.27668178 -0.071559951 0.89566696 -0.44352552 -0.032647394 0.18744585
-0.081059515 0.27428707 -0.078018993 0.45086864 -0.64535046 -0.61663628 0.28114387
-0.074236594 0.27590713 -0.0749911 0.7320174 -0.60261446 -0.31781495 0.25703529
-0.068127349 0.27598014 -0.07247252 0.1759506 -0.34713146 -0.92116296 0.22259185
-0.054509267 0.27822214 -0.073761076 0.19568382 -0.7986964 -0.56902719 0.24856928
0.05171622 0.27900863 -0.074962355 0.30443811 -0.91937268 -0.24914101 0.24166025
0.06528081 0.27589524 -0.071153842 -0.41634908 -0.5839656 -0.696877 0.25311342
0.070114367 0.27505848 -0.070578866 0.68797755 -0.39117354 0.61128563 0.28093722
0.081887819 0.27320087 -0.076032385 -0.75444102 -0.62812829 -0.19045611 0.22233026
0.13546714 0.27873379 -0.075247787 -0.19551603 -0.79735547 -0.57096213 0.22995792
0.14243865 0.27481115 -0.072736934 -0.54577339 -0.70629805 -0.45085976 0.22312638
0.15289471 0.27148527 -0.075175524 -0.46019974 -0.67963749 -0.5712347 0.19971411
-0.13221116 0.28043079 -0.076092862 0.87201279 -0.4893254 0.012427094 0.19193755
-0.12454566 0.28307378 -0.074801795 0.33371273 -0.89151639 -0.30632398 0.18412073
-0.11411425 0.28826034 -0.076902092 0.19517739 -0.94067717 -0.27754676 0.20756331
-0.032601729 0.28152558 -0.07496389 -0.34978843 -0.91824949 -0.18564987 0.25641972
-0.02552784 0.28187433 -0.07329268 -0.30052125 -0.86575234 -0.40019962 0.25764823
-0.013147655 0.28330532 -0.07272201 -0.32576254 -0.88493359 -0.33282319 0.19205227
0.004180423 0.28520274 -0.074778572 -0.12155265 -0.9585883 -0.25755289 0.17874728
0.013930982 0.28400332 -0.075020336 -0.19167694 -0.96747547 -0.16507925 0.18458191
0.026974877 0.28149354 -0.072746739 4.2154919e-05 -0.96705455 -0.25456944 0.19880112
0.11759444 0.2865034 -0.076136857 -0.20269489 -0.97921014 -0.0078979293 0.25789762
-0.11215205 0.29020011 -0.079636276 0.23284175 -0.85959548 -0.4548409 0.22983027
-0.10358903 0.29161853 -0.074472398 0.30869249 -0.87583053 -0.37098503 0.24336262
-0.096703172 0.2937142 -0.072636954 0.40068862 -0.65463746 -0.64101368 0.21870446
-0.082118437 0.29936227 -0.071683235 0.40302798 -0.63142163 -0.66247654 0.23461857
0.08327172 0.29958764 -0.073388904 -0.26115382 -0.94985259 -0.17198491 0.24865508
0.09264189 0.29635206 -0.074955322 -0.39097613 -0.91752422 0.072711252 0.23128709
0.10355189 0.29147962 -0.074098043 -0.53546917 -0.84233409 0.061205193 0.21897058
-0.08098416 0.30050519 -0.073316194 0.39809993 -0.67322308 -0.6231268 0.20587611
-0.072300859 0.30132878 -0.072176881 0.18227026 -0.65967172 -0.72911644 0.1891885
-0.064668968 0.30292547 -0.073717974 0.16837187 -0.89559495 -0.41177753 0.17882305
-0.057026844 0.30546612 -0.077713028 0.14558944 -0.98616403 -0.079272628 0.20613466
-0.044718355 0.30608428 -0.075103708 0.11601366 -0.99089354 -0.068343163 0.20108055
-0.03574273 0.30781597 -0.07653565 -0.02192693 -0.97960359 -0.19973963 0.18065766
-0.024835944 0.30822966 -0.073874258 0.06200492 -0.99718201 0.042229485 0.24157055
0.037133772 0.30657381 -0.073778443 0.18119335 -0.96874219 -0.16943303 0.19076684
0.045128729 0.30551276 -0.073756397 -0.10881788 -0.98509407 -0.13322312 0.18858317
0.063663803 0.3045885 -0.077703044 -0.14019458 -0.91766953 -0.37179029 0.19664203
0.077760361 0.3014423 -0.074343674 -0.29349136 -0.83815211 -0.45974311 0.19095768
0.08225394 0.30138808 -0.076734066 -0.28843981 -0.8613131 -0.41826087 0.18040836
-0.011623595 0.3117193 -0.078430928 -0.3947987 -0.91540849 -0.078493178 0.21868899
0.004508222 0.31207317 -0.076913394 -0.34286496 -0.93936986 0.0052911136 0.20615284
-0.056500789 -0.30085775 -0.065535024 -0.20010993 0.96884698 -0.14591627 0.24893695
-0.032978006 -0.30438063 -0.066644207 0.12934572 0.90430921 -0.40681028 0.18838669
-0.022023791 -0.3051846 -0.064982772 0.20281149 0.91997856 -0.33542043 0.20066041
-0.017495042 -0.30450967 -0.061673373 0.35100976 0.88725466 -0.29928449 0.21897736
-0.0071242065 -0.30550945 -0.060721654 0.042823467 0.99908096 -0.001813205 0.18978024
0.0051723188 -0.30800995 -0.066562526 0.010645623 0.99685752 -0.078496166 0.21783258
0.016971741 -0.30723137 -0.068579853 0.20270139 0.79670995 -0.56935519 0.22551855
0.020737015 -0.30709174 -0.069506899 0.089099191 0.8632859 -0.49678859 0.22544263
0.043802742 -0.30296618 -0.066671968 -0.24898541 0.88706011 -0.38875514 0.18746521
0.066944346 -0.3007015 -0.068707816 -0.077363767 0.95805699 -0.27593797 0.26187152
0.070231423 -0.30000135 -0.068011656 -0.14610045 0.98082954 -0.12894982 0.2194625
-0.094084375 -0.2919063 -0.065619305 0.44384918 0.69450492 -0.56626928 0.2499142
-0.086831093 -0.2944721 -0.06455525 0.051123761 0.73123181 -0.68021065 0.25200287
-0.061053459 -0.2993443 -0.063155301 0.32862467 0.92291921 -0.20056416 0.23576352
0.068328783 -0.29791859 -0.061937116 -0.083046637 0.88760936 -0.45304841 0.20349549
