# .PCD v0.7 - Point Cloud Data file format
VERSION 0.7
FIELDS x y z normal_x normal_y normal_z curvature
SIZE 4 4 4 4 4 4 4
TYPE F F F F F F F
COUNT 1 1 1 1 1 1 1
WIDTH 576
HEIGHT 1
VIEWPOINT 0 0 0 1 0 0 0
POINTS 576
DATA ascii
0.074579127 -0.095700853 0.10633674 -0.61511362 0.78317785 -0.090926483 0.0028236201
0.080842242 -0.090894982 0.106695 -0.66010672 0.74415934 -0.10240157 0.0030335051
-0.085123636 -0.087385051 0.10575108 0.69748604 0.71171439 -0.083520785 0.0024578338
0.086111397 -0.086388655 0.10503977 -0.71044475 0.69987714 -0.073757425 0.0028025687
0.091102317 -0.080572069 0.10091879 -0.73987114 0.66996223 -0.061165471 0.0021821097
-0.095131949 -0.075320438 0.10336786 0.77452624 0.62922645 -0.064677529 0.0018935305
0.0948155 -0.075732969 0.10441379 -0.77652907 0.62665313 -0.065638781 0.002636631
-0.10326143 -0.064702474 0.10390769 0.84946215 0.52178669 -0.078439064 0.003023868
-0.099560238 -0.069549382 0.10538404 0.81393117 0.57683879 -0.069087625 0.0027321365
0.10272321 -0.065427452 0.10527731 -0.8376984 0.53951818 -0.084744126 0.0026711705
-0.11022669 -0.050927807 0.10900458 0.90514725 0.40839481 -0.11799192 0.0026412574
-0.10807668 -0.056118421 0.1065774 0.88021868 0.46276081 -0.10520242 0.0031965438
0.10835773 -0.055440158 0.10553946 -0.87893587 0.46584857 -0.10225882 0.0029723546
0.11023717 -0.050902788 0.10146366 -0.90418696 0.42172205 -0.067797251 0.0025611867
-0.11248079 -0.04548591 0.10343755 0.92546886 0.37158743 -0.073689632 0.002235967
0.11257045 -0.045269743 0.10423954 -0.92862892 0.36366349 -0.073465645 0.0028132654
-0.11672062 -0.035164393 0.1045882 0.95467216 0.28736994 -0.077585511 0.0023114339
0.11650863 -0.035748865 0.10515506 -0.95616037 0.28136259 -0.081194483 0.0023433536
-0.11920691 -0.024043521 0.10574108 0.97181857 0.21811721 -0.089406878 0.0025345511
0.11920797 -0.024036167 0.10546099 -0.97580558 0.200157 -0.087981179 0.0026123947
-0.12055721 -0.01378711 0.10247578 0.9932813 0.0987712 -0.060304001 0.0016845134
0.11995775 -0.01834086 0.10558604 -0.98342401 0.15614431 -0.092174813 0.0025309965
0.12046707 -0.014472215 0.10597382 -0.98788965 0.1199871 -0.098372072 0.0026738576
-0.12166683 -0.0053589186 0.10754225 0.99497849 0.038481805 -0.092395991 0.0030301288
0.12158123 -0.0060091531 0.10380881 -0.99670208 0.045631137 -0.067102663 0.0027650706
-0.12148833 0.0067146765 0.10588392 0.99604589 -0.047253616 -0.075230889 0.0029009171
0.1218119 0.0042570657 0.10566134 -0.99692291 -0.019569984 -0.075905956 0.0029824446
-0.12074208 0.01238288 0.10764632 0.99186563 -0.085649207 -0.094163373 0.0030023986
-0.11992496 0.018589506 0.10154407 0.98519337 -0.16014683 -0.061213676 0.0025356698
0.11989141 0.018844754 0.10473361 -0.9866944 -0.14724828 -0.068935923 0.0030502311
0.12057049 0.013686657 0.10696517 -0.99105024 -0.099162549 -0.089365691 0.0027090418
-0.11915406 0.024445053 0.10409506 0.97485363 -0.21325597 -0.064670727 0.0027608345
0.11913487 0.024591381 0.10571145 -0.97296882 -0.21891722 -0.073532194 0.002808596
-0.11711854 0.034289334 0.10449056 0.95875919 -0.27607086 -0.067569636 0.002285003
0.11673059 0.035007745 0.10524039 -0.95300382 -0.29369131 -0.074357681 0.0024437469
-0.1121543 0.046274114 0.10358986 0.92412281 -0.37689433 -0.062830649 0.0024901778
0.11269592 0.044966795 0.10449388 -0.92675096 -0.37099406 -0.059127014 0.002059412
-0.10777447 0.056848008 0.10465476 0.8763572 -0.47561076 -0.076109119 0.0029430231
0.10745076 0.057629779 0.10512818 -0.87505811 -0.47833058 -0.07398013 0.0021944328
0.11029398 0.050765626 0.10089011 -0.90543312 -0.42045146 -0.058408413 0.00237331
-0.1042354 0.063392654 0.10515188 0.85005188 -0.51931989 -0.087855667 0.002750501
-0.099712327 0.069351174 0.10766117 0.82779783 -0.55135489 -0.10372294 0.0027170654
0.1031756 0.064793631 0.10492019 -0.84002513 -0.53725737 -0.075579658 0.0023532242
-0.096660018 0.073329009 0.10490385 0.79377139 -0.60342973 -0.076154694 0.0031499511
0.095372982 0.07500644 0.10619152 -0.78398967 -0.61356723 -0.094315708 0.0023378325
-0.090960488 0.080756776 0.10452083 0.73900747 -0.66862082 -0.082548216 0.0031500454
-0.085162759 0.087388188 0.10369294 0.69099694 -0.71879995 -0.076485418 0.0026502765
0.086299658 0.086159676 0.10469025 -0.7041527 -0.70630985 -0.072769217 0.0024455159
-0.076391712 0.094309919 0.10584906 0.63142371 -0.77072138 -0.085396834 0.0021551661
0.073622651 0.096434757 0.1053187 -0.60211432 -0.79352379 -0.088194676 0.0019482233
0.080323778 0.091292813 0.10515267 -0.66299886 -0.74351555 -0.087276578 0.002384858
-0.062650368 0.10482836 0.10466065 0.51667428 -0.8516016 -0.088444725 0.0027846419
-0.055799395 0.10820882 0.10465376 0.46611726 -0.88139659 -0.076646701 0.0025896789
0.055101205 0.10849806 0.10583407 -0.45254526 -0.88762182 -0.085616849 0.0023243586
0.065532446 0.1026426 0.10568602 -0.55416262 -0.82850796 -0.080487736 0.0023133443
-0.045229487 0.11258703 0.10581152 0.37626198 -0.92194688 -0.091874383 0.00272182
-0.036132492 0.11628821 0.1054027 0.29145956 -0.95319003 -0.080499522 0.0023235441
-0.026008008 0.11894835 0.10429541 0.21978776 -0.9731136 -0.068871938 0.0025939217
0.018996747 0.1198714 0.10728597 -0.17699639 -0.97997838 -0.091184363 0.0030321709
0.024042372 0.11920712 0.10321903 -0.20407879 -0.97682101 -0.064595595 0.0023812356
0.032501366 0.11775875 0.10449211 -0.26457149 -0.96137035 -0.075953096 0.0021022046
0.045921367 0.11230046 0.10444941 -0.37958342 -0.92204273 -0.075852521 0.0023094178
0.050194904 0.11053032 0.10265172 -0.41794088 -0.90636975 -0.061801024 0.0025731546
-0.015070168 0.12038833 0.10617216 0.10621758 -0.99115974 -0.079499252 0.0022326827
-0.0044877641 0.12178154 0.10427057 0.017469006 -0.99773997 -0.064883426 0.0024787188
0.0062326812 0.12155181 0.10495434 -0.036989439 -0.9968881 -0.069612548 0.0024887121
0.014329034 0.12048591 0.10639233 -0.1007176 -0.99165124 -0.080521934 0.0028547521
-0.015903709 -0.12025369 0.11121039 0.13065375 0.98259443 -0.13205203 0.0026405093
-0.0047856029 -0.12129107 0.11281046 0.036916278 0.99322903 -0.1101516 0.0028556345
0.0073305354 -0.12066117 0.11408633 -0.062678955 0.98950005 -0.13023452 0.0028135106
0.013239749 -0.12052365 0.11105583 -0.09083949 0.98963583 -0.11121695 0.0027861095
-0.045463506 -0.11160213 0.11432304 0.37054634 0.91958112 -0.13063645 0.002762909
-0.035071325 -0.11565965 0.11517412 0.28001404 0.94951648 -0.1414589 0.0025134301
-0.023635834 -0.11824449 0.11508467 0.21191379 0.96745133 -0.13831328 0.0026194793
-0.015572954 -0.11930177 0.11518002 0.12551831 0.98094714 -0.14828344 0.0024888716
0.016166274 -0.11895005 0.11627112 -0.15605733 0.97450119 -0.1612248 0.002419055
0.02535649 -0.11778467 0.11609355 -0.2315751 0.96118653 -0.14997795 0.0028831081
0.034590609 -0.11598882 0.11462335 -0.28345117 0.94827223 -0.14295202 0.0027354592
0.045034729 -0.11150435 0.1154342 -0.37534603 0.91520482 -0.14668152 0.0026715957
-0.063144408 -0.10381628 0.11291073 0.52616388 0.84069067 -0.12802628 0.002998817
-0.055458706 -0.10759375 0.11378887 0.472693 0.86975604 -0.14172454 0.0030207394
-0.04951236 -0.10974917 0.11506431 0.40096176 0.90269184 -0.15613143 0.0028065455
0.04976311 -0.10873708 0.11843934 -0.40648004 0.89813858 -0.16769318 0.0024147895
0.054097015 -0.10821553 0.11354506 -0.456505 0.87992293 -0.1316769 0.0022689032
0.06404914 -0.10236736 0.11562127 -0.52563334 0.83537424 -0.16080844 0.0023002152
-0.075418532 -0.09333694 0.1164953 0.62641168 0.76237959 -0.16243707 0.0024656868
-0.068291157 -0.099218048 0.11506843 0.55893338 0.81711555 -0.14112222 0.00255268
0.068159349 -0.09843275 0.11811254 -0.55739051 0.81115866 -0.17702393 0.0022714988
0.075863406 -0.09343446 0.11519418 -0.62784266 0.76128608 -0.16204031 0.0024945759
-0.090980977 -0.080693558 0.11120044 0.73906583 0.6631189 -0.11855362 0.0026510684
-0.084545903 -0.086394377 0.11505745 0.68811905 0.71018529 -0.14875858 0.0026007562
-0.078732334 -0.089864776 0.11956438 0.63708001 0.75029069 -0.1766154 0.0019817424
0.079354204 -0.089446194 0.11937757 -0.66202307 0.72552192 -0.1879981 0.0024333012
0.085577399 -0.085663751 0.11468036 -0.70115322 0.69727796 -0.14895447 0.0027795997
0.090234064 -0.080198526 0.11479621 -0.72835469 0.66811055 -0.15207814 0.0027686856
-0.093816318 -0.075445041 0.11488405 0.75622797 0.63682401 -0.15024814 0.0026462392
0.094699755 -0.07444483 0.11455955 -0.76908517 0.62134475 -0.14979556 0.0024238578
-0.10215849 -0.064792566 0.1144044 0.83546484 0.53285444 -0.13440481 0.0030710914
-0.099389091 -0.067980953 0.11549748 0.82655674 0.54188842 -0.15218689 0.00313843
0.098756522 -0.067975909 0.11752867 -0.81694925 0.55363905 -0.16148606 0.0027725454
0.105436 -0.061555665 0.11171348 -0.86133862 0.49117315 -0.12978679 0.0028253726
-0.10681212 -0.056311239 0.1153693 0.86796153 0.47067913 -0.15844239 0.0027122342
0.10793016 -0.055142935 0.11304174 -0.87881953 0.46125025 -0.12216555 0.0027854559
-0.10935388 -0.049696073 0.11625022 0.90244228 0.39946759 -0.16131823 0.0021276535
0.11312567 -0.041927151 0.11419271 -0.93150955 0.33494005 -0.14179255 0.0028643929
-0.11590409 -0.034605615 0.11504974 0.95069319 0.27186596 -0.14923604 0.0021742426
0.11642814 -0.034236599 0.11357445 -0.95069063 0.27834964 -0.13678022 0.0025156732
-0.11794034 -0.02514841 0.1155679 0.95837998 0.23400918 -0.16354677 0.0021370316
0.1179634 -0.025349835 0.11538436 -0.96747786 0.19611803 -0.15976334 0.0023668567
-0.12003112 -0.01221105 0.11403639 0.9871577 0.085629135 -0.1348605 0.0026623458
-0.11875613 -0.014521545 0.11790769 0.97859007 0.10840043 -0.1749596 0.0021837968
0.1194735 -0.0122764 0.11622587 -0.98475885 0.083038285 -0.1528222 0.0027635188
-0.12118362 -0.004893736 0.11297957 0.99212664 0.034284554 -0.1204538 0.0032208033
-0.11913298 -0.0089728776 0.11931798 0.98118931 0.084818862 -0.17341642 0.0024207849
0.11995856 -0.0089169489 0.11605528 -0.98628998 0.066763692 -0.1509127 0.0031811909
0.12072133 -0.0041241259 0.1155297 -0.98965436 0.03228002 -0.13979337 0.0031420593
-0.12108714 0.004929895 0.11364787 0.98968983 -0.036641445 -0.13846086 0.0036047152
-0.11956389 0.0091138538 0.11752564 0.98339546 -0.070633754 -0.16716552 0.003098509
0.12132265 0.0038276075 0.11306539 -0.99249482 -0.024597585 -0.11978744 0.0028661448
-0.12028956 0.015820101 0.11067291 0.98499978 -0.12711263 -0.11669549 0.0029034163
-0.11917052 0.016173463 0.11538795 0.97865885 -0.13230984 -0.15722854 0.0031954597
0.11920379 0.015745124 0.11548041 -0.9771536 -0.12722497 -0.170249 0.0024997001
0.12000924 0.01493296 0.11269481 -0.98586464 -0.11456109 -0.12225673 0.0030362653
-0.11832925 0.024631053 0.11430246 0.96554708 -0.21576566 -0.14547862 0.002964688
0.11904331 0.02475458 0.11095508 -0.96860141 -0.21926892 -0.11718529 0.0030919281
-0.11606228 0.034230828 0.11484472 0.95211601 -0.27222645 -0.13916856 0.0022653895
0.11656684 0.032916602 0.1147325 -0.94952041 -0.27790949 -0.14552426 0.0025375918
-0.11217269 0.043191638 0.1157873 0.92498475 -0.34406677 -0.16131108 0.0025520464
-0.10901012 0.04920502 0.11828355 0.89625394 -0.40475821 -0.18138227 0.0023089123
0.10934673 0.049158998 0.11710393 -0.89773774 -0.40787503 -0.16644764 0.002336219
0.11119629 0.046090987 0.11484072 -0.90884334 -0.38873324 -0.15129553 0.0022425849
-0.10724714 0.055629533 0.11485668 0.86867934 -0.47405356 -0.14376873 0.0026413489
0.10766672 0.053981382 0.11592419 -0.87347412 -0.45878839 -0.16296084 0.002312592
-0.1034204 0.064026885 0.11217421 0.84519827 -0.51818532 -0.13085802 0.0025890274
-0.098636292 0.068502359 0.11662298 0.82190502 -0.54774749 -0.15634833 0.0027681584
0.098197378 0.069106162 0.1165454 -0.81116259 -0.56513786 -0.15044744 0.0025808441
0.10266915 0.063751847 0.1152932 -0.84190685 -0.51995122 -0.1443731 0.0026072438
-0.093112685 0.076341525 0.1150543 0.75736469 -0.63451195 -0.15425092 0.0029845415
-0.089267798 0.079629108 0.11927348 0.7253685 -0.66061944 -0.19344912 0.0026917115
0.089325204 0.079973668 0.11824697 -0.7297768 -0.66399473 -0.16290081 0.0026418215
0.093943395 0.075131543 0.11525112 -0.76853418 -0.62190789 -0.15028554 0.0021301403
-0.090025932 0.081974708 0.11081681 0.73333561 -0.6678524 -0.12724796 0.0030055642
-0.087412827 0.083650179 0.11491878 0.71348393 -0.68621147 -0.14161381 0.0031977976
-0.079595625 0.089900479 0.11733659 0.64933562 -0.7411114 -0.17063758 0.002503129
0.085520193 0.085046798 0.11617713 -0.70077765 -0.69686133 -0.15262683 0.0026188157
-0.073676676 0.094827376 0.11610762 0.61709815 -0.76919037 -0.16593955 0.0019146627
-0.069183871 0.099201337 0.11290356 0.57108295 -0.81131107 -0.12505458 0.0026721873
0.068554081 0.098563142 0.11672992 -0.54831439 -0.82076842 -0.16028295 0.002543299
0.077325232 0.09242703 0.11483376 -0.64262068 -0.75441891 -0.13375622 0.00239138
-0.063183703 0.10327986 0.11478177 0.51964349 -0.84143871 -0.14816044 0.0032359024
-0.055464048 0.10813059 0.11160419 0.4562645 -0.88160586 -0.12080509 0.0026604373
0.055451632 0.10692665 0.11641091 -0.46288282 -0.87261885 -0.1558069 0.0025829724
0.065221347 0.10176255 0.11468094 -0.53287399 -0.83468986 -0.13906199 0.0025221943
-0.047136236 0.11121089 0.11328655 0.40650624 -0.90268815 -0.14109178 0.0023093596
-0.035434719 0.1152287 0.11637085 0.28231665 -0.94616181 -0.15835105 0.0029778446
-0.025673207 0.11791392 0.11529164 0.20954646 -0.96602124 -0.15130518 0.0028371767
-0.015272008 0.11886912 0.11706327 0.13419078 -0.97659189 -0.16811042 0.0025453726
-0.0076671867 0.11919913 0.11973977 0.058030818 -0.98202211 -0.17962484 0.0025438024
0.0077929525 0.1195099 0.11843447 -0.068742245 -0.98319149 -0.16914187 0.0026593956
0.01679034 0.11918109 0.11496664 -0.12691957 -0.98065495 -0.14902128 0.0029573406
0.023586879 0.11803637 0.11601879 -0.20590247 -0.96765018 -0.145799 0.0029582772
0.034786701 0.11545181 0.11645211 -0.28154168 -0.9463858 -0.15839276 0.0024604746
0.046619195 0.11129925 0.11369378 -0.37835065 -0.91598678 -0.13348769 0.0023150311
-0.013917032 0.12032678 0.11171871 0.10794272 -0.98760444 -0.11395575 0.0024386931
-0.0052909814 0.12081263 0.11455307 0.034578562 -0.9914794 -0.12558956 0.0028359341
0.0026921197 0.12080018 0.11596709 -0.017365117 -0.9906559 -0.13527521 0.0034612285
0.01217065 0.12044264 0.11241668 -0.078048795 -0.9880361 -0.13301529 0.0027415808
-0.035801318 -0.11263065 0.12546092 0.31211552 0.92917949 -0.19801374 0.0017978568
-0.024365867 -0.11585895 0.12429287 0.19478554 0.96054763 -0.19851169 0.0023506994
-0.015115087 -0.11694278 0.1248274 0.12715317 0.96937454 -0.21010737 0.0017229277
-0.0044961553 -0.11854132 0.12402773 0.031098066 0.97881144 -0.2023885 0.0021914032
0.0049737948 -0.1184101 0.12430026 -0.04593927 0.97593832 -0.2131525 0.0022116289
0.015127906 -0.11738075 0.12307426 -0.13285203 0.96927887 -0.20699951 0.0014548831
0.024133442 -0.11601224 0.12380365 -0.20352185 0.95834827 -0.20036836 0.0020579207
0.033790223 -0.11394702 0.12361608 -0.2697196 0.94088256 -0.20491768 0.0021889536
0.042419482 -0.11045877 0.12334494 -0.35556683 0.91261423 -0.2017611 0.0023818673
-0.061338294 -0.10149308 0.12504844 0.51330155 0.8330031 -0.20646395 0.002466239
-0.055532966 -0.10443092 0.12555061 0.46939293 0.85607654 -0.21634042 0.0022645725
-0.044167925 -0.10892415 0.12635626 0.3811819 0.89877689 -0.21656521 0.0013402193
0.046179488 -0.10801716 0.12663047 -0.3820596 0.89851034 -0.21612427 0.0014620387
0.055464853 -0.10385339 0.12761429 -0.47800791 0.85287118 -0.21004575 0.0022107093
0.061452199 -0.10117471 0.12578563 -0.51912522 0.83015901 -0.20333485 0.0018935109
-0.073038615 -0.092898227 0.12382589 0.61041522 0.76483172 -0.20597495 0.0016445596
-0.065106414 -0.098100983 0.12664618 0.54378945 0.81175387 -0.212952 0.0016602529
0.066369101 -0.097634971 0.12504168 -0.54562885 0.810094 -0.2145623 0.002047512
0.074130595 -0.092295989 0.12307407 -0.61288601 0.76523858 -0.19692793 0.0022772714
-0.08375176 -0.083766878 0.12590548 0.69115633 0.69015306 -0.21445662 0.0024019629
-0.075478591 -0.089628242 0.12828602 0.61597991 0.75732249 -0.21686697 0.0012809699
0.077665746 -0.088896453 0.125266 -0.64292502 0.7370888 -0.20820087 0.0023475811
0.084064722 -0.082886092 0.12730782 -0.69203418 0.68880987 -0.21593907 0.0021038509
-0.091830067 -0.074482024 0.1237001 0.75356448 0.62688637 -0.19787376 0.0021114498
-0.088789679 -0.077444904 0.12614726 0.73835176 0.64144135 -0.20830156 0.0023267781
0.089741632 -0.078407891 0.12075198 -0.73714435 0.64905381 -0.18800919 0.0023058141
0.09289252 -0.072885536 0.12421913 -0.7592833 0.61866492 -0.20184779 0.0021409565
-0.10149153 -0.062960178 0.12108217 0.82837343 0.52432972 -0.19716962 0.0024261705
-0.098445222 -0.065916382 0.12356448 0.81389731 0.54216808 -0.20886561 0.0017254922
0.096569307 -0.067137919 0.12655978 -0.80353993 0.55638856 -0.21155475 0.0025483272
0.10272351 -0.060524017 0.12311622 -0.84328133 0.50032461 -0.19634649 0.002688132
-0.10459524 -0.0550786 0.12564848 0.85400397 0.46935606 -0.2244595 0.0023398616
0.10474312 -0.054224629 0.12637942 -0.86333269 0.45653278 -0.21502243 0.0020785904
-0.11018168 -0.045039982 0.12034086 0.90679121 0.38141385 -0.17959191 0.0018952334
-0.10793747 -0.046165701 0.12694757 0.89796489 0.38366786 -0.21554115 0.0012873957
0.10796783 -0.045379896 0.12804459 -0.89507979 0.38536659 -0.2243315 0.0016798028
0.11046369 -0.040979054 0.1255438 -0.91660804 0.33785835 -0.21373178 0.0022299385
-0.11262295 -0.034972925 0.1267644 0.93280923 0.29041228 -0.21337216 0.0018990906
0.11278627 -0.035747916 0.12496498 -0.93579125 0.29202205 -0.19752932 0.0019683065
-0.11550647 -0.026807999 0.12441611 0.95507318 0.22980478 -0.18714955 0.0019323507
0.11586308 -0.024729433 0.12408555 -0.95891988 0.20399253 -0.19712861 0.0021183391
-0.11690404 -0.01557416 0.12474071 0.97226089 0.11543879 -0.20342703 0.0020691161
0.11657611 -0.015142792 0.12627505 -0.96765035 0.13354796 -0.2140507 0.0020104181
-0.11854184 -0.0043406086 0.12410726 0.97904378 0.034994047 -0.20062056 0.0024529009
0.11912744 -0.0042679948 0.12181019 -0.98148435 0.026835296 -0.18965334 0.0026331246
-0.11829109 0.0041485503 0.12520798 0.97536278 -0.028998984 -0.21869269 0.0025180462
0.11833179 0.0038880128 0.12518251 -0.97621143 -0.015968399 -0.21623215 0.0024114659
-0.11724523 0.013903371 0.12425729 0.97214794 -0.10733622 -0.2083438 0.0025007136
0.11727345 0.014460683 0.12385237 -0.97183579 -0.11299919 -0.20680025 0.0022162152
-0.11589479 0.024165111 0.12425511 0.95822883 -0.20382909 -0.20062709 0.002041952
0.11596208 0.025114201 0.12348887 -0.95768785 -0.20972726 -0.19709986 0.0022910282
-0.1129346 0.035270061 0.12512232 0.93668836 -0.28491348 -0.20356643 0.0021126878
0.1135904 0.033954591 0.1247372 -0.93592691 -0.28461373 -0.20745106 0.0021335473
-0.1105011 0.042498533 0.12306575 0.9161883 -0.34993899 -0.19529913 0.0024632362
-0.10783806 0.046849754 0.12626408 0.89030933 -0.40301567 -0.21196155 0.0022018626
0.1086081 0.04554994 0.12540373 -0.89414811 -0.39798915 -0.20519203 0.001988875
0.1121253 0.040055141 0.12079149 -0.92831844 -0.31870574 -0.19144592 0.0021365136
-0.10497902 0.055154905 0.12410484 0.86186177 -0.46847689 -0.19422591 0.0024111161
0.10440296 0.055347908 0.12586375 -0.85562015 -0.47039753 -0.21596389 0.0021476885
-0.10084108 0.062164124 0.12510686 0.83305603 -0.51551503 -0.20065399 0.0023158034
-0.097670235 0.065566525 0.12689412 0.82000977 -0.53071702 -0.21429797 0.0017695798
0.096511811 0.067117527 0.12679321 -0.80105507 -0.55603719 -0.22166082 0.0022318831
0.10071892 0.061262231 0.12770526 -0.8302092 -0.50893652 -0.22745599 0.0022829708
-0.092769243 0.072725654 0.12500373 0.76854843 -0.60407907 -0.21076462 0.0030857483
-0.087945685 0.078353301 0.12661618 0.72061884 -0.65934104 -0.21442473 0.0022109908
0.088587247 0.07771641 0.12612866 -0.73640496 -0.64151698 -0.21485722 0.0023048376
0.09410201 0.071092054 0.12475109 -0.78138816 -0.59117442 -0.19986317 0.0024994386
-0.083767757 0.083912008 0.12488606 0.68701911 -0.69524246 -0.21128787 0.0023401694
-0.075953826 0.089707665 0.1268689 0.63123322 -0.74528402 -0.2147004 0.001696783
0.078399204 0.088627078 0.12432969 -0.65561706 -0.72461683 -0.21235979 0.0024440344
0.082860053 0.085016347 0.12429462 -0.68637371 -0.69535434 -0.21301013 0.002235007
-0.072220154 0.093000829 0.12550247 0.61599201 -0.76112914 -0.2030672 0.0017447333
-0.06616953 0.097977869 0.12443589 0.5563761 -0.8066501 -0.19940254 0.0028412191
0.06640552 0.097175613 0.12641826 -0.5521875 -0.80492353 -0.21722619 0.0025433877
0.073654667 0.092122056 0.12479433 -0.63052082 -0.7478357 -0.20781045 0.0022212837
-0.062119946 0.10082982 0.12525086 0.50935185 -0.83586687 -0.20466375 0.00269911
-0.055891953 0.10368607 0.12756468 0.47531354 -0.85045528 -0.22539493 0.0021330155
-0.04498183 0.10857425 0.1264036 0.38439792 -0.89591312 -0.22266129 0.0013831594
0.045339081 0.10818189 0.12731177 -0.38363397 -0.89831704 -0.21412964 0.0014234427
0.056658208 0.10477147 0.12256236 -0.47252241 -0.86066794 -0.1896662 0.0025145556
0.062454045 0.10120322 0.12324154 -0.52717531 -0.82863325 -0.18828985 0.0023915966
-0.041842967 0.11058125 0.12377705 0.33930555 -0.91774184 -0.20645031 0.0022863608
-0.033729598 0.11402575 0.12346552 0.27139911 -0.94196945 -0.19757533 0.0023646795
-0.02616654 0.11582176 0.12349576 0.21020605 -0.9590981 -0.1895898 0.0020520876
-0.013780518 0.11725574 0.12427998 0.11415808 -0.9729014 -0.20107411 0.0022518733
-0.0057022851 0.11813059 0.12503237 0.049210008 -0.97502953 -0.21655446 0.0018540152
0.0058675804 0.11808723 0.12511849 -0.055587068 -0.97370082 -0.22094488 0.0020760871
0.013962965 0.11732113 0.12392349 -0.11894862 -0.97057468 -0.20937057 0.0021384202
0.025048379 0.11578885 0.12421402 -0.21467713 -0.95545292 -0.20254241 0.0018566417
0.033743903 0.11367258 0.1247559 -0.27433559 -0.93944871 -0.20536806 0.0019163719
0.042126257 0.11075262 0.1227042 -0.34965998 -0.91768545 -0.1886566 0.0023589281
-0.032890178 -0.11169218 0.13342912 0.28008455 0.92927158 -0.24084638 0.0022436471
-0.026912397 -0.11305179 0.13415018 0.21999201 0.94672143 -0.23520619 0.0018995205
-0.015868958 -0.11428946 0.13501236 0.14043939 0.95875257 -0.2471239 0.0011237449
-0.0064112023 -0.11526406 0.13609122 0.058086794 0.96874297 -0.24117005 0.0014146151
0.0027986008 -0.1158309 0.13572742 -0.018929457 0.9719004 -0.23463023 0.0021634386
0.015147241 -0.1141305 0.13602524 -0.12342519 0.96228313 -0.2424406 0.00080463599
0.025707861 -0.11277835 0.13587292 -0.2341001 0.94340497 -0.2349131 0.0019824253
0.031471454 -0.11175188 0.13539097 -0.26869538 0.93369001 -0.23669748 0.0023875625
-0.060496647 -0.10012676 0.1314691 0.49870116 0.83312708 -0.23915774 0.002320685
-0.054790642 -0.10192607 0.13582385 0.4660421 0.84975094 -0.24643078 0.0019513224
-0.045233544 -0.10658572 0.13340557 0.38641608 0.89145523 -0.23662241 0.001236851
-0.039441586 -0.10741854 0.13922587 0.32899958 0.91434908 -0.23606151 0.0022377537
0.044797316 -0.10622197 0.13542882 -0.38362506 0.89190996 -0.23943339 0.0014578827
0.05418437 -0.10298905 0.13297933 -0.47151813 0.85026276 -0.23393121 0.0021554041
-0.07184545 -0.091045693 0.13265878 0.60811311 0.75976896 -0.23010793 0.0012070083
-0.066006429 -0.094933085 0.13455121 0.55120242 0.79874939 -0.24119528 0.0024606523
0.057275206 -0.099914819 0.13965997 -0.4828625 0.84087414 -0.24448828 0.0018579758
0.064865269 -0.095736653 0.13478136 -0.54030192 0.80777222 -0.23574942 0.0020946008
0.071643688 -0.090798445 0.13394192 -0.61891907 0.74903518 -0.23640107 0.0016001423
-0.082733668 -0.082867049 0.13183196 0.68723625 0.69073075 -0.22493844 0.0023243865
-0.07710053 -0.085979551 0.13595755 0.64422286 0.72641993 -0.23935524 0.0024224496
0.075309955 -0.087462321 0.13561049 -0.63152522 0.73740959 -0.23958927 0.002247076
0.082482152 -0.081682257 0.13549748 -0.69332403 0.67996269 -0.23864695 0.0019086442
-0.086846314 -0.076615937 0.13437824 0.72889215 0.64026815 -0.2424311 0.0025201174
0.085397206 -0.077923752 0.13580027 -0.71125764 0.6613338 -0.23822302 0.0020391871
0.090540431 -0.071667247 0.1347076 -0.7432301 0.62526435 -0.2380203 0.0018223337
-0.095031403 -0.065565906 0.13531609 0.80666089 0.53832477 -0.2439357 0.0021629154
0.09538538 -0.065588631 0.13413113 -0.79587185 0.55613112 -0.23938717 0.0018800716
-0.10196616 -0.055026483 0.1354824 0.8539837 0.4595283 -0.24401957 0.0020012879
-0.099550843 -0.058908105 0.13719647 0.83453482 0.49518031 -0.24155349 0.0024838175
0.10130452 -0.056947503 0.13457857 -0.84532565 0.47748286 -0.23965544 0.0020619719
-0.10669048 -0.045438547 0.13270065 0.89321733 0.38829693 -0.22668985 0.0013857383
0.10612617 -0.045657076 0.13446146 -0.88831615 0.38906965 -0.24396579 0.001593983
-0.11148783 -0.032594386 0.13464357 0.93110931 0.27737567 -0.23685056 0.0024367312
-0.10875501 -0.038943361 0.13502629 0.91274774 0.33021533 -0.24051903 0.002249572
0.10866219 -0.03716119 0.13811463 -0.91961551 0.3057462 -0.24663047 0.0017675548
0.11076584 -0.03357194 0.13582215 -0.92287529 0.29273891 -0.25021008 0.0017200717
-0.11363759 -0.023633266 0.13353543 0.95372897 0.18953744 -0.2334021 0.0022667923
0.1133094 -0.023668189 0.13482618 -0.95362151 0.18475796 -0.23763542 0.0019599765
-0.1146622 -0.015614602 0.13365933 0.96417058 0.12686075 -0.23298404 0.0011519131
0.11434797 -0.016309584 0.1345478 -0.96074986 0.14801665 -0.23462906 0.0010862481
-0.11546583 -0.0051834509 0.1359311 0.96843714 0.042583846 -0.24559359 0.0017369329
0.11629064 -0.0035163495 0.13351722 -0.97106743 0.031727932 -0.23668808 0.0017208823
-0.11575126 0.0055862805 0.13458139 0.97072029 -0.029445548 -0.238401 0.0013904256
0.11577543 0.0049447501 0.13482188 -0.96899992 -0.045010004 -0.24292651 0.00210785
-0.11401167 0.016614836 0.13572839 0.9575454 -0.16018417 -0.239683 0.0014639415
0.1147295 0.014250185 0.13410747 -0.96267945 -0.13296029 -0.23573285 0.0013219499
-0.11309074 0.023375649 0.1358514 0.95070797 -0.19712582 -0.2393654 0.0018734565
0.11232723 0.028109903 0.13641095 -0.93829727 -0.24661855 -0.24244095 0.0021314339
-0.10935277 0.034806799 0.13917203 0.92083395 -0.30172801 -0.24703258 0.0015883347
0.10831908 0.03865936 0.13708377 -0.91869146 -0.31399471 -0.23961054 0.0019099831
0.11102639 0.033904631 0.13434194 -0.92619258 -0.28597653 -0.24573305 0.0022140634
-0.10669077 0.04492024 0.13349731 0.89256656 -0.38175011 -0.2399829 0.0028090337
0.10609975 0.0451332 0.13536611 -0.88812739 -0.38886774 -0.24497284 0.0014820895
-0.10301746 0.052685771 0.13519454 0.85167283 -0.46206993 -0.24727488 0.0022331276
-0.098595373 0.059435181 0.13895476 0.82982409 -0.50457013 -0.23832981 0.0021034149
0.099121124 0.058950912 0.13846307 -0.8337146 -0.4972122 -0.2402081 0.0021618393
0.102075 0.054849166 0.13520205 -0.85250938 -0.46435755 -0.23999973 0.0021711825
-0.095986068 0.064761944 0.13423827 0.80743337 -0.54050422 -0.23644558 0.0020215127
0.094695158 0.065944754 0.13546166 -0.796556 -0.55516911 -0.23934466 0.0020499362
-0.091924228 0.070914097 0.13213578 0.77057129 -0.59235382 -0.23523784 0.0024097457
-0.085997187 0.077151194 0.13577716 0.7283172 -0.63967168 -0.24571176 0.0022922214
0.087095648 0.076169588 0.13467574 -0.73159885 -0.63697034 -0.24296491 0.0025222653
0.091150992 0.071372308 0.13348153 -0.76120073 -0.60314912 -0.23829509 0.00227514
-0.083443061 0.081175998 0.13407254 0.68967938 -0.6832059 -0.2399417 0.0022890605
-0.076011226 0.087011293 0.13533244 0.64083815 -0.72863293 -0.24170335 0.0022424129
0.076821595 0.086738929 0.13421747 -0.65008122 -0.72333068 -0.23278156 0.0023835462
0.082255751 0.082150519 0.13485089 -0.68621248 -0.68521708 -0.24411081 0.0024010821
-0.071392491 0.090490103 0.13554069 0.62099618 -0.74744684 -0.23598103 0.0014164658
-0.063589312 0.09714745 0.13340348 0.52427042 -0.81889647 -0.23355751 0.0018704182
-0.059903257 0.099192195 0.13590413 0.50213587 -0.83214295 -0.23536733 0.0023771224
0.059404157 0.098579034 0.13908301 -0.50466192 -0.82732087 -0.24669121 0.00219823
0.065351732 0.095090456 0.13565217 -0.56068844 -0.78872156 -0.25208509 0.0022028275
0.072198659 0.090872779 0.13234584 -0.60640687 -0.75862837 -0.23823021 0.0020682761
-0.060126558 0.10073765 0.13042584 0.50475198 -0.83209395 -0.22988053 0.0020693305
-0.053388841 0.10283826 0.13477819 0.45963007 -0.85622799 -0.23582596 0.0026380438
-0.044019554 0.10690784 0.13407706 0.36243615 -0.90141249 -0.23684493 0.0017529915
0.036833249 0.10908598 0.13704446 -0.30651122 -0.92082494 -0.24110617 0.0014686969
0.046807729 0.10519452 0.13615224 -0.39955625 -0.88509935 -0.23865035 0.0020487744
0.054540511 0.10243063 0.13446374 -0.46972045 -0.8506915 -0.23598032 0.0020848997
-0.035603706 0.11091574 0.13213758 0.30822614 -0.9211905 -0.23749653 0.0017305082
-0.025644572 0.11295746 0.13519183 0.22797494 -0.94446766 -0.23666073 0.0018831698
-0.015098515 0.11394538 0.1367889 0.13406456 -0.9624967 -0.23585336 0.0022616335
-0.0044980063 0.11572074 0.13527444 0.011019137 -0.97009206 -0.24248718 0.0017650697
0.0052497122 0.11527104 0.13667308 -0.037662856 -0.96734881 -0.25063491 0.0017582483
0.015548553 0.11370054 0.13752903 -0.12474836 -0.96223879 -0.2419388 0.0011427291
0.025168359 0.11306075 0.13502994 -0.19772917 -0.9512499 -0.23669988 0.0018103307
0.032955963 0.11168614 0.13331254 -0.27397493 -0.93230784 -0.2360929 0.0020811812
-0.024833387 -0.11136075 0.14198501 0.2061156 0.94729179 -0.24526441 0.0017756463
-0.014152632 -0.11144155 0.14727013 0.12579717 0.95528382 -0.26759654 0.0021800033
-0.0069214394 -0.1128201 0.14556921 0.075815365 0.96652329 -0.24512169 0.0024648353
0.0058227591 -0.11321721 0.14456242 -0.063011542 0.96846515 -0.24104927 0.0020149895
0.015751597 -0.11204847 0.14401047 -0.12192239 0.95956415 -0.2537154 0.0010803058
0.024199411 -0.11104784 0.14356565 -0.22319758 0.9419446 -0.25084519 0.0019544845
-0.053855002 -0.1007448 0.14184004 0.47443268 0.8454985 -0.2450427 0.0023335502
-0.045565236 -0.10270356 0.14732106 0.40777442 0.87150377 -0.27239895 0.0021306248
-0.035921738 -0.1073704 0.14482257 0.30078888 0.92197031 -0.24391963 0.0021664177
-0.028442001 -0.10938694 0.14796156 0.25268942 0.93104541 -0.26325363 0.0026562009
0.026046515 -0.10993221 0.14704475 -0.2267966 0.93905306 -0.25834608 0.0022073216
0.034560867 -0.10804643 0.14440513 -0.29189813 0.92390418 -0.24737918 0.0019395244
0.045455862 -0.10328504 0.14532873 -0.40725306 0.87713379 -0.25452146 0.0019849387
0.052267324 -0.10108519 0.14301911 -0.44019753 0.86222374 -0.25059181 0.0028569831
-0.066033766 -0.091321185 0.1460098 0.56348163 0.7862168 -0.25367609 0.0018327259
-0.05607035 -0.098521404 0.14609469 0.47648665 0.84096932 -0.25638071 0.0022803142
0.055942245 -0.098881848 0.14516616 -0.47778341 0.84247184 -0.24892615 0.0018691184
0.066386297 -0.091958806 0.14311208 -0.56599641 0.78442448 -0.25362605 0.001780913
-0.080513783 -0.080773443 0.14416307 0.68743378 0.68136716 -0.25134367 0.0021886164
-0.077300154 -0.082628913 0.14616062 0.65401489 0.71189463 -0.25587207 0.0025468366
-0.067305334 -0.089862667 0.14755042 0.56875145 0.77735347 -0.26878127 0.0017577328
0.069446594 -0.089223005 0.14434876 -0.59761769 0.76167661 -0.25040367 0.0022613879
0.074423134 -0.085594699 0.14374143 -0.63688594 0.73127598 -0.2441555 0.0022056785
0.080360994 -0.080983669 0.14382756 -0.69329923 0.67761952 -0.24529162 0.0019268949
-0.083384134 -0.076426499 0.14588986 0.71306777 0.65214419 -0.25737581 0.0024004597
0.086008631 -0.07379093 0.14396852 -0.73086745 0.6362102 -0.24712186 0.0019702041
-0.091871478 -0.065527253 0.14549398 0.78832465 0.56271482 -0.24878976 0.0017297399
-0.08964023 -0.068729162 0.14477392 0.77810442 0.57441229 -0.25417337 0.0016765709
0.088051438 -0.069314562 0.14841047 -0.75514734 0.59730083 -0.27015579 0.0030202128
0.093248248 -0.063813291 0.14529762 -0.79368615 0.55404133 -0.25119799 0.0021694393
-0.10054132 -0.052855641 0.14413436 0.85212505 0.46130443 -0.24714586 0.0019562771
-0.098019734 -0.055676457 0.14837977 0.84157568 0.46922088 -0.26754832 0.0027680264
0.098307595 -0.057799496 0.14377162 -0.83443844 0.49549839 -0.24123384 0.0022278605
0.10135695 -0.05171033 0.14286652 -0.85995913 0.45081511 -0.23924042 0.002441474
-0.1038486 -0.044075228 0.14535944 0.89244431 0.37203699 -0.25520921 0.0028707229
0.10390251 -0.045054663 0.14365171 -0.88425338 0.39992484 -0.24115588 0.001904811
-0.11082578 -0.030062228 0.14100128 0.93328929 0.25592494 -0.25193962 0.0024440794
-0.10688262 -0.037199646 0.144668 0.91305703 0.32012177 -0.25268307 0.001980375
0.10683095 -0.035955332 0.14677556 -0.91712964 0.30427051 -0.25747362 0.0017833842
-0.11129531 -0.024043152 0.14266069 0.94875854 0.19890387 -0.2455492 0.0019423403
-0.10935897 -0.029733865 0.14695732 0.93035764 0.26053604 -0.25798395 0.0024675685
0.10931442 -0.028785318 0.14784253 -0.93510795 0.23996802 -0.26074615 0.0020142505
0.11129946 -0.024276955 0.14252169 -0.94682819 0.21373291 -0.24048813 0.0022550835
-0.11206248 -0.015316471 0.14418294 0.95758426 0.1377787 -0.25307983 0.0020404556
0.11184034 -0.016119506 0.14464736 -0.95873272 0.12870303 -0.25350934 0.0021051364
-0.11322884 -0.0040645744 0.14543903 0.96862519 0.020039489 -0.24771684 0.0022085148
0.11323053 -0.0037713933 0.14558627 -0.9652347 0.022021594 -0.26045549 0.002011616
-0.11290409 0.0047144475 0.14639288 0.96609545 -0.027790399 -0.25668508 0.0022001888
0.11329023 0.0037762367 0.14534564 -0.96868956 -0.013020486 -0.24793352 0.0023859092
-0.1113574 0.01617738 0.14654261 0.9557687 -0.13134803 -0.26316133 0.001533405
0.11224473 0.013404424 0.14446013 -0.96048599 -0.11350751 -0.25413138 0.0020796296
-0.11065309 0.025064735 0.1446853 0.94418299 -0.22287948 -0.24257618 0.002116425
-0.10921418 0.029352352 0.14808258 0.93433917 -0.25138527 -0.25261778 0.0022104711
0.10967655 0.023805931 0.14924075 -0.93753886 -0.21142954 -0.27625787 0.0030259956
0.1115227 0.022745941 0.1424353 -0.94943541 -0.19732286 -0.24420512 0.0021765062
-0.10722938 0.036141008 0.14500886 0.91991216 -0.30236295 -0.24967621 0.0014851233
0.10708253 0.036398206 0.14515913 -0.92012298 -0.30017188 -0.25153622 0.0017391399
0.11065479 0.030507298 0.14095207 -0.93325758 -0.26028207 -0.24755508 0.002269387
-0.1037019 0.04539305 0.14387612 0.88948494 -0.38575199 -0.24497359 0.0012881632
0.1031049 0.046285424 0.14472139 -0.87390685 -0.41801506 -0.24809328 0.0021259824
-0.10104936 0.05259965 0.14264047 0.85790926 -0.45313928 -0.24219097 0.0023421503
-0.097905077 0.056699216 0.14716132 0.84219956 -0.47310382 -0.25859773 0.0024538937
0.10063309 0.052591741 0.14419976 -0.85653991 -0.45871815 -0.23646788 0.001860417
-0.092567034 0.065227568 0.14400823 0.79020506 -0.56347328 -0.24098504 0.0021214422
0.088565141 0.069894433 0.14535147 -0.76765114 -0.59049332 -0.24905698 0.0019609111
0.093262307 0.063382931 0.14630647 -0.79212111 -0.55330241 -0.25768298 0.0018680586
-0.085125312 0.075010508 0.14380084 0.72656488 -0.64196891 -0.24490696 0.0022715493
0.085540138 0.074535288 0.14364092 -0.72564131 -0.64336133 -0.24398957 0.0022915252
-0.074081108 0.085989468 0.143319 0.63259178 -0.73706579 -0.23782699 0.0019276056
-0.068860158 0.088951543 0.14665073 0.58913094 -0.76719439 -0.25364834 0.0022283716
0.075300179 0.084539078 0.14496237 -0.64488643 -0.72167611 -0.25160506 0.0028653883
0.081280015 0.080999523 0.14095788 -0.68768847 -0.68424565 -0.24267775 0.0020416619
-0.063625067 0.093673289 0.14440191 0.55689049 -0.79559833 -0.23852932 0.0025360254
-0.05724084 0.098137617 0.14540453 0.4840126 -0.83910316 -0.24826939 0.0021696321
0.05710265 0.098887771 0.14335959 -0.47761545 -0.84347188 -0.24584265 0.001910669
0.065553166 0.092229351 0.14428864 -0.56842148 -0.78255028 -0.25399238 0.0016905837
-0.052670758 0.10082626 0.14336008 0.4675096 -0.84855068 -0.24778295 0.0022436432
-0.04503775 0.10328189 0.14598374 0.39246169 -0.88389522 -0.25436783 0.0020625929
-0.03460237 0.10762293 0.14591487 0.28624204 -0.92696315 -0.24249712 0.0022749789
0.025969544 0.10958403 0.14837193 -0.23484644 -0.93485081 -0.26627287 0.0023245369
0.034505047 0.10775324 0.14558046 -0.29603425 -0.92075175 -0.25412586 0.0017613193
0.044326626 0.10382026 0.1450779 -0.37755933 -0.88975996 -0.25646868 0.0024631598
0.051750064 0.10111535 0.14370304 -0.43691608 -0.86467707 -0.24786684 0.0022717104
-0.021894431 0.11103211 0.14483836 0.18697146 -0.95201105 -0.2423154 0.001751093
-0.014221431 0.11207596 0.1447041 0.1109037 -0.96233571 -0.24821429 0.0014186738
-0.0055955146 0.11316206 0.14490163 0.037144739 -0.96748412 -0.25018942 0.0025905268
0.0046022898 0.11317008 0.14539105 -0.029971279 -0.96743327 -0.2513456 0.0017060889
0.013377291 0.11252344 0.14336291 -0.092412569 -0.96516204 -0.24479035 0.0021701581
0.021254072 0.11090446 0.14568362 -0.18323374 -0.94992208 -0.25312737 0.0027217565
-0.0029053073 -0.11118319 0.15420519 0.013005061 0.94899917 -0.31501013 0.0051251631
0.0050115199 -0.11093523 0.15408826 -0.04688473 0.93743336 -0.3449935 0.0073511135
0.01265054 -0.1107586 0.15078217 -0.09608642 0.95065886 -0.29498333 0.0035760743
-0.043966096 -0.1016731 0.1536116 0.38121876 0.86415261 -0.32850051 0.0059901243
-0.033950534 -0.10556206 0.15457635 0.28220722 0.90246451 -0.32544863 0.0055548148
-0.025738051 -0.10775654 0.15563087 0.22412087 0.91956669 -0.32274911 0.0052105393
-0.015336531 -0.10904114 0.15622076 0.13700373 0.92469025 -0.35521537 0.0073595885
-0.0051577389 -0.10966903 0.15906078 0.059752423 0.91360813 -0.40218142 0.0096453242
0.005883012 -0.10973194 0.15842918 -0.055664897 0.92060649 -0.38650376 0.0089316582
0.017234387 -0.10897026 0.15550712 -0.14646171 0.92223251 -0.35782143 0.0064672008
0.025386887 -0.10864922 0.15247943 -0.22027381 0.92321843 -0.31487647 0.0048418837
0.034201 -0.10576008 0.15345502 -0.28250894 0.91360879 -0.29241696 0.0039419415
0.04387968 -0.10105301 0.15604897 -0.37337059 0.8571741 -0.35474914 0.0071531483
-0.062898092 -0.091471478 0.15320794 0.54130226 0.77206182 -0.33303508 0.004801014
-0.055573754 -0.096273869 0.15420857 0.48023427 0.81427681 -0.32608011 0.0049732858
-0.048562199 -0.09901689 0.15640765 0.43540171 0.82580316 -0.35843325 0.0062687723
0.047207281 -0.099347189 0.15726589 -0.39882809 0.84685248 -0.35181969 0.0072478279
0.056127626 -0.095945202 0.15440997 -0.47826236 0.817895 -0.31986395 0.0042478913
0.062863961 -0.091230765 0.15405981 -0.53691739 0.77881557 -0.32429305 0.0050556138
-0.073119178 -0.08330293 0.15424708 0.61762565 0.70967364 -0.33897176 0.0057143052
-0.067704886 -0.086547248 0.15715151 0.56335461 0.7411713 -0.36509815 0.0062979441
0.067894377 -0.086974949 0.15532289 -0.57623059 0.74134231 -0.34404939 0.0068087252
0.073467121 -0.08396709 0.15127592 -0.63283324 0.71818542 -0.28936446 0.0040346053
-0.083329774 -0.073304005 0.15370889 0.71456128 0.62633294 -0.3116236 0.0045756618
-0.078804746 -0.078428529 0.15545577 0.66468793 0.6716451 -0.32723498 0.0055772732
0.077876903 -0.078963406 0.15644507 -0.65573227 0.67468143 -0.3388513 0.0060565006
0.083587572 -0.072931901 0.15379743 -0.70371109 0.63387263 -0.32093015 0.0057688891
-0.092298158 -0.061633293 0.15366694 0.7827155 0.53359723 -0.32035971 0.005929512
-0.087194711 -0.06689436 0.15707009 0.75189716 0.57037622 -0.3306382 0.0052146865
0.086728781 -0.06684389 0.15868054 -0.72930628 0.57582873 -0.36950442 0.007781805
0.091902375 -0.062699735 0.15231878 -0.79012924 0.53671622 -0.29602605 0.0035178594
-0.096268348 -0.054688323 0.15585677 0.82007718 0.4572635 -0.34406891 0.00768589
0.095352843 -0.057128742 0.15457247 -0.82197005 0.48295122 -0.30186656 0.0043497123
-0.10110734 -0.044709053 0.15457031 0.86512303 0.38110813 -0.32606578 0.006346772
-0.098866142 -0.049211465 0.15596841 0.84765124 0.41878653 -0.32573804 0.0059952326
0.098315373 -0.049540874 0.15750806 -0.83251172 0.41849741 -0.36302081 0.0081165107
0.10179278 -0.040685397 0.15821671 -0.86944193 0.35033137 -0.34833694 0.0075894273
-0.10439622 -0.036655582 0.15474488 0.89311439 0.32287055 -0.31321138 0.0049831034
0.10417219 -0.03621633 0.15625374 -0.89326191 0.30112132 -0.33378005 0.0073732608
-0.10796221 -0.024823317 0.15545861 0.92518401 0.19809763 -0.32371575 0.005199966
0.1083283 -0.024230506 0.1543171 -0.92806083 0.2030286 -0.31222191 0.0049378714
-0.11028136 -0.016838305 0.15048656 0.94956481 0.15126847 -0.2746717 0.0028498401
-0.10865873 -0.016573504 0.15709618 0.92702162 0.13974823 -0.34799618 0.0057961792
0.10901598 -0.014710948 0.15664966 -0.92293209 0.14473824 -0.35671726 0.0077607906
0.11024142 -0.011886265 0.15324579 -0.9470135 0.10078856 -0.30497038 0.0047262255
-0.11067204 -0.0042973286 0.15551265 0.94088131 0.043794602 -0.33589345 0.0060577095
-0.10958941 -0.006236589 0.15881182 0.92609113 0.053403404 -0.3735013 0.0075302133
0.11070111 -0.0059841247 0.15451126 -0.94190776 0.048101228 -0.33240941 0.0061128042
-0.11101627 0.0036526443 0.15447843 0.94179279 -0.026111605 -0.33517826 0.0067398311
-0.10963899 0.0065711001 0.15843846 0.93160224 -0.064236283 -0.35775819 0.0064518284
0.11081451 0.0026488176 0.15581006 -0.94105971 -0.016285824 -0.33784819 0.0062708203
-0.11009456 0.012015482 0.15376344 0.93969935 -0.091047302 -0.32965967 0.005915503
-0.1089865 0.013814148 0.1572378 0.92384887 -0.12802954 -0.36071 0.0080648595
0.10879409 0.015650401 0.1570413 -0.92987579 -0.13679194 -0.34149522 0.0058181053
0.11046365 0.011081179 0.15278234 -0.94745886 -0.092356101 -0.30625513 0.0046963459
-0.10839569 0.023134701 0.15466458 0.92690408 -0.18776838 -0.32494906 0.0052630543
-0.10508889 0.034761228 0.1550867 0.89692813 -0.29725763 -0.32734978 0.0055263117
0.1043302 0.035666 0.15651371 -0.88784635 -0.31824532 -0.33233833 0.0059323586
-0.1016575 0.043903504 0.15376583 0.86210316 -0.38767433 -0.326323 0.0063436734
-0.099779367 0.048314404 0.15395564 0.85442358 -0.39802533 -0.33397028 0.0063848323
0.098938532 0.048796002 0.15633908 -0.84751296 -0.41473252 -0.33123815 0.006785885
0.10115491 0.04562325 0.15298671 -0.86603045 -0.39465219 -0.30698687 0.0052969013
-0.096000791 0.056332655 0.15412636 0.82532758 -0.47549587 -0.30452913 0.0051934361
0.096906729 0.055888522 0.15109107 -0.82168573 -0.48656681 -0.29679176 0.004360843
-0.091314614 0.060757261 0.15895042 0.77408528 -0.50013864 -0.38814095 0.010623363
-0.086889282 0.067933314 0.15550078 0.74023694 -0.58826071 -0.32557452 0.0072978074
0.087135807 0.06768287 0.15532747 -0.75103563 -0.57080477 -0.33185443 0.0065632947
0.091893978 0.062570103 0.15266299 -0.78484285 -0.5425483 -0.29943806 0.004106686
-0.082762629 0.073271617 0.15559788 0.69048572 -0.64565873 -0.32611996 0.0060320753
-0.078065664 0.079003796 0.1556195 0.66348338 -0.67007142 -0.3328574 0.0054701492
0.082269348 0.074856453 0.15329155 -0.69519675 -0.64862072 -0.30982676 0.0044011367
-0.07457421 0.082749225 0.15245125 0.63651991 -0.71681952 -0.28462619 0.0034449357
-0.065471582 0.088816546 0.15537848 0.55659425 -0.76149154 -0.33216497 0.0063871392
0.066480853 0.087825492 0.1560698 -0.55981928 -0.74236608 -0.3680965 0.0075467518
0.075416572 0.081884257 0.15314884 -0.6484468 -0.68963289 -0.32237133 0.0051376768
-0.061762594 0.092035122 0.15418962 0.53130901 -0.77745897 -0.3365536 0.0061917743
-0.055048145 0.09608268 0.15541458 0.47850028 -0.8070609 -0.34596264 0.0069636805
-0.048891716 0.099595293 0.15375099 0.43088976 -0.84847969 -0.30727199 0.0041140136
0.047960684 0.099255055 0.15644851 -0.40948683 -0.84404707 -0.34627312 0.0064169061
0.054413557 0.096638121 0.15522394 -0.46648696 -0.82521987 -0.31843695 0.0054853316
0.062254097 0.091810547 0.15370296 -0.53054035 -0.77963006 -0.33272204 0.0060140961
-0.043577727 0.10232331 0.15179315 0.3814705 -0.88226467 -0.27584258 0.003497059
-0.034273934 0.10435444 0.15856598 0.27965045 -0.89739436 -0.34129044 0.0082968101
-0.027187476 0.10764914 0.15554993 0.22546224 -0.92334652 -0.31080216 0.0062260106
-0.01779666 0.1092706 0.1540141 0.14980923 -0.93211168 -0.32973495 0.0064348867
-0.0064144116 0.10931487 0.15981326 0.034391649 -0.9078446 -0.41789398 0.0096401852
0.0071969251 0.10995076 0.1568667 -0.07161539 -0.93461037 -0.34838882 0.0068356437
0.017119844 0.10951408 0.1533985 -0.15274495 -0.93535924 -0.31901741 0.0051846132
0.024751686 0.10822152 0.15447095 -0.22589958 -0.91837585 -0.32489249 0.005419699
0.036120594 0.10419923 0.15630037 -0.30328813 -0.89256787 -0.33367485 0.0062464289
0.046377525 0.10073758 0.15337627 -0.38434288 -0.86322325 -0.32730123 0.0063308831
-0.015294572 0.11018945 0.1516636 0.12599525 -0.94509298 -0.30153695 0.0049778065
-0.0070453016 0.11100425 0.15274525 0.050040085 -0.94735366 -0.31625476 0.005556155
0.0029393204 0.11101422 0.15486112 -0.028384162 -0.93966228 -0.34092394 0.0068452433
0.019048631 0.11000641 0.15042268 -0.1627796 -0.94753748 -0.27509159 0.0025450145
-0.040912014 -0.10062698 0.16219983 0.34791917 0.83657622 -0.42319319 0.010685324
-0.033796068 -0.10282489 0.16498536 0.27874449 0.83286023 -0.4781687 0.013199199
-0.02542433 -0.10546085 0.16476403 0.21135639 0.86634803 -0.45251459 0.012130109
-0.016221501 -0.10664768 0.16530067 0.13092974 0.85086805 -0.50880343 0.012635918
-0.0051584397 -0.10763621 0.16716671 0.028294627 0.83667964 -0.54696125 0.011067932
0.0056601027 -0.10878805 0.16231012 -0.040428121 0.90124124 -0.43142772 0.010834998
0.01529856 -0.10641629 0.16656923 -0.12841256 0.85146409 -0.50844771 0.013689231
0.02600123 -0.10567898 0.16385859 -0.21185207 0.87071681 -0.44381407 0.012158405
0.034049623 -0.10320127 0.16319647 -0.27408367 0.85470831 -0.44085348 0.012748031
0.040421486 -0.10057789 0.16313736 -0.34154996 0.83135813 -0.43839169 0.010149162
-0.055181861 -0.093553156 0.16474886 0.44812319 0.75753337 -0.47468814 0.0092356522
-0.045290638 -0.09830983 0.16407068 0.39440283 0.7964676 -0.45835108 0.011059006
0.045159973 -0.098091438 0.16502699 -0.37826708 0.80059683 -0.46471366 0.011358396
0.054484814 -0.093945734 0.16457365 -0.45154315 0.75029552 -0.48287219 0.010826256
-0.071711458 -0.081553832 0.16327529 0.58307362 0.67632848 -0.4501166 0.0097603193
-0.063883327 -0.087580718 0.16321091 0.52801305 0.73444945 -0.42636406 0.0092995185
0.065717243 -0.085765831 0.16451199 -0.52380598 0.71682507 -0.46020547 0.0086392695
0.073851869 -0.080118574 0.16261436 -0.6196925 0.65713912 -0.42912641 0.011383407
-0.077730633 -0.075799987 0.16493377 0.6206916 0.62677878 -0.47105247 0.010309411
0.075740576 -0.0774635 0.16560538 -0.59341019 0.648175 -0.4772144 0.012311478
0.08105585 -0.072967999 0.16178773 -0.68519706 0.61620694 -0.38832206 0.0091314716
-0.086229861 -0.06528578 0.16408758 0.70724201 0.54769409 -0.44703466 0.0099623725
0.08598078 -0.0648541 0.16593942 -0.68182814 0.52380687 -0.51062375 0.01245525
-0.093349606 -0.055726677 0.16449563 0.75267005 0.46499583 -0.46611869 0.013083778
-0.089095689 -0.059014056 0.1697973 0.69559288 0.47664198 -0.5375526 0.014069405
0.094459094 -0.053657409 0.16467553 -0.75762367 0.43270051 -0.48864779 0.013643948
-0.097219646 -0.046194743 0.16668747 0.78206712 0.39889681 -0.47880301 0.014935055
0.096881196 -0.047038209 0.16660179 -0.78373253 0.40166289 -0.47374064 0.013690881
-0.10315005 -0.033434778 0.16433303 0.85424131 0.2625517 -0.4487074 0.01224954
-0.09990681 -0.03897414 0.16785869 0.82046348 0.30302629 -0.48478314 0.012686966
0.099804893 -0.03975261 0.16703942 -0.81193995 0.32034042 -0.4879913 0.013295274
0.10341001 -0.033544511 0.1631985 -0.85938501 0.27102646 -0.43359211 0.012215195
-0.10492794 -0.027075026 0.16583213 0.85271567 0.22640373 -0.47076258 0.012733503
0.10554191 -0.025381545 0.16478409 -0.86147332 0.20121919 -0.46623448 0.013225541
-0.10694718 -0.015351497 0.16456299 0.89808214 0.11085885 -0.4256275 0.0091252597
0.10677799 -0.016619215 0.16445823 -0.89133549 0.1226646 -0.4364337 0.010648067
-0.10796002 -0.005598214 0.16556008 0.89053106 0.046370603 -0.45255297 0.0086943936
0.10793345 -0.0058457791 0.1656206 -0.8833304 0.039936751 -0.46704641 0.010498188
-0.10805076 0.0046229661 0.16579467 0.87822843 -0.032438032 -0.47714007 0.011936937
0.10820632 0.0032853545 0.16578849 -0.87362987 -0.014507408 -0.48637483 0.011041188
-0.10773499 0.013094932 0.16260612 0.89893585 -0.12726782 -0.41918641 0.0095150545
0.10690597 0.014937856 0.16494291 -0.88169867 -0.12595567 -0.45468956 0.011777996
-0.10590424 0.023878178 0.16424541 0.86752611 -0.20055583 -0.45516562 0.011505076
0.10592957 0.02333115 0.16443203 -0.87168068 -0.18749848 -0.45278823 0.011864023
-0.10305649 0.034010008 0.16379535 0.83958066 -0.28071326 -0.46508533 0.010556641
-0.099794179 0.039300203 0.1677753 0.81473678 -0.30307066 -0.4943198 0.011046903
