# .PCD v0.7 - Point Cloud Data file format
VERSION 0.7
FIELDS x y z normal_x normal_y normal_z curvature
SIZE 4 4 4 4 4 4 4
TYPE F F F F F F F
COUNT 1 1 1 1 1 1 1
WIDTH 565
HEIGHT 1
VIEWPOINT 0 0 0 1 0 0 0
POINTS 565
DATA ascii
-0.057630613 0.17843266 -0.36650398 0.0069424747 -0.9988429 -0.047588907 0.0023427065
-0.048053291 0.17716312 -0.36446518 0.0078604193 -0.99958205 -0.027819827 0.0028542497
-0.032348052 0.17800647 -0.36512092 -0.0017591268 -0.99899346 -0.044822637 0.0032692577
-0.023604821 0.17812946 -0.36376393 0.0035451055 -0.99916828 -0.040622801 0.0022527911
-0.015727995 0.17845583 -0.36577865 -0.014453993 -0.99834138 -0.055727351 0.0024579258
-0.0043328814 0.17780893 -0.36478284 -0.0022762164 -0.99957848 -0.028943129 0.002357516
0.0058125788 0.17792305 -0.36572295 -0.0049821003 -0.99921393 -0.039327301 0.0023050786
0.014196591 0.17770919 -0.36375567 -0.011182835 -0.99979067 -0.017130198 0.0033426948
0.024520302 0.17829783 -0.36666837 -0.010666382 -0.99941748 -0.03241723 0.0022523215
0.030603746 0.17742403 -0.36300266 -0.0048969053 -0.99982387 -0.018116796 0.0034062925
0.045784786 0.17713514 -0.36532113 0.0044715288 -0.99967074 -0.025266796 0.0022857522
0.056691207 0.1773687 -0.36566401 0.017087435 -0.9994657 -0.027863473 0.0019672567
0.060836758 0.17756623 -0.36910158 0.02273526 -0.99874151 -0.044705532 0.0020488549
0.075829022 0.17791666 -0.36381385 -0.00046188582 -0.99916416 -0.040876109 0.0026131778
0.085213296 0.17811629 -0.36755145 0.0067008012 -0.9987061 -0.050411664 0.0019567825
0.09323027 0.17805393 -0.36664882 -0.012676496 -0.99866128 -0.050148349 0.0023540931
0.10679539 0.1784832 -0.36550522 -0.072043605 -0.99692684 -0.030768005 0.0044136192
0.11869647 0.17774098 -0.36608994 -0.14998986 -0.9883756 -0.024832891 0.0066704308
0.12237981 0.17660961 -0.36475733 -0.18886037 -0.98130995 -0.036911562 0.0099330368
0.13591848 0.17404211 -0.36574376 -0.36332667 -0.93114036 -0.03116709 0.010987604
0.14246331 0.17073596 -0.36803165 -0.44711632 -0.89392883 -0.031275615 0.012119642
-0.13172694 -0.17040302 -0.35295463 0.34275541 0.93829578 0.046041735 0.017609304
-0.12686987 -0.17343184 -0.35527402 0.28114113 0.95958072 0.012822564 0.011867417
-0.11439153 -0.17492804 -0.35355482 0.10812653 0.99410349 0.0081830993 0.007585119
-0.10362466 -0.17533815 -0.35387117 0.052508291 0.99854922 0.01193118 0.0068380847
-0.094265141 -0.17652236 -0.35503745 -0.0031822638 0.99989522 0.014118702 0.0039249174
-0.08391165 -0.17671075 -0.35544661 -0.0010128421 0.99998295 0.0057471972 0.0035184429
-0.075380556 -0.17579746 -0.35285223 -0.0010655459 0.99992943 0.011829146 0.0033419563
-0.064409286 -0.17532063 -0.35485613 -0.0062193493 0.99997115 0.0043608383 0.0035038181
-0.053441066 -0.17533188 -0.35670209 -0.00059463846 0.99982953 -0.01845328 0.0036602551
-0.043554764 -0.17464249 -0.35477969 0.021240946 0.99970484 -0.011795841 0.0034486933
-0.034662299 -0.17587945 -0.35700032 0.019406589 0.99980021 -0.0047886265 0.0030896007
-0.026907269 -0.17562529 -0.35327345 0.0054337196 0.9999826 0.0022789827 0.003340763
-0.010960138 -0.17646731 -0.35551792 -0.0031463988 0.99999279 -0.0021438922 0.00348857
-0.0033176064 -0.1751633 -0.35474449 -0.010237194 0.99993885 -0.0041812942 0.0037259276
0.0052914368 -0.17564517 -0.35569429 -0.013856475 0.9997921 -0.014957436 0.0030943307
0.013748626 -0.17534745 -0.35592294 0.00035367592 0.9997701 -0.02144113 0.0038206393
0.025208468 -0.17534506 -0.3560431 0.0040403632 0.99949652 -0.031469908 0.0035254799
0.03365105 -0.17594184 -0.35598904 0.013111878 0.99980223 -0.014954127 0.0027286226
0.045172192 -0.17582598 -0.35469013 -0.0025790422 0.99986386 -0.016298106 0.0024773318
0.056465875 -0.17690694 -0.35381937 0.0022112594 0.99996126 -0.0085154111 0.0025627986
0.065449886 -0.17588258 -0.35381997 0.0084113637 0.99995613 -0.0041139298 0.0020107259
0.074087784 -0.1761217 -0.35533944 0.013055081 0.99991405 -0.0011782645 0.002533996
0.085219093 -0.17589918 -0.35551316 0.0099591361 0.99991477 0.008441994 0.0025616293
0.095495485 -0.17616037 -0.35673237 -0.019792002 0.99976933 -0.0083358949 0.0033632342
0.10446583 -0.17541863 -0.35824162 -0.061256584 0.99805963 -0.011157581 0.0049098213
0.11701415 -0.1765081 -0.35314947 -0.13436252 0.99070376 0.021281369 0.006404073
0.12471423 -0.17378856 -0.35343078 -0.21661186 0.97546506 0.039334521 0.010424109
0.13259642 -0.1712399 -0.35446078 -0.34346396 0.93839931 0.037936401 0.017034238
-0.15103583 -0.16352317 -0.3532142 0.61710888 0.78647715 0.025107656 0.013299254
-0.146274 -0.16459964 -0.35690531 0.55396956 0.83252078 0.0051842178 0.012280013
-0.13717683 -0.16983894 -0.35871834 0.43595761 0.89996666 -0.00095969747 0.014021543
0.14510697 -0.16499706 -0.35356823 -0.56019151 0.82822812 0.014952747 0.014490347
0.15319426 -0.16157438 -0.3596009 -0.66949797 0.74256951 -0.019051777 0.014612297
-0.16124661 -0.1529166 -0.35447335 0.74812943 0.66329831 0.018376339 0.013954825
-0.1534391 -0.15792328 -0.35174167 0.6700893 0.74162513 0.031185871 0.014961412
0.15572281 -0.15751745 -0.35524854 -0.71111083 0.70307058 0.003623218 0.018343419
0.16065872 -0.15434395 -0.35325319 -0.75578773 0.65458876 0.017274411 0.01183676
-0.17002156 -0.14287606 -0.35031587 0.85433787 0.51924467 0.022177275 0.012987552
-0.16525884 -0.14702038 -0.35528079 0.81619275 0.57771116 -0.0089006918 0.016668566
0.16324213 -0.14786047 -0.35423803 -0.81729454 0.57565033 0.025618339 0.015030136
-0.1721002 -0.1341868 -0.3546387 0.94597882 0.32422417 0.0016390794 0.011397749
-0.16934848 -0.13460477 -0.35312763 0.91757727 0.39740074 0.011164782 0.014568635
0.16783763 -0.13710378 -0.35408393 -0.90176755 0.43198591 0.014267596 0.01568624
0.17209879 -0.13380662 -0.35381612 -0.92687434 0.37501478 0.016368035 0.015115377
-0.17513606 -0.12232397 -0.35398835 0.98305011 0.18316527 0.007933218 0.0085221827
0.1732436 -0.12576626 -0.35527721 -0.97353601 0.22852388 -0.0021169665 0.012786147
0.17456758 -0.11811586 -0.35457513 -0.98735446 0.15852283 0.0012848889 0.010719439
-0.17535579 -0.10500787 -0.35419321 0.99921095 0.039013859 -0.0074452655 0.0050867153
0.17549165 -0.10735893 -0.35459605 -0.99796617 0.063329741 -0.0072739725 0.0064430377
-0.17505501 -0.093587443 -0.35452646 0.99994028 0.0048697824 0.0097828619 0.0035957578
0.17590415 -0.096604012 -0.35408184 -0.99952155 0.030745838 -0.0033546865 0.0050920011
-0.17609425 -0.086050995 -0.35562921 0.99988306 0.01507177 0.002603133 0.0031762279
0.17533851 -0.086079367 -0.35396031 -0.99998361 0.0023106162 -0.0052362131 0.0032833309
-0.17614019 -0.075202689 -0.35447079 0.99970084 0.024198597 0.0035644113 0.0030205324
0.17585282 -0.076056555 -0.35676417 -0.99984491 -0.0016965233 -0.01753252 0.002983758
-0.17614123 -0.068854257 -0.35534418 0.99993217 0.00086485024 -0.011615937 0.003150044
0.17552131 -0.064831525 -0.35562864 -0.99992001 -0.011701231 -0.0047999322 0.0029157645
-0.17583096 -0.054920066 -0.35382995 0.99986672 -0.014454964 0.0075937989 0.0032710657
0.17594419 -0.054957371 -0.35428461 -0.99993885 -0.0017089318 0.010931498 0.0027049435
-0.17574309 -0.04371829 -0.35736084 0.99966371 0.0028715816 -0.025770586 0.0031053503
0.17639153 -0.046200924 -0.35630903 -0.9999851 0.0033623069 -0.0042922976 0.0029145915
-0.17518021 -0.033247419 -0.35630852 0.99996585 0.0018868255 -0.0080425721 0.0028941254
0.17536785 -0.035582438 -0.35381517 -0.99991953 0.0028727304 0.012356208 0.0038925316
-0.17659704 -0.029068725 -0.35542315 0.99990666 0.010331088 -0.0089450469 0.0033629485
0.17580597 -0.022638662 -0.35490569 -0.99996144 -0.0081676543 0.0032113013 0.00466348
-0.17586386 -0.013917782 -0.35356537 0.99988461 -0.0087668691 0.012410587 0.0032422112
0.17472427 -0.013630727 -0.35439181 -0.99995011 -0.008907564 0.0045258296 0.0040853499
-0.17705387 -0.0075627863 -0.35256982 0.99992067 0.0080633154 0.0096785435 0.0027613416
0.17543894 -0.0051595047 -0.35830414 -0.99997854 -0.005458652 -0.0036192739 0.0034074495
-0.17603962 0.0039227456 -0.35581705 0.9999752 -0.0057918555 0.0040207421 0.0020513879
0.17562862 0.0065013855 -0.35888776 -0.99977273 -0.0013549328 -0.021274909 0.0040130462
-0.17533883 0.015587517 -0.35631147 0.99995905 0.0082110623 -0.0038035256 0.0024765579
0.17580965 0.01399844 -0.35653254 -0.99985909 0.016027685 0.0049973987 0.0037162225
-0.17650756 0.024605421 -0.35657883 0.99997759 0.0030436411 -0.00595647 0.0025885862
0.17576939 0.025030352 -0.35548216 -0.99998599 -0.0041652899 0.0032696847 0.0026460297
-0.17591339 0.036347248 -0.35534254 0.999888 -0.014860926 0.0017808856 0.0026238982
0.17519243 0.034298375 -0.3561362 -0.99992484 0.010177812 -0.0068323207 0.0022960387
-0.17610525 0.048045844 -0.35767612 0.99992913 -0.011098706 -0.0043017082 0.0021570853
-0.17582045 0.055562355 -0.35474235 0.99996632 -0.0051180292 0.0064101112 0.0028560986
0.17594863 0.054487552 -0.35450789 -0.99989128 0.01473861 -0.0003979129 0.0019973053
-0.17549838 0.065373123 -0.35588545 0.99999088 0.0031137224 -0.0029264081 0.0027983456
0.17632163 0.066012517 -0.35820132 -0.99992013 -0.0096845571 -0.0081232199 0.0018291642
-0.1756743 0.073312752 -0.35398963 0.99999917 -0.0012900993 0.00024416248 0.0027164961
0.17736071 0.078301534 -0.3516258 -0.99982786 -0.002050369 0.018439092 0.0022142746
-0.17518854 0.08841978 -0.35753369 0.99986696 -0.010477186 -0.012500721 0.0025484739
0.17560832 0.085764483 -0.35472095 -0.9998436 -0.017661143 -0.00088857627 0.0023946769
-0.17575228 0.094857655 -0.35926825 0.99973196 -0.0070649497 -0.022049518 0.0032987532
0.17565818 0.096823946 -0.35420266 -0.99921119 -0.038981456 0.0075836666 0.0038516514
-0.17564683 0.10425233 -0.35675541 0.99975866 -0.018113837 -0.012428887 0.0035489658
0.17635036 0.10533707 -0.35485017 -0.99931985 -0.035905149 0.0084062489 0.0038266745
-0.17566416 0.11295835 -0.35413879 0.99650955 -0.08288233 0.0099562211 0.0061897757
0.1750377 0.11426651 -0.35402727 -0.99433362 -0.10148063 0.031659819 0.0086586289
-0.17437825 0.12238868 -0.35799176 0.98298198 -0.1836872 0.002304052 0.010252204
0.17315735 0.1257924 -0.35491717 -0.97767603 -0.209308 0.018431924 0.012201441
-0.1718843 0.13566947 -0.35587192 0.91487759 -0.40356889 0.01144875 0.014957443
-0.1705315 0.1406402 -0.3516641 0.89640623 -0.44262159 0.023281176 0.017370563
-0.16485246 0.14480516 -0.35405037 0.83589405 -0.54883432 0.0078731356 0.012090616
0.16580488 0.14444777 -0.35763389 -0.83214539 -0.55444139 -0.011348847 0.015542683
-0.16141832 0.15185025 -0.35808715 0.72583711 -0.68713808 -0.031650569 0.013302229
-0.15650062 0.15506171 -0.35351276 0.69909406 -0.71497637 0.0087325759 0.013912923
0.15496266 0.15733515 -0.35463789 -0.68221593 -0.73107803 0.010316437 0.011539605
0.16358785 0.15012495 -0.35434002 -0.79341996 -0.60862482 -0.0077938586 0.01507119
-0.15204145 0.16198686 -0.35388365 0.6139518 -0.78933424 0.0038391005 0.017376291
-0.14342037 0.16666444 -0.35671297 0.50387013 -0.8637116 -0.010818768 0.015692065
-0.13891697 0.16749841 -0.35379064 0.44004041 -0.8979373 0.0085455868 0.014751566
0.14740774 0.16465993 -0.35581473 -0.5751332 -0.81789625 -0.016353434 0.015389913
0.15040141 0.16010463 -0.35262871 -0.6515249 -0.75860977 0.0051612849 0.013331315
-0.13489717 0.17180249 -0.35476261 0.39099449 -0.92038375 0.0041232756 0.012458999
-0.12501879 0.17347211 -0.35613507 0.2474575 -0.96886981 0.0074905693 0.012875155
-0.1156814 0.17583618 -0.35340124 0.12431618 -0.99224001 0.0022980608 0.012566979
-0.10394216 0.17586394 -0.35554722 0.0069773518 -0.99991143 -0.011338363 0.0039267507
-0.096669123 0.17593038 -0.35474989 0.017029746 -0.99985117 -0.0027711748 0.0039875768
-0.086241759 0.17426966 -0.35313863 0.0031952269 -0.99994659 0.0098307738 0.0035128025
-0.076307565 0.17596427 -0.35666209 0.010364932 -0.99991393 -0.0080479626 0.0032807628
-0.063156083 0.17493409 -0.35412776 0.018427163 -0.99982983 -0.00088772358 0.0039119446
-0.053202901 0.1746898 -0.35599905 0.002237096 -0.99996299 -0.0083079562 0.0036474196
-0.043691073 0.17496277 -0.35464016 -0.01241772 -0.99992275 -0.00053996948 0.0039046491
-0.032600034 0.17625177 -0.35237184 -0.010652564 -0.99993914 0.0028841333 0.00329169
-0.026234435 0.17612822 -0.35319266 0.014890168 -0.99974984 0.01668936 0.0038792924
-0.01589649 0.17526463 -0.35513952 0.0099575445 -0.99990535 -0.0094932541 0.0036639059
-0.0074292547 0.17539464 -0.35722819 0.0038378229 -0.99988323 -0.014790973 0.0030178453
0.0093905898 0.17524914 -0.35772005 -0.010602641 -0.99994344 -0.00083933899 0.0039081108
0.027502071 0.17500243 -0.3563346 -0.010200804 -0.99994421 -0.0027335368 0.0036248446
0.03686107 0.17445941 -0.35496357 -0.0034857772 -0.99997008 0.0069045508 0.0032579228
0.045386318 0.17531712 -0.35490319 -0.013347535 -0.99990463 -0.0035518887 0.0032211924
0.055476017 0.1759489 -0.35650855 0.020611221 -0.99978745 -0.00046902537 0.0032608837
0.063047677 0.17657532 -0.35404238 0.017548878 -0.99983817 0.0039597056 0.0028333673
0.073087528 0.17596076 -0.35193425 0.0016877321 -0.99994624 0.010231151 0.0026414215
0.086162426 0.17606896 -0.35536543 0.0044094031 -0.9999252 -0.011404946 0.0028877936
0.09578184 0.17573033 -0.35600176 -0.01600682 -0.9996388 -0.021589272 0.0027843905
0.10222124 0.17546108 -0.35837221 -0.017664928 -0.99928993 -0.033278517 0.0033186392
0.11790667 0.17570269 -0.35392919 -0.14695872 -0.98914057 -0.0020129085 0.0065969424
0.12848397 0.17409503 -0.35853264 -0.28796262 -0.95697212 -0.035804093 0.011943056
0.13423572 0.17096297 -0.35703126 -0.36079895 -0.93214661 -0.030443061 0.013735292
-0.14098851 -0.17173347 -0.34228793 0.40661928 0.90814972 0.099623658 0.0099516297
-0.13498068 -0.17434706 -0.34253934 0.40637735 0.9082846 0.099381037 0.010630674
-0.12565699 -0.17802182 -0.34405649 0.2268047 0.97180843 0.064404726 0.0093556968
-0.11574307 -0.17758016 -0.34583178 0.1101482 0.99323887 0.036660906 0.0071611349
-0.10414919 -0.17752916 -0.34710842 0.049807128 0.99825245 0.031801187 0.005881642
-0.095953517 -0.17754582 -0.34599125 0.003115752 0.99966449 0.025712332 0.003290744
-0.088885374 -0.17563587 -0.34893483 0.0032096982 0.99983656 0.017794428 0.0034311123
-0.074365757 -0.17761731 -0.34519291 -0.0074693309 0.99944896 0.032341611 0.0022747407
-0.064565763 -0.17764544 -0.34641993 -0.00090461579 0.9997015 0.024418255 0.0031311964
-0.054646932 -0.17853603 -0.34600985 -0.0048076999 0.99975669 0.021527708 0.0027552363
-0.045288518 -0.17795719 -0.34459257 0.013116765 0.99947107 0.029758282 0.0027209145
-0.036154374 -0.1776512 -0.34264207 0.008280931 0.99956107 0.028444383 0.0027978495
-0.02502902 -0.17762147 -0.3447884 -0.0022955695 0.99929744 0.037407547 0.002825734
-0.015723858 -0.17794029 -0.34536085 0.010115383 0.99958628 0.026926585 0.0027879174
-0.0062236688 -0.17667495 -0.34531388 -0.0092059169 0.99921405 0.038555197 0.0030000727
0.0053350972 -0.17720558 -0.34636861 -0.021130545 0.99910504 0.036642328 0.0027486864
0.010731705 -0.17935982 -0.34091878 -0.015134176 0.99855632 0.0515377 0.0023595938
0.02743908 -0.17756623 -0.34242368 -0.011091812 0.99835604 0.056234404 0.0013887393
0.034781422 -0.1767249 -0.34523231 -0.0048531662 0.99964529 0.026186084 0.0023037358
0.046113349 -0.1768738 -0.34450927 0.018396463 0.99967277 0.017778182 0.0016594966
0.055117305 -0.17774905 -0.34395066 0.017756982 0.99960208 0.021918925 0.0017375393
0.065745577 -0.17749125 -0.34722507 0.014259268 0.99982333 0.01224762 0.0023408786
0.075750902 -0.17698723 -0.34587628 0.0056826319 0.99983758 0.017104197 0.0019738141
0.082421929 -0.17835423 -0.34361511 -0.0020147103 0.99892652 0.046277814 0.0017069234
0.093373373 -0.1776571 -0.34504306 0.0076370887 0.99955159 0.028953198 0.0022334061
0.1048996 -0.17761359 -0.34676608 -0.054731131 0.99794406 0.03334764 0.0047399374
0.11636007 -0.17867287 -0.34561595 -0.11333466 0.99316931 0.027748287 0.0046347021
0.12614381 -0.17692102 -0.3447243 -0.22569452 0.97295928 0.049114849 0.0089344596
0.13393112 -0.17556602 -0.34405211 -0.35255498 0.93425608 0.053578023 0.010988942
0.14074355 -0.1719884 -0.34137237 -0.44296542 0.8956489 0.03993449 0.010124316
-0.15049089 -0.16586377 -0.34109673 0.58213538 0.80921465 0.079309747 0.0093517359
-0.14611229 -0.16856794 -0.34373456 0.51947093 0.84963125 0.090976693 0.0076759481
0.14471424 -0.16862559 -0.34679288 -0.50885487 0.86045533 0.026141141 0.016041344
0.15236126 -0.16458261 -0.34734339 -0.60057229 0.79910862 0.027172914 0.014353173
-0.16500144 -0.15316959 -0.34421974 0.78312606 0.62091613 0.034302343 0.012349325
-0.15711111 -0.15655045 -0.34821916 0.68424141 0.72797585 0.043184035 0.017439269
0.15700482 -0.15766926 -0.34559697 -0.71181649 0.70097005 0.044251185 0.017217079
0.16237019 -0.15480551 -0.34495863 -0.7597689 0.64850032 0.046888031 0.010985062
-0.1709528 -0.14462918 -0.34623089 0.84653223 0.53200829 0.018717766 0.013636542
-0.16807988 -0.14662433 -0.34638047 0.84700066 0.53130037 0.017603155 0.013062121
0.16725007 -0.14641914 -0.3443484 -0.85056615 0.52307534 0.054124463 0.01134203
0.17082173 -0.14336602 -0.34794611 -0.88471037 0.46544221 0.025516223 0.014970656
-0.17427352 -0.13119996 -0.34374958 0.96036899 0.27527818 0.043741517 0.0088755544
0.1737197 -0.13469878 -0.34455004 -0.935646 0.34601209 0.069586501 0.012340286
-0.1778415 -0.12372455 -0.34675154 0.97773331 0.20966563 0.0088268975 0.0075458968
0.176073 -0.1256289 -0.34507278 -0.96819925 0.24141803 0.065631308 0.011549551
-0.17905974 -0.11350832 -0.3460432 0.99556053 0.088874139 0.030995438 0.0074483338
0.17807284 -0.11667867 -0.34438521 -0.99022084 0.12505867 0.06183086 0.0061750086
-0.1780225 -0.10674366 -0.34692338 0.99726421 0.072576277 0.014029602 0.0073451926
0.17653385 -0.10074538 -0.34506029 -0.99862242 0.027395105 0.044752423 0.0041239308
-0.17817491 -0.095018581 -0.34365734 0.99946356 0.010565485 0.030999947 0.0023987074
0.177109 -0.095179446 -0.34706816 -0.99943483 0.0095880264 0.032219887 0.0035131078
-0.17852722 -0.086888276 -0.34363532 0.99947941 0.0072316462 0.031441715 0.0022519485
0.17805746 -0.085191578 -0.34367728 -0.99934834 -0.0020456533 0.036037806 0.0024480841
-0.17935982 -0.075114191 -0.34353626 0.9994328 0.00067982904 0.033670738 0.002717078
0.17830129 -0.074316926 -0.34606564 -0.99941015 0.016175238 0.030293634 0.002220046
-0.17801674 -0.066079713 -0.34461898 0.99956381 0.0036638728 0.02930334 0.0023866387
0.17776474 -0.064253986 -0.3434732 -0.99945402 0.012452955 0.030603059 0.0018942551
-0.17845078 -0.057922933 -0.34544289 0.99947762 -0.021728318 0.023926077 0.0025609885
0.1788989 -0.053868532 -0.34559804 -0.99961227 0.002051705 0.027769163 0.002139128
-0.17801984 -0.045904353 -0.34639841 0.99985158 -0.010251177 0.0138453 0.0024699522
0.17831257 -0.045937896 -0.34466177 -0.9994424 -0.006193751 0.032811224 0.0021045031
-0.17608912 -0.031730581 -0.34754023 0.9997043 0.010700073 0.021837007 0.0028201416
0.1784085 -0.036163643 -0.3420184 -0.99908108 -0.0035606225 0.042713013 0.001822962
-0.17815974 -0.023902584 -0.34537378 0.99953735 0.0045283865 0.030075461 0.0023935142
0.17817394 -0.026411181 -0.34487188 -0.9992103 -0.014687276 0.036919933 0.002679162
-0.17756216 -0.015808826 -0.3452023 0.99958712 0.0035317009 0.028515525 0.0021140196
0.17843327 -0.015307797 -0.3436859 -0.99866152 0.0035714726 0.051599205 0.0019883974
-0.17856516 -0.004168103 -0.34564418 0.99954462 -0.0048437654 0.029784683 0.0018581211
0.17828158 -0.0075953337 -0.34879234 -0.99964643 0.006975872 0.025660856 0.0036986603
-0.17753378 0.0042859595 -0.34368685 0.99947792 0.0055329115 0.031830881 0.0019183868
0.17876196 0.0044283406 -0.34188691 -0.99895024 -0.0069306241 0.045280214 0.0021303762
-0.1782769 0.014209949 -0.34400028 0.99949431 0.0044110259 0.031491652 0.0020500252
0.17786905 0.015148832 -0.34442461 -0.99930304 -0.004916532 0.037003294 0.0021256423
-0.17876196 0.026189178 -0.3412194 0.9988848 0.0071517071 0.046669159 0.001302607
0.1777273 0.023279324 -0.34549364 -0.99957949 0.0030435824 0.028837038 0.0017907303
-0.1771834 0.034770936 -0.34501114 0.99928021 0.00095067819 0.037922729 0.0018082319
0.17805895 0.035842519 -0.34411699 -0.99924874 0.0012056679 0.03873691 0.0018727446
-0.17838767 0.044490416 -0.34347224 0.9993062 -0.014171302 0.034443289 0.0017055003
0.17806113 0.046363249 -0.3463577 -0.9998101 0.0047140587 0.018909976 0.0021171926
-0.17815574 0.054821547 -0.34414056 0.99940825 -0.0095088789 0.033055209 0.002030337
0.17701484 0.055847846 -0.34379554 -0.99957848 0.010416897 0.02709868 0.0015632268
-0.17811011 0.065407276 -0.34490287 0.99963337 -0.0069094016 0.02618061 0.0019732029
0.17796965 0.064961791 -0.34351256 -0.99978036 -0.0024968681 0.020806883 0.0013686531
-0.17775613 0.077076554 -0.34473279 0.99946886 -0.0045007709 0.032276552 0.0021810243
0.17774102 0.074703313 -0.3428244 -0.99937516 0.0031294907 0.035206523 0.0018714066
-0.17815684 0.086603507 -0.34567246 0.99966753 -0.010941371 0.023346411 0.0023670252
0.17849092 0.085327864 -0.34470481 -0.99943811 -0.0036820348 0.033315208 0.001885651
-0.17714788 0.095423855 -0.34675455 0.99960089 -0.016567038 0.022882868 0.0029942226
0.1768865 0.099565789 -0.34508678 -0.99878889 -0.026512859 0.041446313 0.0034413696
-0.17783931 0.10520041 -0.34296918 0.99866319 -0.025494326 0.044965927 0.0022298407
0.17935982 0.10181913 -0.34220657 -0.99895847 -0.026476793 0.037160512 0.0029134261
-0.17737015 0.11499488 -0.3415063 0.9924643 -0.10906386 0.055855066 0.0037453794
0.1763089 0.11634381 -0.34586984 -0.99169022 -0.11864541 0.049737662 0.0068968455
-0.17676628 0.12593365 -0.34425598 0.96822041 -0.24298343 0.059230622 0.008810766
0.17579582 0.12551069 -0.34508723 -0.96943641 -0.23663487 0.064783938 0.009961498
-0.17370076 0.13519423 -0.34642249 0.91658127 -0.3987999 0.028939538 0.015760621
0.16864909 0.13960257 -0.34911206 -0.89003628 -0.45497876 0.028805383 0.017787866
0.17694438 0.130743 -0.34297767 -0.95749277 -0.28011411 0.068874694 0.0085800262
-0.17149001 0.14286342 -0.34613726 0.86635172 -0.49791971 0.038867168 0.014082219
-0.16468823 0.14902176 -0.34559447 0.7828759 -0.62102973 0.037780318 0.011630737
0.17243105 0.14195207 -0.34587148 -0.89109933 -0.45259231 0.033199131 0.018903764
-0.16251753 0.15535265 -0.34441113 0.72371256 -0.68743831 0.060570009 0.010982716
-0.1555744 0.15806007 -0.34771898 0.68947929 -0.72422373 0.010874592 0.015096432
0.16195352 0.15744653 -0.34580618 -0.73245841 -0.6797744 0.037568133 0.008036037
-0.15515068 0.16292951 -0.34540308 0.66393781 -0.74732268 0.026371071 0.012604441
-0.146438 0.16852437 -0.34689736 0.52295089 -0.85161465 0.035705503 0.011990967
-0.13885681 0.16900736 -0.34913361 0.44822747 -0.89245284 0.051186178 0.013773779
0.14613132 0.16669969 -0.346901 -0.51609617 -0.85638362 0.015872043 0.011656309
0.15317456 0.16375035 -0.34383905 -0.66082102 -0.74896824 0.048602369 0.011185364
-0.1431725 0.17196295 -0.34556717 0.44134241 -0.89492923 0.065715589 0.013017685
-0.13313094 0.17468259 -0.34456134 0.35488951 -0.93177319 0.076499715 0.0087362481
-0.12716286 0.17663753 -0.3457574 0.26229513 -0.96164179 0.080290079 0.010411
-0.11662623 0.17687504 -0.3465054 0.13071689 -0.99122375 0.019708198 0.0078527713
-0.10829049 0.17817914 -0.34304026 0.057320174 -0.99692327 0.053464223 0.0041225255
-0.09378247 0.17814027 -0.34325787 0.0056235553 -0.99883461 0.047935359 0.0021543694
-0.086709529 0.17673123 -0.34756407 0.0083412658 -0.99937248 0.034425434 0.0029807531
-0.075986736 0.17708787 -0.34618947 0.0064713601 -0.99946767 0.031977993 0.0032214425
-0.064886898 0.17752774 -0.3454833 0.0063312817 -0.99969643 0.023811493 0.0034639591
-0.053638026 0.17824119 -0.34891659 -0.0066694878 -0.99987227 0.014521208 0.0031798864
-0.044925943 0.17853501 -0.34563279 0.0028079588 -0.99984592 0.017327175 0.0032924369
-0.036700923 0.17760886 -0.34429041 0.0054587778 -0.99946517 0.032244142 0.002885933
-0.024418244 0.17763381 -0.34636956 -0.00035315994 -0.99994671 0.010322428 0.0024541605
-0.013821653 0.17807253 -0.34250394 -0.0032025282 -0.99958301 0.028698916 0.0019386602
-0.0043356023 0.17791836 -0.34709823 0.0095706144 -0.99993968 0.005385635 0.0024319869
0.0055842823 0.17715654 -0.34462994 0.011161117 -0.99959105 0.026327502 0.0020996868
0.016978513 0.1773285 -0.34518689 -0.003470442 -0.99941885 0.033910714 0.0028269
0.026778849 0.17726892 -0.34660834 -0.012173511 -0.9995268 0.028248213 0.002406087
0.035026126 0.17805372 -0.34503108 0.00097447954 -0.99870104 0.050944984 0.0022036091
0.043132581 0.17753817 -0.34574205 0.0046148738 -0.99891192 0.046407003 0.0026014601
0.054111112 0.17792025 -0.34526038 0.0058202427 -0.99902356 0.043794181 0.0020815178
0.063853666 0.17800795 -0.34352526 0.0092224376 -0.99921238 0.038595341 0.0018651738
0.075304396 0.1779145 -0.34405109 0.0031389634 -0.99928319 0.037725586 0.0016711859
0.082198098 0.17588055 -0.34818205 -0.0025648703 -0.99986213 0.016403224 0.0026242128
0.095920339 0.17846301 -0.34329739 -0.011389026 -0.99926978 0.036471549 0.002338913
0.10299305 0.17876196 -0.34138742 -0.0085999072 -0.99927586 0.037063945 0.0023572517
0.11995086 0.17674237 -0.34389046 -0.16904539 -0.98452753 0.046142787 0.0073865443
0.12368219 0.17603897 -0.34555706 -0.19380537 -0.98071563 0.025226463 0.010156768
0.1345918 0.17483149 -0.34412515 -0.38972551 -0.92016166 0.037637547 0.010337423
0.14418511 0.17150429 -0.34283793 -0.45415524 -0.89025563 0.034465864 0.011448844
-0.14319162 -0.17199419 -0.33241108 0.47892728 0.87477952 0.073413208 0.008212572
-0.13819195 -0.17272538 -0.33603927 0.4033317 0.91030169 0.093135849 0.010000597
-0.12402514 -0.17825885 -0.33442676 0.19963503 0.97787201 0.062546566 0.0065557719
-0.10615905 -0.17891142 -0.33507547 0.038134176 0.99685204 0.069511563 0.0027020716
-0.094031818 -0.17864238 -0.33341968 0.016971547 0.99849212 0.052206308 0.0017509253
-0.083438188 -0.17900109 -0.33440286 -0.0078365849 0.99847889 0.054575078 0.0018558699
-0.075684033 -0.17876196 -0.33587444 0.0064675156 0.9990713 0.0425971 0.0016444466
-0.065985143 -0.17891142 -0.33456665 0.0014970184 0.9989208 0.046422105 0.0017628185
-0.050759979 -0.17756623 -0.3377088 0.0029137891 0.99898213 0.045012545 0.0021042374
-0.042818613 -0.17891143 -0.33509254 0.0091939187 0.99863744 0.051367901 0.0019132303
-0.036284901 -0.17756623 -0.33473769 0.0053229006 0.99880832 0.048513468 0.0022295245
-0.026288927 -0.17935981 -0.33581069 0.020106966 0.99888515 0.04271128 0.0019860924
-0.013552085 -0.17846303 -0.33584437 1.7764729e-05 0.99876791 0.049625143 0.0019099541
-0.0042515481 -0.17876194 -0.33628547 -0.0085440893 0.99819231 0.059490565 0.0020343612
0.0039683236 -0.17900112 -0.33431804 0.00054259674 0.99827343 0.058736291 0.0021657473
0.018900428 -0.17756623 -0.33660474 -0.0047590421 0.99847674 0.054968882 0.0016954518
0.023684453 -0.17756623 -0.33537626 -0.016154844 0.99867743 0.048810277 0.0015463132
0.034360979 -0.17846303 -0.33254421 -0.014782391 0.99904191 0.041192301 0.00118936
0.045354009 -0.17816408 -0.33227995 0.0077489298 0.99904007 0.043115627 0.00070549053
0.053102627 -0.17801462 -0.33371857 0.012637991 0.9987579 0.048197158 0.00069171702
0.068911195 -0.17935982 -0.33542883 0.016653528 0.99885976 0.044741489 0.00093796063
0.074747279 -0.17828366 -0.33574715 0.0098503064 0.99888039 0.046269894 0.000910756
0.085040301 -0.17882173 -0.33535281 0.0069305389 0.99763745 0.06834849 0.0012007845
0.097266406 -0.17846303 -0.33685219 -0.013033459 0.99832034 0.056450196 0.0012033737
0.10386796 -0.17828366 -0.33302224 -0.027017673 0.9983176 0.051302381 0.0016146546
0.11818966 -0.17762768 -0.33497137 -0.11249177 0.99280375 0.041063756 0.0044330759
0.12322775 -0.1769817 -0.33496857 -0.17527761 0.98315454 0.051816482 0.0063049868
0.13451083 -0.17440067 -0.33468819 -0.37283477 0.92737353 0.031187868 0.0072808461
0.14300644 -0.17204994 -0.33800021 -0.46978685 0.88224256 0.030795561 0.0093179774
-0.15598311 -0.16189618 -0.33428538 0.66982371 0.74108279 0.046180416 0.0049950783
-0.14828846 -0.1677824 -0.33814204 0.54180139 0.8369419 0.077327453 0.0076595023
0.15329798 -0.16557285 -0.33342063 -0.62303686 0.78050876 0.051294494 0.0062831673
-0.16451187 -0.15382549 -0.33418798 0.78507984 0.61783737 0.043892052 0.0097087342
0.15708512 -0.15948418 -0.33030549 -0.6854825 0.72676402 0.043908626 0.0068716514
0.16511472 -0.15401463 -0.33429027 -0.76370603 0.64231509 0.06468752 0.0086890645
-0.17109542 -0.14417468 -0.33455253 0.85889584 0.50818759 0.063586645 0.01056888
-0.1679765 -0.14796451 -0.33523759 0.81970811 0.56995308 0.056851294 0.0093925307
0.16823778 -0.14760694 -0.33308914 -0.84610957 0.52951992 0.06088658 0.00734021
0.17305262 -0.14104538 -0.33460391 -0.90417206 0.41989714 0.078481562 0.007921637
-0.17443979 -0.13503541 -0.33217865 0.95212215 0.30318737 0.039252181 0.0069850152
0.17489237 -0.13352805 -0.33262792 -0.94190598 0.33031702 0.060859602 0.0064363
-0.17644338 -0.12848926 -0.33417279 0.96564949 0.25665343 0.04061982 0.0065582036
0.17668201 -0.1221864 -0.33978453 -0.98417377 0.1654925 0.063357711 0.0068680337
-0.17857344 -0.11486179 -0.33362475 0.99374717 0.10121855 0.047131043 0.0040073572
0.17871045 -0.11354373 -0.33523741 -0.99133182 0.10189249 0.08294037 0.0029123861
-0.17756623 -0.10555261 -0.33545822 0.99789011 0.04963214 0.041856896 0.002815559
0.17891143 -0.10647132 -0.33521867 -0.99589008 0.047119487 0.077348121 0.0020751643
-0.17828366 -0.094241038 -0.33429176 0.9990136 0.011190554 0.042970736 0.0019238339
0.17846303 -0.095307052 -0.33434701 -0.99806291 0.0041957051 0.062070925 0.0014529439
-0.17801464 -0.08532434 -0.33459771 0.99864942 0.015826916 0.049485642 0.0015827242
0.17935982 -0.083410859 -0.33456379 -0.99868369 -0.00042071866 0.051291004 0.0015114524
0.17756623 -0.074488573 -0.33310202 -0.99880004 0.0073732282 0.048415951 0.0017362342
-0.17864239 -0.068229474 -0.33560508 0.99918252 -0.0071085356 0.039796375 0.0012458377
0.17801462 -0.062578887 -0.33607286 -0.99911457 0.0040076938 0.04188069 0.0016836677
0.17935984 -0.057729382 -0.33131218 -0.99958199 -0.00074117351 0.028899441 0.0014085672
-0.17792495 -0.044333946 -0.33542162 0.99897087 0.0050419262 0.045074403 0.00171158
0.17816408 -0.046067864 -0.33416972 -0.99892026 0.012446113 0.044759888 0.0014123485
-0.17935984 -0.032529131 -0.33698335 0.99884331 0.011300922 0.046737313 0.0015980785
0.17828366 -0.034983207 -0.33587036 -0.99863839 -0.0039253822 0.052019097 0.0019305088
-0.17816408 -0.021913968 -0.33495486 0.99904293 0.0036193894 0.043591052 0.0013840355
0.17935981 -0.024447562 -0.3339448 -0.99919271 0.0062077404 0.039690547 0.0015694967
-0.17900109 -0.014645551 -0.33577406 0.99897081 0.0044424618 0.045138545 0.0016309704
0.17935982 -0.013661284 -0.33364275 -0.9989388 -0.0035603917 0.045919452 0.0017420425
-0.17876196 -0.0046447348 -0.33389583 0.99955994 -0.0032163486 0.029487921 0.0013200695
0.17756623 -0.0016998448 -0.3332051 -0.99904937 -0.0041934322 0.043391321 0.0016432982
-0.17792495 0.006614977 -0.3366901 0.99909061 0.0060363566 0.042209212 0.001277307
0.17846303 0.005566515 -0.33729637 -0.99860585 -0.00090184371 0.052777056 0.0021581466
-0.17792495 0.017393831 -0.33552963 0.99856907 -0.0045433729 0.053283285 0.0012410226
0.17864236 0.013732824 -0.33654749 -0.99841762 -0.012735871 0.054772615 0.0014384409
-0.17913561 0.024946468 -0.33450887 0.99891943 -0.0018622045 0.046438534 0.0011825295
0.17864238 0.024950054 -0.33517194 -0.99866951 -0.0024295161 0.0515102 0.001216742
-0.17876196 0.035555761 -0.33641496 0.99890435 -0.0062899841 0.046375025 0.0014604032
0.17846303 0.035745319 -0.33382875 -0.99864233 -0.0040942086 0.051930722 0.0010711389
-0.17756623 0.046300039 -0.33093941 0.99931592 -0.0019044525 0.036932673 0.0011307402
0.17846303 0.045374826 -0.33697051 -0.99916643 0.0010924898 0.040806632 0.0013795268
-0.17816408 0.054829698 -0.3353841 0.99889445 -0.0078830337 0.04634396 0.0013675111
0.17756623 0.054152731 -0.33446494 -0.99887735 0.0034788509 0.0472431 0.0011068754
-0.17846301 0.065486848 -0.33578449 0.99881059 -0.003079307 0.048661564 0.0013510658
0.17935982 0.064407274 -0.33398962 -0.99915022 -0.002422584 0.041146692 0.0010832144
-0.17828366 0.074105039 -0.33483028 0.99894124 -0.0022033143 0.045952078 0.0014003707
0.17876196 0.075761504 -0.33566335 -0.99845463 0.0095727285 0.054742526 0.0016648294
-0.17876196 0.083981223 -0.33327472 0.99868244 -0.00013241608 0.051317304 0.0012273889
0.17884736 0.085729711 -0.33461541 -0.99893957 -0.010760921 0.044765532 0.0021415886
-0.17756623 0.094399579 -0.33917472 0.99901438 -0.0065664323 0.043899197 0.0017186328
0.17935984 0.097417705 -0.33339873 -0.99862069 -0.013726206 0.050678737 0.0018543339
-0.17828366 0.1070843 -0.33454043 0.9978472 -0.04020448 0.051812094 0.0022047325
-0.17920555 0.11548817 -0.33481646 0.99178392 -0.12149503 0.040044628 0.0039112414
0.17869167 0.11620463 -0.33500367 -0.99121934 -0.11394174 0.067092367 0.0063248682
-0.17615235 0.12825139 -0.33339202 0.9569087 -0.28237134 0.067765087 0.0072062975
0.17789473 0.12362012 -0.33677921 -0.98251313 -0.17964019 0.048963849 0.0076284143
-0.17376582 0.13576008 -0.33385277 0.93896568 -0.33879265 0.059690848 0.0083161322
0.17595479 0.13349994 -0.33454323 -0.93963486 -0.32863605 0.095313773 0.0065424652
-0.17257123 0.14202157 -0.33495018 0.88824493 -0.45335883 0.074072272 0.01185015
-0.16714036 0.14720248 -0.33458248 0.83115876 -0.5532313 0.055768911 0.0090487702
0.16835816 0.14675775 -0.33519855 -0.84177876 -0.53219658 0.090417325 0.010450775
0.17223532 0.1427027 -0.33025372 -0.88726091 -0.45728183 0.060508635 0.0089797406
-0.16413063 0.15349874 -0.33188313 0.75951773 -0.64856428 0.049972311 0.0067003407
0.16386579 0.15551256 -0.33317709 -0.7575469 -0.64804083 0.078522503 0.0071603255
-0.15424947 0.16426387 -0.33561164 0.65112478 -0.75695986 0.055212211 0.0088349395
-0.14674072 0.16747552 -0.3351863 0.57062489 -0.81887132 0.061943457 0.0085477661
0.14425436 0.16904402 -0.33997303 -0.48320055 -0.87463772 0.039066244 0.0079392297
0.15398516 0.16332953 -0.3357268 -0.64563036 -0.76196247 0.05073937 0.0070486218
-0.1464393 0.170359 -0.33023697 0.51095271 -0.85844123 0.044787988 0.0080161197
-0.13516049 0.17356545 -0.33440089 0.35991362 -0.92968732 0.078382358 0.0067108208
-0.12403519 0.17802343 -0.33388478 0.22490233 -0.97279078 0.055651322 0.0060903844
-0.11712385 0.1781645 -0.33659583 0.13955641 -0.98830956 0.061385717 0.0054869563
-0.10270724 0.17756623 -0.33563176 0.0061911391 -0.99796748 0.063424706 0.0017019412
-0.091934845 0.17846303 -0.33438224 -0.0045561208 -0.99831188 0.057901897 0.0014961057
-0.084256239 0.17756623 -0.33441234 -0.0025013792 -0.99799865 0.063186489 0.0018210922
-0.074888743 0.17828366 -0.33519194 0.015696419 -0.99855292 0.051435694 0.0020540885
-0.065383822 0.17816408 -0.33311585 0.013740492 -0.99745578 0.069951497 0.0018501112
-0.056202695 0.17846303 -0.33636376 0.0092343809 -0.99758971 0.068771854 0.00159652
-0.044514965 0.17816408 -0.33478841 -0.010511036 -0.99797297 0.062764488 0.0017108223
-0.03684143 0.17876194 -0.33382806 -0.009866179 -0.99840134 0.055654936 0.0013558272
-0.027468186 0.17792495 -0.33398694 -0.0011267405 -0.99873424 0.050285164 0.0014767465
-0.013831655 0.17756623 -0.33335876 0.0060168896 -0.99881315 0.048333462 0.0011363013
-0.00099205598 0.17935982 -0.3386898 0.014470802 -0.99933267 0.033538103 0.0013646834
0.0037202535 0.17801462 -0.33317444 0.010736223 -0.998914 0.0453385 0.0014180724
0.014795677 0.17859113 -0.33561727 -0.008402098 -0.99912751 0.040910702 0.0019746614
0.025476862 0.17891142 -0.33714086 -0.0063382853 -0.99908251 0.042355783 0.0019250533
0.034684811 0.17906089 -0.3352963 0.0021297021 -0.99830216 0.058208175 0.0017486915
0.048121326 0.17756623 -0.33598512 0.0064179921 -0.99855554 0.053344589 0.0017421544
0.053141858 0.17816408 -0.33722964 0.0012277367 -0.99900669 0.044542398 0.0017524185
0.064397417 0.17828366 -0.33549494 -0.0055341804 -0.9990226 0.043854058 0.0013427272
0.07538642 0.17876196 -0.33892238 0.0021298165 -0.99910301 0.042292465 0.0015144824
0.084295496 0.17807868 -0.33459541 0.0034307321 -0.99894023 0.045897935 0.001359225
0.10618486 0.17756623 -0.33356437 -0.044054657 -0.99769849 0.051545791 0.0025943525
0.11306754 0.1786647 -0.33672473 -0.066128574 -0.99744588 0.026994137 0.0027774619
0.13522333 0.17305568 -0.3369709 -0.36370558 -0.9305343 0.042709198 0.010556797
0.14350273 0.17103209 -0.33888674 -0.47997653 -0.87653738 0.036118887 0.0075506638
-0.14291418 -0.172131 -0.32214206 0.44308764 0.89618182 -0.023054931 0.0083143637
-0.13461027 -0.17506802 -0.32579243 0.34291202 0.93904608 0.024571903 0.011654042
-0.12718144 -0.17670351 -0.32688171 0.25261495 0.96656454 0.044031072 0.006521618
-0.11822947 -0.17715815 -0.3257018 0.14528587 0.98917872 0.02043405 0.0041142171
-0.10488431 -0.17792495 -0.32411578 0.025151704 0.99959177 0.013556434 0.0018627329
-0.09545847 -0.17884736 -0.326078 0.0063762539 0.99948132 0.03156703 0.0015017969
-0.082205161 -0.17935982 -0.32816553 -0.0025798653 0.99908155 0.042770568 0.0013706521
-0.075197145 -0.17756623 -0.32221848 -0.012395975 0.99990267 -0.0064045005 0.0010851112
-0.064585716 -0.17756623 -0.32575414 -0.0089012198 0.9995867 0.027336175 0.001510256
-0.054053057 -0.17828366 -0.32468495 0.0033290365 0.99997896 0.0055738413 0.00093135238
-0.048758354 -0.17756623 -0.32022101 0.014625832 0.99987024 -0.0067554261 0.0011908738
-0.03397388 -0.17756623 -0.32717431 0.012699887 0.99903417 0.042064819 0.0017608166
-0.027540145 -0.17935982 -0.32892668 0.017203284 0.9991833 0.036560342 0.0013856334
-0.015865121 -0.17846301 -0.32421345 0.0054137735 0.99998295 0.0021569838 0.0014151405
-0.0070911101 -0.17935982 -0.32503945 -0.0030200286 0.99998075 0.005425734 0.0014006764
0.0052765398 -0.17816408 -0.32527903 -0.0056340443 0.99997765 0.0035994051 0.0012140115
0.013600261 -0.17891142 -0.32523286 -0.0099865478 0.99979097 0.017842125 0.0011071982
0.024265764 -0.17864236 -0.32320786 -0.0081444914 0.99995458 0.0049540889 0.0010229058
0.034005772 -0.17756623 -0.32638445 -0.014644973 0.99950963 0.027676897 0.00082438852
0.045277268 -0.17801462 -0.32499689 0.013579021 0.99955308 0.026631286 0.00085617288
0.053372946 -0.17756623 -0.32734919 0.015483802 0.99892962 0.043587089 0.00069542218
0.064532809 -0.17816408 -0.32611129 0.022275573 0.99911058 0.035804156 0.00061978976
0.075578764 -0.17900109 -0.32399464 0.013165381 0.99980605 0.01464713 0.00078858074
0.082401797 -0.17935982 -0.32680613 0.011850092 0.99918705 0.038533371 0.00091243786
0.092564769 -0.17876196 -0.32752618 -0.0034667486 0.99951226 0.031036051 0.0010940951
0.10505904 -0.17935982 -0.32496008 -0.035965748 0.99934918 -0.002769124 0.00086689991
0.117401 -0.17908019 -0.32532787 -0.13166793 0.99124354 0.009990572 0.0044813617
0.12551391 -0.17703521 -0.3252041 -0.21019435 0.97764891 0.0045616804 0.0057809409
0.13343266 -0.17603137 -0.32673904 -0.34854695 0.93720132 0.012989851 0.0077822777
-0.15342711 -0.16493663 -0.3242532 0.63908213 0.76832581 0.035350546 0.0065272399
-0.14360981 -0.16936189 -0.3242768 0.48127589 0.87656772 0.0016189947 0.0087006735
0.14460307 -0.16876039 -0.32348931 -0.49346969 0.8697623 -0.0011064861 0.0060784086
0.15348716 -0.16414078 -0.32904068 -0.6258238 0.77939415 0.029823136 0.0059179533
-0.16299678 -0.15650347 -0.32505399 0.73811096 0.67415971 0.026471617 0.0047534704
0.16373165 -0.15463553 -0.32507497 -0.76916945 0.6386658 0.022006458 0.0059014168
-0.17156875 -0.14405432 -0.32345268 0.88405442 0.46694255 -0.020310069 0.0089390893
-0.1677992 -0.14625633 -0.32833719 0.83374816 0.54954642 0.053505924 0.0089688962
0.16823237 -0.14962205 -0.32640809 -0.82238275 0.56880611 0.012090225 0.0078615416
-0.17396736 -0.13625303 -0.3264125 0.94527811 0.32543221 0.023306724 0.0059762518
0.17359993 -0.13711321 -0.32596311 -0.92793387 0.37078977 0.038126711 0.0071042818
-0.17528933 -0.12891071 -0.32602412 0.96594089 0.25743815 0.026150588 0.0059678284
0.17771646 -0.12464078 -0.32603949 -0.97404069 0.22580931 0.015964944 0.004044706
-0.17781368 -0.11522113 -0.32535148 0.99364102 0.11258553 -0.0014193277 0.0025575031
0.17871372 -0.11273224 -0.32616019 -0.99633867 0.077674769 0.035718806 0.0023354234
-0.17828366 -0.10733829 -0.32428446 0.99818128 0.060282446 -0.00034093281 0.0016939451
0.17891142 -0.1046516 -0.32304078 -0.99944389 0.033229329 0.0027781685 0.0015206651
-0.17756623 -0.094593942 -0.3200686 0.99940407 0.023865025 -0.02493936 0.001035917
0.17756623 -0.093867004 -0.32979828 -0.99887419 -0.0020713927 0.047394346 0.0015933089
-0.17846303 -0.084324434 -0.32669169 0.99910128 0.020978564 0.036831141 0.0013990216
0.17828366 -0.083986565 -0.32528105 -0.99942911 0.00093384885 0.033773039 0.001274758
-0.17935982 -0.073374987 -0.32483712 0.99998814 -0.0014500812 0.0046472833 0.0011426447
0.17935984 -0.075850539 -0.32303742 -0.99995923 -0.0090302872 -0.00018719966 0.00096759805
-0.17816408 -0.065259218 -0.32691124 0.9994697 -0.014161339 0.029322384 0.0010913244
0.17833491 -0.066449843 -0.32517871 -0.99997556 -0.004279667 0.0055318419 0.00069531641
-0.17756623 -0.051432885 -0.32434899 0.99993658 0.005081601 0.010051371 0.0012396501
0.17846301 -0.056448016 -0.32580736 -0.99998724 -0.0018984779 0.0046760533 0.0010401304
-0.17846301 -0.046478748 -0.32521182 0.99983698 -0.0020169565 0.017943304 0.0013239462
0.17846303 -0.043968953 -0.32411033 -0.99994957 0.008517433 -0.0053192033 0.00054729206
-0.17792496 -0.034004442 -0.32319596 0.99998534 0.0032304134 0.0043490166 0.0011367529
0.17876194 -0.035094991 -0.32447666 -0.99999702 0.0022204798 0.0010736026 0.0013408613
-0.17876196 -0.026926443 -0.32201073 0.99998045 -0.0019179217 -0.005960532 0.0014154543
0.17876196 -0.02410466 -0.3230173 -0.99978739 0.0040778313 -0.020212511 0.00086002564
-0.17796482 -0.015836881 -0.32361236 0.99998397 0.0029621727 -0.0048331637 0.0013864357
0.17816408 -0.013588625 -0.32501274 -0.99998629 -0.0015654751 0.0049888911 0.0014326908
-0.17891142 -0.0019126427 -0.32479495 0.99999183 0.0037561178 0.0014805689 0.00072338688
-0.17846303 0.0043926737 -0.32511002 0.99997079 0.0076405942 -0.0002961955 0.00065031816
0.17846303 0.0043662391 -0.32648718 -0.9999783 -0.0046534841 0.0046637058 0.00044306647
-0.17935982 0.011520177 -0.32168117 0.99973375 0.00630937 -0.022195065 0.00081588019
0.17846303 0.013579152 -0.3227981 -0.99987501 0.00013048347 -0.015812101 0.0010671609
-0.17868721 0.024220593 -0.32320175 0.99999917 0.0012928857 -0.00014296849 0.00099820632
0.17846301 0.025256885 -0.32397401 -0.99989992 0.002049156 0.013996585 0.00042962978
-0.17846301 0.033226438 -0.32133675 0.99994236 -0.003488679 -0.010160135 0.00094634754
0.17756623 0.03495165 -0.32544702 -0.99957156 -0.010458215 0.027338058 0.00036789468
-0.17935982 0.04940486 -0.32249635 0.99997389 -0.0053167068 0.0048986371 0.00069577445
0.17816408 0.043200117 -0.32553375 -0.9996469 -0.0039179311 0.026281051 0.00054119487
-0.17807868 0.054881562 -0.32458419 0.99996763 -0.0045106309 0.0066647367 0.00076506112
0.17816408 0.055213749 -0.32522061 -0.99957913 -0.0012627513 0.028982909 0.00090590969
-0.17864236 0.064737424 -0.32503667 0.99997371 0.0028922015 0.00664953 0.00055684609
0.17816408 0.066015005 -0.3243399 -0.99991322 0.0041731102 0.012496891 0.00096853619
-0.17876196 0.07569737 -0.32578185 0.99959385 -0.0014588406 0.028461013 0.00082703587
0.17756623 0.077280179 -0.32653713 -0.9996292 0.0084340768 0.02588908 0.0013740337
-0.17786516 0.086605616 -0.32472646 0.99982381 -0.0059148516 0.01781768 0.00036444076
0.17816408 0.085475393 -0.32168785 -0.99997425 -0.0013828359 -0.0070376047 0.0016536738
-0.17846303 0.094557151 -0.32801542 0.99984288 -0.004488661 0.017150087 0.0005900492
0.17756623 0.091251537 -0.32828394 -0.99925411 -0.0054278723 0.038232282 0.0017035441
0.17935982 0.10353895 -0.32355481 -0.99956334 -0.027569119 0.010639681 0.0017112996
-0.17794895 0.11566266 -0.3228772 0.99335825 -0.11486797 0.0066868109 0.0037886295
0.17847137 0.11719111 -0.32430401 -0.99392778 -0.11002035 0.0017602389 0.0040211179
-0.17729887 0.12311103 -0.32417116 0.98125678 -0.19128051 0.023386214 0.0049882731
0.17734905 0.12476605 -0.32664222 -0.97778141 -0.20561057 0.040838711 0.0059721749
0.1752844 0.13237315 -0.32374206 -0.96008599 -0.27962756 0.0065820161 0.0075344564
-0.17244665 0.14227414 -0.32951972 0.88856268 -0.45723453 0.037321325 0.0094978325
-0.16967845 0.14296788 -0.32988769 0.87584412 -0.48036 0.046383243 0.0099258944
0.16893041 0.1461051 -0.32254058 -0.8519339 -0.52363688 -0.003613885 0.0065465453
0.17229752 0.1409367 -0.32530686 -0.90423197 -0.42659858 0.019447297 0.0093611246
-0.16422822 0.15415199 -0.32419318 0.74630415 -0.66521108 0.02289697 0.0079742288
0.15812157 0.15857521 -0.32855591 -0.69105816 -0.72057509 0.056657396 0.0067180838
-0.15733242 0.1622698 -0.32801938 0.67146981 -0.7402277 0.034513436 0.0071506337
-0.14769803 0.1677299 -0.32422504 0.50111723 -0.86527866 0.013209066 0.0080486322
0.1457513 0.16808297 -0.32505533 -0.51508045 -0.8570264 0.014069127 0.0052691335
0.15413356 0.16207263 -0.32122561 -0.65160233 -0.75848973 -0.010384181 0.0062082862
-0.14268722 0.17143424 -0.32301 0.47333649 -0.88086069 0.0060893102 0.0083627012
-0.13573946 0.17387222 -0.32401031 0.32979134 -0.94404703 0.0035856487 0.0053931884
-0.12793539 0.17685811 -0.32619679 0.23673224 -0.97106254 0.031548612 0.0054453029
-0.11940689 0.17708097 -0.3220863 0.17641357 -0.98397565 -0.025887735 0.0048078238
-0.10439332 0.17801464 -0.32331905 0.012451208 -0.9999128 -0.0043934365 0.00096912705
-0.092395946 0.17935982 -0.32754388 0.003517776 -0.99949563 0.031563487 0.0018949194
-0.084957257 0.17846303 -0.32186773 0.0032500855 -0.99999088 0.0027742423 0.0012973128
-0.070689298 0.17935982 -0.32449526 0.0059067947 -0.99995726 0.0071187117 0.00096726808
-0.064682573 0.17801464 -0.32487467 0.0088066161 -0.99982738 0.016361371 0.0014590253
-0.043767579 0.17828366 -0.32493585 -0.013857229 -0.99942869 0.030827783 0.0011105268
-0.0346612 0.17846303 -0.32536435 -0.023951711 -0.99934208 0.02723594 0.00069795077
-0.024791239 0.17756623 -0.32266167 -0.0010842715 -0.99998528 0.0053235898 0.0011376528
-0.016173922 0.17801462 -0.32498166 -0.0027251027 -0.99981546 0.019016467 0.00058010774
-0.0032331671 0.17756623 -0.32752517 0.0030079063 -0.99991167 0.012945778 0.00067244249
0.0056977286 0.17816408 -0.32528543 0.0033128625 -0.99976885 0.021244315 0.0008453285
0.012571963 0.17792495 -0.32404882 0.0035658698 -0.99991721 0.012361582 0.00081969798
0.024794133 0.17816408 -0.32375047 -0.001239759 -0.99995661 0.0092313532 0.00071814883
0.037356257 0.17846303 -0.32460412 -0.0016618385 -0.99991202 0.013158467 0.00059142523
0.046261285 0.17786515 -0.32659647 -0.001031689 -0.99974382 0.022609271 0.0010890632
0.055119622 0.17935982 -0.32309443 0.0013074019 -0.99999321 -0.0034414758 0.00062616909
0.066031642 0.17846303 -0.32537159 -0.0013296962 -0.99962842 0.027226038 0.00092614227
0.074409507 0.17846303 -0.32392824 -0.00023632265 -0.99981159 0.019411905 0.00091162941
0.086854547 0.17876196 -0.32572618 0.011002444 -0.9996618 0.02356361 0.0011537712
0.093450271 0.17828366 -0.32446176 0.0037610086 -0.99999267 -0.00066020765 0.00093646988
0.10397372 0.17876196 -0.32232022 -0.031118454 -0.99936914 -0.017117696 0.0011008281
0.11450481 0.17924961 -0.32628334 -0.1050342 -0.99446118 0.0038577018 0.0026622666
0.12259648 0.17779377 -0.3238036 -0.18077654 -0.98350316 0.0064407592 0.0052089668
0.13371758 0.17556578 -0.32443526 -0.30958438 -0.95075887 0.014666974 0.0076699383
0.14438967 0.17140339 -0.32325923 -0.46765339 -0.88349688 -0.027084924 0.0056812339
-0.14526787 -0.17097029 -0.31801209 0.48076597 0.87639296 -0.028273992 0.007558058
-0.13780026 -0.17385443 -0.31457078 0.37930596 0.92384565 -0.051344395 0.006593293
-0.1245853 -0.17772746 -0.31289077 0.19375171 0.98042679 -0.034979906 0.0061959014
-0.11532197 -0.17807639 -0.3156516 0.10567722 0.99397963 -0.028926317 0.0029015744
-0.10338523 -0.17935984 -0.31753615 0.024312422 0.99961287 -0.013529835 0.0011488396
-0.095196836 -0.17756623 -0.31508273 0.0042437818 0.99942493 -0.033641577 0.0011093934
-0.084058464 -0.17816408 -0.31366301 -0.0031638395 0.99911529 -0.041935533 0.0012163906
-0.078471527 -0.17816408 -0.3120515 -0.0099472115 0.99911892 -0.040773366 0.0010181183
-0.067437872 -0.17807868 -0.31467277 -0.014779064 0.99903446 -0.041371897 0.0012903247
-0.057228167 -0.17935982 -0.31224644 -0.0071432483 0.99871153 -0.050241504 0.0014352747
