# .PCD v0.7 - Point Cloud Data file format
VERSION 0.7
FIELDS x y z normal_x normal_y normal_z curvature
SIZE 4 4 4 4 4 4 4
TYPE F F F F F F F
COUNT 1 1 1 1 1 1 1
WIDTH 573
HEIGHT 1
VIEWPOINT 0 0 0 1 0 0 0
POINTS 573
DATA ascii
0.024959099 -0.087278143 0.21383806 -0.23369789 0.82015139 -0.52224225 0.0019538351
0.036257874 -0.082795583 0.21521342 -0.33445153 0.77664608 -0.5338192 0.0019177548
0.041045435 -0.082006872 0.21297923 -0.38671783 0.7604506 -0.52169359 0.0027370388
-0.052861113 -0.073845968 0.2146976 0.51268661 0.69048524 -0.51027685 0.0019043917
-0.045175858 -0.077373333 0.21586946 0.4378275 0.72571981 -0.53069568 0.002444851
0.046818778 -0.077583641 0.2140948 -0.43868199 0.73208123 -0.52116704 0.0028636353
0.055894889 -0.072066866 0.21382995 -0.53459537 0.67257476 -0.5117138 0.0018630218
-0.07145451 -0.060082622 0.21072902 0.65529478 0.56334865 -0.50321662 0.0024751222
-0.063108362 -0.064536974 0.214696 0.59789234 0.60852599 -0.52174789 0.0023179459
-0.05812325 -0.067869432 0.21625888 0.55980009 0.63515693 -0.53216487 0.0026017516
0.057257611 -0.069941968 0.21561748 -0.53320014 0.66648871 -0.52104747 0.0018710765
0.063638039 -0.064199321 0.21455762 -0.6036582 0.6055904 -0.51851428 0.0027908485
-0.073191993 -0.054652017 0.2133655 0.67958063 0.51830012 -0.51916766 0.0024618583
-0.067178749 -0.059397634 0.21632287 0.62970358 0.566185 -0.53189093 0.0025299259
0.067134336 -0.056337345 0.21913433 -0.63824403 0.54348832 -0.54522014 0.0033206462
0.073473513 -0.053732667 0.21407317 -0.69981849 0.50016242 -0.50999182 0.0020097534
-0.08119528 -0.044195145 0.21136388 0.75584078 0.4117831 -0.50905734 0.002834589
-0.0765251 -0.045625582 0.21660358 0.72283596 0.42977709 -0.54110974 0.0023302231
0.076266155 -0.045881737 0.21693139 -0.72045738 0.4417918 -0.53456628 0.0022479799
0.08095289 -0.042241275 0.21293657 -0.74746066 0.41407603 -0.51946479 0.0028941981
-0.082577184 -0.034835011 0.21644664 0.77221233 0.33882001 -0.53748399 0.0022894347
0.079469711 -0.039614763 0.21709989 -0.75796604 0.3728601 -0.53522217 0.0028737073
0.08346194 -0.034166623 0.21535258 -0.78162116 0.32403904 -0.53297949 0.0022232838
-0.087292328 -0.027553316 0.21256649 0.8249197 0.25084746 -0.5065403 0.0019343238
0.087166354 -0.024763167 0.21426985 -0.82722855 0.23579581 -0.50999337 0.0018668827
-0.09192317 -0.014089779 0.21118912 0.86061269 0.12426063 -0.49386743 0.0018488675
-0.088616475 -0.016576115 0.21569638 0.83850497 0.16359846 -0.51975483 0.0019083462
0.08822792 -0.015013927 0.21614464 -0.83881927 0.14933546 -0.52352762 0.0026303304
0.091171302 -0.013492778 0.21199951 -0.85478097 0.12723193 -0.5031516 0.0025136794
-0.091121398 -0.0037552721 0.21311942 0.85864615 0.039803479 -0.51102096 0.0023699282
-0.089088805 -0.0066522802 0.21627566 0.85043865 0.087356038 -0.51877064 0.0024970351
0.08851707 -0.0025829738 0.21776348 -0.84090877 0.021425193 -0.54075271 0.0024438829
0.091792919 -0.0076870676 0.21270263 -0.86071604 0.089235224 -0.50120354 0.0021637194
-0.092371479 0.0068316534 0.21170394 0.85282648 -0.077159673 -0.51646233 0.0019716555
-0.088784516 0.0046391222 0.21744819 0.84067887 -0.053290073 -0.5389055 0.0025601708
0.088331357 0.0054032197 0.21759082 -0.84063363 -0.055894278 -0.53871226 0.0020978304
0.091527343 0.0063675046 0.21229851 -0.85979956 -0.075741909 -0.50498301 0.0024445644
-0.091095828 0.016051384 0.21118306 0.84369659 -0.16545954 -0.51068515 0.0026173193
-0.088244818 0.013863114 0.21653914 0.83787656 -0.12943211 -0.53029251 0.00265587
0.087953009 0.013672679 0.21756056 -0.83040726 -0.12214201 -0.54360378 0.0023021705
0.091456875 0.014636653 0.21141872 -0.84862369 -0.14620492 -0.5083915 0.0022829899
-0.086313248 0.025176177 0.21548155 0.82173026 -0.23316218 -0.51999491 0.00239948
0.085733876 0.02642213 0.21555282 -0.81592673 -0.23823375 -0.52679062 0.0021058151
-0.084026851 0.033889659 0.21472283 0.79116929 -0.31150675 -0.52632189 0.0027938972
-0.07810986 0.038919903 0.21960264 0.7424624 -0.37945294 -0.55205524 0.003112383
0.079764247 0.038705386 0.21813083 -0.748357 -0.37748438 -0.54540575 0.002627196
0.085136458 0.03311187 0.213267 -0.80045825 -0.29914558 -0.51940209 0.00248496
-0.081057496 0.042386148 0.21267402 0.75438553 -0.40343043 -0.5178284 0.0032158555
-0.07770814 0.045345131 0.21525468 0.72540432 -0.43914297 -0.53003943 0.0020934271
0.077649757 0.045958437 0.21475208 -0.7294116 -0.43892074 -0.5246973 0.0021013687
0.08297459 0.040296119 0.21228786 -0.77644867 -0.36061472 -0.51680207 0.00238417
-0.072251782 0.053823013 0.21574062 0.67498416 -0.5137682 -0.52956468 0.001907547
-0.067337453 0.057901014 0.21714552 0.64032352 -0.542741 -0.54352373 0.0027897686
0.068269767 0.057787668 0.21692306 -0.6385234 -0.55812097 -0.52989519 0.0023013011
0.071953036 0.056014627 0.21385047 -0.67626989 -0.52686203 -0.51485479 0.0018187941
-0.064701609 0.063515373 0.21404418 0.61190259 -0.58899665 -0.52788079 0.0026548759
-0.057496637 0.06823463 0.21742654 0.5490343 -0.63738465 -0.54064983 0.0023184973
0.056846436 0.068681523 0.21670896 -0.53094918 -0.66170156 -0.5293808 0.0024298849
0.063664638 0.063716203 0.21506049 -0.61526442 -0.58752686 -0.52560627 0.0019066239
-0.054963153 0.073121965 0.2131979 0.52685088 -0.67660606 -0.51442432 0.0018952594
-0.046682943 0.076440856 0.2158 0.44588134 -0.71470392 -0.53887677 0.0023018932
0.046136338 0.077390604 0.21510749 -0.43765596 -0.72872865 -0.52669895 0.0020588413
0.055156302 0.072568141 0.21386276 -0.50676095 -0.69187635 -0.514296 0.0018018442
-0.043168906 0.08187373 0.2113153 0.41254884 -0.75897878 -0.50374067 0.0024772307
-0.034844175 0.083007269 0.21563736 0.33413756 -0.78178126 -0.52646953 0.001683748
-0.024050457 0.087876536 0.21333821 0.23245139 -0.8217532 -0.52027684 0.0025137647
-0.017236196 0.088030808 0.21628538 0.16787849 -0.83262843 -0.52777529 0.0020374695
-0.0050316346 0.088229142 0.21778044 0.035106976 -0.83844179 -0.54385912 0.002306324
0.0059053563 0.088290714 0.2183097 -0.058599249 -0.83547288 -0.54639828 0.0024605673
0.015774546 0.087205917 0.21749875 -0.1473783 -0.83098918 -0.53641087 0.0016916833
0.02427025 0.08663667 0.21529661 -0.21539712 -0.82452339 -0.5232259 0.0021902416
0.034383439 0.084044531 0.21433306 -0.32242829 -0.78527772 -0.52856308 0.0022857557
-0.014169641 0.091145366 0.21209197 0.11418962 -0.85345191 -0.50850809 0.002193159
-0.00070018065 0.091383614 0.21287231 0.016269511 -0.85365444 -0.5205856 0.0021992854
0.004187719 0.091543131 0.21286365 -0.040505987 -0.85780787 -0.51237184 0.0024820108
0.013912422 0.091260299 0.21170366 -0.12140817 -0.85249496 -0.50844115 0.0022827075
-0.023082145 -0.081038319 0.22467542 0.22925054 0.78266609 -0.57868648 0.0027543483
-0.013690057 -0.083471127 0.22422875 0.12049191 0.81816822 -0.56221205 0.0027807783
-0.0053280862 -0.083211459 0.22655597 0.045013111 0.8060509 -0.59013182 0.0030929211
0.006375601 -0.084540963 0.22374113 -0.063700773 0.82051992 -0.56805736 0.0035912667
0.013463167 -0.083622031 0.22449902 -0.14569432 0.80492562 -0.57521111 0.0033377311
0.023299392 -0.082968302 0.22138938 -0.22777015 0.7939446 -0.56371325 0.0024870702
-0.050294101 -0.070919685 0.22128952 0.4918057 0.67152524 -0.55423915 0.0031922508
-0.042523306 -0.07286761 0.22443041 0.41788653 0.69585472 -0.58408648 0.0030221452
-0.03584519 -0.076187201 0.22474629 0.35106006 0.73018777 -0.58615929 0.0026916761
-0.025992729 -0.078484334 0.22768956 0.25747305 0.76620203 -0.58876312 0.0022781708
0.02649557 -0.078635767 0.22663772 -0.25572771 0.77230841 -0.58150053 0.0025942081
0.034269802 -0.076278299 0.22619322 -0.33129504 0.7405178 -0.58470243 0.0030386858
0.044448361 -0.071866602 0.22409745 -0.43129864 0.69558704 -0.57457829 0.0031145085
-0.054164663 -0.064232372 0.22504252 0.52195579 0.62853962 -0.57662833 0.0033317152
-0.047152597 -0.067852408 0.22801355 0.4560332 0.65231895 -0.60540366 0.0032831936
0.047394484 -0.069311947 0.22507983 -0.44522342 0.67736876 -0.5856173 0.0028457744
0.054628037 -0.064594068 0.22448124 -0.5335443 0.61725461 -0.57821047 0.0031409906
0.06011904 -0.062253237 0.2209536 -0.57279003 0.61005294 -0.54749149 0.0033473526
-0.063478611 -0.055693805 0.22486199 0.61567611 0.5441252 -0.56997448 0.0030985151
-0.059376102 -0.055714969 0.22945105 0.5730893 0.54821914 -0.60911763 0.0035638183
0.059832416 -0.056770198 0.22741652 -0.58780521 0.5427404 -0.59993154 0.0035156705
0.064515114 -0.053746633 0.22516955 -0.62468648 0.51290172 -0.58881116 0.0031016693
0.071570292 -0.050577398 0.2201298 -0.68933147 0.47641173 -0.54576004 0.0023962827
-0.073169909 -0.043594349 0.22303124 0.69723606 0.43661374 -0.56853348 0.0023993787
-0.067372322 -0.047983233 0.22726065 0.64888316 0.47056991 -0.59792531 0.0028499973
0.069152251 -0.04502726 0.22786601 -0.67151797 0.42945918 -0.60384476 0.0029218891
0.07212352 -0.043611087 0.22467344 -0.69752973 0.427874 -0.5747835 0.0028248888
-0.07590989 -0.036179688 0.22534858 0.72697735 0.35997292 -0.58474219 0.0025653555
0.076411813 -0.034455489 0.22548722 -0.73729312 0.33834398 -0.58474118 0.0029918833
-0.081724644 -0.023655379 0.22316642 0.79273772 0.22214562 -0.56764275 0.0034645326
-0.077971973 -0.026028279 0.22790277 0.76394153 0.24838911 -0.59556371 0.0031639822
0.079277307 -0.024479093 0.22697711 -0.77579278 0.23219872 -0.58671051 0.0029352175
0.081480958 -0.024131915 0.22358151 -0.78002912 0.23947692 -0.57810497 0.0028877861
-0.084232122 -0.014587489 0.22296639 0.81608552 0.12826841 -0.56351721 0.0033472411
-0.079741701 -0.019162472 0.22843678 0.774005 0.19483316 -0.60245842 0.0035417953
0.079330847 -0.017454259 0.22946444 -0.77209419 0.19496313 -0.60486364 0.0038271709
0.084457695 -0.013160549 0.22284658 -0.81318682 0.13099772 -0.56706858 0.0029051332
-0.084330238 -0.005124494 0.22416103 0.81758505 0.054493364 -0.57322353 0.0033259345
0.084020935 -0.0025180909 0.22512391 -0.81328571 0.013616812 -0.58170521 0.0025799079
-0.084349364 0.0055020871 0.22464278 0.81353402 -0.053968728 -0.57900751 0.0030470025
0.084502891 0.0044815051 0.22391653 -0.8176955 -0.035754565 -0.57453954 0.0027106367
-0.083848804 0.013376385 0.22374029 0.81218058 -0.12581807 -0.56967753 0.0029813955
-0.079102024 0.018484913 0.2294526 0.77153265 -0.19270904 -0.60630071 0.0033170178
0.078821965 0.01895348 0.22997829 -0.77221775 -0.19109243 -0.60594016 0.0035343142
0.082920417 0.013636664 0.22548132 -0.80442089 -0.14022163 -0.57727367 0.0026555636
-0.082044266 0.024942275 0.22238716 0.78468549 -0.25502646 -0.56500453 0.0025983397
-0.078414477 0.025149792 0.22802106 0.76026732 -0.24317983 -0.60237622 0.0030250417
0.077135265 0.028606679 0.22797179 -0.7554363 -0.2780188 -0.59331405 0.0034865313
0.081739344 0.023757422 0.22309421 -0.78988039 -0.22888923 -0.56894517 0.0027966094
-0.080880903 0.031825315 0.22103262 0.77566969 -0.30045688 -0.5550335 0.003190734
-0.076140977 0.035371784 0.22517653 0.73261607 -0.35582453 -0.5802263 0.0032608409
0.076625161 0.034842994 0.22527774 -0.74760765 -0.34420574 -0.56798357 0.0023737156
-0.072249323 0.043935407 0.22424251 0.69140357 -0.43642461 -0.57575577 0.0024250716
-0.067893229 0.047506545 0.22770932 0.65996307 -0.46260288 -0.59198594 0.0023456961
0.067834824 0.046765551 0.22767863 -0.66099936 -0.45455626 -0.59704143 0.0033569545
0.072870418 0.043956246 0.22313203 -0.69814044 -0.43061996 -0.57198465 0.002406877
-0.062792152 0.055751976 0.22499998 0.61646444 -0.53659749 -0.57622451 0.0027401797
-0.056982614 0.058306389 0.22912312 0.55252492 -0.56364024 -0.61402446 0.0036462964
0.056212518 0.059321821 0.22865182 -0.54404229 -0.57402426 -0.61197549 0.0038423631
0.063872404 0.054394741 0.22544877 -0.62534636 -0.51724166 -0.584297 0.0029577012
-0.062306844 0.060530819 0.2202495 0.61159962 -0.56475961 -0.5540691 0.0025728815
-0.056247473 0.063674025 0.22397704 0.55580992 -0.60907662 -0.56577468 0.0025485121
-0.045760509 0.068442136 0.22771037 0.45329738 -0.66302496 -0.59575105 0.0030164821
0.047492739 0.068280831 0.22694032 -0.4677965 -0.65774429 -0.59037179 0.0031807469
0.053176641 0.065938659 0.22409689 -0.51015306 -0.63955158 -0.57508063 0.0035006539
0.06108854 0.060343497 0.22198392 -0.60715586 -0.56426501 -0.55943429 0.0029700522
-0.043611676 0.071611904 0.22517967 0.4282243 -0.69655955 -0.57569849 0.003179899
-0.036465205 0.075832292 0.2252804 0.36746994 -0.7295146 -0.57686597 0.0026879369
-0.026746074 0.078099608 0.22735707 0.25997847 -0.76600343 -0.58791989 0.0027326329
0.0193341 0.078752548 0.22969984 -0.17585744 -0.77901119 -0.6018436 0.0035161562
0.0244004 0.078434885 0.22835177 -0.23480324 -0.76839447 -0.59534639 0.0036604539
0.034795329 0.076178506 0.22556444 -0.33484986 -0.74207902 -0.58068436 0.003196903
0.044986792 0.073349267 0.22184271 -0.44155547 -0.70261294 -0.55799985 0.0024233349
0.052061118 0.070344672 0.22005276 -0.48756576 -0.67714339 -0.55114102 0.0025419882
-0.023196222 0.082324259 0.2224481 0.21202376 -0.79519933 -0.56807035 0.0027118241
-0.014412278 0.083824798 0.22397706 0.15229221 -0.80237401 -0.57706422 0.0021010085
-0.0046867444 0.083284914 0.22589928 0.046439297 -0.80498791 -0.59147102 0.0030373868
0.0075325044 0.084991157 0.22352189 -0.088677138 -0.81263399 -0.57598811 0.0026980501
0.015569711 0.082827337 0.22456883 -0.14797163 -0.79674637 -0.58591777 0.0025473004
0.028925693 0.080906115 0.22274643 -0.28041214 -0.77431351 -0.56728083 0.0031474573
-0.0033522416 -0.080796234 0.23045549 0.018306728 0.78210026 -0.62288374 0.0035354733
0.0048337779 -0.080490977 0.23046669 -0.026391294 0.78575188 -0.61797857 0.0040430971
0.011494759 -0.080085635 0.23073292 -0.11504006 0.77336389 -0.62343735 0.0036661357
-0.034441508 -0.071615502 0.23213887 0.33202937 0.70661348 -0.62486321 0.0033545136
-0.023398884 -0.07344313 0.23491992 0.23892996 0.72324848 -0.64793837 0.0032125614
-0.015917268 -0.075044356 0.23503654 0.1612215 0.74293584 -0.64965683 0.0032957289
-0.0068194382 -0.075633459 0.23618829 0.097157493 0.75260544 -0.65126449 0.0033013655
0.0039643678 -0.078703053 0.23287639 -0.029139981 0.77683812 -0.6290257 0.0039685536
0.014840984 -0.076797009 0.23364918 -0.14752012 0.75805217 -0.63529104 0.0032932465
0.023534304 -0.074219339 0.23380399 -0.22645842 0.74039227 -0.63287896 0.0031350339
0.036932234 -0.072223321 0.23014615 -0.36403731 0.7077415 -0.60545754 0.0027680653
-0.051478442 -0.060460046 0.23239985 0.51144493 0.57556736 -0.63808024 0.0039990735
-0.044139959 -0.064860597 0.23353581 0.43291298 0.63650525 -0.63831604 0.0036692191
-0.034758773 -0.065505505 0.23752539 0.34123945 0.64931005 -0.67967063 0.0032928276
-0.021641007 -0.069982126 0.23859756 0.22291356 0.70749581 -0.67064089 0.0033718627
0.022580927 -0.069456041 0.23862018 -0.23163928 0.69179362 -0.68393338 0.0031893125
0.035708401 -0.066521458 0.23639098 -0.36850211 0.65712678 -0.6575641 0.0029408536
0.044343248 -0.06383802 0.23397136 -0.44935673 0.62480325 -0.63851339 0.0028157081
0.053014465 -0.061692394 0.23010783 -0.52335411 0.59986532 -0.60519588 0.0028736766
-0.054661151 -0.05491912 0.23425683 0.54722005 0.53923953 -0.64013368 0.0037229396
-0.047522038 -0.058224373 0.23670869 0.46955952 0.58079338 -0.66497588 0.0035641845
0.047678072 -0.056242246 0.23821324 -0.48675275 0.55462682 -0.67487842 0.0032907689
0.056704555 -0.053523034 0.23381665 -0.55881953 0.51709509 -0.64833111 0.0029812909
-0.062607937 -0.044176403 0.23522779 0.621171 0.43388849 -0.65260035 0.0031990674
-0.056125015 -0.047799535 0.23824216 0.57075739 0.4789744 -0.6669479 0.0032618095
0.056259058 -0.047551341 0.23808245 -0.56636447 0.47644809 -0.67247939 0.0028995597
0.064471662 -0.045086827 0.23335709 -0.63592106 0.43978485 -0.6341874 0.0028452552
-0.072501093 -0.033832058 0.2319331 0.70822734 0.32825655 -0.62502939 0.0029245764
-0.065657787 -0.036205236 0.23681673 0.64477104 0.36354584 -0.67238742 0.00320825
0.067130432 -0.033819009 0.23656143 -0.66743869 0.34214291 -0.66141057 0.0032288486
0.072220474 -0.031556539 0.23312238 -0.70598567 0.31333852 -0.63514036 0.0034417126
-0.071938567 -0.02463231 0.23565809 0.7092247 0.27369145 -0.64968705 0.0032211647
-0.068650186 -0.02633483 0.23829813 0.69351941 0.26505083 -0.6699096 0.002944652
0.06741678 -0.027027566 0.23939353 -0.68065989 0.28215075 -0.67608654 0.0029875289
0.075213127 -0.025298744 0.23247521 -0.73960382 0.26457661 -0.61885816 0.0032565787
-0.080409639 -0.012553155 0.23013914 0.77362055 0.12066072 -0.62205482 0.0037836686
-0.075771295 -0.015676158 0.23455863 0.75792205 0.14267346 -0.63655198 0.003404527
0.075654387 -0.014904023 0.23459394 -0.75472862 0.13290663 -0.6424334 0.0037311714
0.080288082 -0.011251157 0.23020712 -0.78505981 0.10537101 -0.61039168 0.00384606
-0.080529362 -0.0078046438 0.23022653 0.78145772 0.080128916 -0.61879164 0.0037377535
-0.076561399 -0.0065091797 0.23497008 0.75744724 0.057997722 -0.65031523 0.0032926369
0.076359443 -0.0061236368 0.23551458 -0.75116599 0.055157796 -0.65780491 0.0033795871
0.080737516 -0.0031963666 0.23054236 -0.78418946 0.022773001 -0.6201033 0.0034975067
-0.080268793 0.0038659887 0.23135009 0.780792 -0.046246521 -0.62307715 0.0034103009
-0.076505356 0.0052607213 0.23532182 0.75638878 -0.05705956 -0.65162885 0.0027077429
0.075624779 0.0060787844 0.2359383 -0.74741846 -0.076501884 -0.65993416 0.0028689441
-0.07561741 0.015808133 0.23436962 0.74565727 -0.15059909 -0.64908791 0.0031012963
0.069728501 0.017566271 0.23979425 -0.70577532 -0.16274457 -0.68948931 0.0036624824
0.075881943 0.015709242 0.23444703 -0.75783312 -0.13593787 -0.63812989 0.0030103293
-0.073498026 0.025120972 0.23435295 0.71396786 -0.2656036 -0.64784616 0.0032522955
-0.067473061 0.027823521 0.23896365 0.67691725 -0.27440023 -0.68299901 0.0029720024
0.068262883 0.026303239 0.23866543 -0.66633129 -0.28686458 -0.68826687 0.0031627382
0.072798163 0.024900949 0.23472546 -0.71476525 -0.26124054 -0.64874035 0.0040019262
-0.074113421 0.030633518 0.23174857 0.724608 -0.29977745 -0.62054557 0.0034613251
-0.065694258 0.034909435 0.23729575 0.64937049 -0.37572524 -0.66117215 0.0027678935
0.06607537 0.036998589 0.23606396 -0.65450191 -0.39317444 -0.64578718 0.002818461
0.071663998 0.032352038 0.23350914 -0.7022444 -0.32589331 -0.63296634 0.0031807467
-0.062547132 0.044660345 0.23517634 0.62607598 -0.44177371 -0.64254564 0.0025637546
-0.056724265 0.046732228 0.23829249 0.57797116 -0.46554241 -0.67023849 0.0031174107
0.055669956 0.047757484 0.23875874 -0.56647116 -0.47871158 -0.67077988 0.0035799977
0.064379878 0.045432981 0.23301612 -0.63604897 -0.44876704 -0.62773377 0.0035079641
-0.054476451 0.055273768 0.23411764 0.52898419 -0.55873859 -0.63873845 0.0032049236
-0.045629207 0.058272213 0.23805469 0.45154071 -0.59478021 -0.66509211 0.00275319
0.047498152 0.055940665 0.23834321 -0.47557506 -0.56501311 -0.67423177 0.0034186689
0.055116463 0.055473212 0.23355439 -0.5352487 -0.54835802 -0.64250475 0.0034636788
0.060036164 0.053990912 0.230784 -0.58195823 -0.52056772 -0.62476701 0.0038916266
-0.045037318 0.063477263 0.2340343 0.45480302 -0.62517357 -0.63428092 0.0028067681
-0.035418354 0.06700255 0.23612018 0.37410346 -0.65542454 -0.65609854 0.0034104728
-0.026517963 0.068239316 0.23862617 0.24638642 -0.68170154 -0.68889529 0.0030447179
0.029753946 0.069766611 0.23614858 -0.29721227 -0.70533067 -0.64356297 0.0038995445
0.03551301 0.065450244 0.23723093 -0.36826402 -0.65163428 -0.66313982 0.0034575225
0.04386336 0.064664789 0.2339139 -0.42602062 -0.64047301 -0.6389842 0.0035152438
0.05103308 0.062046308 0.2311614 -0.5043239 -0.59148729 -0.62912661 0.003821146
-0.033587262 0.072541386 0.23176391 0.34002328 -0.70884359 -0.61800075 0.0032648959
-0.024707178 0.073370069 0.234294 0.24069327 -0.71761632 -0.65352404 0.0036624486
-0.015330198 0.076894045 0.23354416 0.1434034 -0.75960475 -0.63437855 0.0034667852
-0.0064232177 0.076172739 0.23535813 0.061708126 -0.76091468 -0.64591092 0.0028759167
0.0060156258 0.075869903 0.23596066 -0.077185094 -0.75945288 -0.64596736 0.0030117109
0.016254231 0.075029366 0.23498049 -0.15714139 -0.73746574 -0.65684915 0.0030650792
0.024953835 0.074027076 0.23388904 -0.24990676 -0.7165063 -0.65127981 0.0040970151
0.03314371 0.072363392 0.23218615 -0.32587579 -0.71573186 -0.61768341 0.0036942533
-0.0065156836 0.080311328 0.23066056 0.052143175 -0.77991062 -0.6237151 0.0032781211
0.0045849858 0.08058098 0.23057869 -0.043875471 -0.78252804 -0.62106758 0.0036477714
-0.0061738165 -0.070215434 0.24160224 0.067475475 0.71265602 -0.69826108 0.0035926907
-0.03009188 -0.062381227 0.24231187 0.31238833 0.63441622 -0.707057 0.0028029648
-0.025903091 -0.063292548 0.24327207 0.28639033 0.645652 -0.70789415 0.002108742
-0.016398501 -0.065564975 0.24389841 0.18700191 0.68086523 -0.70813334 0.0028755451
-0.0067749657 -0.06435439 0.24698527 0.089715578 0.68935901 -0.71884304 0.0033841804
0.0048074191 -0.06476517 0.2464866 -0.051335845 0.69236815 -0.71971583 0.0030140735
0.014469719 -0.066399224 0.24369599 -0.15963623 0.68934166 -0.7066288 0.002199322
0.025057841 -0.063707784 0.24318671 -0.27090979 0.66427809 -0.69666529 0.0027821288
0.032788754 -0.061092939 0.24234347 -0.34567425 0.6127528 -0.71066397 0.0033674364
-0.043697476 -0.053997446 0.24222526 0.44032809 0.56100422 -0.70098889 0.0037606503
-0.035970356 -0.055019438 0.24582097 0.38321057 0.58525604 -0.71458024 0.0029426545
-0.027636562 -0.057029657 0.24800125 0.31461811 0.6201849 -0.71860015 0.0029851794
-0.01659007 -0.059151094 0.2499077 0.20934834 0.65183681 -0.72889096 0.0037086706
0.018056765 -0.059689119 0.24894242 -0.20268729 0.66163236 -0.72191453 0.0036889534
0.027590185 -0.057483744 0.24785316 -0.32445958 0.61802083 -0.71608394 0.003694325
0.036631741 -0.05604377 0.24450794 -0.40694928 0.58163875 -0.70433557 0.0028499332
0.042983416 -0.052839424 0.24372827 -0.43839189 0.55355442 -0.70808905 0.003180905
-0.052942071 -0.045217667 0.24222019 0.54238123 0.45880836 -0.70378798 0.0035651072
-0.045079768 -0.045831155 0.24708605 0.49279413 0.49378848 -0.71646839 0.0030971521
0.038648125 -0.048784252 0.24942404 -0.43986121 0.5349912 -0.72132272 0.0045514163
0.045667898 -0.046934441 0.24596953 -0.4978309 0.49095014 -0.71493524 0.0033697668
0.052357346 -0.042300414 0.24430847 -0.53889936 0.44678682 -0.7141211 0.0029407346
-0.061477777 -0.032242294 0.24230887 0.63288999 0.33249822 -0.69921035 0.0029550265
-0.054754592 -0.035273615 0.24626334 0.58812284 0.3775368 -0.7152465 0.0039136088
0.049910672 -0.03990325 0.24762252 -0.54048383 0.43687004 -0.71904218 0.0041849385
0.055549324 -0.034685325 0.24607372 -0.59526682 0.37999824 -0.70799631 0.0037421607
0.061978005 -0.032376386 0.24162167 -0.62814188 0.341508 -0.69914949 0.0033473768
-0.064245671 -0.024782099 0.24278519 0.66274869 0.26346141 -0.70096529 0.0031433275
-0.058757354 -0.025013616 0.2478044 0.64012486 0.27355579 -0.71791881 0.0035856625
0.058097217 -0.024112113 0.24859577 -0.65536594 0.24880156 -0.71315718 0.005620915
0.064161547 -0.025542641 0.2426732 -0.64573044 0.2794154 -0.71060491 0.0026658208
-0.065359242 -0.016046535 0.24426857 0.69271988 0.17522557 -0.69959646 0.0023517478
-0.059510976 -0.018339189 0.24902692 0.6645335 0.20925678 -0.71736097 0.0028390565
0.059184872 -0.018459881 0.24947143 -0.66841161 0.19240263 -0.71847558 0.0045783781
0.064837925 -0.014982045 0.24489065 -0.68039978 0.17587237 -0.71142465 0.0025470746
0.070649259 -0.011203203 0.24022564 -0.70920706 0.099889837 -0.69788778 0.0034964054
-0.071226276 -0.0087154843 0.24009961 0.71823192 0.10161822 -0.68834341 0.0031379489
-0.064927958 -0.0075510531 0.24623244 0.68720824 0.09472172 -0.72025871 0.0037078294
0.065888204 -0.0067149284 0.24543257 -0.69464362 0.090941921 -0.7135824 0.0031336744
0.070447937 -0.0042881542 0.24125548 -0.71709222 0.048327599 -0.69530082 0.0031434316
-0.06557551 0.005605435 0.2457903 0.69773197 -0.072461605 -0.71268469 0.0022656494
0.063749969 0.0046002888 0.24747583 -0.69412303 -0.043664154 -0.71853089 0.0031990663
-0.06536866 0.015466048 0.24428533 0.68885565 -0.14960644 -0.70929247 0.0028663971
-0.059903838 0.019605393 0.24854544 0.65117353 -0.22088918 -0.72607231 0.0041897628
0.063365646 0.016609741 0.24595271 -0.6700694 -0.18535274 -0.71878463 0.0041340333
0.070106953 0.015548028 0.24001808 -0.71187603 -0.13929318 -0.68835312 0.0025986216
-0.063302852 0.024174653 0.24407755 0.65913397 -0.28075635 -0.69765192 0.0027208927
-0.057797547 0.024798891 0.24858408 0.62765509 -0.28349257 -0.72503871 0.0039441758
0.057280492 0.025700819 0.2486058 -0.62995058 -0.2896629 -0.7205953 0.0029444399
0.065063275 0.024605021 0.24210842 -0.65743959 -0.26023197 -0.70714384 0.0029875643
-0.060945228 0.032601066 0.24240319 0.63324159 -0.34145141 -0.69456172 0.0033496486
-0.057001453 0.036752023 0.24385546 0.58866268 -0.39233449 -0.70678842 0.0027199665
0.049972862 0.038331237 0.24861231 -0.56936532 -0.41692907 -0.70851493 0.0039984086
0.054886658 0.035217099 0.2461841 -0.59565353 -0.38601133 -0.70440912 0.0025658109
0.063100651 0.032889273 0.24064547 -0.63903069 -0.33397686 -0.69289196 0.0035338071
-0.053747129 0.044442847 0.24191153 0.56179774 -0.45514497 -0.69081569 0.0027905947
-0.043362349 0.046634227 0.24782866 0.46258759 -0.51534915 -0.72140694 0.0042573968
0.046708547 0.044375218 0.24704227 -0.5061186 -0.4755919 -0.71948332 0.0035541577
0.052916743 0.043888617 0.2430419 -0.55525231 -0.45577851 -0.69567293 0.0035925123
-0.05077596 0.050506584 0.24002172 0.51676691 -0.51213789 -0.68605161 0.0037763009
-0.044379782 0.053044911 0.24262826 0.4660143 -0.55280375 -0.69082457 0.0028861067
-0.035516348 0.054528099 0.24632429 0.38386691 -0.57927227 -0.71908963 0.0030163366
-0.026802594 0.056685619 0.24893835 0.29518309 -0.62003708 -0.72692567 0.0033777463
0.022968333 0.058949411 0.2483618 -0.23966144 -0.66052616 -0.71152478 0.0047372691
0.03558201 0.054732945 0.24631415 -0.38773915 -0.58297408 -0.71400255 0.0024793602
0.043463904 0.052837759 0.24320124 -0.45116428 -0.54430044 -0.70723963 0.003018654
-0.024415882 0.064037986 0.24308896 0.2533834 -0.6606257 -0.70666158 0.0032018637
-0.016082997 0.064906038 0.24467745 0.15637778 -0.69110388 -0.70563549 0.0025622635
-0.0042701457 0.065536119 0.24575989 0.036523852 -0.6957407 -0.71736389 0.0034414469
0.0045241113 0.067131683 0.24447607 -0.058228474 -0.70312339 -0.70867974 0.0033077979
0.015054265 0.065451138 0.24429655 -0.15007733 -0.69554567 -0.70263284 0.0020898415
0.024788467 0.064725213 0.24250694 -0.23594746 -0.66722012 -0.7065028 0.0031190563
0.033481952 0.061506439 0.2415241 -0.35724941 -0.6194911 -0.69900191 0.0029935201
-0.0034038667 0.070719182 0.24077734 0.026107039 -0.72302473 -0.69032872 0.0037679644
0.0022322494 0.071388967 0.24032822 -0.012827694 -0.72552055 -0.68808085 0.0033571699
0.012737626 0.070138499 0.24037561 -0.11967248 -0.71580648 -0.68796772 0.0031637838
-0.0069702649 -0.060219418 0.25098041 0.091910332 0.69286197 -0.71518862 0.0077608353
0.0048446404 -0.060386911 0.25071999 -0.085643128 0.69325095 -0.71558946 0.0053901654
-0.031797532 -0.051997811 0.25041956 0.35745111 0.5853219 -0.72775477 0.004391396
-0.024397464 -0.053166363 0.25262037 0.30247271 0.65170735 -0.69554859 0.0086756377
-0.015455849 -0.053393871 0.25510529 0.24263436 0.69605052 -0.67575306 0.011432642
-0.0043602064 -0.055252559 0.25525668 0.058325119 0.72397709 -0.68735385 0.011835369
0.0047030742 -0.055382229 0.25510144 -0.049169 0.73810458 -0.67289227 0.013252379
0.015186815 -0.054345839 0.25434595 -0.23366612 0.69403231 -0.6809693 0.010636741
0.023475742 -0.051918726 0.25399169 -0.32087308 0.67256588 -0.66685504 0.011019597
0.032527629 -0.050598644 0.25108302 -0.38594785 0.59471875 -0.70523316 0.0079343962
-0.041217618 -0.043982647 0.25095844 0.46317232 0.51242894 -0.72310984 0.0060354415
-0.034347989 -0.045023505 0.25427276 0.46259043 0.58242238 -0.66842675 0.010198549
-0.025487959 -0.046284497 0.25738221 0.40828353 0.63062507 -0.66001254 0.01298416
-0.015382148 -0.047984965 0.25952628 0.28660449 0.77302665 -0.56593972 0.022725638
0.019339025 -0.049087018 0.25757608 -0.28370523 0.6845966 -0.67144543 0.012575816
0.027533531 -0.044610161 0.25772947 -0.4170925 0.64675772 -0.6385439 0.016246883
0.035318192 -0.045597088 0.25334391 -0.46247318 0.55434364 -0.69196945 0.0074028531
0.041484941 -0.042781077 0.25164452 -0.49105868 0.51842868 -0.70006639 0.0086116875
-0.050757051 -0.032262225 0.2510896 0.60736912 0.38876057 -0.69279724 0.0088130292
-0.044699166 -0.036497727 0.25342453 0.55112123 0.46136409 -0.69527596 0.0092583019
-0.036793742 -0.037731178 0.25750521 0.52512848 0.5260579 -0.66895676 0.012978472
0.037107557 -0.037234508 0.25763792 -0.54360521 0.52095753 -0.65810072 0.014258052
0.044198077 -0.036472175 0.25363731 -0.54232109 0.48218003 -0.6880337 0.0082260026
0.051844053 -0.031036302 0.25089595 -0.60249329 0.3787936 -0.70250785 0.0076872483
-0.052881368 -0.024816725 0.25271466 0.66217268 0.30736297 -0.68341452 0.0087903086
-0.045791607 -0.02545161 0.25778326 0.67328328 0.41874835 -0.60937625 0.017118013
0.044999178 -0.026150625 0.25808173 -0.6090613 0.40371352 -0.68268567 0.011471095
0.053222835 -0.023288267 0.25305972 -0.66633457 0.30052245 -0.6824109 0.010430955
-0.060111742 -0.012622237 0.25009698 0.66810751 0.13792923 -0.73116887 0.003818454
-0.051873159 -0.015304229 0.25632414 0.74958009 0.21626869 -0.62558573 0.018967457
-0.047803767 -0.016884714 0.25922644 0.75013065 0.29222134 -0.59322059 0.01996059
0.048416182 -0.014809455 0.25935662 -0.76465493 0.23174749 -0.60132843 0.02439582
0.054267239 -0.014925286 0.25450239 -0.69319808 0.19450013 -0.69400722 0.010360195
-0.060496729 -0.0068483618 0.25054315 0.68434358 0.088982433 -0.72370982 0.0062848907
-0.055157367 -0.0037788374 0.25532582 0.74193686 0.039027568 -0.66933292 0.012260512
0.04964596 -0.0069842841 0.25982255 -0.79935002 0.10038769 -0.59242034 0.023673246
0.053724434 -0.0054766331 0.25638592 -0.7348429 0.073890932 -0.67420036 0.0091541773
-0.061119154 0.0037014806 0.25031307 0.67778283 -0.03906684 -0.73422348 0.0046174447
-0.056038771 0.0053082015 0.25452909 0.7281608 -0.067653149 -0.68205935 0.0098251747
0.049636889 0.0071683521 0.25989559 -0.79666471 -0.12128434 -0.59212786 0.02616862
0.056504589 0.0051077208 0.25412613 -0.71541119 -0.035827879 -0.69778448 0.0086556133
0.060638458 0.0053665526 0.2504583 -0.70721483 -0.052230448 -0.70506686 0.0073303552
-0.055992465 0.014175756 0.25317615 0.70860308 -0.14294295 -0.69097686 0.0089856572
-0.048268687 0.017005898 0.2590133 0.73926347 -0.26927677 -0.61723536 0.01959902
0.048086215 0.017529605 0.2588371 -0.70434612 -0.27838692 -0.65299106 0.018521532
0.056076102 0.014090979 0.2531963 -0.70730001 -0.17721967 -0.68433911 0.010359669
-0.054328356 0.022933494 0.25232127 0.64357513 -0.30291492 -0.7028895 0.0088468473
-0.046695512 0.025194716 0.25719076 0.65166944 -0.40144694 -0.64355832 0.012936596
0.043697417 0.027914662 0.2582131 -0.64180404 -0.41329759 -0.64596647 0.017830575
0.053165682 0.024989745 0.25257966 -0.64426482 -0.31114894 -0.69864815 0.0067424672
-0.050724156 0.031250563 0.2517525 0.60390955 -0.36955148 -0.70620453 0.0080721481
-0.045269642 0.035385326 0.25357568 0.56906092 -0.44623655 -0.69068265 0.0079993196
-0.035310768 0.03759212 0.25852698 0.52719676 -0.5807144 -0.62035006 0.020876363
0.035923097 0.036195662 0.2589604 -0.54174429 -0.58274102 -0.605744 0.020189198
0.045261338 0.033233568 0.25468063 -0.59455931 -0.42739972 -0.68104964 0.010710889
-0.042351674 0.043156356 0.25083697 0.5065254 -0.49974197 -0.7026307 0.0085065411
-0.03436118 0.045073345 0.25425896 0.4383263 -0.58542293 -0.68201905 0.01053514
-0.024692573 0.046535991 0.25761753 0.39524114 -0.66165304 -0.63718116 0.015992995
-0.015950693 0.048303425 0.25905427 0.26005143 -0.74625111 -0.61276627 0.016905412
-0.0096442308 0.049399324 0.25973684 0.18490271 -0.77661753 -0.60222596 0.024715981
0.0075146873 0.04967906 0.25969481 -0.10645081 -0.78727919 -0.60733819 0.025955971
0.017950265 0.047295809 0.25955418 -0.28156298 -0.7678721 -0.57540828 0.029989388
0.023544651 0.044805601 0.2592603 -0.39929518 -0.68095839 -0.61388844 0.024545444
0.03489662 0.043579385 0.25491837 -0.47155294 -0.55482125 -0.68542773 0.011516442
0.046470053 0.040371276 0.25005707 -0.53723651 -0.44029686 -0.71938562 0.005087873
-0.033884265 0.050135031 0.25076568 0.39760113 -0.58880585 -0.70371932 0.0068278024
-0.026253853 0.053843614 0.2515333 0.32718885 -0.64687228 -0.6888423 0.0083277524
-0.01545541 0.054954771 0.25376621 0.22706158 -0.6958397 -0.68135893 0.0096116718
-0.0075277314 0.055680752 0.25475672 0.12666219 -0.72290105 -0.67924273 0.011703224
0.0047145886 0.055849951 0.25474638 -0.060573742 -0.72215736 -0.68907154 0.0094832042
0.015698632 0.05480919 0.25387752 -0.19660158 -0.68590522 -0.70062959 0.0084952842
0.022985633 0.053391472 0.25305349 -0.30204117 -0.65408826 -0.69349808 0.0069948314
-0.0042150938 0.060333107 0.25079426 0.036841411 -0.68199056 -0.73043251 0.0036357054
0.0046653626 0.060930874 0.25030074 -0.058713008 -0.69009197 -0.72133607 0.0052696788
-0.021508835 -0.043183804 0.26148751 0.38113743 0.72159576 -0.57795656 0.027097564
-0.015761679 -0.043457523 0.26596385 0.32550758 0.81069499 -0.48663995 0.034038786
-0.0059201554 -0.046044338 0.26557049 0.070466287 0.85514665 -0.51357442 0.027102916
0.0039902232 -0.046768729 0.26403633 -0.084875077 0.84676462 -0.52515328 0.027343707
0.014137976 -0.044071231 0.26573396 -0.24963334 0.80927157 -0.53175426 0.027183311
0.020889902 -0.042383064 0.26387471 -0.38637826 0.74526536 -0.5434072 0.030034076
-0.034190774 -0.03232196 0.26417232 0.60136724 0.58538163 -0.54377002 0.024224484
-0.026350075 -0.038436864 0.26486036 0.49885458 0.71382618 -0.49152461 0.026458656
0.026469506 -0.037851457 0.2658661 -0.50882339 0.67558146 -0.533562 0.032050598
0.033495676 -0.033132121 0.263751 -0.58495027 0.58295798 -0.56390882 0.023246245
-0.041341871 -0.023023475 0.26300925 0.7326979 0.43186945 -0.52596819 0.027372848
-0.037747424 -0.025563123 0.26747388 0.68158293 0.55075037 -0.48178694 0.032123938
0.036072262 -0.027999353 0.26769137 -0.68031442 0.56797212 -0.46322784 0.033969004
0.041409921 -0.022103844 0.26393074 -0.73172283 0.44453418 -0.5166924 0.02858205
-0.044413183 -0.014147877 0.26513723 0.79862779 0.25097379 -0.54699707 0.024430811
0.043550123 -0.014612767 0.2663258 -0.86259156 0.26392892 -0.4315986 0.040337086
-0.046702839 -0.0045391689 0.26441061 0.81608665 0.060280357 -0.57477725 0.024068691
0.046681579 -0.0046401257 0.26464072 -0.86146426 0.051651549 -0.50518453 0.033654265
-0.046735063 0.0060502244 0.26363865 0.83348328 -0.097908325 -0.54380107 0.032156963
0.046013568 0.0077541778 0.26571649 -0.85349435 -0.12528691 -0.50581676 0.031877156
-0.045092132 0.014461526 0.2635155 0.78183711 -0.23655412 -0.57686472 0.02491519
0.044736337 0.014288458 0.26457942 -0.78177983 -0.25147957 -0.57059479 0.028999994
-0.041197836 0.023397001 0.26358065 0.70270497 -0.43933511 -0.55963421 0.024637274
-0.036533777 0.026616599 0.26822791 0.67037588 -0.56107312 -0.48558527 0.027751556
0.037643764 0.026054971 0.26698512 -0.65454841 -0.56542093 -0.50186205 0.036970325
0.042878464 0.022331784 0.26200414 -0.69032997 -0.40837902 -0.59721947 0.026927734
-0.03411537 0.033169828 0.2628617 0.58961254 -0.57911491 -0.56301242 0.023679098
-0.026524311 0.038311619 0.26515189 0.46064782 -0.68389398 -0.56576735 0.02267978
0.026893485 0.038011596 0.26536214 -0.53845745 -0.68570173 -0.48977205 0.034215115
0.034582306 0.031955212 0.26439777 -0.65108359 -0.56426495 -0.50763696 0.035584401
-0.029001813 0.040322617 0.26014647 0.4592199 -0.67447501 -0.57810092 0.024076365
-0.014507894 0.044394039 0.26479077 0.24106494 -0.785272 -0.57029432 0.026223015
-0.0059324284 0.046562456 0.26453373 0.04394028 -0.836043 -0.54690158 0.030058233
0.0055619818 0.046274945 0.26588288 -0.11736174 -0.83032972 -0.54477394 0.027620016
0.014310694 0.044298232 0.26511264 -0.27873307 -0.79909283 -0.53268999 0.034521908
0.022074584 0.041896813 0.26241386 -0.42042813 -0.7446388 -0.5184142 0.02681472
-0.012295505 -0.041075632 0.27529603 0.24118721 0.90722132 -0.34464201 0.039495077
-0.0055182092 -0.042797826 0.27460217 0.11927921 0.93239474 -0.34119269 0.035530839
0.004803319 -0.043271072 0.27351296 -0.060898919 0.93332571 -0.35382837 0.02970507
0.01382194 -0.041152999 0.27356827 -0.32823661 0.86531848 -0.37879375 0.027985783
-0.031243922 -0.030849531 0.27224472 0.64524406 0.66407967 -0.37770131 0.033182092
-0.023684392 -0.035246052 0.27684268 0.56427443 0.78660148 -0.25070405 0.037988104
-0.017406564 -0.038607683 0.27702507 0.39546156 0.87483972 -0.27976003 0.034460068
0.015769234 -0.039313044 0.2773222 -0.33507505 0.89954734 -0.28024852 0.034753468
0.026019808 -0.034251515 0.27469006 -0.59049726 0.71345788 -0.37721449 0.035927963
-0.035521872 -0.024944196 0.27372056 0.71818876 0.59223896 -0.36531883 0.033255968
0.036119372 -0.024012117 0.27363348 -0.73122483 0.55549312 -0.39590093 0.029006526
-0.040935855 -0.012440103 0.27550098 0.91482657 0.23302208 -0.32983795 0.038788348
-0.038918346 -0.019050032 0.27442771 0.84170038 0.4131445 -0.34763789 0.034655586
0.038322378 -0.019267891 0.27532801 -0.87037504 0.37567216 -0.31830454 0.029094284
0.041132864 -0.017002711 0.27083239 -0.84254879 0.34300882 -0.41527882 0.03619495
-0.042789292 -0.0063674161 0.27416834 0.90668982 0.18055011 -0.38120234 0.031672806
0.043646138 -0.0046184002 0.27266946 -0.92481399 0.088935368 -0.3698779 0.028241154
-0.042363096 0.0041977987 0.27595636 0.92567009 -0.1335952 -0.35395917 0.027251765
0.043008078 0.0055833245 0.27397329 -0.92495471 -0.10766257 -0.36451 0.033332516
-0.040613454 0.013929416 0.27556297 0.86072773 -0.3249048 -0.39189863 0.032880753
-0.038936913 0.01616786 0.27778643 0.91957086 -0.32935974 -0.21426982 0.028972328
0.039252304 0.015254547 0.27760911 -0.8876617 -0.3519356 -0.29698151 0.02754602
0.040969219 0.014312482 0.27354056 -0.87485659 -0.31131035 -0.37109557 0.028664159
-0.035256576 0.02478699 0.27425623 0.73470831 -0.57110554 -0.36611781 0.030756332
0.034471717 0.025522891 0.27504703 -0.73640758 -0.6090402 -0.29457408 0.03003406
-0.030527515 0.031073613 0.2732361 0.6663205 -0.6141783 -0.42284983 0.031547461
-0.025447471 0.035199918 0.27351558 0.55343521 -0.70945358 -0.43633148 0.031309776
-0.017497653 0.039046708 0.27611461 0.39380261 -0.85494113 -0.33763155 0.033180516
0.019594222 0.039911456 0.27062902 -0.42987418 -0.82288849 -0.3715679 0.031587608
0.026111001 0.033690508 0.2755456 -0.56891406 -0.77532136 -0.27425101 0.03119684
0.030078735 0.03287654 0.27029699 -0.58610493 -0.70815253 -0.3937017 0.033196475
-0.013263441 0.041331351 0.27355027 0.29406497 -0.88209867 -0.36800528 0.03423132
-0.0019437922 0.042626292 0.27571768 0.0037079703 -0.95522475 -0.29585773 0.033223867
0.0050080759 0.043186549 0.27381542 -0.12899263 -0.91910261 -0.37230536 0.031945191
0.013149691 0.041250434 0.27415878 -0.30969656 -0.89248377 -0.32796454 0.034864299
-0.010451119 -0.040166214 0.28784376 0.23666537 0.96151704 -0.1395513 0.027043935
-0.0054735425 -0.041206997 0.28574455 0.14871769 0.97938073 -0.13673474 0.019671274
0.003308024 -0.041399579 0.28589895 -0.064855762 0.99123126 -0.11512751 0.025865054
0.010437481 -0.040273167 0.28506953 -0.19895615 0.9674086 -0.15664317 0.022592086
-0.025324341 -0.032848496 0.28594199 0.59972638 0.79297143 -0.10735195 0.023453297
-0.014830516 -0.038860325 0.28639123 0.33801243 0.92752743 -0.15950075 0.025259288
0.014747627 -0.038826443 0.28547499 -0.31597018 0.93744755 -0.14613307 0.021830885
0.024166033 -0.033881851 0.28429478 -0.63074028 0.74757701 -0.20807526 0.025378523
-0.033207208 -0.02498877 0.28535503 0.74997294 0.64340729 -0.15351734 0.021545969
-0.029905247 -0.028880341 0.28683361 0.70978695 0.69915575 -0.085928246 0.02433968
0.028809622 -0.029996375 0.28646088 -0.69229925 0.7046929 -0.15533733 0.022814183
0.033467136 -0.024444919 0.28597251 -0.76358485 0.63099456 -0.13705508 0.020410035
-0.040099952 -0.01115071 0.28346956 0.94363385 0.25333795 -0.21301407 0.032046925
-0.038251303 -0.016743282 0.28295928 0.90185893 0.37180841 -0.22002026 0.025844814
0.038815297 -0.014904853 0.28549388 -0.89903182 0.41195264 -0.14844775 0.017131632
0.040333226 -0.010200155 0.28396258 -0.95402604 0.25830853 -0.15202291 0.033072937
-0.041248951 -0.0053284806 0.28445446 0.98151362 0.13776103 -0.13286413 0.017348494
0.041327607 -0.0043189828 0.28625831 -0.97968841 0.14277498 -0.1408049 0.019755675
-0.041337848 0.0044119577 0.28579059 0.98959816 -0.1140492 -0.087682389 0.015548
0.041256014 0.0056794109 0.28561085 -0.97743416 -0.13978764 -0.15837221 0.019630233
-0.040037904 0.011826482 0.28121722 0.95042056 -0.26581407 -0.16138037 0.031555641
-0.038498856 0.015742069 0.28568268 0.92220783 -0.36378074 -0.13113496 0.022065956
0.03854838 0.015553989 0.28559002 -0.9130432 -0.36145619 -0.18894863 0.022522965
-0.031826705 0.026757944 0.28402808 0.78135097 -0.59673309 -0.18275726 0.021335496
0.032751236 0.025878202 0.28372392 -0.75287879 -0.63154513 -0.18526819 0.021958569
-0.024204077 0.033763088 0.28481796 0.62806374 -0.75740445 -0.17853455 0.027678449
-0.016570028 0.038219105 0.28464553 0.38471186 -0.90386349 -0.18715656 0.022226963
0.015651589 0.038537297 0.28608659 -0.40426236 -0.89790004 -0.17420503 0.016318643
0.023267468 0.034558013 0.28608528 -0.54720259 -0.82234007 -0.15596852 0.028059527
-0.0041762656 0.041405983 0.28621855 0.027590081 -0.99084491 -0.13215579 0.021672895
0.0051678843 0.041473232 0.28328606 -0.15782951 -0.97069842 -0.18120268 0.018973598
0.010708798 0.040121462 0.28733546 -0.26341921 -0.95405036 -0.14282203 0.023464391
-0.010132425 -0.040019024 0.29565042 0.27934283 0.95977426 -0.028300483 0.020160947
-0.0057068043 -0.040939901 0.29591212 0.17994978 0.98319274 -0.03082275 0.015540515
0.0044767009 -0.041002315 0.29467586 -0.1486131 0.98773313 -0.047931615 0.014980303
-0.024717091 -0.033076942 0.29420769 0.6056875 0.79361284 -0.057631321 0.016649304
-0.015122741 -0.03844681 0.29536188 0.37391537 0.92608738 -0.050491612 0.013223439
0.016410824 -0.038004365 0.29520971 -0.34520492 0.93676841 -0.057433076 0.017202426
0.024790389 -0.032990959 0.293872 -0.64302945 0.76279813 -0.068205565 0.018422477
-0.032132383 -0.026081271 0.29480118 0.758901 0.64650297 -0.078123197 0.017753204
-0.028823841 -0.029478196 0.29768607 0.6918931 0.72130466 -0.031677525 0.021548176
0.0335874 -0.023884499 0.29700658 -0.80412614 0.59063661 -0.067302339 0.013398072
-0.038115732 -0.015884835 0.29556495 0.92439276 0.3733328 -0.078234792 0.012567606
0.038141817 -0.01586193 0.29490742 -0.91053224 0.40623495 -0.076838844 0.013603416
0.04017045 -0.010099118 0.29055297 -0.97032934 0.2268091 -0.083776645 0.024376558
-0.041073754 -0.0041607749 0.29525816 0.98412132 0.17378089 -0.036130305 0.016884748
0.040725961 -0.0072432458 0.2937876 -0.98324764 0.16385429 -0.079849012 0.017579593
-0.041009329 0.0048178625 0.29278326 0.98614752 -0.15316038 -0.063678473 0.016270047
0.040882431 0.0061877179 0.29444617 -0.97865999 -0.18436918 -0.090734087 0.015565388
-0.038563456 0.014956878 0.2949121 0.93965411 -0.33871871 -0.048164967 0.015750606
0.038143873 0.015720632 0.29552838 -0.93173254 -0.36204687 -0.028223477 0.017472176
-0.03312365 0.024829531 0.29420811 0.8099879 -0.58416682 -0.051659923 0.013426212
0.028646376 0.029793959 0.29367054 -0.68203485 -0.72614068 -0.086879067 0.022733482
0.033293165 0.024493132 0.29323682 -0.78089303 -0.6180563 -0.090622284 0.018076124
-0.024080491 0.033594709 0.29518715 0.56507093 -0.82396907 -0.042068265 0.017869886
-0.01442595 0.038523454 0.29751748 0.29800293 -0.95414752 -0.02822699 0.016721893
0.014561523 0.03860807 0.29464266 -0.34368792 -0.93619353 -0.073623091 0.015885234
0.023483729 0.03403084 0.29424319 -0.53847384 -0.84040272 -0.061393078 0.022638531
-0.005677266 0.040873986 0.29583934 0.10396586 -0.99293303 -0.057228569 0.017616052
0.0045564603 0.040946506 0.29652655 -0.12376371 -0.98980254 -0.070522323 0.019235428
-0.0046831919 -0.040776893 0.30496749 0.18041205 0.98332167 -0.023021104 0.01484148
0.0056151063 -0.040766064 0.30494872 -0.15750778 0.98712486 -0.027855294 0.0125575
-0.024460191 -0.033039823 0.30320981 0.61793172 0.78536409 -0.036928724 0.014074923
-0.017180555 -0.037281364 0.30515543 0.38692763 0.92121178 -0.040692605 0.010702414
0.013882733 -0.038573142 0.30601287 -0.31692153 0.94759774 -0.040239815 0.016353352
0.025079736 -0.032575335 0.30455136 -0.64633167 0.7621485 -0.037215509 0.015468753
-0.032705512 -0.024813598 0.30461726 0.79674298 0.6042878 -0.0060744961 0.017828407
-0.028210841 -0.029832546 0.30342624 0.69864339 0.71492374 -0.027955147 0.019162821
0.028634401 -0.02938785 0.30619407 -0.70759493 0.70655453 -0.0094960909 0.019517781
0.032855421 -0.024561491 0.30411658 -0.82009768 0.5708726 -0.039298784 0.015388184
-0.03823116 -0.014838591 0.30382591 0.92723787 0.37134942 -0.048265047 0.01265764
0.038342159 -0.014815111 0.30701178 -0.93463981 0.35469714 -0.025264688 0.016742986
-0.040768374 -0.0049733645 0.30461323 0.98166436 0.18965457 -0.019137213 0.015062341
0.039961394 -0.0091620898 0.30557674 -0.97291911 0.22829196 -0.036210474 0.019395305
0.040806126 -0.0039878371 0.30420288 -0.99075592 0.13459632 -0.016928323 0.015473525
-0.040735926 0.0046735853 0.30657661 0.98991209 -0.14004971 -0.021448737 0.011712276
-0.039754175 0.0096701737 0.30879474 0.96603775 -0.25698715 -0.026993359 0.019992715
0.040795073 0.0042280173 0.30606928 -0.99366522 -0.10875639 -0.028312691 0.020797791
-0.037982959 0.015432728 0.30562082 0.92409647 -0.37812936 -0.055353008 0.014048593
0.038435008 0.014306009 0.30481169 -0.94363135 -0.32978743 -0.028285539 0.01752896
-0.032615282 0.025076853 0.30322507 0.78109574 -0.62309682 -0.04049471 0.014385561
-0.02965685 0.028281724 0.30635113 0.7260136 -0.68765569 -0.005827555 0.019374702
0.029478705 0.02852363 0.30689475 -0.70155829 -0.71259892 0.0043310239 0.02131048
0.032639239 0.024986636 0.30426899 -0.77665526 -0.62884969 -0.036804371 0.015549682
-0.022698931 0.034061566 0.30856073 0.56549811 -0.82456338 -0.017526101 0.018846607
-0.014374218 0.038467083 0.30415633 0.34271276 -0.93927228 -0.017761232 0.01727532
0.014874046 0.038177244 0.3044003 -0.34746745 -0.93743455 -0.021972088 0.015288092
0.024333287 0.033076692 0.30392116 -0.54829276 -0.83542341 -0.037984192 0.018159317
-0.0043085176 0.040786333 0.30755898 0.078975827 -0.99687654 -0.00017977676 0.018090704
0.0041408883 0.040950377 0.30422503 -0.15537955 -0.98743641 -0.028747246 0.017441619
-0.0053440523 -0.040527802 0.31533745 0.14714769 0.9883945 -0.037733935 0.018018857
0.003985039 -0.040586982 0.31476238 -0.1188648 0.9926154 -0.024204155 0.020184349
-0.02453769 -0.032470908 0.3158524 0.57002044 0.82095659 -0.033271592 0.017552774
-0.01382778 -0.038414244 0.31439167 0.31641778 0.9480803 -0.031993005 0.015257693
-0.0086669624 -0.039694577 0.31905812 0.25114194 0.96725732 -0.036621168 0.019128954
0.0090275221 -0.039833762 0.31540745 -0.20266843 0.97916722 -0.012527999 0.014507806
0.014516803 -0.037938893 0.31669384 -0.33883849 0.9404552 -0.027064763 0.01682891
0.022878589 -0.03370348 0.3161214 -0.54506308 0.83816558 -0.019612813 0.018290391
-0.031656135 -0.025829781 0.31612986 0.76209539 0.64640784 -0.036980364 0.015286297
-0.028284717 -0.029311847 0.31546468 0.69857907 0.71521294 -0.021395398 0.018199069
0.029054116 -0.028492387 0.31718689 -0.71846968 0.69548625 0.010007842 0.019240458
0.033875078 -0.02267096 0.31656849 -0.84577006 0.53328329 -0.016787339 0.017151518
-0.037606336 -0.015569444 0.31621996 0.93552333 0.3532286 -0.0050601917 0.013483925
0.03824513 -0.014138628 0.3152307 -0.94087309 0.33703414 -0.034143992 0.016818156
-0.040464498 -0.0068943612 0.31491417 0.9780364 0.20806898 0.012330801 0.013911862
-0.039875239 -0.0092699099 0.31137586 0.96608359 0.25717634 -0.023299001 0.016494341
0.039816417 -0.0088093672 0.31358135 -0.97158176 0.23328608 -0.040081579 0.015455549
0.040697318 -0.0041217008 0.31464025 -0.99570227 0.091399401 -0.014939508 0.021893542
-0.040876269 0.0029603424 0.31211352 0.9949522 -0.10034242 0.0012275181 0.015964102
-0.039667204 0.0092770103 0.315072 0.97335613 -0.22877714 -0.015454 0.015826132
0.039590381 0.0097476617 0.31617215 -0.96135181 -0.2753028 -0.0033216963 0.017123662
0.040566366 0.0039157229 0.31481731 -0.98755175 -0.15611383 -0.019239459 0.015942331
-0.037954152 0.014931609 0.31487292 0.93383467 -0.3562901 -0.03178506 0.013718635
