# .PCD v0.7 - Point Cloud Data file format
VERSION 0.7
FIELDS x y z normal_x normal_y normal_z curvature
SIZE 4 4 4 4 4 4 4
TYPE F F F F F F F
COUNT 1 1 1 1 1 1 1
WIDTH 558
HEIGHT 1
VIEWPOINT 0 0 0 1 0 0 0
POINTS 558
DATA ascii
0.11653443 -0.056587525 0.01650897 -0.89520133 0.44563827 0.004593987 0.0015435421
-0.12121514 -0.045287304 0.010922685 0.92922574 0.36951005 -0.0013575003 0.0012627168
-0.11973146 -0.048869219 0.013706669 0.9206745 0.39032871 -0.0013992582 0.001718719
0.11962675 -0.048917189 0.012548046 -0.91894197 0.39433366 0.0068365373 0.0014682831
0.12161373 -0.044184167 0.01379902 -0.94260347 0.33391115 -0.0014817782 0.0017611849
-0.12521587 -0.03523396 0.01333501 0.96728522 0.2535964 -0.0069463118 0.0020787816
0.12529542 -0.035153646 0.013877973 -0.96551669 0.26033822 -0.0012211178 0.0021295391
-0.12701756 -0.02595661 0.012411411 0.98181516 0.1897157 -0.006847769 0.0015520968
0.12687409 -0.027046299 0.015868437 -0.97867775 0.20538767 0.0023962802 0.0018683836
-0.12870723 -0.013122112 0.011535137 0.99555236 0.09411002 0.0043441034 0.0015720943
0.1284546 -0.015041118 0.0130189 -0.99143636 0.13057227 0.0021923317 0.0012502896
-0.13021186 -0.0016932247 0.014698066 0.99997991 0.0055194348 0.00311678 0.0028184655
-0.12940653 -0.0078104404 0.015109349 0.99676526 0.080366351 -0.00046008229 0.0018763704
0.12934962 -0.0082427487 0.016926738 -0.9971239 0.075788081 -0.0002416973 0.0021395287
0.13022365 -0.0016037433 0.012967704 -0.99997115 0.0065247319 0.0039004262 0.0031674881
-0.13021009 0.0017066862 0.016838495 0.9999603 -0.0084222648 -0.0029240728 0.0029244421
-0.12964259 0.0060172202 0.014846344 0.998752 -0.04978944 -0.003930043 0.0019432183
0.12954283 0.0067750863 0.015642816 -0.99797523 -0.063519701 0.0032572483 0.0023020224
0.13012144 0.0023800891 0.010830742 -0.99965215 -0.026224758 0.0027999806 0.0024165709
-0.12855017 0.014315004 0.011057328 0.9944585 -0.10511672 0.0016950113 0.001353326
0.12845142 0.015065155 0.01740602 -0.99163908 -0.12903239 0.0016292717 0.0010653744
-0.12721412 0.024463527 0.016697144 0.98172474 -0.19030067 0.0015041062 0.0015115694
0.12685417 0.027197709 0.016762305 -0.97966576 -0.20063016 0.0015786975 0.0017658168
-0.12432282 0.037551403 0.015993252 0.95746231 -0.2885583 4.049463e-05 0.0021055629
0.12512998 0.035394836 0.015350861 -0.96282202 -0.27009279 -0.0048670969 0.0021756126
-0.12112914 0.045494989 0.015471513 0.93817866 -0.34615096 -0.00052716193 0.00095083489
0.11990738 0.048444562 0.012425348 -0.92197531 -0.38724792 -0.00071431091 0.0018707064
0.12184665 0.043762732 0.015696794 -0.93886137 -0.34428129 0.003112331 0.0022370561
-0.1169658 0.055546135 0.016362688 0.8946147 -0.44683221 -0.0023461534 0.0018437781
0.11603115 0.057802573 0.014373166 -0.8914662 -0.45304862 0.0059149787 0.0019640899
-0.11354261 0.063441776 0.015320825 0.87031591 -0.49248442 0.0030285143 0.0022032657
0.10948205 0.069749698 0.016981974 -0.85047925 -0.52599239 0.004138269 0.0023123333
0.11295338 0.064775072 0.018126298 -0.86792904 -0.49666917 0.0043498883 0.0023766411
-0.1066418 0.073451214 0.015750179 0.82883155 -0.55949575 0.0016776468 0.0014807103
0.10652839 0.073598981 0.014073421 -0.82562792 -0.56421465 -0.00053716701 0.001896527
-0.10108905 0.080687672 0.013188733 0.78046089 -0.62520456 0.00011043989 0.0018155201
-0.097609684 0.085222051 0.016515899 0.76148182 -0.64818621 -0.00030594631 0.0014614735
0.095838234 0.087530665 0.013347399 -0.73885554 -0.67385828 -0.0027327398 0.0023410027
0.10087149 0.080971181 0.01707045 -0.77907109 -0.62692291 -0.0039898753 0.0018017543
-0.092315845 0.092052221 0.016065108 0.7086581 -0.70554703 0.0026601742 0.002193809
-0.086228125 0.096837699 0.014816537 0.66740698 -0.74464267 -0.0086721471 0.0023273558
0.086102389 0.096934177 0.015719986 -0.65308172 -0.75725228 -0.0073015979 0.00155635
0.091970086 0.092350014 0.014193609 -0.70793396 -0.70627499 -0.0022851739 0.0025890807
-0.072196394 0.10760463 0.013752113 0.56759846 -0.82330304 -0.0020021908 0.00097833818
0.069444858 0.10971598 0.013390702 -0.52350968 -0.85199976 -0.0058268108 0.0024692686
0.075293303 0.10522829 0.01351309 -0.58940423 -0.80782646 0.0043641282 0.0013599989
0.08047691 0.10125076 0.013379671 -0.62401879 -0.78140694 0.0019326744 0.0022930957
-0.063724935 0.1134261 0.013363279 0.50809002 -0.86130393 -0.00023030184 0.002187246
-0.056217439 0.11668774 0.015702836 0.42397788 -0.90567249 -0.0003432004 0.0010951984
0.055083595 0.11715739 0.013426068 -0.43841076 -0.89876831 -0.0033873089 0.0014410422
0.064992987 0.11267053 0.015220508 -0.50753719 -0.86160362 -0.0067220558 0.0022869478
-0.044236969 0.12165023 0.015032727 0.32798505 -0.94466937 0.0050681964 0.001468235
-0.033871185 0.12571874 0.016851909 0.25086224 -0.96802282 -8.5935782e-05 0.0022100618
-0.023093544 0.12739448 0.014134482 0.1705333 -0.98534876 -0.00251432 0.001343484
-0.015654329 0.12837386 0.015744461 0.12729536 -0.99185252 0.0049381242 0.0017049351
-0.0050971364 0.12976375 0.015663471 0.06006328 -0.9981944 -0.00061796169 0.0019803143
0.0061506452 0.12962505 0.014526744 -0.043180678 -0.99905109 0.0056945072 0.0022613045
0.012413534 0.12880051 0.011366136 -0.083747685 -0.99647611 -0.0046689063 0.0018915782
0.026469937 0.12694997 0.010850696 -0.19019178 -0.98174602 -0.0013940269 0.0013123575
0.035839476 0.12496994 0.015605302 -0.27876854 -0.96035808 0.0006425014 0.0019710995
0.043773025 0.1218424 0.014777796 -0.3653245 -0.93087816 -0.0019525203 0.0011514416
-0.0019201129 0.130182 0.011471974 0.024637576 -0.99969375 0.0023502687 0.0022391356
0.0017334984 0.13020657 0.010692626 -0.0075098914 -0.99996847 -0.0025714107 0.0024909705
-0.0018910354 -0.13018583 0.021374926 0.011965447 0.99992543 -0.0024593258 0.002460941
0.00091167982 -0.13031535 0.024838209 -0.00390307 0.9999823 -0.0044885548 0.0027070902
-0.04360465 -0.12191217 0.023637146 0.35294345 0.93564355 -0.0013954133 0.0011720742
-0.034677938 -0.12546611 0.024918003 0.25696456 0.96641731 0.0026098287 0.0022362862
-0.024953844 -0.12716235 0.025943916 0.19077204 0.9816047 0.0076349271 0.0015641481
-0.014461922 -0.12853694 0.026589513 0.11551293 0.99330497 -0.0014529291 0.00062391208
-0.0059413314 -0.12965336 0.025039328 0.055244524 0.99847114 -0.0018484894 0.0020993901
0.005982019 -0.12965108 0.027028205 -0.063028716 0.99800181 -0.0044425274 0.0020673184
0.01558515 -0.12839299 0.025350621 -0.11043586 0.99387878 0.0029634084 0.000817522
0.025770681 -0.12705855 0.02577045 -0.18891269 0.98199254 0.0016582591 0.0017349781
0.033727333 -0.12570189 0.025231186 -0.24707825 0.9689936 -0.0019411828 0.0022774043
0.044824082 -0.12140705 0.024868665 -0.36809871 0.92977357 0.0049565448 0.0010693508
-0.065478981 -0.11241514 0.024825608 0.50469482 0.86328763 -0.0041942345 0.0022127908
-0.05623544 -0.1166803 0.024081739 0.44285169 0.89658767 -0.003593554 0.0015280588
-0.049191345 -0.11959807 0.027194088 0.38329098 0.9236266 0.0014127536 0.0016249524
0.049585994 -0.1194346 0.0245673 -0.38397428 0.92334026 0.0025723481 0.001525164
0.054816443 -0.11726807 0.026379706 -0.4285762 0.90350556 -0.00040514683 0.0010705928
0.065655194 -0.11243824 0.025559014 -0.50821966 0.86120719 -0.005910052 0.0021537063
-0.080552973 -0.10117744 0.025055055 0.63167053 0.77521676 0.0056020878 0.0019365578
-0.0752858 -0.10520878 0.024076715 0.57300007 0.81955463 -0.0011280766 0.0018088801
-0.069269434 -0.10981344 0.023462161 0.52643543 0.85021156 -0.0024477509 0.0022673891
0.069610104 -0.10959393 0.025010874 -0.52899885 0.84861469 -0.0036438582 0.0023102826
0.073371954 -0.10671846 0.025037741 -0.55281806 0.83328241 -0.0057119858 0.0016760895
0.081721216 -0.10033625 0.023888031 -0.64386684 0.76511645 0.0056976806 0.001279454
-0.091911457 -0.092219658 0.024217907 0.70547247 0.70873713 -0.00054618181 0.0022865518
-0.086430185 -0.096678667 0.025664575 0.66099113 0.75038302 -0.0040081022 0.0019702681
0.085704267 -0.097294331 0.024654636 -0.66047567 0.75083369 0.0045456896 0.0020419681
0.092207283 -0.092047401 0.025016913 -0.70858806 0.70562184 0.00086975575 0.0022893923
-0.10092738 -0.080884025 0.022961253 0.77013016 0.63788623 0.00076946412 0.0010558977
-0.095771119 -0.087612294 0.02495797 0.735322 0.67768395 0.0067824083 0.0023241201
0.097028233 -0.085979812 0.025307253 -0.75686717 0.65356547 -0.0020541842 0.0016914383
0.10078136 -0.081088662 0.023957247 -0.77708286 0.62939686 0.0013142204 0.0020086023
-0.10553022 -0.074877888 0.025558939 0.82132918 0.57044268 -0.0036738245 0.0020720442
0.10534394 -0.075142585 0.023777036 -0.80620432 0.59157419 -0.0086333528 0.0011828428
-0.11196636 -0.066071905 0.025555721 0.86094153 0.50870299 0.0010028109 0.0022325963
-0.1093482 -0.069895901 0.022461116 0.84682339 0.53186721 -0.0027032634 0.0022666352
0.10959844 -0.069598004 0.026208803 -0.8490544 0.52829975 0.0024601235 0.0023632555
0.11304688 -0.06446363 0.025486041 -0.86869091 0.49531344 0.00637849 0.0020809474
-0.11705255 -0.055231828 0.024999956 0.90201008 0.43171421 -0.0007826442 0.0009289686
0.11665963 -0.056285266 0.023978708 -0.89451778 0.44703075 -0.0011684203 0.0015414199
-0.12166146 -0.044209819 0.02509154 0.93676084 0.34996969 0.00062799518 0.001830977
-0.11978904 -0.048730195 0.028934842 0.91892344 0.39442539 0.0029019124 0.0018125495
0.11974617 -0.048632715 0.027148722 -0.92758632 0.37360176 0.0023344907 0.0010900941
0.12199251 -0.043281913 0.025147459 -0.94176704 0.33626395 0.0011599869 0.0017812849
-0.12556984 -0.0340303 0.024645748 0.96797425 0.25078037 -0.011618827 0.0020600802
0.12500735 -0.035645556 0.025311382 -0.96136391 0.27526245 -0.0031483907 0.0018982298
-0.12732744 -0.023602692 0.025934301 0.98086119 0.19468929 -0.0027335188 0.0016076342
0.12751451 -0.022181759 0.029730525 -0.98503566 0.17233747 -0.0021398568 0.0019845697
-0.12825967 -0.01652169 0.022791306 0.99176401 0.12807845 0.00031095443 0.0012589463
0.12843792 -0.015167725 0.024486508 -0.991898 0.1270362 0.0005589489 0.0009177553
-0.13026245 -0.0013089929 0.024086345 0.99996907 -0.00051743595 -0.0078400504 0.0027595863
-0.12927976 -0.0087733082 0.023102818 0.99717784 0.075063586 -0.0013220144 0.0023023668
0.12966731 -0.0058296267 0.021960111 -0.99879849 0.048965633 -0.0019397123 0.0018345838
0.1304345 -2.147013e-06 0.0254681 -0.9999823 -0.004828969 -0.0034667645 0.0028920416
-0.13025737 0.0013475923 0.025030049 0.99991733 -0.010144973 -0.0079088211 0.0026423139
-0.12946543 0.0073629129 0.023553204 0.9977262 -0.066545874 -0.01067912 0.0018749458
0.12952572 0.0069050957 0.024277285 -0.99904883 -0.04273209 -0.0086824419 0.0023802656
0.13035542 0.00060282776 0.025597654 -0.99988323 -0.015253169 -0.00092846208 0.0026615739
-0.12850459 0.014661384 0.02531861 0.99206173 -0.125687 0.0040400028 0.0012692231
0.12839314 0.015507775 0.025478814 -0.99335265 -0.11508258 0.002549693 0.00078945665
-0.12698738 0.026185783 0.024062373 0.97906548 -0.20349689 -0.0044540982 0.0019510821
0.12715006 0.024950067 0.026528331 -0.98093951 -0.194126 0.0085267695 0.0014619154
-0.12535506 0.034600161 0.023765771 0.96642774 -0.25693208 -0.0018171316 0.0021232243
0.12586084 0.033440992 0.027460977 -0.96756417 -0.25242484 0.010061762 0.0023101745
-0.12214902 0.043032795 0.023758253 0.94545358 -0.32575423 -0.0013289487 0.0015636178
-0.11976986 0.048776567 0.026869517 0.93060213 -0.36600411 -0.0045419461 0.0010253448
0.11988911 0.048488658 0.020456962 -0.92208344 -0.38698769 -0.00161723 0.0014071355
0.12117103 0.045393843 0.024933556 -0.92857379 -0.37102029 -0.0097309351 0.0013462945
-0.11752301 0.054200936 0.027112732 0.9119693 -0.41024995 -0.0026452637 0.0019757312
0.11649302 0.056687541 0.023602439 -0.8971796 -0.44163236 -0.0054400885 0.0015447576
-0.11295123 0.064554788 0.023910975 0.86018181 -0.50996536 0.0047614337 0.0022120262
0.10972465 0.069433548 0.024434119 -0.8458212 -0.53345728 -0.0031386346 0.0026680932
0.11209045 0.065950729 0.023948686 -0.8603707 -0.50959706 -0.0085524619 0.0027425282
-0.10461468 0.076092981 0.025435945 0.80340183 -0.59543669 0.00087744213 0.0016602521
0.10580183 0.07454586 0.025539979 -0.80693775 -0.59056556 -0.0091555258 0.0014907478
-0.10063075 0.08128494 0.023224767 0.77731705 -0.62909985 -0.0033809617 0.00079542154
-0.09530703 0.088222928 0.022020854 0.73451799 -0.67848009 -0.012168025 0.0021554304
0.097372591 0.085531041 0.027491851 -0.76248324 -0.64700723 -0.00098414207 0.001571838
0.10019779 0.081849173 0.027029123 -0.7672115 -0.64138359 -0.0037069018 0.0012915506
-0.091769747 0.092385843 0.022814691 0.70671266 -0.70749474 -0.0029115349 0.0020971715
-0.085036799 0.097751833 0.02675161 0.66187489 -0.74956298 0.0087778466 0.0020949047
0.086889669 0.096330076 0.026093692 -0.67160547 -0.74087888 0.0066764983 0.0023028785
0.091672368 0.092512496 0.026870077 -0.70672733 -0.70747054 0.0046726936 0.0025159351
-0.074241757 0.10603518 0.025837004 0.57632798 -0.81721222 0.0031950839 0.0012571395
0.06965211 0.10955694 0.024714235 -0.54138303 -0.84072709 -0.0090707857 0.0021291953
0.074046485 0.10618502 0.024819652 -0.5646022 -0.82535881 0.0026873804 0.0013625978
0.080555506 0.10119046 0.02537711 -0.63055378 -0.77613997 0.0029277808 0.0016367993
-0.06330283 0.11349847 0.024227358 0.49955577 -0.86626267 0.005740352 0.0023998539
-0.055525981 0.11697415 0.025610687 0.42313221 -0.90606743 -0.00098451169 0.0010663867
0.049435031 0.11949712 0.022070805 -0.39256391 -0.91971624 0.0039483234 0.0011284276
0.056640446 0.11651251 0.024212776 -0.45003963 -0.89300472 -0.0026534975 0.0014791528
0.065110855 0.1126947 0.026105227 -0.49924505 -0.8664456 0.0051376815 0.0025004419
-0.045504589 0.12112516 0.025138428 0.34842613 -0.93730712 -0.0073892428 0.0012963443
-0.034704883 0.12540981 0.024920825 0.25733972 -0.96631455 0.003508115 0.0023595332
-0.024021728 0.12727228 0.023527572 0.1751318 -0.98454237 -0.0022486891 0.0011399464
-0.012705113 0.12876213 0.023130309 0.095620357 -0.9954142 0.0027068115 0.0015299489
-0.0081886509 0.12935674 0.024170399 0.081252217 -0.99666989 -0.0068673333 0.0018624807
0.0069740685 0.12951663 0.024550891 -0.063697919 -0.99796069 -0.0041218768 0.0020793737
0.014438109 0.12853399 0.024019958 -0.10770874 -0.99417335 -0.0042620781 0.0011658631
0.025778348 0.127041 0.023907252 -0.18999159 -0.98176479 -0.006413267 0.0014287577
0.035738669 0.12499948 0.025178911 -0.26206827 -0.96504867 0.0011424264 0.0021474024
0.045266449 0.12122381 0.025944592 -0.36211085 -0.93213487 -0.0005904233 0.0012658929
-0.0011787158 0.1302796 0.02230835 0.014504089 -0.999861 -0.0082209427 0.0023467564
0.0032661385 0.13000479 0.02131854 -0.014292222 -0.99989516 -0.0023263823 0.0024240769
-0.0022659041 -0.13013647 0.033926804 -7.3544878e-05 0.99999791 -0.0020347438 0.002819384
0.00092120492 -0.13031408 0.035927847 0.00015426181 0.9999783 0.0065848343 0.0027362457
-0.044169411 -0.12167822 0.036487706 0.35111651 0.93633151 0.00067676225 0.0016451519
-0.035064265 -0.12529586 0.033046339 0.26479527 0.96430343 -0.0015309274 0.0019615155
-0.024495667 -0.12722313 0.034961119 0.19114397 0.98155737 0.003021386 0.0016308593
-0.01585521 -0.12835518 0.03582713 0.12695888 0.99190754 -0.00092893426 0.0010621592
-0.0068763141 -0.12953152 0.036153328 0.069899663 0.99755406 0.00023014001 0.0019543488
0.0075106653 -0.12945081 0.034430344 -0.074913092 0.99717724 0.0050597955 0.0019133986
0.014730917 -0.1285049 0.03464755 -0.11346543 0.9935419 -0.00035881004 0.00058069121
0.025059033 -0.12715183 0.03533309 -0.19550732 0.98069155 0.0045816065 0.0017256348
0.033549279 -0.12572961 0.035333659 -0.244643 0.96961319 4.2371739e-06 0.002386553
0.044657696 -0.12147597 0.035609543 -0.35914418 0.93325615 0.0069568516 0.0011551291
-0.064394288 -0.11300579 0.035458673 0.50457537 0.86333364 -0.0076600676 0.0020725282
-0.055076517 -0.11716034 0.035956793 0.44103515 0.89748025 0.0041458672 0.0013090654
0.048606575 -0.11984029 0.035384271 -0.38023335 0.92485738 0.0078387242 0.0014575804
0.054950323 -0.11721261 0.033892356 -0.42567694 0.90487385 0.0015574887 0.00096672273
0.064044565 -0.11324002 0.034984495 -0.5031991 0.86416107 -0.004036468 0.0022375162
-0.080388226 -0.10130163 0.034356486 0.62327307 0.7820009 -0.0022792311 0.0015174414
-0.075568184 -0.10499005 0.036815099 0.59761781 0.80177313 0.0035954395 0.001240478
-0.069534525 -0.10960795 0.03617049 0.53000188 0.84799647 6.5039952e-05 0.0022529799
0.069602519 -0.10960164 0.034434304 -0.53037608 0.84776008 -0.0020019866 0.0022142131
0.074984498 -0.10548781 0.034514431 -0.58030218 0.81439596 -0.0029351451 0.0013284475
0.081210569 -0.10072903 0.035913754 -0.63503402 0.77247936 -0.0027110779 0.0010516603
-0.092188835 -0.092003882 0.033346917 0.70920259 0.70498866 -0.00476383 0.0023458891
-0.084697381 -0.098003335 0.036025871 0.65874559 0.7523632 0.0019555474 0.0014973666
0.086670563 -0.096556298 0.034446534 -0.66430092 0.74746525 1.5857275e-05 0.002417607
0.091341257 -0.092896327 0.033331294 -0.69999444 0.71412027 0.006331984 0.0025551047
-0.10064359 -0.081254326 0.036470097 0.76577169 0.64311165 0.0010616209 0.0013427607
-0.097388722 -0.085501537 0.035255559 0.74766517 0.66407573 -0.0004647864 0.0020349014
0.095733225 -0.087667502 0.035289764 -0.74232197 0.67004281 -0.00092633162 0.0021975352
-0.10583136 -0.074484922 0.034158524 0.83108562 0.55613995 -0.0022527967 0.001884072
0.10501457 -0.075571842 0.034433696 -0.8133862 0.58172363 0.00065668038 0.0012090126
-0.11284525 -0.064553387 0.035133567 0.86591452 0.50019169 0.00055780838 0.0021905261
-0.10984289 -0.069250412 0.035393976 0.85342258 0.52114606 0.0087541034 0.0023836619
0.10955077 -0.06966015 0.03344259 -0.84712207 0.53133357 -0.008299822 0.0023314424
0.11346693 -0.06361492 0.034626082 -0.87083018 0.49158236 -0.0012666105 0.0023609574
-0.11780781 -0.053421009 0.036370199 0.90874189 0.41735417 0.0018997245 0.0014472312
0.11703836 -0.055370886 0.035348438 -0.90574127 0.42383 0.00092439773 0.0017270542
-0.1217747 -0.04393642 0.036221895 0.9360528 0.35185823 0.0010551135 0.0019666506
-0.11947763 -0.049482014 0.03571859 0.92320222 0.38428894 0.0044370014 0.0016541188
0.11953071 -0.049145922 0.032759875 -0.93184602 0.36285385 0.00019228541 0.0012079288
0.12209246 -0.043043848 0.035581201 -0.94059557 0.33952406 0.0018304015 0.0019249653
-0.12490343 -0.036253531 0.034156438 0.96709156 0.25440022 0.0038021004 0.0022500639
0.12535679 -0.035180666 0.036209241 -0.9635998 0.26734087 -0.0020703289 0.0023258473
-0.12701365 -0.025986189 0.036728021 0.97860414 0.20566052 0.0061428575 0.0018862599
0.12678194 -0.027746253 0.035486307 -0.97494787 0.2224101 -0.0032229626 0.0021733767
-0.12848483 -0.014811405 0.034512956 0.99341327 0.11458387 0.00077636389 0.0017344054
0.12849136 -0.01476178 0.035618067 -0.99334687 0.11508052 -0.0042911372 0.001602722
-0.13027172 -0.0012386243 0.035737451 0.99995583 0.0070667998 0.0062034279 0.0027514643
-0.12950961 -0.0070274691 0.034988709 0.99752921 0.070081294 -0.0049026799 0.0019423156
0.12981248 -0.0047269529 0.035742342 -0.99966341 0.025850877 -0.0021765179 0.002409983
0.13019426 -0.0018270236 0.033497836 -0.99999309 -0.00059019442 -0.0036674479 0.0027644099
-0.13035323 0.00061944447 0.033839945 0.99994278 -0.0091343969 -0.0055728192 0.002715819
-0.12938367 0.0079839826 0.035049323 0.99706024 -0.076614112 0.0011113797 0.0018427761
0.12956485 0.0066077472 0.034046873 -0.99825013 -0.05907163 -0.0026892237 0.0025728582
0.13005769 0.002864352 0.038205583 -0.99972546 -0.023307461 -0.0023913141 0.0023685761
-0.12848718 0.01479361 0.034940057 0.99437243 -0.10593625 0.0010161354 0.0013971346
0.12847543 0.014882877 0.034968711 -0.99329758 -0.11558039 -0.0010856396 0.0016576707
-0.12697081 0.026311679 0.032712776 0.9789896 -0.20355362 0.012051296 0.0019089739
0.12714043 0.025023291 0.034216933 -0.98288745 -0.18416938 0.0037509101 0.001692452
-0.1250461 0.035725515 0.035645314 0.96500945 -0.26221475 0.00050620438 0.0024247167
0.12514362 0.035257988 0.03736975 -0.96690303 -0.2551429 0.00077799783 0.0020180603
-0.12076996 0.04636215 0.035275802 0.930103 -0.3672871 0.0029370431 0.00099289871
-0.11970398 0.048935622 0.036428042 0.91930938 -0.39353016 -0.0020424179 0.0014592514
0.11992311 0.048406579 0.034634419 -0.9270854 -0.37482944 0.0039333524 0.001210821
0.12200085 0.043390498 0.035469096 -0.94059241 -0.33949417 -0.0054408321 0.0022333555
-0.1167757 0.056005109 0.035029933 0.89672762 -0.44257504 0.0026202488 0.0015603747
0.11733438 0.054656304 0.034593068 -0.90089715 -0.43403232 -0.00039010515 0.0012247417
-0.11317626 0.064129815 0.033627942 0.86518943 -0.50142944 0.0039757383 0.0022842255
-0.10975438 0.069394812 0.032848604 0.84740901 -0.53094065 -0.00010006247 0.0021563305
0.10983403 0.069291003 0.033542603 -0.8518374 -0.52374905 -0.0077462932 0.0027766114
0.11288377 0.064581193 0.036058445 -0.86462301 -0.50238413 0.0060983617 0.0024869069
-0.10598621 0.074305564 0.035455413 0.82620335 -0.56336921 0.0017931146 0.0013269846
0.10512664 0.075425759 0.033716246 -0.80716079 -0.59031683 -0.0041877991 0.0014695921
-0.10108425 0.080693915 0.030909903 0.77828175 -0.62790596 -0.0033891529 0.0015972259
-0.097302817 0.08562199 0.034969002 0.75240105 -0.65867716 -0.0060945889 0.0018113679
0.097024582 0.085984573 0.035149977 -0.7528314 -0.65817016 -0.007538096 0.0021308595
-0.092118032 0.092149332 0.036579937 0.70915806 -0.70500004 -0.0083518624 0.0026434057
-0.084552556 0.098123416 0.035155185 0.65051937 -0.75948936 0.00075000129 0.0015785238
0.088181235 0.095339023 0.036577795 -0.68456757 -0.72890717 0.0078425482 0.0022097221
0.092026606 0.092152007 0.03244108 -0.71555418 -0.69854969 0.0032449875 0.0026693612
-0.080828287 0.10098115 0.0351477 0.64469379 -0.76443732 0.0023451636 0.0015576492
-0.075683258 0.10492907 0.037324775 0.57746774 -0.81638646 0.0066522323 0.0018915165
-0.069290526 0.10983439 0.035538763 0.52546281 -0.85081053 0.0032070619 0.002524381
0.074870743 0.10555253 0.035231762 -0.57700843 -0.81671447 -0.0062356577 0.001779552
0.080927148 0.10090528 0.036091279 -0.63761932 -0.77034146 0.003944579 0.0012120751
-0.065580219 0.11243838 0.034728572 0.50793272 -0.86132962 -0.010751802 0.0021099262
-0.054059353 0.11758165 0.034574356 0.429764 -0.90294063 -0.0010578553 0.0012119067
-0.049642541 0.11941116 0.038034871 0.38611725 -0.92244947 -0.0007611367 0.0019013518
0.048614003 0.11983719 0.03542655 -0.37719971 -0.92610216 -0.0074284761 0.0020178242
0.054781701 0.11728244 0.033552714 -0.42962185 -0.90300876 -0.00050152629 0.0010714548
0.063764431 0.11335643 0.035200335 -0.47458905 -0.8801989 -0.003889455 0.0020291093
-0.044142529 0.12168935 0.034727365 0.34335616 -0.93920463 0.0011554029 0.0015050259
-0.035166878 0.12512961 0.034246605 0.25765473 -0.96620733 -0.0075800782 0.0020340246
-0.02302881 0.12740299 0.036250547 0.1838821 -0.98294693 0.0016527849 0.0015501045
-0.014066428 0.12858292 0.03532552 0.1138778 -0.99349368 0.0014891302 0.00067532569
-0.0073465626 0.12946761 0.036438841 0.073500335 -0.99729478 0.00090129813 0.0021120056
0.0068900702 0.1295277 0.033361271 -0.051963452 -0.99864811 -0.001387029 0.0017925105
0.01635043 0.12828222 0.03377483 -0.12920976 -0.99161458 0.0023188675 0.00094028603
0.023825228 0.12729815 0.035654314 -0.18901804 -0.98197281 0.0012799494 0.0013572428
0.036598157 0.12481434 0.034687061 -0.29537603 -0.95538098 0.00033710132 0.0020888189
0.042489924 0.12237388 0.034974784 -0.32508653 -0.94568348 0.0012062638 0.0015378803
-0.0020530466 0.13016449 0.031491451 0.0060432469 -0.99996227 -0.0062283725 0.0024296429
0.00067250291 0.13034624 0.039558832 -0.0036060177 -0.9999885 -0.0031643547 0.0026612375
-0.0015203761 -0.13023463 0.043972552 0.0088034431 0.99992126 -0.0089486763 0.0029506157
0.0020353675 -0.13016813 0.048033267 -0.0048525673 0.99998742 0.0012946529 0.0028502462
-0.044429053 -0.12157067 0.044214357 0.36526522 0.93089998 -0.0025552998 0.0012835438
-0.033981375 -0.12563586 0.044500194 0.25337812 0.96736717 0.00054310111 0.0023478824
-0.026175091 -0.12700386 0.043891277 0.19965231 0.97986287 0.002752373 0.0018509079
-0.01498994 -0.12846939 0.046098366 0.10198554 0.99478585 -0.0002039008 0.0011543815
-0.0080301259 -0.12938125 0.0470438 0.067000188 0.99773896 -0.0052893581 0.0020429217
0.0072728684 -0.12948197 0.045368239 -0.068067938 0.99767536 -0.0032753106 0.0022959097
0.013880785 -0.12861627 0.044854861 -0.10013218 0.99497271 -0.0016916766 0.0013114876
0.02414993 -0.12727092 0.045822632 -0.18516468 0.98270744 0.00014324574 0.0017706136
0.034825098 -0.12532865 0.045806717 -0.25540796 0.96679336 0.0087985853 0.0022477608
0.043715172 -0.12186637 0.044870183 -0.35058326 0.93651611 -0.0053859097 0.0012143415
-0.065141007 -0.11265114 0.044657789 0.50689906 0.86197495 -0.0072447988 0.0022551692
-0.056092396 -0.11673955 0.04542046 0.44457328 0.89573789 -0.0028516117 0.0017770446
-0.049123462 -0.11962619 0.043534905 0.3866044 0.92224097 -0.0029562346 0.0014023617
0.049064543 -0.1196506 0.04456817 -0.37246442 0.92803383 -0.0048341216 0.0012357843
0.054837473 -0.11725935 0.045037352 -0.43463883 0.90059835 -0.0034319912 0.0012582146
0.06425868 -0.11310603 0.045161873 -0.501302 0.86525822 0.0049525057 0.0023855506
-0.081090845 -0.1007622 0.042572029 0.63777566 0.7702179 -0.0025497887 0.0018807037
-0.074646242 -0.10569387 0.045475617 0.55776256 0.82997197 -0.0068903603 0.0016126237
-0.069305256 -0.10978217 0.042263739 0.52122575 0.85337263 -0.0088827442 0.00227811
0.069344781 -0.10980147 0.048218332 -0.52381217 0.85181665 0.0054054135 0.0023074115
0.075684898 -0.10495439 0.044067729 -0.58722746 0.80939847 0.0061657811 0.0016095103
0.080656476 -0.10115444 0.045007214 -0.63538694 0.77219307 -0.0011420428 0.0010763577
-0.091360122 -0.09280774 0.046633288 0.69605768 0.7179361 0.0084460527 0.0024689063
-0.085717723 -0.097220749 0.044218369 0.64904821 0.76074398 0.0022596025 0.0013849229
0.085882597 -0.097160146 0.045502786 -0.65606207 0.7547031 -0.0024202936 0.0020066765
0.091507956 -0.092840016 0.045634963 -0.69076651 0.72303063 -0.0082707303 0.0025322225
-0.1003435 -0.081645899 0.045798909 0.76506418 0.64394665 -0.0030690262 0.0011934468
-0.09763369 -0.08518187 0.044657007 0.75550896 0.65512246 -0.004549345 0.0014396246
0.096694864 -0.08641427 0.044865329 -0.74254274 0.66978568 -0.0041883434 0.0021269878
0.10073675 -0.081146792 0.042706288 -0.76524478 0.64373618 -0.002004093 0.0013793064
-0.10574415 -0.074598737 0.045036245 0.82550079 0.56439167 -0.0032357688 0.0014893012
0.10416517 -0.076678775 0.044516593 -0.80185533 0.59751683 -0.0013000164 0.0016530176
-0.11209264 -0.066009358 0.04605769 0.8639307 0.50360835 0.0015112893 0.0021967767
-0.10977127 -0.06934385 0.043647617 0.84993595 0.52688593 -7.4355121e-05 0.002323549
0.11277718 -0.064765453 0.044182543 -0.86108053 0.50841689 -0.0072532725 0.0022717931
-0.11720706 -0.054864939 0.043908719 0.90135503 0.43307576 0.0021249461 0.0010933316
0.11742497 -0.054427691 0.044936642 -0.90674829 0.42167184 -0.00061276136 0.0015152845
-0.12169407 -0.044131063 0.045542032 0.93124557 0.36426872 0.0094897179 0.0012852144
-0.11955752 -0.049289122 0.045202583 0.92185515 0.3875266 -0.0025066175 0.0016310811
0.11933974 -0.049600855 0.040827975 -0.92648154 0.37633485 -0.0020186203 0.00096838205
0.1210596 -0.045504142 0.045120608 -0.93366796 0.35812509 0.0032602372 0.0012898882
-0.12525828 -0.034925953 0.045492567 0.96344948 0.26783264 0.0055486071 0.0019668308
0.12526931 -0.035083823 0.043983024 -0.96596318 0.25862536 -0.0052957796 0.0021384344
-0.12716599 -0.024829175 0.045526735 0.98111677 0.19330557 0.0065409215 0.0015264725
0.12723267 -0.024322672 0.045834929 -0.98114932 0.19324607 0.0014665154 0.0019327379
-0.12859532 -0.013972098 0.045154892 0.9953512 0.096311681 -0.00015795782 0.0016065433
0.12862578 -0.013740848 0.045701664 -0.99489123 0.10077914 -0.0059129088 0.0011169522
-0.13016251 -0.002068127 0.044474047 0.99989414 0.014264367 -0.0028786291 0.0025883918
-0.12920535 -0.0093386099 0.045202747 0.99666095 0.081438243 0.005888002 0.0018351731
0.12951429 -0.0069918302 0.043864816 -0.99792397 0.064400189 -0.00052954146 0.0023188314
0.13012947 -0.0023190901 0.043632075 -0.99988759 0.014802437 0.0023587791 0.0027832782
-0.12943129 0.0076222867 0.044746649 0.99758804 -0.069392607 -0.0016985721 0.0019374507
0.12950441 0.0070669292 0.044843696 -0.99670297 -0.08106678 -0.003374401 0.0019827292
0.13011855 0.0024021454 0.046714336 -0.99996716 -0.0080385422 -0.0010350763 0.0029689437
-0.12844907 0.015083052 0.044065148 0.99434179 -0.10622814 0.00010154182 0.0011733118
0.12828122 0.016358057 0.044719286 -0.99012142 -0.14020489 -0.0014531403 0.0013539043
-0.12688282 0.026980057 0.045785792 0.97950768 -0.20137416 0.0036173374 0.0016530029
0.12711106 0.025246209 0.044862002 -0.98300284 -0.18358037 -0.001904748 0.0013754703
-0.12604733 0.033154685 0.045431286 0.96776164 -0.25186685 -0.0007465604 0.0021769397
0.12480695 0.036530767 0.046191227 -0.96542346 -0.26060662 0.0064628618 0.0020281186
-0.1211866 0.045356281 0.045962401 0.93002647 -0.36747482 0.0035960046 0.0012081028
0.12189706 0.043641098 0.045488112 -0.94059873 -0.33952036 -0.00015201049 0.0017996076
-0.11703914 0.055369079 0.047237467 0.90346259 -0.42866632 -0.00071954646 0.0010308763
0.11703907 0.055369247 0.045038484 -0.90297407 -0.42969015 0.0020363526 0.0011544392
-0.11252137 0.065150164 0.044483092 0.86045939 -0.50951821 -0.00091213902 0.0021129563
-0.1097952 0.069341615 0.044751566 0.84707713 -0.53134781 0.011397009 0.0021064782
0.10960095 0.069594748 0.040245451 -0.84496522 -0.53481656 -0.0022505317 0.0024911652
0.11269591 0.065007508 0.042149954 -0.86431432 -0.50293934 0.0035716724 0.0024830408
-0.10686356 0.073162183 0.047570687 0.83127016 -0.55585229 0.0042608352 0.0016876129
0.1058457 0.074488677 0.044266567 -0.80836713 -0.58867759 -0.0010826378 0.0015468065
-0.10076761 0.081106581 0.043552827 0.76192099 -0.64765644 -0.0041917455 0.00145272
-0.097683787 0.085125491 0.044391457 0.75270063 -0.65834332 -0.00508476 0.0020050954
0.096663967 0.086454526 0.044174593 -0.74410671 -0.66806084 0.00021734591 0.0021518304
0.10003057 0.08206708 0.040301148 -0.76863885 -0.63966948 -0.0041655791 0.0012139431
-0.092224963 0.091931902 0.043863032 0.70857126 -0.70563883 -0.00082145847 0.0024342686
-0.085607857 0.09731365 0.047544055 0.65740013 -0.7535401 0.0015253657 0.0015648782
0.086758755 0.096430533 0.046272974 -0.66650474 -0.74547195 0.006553812 0.0019750183
0.092723988 0.091575548 0.045661807 -0.70562619 -0.70858431 0.00011643121 0.0026160311
-0.081474721 0.10048512 0.046957854 0.6462751 -0.76310384 -0.0009930298 0.0014031187
-0.075947374 0.1047264 0.045471922 0.58705783 -0.80951488 0.0069847554 0.0018684749
-0.069888294 0.1093757 0.046332192 0.53707629 -0.8435232 0.004187936 0.0023604061
0.069635712 0.10956952 0.047713421 -0.53044116 -0.84771925 -0.0020667424 0.0023811108
0.075126164 0.10535654 0.043474801 -0.58804548 -0.80882639 0.0015470686 0.0016047899
0.081439413 0.10051221 0.049411044 -0.63352573 -0.77371931 0.001890898 0.0010491359
-0.064706005 0.1128866 0.045868501 0.50253528 -0.86452383 0.0075407256 0.002400321
-0.054515187 0.11739283 0.044166435 0.43459433 -0.90061629 0.0042586555 0.0013669572
0.05563499 0.11692899 0.046170436 -0.43044555 -0.90261656 0.00011318208 0.0011951829
0.062557533 0.11406158 0.044344045 -0.48757163 -0.87305886 -0.0064918017 0.0020940457
-0.043918114 0.1217823 0.044031829 0.34420142 -0.93887842 -0.0057184324 0.0020121622
-0.034347169 0.12550038 0.044079054 0.25136817 -0.96788436 -0.0037201464 0.0024689201
-0.024757465 0.12717542 0.044919606 0.1913342 -0.98152345 -0.001725028 0.0014792094
-0.016118286 0.12831278 0.044965558 0.13429141 -0.99094129 0.0010701782 0.0010059455
-0.0065256543 0.12957567 0.042841107 0.051492829 -0.99866784 -0.0033159382 0.0020235167
0.0066659031 0.12955721 0.044403635 -0.061870858 -0.9980824 0.0018748476 0.0019185598
0.014723723 0.12849638 0.045197409 -0.11588328 -0.99325418 -0.0041430593 0.00080892327
0.024082439 0.12726429 0.043658976 -0.18660654 -0.98241973 0.005428513 0.0015758951
0.034666847 0.12540278 0.045335848 -0.26307768 -0.96477032 -0.0029085893 0.00184033
0.04456735 0.12151337 0.044521172 -0.35651574 -0.93428785 -0.0016703982 0.0013366416
-0.0017651967 0.13020238 0.04795789 0.0051641306 -0.99998099 0.0033502763 0.0024852823
0.0020719292 0.130162 0.040420629 -0.012923936 -0.99987918 -0.008639086 0.0026345828
-0.002567678 -0.13009764 0.056172345 0.010031756 0.99992847 0.0065156738 0.0028747788
0.0029952629 -0.13004239 0.057010412 -0.0059646233 0.99995559 0.0072881388 0.0026575159
-0.045642994 -0.12106784 0.054846928 0.36547467 0.93081778 0.0025581024 0.0012988318
-0.034659091 -0.12541412 0.055508021 0.25926119 0.96575493 0.010056404 0.0022024845
-0.026633961 -0.12694472 0.055768091 0.20203914 0.97937691 -0.0010067064 0.0022379085
-0.015380764 -0.12841891 0.054798402 0.1160878 0.99323887 0.00038542529 0.00060943386
-0.0076976796 -0.12942545 0.054763079 0.07864923 0.99690145 -0.0013184848 0.001773796
0.0065086754 -0.12958209 0.052434497 -0.066297367 0.99778974 0.0045051472 0.0021198976
0.015370192 -0.12842114 0.055592842 -0.12339171 0.99235296 0.0031772072 0.0011303277
0.025492916 -0.12709498 0.055465244 -0.19021475 0.98173892 -0.0026307041 0.0016713168
0.035172489 -0.12523133 0.055322003 -0.251636 0.96780849 0.0051089493 0.002099379
0.043430712 -0.12198421 0.05476056 -0.33864659 0.94091278 -0.0013040175 0.0020326432
-0.064437091 -0.11308581 0.05549141 0.50510776 0.8630504 0.003205037 0.0022773484
-0.054544549 -0.11738069 0.055507001 0.42013144 0.90745991 -0.0024732358 0.0017910512
-0.049937464 -0.11928901 0.052863654 0.39376158 0.91920918 -0.0025118985 0.0017614765
0.056132723 -0.11672285 0.05482778 -0.4372896 0.89932024 -0.00098927156 0.0011839804
0.065238565 -0.1126008 0.055824075 -0.50494748 0.86311483 0.0077994657 0.0022220877
-0.081026785 -0.10080868 0.054981221 0.64683598 0.76262063 0.0035919575 0.0014544562
-0.077419057 -0.10356932 0.057312462 0.59527481 0.80352122 -0.0012407202 0.0018572882
-0.069589138 -0.10956231 0.054906178 0.52511865 0.85102832 -0.001073117 0.0024808026
0.069513969 -0.10967365 0.055517614 -0.53609431 0.84411067 0.0089461915 0.0023959721
0.075617932 -0.10500783 0.055097539 -0.59878296 0.80089802 0.0046216343 0.0016523863
0.081953853 -0.10016418 0.051923949 -0.64567059 0.7636106 -0.002881869 0.0014798059
-0.092752166 -0.091490731 0.05401339 0.71120912 0.70296472 -0.0047056032 0.0024030979
-0.086758479 -0.096421488 0.05758879 0.66477907 0.74695635 0.011179552 0.0018960503
0.087132432 -0.096206293 0.054382391 -0.67095917 0.74148363 -0.0039815083 0.0025280863
0.092390105 -0.091889925 0.05520704 -0.71285188 0.70130271 -0.0040973728 0.0027323938
-0.10003065 -0.082054138 0.050840538 0.7624771 0.64700776 -0.0031042341 0.0013811633
-0.098049186 -0.084639698 0.056405351 0.75215429 0.65894991 0.0070028151 0.0017252644
0.097049601 -0.085951962 0.053834304 -0.75236142 0.65874815 -0.0018102673 0.0020869798
0.10098527 -0.080822907 0.056057859 -0.77643824 0.6301918 -0.0014186802 0.0019533942
-0.10479303 -0.075839825 0.055120055 0.80821818 0.58887428 -0.0032074754 0.0013473058
0.1053303 -0.075160347 0.055534806 -0.80868983 0.58823293 0.0016510055 0.0018102406
-0.11271567 -0.064852104 0.055065583 0.86347324 0.50438786 -0.0026272763 0.00225187
-0.10967549 -0.069468826 0.056320455 0.84887111 0.52859253 0.002786641 0.002354437
0.10965097 -0.069529556 0.054428078 -0.85312545 0.5216971 -0.0030107812 0.0024295424
0.11341123 -0.063799329 0.05355072 -0.86801213 0.49647582 -0.0081745414 0.0020537574
-0.11673975 -0.055991225 0.055885222 0.90095896 0.43388379 -0.0042171907 0.0010151963
0.11684987 -0.055826001 0.05353941 -0.89499319 0.44607896 0.00080456043 0.0015064043
-0.1214889 -0.044626389 0.054527801 0.93098283 0.36504686 -0.0034279844 0.0013036714
0.1195472 -0.049106687 0.050874352 -0.92883343 0.37049153 -0.0021029117 0.001031304
0.12169401 -0.043992937 0.055012446 -0.93243945 0.3613098 -0.0034537564 0.0010705807
-0.1256071 -0.034459651 0.055927195 0.96581709 0.25908771 0.0084207216 0.0020901833
0.12559304 -0.034278288 0.05658957 -0.96561301 0.25990668 0.0063377363 0.0019020492
-0.12703793 -0.025801884 0.056317717 0.98147768 0.19156127 0.0024196662 0.0015875206
0.12702377 -0.025909355 0.055188261 -0.9796114 0.20081651 -0.0058534318 0.0020360535
-0.12841682 -0.015328037 0.054748356 0.99411106 0.1083656 -9.8790159e-05 0.0011026392
0.12857063 -0.014159635 0.053183574 -0.99479949 0.10179889 0.0032979546 0.0010439357
-0.13026701 -0.00127438 0.059203334 0.99997842 0.0009557099 0.00648939 0.0025331771
-0.12955557 -0.0066783777 0.056336001 0.99751401 0.070356086 0.0039808676 0.0018715557
0.12931485 -0.0085066743 0.053302694 -0.99690104 0.078621902 0.0026018005 0.0018278351
0.13033253 -0.00077678915 0.055768572 -0.99994189 -0.0004686797 0.010775916 0.0027652711
-0.13011079 0.0024609861 0.053693082 0.99995732 -0.0083543956 -0.0039581587 0.0028597917
-0.12959614 0.0063701412 0.055460382 0.99868369 -0.050620425 0.0082696127 0.0021631878
0.12958048 0.0064890599 0.050707437 -0.99794376 -0.064061634 -0.0020958895 0.0018835724
0.13015726 0.0021078796 0.056808997 -0.99994105 -0.0076386691 0.0077104508 0.0026983318
-0.12865007 0.013556295 0.055050675 0.99598241 -0.089462318 0.0039364197 0.0019180092
0.12866175 0.013467673 0.053869303 -0.99528486 -0.09695179 0.0029167854 0.0013615811
-0.12711467 0.025219044 0.056556705 0.98277831 -0.18472113 -0.0050012707 0.0016270174
0.1271075 0.025273269 0.05542177 -0.98460829 -0.17475006 -0.0029796083 0.0011076689
-0.12493119 0.036115181 0.054005776 0.95975828 -0.28079718 0.0041312701 0.0019697382
0.12525031 0.035034064 0.055987336 -0.96872705 -0.24812569 -0.0012470939 0.0022410392
-0.12214343 0.043046277 0.057202768 0.93913651 -0.34354231 -0.0011112719 0.0019511168
-0.11984824 0.048587352 0.054846633 0.92083609 -0.38994896 -0.00088084099 0.001681266
0.12153909 0.044505306 0.056081116 -0.93544495 -0.35344094 0.0047126962 0.0010281499
-0.11655805 0.056530524 0.054990742 0.89214873 -0.45173362 -0.0027297521 0.001603946
0.1175498 0.054136246 0.054278027 -0.90471041 -0.42600775 0.0040548341 0.00089731812
-0.1132162 0.064178266 0.057537921 0.86657685 -0.4990412 -0.0015745352 0.0021727716
-0.10968643 0.069483355 0.054330602 0.85057402 -0.52585495 -0.00065265712 0.002321372
0.11241032 0.065243118 0.055527121 -0.86335367 -0.50457335 0.0051206872 0.0023870126
-0.10605144 0.074220568 0.054781459 0.82612062 -0.56347883 -0.004047906 0.0014547104
0.10667569 0.073407017 0.053246371 -0.81994349 -0.57244384 0.00083032873 0.0010100269
-0.10067499 0.081227295 0.058457613 0.77011085 -0.63790667 0.0021072873 0.001929684
-0.097496949 0.085368991 0.056515176 0.75866538 -0.65147531 0.0026253215 0.0016209959
0.096007049 0.087310657 0.053413242 -0.73424298 -0.67883557 -0.0083383489 0.0022149256
-0.091929801 0.092134185 0.055299073 0.70268661 -0.71149802 -0.0014287417 0.0023019605
-0.085728109 0.097221382 0.054878872 0.65777612 -0.75320649 -0.0032473307 0.001566823
0.085382648 0.097486451 0.054368567 -0.64397264 -0.7650342 -0.0046815206 0.0012862337
0.091425091 0.092676997 0.056051027 -0.69003701 -0.72377312 -0.0012596647 0.0022186232
-0.081425637 0.10052279 0.054575402 0.64885724 -0.76090389 -0.0030949106 0.0016542529
-0.074270509 0.1060131 0.055313367 0.56631875 -0.82416427 -0.0060223849 0.0015492835
0.069771647 0.10946521 0.050483808 -0.53156692 -0.84701169 0.0028043732 0.0022807845
0.075909071 0.10475579 0.054889612 -0.59082901 -0.80675173 0.0085248053 0.0017800813
0.080509365 0.10122585 0.058345772 -0.62723058 -0.77883184 -0.0016439857 0.00071259274
-0.065777496 0.11232668 0.053996928 0.51293755 -0.85840887 -0.00541243 0.0023989561
-0.054795988 0.11727653 0.054387666 0.42972964 -0.90295601 0.0016953264 0.0013322395
-0.048446029 0.11990677 0.057416461 0.37519893 -0.92692065 0.0066298493 0.0016901141
0.048409045 0.11992209 0.050350189 -0.36511326 -0.93095982 -0.0024648337 0.0013207356
0.054587577 0.11736285 0.055689108 -0.43294343 -0.9014203 0.0011890826 0.0014032266
0.064642325 0.11299641 0.05435415 -0.50800353 -0.86134446 -0.0042371051 0.0022869939
-0.045072041 0.12130433 0.056161795 0.35797983 -0.93372881 0.00099634053 0.0014113666
-0.036004364 0.12503833 0.053785205 0.26076013 -0.96540082 -0.0023444691 0.0019072309
-0.022769468 0.12743714 0.054876279 0.17943382 -0.98376691 0.0025055131 0.0015876093
-0.014897312 0.12847352 0.054552615 0.1194393 -0.99283659 -0.0031172249 0.00063791138
-0.0073418203 0.12946823 0.054926846 0.080097452 -0.99676973 0.0058624242 0.0020228021
0.0053971605 0.12972423 0.056386419 -0.052289605 -0.99861187 0.0063291122 0.0024381096
0.015650164 0.12837441 0.055031382 -0.12591028 -0.99203038 0.0047193612 0.0010975562
0.025519958 0.12707503 0.052854195 -0.1915724 -0.98147297 -0.0032924169 0.0016043506
0.034816656 0.12519012 0.05592585 -0.25942087 -0.96573997 0.0068579908 0.0019010586
0.043613162 0.12190863 0.05606392 -0.34271336 -0.93941337 0.0070720087 0.002018952
-0.00099866278 0.13030331 0.056739043 0.0031365664 -0.99998432 0.0046319752 0.0027069903
0.0018275916 0.13019417 0.055913523 -0.0096753659 -0.99993962 0.005209005 0.0026505736
-0.00073365995 -0.13033855 0.063895188 0.0099433158 0.99994981 -0.0011910418 0.0028716929
0.002115018 -0.13015769 0.06198252 -0.014305709 0.99989438 -0.0025672342 0.0026542002
-0.044249963 -0.12164486 0.063338995 0.34757766 0.93765092 -0.00077491667 0.0018024654
-0.03464587 -0.12536901 0.06343592 0.25852269 0.96599698 0.0039804187 0.0020490694
-0.024227902 -0.12726058 0.064447187 0.19925965 0.97994494 0.0018394535 0.0019106887
-0.015465957 -0.12840851 0.064152941 0.12453665 0.9922117 -0.0025570279 0.0011787286
-0.0058349892 -0.12967017 0.063475311 0.057747036 0.9983148 -0.0057358681 0.0019736467
0.0072130738 -0.12948954 0.064259268 -0.069527477 0.997576 0.0028447688 0.0021354677
0.016137589 -0.12832031 0.064037375 -0.13725932 0.99051654 0.0060683312 0.0013969715
0.025103521 -0.12714542 0.064635061 -0.19063184 0.98164982 -0.0048212055 0.0014586175
0.034419708 -0.12552668 0.064515494 -0.26093903 0.96532041 -0.0081997886 0.0020952779
0.043867178 -0.12180341 0.063719526 -0.34700483 0.93786329 -5.5916127e-05 0.0017523841
-0.065806046 -0.11221027 0.062716402 0.50731242 0.86174256 -0.0058229556 0.0019434621
-0.054723229 -0.11730668 0.063100107 0.43302435 0.90138161 -0.0010376411 0.0012950468
-0.049514577 -0.11946418 0.06341514 0.38151813 0.92436016 -0.0014982758 0.0015048808
0.049083553 -0.11964272 0.060704432 -0.38697672 0.92208534 -0.00275156 0.0013260548
0.055420302 -0.11701794 0.063156262 -0.42831454 0.90361297 -0.0054964148 0.00090014469
0.065720201 -0.11224822 0.065713793 -0.50346017 0.86401391 0.0028006227 0.0022451084
-0.082079276 -0.10000156 0.0628886 0.64930075 0.76052707 0.0026683281 0.0015014639
-0.074100144 -0.10612027 0.064613879 0.55401957 0.83250034 0.002357943 0.0017658825
-0.069225267 -0.10986194 0.065047324 0.52624482 0.85033208 -0.00131611 0.0022750851
0.069219187 -0.10990095 0.066882558 -0.52978379 0.84811538 0.0054317894 0.0022938873
0.074313581 -0.10600656 0.06384252 -0.57528287 0.81794477 -0.0040056892 0.0018551628
0.081223048 -0.10072548 0.065768689 -0.64382929 0.76516813 0.0012863282 0.0014924231
-0.092053987 -0.092201866 0.065020077 0.7106356 0.70355678 0.0022218332 0.0026321078
-0.085063592 -0.097725168 0.065549329 0.65614438 0.75460637 0.0066188728 0.0016778491
0.086887404 -0.096395187 0.062369864 -0.67199981 0.7405085 -0.007967161 0.0021739549
0.092123009 -0.092167109 0.064138748 -0.70269561 0.71148074 0.0037444551 0.0026860822
-0.10049963 -0.081442177 0.066231631 0.76447487 0.64465338 -0.00041840944 0.0013901722
-0.096756883 -0.086326003 0.064559095 0.74736357 0.66439778 -0.0048313988 0.0021343948
0.096133076 -0.087146409 0.066144973 -0.73665553 0.6762377 0.0064264429 0.0026603483
0.10108256 -0.080696113 0.063373297 -0.76948887 0.63865787 0.0017437189 0.0013491173
-0.10629665 -0.073877797 0.065227516 0.82505584 0.56500113 -0.0075185485 0.0015363083
0.1047226 -0.075952329 0.062428478 -0.80731356 0.59011251 0.0034652129 0.001590043
-0.1131542 -0.06421455 0.064377241 0.86428726 0.50283891 -0.012673784 0.0021079886
-0.10989237 -0.069185838 0.064977184 0.85439169 0.51957893 -0.0072511891 0.0021919692
0.10993693 -0.069156885 0.061659031 -0.85054141 0.52589869 -0.0031335973 0.0024438694
0.11241851 -0.065354206 0.065244034 -0.86373371 0.50381535 0.011584026 0.0020307021
-0.11713897 -0.055070754 0.063772358 0.9019565 0.43182039 0.0023761231 0.0010656727
0.11810458 -0.052796859 0.064851873 -0.9160583 0.40102735 0.0037805762 0.0019275779
-0.1218307 -0.043801244 0.063688919 0.93000007 0.36755568 0.0016570414 0.0013325555
-0.11951577 -0.049389914 0.06765826 0.92374271 0.38296056 0.0063703498 0.0015914843
0.11983311 -0.04842563 0.068829827 -0.92672253 0.37572008 0.0044466956 0.0010307928
0.12139865 -0.044696521 0.066022389 -0.93134266 0.3641395 0.0018259661 0.0013626922
-0.12556402 -0.03414112 0.06406828 0.96936333 0.24540482 -0.010544537 0.0019596186
0.12514912 -0.035651941 0.064407483 -0.96343988 0.26790169 -0.0035051901 0.0018546764
-0.12749697 -0.022314964 0.067625999 0.98477155 0.17384334 -0.0018521956 0.0018508865
0.1272167 -0.024443969 0.065477513 -0.97941965 0.20179698 0.0038815066 0.0018714084
-0.12852846 -0.014479905 0.063416407 0.99602062 0.088960074 0.0053911922 0.0016480467
0.12855077 -0.014310512 0.066294506 -0.99437511 0.10591384 -0.00049974833 0.0011530239
-0.13025984 -0.0013288533 0.066723786 0.99988937 0.0087729646 0.012009691 0.0027189506
-0.12980406 -0.0047908709 0.066891454 0.99887681 0.046996791 0.0060341149 0.0024757723
0.12965821 -0.0058986964 0.06605573 -0.99920934 0.039719738 -0.001765042 0.0022866668
0.13009787 -0.002559118 0.065567479 -0.99996257 0.0085177748 0.0015654439 0.0027896992
-0.13009869 0.0025529501 0.064040415 0.99992317 -0.0094007496 0.0080814334 0.0025149044
-0.12955177 0.0067071505 0.067559347 0.99865544 -0.051011018 0.0092214728 0.0025833249
0.12947389 0.0072986796 0.065674461 -0.99763274 -0.068759367 0.0010107788 0.0019862275
0.13021687 0.0016551659 0.061979167 -0.99989641 -0.014308561 -0.0015858578 0.0025957772
-0.12844348 0.015125501 0.064247526 0.99230343 -0.12382692 -0.00085570756 0.001895599
0.12858726 0.014033403 0.064620487 -0.9947114 -0.10270384 0.0010622726 0.0010802069
-0.12709919 0.025336582 0.064977251 0.98135519 -0.19215673 -0.004217837 0.0016943594
0.12731402 0.023704672 0.064027332 -0.9866668 -0.16275223 -0.00062962441 0.0013549268
-0.1250881 0.035719056 0.061073426 0.96119601 -0.27586487 0.00092776673 0.0019166815
0.12579755 0.033490997 0.067914538 -0.96552771 -0.26029214 0.0020655307 0.0020005198
-0.12276469 0.04154643 0.066376865 0.9438166 -0.33038369 0.0075470028 0.0016112872
-0.11966695 0.049025014 0.066212334 0.92618579 -0.37706727 -0.0004207606 0.0015885727
0.12151466 0.044564247 0.063858598 -0.93538266 -0.35359472 -0.0054871128 0.0011776346
-0.11749206 0.054275643 0.067050382 0.90171802 -0.4323214 0.0017035975 0.00096137251
0.11670204 0.056182906 0.065414093 -0.89756715 -0.44084069 -0.0057071405 0.0016236962
-0.11327313 0.064087555 0.064154603 0.86528641 -0.50126421 0.0037029327 0.0024692004
0.10986985 0.069244295 0.06385383 -0.85037792 -0.52605772 -0.01098791 0.0024041447
0.11197463 0.066405602 0.065831535 -0.86201292 -0.50676578 -0.011051738 0.0022290247
-0.10639555 0.073772117 0.066624127 0.82797325 -0.56076688 0.00091401068 0.0014506953
0.10548932 0.074953124 0.065024488 -0.80500847 -0.59325862 0.0023565176 0.0014513289
-0.10126878 0.080453441 0.064014681 0.77355671 -0.63371837 0.003338964 0.0017757615
-0.097547129 0.08530359 0.061503917 0.75659305 -0.65386248 -0.0055387053 0.0016122537
0.097753942 0.08503405 0.065559752 -0.74824065 -0.66340363 0.0056130481 0.0019011154
-0.091877185 0.092274092 0.063577637 0.70212692 -0.71204877 -0.0020583086 0.0022772152
-0.086338192 0.09675324 0.064057656 0.66790742 -0.74422246 -0.0057100696 0.001768969
0.086137064 0.096907564 0.063067533 -0.65939349 -0.75178397 -0.0045951493 0.0018091106
0.092473231 0.09170261 0.065941796 -0.71127915 -0.70290601 -0.0022856991 0.0022305148
-0.081267349 0.10064424 0.068377905 0.64208895 -0.76662219 -0.0034914492 0.0019345655
-0.074316017 0.10597819 0.066349648 0.57433707 -0.81861871 0.00052821409 0.0011473091
