# .PCD v0.7 - Point Cloud Data file format
VERSION 0.7
FIELDS x y z normal_x normal_y normal_z curvature
SIZE 4 4 4 4 4 4 4
TYPE F F F F F F F
COUNT 1 1 1 1 1 1 1
WIDTH 559
HEIGHT 1
VIEWPOINT 0 0 0 1 0 0 0
POINTS 559
DATA ascii
0.11428339 0.034158215 -0.28474736 -0.96067274 -0.27765864 0.0036886139 0.0019943779
-0.11090603 0.042318463 -0.28570732 0.92744654 -0.37394089 -0.0033490057 0.0020786051
-0.10870183 0.047639914 -0.28464961 0.91466677 -0.40420306 -0.0021673292 0.0014977228
0.10946167 0.045805495 -0.28403875 -0.91548389 -0.40231192 0.0058591822 0.0016358794
0.11068072 0.042862434 -0.28360394 -0.92871469 -0.37078664 0.0025188557 0.0022791568
-0.10593015 0.054331299 -0.28477654 0.88283432 -0.46968457 0.00014670615 0.001758086
0.10599887 0.054165427 -0.28324744 -0.88374847 -0.46784696 0.010386238 0.0018637943
-0.10157393 0.062544003 -0.28111547 0.84763789 -0.53054255 0.0058807186 0.0020081189
-0.097763479 0.067509882 -0.28463176 0.82704729 -0.56210166 0.0058868127 0.0023838696
0.097249471 0.068179742 -0.28841716 -0.82693309 -0.56229883 -0.0013524886 0.0027130207
0.10177369 0.062283665 -0.28554803 -0.84708971 -0.53144658 -0.0018899373 0.0020913468
-0.092006765 0.075012147 -0.28606331 0.76600683 -0.64283228 -0.00037263476 0.0020421504
-0.089520171 0.07825271 -0.28892577 0.76333129 -0.64600676 -0.00073621178 0.0021586712
0.089467809 0.07832098 -0.28544056 -0.75153148 -0.65968716 0.0036510478 0.0026658461
0.092916317 0.073826812 -0.28551158 -0.76833236 -0.64003998 -0.0037804844 0.0019000062
-0.083432481 0.085241482 -0.28421843 0.69825822 -0.71583027 0.0047435751 0.0023360134
-0.078065827 0.089663595 -0.28691921 0.65914232 -0.75200802 -0.0039164848 0.0023602704
0.078615993 0.089241438 -0.28616625 -0.66782171 -0.74431247 -0.0036345415 0.0024383289
0.084737852 0.084083356 -0.28409281 -0.70379704 -0.7103976 0.002227054 0.0025137626
-0.073854193 0.092895284 -0.28591567 0.62930143 -0.77715862 -0.002042359 0.0017243552
-0.067176647 0.09801916 -0.28298262 0.54197776 -0.84039271 -0.00044170971 0.00238878
0.067301676 0.097923234 -0.28583503 -0.55415946 -0.83240795 0.0020941645 0.0024186398
0.072845861 0.093669027 -0.28573743 -0.62646461 -0.77944982 -0.00026074902 0.0021703029
-0.061769601 0.10216814 -0.28669897 0.51188982 -0.85904986 -0.0014784336 0.0025179938
-0.053937681 0.10609321 -0.28584683 0.46238595 -0.88667166 -0.0035264189 0.002212096
-0.047902599 0.10859302 -0.28509095 0.41311458 -0.91067904 -3.0280455e-06 0.0017179791
0.048759684 0.108238 -0.2839154 -0.41198537 -0.9111827 0.0037750422 0.0021403406
0.054322675 0.10593373 -0.28332821 -0.47646391 -0.87919372 0.00065163505 0.0017509341
0.062620051 0.10151558 -0.28554794 -0.52342486 -0.85206199 0.0041039945 0.0018818683
-0.042603705 0.1107879 -0.28341484 0.3565723 -0.9342581 -0.0042510815 0.0026086196
-0.034767907 0.11399686 -0.28484255 0.29950428 -0.95408607 -0.00412782 0.0018337819
-0.027117735 0.11611217 -0.2832168 0.23611209 -0.971708 0.0058801523 0.0018451938
-0.014932537 0.11771638 -0.28699398 0.1626668 -0.98667979 -0.0016404665 0.0019817383
-0.0032607212 0.11925299 -0.28331009 0.0098128933 -0.9999252 0.0072991359 0.0022686138
0.0057881055 0.11892026 -0.28421268 -0.053413734 -0.99849594 0.012364516 0.0019067767
0.01620283 0.11754915 -0.28569707 -0.16641925 -0.98605245 -0.0022790274 0.0019490555
0.02357167 0.11657903 -0.28391463 -0.20817204 -0.97809225 0.00019030472 0.0024636746
0.034222711 0.11425942 -0.2846199 -0.27798137 -0.96055889 0.0072821365 0.0019667929
0.043773282 0.11030344 -0.28267071 -0.38322571 -0.92363739 0.0056599583 0.0023155226
-0.0423939 -0.11087479 -0.27593577 0.37223521 0.92813569 -0.0022557373 0.0023578333
-0.034811787 -0.11401541 -0.27431199 0.29364622 0.95589411 -0.0061908402 0.001758288
-0.025399843 -0.11633833 -0.27399921 0.21245086 0.97716719 0.0029610461 0.0020397075
-0.014028785 -0.11783534 -0.27397633 0.148304 0.98893547 0.0035250287 0.0012543518
-0.004796898 -0.11905074 -0.27501696 0.022069063 0.99975324 0.0025373506 0.0022082732
0.0039825938 -0.11915795 -0.27613327 -0.029137848 0.99956203 -0.0051645935 0.0020028579
0.019571593 -0.11710563 -0.27132133 -0.18617196 0.98251545 0.0018293099 0.0022078108
0.025900746 -0.11627239 -0.27533203 -0.22653849 0.97399437 -0.0039125802 0.0016634513
0.035204869 -0.11384529 -0.27460048 -0.30650583 0.95186841 0.00084952672 0.001399558
0.041376226 -0.11129633 -0.27619886 -0.35183051 0.93606043 -0.0024643443 0.0023156246
-0.062315822 -0.10174902 -0.27716962 0.53281015 0.84621584 -0.0056548943 0.0021846138
-0.055206355 -0.1055677 -0.27521035 0.48194119 0.87619519 -0.0038331868 0.0021381509
-0.048299946 -0.10842843 -0.27581733 0.41371337 0.91038108 -0.0068945857 0.0016975239
0.046187464 -0.10930344 -0.27222222 -0.38549167 0.92270869 -0.0022040976 0.0017129906
0.05478723 -0.10574131 -0.27471334 -0.47542378 0.87974244 -0.0050384891 0.0018932924
0.061134439 -0.10265554 -0.27444711 -0.5077759 0.86148173 -0.003578634 0.0021908458
-0.072308823 -0.094081089 -0.27624699 0.60502887 0.79617816 -0.0063661085 0.0022842549
-0.066896431 -0.098234184 -0.27651882 0.55622298 0.83102584 -0.0034705529 0.001724105
0.066715688 -0.098372877 -0.27418196 -0.54228139 0.84019339 0.0024327214 0.0023551367
0.073062867 -0.093502492 -0.2752707 -0.62459046 0.78094822 -0.0025870893 0.0018916954
-0.084968723 -0.083743319 -0.27529523 0.70866722 0.7055428 0.00043427167 0.0024212271
-0.078802899 -0.089098006 -0.2749387 0.67564988 0.7372213 -0.001363757 0.0021266516
0.077869877 -0.089813948 -0.27014312 -0.65402925 0.75646102 0.0035242264 0.0025922433
0.084729277 -0.083968177 -0.27522463 -0.7152009 0.698919 8.7582426e-05 0.0020705783
-0.092153519 -0.074820876 -0.2755987 0.76453823 0.64456433 0.0042645917 0.0018436151
-0.089718975 -0.077993624 -0.27517948 0.75766897 0.65262341 0.0045245374 0.001690448
0.092481591 -0.074393339 -0.2750375 -0.77244437 0.63498294 -0.011235427 0.0018259964
-0.10160889 -0.062498439 -0.27464944 0.85892689 0.51209408 -0.0020319757 0.0024546932
-0.097411871 -0.067968085 -0.27397364 0.81994033 0.572429 0.0047766278 0.0024971955
0.097418129 -0.067959912 -0.27553105 -0.81804097 0.57515627 -0.0020762961 0.0025771188
0.10118791 -0.063047074 -0.27430296 -0.84999639 0.52674401 0.0068436046 0.0025456306
-0.10576086 -0.054740012 -0.27675998 0.87952018 0.4758583 -0.0017815809 0.0019756528
0.10579313 -0.05466212 -0.2748 -0.88341534 0.46856335 -0.0050644479 0.0016623547
-0.11102299 -0.042036138 -0.27448693 0.93390685 0.357418 0.0083861127 0.0022059185
-0.10909599 -0.046688296 -0.27350426 0.91658968 0.39982468 -0.0018927677 0.0017780184
0.1092784 -0.046247963 -0.2720626 -0.91840577 0.39563647 0.0016120481 0.0013722561
0.11021301 -0.043991566 -0.27135521 -0.9248457 0.38033712 0.0020486929 0.0020979657
-0.11353838 -0.035963412 -0.27599254 0.94834787 0.31715971 -0.0067929793 0.0018799705
0.11272079 -0.037937261 -0.27483705 -0.94649941 0.32270351 0.0011682876 0.002060296
-0.11629006 -0.025766438 -0.27495953 0.97388226 0.22704244 0.0022501191 0.0015802791
0.11634896 -0.025319185 -0.27380219 -0.97790354 0.20903641 0.0029279219 0.0018556198
-0.11773356 -0.014801922 -0.27560267 0.9905175 0.13738476 -0.00079377496 0.0021044603
0.11773118 -0.014820036 -0.27433601 -0.99218762 0.12474277 -0.0017141886 0.0016279025
-0.11909335 -0.0044733104 -0.27393189 0.99955088 0.02964809 -0.0043630279 0.0017629019
0.1190835 -0.0045481478 -0.27472207 -0.99959379 0.028277718 0.0035473197 0.0019062512
-0.11904545 0.0048370697 -0.27675074 0.99968213 -0.025124013 -0.0021171565 0.0017949095
0.1192136 0.0035598427 -0.27663389 -0.9996891 -0.024559703 -0.0042934064 0.001971439
-0.11798048 0.012926397 -0.27291584 0.99361902 -0.11278809 0.00039115452 0.0024912967
0.11792284 0.013364306 -0.27709138 -0.99360526 -0.11290942 -0.00035467741 0.0026721931
-0.11648437 0.024290532 -0.27481416 0.97733665 -0.21168683 -0.001370626 0.0019426674
0.11616357 0.026727252 -0.27413246 -0.97190255 -0.23531376 0.00573288 0.0016398409
-0.11393216 0.034937169 -0.27536193 0.95673352 -0.29093811 0.0039927606 0.001505234
0.1135482 0.035939753 -0.27421227 -0.95065731 -0.31021139 -0.0044317311 0.0020050425
-0.11107792 0.041903518 -0.27453953 0.93671781 -0.35008433 -0.00086267246 0.0025528101
-0.10835951 0.048466332 -0.27467197 0.9102658 -0.41402432 2.884206e-05 0.0018566578
0.10917646 0.046494041 -0.27379245 -0.91895229 -0.3943603 -0.0025929145 0.0016683898
0.11092831 0.0422647 -0.27454233 -0.93944341 -0.34269935 -0.0017750962 0.0023793261
-0.10512281 0.056280397 -0.2785106 0.87718517 -0.48013324 0.0042811153 0.0018564995
0.10519326 0.056110345 -0.27463639 -0.87420326 -0.48556006 0.00017411995 0.0022989423
-0.10143922 0.062719584 -0.27384391 0.84802884 -0.52994633 0.001985983 0.0020332746
-0.098008923 0.067189999 -0.27330336 0.83086771 -0.5564698 -0.00047824453 0.002452431
0.097610563 0.067709163 -0.27541032 -0.83114249 -0.55604094 -0.0045430125 0.0024453981
0.10159252 0.062519781 -0.27578962 -0.85268557 -0.52241915 -0.0023649142 0.0025280402
-0.094089203 0.072298259 -0.27545536 0.80086339 -0.59881592 0.0061067818 0.0016724223
-0.089736938 0.077970229 -0.27341151 0.74821889 -0.66341454 0.007047235 0.0015593063
0.088977963 0.078959361 -0.27265543 -0.74368584 -0.66850418 -0.0058003203 0.0023542608
0.093668193 0.072846942 -0.2754004 -0.77682042 -0.62970752 -0.0043007825 0.0015366565
-0.085596777 0.083134733 -0.2768316 0.71884328 -0.69517165 -0.00082557212 0.0023181546
-0.078988999 0.088955201 -0.27446851 0.66662842 -0.74538964 0.00089193572 0.0018453149
0.078451693 0.089367509 -0.27372018 -0.66137528 -0.75005454 -0.00094271655 0.0021929001
0.084261961 0.084468417 -0.27326697 -0.70676154 -0.70744801 0.0023142828 0.0022359116
-0.072260641 0.094118066 -0.27676421 0.60612768 -0.79536653 0.001182388 0.0025166459
-0.066213019 0.098758586 -0.27398038 0.54214269 -0.84028411 -0.0019693577 0.0018808203
0.068551637 0.096964106 -0.27444503 -0.5672403 -0.82355189 0.00081891386 0.0027944164
0.074620381 0.092307381 -0.27353856 -0.64246988 -0.76630038 0.0040165903 0.0018443348
-0.062519819 0.10159249 -0.27541071 0.51814008 -0.85528594 -0.0041118721 0.0022761056
-0.054805286 0.10573383 -0.27370617 0.47811434 -0.87829608 -0.0016091329 0.0018048814
-0.047467817 0.10877311 -0.27408579 0.41463745 -0.90998226 0.0028493358 0.0018526419
0.047821157 0.10862676 -0.27197826 -0.40003046 -0.91649431 0.003715873 0.0015232592
0.054554634 0.10583766 -0.27467272 -0.47289431 -0.88111651 0.0021557806 0.0020559547
0.062997438 0.10122599 -0.27370429 -0.53646308 -0.8439014 0.0061567458 0.0019751866
-0.041739464 0.11114588 -0.2752597 0.35960123 -0.93308067 0.0068953405 0.0023179378
-0.036802866 0.11319069 -0.274508 0.31349963 -0.94955128 0.0083956281 0.0018942094
-0.023964673 0.11652729 -0.27413762 0.21138202 -0.97738618 0.0058145276 0.0020233169
-0.015305371 0.1176673 -0.27524319 0.14166582 -0.98991448 -0.00029736079 0.0023060052
-0.0042803753 0.11911876 -0.27484342 0.02082685 -0.99969327 0.013401855 0.0022718834
0.0041145021 0.11914059 -0.27388591 -0.032882914 -0.99943984 0.0062276968 0.002106294
0.014070474 0.11782987 -0.27411312 -0.11750735 -0.99306846 -0.002645012 0.0022831666
0.023893667 0.11653663 -0.27395001 -0.19805717 -0.9801721 0.0060043186 0.0024392402
0.034718025 0.11405224 -0.27438399 -0.28463882 -0.95862412 -0.0045404481 0.0020286569
0.043926887 0.11023982 -0.27945152 -0.38007528 -0.9249534 -0.0019937379 0.0021573226
-0.040777076 -0.11154449 -0.26552594 0.34857437 0.93717349 -0.01420443 0.0027863395
-0.03400065 -0.11433697 -0.26366186 0.29672933 0.95495218 -0.0042332155 0.0015971614
-0.023639727 -0.11657006 -0.26458946 0.21274976 0.97710609 0.0011067678 0.0019592878
-0.014828301 -0.11773009 -0.26511794 0.14259036 0.9897806 -0.0015250024 0.0012980042
-0.004162793 -0.11913422 -0.26533836 0.012088227 0.99991387 -0.0051063756 0.0023659086
0.0063229841 -0.11884984 -0.26453453 -0.067590326 0.99769491 0.00603496 0.0017320778
0.016848056 -0.11746418 -0.26344833 -0.15782681 0.98746455 0.0021299876 0.0017712561
0.025264114 -0.11635621 -0.26355618 -0.21705866 0.97615844 -0.00042534768 0.0020733248
0.034738667 -0.11401229 -0.26526722 -0.29094258 0.9567157 0.0068946593 0.0021277722
0.041989498 -0.1110423 -0.26667586 -0.36266181 0.93192083 0.00030131816 0.0020460929
-0.06287916 -0.10131675 -0.2655687 0.53184271 0.84683925 -0.002587483 0.0022193082
-0.054404251 -0.10589994 -0.26491332 0.47914943 0.87769234 -0.0084913075 0.0019093141
-0.048184849 -0.1084761 -0.26701987 0.41649699 0.90913558 -0.0016537793 0.002175556
0.047173526 -0.108895 -0.26303884 -0.38605443 0.92247599 0.00030799501 0.0017406222
0.053792238 -0.10615344 -0.26629639 -0.47467795 0.88015217 -0.0036133013 0.002161121
0.061819132 -0.10213014 -0.26678383 -0.51127064 0.8594116 -0.003745809 0.0023315041
-0.073416799 -0.093230918 -0.26410323 0.62911808 0.77727294 0.0075665792 0.0024126705
-0.067378022 -0.097864643 -0.26565975 0.55384648 0.83261651 0.0019197505 0.0023882312
0.067281649 -0.097938597 -0.2659114 -0.55487925 0.83193094 -7.1177324e-06 0.0018131098
0.073821776 -0.092920169 -0.26484069 -0.63096398 0.77578992 -0.0058679353 0.0017952838
-0.083049841 -0.085486308 -0.26294658 0.69552082 0.71847713 0.0064340532 0.0020517805
-0.077935383 -0.089763671 -0.26569718 0.65605038 0.75471336 0.0023694916 0.0019132413
0.077820837 -0.089851573 -0.26459441 -0.63912636 0.76910174 -7.0133574e-06 0.0017946099
0.083888687 -0.084934041 -0.26610833 -0.71122426 0.70293206 0.0068224482 0.0022748632
-0.092612378 -0.074222885 -0.2656925 0.76788652 0.64057243 -0.0041591544 0.0019044573
-0.08914765 -0.078738198 -0.26930097 0.74341983 0.66881049 -0.0044014305 0.0017899456
0.091759488 -0.075334407 -0.26492661 -0.76468003 0.644373 0.0069219475 0.0018049084
-0.10108148 -0.063185759 -0.26767287 0.85163784 0.5241273 0.0018647573 0.0024869451
-0.096912175 -0.068619296 -0.26413649 0.80661905 0.59106064 0.0036017131 0.0024282502
0.098577701 -0.06644877 -0.26577386 -0.84461856 0.53535372 -0.0039905799 0.0020843914
0.10222611 -0.061694067 -0.26529747 -0.86229116 0.50631237 -0.010090065 0.0024343664
-0.10505805 -0.05643674 -0.26372713 0.8708508 0.49150598 0.0063824588 0.0022442436
0.10604604 -0.054051552 -0.2647326 -0.88543218 0.46476394 -0.0020701569 0.0016159192
-0.11111351 -0.041817568 -0.26187569 0.93980038 0.3417055 0.0035413038 0.0017264185
-0.10880946 -0.047380053 -0.26517835 0.91490561 0.40363961 -0.004765267 0.0014662074
0.10839646 -0.048377126 -0.26569244 -0.91435218 0.40491596 0.0017969997 0.0015988448
0.11083373 -0.042493053 -0.26414791 -0.93484348 0.35506007 -6.8597212e-05 0.002017661
-0.11334341 -0.03643414 -0.26572797 0.94782609 0.31878182 -0.0019350232 0.0022317199
0.11362775 -0.035747662 -0.26415184 -0.95106131 0.3089996 0.0012606655 0.0017268228
-0.11632258 -0.025519427 -0.26706555 0.97292185 0.23111491 0.0030033998 0.0017739215
0.11645606 -0.024505602 -0.26616848 -0.97664291 0.21468829 -0.0088064456 0.0018344299
-0.1177576 -0.014619392 -0.2642203 0.99117297 0.13246413 0.005415401 0.0022948312
0.11760112 -0.015807951 -0.26534167 -0.98653483 0.16348556 -0.0046409317 0.0018594515
-0.1189154 -0.0058249016 -0.26431569 0.99914539 0.040596712 0.0077751558 0.0014233587
0.11903635 -0.0049062292 -0.26675004 -0.99965721 0.0260433 -0.0026919283 0.0021840329
-0.11894927 0.0055675316 -0.26487005 0.99906439 -0.043174267 0.0025218455 0.0015883311
0.11928198 0.0030406243 -0.26584202 -0.99998981 -0.0039697178 -0.002137617 0.0024876331
-0.1175471 0.016218256 -0.26609796 0.98691738 -0.16121779 -0.0017243375 0.0018744916
0.11762862 0.015599161 -0.26486331 -0.98830628 -0.15244679 0.003253537 0.0015216024
-0.11639473 0.024971439 -0.26487589 0.97381753 -0.2273078 0.0032541917 0.0015959439
0.11662283 0.023238797 -0.26538029 -0.98052859 -0.19622201 -0.0077877264 0.0024406717
-0.11352177 0.035961889 -0.26664817 0.95358109 -0.30105102 -0.0071732402 0.0018388177
0.11399929 0.034810163 -0.26463366 -0.95581192 -0.29397887 -0.00018824621 0.0015813258
-0.11081683 0.042533834 -0.26418176 0.92940235 -0.36902601 0.0055847117 0.0019671049
-0.10911038 0.046653584 -0.26371393 0.92067528 -0.39032927 6.3262094e-05 0.0015938637
0.10914369 0.046573155 -0.26500049 -0.91666532 -0.39964622 -0.0027719077 0.0016530394
0.11074913 0.04269731 -0.26251012 -0.93305355 -0.35973588 -0.0011154216 0.00272752
-0.10626732 0.053512096 -0.2631382 0.88642293 -0.46287045 0.0022960822 0.0017252603
0.10495853 0.056677017 -0.26516443 -0.86976939 -0.49336621 -0.009541532 0.0021037217
-0.10187771 0.062148113 -0.26459727 0.8523984 -0.52289206 -0.0009561613 0.0023396756
-0.098631568 0.066378556 -0.2655243 0.84475154 -0.53513753 -0.0047685723 0.0020721341
0.097841762 0.067407861 -0.26463458 -0.83395386 -0.55183011 -0.0021085031 0.0020855218
0.1017117 0.062364459 -0.26700979 -0.85434061 -0.51968497 -0.0054418738 0.002405978
-0.092640363 0.074186414 -0.26446158 0.77408922 -0.63300645 -0.0094162021 0.0018550563
-0.089190245 0.078682683 -0.26422763 0.73957324 -0.67305517 -0.0053020404 0.0015908467
0.088826045 0.079157338 -0.26555589 -0.74418604 -0.66797072 0.0014946 0.0021110964
0.092119984 0.074864596 -0.26394552 -0.76652902 -0.6421991 0.0036737118 0.0014905866
-0.084475547 0.084210552 -0.26395345 0.70858103 -0.70562333 -0.0029185659 0.0023716053
0.082163848 0.086441234 -0.26481226 -0.68844813 -0.72528297 0.0019470884 0.001969076
-0.072850987 0.093665086 -0.26524842 0.61773753 -0.78626221 -0.013863209 0.0024622318
-0.068307929 0.097151101 -0.26414099 0.58344126 -0.8121022 -0.0092864567 0.0021678098
0.06685432 0.098266497 -0.26739052 -0.56289262 -0.82652217 0.0036125411 0.0027978546
0.074310631 0.092545062 -0.26557395 -0.63781452 -0.77018249 0.0034037081 0.0017735729
-0.061561938 0.1023275 -0.26085678 0.51111442 -0.85951132 0.0014879359 0.0021209295
-0.05398488 0.10607366 -0.26570398 0.45640337 -0.88976896 -0.0026797743 0.0013294854
-0.047223147 0.10887446 -0.26428914 0.40973222 -0.91219944 0.0034136525 0.0019016707
0.046734959 0.10907666 -0.26454332 -0.39971921 -0.91663355 0.0027331701 0.0014585436
0.055809438 0.10531507 -0.26516408 -0.48237237 -0.87596202 -0.0027353906 0.0021239279
0.0634702 0.10086324 -0.262909 -0.52989823 -0.84805673 0.0027344625 0.0021841994
-0.04112938 0.11139859 -0.2622948 0.34126207 -0.93996763 0.0010150939 0.002342555
-0.0360725 0.11348789 -0.26454639 0.31391719 -0.94945002 -0.00084714766 0.0018026856
-0.0252511 0.11635792 -0.26573518 0.22145411 -0.97515106 0.0061949785 0.0017402221
-0.01350147 0.11790478 -0.26614451 0.11309671 -0.99354118 0.0092176031 0.0026962135
-0.0044911057 0.11909102 -0.2678819 0.030752137 -0.99950475 -0.0066776313 0.0021559179
0.0068948278 0.11877456 -0.26467711 -0.087835416 -0.99610716 -0.0074469638 0.0023161112
0.014382884 0.11778874 -0.2652508 -0.13651055 -0.99061316 -0.0070995688 0.0020722128
0.026682472 0.11616948 -0.26534718 -0.23173223 -0.97277737 -0.0021112759 0.0016222605
0.03549822 0.11373109 -0.26546058 -0.28372848 -0.95890355 -0.0014246411 0.0019222966
0.041732322 0.11114883 -0.26545888 -0.35742965 -0.93392491 0.0053286669 0.0027961968
-0.040271197 -0.11175404 -0.25632951 0.3407672 0.94014764 -0.00038661767 0.0025717381
-0.033606928 -0.11450358 -0.25544026 0.2675803 0.96352512 -0.0044805175 0.0021107607
-0.024264125 -0.11648784 -0.25438759 0.21350177 0.97694165 -0.0014201339 0.0019149791
-0.014571306 -0.11776391 -0.25567415 0.14809874 0.98897237 -0.00065340183 0.0015985871
-0.0055359518 -0.11895344 -0.25476712 0.038244233 0.99926734 0.0014596843 0.002347026
0.0033669027 -0.119239 -0.25590158 -0.010371823 0.99993718 -0.0042481208 0.0023801348
0.015467694 -0.1176459 -0.25367832 -0.14828683 0.98894435 -0.00024514578 0.0016986714
0.024088945 -0.11651091 -0.2557579 -0.20271683 0.97921491 0.0066330326 0.0024022993
0.03563628 -0.11364836 -0.25399756 -0.31273103 0.94984001 -0.0018070261 0.0016317088
0.042539526 -0.11081447 -0.2533029 -0.34471831 0.93870288 0.0024795067 0.0022453791
-0.064363778 -0.10017756 -0.25326228 0.53036189 0.8477698 0.0016495751 0.0020245989
-0.05462943 -0.10580666 -0.25459909 0.46864057 0.88333082 -0.010136251 0.0017580098
-0.047628596 -0.10870651 -0.25446197 0.4145858 0.90995902 -0.0096555697 0.0024171704
0.046095688 -0.10934146 -0.25530046 -0.39025226 0.92070776 0.00065356877 0.0013627916
0.053341918 -0.10633997 -0.25443599 -0.45920512 0.88832986 0.00084846286 0.0016725406
0.061779808 -0.10216032 -0.25320849 -0.51653343 0.85625684 0.0041805576 0.0022503608
-0.073036291 -0.093522884 -0.25380933 0.61703765 0.78693074 0.0021241927 0.0022695523
-0.065956391 -0.098955497 -0.25533068 0.53422201 0.84533423 -0.0041172244 0.0018329871
0.066991143 -0.098161511 -0.25598603 -0.56057924 0.82809746 -0.0023498833 0.0023979817
0.073480718 -0.093181871 -0.25548854 -0.62732339 0.77875888 3.1123152e-05 0.0018978135
-0.083322309 -0.085403994 -0.25509343 0.69724655 0.7168299 0.0014576083 0.0022198786
-0.078076802 -0.089655161 -0.25778717 0.66296637 0.74864793 0.00140112 0.0025876549
0.078298077 -0.08948537 -0.25637224 -0.66587281 0.74605125 -0.0045671607 0.0019891921
0.084816746 -0.083890676 -0.25627974 -0.71331227 0.70082039 -0.0060332492 0.0023135487
-0.092301518 -0.074628025 -0.25436646 0.76266301 0.64677638 0.0050459364 0.0016099685
-0.088708766 -0.079310156 -0.25437891 0.75596797 0.65460539 0.0020520024 0.0021197484
0.088796109 -0.079196341 -0.25662881 -0.74163127 0.67079443 0.0042191679 0.0019401871
0.092992403 -0.073727615 -0.25580743 -0.76960319 0.63849574 0.005849313 0.002089031
-0.10179564 -0.062255055 -0.25619292 0.85607886 0.51684105 -0.0020762559 0.0023141883
-0.097466484 -0.067896903 -0.25393963 0.82180774 0.56971586 0.0074722222 0.002264916
0.097674266 -0.067626134 -0.25431761 -0.82326561 0.56763029 0.0054521202 0.0022138013
0.10125288 -0.062962413 -0.25204703 -0.85302156 0.5218147 0.0079760076 0.0021983329
-0.10537176 -0.055679396 -0.25384936 0.87440401 0.48519692 0.0012472181 0.0021779726
0.10524198 -0.055992704 -0.25561112 -0.87837619 0.4779171 0.0071054329 0.0019686348
-0.11104661 -0.041979097 -0.25569943 0.93774056 0.34726429 -0.0070868968 0.002448712
-0.10893324 -0.047081217 -0.25486279 0.91473114 0.40406305 -0.00020666041 0.0014627114
0.10867144 -0.047713254 -0.25286454 -0.91425437 0.40512732 0.003297149 0.0013964328
0.11094227 -0.042231012 -0.25494263 -0.93600935 0.35179707 0.011195561 0.0025783924
-0.1140866 -0.034639895 -0.25509372 0.95758474 0.28813988 -0.002618497 0.0015910148
0.11351771 -0.036004603 -0.25581697 -0.94768941 0.31911755 0.006977974 0.0017705051
-0.11640478 -0.024895104 -0.25463238 0.97350478 0.22862437 -0.0043918728 0.0016575586
0.11638696 -0.025030496 -0.25444084 -0.97562659 0.21937346 0.0052900403 0.0019625113
-0.1176491 -0.015443509 -0.2549704 0.99043822 0.13793132 0.0026591909 0.0023792016
0.11752816 -0.016362194 -0.25628188 -0.98619306 0.16558225 0.0023981684 0.0016191236
-0.11902814 -0.0049686315 -0.25583714 0.99955994 0.029462721 -0.0034447694 0.0019401021
0.11906186 -0.0047124084 -0.2550469 -0.99976617 0.02110989 0.0046921032 0.0021297222
-0.11902463 0.0049952022 -0.25569785 0.99923301 -0.039082639 -0.0024352376 0.0015600598
0.11912973 0.0041969111 -0.25381067 -0.99981797 -0.01897246 0.0020389548 0.0021572628
-0.11784906 0.013924605 -0.25341988 0.99345785 -0.11414738 0.0034360113 0.0026387214
0.11778058 0.014444804 -0.25558561 -0.98860979 -0.15039641 0.0056229751 0.0012811879
-0.1165466 0.023817874 -0.25467756 0.97742039 -0.21130407 2.8968545e-05 0.0019674564
0.11649761 0.024190007 -0.25595278 -0.97815794 -0.20785664 0.0016233018 0.0021713458
-0.11365148 0.035667017 -0.25443786 0.94971144 -0.31303442 0.0075950595 0.0020829532
0.11345544 0.036124509 -0.25443953 -0.94972646 -0.31300712 -0.0067983703 0.0019212541
-0.11100524 0.042078972 -0.25329053 0.9378618 -0.34693259 0.0072815111 0.002687355
-0.10871489 0.047608357 -0.2560946 0.91522378 -0.40294206 -0.0017782446 0.001556377
0.108455 0.048235808 -0.25567487 -0.91075307 -0.41295135 -0.00026493214 0.0021309801
0.11040328 0.043532219 -0.25282708 -0.92634308 -0.3766661 0.0033454436 0.0023478479
-0.10558107 0.055174068 -0.25362593 0.87695235 -0.48057207 -0.0022402329 0.0021579347
0.10536617 0.055692893 -0.2544916 -0.88107383 -0.47294936 0.0052751917 0.0019437701
-0.1014479 0.062708259 -0.25455976 0.84975076 -0.52717078 0.0038295805 0.0026049083
-0.097608782 0.067711465 -0.25283685 0.83039391 -0.55716085 -0.0042048749 0.0024044514
0.097072244 0.068410717 -0.25550732 -0.82672936 -0.56259936 -0.00082232431 0.0026825953
0.10229784 0.061600585 -0.25584587 -0.85615528 -0.51662928 -0.0096062236 0.0021358419
-0.092291154 0.074641533 -0.25604793 0.76952201 -0.63860875 -0.0038339265 0.0018746832
-0.089222714 0.078640379 -0.2557078 0.74092835 -0.67157865 0.0027029989 0.002323509
0.089193605 0.07867834 -0.25448319 -0.7438736 -0.66831845 0.0015978452 0.0024057608
0.093121648 0.073559225 -0.25508702 -0.77648586 -0.63013268 0.0015638614 0.0026069942
-0.086295478 0.082213394 -0.25471309 0.72574782 -0.68793994 0.0053588171 0.0019996697
-0.078664899 0.089203894 -0.25418591 0.67066544 -0.74175048 0.0037516213 0.0015696535
0.078740135 0.089146182 -0.25531822 -0.65470576 -0.75588232 -0.0014785359 0.0022741109
0.084850036 0.083948255 -0.2563493 -0.71322513 -0.70092982 0.0026962592 0.0022459289
-0.073633753 0.09306445 -0.25468203 0.63519382 -0.77232629 0.0063973395 0.0021373376
-0.067137815 0.098048963 -0.2568391 0.54680318 -0.83724701 -0.0048840633 0.0029392168
0.066838995 0.098278269 -0.25722975 -0.55254602 -0.8334766 -0.0031098591 0.0025137311
0.07356184 0.093119636 -0.25575915 -0.63819379 -0.76987058 0.0028331589 0.0018676571
-0.062023815 0.10197309 -0.25723478 0.50908238 -0.86071646 -0.0015389388 0.0022376594
-0.052303024 0.1067703 -0.25471222 0.44106376 -0.8974725 0.0023936711 0.0024102214
-0.047662497 0.10869247 -0.25386775 0.4046661 -0.91441935 0.009090893 0.0014886437
0.047318462 0.10883497 -0.2543132 -0.40954167 -0.91228896 -0.0021110964 0.0011237541
0.054793004 0.10573891 -0.25541708 -0.46942014 -0.88297409 0.0012210264 0.0017929191
0.06112859 0.10266002 -0.25408655 -0.50420272 -0.86356986 0.0051721823 0.0022956503
-0.04195099 0.11105826 -0.25579849 0.34937829 -0.93697834 -0.0025094475 0.0021095718
-0.03334675 0.11458165 -0.25424707 0.28961083 -0.9571445 0.0001181069 0.0015507925
-0.024845412 0.11641134 -0.25430039 0.22062315 -0.97535753 0.0017728781 0.0021415129
-0.015205115 0.11768049 -0.25634104 0.14290786 -0.98972464 -0.0047457735 0.0022902291
-0.0033391777 0.11924266 -0.25610557 0.025679532 -0.99963093 -0.0088656945 0.0021362065
0.003632471 0.11920406 -0.25550395 -0.028426986 -0.99957913 -0.0057924739 0.0020976881
0.013727958 0.11787497 -0.25319514 -0.12281185 -0.99241024 0.0062614307 0.0018493823
0.025956295 0.11626509 -0.25865144 -0.21773115 -0.97600663 -0.0020367412 0.0019956068
0.035172906 0.11382215 -0.25625116 -0.2892938 -0.95724034 1.2591032e-05 0.0021885291
0.040797967 0.11153585 -0.25337014 -0.34239495 -0.9395541 0.0019531921 0.0024638511
-0.040914506 -0.11148757 -0.24297932 0.33251181 0.94305259 0.0093617989 0.001844288
-0.034308184 -0.11422399 -0.24390469 0.27605486 0.96111989 0.0065029338 0.0018174106
-0.023126181 -0.11663765 -0.2460205 0.2002531 0.97973996 -0.0028813083 0.0022529839
-0.016683841 -0.11748581 -0.24420905 0.15925691 0.98721069 -0.007233954 0.0014716821
-0.0055876854 -0.11894662 -0.24598885 0.057467822 0.99833524 -0.0049153483 0.002080194
0.0053461338 -0.11897843 -0.2460995 -0.039579146 0.99921626 0.00061302818 0.0024099755
0.015412466 -0.11765318 -0.24418285 -0.15086491 0.98854935 -0.0031452929 0.0017237585
0.026034499 -0.11625477 -0.24400371 -0.22940671 0.97332966 0.0013559357 0.0015068378
0.034897532 -0.11396438 -0.2450777 -0.29078865 0.95674145 -0.0093684169 0.0019653572
0.041887846 -0.11108441 -0.24483401 -0.33987293 0.94046962 -0.0018186423 0.0025656822
-0.062403396 -0.10168182 -0.2462936 0.52916658 0.84851474 -0.0023299744 0.0020843328
-0.053750657 -0.10617067 -0.24347076 0.4592042 0.8883177 0.0048187133 0.0013627979
-0.047387619 -0.10880633 -0.24643536 0.40617087 0.91379642 0.0011303001 0.0016232345
0.046920948 -0.10899963 -0.2455557 -0.39040035 0.92063934 0.0032943864 0.0014030987
0.056117389 -0.10519033 -0.24490304 -0.49090168 0.87121093 -0.0026522472 0.0019828409
0.061743692 -0.10218803 -0.2449363 -0.51158547 0.85922116 -0.0043918844 0.0024500031
-0.073488541 -0.093175858 -0.24595755 0.62701249 0.77898657 0.0059313606 0.0020701727
-0.068435282 -0.097053371 -0.24497174 0.58315086 0.81236047 -0.0023847211 0.0022385607
0.065311506 -0.09945035 -0.24256399 -0.54083836 0.84110671 0.0057840878 0.0019962951
0.073973209 -0.092803963 -0.24622589 -0.63665998 0.77110243 -0.008076895 0.0017491465
-0.08377555 -0.084962063 -0.245013 0.70258534 0.71157289 0.0061453031 0.0020298536
-0.079195678 -0.088796608 -0.24255471 0.6820609 0.73128736 0.0034387028 0.0017740785
0.079347029 -0.088680483 -0.24238802 -0.67554271 0.73731649 0.0025203011 0.0021372491
0.084594607 -0.08407107 -0.24551634 -0.71333218 0.70069957 -0.01331408 0.0023605188
-0.093708389 -0.072794549 -0.24591723 0.78038716 0.62529665 4.4030941e-05 0.0011919318
-0.08907 -0.078839369 -0.24737404 0.74581385 0.66615313 -0.001243684 0.0020318367
0.088898294 -0.079063177 -0.2440985 -0.73652565 0.6764093 -0.000631798 0.001700711
0.092939876 -0.073796093 -0.24317846 -0.77513438 0.63178909 -0.0030272338 0.0018345396
-0.10253511 -0.061291378 -0.24460481 0.85966933 0.51082808 0.0048248139 0.0020953787
-0.09747389 -0.067887262 -0.2450093 0.81566274 0.57848471 -0.0070536141 0.0021279349
0.097729862 -0.067553684 -0.24467745 -0.8234598 0.56737465 8.2136394e-05 0.0024951301
0.10135256 -0.062832505 -0.24483252 -0.85101658 0.52513754 0.0011782156 0.0022685339
-0.10501012 -0.056552451 -0.24383074 0.87437564 0.48524946 0.00051647087 0.0023025116
0.10600703 -0.054145716 -0.24357162 -0.88645846 0.46280238 0.0023135403 0.0021647052
-0.11136323 -0.041214697 -0.24580021 0.94489777 0.32736152 0.0016215466 0.0019367555
-0.10912796 -0.046611127 -0.24319516 0.9154194 0.40249366 -0.0024787462 0.0018228275
0.10859383 -0.047900636 -0.24209027 -0.91769135 0.39729095 -0.0015858504 0.0014557241
0.11086421 -0.042419445 -0.24451388 -0.93211854 0.3621524 -0.00080771832 0.0021945506
-0.11487787 -0.032729592 -0.24489792 0.96157289 0.27451137 0.0045877248 0.0021754273
0.11395749 -0.034951646 -0.24526532 -0.95471644 0.29751468 0.0012276855 0.0012928142
-0.11637703 -0.025105853 -0.24530856 0.97538418 0.22050959 -0.0010778111 0.0015815262
0.11623972 -0.026148925 -0.24417023 -0.96993983 0.24308336 -0.01128282 0.0018449445
-0.11778806 -0.014387964 -0.24677153 0.99259597 0.12142716 0.0029539494 0.00260294
0.11743096 -0.017100522 -0.24577552 -0.98717105 0.15962413 -0.0036676563 0.001566702
-0.11909726 -0.0044436343 -0.24352059 0.99917406 0.040164132 0.0061704381 0.0021373113
0.11924215 -0.0033430201 -0.24615429 -0.99983758 0.017754013 -0.003096404 0.002319359
-0.1188078 0.0066421856 -0.24716881 0.99804956 -0.062417552 -0.0011024538 0.001908173
0.11894109 0.0056297863 -0.24530466 -0.99887496 -0.047310695 0.0032476778 0.0022136623
-0.11777629 0.014477361 -0.24689643 0.99201477 -0.12608571 -0.0030016359 0.00271585
0.11765306 0.015413535 -0.24633317 -0.98849177 -0.15125467 0.0024568916 0.0020632886
-0.11649732 0.024192248 -0.24620457 0.97610128 -0.2172977 0.0028486999 0.0019005891
0.11644544 0.024586244 -0.24455889 -0.97527874 -0.22085206 -0.0074683726 0.001973625
-0.11356264 0.035904851 -0.2463285 0.9561519 -0.29283112 -0.0048391456 0.0021327366
0.11426699 0.034145705 -0.24424934 -0.96051759 -0.27820525 0.0027825586 0.0017124395
-0.11057291 0.043122705 -0.24501103 0.92802525 -0.37251341 0.0017194741 0.0023147583
-0.10916541 0.046520721 -0.24404657 0.91660643 -0.39977241 0.0038234647 0.0015908686
0.10943957 0.045858853 -0.24251026 -0.91653061 -0.3999646 -7.7829922e-05 0.0017415899
0.11071242 0.042785902 -0.24633245 -0.9331181 -0.35956514 -0.0018935926 0.0017921423
-0.10562375 0.055071026 -0.24550574 0.8801434 -0.47465172 0.0073123523 0.0020681673
0.10601528 0.054125786 -0.24360685 -0.88656569 -0.46259776 0.0021446017 0.0016473943
-0.10215958 0.061780762 -0.24634981 0.85799766 -0.51364952 -0.0019980874 0.0025343855
-0.097632073 0.067681111 -0.24436529 0.82005471 -0.57220566 -0.0095395781 0.0026489063
0.097442135 0.067928657 -0.24318384 -0.82900673 -0.55918348 -0.0078586033 0.0029410596
0.10220244 0.061724924 -0.24539979 -0.8568024 -0.5156427 -0.0015177312 0.0022835634
-0.093186684 0.073474444 -0.24401893 0.77033859 -0.63762319 -0.0038813693 0.001886109
-0.08947736 0.078308508 -0.24483699 0.75630432 -0.65419292 -0.0059484681 0.0023475345
0.088496387 0.079586968 -0.24353486 -0.73193651 -0.68137139 -0.0013829287 0.0018355998
0.092872933 0.073883332 -0.24673462 -0.77475435 -0.63226044 -0.0015688585 0.0016457294
-0.083906293 0.084740467 -0.24428801 0.70600897 -0.708193 0.0037448201 0.0024081839
-0.077802919 0.089865312 -0.24705121 0.66328937 -0.74835879 0.0025063723 0.002030405
0.078546442 0.089294799 -0.2411008 -0.66377437 -0.74792939 0.0022934689 0.0023702977
0.084173992 0.084647104 -0.24345402 -0.70660776 -0.70758384 -0.0055281986 0.0024959492
-0.074747816 0.092209585 -0.24681997 0.64371628 -0.76525927 0.002749678 0.0019021035
-0.067455724 0.097805038 -0.24607933 0.55679244 -0.83062166 -0.0070685958 0.002529789
0.068680175 0.096865475 -0.24532558 -0.57781702 -0.81615907 -0.0034203005 0.0023752782
0.073298782 0.09332148 -0.24470006 -0.6338439 -0.77345932 0.0016385104 0.0016828959
-0.062426951 0.10166375 -0.24421285 0.51763326 -0.85555804 0.0087302029 0.0025108424
-0.054629188 0.10580677 -0.24540758 0.47475412 -0.88011599 0.0020952856 0.0019812118
-0.047051527 0.10894555 -0.2455705 0.39756575 -0.91755027 -0.0065583112 0.0016354034
0.046254929 0.10927551 -0.24420001 -0.39850307 -0.91716665 -0.00077305565 0.0013976109
0.05565631 0.10537527 -0.24580728 -0.48224148 -0.87603045 -0.0037173389 0.0022499096
0.062655665 0.10148825 -0.2433911 -0.52769059 -0.84942049 0.0052449275 0.002356783
-0.041790299 0.11112482 -0.2482906 0.35980436 -0.93302631 -0.0016280679 0.0023621791
-0.035133138 0.11388151 -0.24491216 0.31093228 -0.95040786 -0.0067867325 0.0017661754
-0.025936307 0.11626772 -0.24780297 0.24293135 -0.97004235 0.001500778 0.0019783189
-0.016591754 0.11749794 -0.24528483 0.16199069 -0.9867487 -0.0092752222 0.0016368886
-0.0041273125 0.1191389 -0.24674669 0.038457315 -0.99924183 -0.0060665202 0.0016522069
0.0039991802 0.11915578 -0.24606094 -0.032362837 -0.99941444 -0.011108468 0.0018175034
0.015611161 0.11762704 -0.24630789 -0.15693982 -0.98758101 -0.0073256483 0.0014382983
0.027100103 0.1161145 -0.24405615 -0.22874412 -0.97348481 0.0018588523 0.0016790795
0.034394588 0.11416909 -0.24704851 -0.30674055 -0.95178908 0.0028022039 0.0017122161
0.042284589 0.11092009 -0.24400671 -0.36327699 -0.93166155 -0.0060516428 0.0023517532
-0.042109698 -0.11099251 -0.23279808 0.34281796 0.93939036 0.004642026 0.0022335867
-0.036099203 -0.11348215 -0.23359969 0.31171575 0.95017534 -5.7648176e-06 0.0016511813
-0.025746634 -0.11629266 -0.23506357 0.22535346 0.97422421 -0.010149516 0.001524877
-0.016814474 -0.11746861 -0.23593394 0.1522752 0.98833674 -0.0016719472 0.0014622014
-0.0060633821 -0.118884 -0.23406968 0.040157963 0.99918497 0.0041055069 0.0015049481
0.005190372 -0.11899894 -0.23496334 -0.032824639 0.99944711 -0.0052807885 0.001706193
0.014268123 -0.11780383 -0.23701611 -0.14293221 0.98973238 -0.00035261962 0.0015762552
0.024454711 -0.11646275 -0.23457108 -0.23195468 0.97271156 -0.0054038987 0.0014941975
0.036813684 -0.11318619 -0.23577586 -0.30639511 0.95190436 -0.00032073751 0.0016502964
0.043057337 -0.11059999 -0.23184085 -0.37428972 0.92730296 -0.0040575024 0.0023460961
-0.054743282 -0.1057595 -0.23482735 0.474637 0.88017958 0.0019257966 0.0018958689
-0.046710677 -0.10908672 -0.23497145 0.41259408 0.91090864 0.003410591 0.0022730064
0.048396528 -0.10838842 -0.23379707 -0.41275743 0.91083771 -0.0024325682 0.0022265529
0.055584732 -0.10540887 -0.23396741 -0.47873729 0.87795538 0.0022292491 0.0021465824
-0.072413616 -0.09400069 -0.23268466 0.62033308 0.78432971 -0.003701007 0.0026349509
-0.069500625 -0.096235909 -0.23860024 0.57951057 0.8149569 0.0035602923 0.0017538118
0.067297138 -0.097926714 -0.23739201 -0.56624007 0.82423085 0.0039414745 0.002763913
0.073780119 -0.092952147 -0.23601328 -0.62999284 0.77658999 -0.0041252724 0.0021957576
-0.083941497 -0.084949337 -0.23489507 0.71362203 0.70053101 0.00010868912 0.0023558792
-0.078773245 -0.089120753 -0.2359744 0.67768562 0.73532224 -0.0065899254 0.0023489916
0.078493901 -0.089335114 -0.23423548 -0.64708912 0.76241434 -0.00010020591 0.0017641927
0.082722887 -0.085746221 -0.23416294 -0.69757771 0.71645904 0.0084674321 0.0022226595
-0.093454108 -0.073125914 -0.23419909 0.77463323 0.63238448 -0.0057710665 0.0018982806
-0.088733666 -0.079277702 -0.2358408 0.74415547 0.66800135 -0.0025900705 0.0026756942
0.089650869 -0.07808239 -0.23919003 -0.75373679 0.65717638 -0.00032254771 0.0024805707
0.091699064 -0.075413153 -0.23652939 -0.76759428 0.64092344 -0.0040205708 0.0019787455
-0.10126879 -0.062941663 -0.2378177 0.84433031 0.53579348 -0.0056322627 0.0020852629
-0.096391082 -0.069298394 -0.23291256 0.81346005 0.58161527 -0.0025394585 0.0024045117
0.098315425 -0.066790558 -0.23638053 -0.83470052 0.55068642 -0.0044194637 0.0026398106
0.10155799 -0.062564768 -0.23461078 -0.84192711 0.53949326 0.010283807 0.0023507611
-0.10568254 -0.054929115 -0.23369385 0.88028264 0.47444558 -0.0019546784 0.002033724
0.10603267 -0.054083824 -0.23442541 -0.88364071 0.46808097 0.0089033842 0.002100453
-0.11070151 -0.042812224 -0.23294437 0.93240243 0.36141181 -0.0026818987 0.00184233
-0.10950665 -0.045696862 -0.23432633 0.91912085 0.39397129 0.0018379204 0.0017423015
0.10879093 -0.047424778 -0.23497039 -0.91752613 0.39767551 0.00016719257 0.0016083993
0.11104219 -0.041989774 -0.23173285 -0.93605381 0.3518292 0.0044160257 0.0024671981
-0.11452416 -0.03351805 -0.23513377 0.96183407 0.27357802 -0.0055074305 0.0021493239
0.11450338 -0.033633754 -0.23495546 -0.96263111 0.27076751 -0.0051306384 0.0020011589
-0.11655547 -0.023750452 -0.23423731 0.97789103 0.20911446 0.00045698884 0.0021050354
0.11647919 -0.024329871 -0.2345932 -0.97868764 0.20532307 0.0036067078 0.0022278596
-0.11786757 -0.013783996 -0.23695862 0.99374706 0.11165361 0.00053643953 0.0021527531
0.11782954 -0.01407298 -0.23537849 -0.99128103 0.13175283 -0.0017661055 0.0025407923
-0.11915128 -0.0040332531 -0.23443854 0.99954861 0.02999974 -0.0015928081 0.0025320037
0.11877278 -0.0069083339 -0.23433749 -0.99784368 0.065303847 -0.0065914709 0.0021098088
-0.11912409 0.0042397077 -0.23502038 0.99916005 -0.040873934 -0.002915889 0.0023928892
0.11906292 0.0047045089 -0.2335164 -0.99984837 -0.017396847 0.00074410363 0.0023905961
-0.11793198 0.013294699 -0.23242351 0.99371403 -0.11193164 0.0019166834 0.0024199109
0.11775307 0.014653857 -0.23659913 -0.99179935 -0.1277114 -0.0048781401 0.0023772439
-0.11638829 0.025020333 -0.23500475 0.97687739 -0.21379977 0.00050240819 0.0020175753
0.11642303 0.024756547 -0.23447545 -0.97443473 -0.22464222 0.0035923999 0.0015270201
-0.11442766 0.033776455 -0.23481925 0.96025765 -0.27902079 0.0072635007 0.0020777709
0.11367061 0.035577033 -0.23573935 -0.95357871 -0.30110434 -0.0048874761 0.0016685283
-0.11104563 0.041981474 -0.23430893 0.93248338 -0.36121252 -0.0006250717 0.0020566972
-0.10860806 0.047866281 -0.23324569 0.91845071 -0.39544308 0.0085423682 0.0015244137
0.10865676 0.047748707 -0.23180218 -0.91759479 -0.39751595 0.00091357197 0.001400203
0.11071049 0.042790584 -0.23510472 -0.92727101 -0.37438208 0.0025602318 0.0024370977
-0.10498173 0.056621015 -0.23591401 0.87304235 -0.48756745 -0.0086621493 0.0021569014
0.10564362 0.055023044 -0.23489551 -0.88177472 -0.471632 0.0060465308 0.0020217397
-0.10242554 0.061434168 -0.23418029 0.86065811 -0.50916356 -0.0044764681 0.0019631709
-0.098895997 0.066033952 -0.23524432 0.84080398 -0.54128623 -0.0076011037 0.0021838385
0.09748596 0.067871556 -0.23634885 -0.8216477 -0.56997961 0.0042804945 0.0023581949
0.10194413 0.062061559 -0.23493429 -0.85711932 -0.51505029 0.008340151 0.0024459795
-0.093071423 0.073624663 -0.23538582 0.76973569 -0.63836235 -0.00070626551 0.0017698521
-0.08868818 0.079336986 -0.23213927 0.7444905 -0.66761273 0.0052122232 0.0017307356
0.089170553 0.07870838 -0.23588392 -0.7389195 -0.67379254 0.0012711944 0.0021527691
0.091762669 0.075330265 -0.23430045 -0.76643986 -0.64231551 0.00087227923 0.0018326631
-0.083759785 0.08501216 -0.23489778 0.6939643 -0.72000939 0.00032903321 0.0021320556
-0.079041496 0.088914916 -0.23439898 0.66836482 -0.74382925 0.0025514532 0.0019492346
0.078867346 0.089048564 -0.2383475 -0.66460615 -0.74719042 0.0022647062 0.0026085519
0.084323369 0.084328033 -0.23418707 -0.70539898 -0.70878106 0.0064484817 0.0025102419
-0.074073821 0.092726767 -0.23438978 0.6312744 -0.77552795 0.0070058419 0.0026190581
-0.06805443 0.097345613 -0.23347233 0.56670684 -0.82386428 -0.0095310276 0.0022465631
0.066982046 0.098168492 -0.23489256 -0.5579502 -0.82987261 0.0017328741 0.0029839091
0.072825201 0.093684874 -0.23455437 -0.61398017 -0.78932017 0.0013948504 0.0019687947
-0.062273003 0.10178187 -0.23466501 0.53174335 -0.84685236 -0.0094919577 0.0020419522
-0.051154181 0.10724617 -0.23589496 0.42505342 -0.90512359 -0.0089905625 0.0021078563
-0.049813781 0.10780138 -0.23951498 0.4205502 -0.90726578 -0.0025152771 0.0018926553
0.047894333 0.10859644 -0.23395124 -0.41564205 -0.90952665 0.0017119503 0.0020084858
0.055119943 0.10560349 -0.23443513 -0.48115179 -0.87663716 -0.00037845492 0.0022195713
0.062026292 0.10197119 -0.23647574 -0.52422756 -0.85155851 -0.0058020167 0.0025436885
-0.043065969 0.11059642 -0.23645139 0.36975509 -0.92911744 -0.0046872525 0.0024626614
-0.034057911 0.11431883 -0.23605764 0.28099132 -0.95971024 -0.00041031282 0.0017763338
-0.022816226 0.11667848 -0.2360456 0.21157733 -0.97736108 -0.00044423182 0.0026377798
-0.015257534 0.1176736 -0.23380606 0.14718914 -0.98910606 -0.0021380356 0.001479149
-0.0053808163 0.11897389 -0.23539023 0.041142009 -0.99914706 0.003528856 0.0024069592
0.0040058806 0.11915489 -0.23382714 -0.023958312 -0.99970859 0.0029468383 0.0020581451
0.016634282 0.11749234 -0.23432676 -0.16107754 -0.9869417 -0.00027711262 0.0015703592
0.024278201 0.11648602 -0.23619428 -0.20780598 -0.97811908 -0.0099870814 0.0020602879
0.034649272 0.11407765 -0.23514393 -0.29911646 -0.95421654 -0.00020417618 0.0018456556
0.042125352 0.11098604 -0.23667651 -0.35925066 -0.9332372 -0.0027176957 0.0019610571
-0.043579876 -0.11038354 -0.22385308 0.35945156 0.93313336 -0.0075327768 0.0026532901
-0.036638714 -0.11325867 -0.22285542 0.31109965 0.95037133 0.0033630319 0.0017840146
-0.025574736 -0.1163153 -0.22395618 0.21486187 0.97664374 -0.0012256629 0.0019217542
-0.014994161 -0.11770825 -0.22757876 0.13702755 0.99056041 -0.003681632 0.002640947
-0.0059752376 -0.11889561 -0.22517204 0.03850811 0.99923962 -0.0061051953 0.0021883121
0.0038760146 -0.11917198 -0.22509669 -0.022198193 0.99974656 0.0037444409 0.0021736354
0.014734409 -0.11774245 -0.22576536 -0.13837215 0.99037886 0.0016814601 0.0026298587
0.02352285 -0.11658543 -0.22814634 -0.21263896 0.97709906 -0.0078872768 0.002251249
0.037299663 -0.11298489 -0.2249925 -0.31277063 0.94979483 -0.0080195023 0.0020137834
0.042519953 -0.11082258 -0.22526565 -0.36774483 0.92992008 -0.0034976613 0.0020954136
-0.061407719 -0.10244583 -0.22490674 0.50094855 0.86543262 0.0087717772 0.0020838063
-0.055216432 -0.10556353 -0.22349536 0.48263067 0.87582189 0.0018999788 0.0021490715
-0.045311905 -0.10966611 -0.22379154 0.38436881 0.92314541 -0.0079514617 0.0020510659
0.048119843 -0.10850303 -0.22293967 -0.40962675 0.91224623 0.0035769953 0.002101098
0.056003179 -0.10523766 -0.22569014 -0.48119968 0.87661064 0.00081579061 0.0020363529
0.063096359 -0.10115009 -0.22555269 -0.53243262 0.84646773 -0.0028059622 0.0022900274
-0.073709078 -0.093006641 -0.2241473 0.64137244 0.76722962 -0.00021793471 0.0018503431
-0.067360573 -0.097878031 -0.22662105 0.56176263 0.82729846 -8.3232881e-05 0.0026750532
0.06750077 -0.097770467 -0.22579026 -0.55698097 0.83049905 -0.0065883477 0.0025953907
0.073375858 -0.093262337 -0.22482476 -0.62994546 0.77661771 0.0058044591 0.002423832
-0.085865036 -0.082907505 -0.22639482 0.71663815 0.69744462 -0.00091909169 0.0019171144
-0.079231322 -0.088769257 -0.22497261 0.67451191 0.73825681 -0.0032337268 0.0022131014
0.078643657 -0.089220196 -0.2244546 -0.65842664 0.75263619 0.0036226602 0.0023584664
0.084286161 -0.084488578 -0.22504722 -0.70818073 0.70602071 0.003854326 0.0023640143
-0.093031131 -0.07367716 -0.2259904 0.77720928 0.62920076 -0.0072228783 0.0023624431
-0.088706814 -0.079312705 -0.22190821 0.74110949 0.67137134 0.0041429619 0.0019150326
0.089016676 -0.078908898 -0.22616448 -0.74707103 0.66472131 0.0055129831 0.0021392091
0.093390331 -0.073209062 -0.22577463 -0.77253318 0.63497317 -0.0012240902 0.0018318061
-0.10109243 -0.063171491 -0.22499873 0.84503222 0.53471375 0.0013404991 0.0021985641
-0.097481802 -0.06787695 -0.22648585 0.81854373 0.57444316 0.0011666347 0.0025615916
0.098135151 -0.067025498 -0.22502404 -0.82827002 0.5603143 0.0040776897 0.0025574847
0.10228251 -0.061620567 -0.22642355 -0.85721654 0.51495099 -0.0022897217 0.0024317526
-0.10485465 -0.056927796 -0.22436929 0.87135023 0.49066117 0.00064374675 0.0022448534
0.10561705 -0.055087198 -0.22543409 -0.87856299 0.47760281 0.0047653443 0.002030581
-0.11159176 -0.040662948 -0.22022162 0.93906778 0.34372115 -0.0027276294 0.0022962801
-0.10834251 -0.048507351 -0.22566541 0.90912062 0.41652599 -0.0024099047 0.0023170633
0.10884225 -0.047300894 -0.22548766 -0.91856188 0.39527714 -0.00029113449 0.0014732517
0.11114159 -0.041749798 -0.22677881 -0.93681234 0.34982961 -0.0013732848 0.0026461184
-0.11379095 -0.035306897 -0.22626983 0.95561796 0.29460582 0.0013418488 0.0019388449
0.11405759 -0.034662034 -0.22583881 -0.95924699 0.28244889 0.0082374522 0.0023432418
-0.1162916 -0.025754731 -0.22407897 0.97354215 0.22850278 0.0014681806 0.001818935
0.11658216 -0.023547914 -0.22779112 -0.9775936 0.21047293 0.0034492107 0.0026393812
-0.11771643 -0.014932055 -0.22555131 0.99218845 0.12472824 -0.0021857086 0.0027502612
0.11745935 -0.016884886 -0.22565453 -0.98739243 0.15828022 0.0018861261 0.0016997275
-0.1190184 -0.0050425655 -0.22496799 0.9996013 0.028231675 0.00043932773 0.0021310586
0.1189008 -0.0059359102 -0.22613776 -0.99809748 0.061466973 -0.0048109796 0.0021020852
-0.11901005 0.005105969 -0.22483186 0.99838006 -0.056681097 0.0049532768 0.0017326149
0.11925358 0.0032561596 -0.22691019 -0.9999069 -0.01351255 -0.0018824462 0.0022899758
-0.11779003 0.014373023 -0.22453977 0.99328107 -0.11518472 -0.01118949 0.0024355638
0.11773761 0.014771274 -0.22510789 -0.98963737 -0.14356056 -0.0028668004 0.0016118216
-0.11650246 0.024153054 -0.22487216 0.9795689 -0.20105599 -0.0046230536 0.002527206
0.11626273 0.025974078 -0.22435489 -0.97370923 -0.22772864 0.0054797451 0.0015202308
-0.11436771 0.03390393 -0.22455151 0.96183425 -0.27363148 0.00082262175 0.0019835408
0.11296228 0.037340309 -0.22397894 -0.94709009 -0.32096669 0.00085145881 0.001945062
-0.11079852 0.042578049 -0.22516841 0.93240196 -0.36138564 0.0051956899 0.0020587486
-0.10881225 0.047373325 -0.22780073 0.91543108 -0.40246323 -0.0030587208 0.0014044917
0.10915416 0.046547879 -0.22576554 -0.91709918 -0.39858833 0.0075177504 0.0014179036
0.11084431 0.042467505 -0.224361 -0.93433225 -0.35638505 -0.0036078561 0.0022088217
-0.10565718 0.05499034 -0.22547539 0.88227856 -0.47071663 0.003235905 0.0018737264
0.10562386 0.055070769 -0.22474894 -0.87966901 -0.47557798 0.0028283184 0.0020046381
-0.10207954 0.061885089 -0.22761607 0.8519367 -0.5236131 -0.0057611531 0.0019506135
-0.09816996 0.066980138 -0.22550343 0.82947564 -0.55854279 0.0002300933 0.0027251132
0.098367341 0.066722907 -0.22409739 -0.83348072 -0.55246097 0.0098317098 0.0027781001
0.10125873 0.062954776 -0.22588857 -0.8475734 -0.53065616 0.0048182025 0.002573041
-0.093300842 0.073325671 -0.22477742 0.77526003 -0.63163978 -0.0017684132 0.0017012178
-0.089573845 0.078182772 -0.22626965 0.75136971 -0.65986693 0.0043890164 0.0020744489
