# .PCD v0.7 - Point Cloud Data file format
VERSION 0.7
FIELDS x y z normal_x normal_y normal_z curvature
SIZE 4 4 4 4 4 4 4
TYPE F F F F F F F
COUNT 1 1 1 1 1 1 1
WIDTH 554
HEIGHT 1
VIEWPOINT 0 0 0 1 0 0 0
POINTS 554
DATA ascii
0.049910121 0.12994176 -0.018916994 -0.3537707 -0.93532425 -0.0038402921 0.0014204154
0.053238958 0.12856288 -0.013130486 -0.3933543 -0.91935629 -0.007513762 0.0010466208
0.066370584 0.12312353 -0.016163314 -0.48235014 -0.87596309 -0.0051880348 0.0026651672
0.071336612 0.1206565 -0.016429655 -0.51502961 -0.85715419 -0.0055844244 0.00241738
-0.046203163 0.13147694 -0.013404898 0.34776667 -0.93756491 0.0055107693 0.0012796046
-0.035018038 0.13570732 -0.013215551 0.24610223 -0.96920496 0.0086838603 0.0021543389
-0.024477189 0.13712843 -0.015678857 0.17381434 -0.98477715 0.0015926667 0.0014929016
-0.016588675 0.13816696 -0.015905758 0.10561016 -0.99440759 7.5234893e-05 0.00057680765
-0.0063101337 0.13952014 -0.014263431 0.062307928 -0.99801987 -0.0086018248 0.0016640032
0.0050418465 0.13968714 -0.014111236 -0.031661924 -0.99943572 -0.011217104 0.0025576702
0.014033373 0.13850343 -0.01474843 -0.097163245 -0.99526548 0.0024371196 0.00099842646
0.024034131 0.13718686 -0.014860104 -0.17226186 -0.98502052 0.0077749682 0.0009940532
0.034561943 0.13576239 -0.013159975 -0.23037611 -0.97310156 0.00045602157 0.0021251605
0.044477705 0.13219194 -0.014736637 -0.33272946 -0.9430182 0.0027885833 0.0012525095
-0.0013886901 0.14016806 -0.018626342 0.011019735 -0.99992537 -0.005269045 0.0023387258
0.00026203663 -0.14031638 -0.0079551339 -0.0038267039 0.9999451 -0.0097532766 0.0026011711
-0.044052519 -0.13236746 -0.0034253474 0.30816847 0.95133078 0.0013857349 0.0017499474
-0.034156732 -0.13566299 -0.0040905625 0.23305723 0.97246289 -0.00032962477 0.0020911025
-0.022296594 -0.13741535 -0.0072432556 0.15643415 0.98768198 0.0035460854 0.00089617696
-0.015560316 -0.13830224 -0.0053666658 0.12020234 0.99274534 -0.002849618 0.00085195142
-0.0061632711 -0.13953944 -0.007228082 0.06719318 0.99773502 -0.0031399014 0.0017386526
0.0080730682 -0.13928802 -0.0058820709 -0.065925606 0.99782413 0.00086022058 0.0018429785
0.014855918 -0.13839503 -0.0052817897 -0.10920256 0.99401611 -0.0026023546 0.00053385342
0.024610233 -0.13711084 -0.0052264011 -0.18617357 0.98251253 0.0029157109 0.0014777138
0.035089459 -0.13553509 -0.0031635079 -0.24175361 0.9703092 0.0074331341 0.0019028264
0.047508441 -0.13093631 -0.0054550134 -0.34822893 0.93740886 -0.0010854205 0.00096594047
-0.071556732 -0.12048729 -0.0076877847 0.50895119 0.86079526 0.00037944227 0.0020180959
-0.063734695 -0.12421503 -0.0040452727 0.46742874 0.88402385 0.0034829727 0.0021431167
-0.054326683 -0.12811187 -0.0067463331 0.39894292 0.91697419 -0.0016970993 0.00067056529
0.051867101 -0.12913089 -0.006267319 -0.3703042 0.92890733 -0.0024389455 0.0016212414
0.066221446 -0.12318505 -0.0050310111 -0.48701918 0.87337005 -0.0060946061 0.0025143491
0.071411416 -0.12059883 -0.0058717229 -0.50698972 0.8619504 0.0017266633 0.0029443263
-0.084245391 -0.11075063 -0.0028010625 0.60615695 0.79534507 -0.00014751824 0.00092494738
-0.075540043 -0.11743069 -0.0036643615 0.54405528 0.83904618 0.0023082558 0.001799362
0.076797187 -0.11646621 -0.0059444853 -0.55738658 0.83021647 -0.0077957348 0.0020227323
0.08059217 -0.11355424 -0.0025540888 -0.60338312 0.7974506 -0.0011182646 0.0004019308
-0.095428497 -0.10216927 -0.0071576014 0.68200141 0.73135078 -0.00035983455 0.0019834405
-0.087719142 -0.10808504 -0.0055170967 0.63508904 0.77243364 0.0028710498 0.001858819
0.088164739 -0.10774362 -0.0047704196 -0.62566036 0.78009421 -0.0014436604 0.0011727954
0.094139464 -0.10315909 -0.0064959563 -0.67347836 0.73919672 0.0038778917 0.0023678397
-0.10280587 -0.094598576 -0.0086695701 0.73463422 0.67846256 0.001069796 0.0022610375
-0.099759966 -0.098567992 -0.00035749376 0.70293063 0.71124816 -0.0037976736 0.0021217614
0.098729528 -0.099637017 -0.0098815411 -0.70611131 0.70809561 -0.0026998743 0.0028413916
0.10280825 -0.094596855 -0.0049435203 -0.73205745 0.68122846 0.0044356845 0.0024739779
-0.1116356 -0.083091624 -0.0042294753 0.79854685 0.60193259 0.00039990991 0.00082526618
-0.10802606 -0.08779557 -0.0036276609 0.78162706 0.62374395 -0.0016113975 0.0014555327
0.1077811 -0.088116214 -0.0054151122 -0.780276 0.62543404 -0.0012747914 0.0011842032
0.11077294 -0.084217243 -0.0053838417 -0.79400915 0.60790569 -0.00032132844 0.00092318765
-0.12119512 -0.07063362 -0.0061233491 0.86050707 0.50937539 0.0080196932 0.0025445404
0.11631083 -0.077000223 -0.0065206042 -0.82913923 0.55902433 -0.0044742399 0.0018583869
0.12048295 -0.071563117 -0.0098917829 -0.85118335 0.52482855 -0.0064700646 0.0026327623
-0.12448646 -0.063078091 -0.0058164671 0.8829143 0.46938872 0.011687033 0.0020355838
0.12419114 -0.063793659 -0.0058798888 -0.88891989 0.45787752 -0.013021323 0.0023957863
-0.12759463 -0.055574138 -0.0047551184 0.9216345 0.38805842 0.00078486797 0.00036573526
0.12713848 -0.056678008 -0.0057338635 -0.90665871 0.42185798 -0.0024200007 0.0012340511
-0.13192967 -0.045108292 -0.00616869 0.94579071 0.32477668 0.00011050889 0.0015643241
0.13112345 -0.047057271 -0.0043675764 -0.94040066 0.3400678 0.00068597688 0.001302948
-0.13605934 -0.032591201 -0.0060222335 0.97333825 0.22920696 0.0087657748 0.0022958769
0.13494125 -0.037514213 -0.0065375259 -0.96218657 0.27236789 0.0035667578 0.0019043827
-0.13699391 -0.025493827 -0.0054096491 0.98614305 0.16589728 7.5326927e-05 0.00080917525
0.13695839 -0.025769409 -0.0048685661 -0.98242289 0.18666855 5.733963e-06 0.0013058257
-0.13816592 -0.016593141 -0.0057614502 0.99177247 0.12801282 -0.00018636345 0.00086703879
0.13826218 -0.015865726 -0.0061252033 -0.99293679 0.1185922 0.0035228159 0.0004676168
-0.14024636 -0.00079374789 -0.008675307 0.99996388 0.005445763 -0.0065261037 0.0028244182
-0.13972236 -0.0047732214 -0.0057474659 0.99837899 0.056796424 0.0036885072 0.0021776925
0.13947737 -0.0066352654 -0.0063364198 -0.99857992 0.053255752 0.0013820666 0.002036819
-0.14020962 0.0010728139 -0.0053110449 0.99998832 -0.0042333482 -0.0023273681 0.0031460901
-0.1395044 0.0064283693 -0.0050508999 0.99799353 -0.063257225 -0.0027193886 0.0022429647
0.13965601 0.00527824 -0.00079736207 -0.99919975 -0.039980993 -0.0011663935 0.0020023657
0.14024015 0.00084107177 -0.0066207722 -0.99989516 0.014427279 0.0012034036 0.0029396836
-0.1380728 0.017300608 -0.0053670434 0.98974371 -0.14284205 -0.0018817378 0.0010476003
0.13846225 0.014346145 -0.0023868193 -0.99455279 -0.10423419 7.9173069e-06 0.0011257315
-0.13693975 0.025905335 -0.0060382881 0.98581862 -0.16781446 0.00018739936 0.00085735793
0.1371136 0.024590561 -0.0045544957 -0.98598456 -0.16680855 -0.0030597392 0.00087000587
-0.13562854 0.034694772 -0.0041104229 0.97040623 -0.2414472 -0.0038702381 0.0022359709
0.1352493 0.03619577 -0.0063906014 -0.96653277 -0.25638574 0.0089845397 0.00201718
-0.13178146 0.045466293 -0.0063746176 0.94476217 -0.32775679 -0.00010016051 0.0016549062
0.13206606 0.044781838 -0.0042872075 -0.94502211 -0.3270064 0.00023280666 0.0012695958
-0.12721869 0.056481898 -0.0068211979 0.91656053 -0.39989597 -0.0001341904 0.00076792715
0.12770067 0.055320852 -0.0043793176 -0.91430688 -0.40502155 -0.00078082981 0.00070313492
-0.12340813 0.06568151 -0.006791784 0.8760587 -0.48219353 -0.0032349241 0.0027122709
0.12375541 0.064845644 -0.0051292288 -0.87941933 -0.47589496 0.012065079 0.0022416587
-0.12147695 0.07025072 -0.0034635216 0.86156148 -0.50757706 0.0087941857 0.0029587846
-0.11768879 0.075203128 -0.002784051 0.83801395 -0.54563308 0.0041317791 0.0020149129
0.11764866 0.075256817 -0.0027210298 -0.83343899 -0.55252892 0.0095479153 0.0016165758
-0.11200698 0.082607754 -0.0029167309 0.79640573 -0.60476136 0.0012739993 0.00058673555
-0.10860936 0.087035596 -0.0035883104 0.78939325 -0.61388773 0.0003499481 0.00072792789
0.10774975 0.088157237 -0.0048980042 -0.77085406 -0.63697881 -0.0064830664 0.0016458648
0.11213317 0.082444713 -0.0017717815 -0.79922175 -0.60103393 0.0016372884 0.00073171582
-0.10331928 0.093929701 -0.0041669761 0.7362169 -0.676745 0.00094837724 0.0023205006
-0.099339917 0.099114403 -0.0019918012 0.70158535 -0.71257019 -0.0046542678 0.0025901988
0.099517174 0.098886073 -0.0070088306 -0.70151824 -0.71265143 -0.00024461609 0.0021906509
0.10187606 0.095811926 -0.0056757703 -0.72557616 -0.68814099 0.0010460223 0.0023511215
-0.09448906 0.10289042 -0.0070525333 0.68657398 -0.72705954 -0.00070633006 0.0024286145
-0.08706969 0.10858367 -0.0042451113 0.61793154 -0.78623146 0.00079619035 0.0007920629
0.087598659 0.10817826 -0.0039759367 -0.62423605 -0.78123587 -2.5237989e-05 0.0012973641
0.093573831 0.10359336 -0.0038191942 -0.67487067 -0.7379154 0.0055227275 0.0022564861
-0.082955524 0.11174067 -0.0064351559 0.60965848 -0.79265481 0.0038589456 0.00075948326
-0.07594756 0.11711825 -0.0056957966 0.5591076 -0.82908553 -0.0039754016 0.0017278198
0.076907396 0.11638191 -0.0037058268 -0.55425352 -0.83234757 0.00075229292 0.0016958438
0.081282489 0.11302481 -0.0041391724 -0.58697563 -0.80960155 0.002230563 0.00098135194
-0.07067164 0.12116674 -0.0065087616 0.49737558 -0.86750078 -0.0077422136 0.0028901326
-0.066987798 0.12286784 -0.0062972009 0.48875746 -0.87235677 -0.010483151 0.0026460206
-0.056810133 0.12708348 -0.0046215486 0.40746033 -0.91322082 -0.0019781804 0.00075181638
0.055315368 0.1277028 -0.0058148354 -0.40933162 -0.91235924 -0.0069463812 0.0010710323
0.065126374 0.12363891 -0.0028182371 -0.47910145 -0.87773889 0.0060130376 0.0023960778
0.071379952 0.12062324 -0.0048369565 -0.51724142 -0.85580355 0.0078472588 0.0022701323
-0.045827474 0.13163252 -0.00644902 0.33665037 -0.94162697 -0.002259911 0.0013837148
-0.03572588 0.13564754 -0.0027291626 0.25721017 -0.96634525 0.0044501433 0.0019538223
-0.022038892 0.13744944 -0.0062988712 0.15281925 -0.98824918 -0.0031351745 0.0014059518
-0.01486717 0.1383936 -0.0050152098 0.096139073 -0.99536312 0.0030709158 0.00093406806
-0.0049288068 0.13970199 -0.0034601812 0.043083753 -0.99906677 -0.0030672334 0.0016034292
0.0068338942 0.13945121 -0.002760835 -0.055361561 -0.99844092 0.0071257693 0.0022267608
0.014107711 0.13849363 -0.0051643346 -0.088043489 -0.99610925 -0.003843135 0.0013955964
0.026689555 0.13683727 -0.0052109924 -0.19286171 -0.98121607 0.004405099 0.0015884172
0.035402268 0.13541834 -0.0025937587 -0.23599753 -0.97175008 0.0026352825 0.0023034432
0.044476122 0.13219261 -0.0052047404 -0.33523506 -0.94212359 -0.0045263339 0.0012384979
-0.001663878 0.14013183 -0.0067771077 -0.0038206519 -0.99996275 -0.0077338382 0.0024728284
-0.0021581817 -0.14006674 0.00035396218 0.017729755 0.99984235 0.00096225739 0.0026860207
0.0018563397 -0.14010648 0.0014443249 -0.020877235 0.99978143 0.0010885759 0.0025613415
-0.045529298 -0.13175578 0.0046367277 0.32822478 0.94459826 -0.0016227154 0.001262925
-0.036482457 -0.13522917 0.0046750987 0.26323694 0.96473116 -0.00039522856 0.0021891543
-0.024479669 -0.13712792 0.005444746 0.17447367 0.98465389 0.0039543184 0.0010683406
-0.014468299 -0.138446 0.0048310198 0.10106283 0.99487978 0.00081576646 0.0011202163
-0.0063605448 -0.13951346 0.0041476148 0.059639852 0.99820828 0.0048287497 0.0019772963
0.0061084367 -0.13954666 0.0041442048 -0.042690173 0.99908304 0.0032606123 0.002252152
0.014837202 -0.1383975 0.0046850508 -0.098964646 0.99509078 -0.00060266542 0.0011579837
0.025336364 -0.13701522 0.0042933938 -0.18269794 0.98316717 0.0019522252 0.0016443798
0.036287341 -0.13529672 0.0056132171 -0.26012504 0.96551239 0.010988794 0.0017236772
0.04626286 -0.13145223 0.0034989193 -0.33799234 0.94114131 0.0037771403 0.0010771477
-0.070670255 -0.12116753 0.0079942346 0.50980562 0.86028737 0.0019738786 0.0027133874
-0.063668311 -0.12424251 0.0061072856 0.45705363 0.88943595 0.0023741485 0.0024073359
-0.054698706 -0.12795776 0.0043610381 0.40420374 0.91459918 0.01129595 0.00085250108
0.05484844 -0.12789594 0.0066257818 -0.39993221 0.91654462 0.00026566657 0.00064491265
0.066633821 -0.12301423 0.0055086985 -0.48308253 0.87556994 -0.0029051164 0.0023807003
0.070194073 -0.12153293 0.0014162809 -0.49525514 0.86868006 -0.010829612 0.0023244622
-0.082841158 -0.11182818 0.0056063854 0.60353595 0.79732651 0.003854759 0.00097138103
-0.076712012 -0.11653137 0.0059499466 0.55756414 0.83010536 0.006873616 0.0017790558
0.075988181 -0.11708698 0.0047741504 -0.55724162 0.83034772 -0.0021011597 0.0016816399
0.083704568 -0.11116602 0.0046399049 -0.60863692 0.79344493 -0.0025022384 0.00074511179
-0.093977928 -0.10328235 0.004923502 0.67228943 0.74028701 -0.0014424531 0.002169658
-0.087493211 -0.10825841 0.006260898 0.61786777 0.78628033 0.0016372439 0.0011804354
0.087898098 -0.10794824 0.0070465058 -0.62624896 0.77962267 0.00086984603 0.0012975143
0.095791422 -0.1018915 0.0057961829 -0.6871646 0.72648829 0.0044223168 0.0023166821
-0.1031456 -0.094155818 0.0048361197 0.73289233 0.68033886 -0.0027883258 0.0022783754
-0.099364273 -0.099073708 0.0045556999 0.70061135 0.71352893 -0.0045013027 0.0021144294
0.099982426 -0.098279491 0.0050524529 -0.7164892 0.69759542 0.0019720686 0.0023075191
0.10430066 -0.092651948 0.0037375204 -0.7511887 0.66007656 -0.0037942687 0.0018198382
-0.11391976 -0.080114886 0.009951055 0.81958258 0.57295907 0.001510286 0.0012429454
-0.10659159 -0.089665003 0.0040818304 0.76411736 0.64507651 0.00092986628 0.0012226509
0.10891655 -0.086636506 0.005156999 -0.78453535 0.62008107 -0.0019580631 0.0012220844
0.11254141 -0.081912555 0.0062204823 -0.79782522 0.60288817 -0.00087990036 0.00059449248
-0.12070729 -0.071269348 0.0040056999 0.85462022 0.51925355 -7.3786832e-05 0.0023237555
-0.11827562 -0.074438311 0.0050676293 0.83971208 0.54303104 0.0010342497 0.0018373182
0.11604605 -0.077345297 0.0029341839 -0.82648093 0.56294 -0.0052694445 0.0014582837
-0.1240111 -0.064225733 0.002307459 0.88019162 0.47461739 -0.0010100449 0.0023010131
0.12362731 -0.065154925 0.0043812557 -0.88058859 0.47386438 -0.0040311785 0.0021431793
-0.12746505 -0.05588701 0.0039489926 0.9156884 0.40188429 -0.0019158828 0.0008975807
0.12790574 -0.05482566 0.0050323051 -0.91526383 0.40285185 -0.0015661914 0.00065217604
-0.13215239 -0.044570595 0.0055815191 0.94780463 0.31883371 -0.0033814115 0.0016812447
0.1321936 -0.044473697 0.0070009716 -0.94583136 0.32465011 -0.0023295803 0.0013328457
-0.13538201 -0.035519544 0.0055942968 0.96971816 0.24411447 -0.0074023032 0.0020735096
0.13557477 -0.034479965 0.0046967147 -0.96909928 0.24662168 -0.0049370965 0.0020200773
-0.13693275 -0.025958415 0.0051498255 0.98601747 0.16662046 -0.0026846179 0.00083356438
0.13707069 -0.024916332 0.0042311051 -0.9845351 0.17511882 -0.0049017533 0.00098397664
-0.13819601 -0.016364807 0.0058879787 0.99104339 0.13347863 -0.00405847 0.0010041547
0.13842663 -0.014616546 0.0033586503 -0.99469328 0.10287943 0.0010673506 0.001135497
-0.14020693 -0.001093279 0.0068334476 0.99997431 0.0058849799 -0.0040845168 0.0030129382
-0.13946174 -0.0067523671 0.0053245313 0.99753636 0.070146345 0.00082997599 0.0018100935
0.13954158 -0.0061473274 0.0067904643 -0.99760348 0.069182999 0.0010583809 0.0018709515
0.14013532 -0.0016374082 0.0046906807 -0.99999368 0.0033064568 -0.0013405686 0.0030234884
-0.14023951 0.00084577722 0.0010665953 0.99995083 -0.0083070891 -0.0054134028 0.0028010001
-0.13941905 0.0070765936 0.0064489977 0.99731344 -0.073192477 -0.0029752145 0.0019005687
0.13966385 0.0052187731 0.004634154 -0.9993583 -0.035798535 -0.0012190558 0.0021610779
0.14030942 0.00031494119 0.0055440292 -0.99997884 0.0044305669 0.0047712428 0.0028766033
-0.13834131 0.015261369 0.0035343687 0.99215716 -0.12498638 -0.0015809526 0.00074737408
0.1382221 0.016170336 0.0047148168 -0.99362314 -0.11261044 -0.0056506861 0.00056620082
-0.13678347 0.027092136 0.0059664631 0.98300821 -0.18340851 0.0074953269 0.00147158
0.13716094 0.024230951 0.0064703813 -0.98448044 -0.17542809 0.0048234998 0.001156454
-0.13565841 0.034379497 0.0042830203 0.97184229 -0.23512363 0.015472217 0.0022279194
0.13513975 0.036618959 0.0054151909 -0.96782869 -0.25118431 0.014628845 0.0019972394
-0.13223916 0.044361327 0.0055878065 0.94809061 -0.31768376 0.014184294 0.001935789
0.13168302 0.045706548 0.005630997 -0.94189107 -0.33588925 -0.0044211 0.0013645749
-0.12785617 0.054942902 0.0047795773 0.9212324 -0.38895375 -0.0067729047 0.0011731449
0.12753612 0.055718202 0.0051459852 -0.91521001 -0.40296736 -0.0028277088 0.00060084177
-0.12318125 0.066229217 0.002144133 0.87739044 -0.4797731 0.0019474208 0.0026021458
0.12326449 0.066030867 0.0042763562 -0.8788808 -0.47699228 0.0068536666 0.0026962634
-0.12099963 0.070888385 0.0067135505 0.86135358 -0.50792909 0.0088419216 0.0026884973
-0.11698717 0.076117493 0.0050816457 0.82662308 -0.56274766 -0.0030574114 0.0017069188
0.1167595 0.076415569 0.0056299288 -0.83140326 -0.55561882 0.0075148521 0.0019851862
0.12147024 0.070276462 0.0082491888 -0.8580991 -0.51348233 0.0013963948 0.0030854617
-0.11225437 0.082285352 0.0055758189 0.79416031 -0.60770726 0.0011349942 0.00059145573
-0.1084412 0.087254733 0.0052145417 0.78947699 -0.61376739 -0.0039415723 0.00063445349
0.10791283 0.087944724 0.0057973703 -0.77025151 -0.63773227 -0.0031710605 0.0013768323
0.11127678 0.083560757 0.0050953524 -0.79480541 -0.60686284 -0.0013516238 0.00077253854
-0.10461871 0.092236258 0.0040764436 0.74760276 -0.66409004 -0.0086344518 0.0020848613
-0.099495843 0.098887898 0.0037361681 0.70817095 -0.70603645 -0.0025456296 0.0024830608
0.10332835 0.093919285 0.0055609457 -0.73822719 -0.67454594 0.0028971101 0.0022052245
-0.094637059 0.10277684 0.0039604665 0.68028533 -0.73291624 -0.0067614564 0.0023548615
-0.0866974 0.10886935 0.0037514113 0.62074691 -0.78401083 -0.00053873338 0.00081681303
0.087466843 0.1082794 0.0036904414 -0.63010997 -0.77650571 -0.00041741985 0.0014632755
0.094485365 0.10289394 0.0042692893 -0.68314105 -0.73021215 -0.010411267 0.0022150127
-0.082627065 0.11199273 0.0053661466 0.60989594 -0.79248142 -0.00032927425 0.0007663602
-0.078019224 0.11552855 0.00054823607 0.57367325 -0.81905168 -0.0073004235 0.0013090244
0.075942658 0.11712217 0.0027219243 -0.54683429 -0.83724087 8.9532041e-05 0.0019821275
0.083360367 0.1114304 0.0062198085 -0.61021125 -0.79223543 -0.0023008848 0.00070079573
-0.071585849 0.12046522 0.0037664473 0.51010674 -0.85999942 -0.013859532 0.0023396101
-0.065436266 0.12351049 0.0061295461 0.48154747 -0.87641615 -0.0026174868 0.0023359798
-0.055087134 0.12779714 0.0036519151 0.40165791 -0.91578633 0.0024906322 0.00073248497
0.056124862 0.12736751 0.0037779985 -0.39930615 -0.91681713 -0.00098466373 0.00075559621
0.065594807 0.12344488 0.0070665902 -0.48239321 -0.87595022 0.0028307852 0.0025888586
-0.045271203 0.13186294 0.0045025162 0.33379385 -0.94263673 0.004225512 0.0015163705
-0.033787757 0.13590269 0.00623878 0.23525614 -0.97193152 -0.0019257204 0.0024660104
-0.02417166 0.13716865 0.0067978189 0.16540833 -0.98622423 0.0013547806 0.00084228639
-0.013148919 0.1386198 0.0038872722 0.076249197 -0.99708861 -0.00051588769 0.0016440687
-0.0059829685 0.13956322 0.0030923698 0.057866003 -0.99832392 -0.001000161 0.0017609823
0.0066345842 0.13947746 0.0031588271 -0.076590642 -0.99705642 -0.0035193909 0.001591715
0.015828103 0.13826714 0.0034336895 -0.098400861 -0.99514687 0.00012999959 0.00088384759
0.025064135 0.13705125 0.006076714 -0.16753027 -0.98585582 0.0046929363 0.00087585516
0.034577288 0.1356387 0.0075697983 -0.23968482 -0.97079229 0.010656275 0.0022234824
0.045400258 0.13180982 0.0065140435 -0.33512914 -0.94217074 -0.0016651429 0.00094257016
-0.0015235683 -0.14015028 0.016140603 0.013291469 0.99990988 0.0018708376 0.0027175792
0.00015290322 -0.14033075 0.013667151 0.0077071269 0.99993825 -0.0080027916 0.0028865442
-0.045980088 -0.13156906 0.015996048 0.33514443 0.94216663 -0.00048745677 0.001091857
-0.036931049 -0.13504106 0.013279587 0.25277573 0.96749645 -0.0074174008 0.0020995992
-0.026455242 -0.13686782 0.014601727 0.18248905 0.9831242 -0.012822808 0.0010494624
-0.014763833 -0.1384071 0.014596728 0.11865856 0.99293458 -0.00097718451 0.00047292301
-0.0073695532 -0.13938062 0.013153034 0.059469894 0.99821979 -0.0045346813 0.0021748564
0.0073699527 -0.1393806 0.01357989 -0.064591944 0.99790633 -0.0032911215 0.0018921321
0.015380509 -0.13832596 0.015499892 -0.11377043 0.99350643 -0.0010940357 0.0012753535
0.024570184 -0.13711609 0.01612331 -0.1728075 0.98495477 0.0013253847 0.0011068196
0.035656422 -0.13537961 0.014555946 -0.24562021 0.9693656 0.0010392804 0.0022589976
0.04420482 -0.13230473 0.01347661 -0.30617428 0.95194542 -0.00755995 0.0018221338
-0.064833656 -0.12375983 0.015483675 0.47421709 0.88039398 0.0049603959 0.0022497494
-0.055452306 -0.12764561 0.013356877 0.4037948 0.91484863 0.0013579115 0.00081968668
-0.049872067 -0.12995698 0.012982756 0.35347688 0.93543279 -0.0044287411 0.0013180224
0.049940199 -0.12992904 0.013421625 -0.35491318 0.93489552 -0.0026535955 0.0012994182
0.058400251 -0.12642473 0.015846703 -0.41767102 0.90859491 -0.0025075879 0.0011794879
0.065986119 -0.12328252 0.014752358 -0.4795247 0.87750918 -0.0058009592 0.0022077523
-0.083617881 -0.11123214 0.013685175 0.59777331 0.80166459 -0.0009860018 0.00077690172
-0.075694375 -0.11731227 0.015018324 0.54112476 0.84093523 -0.0034504945 0.0020980893
0.075218752 -0.11767738 0.014019761 -0.54070747 0.84108162 -0.01473788 0.0019923355
0.081433542 -0.11290863 0.01502295 -0.58966225 0.80763066 -0.0055790446 0.00081510568
-0.093543746 -0.10361554 0.01528165 0.67443848 0.73832589 0.0027516659 0.0021770673
-0.087922327 -0.10792913 0.019305602 0.63231552 0.77470368 -0.003364298 0.0013272292
0.088295013 -0.10764366 0.017967992 -0.62475044 0.78080624 0.0053360062 0.0013477582
0.094375037 -0.10297833 0.016104521 -0.68453097 0.72898221 0.0014734062 0.0024143273
-0.10255358 -0.094927363 0.016891001 0.73026222 0.68315452 -0.0041263513 0.0024064754
-0.09940207 -0.098977745 0.016269585 0.70832092 0.70587933 -0.0039944788 0.0027696507
0.098944157 -0.099404253 0.011787303 -0.7063573 0.70785099 0.0025119914 0.0024897654
0.10264821 -0.094805442 0.013584279 -0.73542404 0.67759091 -0.0046912832 0.0024671888
-0.11206705 -0.082529351 0.013766085 0.79578435 0.60557592 0.0022356219 0.00079152168
-0.10885127 -0.086720169 0.014113696 0.79119033 0.61156714 0.0018566896 0.00085877802
0.10798545 -0.087849915 0.017144777 -0.7750625 0.63187826 -0.0027960388 0.0015352452
0.11192843 -0.082711406 0.01759202 -0.7930935 0.60909694 0.0019066328 0.00059333001
-0.11721735 -0.075817473 0.016864793 0.83373356 0.5521667 0.0006313349 0.0017755638
0.11760008 -0.075320087 0.014250209 -0.84481233 0.53494841 0.011060435 0.0021383646
0.12050979 -0.071528137 0.014191194 -0.85247189 0.52276498 0.0029164676 0.0026442457
-0.12363311 -0.065138303 0.014356638 0.88336277 0.46868989 0.00017352997 0.0022869871
0.12324981 -0.066066302 0.013136946 -0.8776322 0.47931334 -0.0045197415 0.002350599
-0.12724014 -0.056430005 0.016669715 0.9117018 0.41083816 -0.0034448253 0.0010390498
0.1277196 -0.055275071 0.015556619 -0.9156481 0.4019798 0.00091808918 0.00062425737
-0.13251665 -0.043691173 0.015665714 0.9542107 0.29891285 0.011529357 0.0020715715
0.12994564 -0.049900867 0.016474232 -0.93180752 0.36295262 0.00043608696 0.0015767372
0.13205706 -0.0448034 0.01602448 -0.95116359 0.30868068 0.0020066712 0.0022106336
-0.13555832 -0.035865504 0.01459261 0.96881384 0.24774569 0.004691211 0.0022113761
0.13545284 -0.03550864 0.015281536 -0.97087944 0.2395 0.0057324753 0.002260519
-0.1371153 -0.024571978 0.01517367 0.98565966 0.16832164 -0.011951658 0.0011148906
0.13709778 -0.024710646 0.014337398 -0.98430532 0.17646599 0.0016628447 0.0011454413
-0.13831563 -0.015456254 0.014880328 0.99270761 0.12054688 6.2715109e-05 0.00096201018
0.13830118 -0.015569546 0.01415813 -0.99214661 0.12507907 0.00056149223 0.0010342023
-0.14003788 -0.002377064 0.0176256 0.99986464 0.015055177 -0.0066271611 0.0028240469
-0.13948549 -0.0065720533 0.013816237 0.99824077 0.058823153 -0.0074297306 0.0021408182
0.13953656 -0.0061854981 0.015644254 -0.99799174 0.063318498 -0.0018347717 0.0019751347
0.14004976 -0.0022872954 0.012099832 -0.99991995 0.011856154 -0.0044268505 0.0029522486
-0.14020385 0.0011166641 0.017060224 0.99999136 -0.0036744035 0.001961791 0.0029481295
-0.13949814 0.0064760079 0.015172257 0.99790442 -0.064563759 -0.0042829379 0.0019780404
0.13946006 0.006766635 0.014800358 -0.99748999 -0.070651226 -0.0047063162 0.0022148124
0.1402037 0.0011180146 0.0101976 -0.99989092 -0.014392874 0.0033102087 0.0028378717
-0.13821162 0.0162462 0.015749397 0.99215579 -0.12500013 -0.0013498004 0.00077631773
-0.13705575 0.02502442 0.016484709 0.98714513 -0.15976837 -0.0043153404 0.00086956372
0.13703111 0.025217177 0.015201031 -0.98496842 -0.17252174 0.008578511 0.0011909035
-0.13552453 0.035047878 0.013779504 0.97385049 -0.22716421 -0.0034158707 0.0022955765
0.13529192 0.036070932 0.015550964 -0.97116029 -0.2384216 0.0016851708 0.0022085416
-0.13209397 0.044711836 0.015395154 0.94489419 -0.32731962 0.0060668667 0.001869063
0.13224654 0.04434609 0.01507755 -0.94374025 -0.3306872 0.00061897113 0.0014454656
-0.12783892 0.054984491 0.014248661 0.91719776 -0.39843237 8.4158899e-05 0.00069262832
0.12950179 0.050972555 0.012193173 -0.92724615 -0.37445199 0.000342188 0.0015711443
-0.12361591 0.065179899 0.015702724 0.87225908 -0.48901573 -0.0052543003 0.0026796113
0.12400164 0.064251184 0.016444385 -0.88050079 -0.47403243 0.0034316282 0.0025677511
-0.12006955 0.072100475 0.015913272 0.8504017 -0.52613372 -0.00056836643 0.0023726667
-0.11623306 0.077100255 0.01669829 0.8279283 -0.56080222 0.0059595904 0.0017414654
0.11728649 0.075728804 0.012570107 -0.83812559 -0.54547727 0.00014579239 0.0023405447
0.12119204 0.070639022 0.013758585 -0.86151385 -0.507734 0.00041607741 0.0029327609
-0.11167155 0.083044894 0.013201604 0.79221159 -0.61024362 0.0018937268 0.00063770462
-0.10871731 0.086894907 0.015065799 0.79016173 -0.61289847 -0.00010373667 0.0006216006
0.10785668 0.088017896 0.019103713 -0.78079253 -0.62479025 -0.00030504912 0.0012054401
0.11186861 0.082789496 0.014976118 -0.79699206 -0.60398203 0.0030466942 0.00085939688
-0.10170148 0.096038043 0.015755024 0.7250883 -0.68863523 -0.0053371289 0.0022468735
-0.099675447 0.098678403 0.012230664 0.71381295 -0.7003333 -0.0021205167 0.002213022
0.09940239 0.099035673 0.013827872 -0.70866674 -0.70553738 -0.0028888888 0.002776816
0.10383316 0.093261413 0.014302482 -0.74037588 -0.6721912 0.0015950029 0.0023174812
-0.095109776 0.1024141 0.016161278 0.68655592 -0.72707069 -0.0030114895 0.0021131041
-0.087502055 0.1082519 0.015708108 0.61842471 -0.78584373 0.0007318643 0.00085504795
0.088245295 0.10768207 0.014126153 -0.63158602 -0.77530408 -0.0016447416 0.0014189009
0.095338181 0.10223954 0.014349604 -0.67867041 -0.73444057 -0.0018972168 0.0020755406
-0.083016694 0.11169375 0.01480338 0.60393023 -0.79703414 -0.002211153 0.00047964577
-0.074192651 0.11846489 0.011786744 0.54119372 -0.84086013 -0.0079772053 0.0017746851
0.075914405 0.11714385 0.014631907 -0.56055814 -0.8281101 0.0028617093 0.0018862945
0.083042987 0.11167394 0.015600534 -0.61108965 -0.79156011 0.0014302341 0.00090569747
-0.066927612 0.12289276 0.017539239 0.47859484 -0.87802398 -0.0045720381 0.0020844338
-0.055628736 0.1275728 0.01814506 0.39519873 -0.91859186 -0.0026589208 0.00058854168
0.054593176 0.12800194 0.012351938 -0.39019907 -0.92071337 0.0056225546 0.0010056661
0.06573917 0.12338507 0.014420203 -0.48097476 -0.8767128 0.0061613806 0.0027145892
0.071873263 0.12024473 0.017509103 -0.52413797 -0.85156602 0.010712241 0.0024997392
-0.04333704 0.13266408 0.014106937 0.31059638 -0.95052767 -0.0051934873 0.0017426363
-0.034160867 0.1357879 0.013033208 0.22989888 -0.97319984 -0.0053403405 0.0021984079
-0.026268452 0.13689262 0.016188279 0.16578096 -0.98616171 0.0013292499 0.00097898953
-0.015670327 0.13828787 0.015635746 0.12315011 -0.99238801 -0.00040391937 0.0009999522
-0.0082442109 0.13926551 0.015421819 0.07293617 -0.99733573 0.001322398 0.0017831351
0.0055896491 0.13961501 0.018249629 -0.052925035 -0.99859434 0.0028893251 0.0019530847
0.015457964 0.13831589 0.012398163 -0.1132213 -0.99356276 0.0037419209 0.0013367402
0.027728463 0.1367005 0.014812174 -0.18725881 -0.98230529 -0.0032428473 0.0015337971
0.032014944 0.1361362 0.017365351 -0.22315352 -0.97472924 0.010268159 0.0021117977
0.04472445 0.13208976 0.014507211 -0.32362273 -0.94617695 -0.0041931695 0.0016255423
-0.00047071345 0.1402889 0.016471103 -0.0012735236 -0.99994481 0.010428991 0.0027069245
0.0010847518 0.14020808 0.015760239 -0.0062096985 -0.99997514 0.0033319818 0.0027743485
-0.00014697756 -0.14033152 0.024315715 -0.004591105 0.99998701 0.0022058021 0.0031612925
0.00081000547 -0.14024423 0.028798843 -0.020360826 0.99978411 0.0041409689 0.0025038049
-0.046352118 -0.13141496 0.025598237 0.34038961 0.94025987 -0.0068027512 0.0010101923
-0.034915511 -0.13549607 0.025770897 0.24230786 0.97019243 -0.0036698182 0.0019659512
-0.025654554 -0.13697325 0.021921985 0.18348357 0.982988 -0.0082709948 0.0010872061
-0.014046479 -0.13850155 0.020925399 0.098752573 0.99510241 0.0043708179 0.0011470282
-0.0061646034 -0.13953926 0.024799135 0.053198855 0.99858308 0.0012973226 0.0022991563
0.0041756569 -0.13980113 0.023569211 -0.048800174 0.99880666 -0.0019281131 0.001968404
0.017994191 -0.13798185 0.02394259 -0.14102985 0.99000388 -0.0017260016 0.0010927435
0.02778714 -0.13669258 0.02492696 -0.19068509 0.98165017 0.0014418927 0.0017149848
0.036196113 -0.13531679 0.025544917 -0.26489985 0.96427327 -0.0022607024 0.0019958874
0.045006823 -0.13197251 0.02549595 -0.31779334 0.94814968 0.0044213366 0.0016124087
-0.070009559 -0.12161593 0.021117881 0.49802333 0.86714917 -0.0050037974 0.0021735183
-0.063168257 -0.12444964 0.024758996 0.46176878 0.8869971 -0.0024155122 0.002011874
-0.055587888 -0.12758946 0.025995823 0.39937308 0.9167881 -0.00090659544 0.00079699559
0.055400338 -0.12766734 0.024017014 -0.38947743 0.92102587 -0.0043218047 0.0010538202
0.064733952 -0.12380119 0.022912493 -0.47699338 0.87889856 -0.0038265747 0.0024378737
-0.08312428 -0.11161091 0.024594074 0.60051572 0.79961282 0.00036906745 0.0008365722
-0.076751344 -0.1165012 0.023952769 0.56139106 0.82754844 -0.0019105806 0.0015288538
0.075710483 -0.11730005 0.025411619 -0.55362004 0.83273292 -0.0077954349 0.0015405063
0.084432773 -0.11060725 0.025379278 -0.60621506 0.79530048 -0.00070388219 0.00076088565
-0.09353283 -0.10362391 0.027030997 0.67476422 0.73803228 0.0012318816 0.0021678859
-0.089606047 -0.10663714 0.026465729 0.64673746 0.76268679 -0.0062829079 0.0013287228
0.087377034 -0.10834806 0.024390941 -0.62128353 0.78358537 -0.00091395894 0.0013675484
0.094562694 -0.10283434 0.024427099 -0.68718493 0.72648227 0.00066068757 0.0027927633
-0.10588444 -0.090586558 0.027308889 0.76028764 0.64958495 -0.0014774395 0.0015943693
-0.098794311 -0.099586494 0.022849202 0.70751643 0.7066825 -0.0045123263 0.0026361512
0.099114768 -0.099271014 0.023709819 -0.69511658 0.71889466 -0.0018131165 0.0026498416
0.1033001 -0.093955874 0.023242267 -0.74433821 0.66776592 -0.0070267511 0.0023077468
-0.11089333 -0.084058963 0.02439476 0.79326332 0.608877 0.0014033838 0.00071995991
-0.10797571 -0.08786121 0.026404897 0.77662134 0.62996316 0.0023841301 0.0014407474
0.10957639 -0.085776597 0.026320621 -0.78789228 0.61580992 -0.0019913518 0.00070542138
0.1125446 -0.081908405 0.026634144 -0.79359257 0.60844219 0.0029951264 0.00068730343
-0.12094617 -0.070958048 0.027053591 0.86042631 0.50957465 0.00043055919 0.0023291579
-0.11660717 -0.076612666 0.025714021 0.83016485 0.55751324 0.0023220747 0.0018245393
0.11742303 -0.075550817 0.025482662 -0.84515005 0.53444934 0.0092337895 0.002628109
0.1205017 -0.071538664 0.027632698 -0.85589749 0.51704198 0.010348837 0.00245014
-0.12423999 -0.063673124 0.022795331 0.88081872 0.47344628 -0.0026513778 0.0023314601
0.12354983 -0.065341964 0.028493399 -0.87825286 0.47802752 0.012713299 0.0024215628
-0.12789372 -0.054852113 0.024779951 0.91569316 0.40187496 0.0016131353 0.00062220328
0.12814595 -0.054245759 0.024629211 -0.91804725 0.39642283 0.0061784051 0.00052599906
-0.13192369 -0.045122709 0.025087142 0.94262248 0.33384922 -0.0027362201 0.0015540054
-0.12997563 -0.04982587 0.029389281 0.93763006 0.34763399 -0.0006683133 0.00120391
0.13249022 -0.043757603 0.024983633 -0.95019621 0.31163922 -0.0028819398 0.001680545
-0.13533197 -0.035550535 0.022239 0.96960211 0.24468677 -0.00040643103 0.0023167157
0.13528894 -0.036483936 0.024695639 -0.96323204 0.26866972 -0.00071620848 0.0019977624
-0.13699359 -0.025496244 0.025434991 0.98521376 0.1713288 0.00053932547 0.001134407
0.13711073 -0.024612071 0.025925793 -0.98440814 0.17587422 0.0029825217 0.0011629814
-0.13851188 -0.013965835 0.025984915 0.99495804 0.10021418 0.0039442671 0.0012463758
0.1380616 -0.017389376 0.022646463 -0.99156708 0.12958851 0.0012598513 0.0010660024
-0.14014962 -0.0015283288 0.02192805 0.99996483 0.0054522725 -0.0063624466 0.0028047019
-0.1395144 -0.0063525736 0.026807534 0.99823403 0.059328523 0.0029826546 0.0020429757
0.13955323 -0.0060588829 0.024206268 -0.99926788 0.037954416 -0.0048099183 0.0024049163
0.14017868 -0.0013080328 0.023230333 -0.99995172 0.0041397884 -0.0089210048 0.0028885808
-0.14002337 0.0024873323 0.026718296 0.99995172 -0.0094550196 0.0026770146 0.0030087703
-0.13928667 0.00808213 0.025402552 0.99676257 -0.080229655 0.0052445107 0.001718726
0.13933599 0.0077091772 0.024161726 -0.99751401 -0.070437908 -0.002059195 0.002015356
0.14024177 0.00082881167 0.021516725 -0.99997771 -0.004830508 -0.004616749 0.0027282392
-0.13825031 0.015952507 0.025326258 0.99487776 -0.10101848 -0.0036771165 0.00099092803
0.13837086 0.015040319 0.024694249 -0.99265033 -0.12100831 -0.0015115114 0.00089030073
-0.13694476 0.025867334 0.02548103 0.98620605 -0.16550691 0.0022401044 0.0010126537
0.1372474 0.023574209 0.02481686 -0.98738033 -0.1583637 -0.00095732172 0.0010576206
-0.13548362 0.036067523 0.027533691 0.96932226 -0.24579296 -0.00040691701 0.002196145
0.13587788 0.033683453 0.025912182 -0.97491026 -0.22248355 -0.007147131 0.0019575665
-0.13160187 0.045899898 0.024986878 0.94054586 -0.33966532 0.00099675835 0.0012400195
0.13233817 0.044124864 0.025399663 -0.94784641 -0.3187077 -0.0035619081 0.0020159865
-0.12701918 0.056963582 0.024227524 0.91333055 -0.4071995 0.0039728899 0.00075165328
0.12859872 0.053152777 0.025242049 -0.91785294 -0.39691168 -0.0026583783 0.00051692809
-0.12278374 0.067188933 0.024030536 0.87407666 -0.48574761 -0.0062564542 0.0026218558
0.1235718 0.065288946 0.022510648 -0.87709308 -0.4803068 -0.0036131674 0.0024534632
-0.12064438 0.071351342 0.024947181 0.85335821 -0.52124524 -0.0091211582 0.0023350616
-0.11766611 0.07523267 0.023371641 0.83433652 -0.55124801 -0.0028567717 0.0018911744
0.11834735 0.074346259 0.024614563 -0.84145463 -0.5402748 0.0075748581 0.0020767213
0.12065095 0.071344174 0.026824439 -0.85811621 -0.51341051 0.006791966 0.0024964283
-0.111737 0.082959592 0.026945012 0.79322273 -0.60892963 -0.0015090675 0.0006354223
-0.10849123 0.08718954 0.026472285 0.78234679 -0.62281889 -0.0054843868 0.0011280117
0.10869913 0.086919993 0.025382994 -0.79118228 -0.61158007 -0.00064041006 0.00093341636
0.11118349 0.083682321 0.025961312 -0.79099786 -0.61181891 0.00023222002 0.00088978535
-0.10289779 0.094478995 0.022978045 0.73550153 -0.67750001 -0.0055913967 0.002170709
0.09959092 0.098789975 0.022017866 -0.70522153 -0.70889688 -0.011300624 0.0020096323
0.1039738 0.093078114 0.024517274 -0.73470867 -0.6783551 -0.0061331713 0.0023007879
-0.093952559 0.1033021 0.022929454 0.68475455 -0.72869247 -0.010883215 0.0020187364
-0.086829551 0.10876794 0.023586681 0.61128235 -0.79141003 -0.0019777468 0.00053260662
0.085290343 0.10994948 0.023664642 -0.61307824 -0.79002225 -0.00019085544 0.00075107825
0.093935147 0.10331613 0.024335245 -0.67408645 -0.73863989 -0.0043203039 0.0020525563
-0.082214154 0.11230958 0.027748497 0.60540092 -0.79591912 0.0015839589 0.00059542392
-0.077091552 0.11624042 0.024175342 0.55324936 -0.83300382 -0.0044582402 0.0014935602
0.074270338 0.11840539 0.02359267 -0.54186881 -0.84044564 -0.0054059713 0.0018815002
0.082013279 0.11246406 0.025194785 -0.60515189 -0.79610461 -0.0029284318 0.00073989551
-0.065499052 0.12348448 0.02533807 0.48096216 -0.87673724 -0.0027009149 0.0021116512
-0.054351937 0.12810166 0.02361959 0.3863121 -0.92236805 0.00024179867 0.0010980645
0.054025531 0.12823708 0.029101521 -0.39262152 -0.91969806 0.0019409998 0.00056305266
0.066548668 0.12304976 0.023615953 -0.47923055 -0.87768739 -0.0017085117 0.0025662712
0.071279027 0.12070069 0.022839136 -0.5130893 -0.85822415 -0.013810052 0.0024706267
-0.043151859 0.1327408 0.024597706 0.29725692 -0.95478606 -0.0046809884 0.0022769778
-0.03501327 0.13556311 0.026556328 0.23989224 -0.97077507 -0.0068861898 0.0023569614
-0.026737267 0.13683088 0.023837322 0.18368611 -0.98296076 -0.0069006342 0.0018142079
-0.01513431 0.13835843 0.024105577 0.12274276 -0.99243623 -0.0021563673 0.00065726688
-0.0065405071 0.13948981 0.022950338 0.062238261 -0.9980613 0.00029729979 0.0019242316
0.0066648717 0.13947348 0.024512274 -0.062835492 -0.99800539 0.0060822158 0.0022173675
0.015153766 0.13835593 0.027316645 -0.10981296 -0.9939515 0.0012212347 0.00058399682
0.02563164 0.13697654 0.023988422 -0.17005193 -0.98541641 -0.0060767606 0.00093409809
0.036237445 0.13530141 0.024266087 -0.25226572 -0.96765316 -0.0030539134 0.0022069542
0.044855591 0.13203542 0.025676355 -0.33807006 -0.94111538 0.0032445081 0.0010857619
-0.0005905088 0.14027314 0.027028501 0.012378288 -0.99984998 0.012111521 0.0026849352
0.0026627732 0.14000031 0.023871392 -0.023022257 -0.9997313 0.0027124337 0.0026341665
0.0013083991 -0.14017862 0.034440175 -0.0091603622 0.99988788 0.011847753 0.0031827169
-0.045441508 -0.13179214 0.03602653 0.32910287 0.9442938 0.00067971839 0.0010634803
-0.023888467 -0.13720575 0.033964038 0.17460307 0.98463881 -0.00053519348 0.0010866186
-0.015172622 -0.13835327 0.033467881 0.11659508 0.99317932 -0.00066621939 0.00044754671
-0.0059102941 -0.13957275 0.03468952 0.044614676 0.99897987 0.0069738696 0.0020932883
0.0075759403 -0.13935348 0.035607118 -0.064852834 0.99789441 0.00098014658 0.002076488
0.015638681 -0.13829198 0.036661942 -0.12618925 0.99200612 0.00026872207 0.0007272691
0.026056759 -0.13692039 0.03584037 -0.16542915 0.98620772 0.0052410606 0.00076632859
0.034741107 -0.13569771 0.035399895 -0.2429554 0.9700281 -0.0042775841 0.0022285548
0.044194106 -0.13230917 0.033123326 -0.30902648 0.951051 -0.0021394987 0.0018283025
-0.065376423 -0.12353501 0.033467676 0.47518134 0.87987435 -0.0048805196 0.0021588148
-0.056404538 -0.12725119 0.035096664 0.40407655 0.91472405 0.0014573063 0.00081923296
-0.049875315 -0.12995563 0.037544563 0.35965738 0.93308324 -0.0014777257 0.0016921333
0.054764308 -0.12793079 0.037233885 -0.40058935 0.91625601 -0.0017498413 0.00068563409
0.065204673 -0.12360622 0.032449476 -0.48216492 0.87608004 0.00083397026 0.0021343338
-0.083480902 -0.11133727 0.037357569 0.60322207 0.79757154 0.0016872507 0.00065982214
-0.075789019 -0.11723964 0.035643764 0.54198468 0.84038484 0.0024404195 0.0020110053
0.076885909 -0.11639814 0.03401646 -0.55838734 0.82955921 0.0059206272 0.0015374458
0.082278445 -0.11226032 0.033647224 -0.60402721 0.79696196 -0.001667038 0.00082733139
-0.097039364 -0.10093316 0.033732161 0.68463439 0.72885686 -0.0065873018 0.0022205659
-0.085355677 -0.10989866 0.035761312 0.61202401 0.79083049 0.0037113559 0.0010254807
0.087101638 -0.10855937 0.036965486 -0.62640125 0.77949345 -0.0033690319 0.0012853571
0.094140045 -0.10315864 0.035653234 -0.67512035 0.73770231 -0.002815153 0.002213774
-0.10300212 -0.094342805 0.034513734 0.73334658 0.67985028 0.0025098836 0.0023984273
-0.099708907 -0.098634541 0.033472992 0.71853697 0.69548774 -0.0012297216 0.0023906506
0.099194288 -0.099204168 0.033706643 -0.70503211 0.70916712 -0.0034325384 0.0025068664
0.10331362 -0.093938261 0.036726993 -0.74053156 0.67199314 0.0061817123 0.002374246
-0.11105385 -0.08384975 0.033271369 0.79529142 0.60622168 0.0026270708 0.0009219037
-0.1080061 -0.087821595 0.034616809 0.78000098 0.62577498 0.0020260201 0.0010884672
0.10772546 -0.088188738 0.033489656 -0.78005606 0.62570596 -0.0021695299 0.00122482
0.11214126 -0.082434043 0.03484983 -0.79199427 0.61052811 0.0006980598 0.00065629248
-0.12113442 -0.07071273 0.032411084 0.86181563 0.50721818 0.0018755444 0.0026926636
-0.11652191 -0.076723762 0.03559491 0.83292013 0.55334598 0.0072368593 0.0017665697
0.11814525 -0.07460963 0.033381019 -0.840846 0.54127097 0.0019187367 0.0022363747
0.12069166 -0.071291104 0.033792701 -0.86410141 0.5033021 0.0039726035 0.0029767489
-0.12309896 -0.066427872 0.036632065 0.87472689 0.48450026 0.010598647 0.0028167204
0.12257452 -0.067696601 0.034690849 -0.87854892 0.47758511 0.0080127092 0.0026920538
-0.12796827 -0.054672156 0.034536723 0.91315615 0.4075782 0.0050861016 0.000815604
0.12735263 -0.056161035 0.035618618 -0.91836864 0.39572218 0.0017286052 0.00049806258
-0.1322187 -0.044410504 0.035991631 0.94403261 0.32984781 0.001667972 0.0013203437
0.1316898 -0.045689985 0.034496143 -0.94072163 0.33912489 -0.0060896752 0.0014153471
-0.13534003 -0.035851225 0.035670798 0.96870601 0.24807997 0.0080663571 0.0022521615
0.13554651 -0.035072394 0.03534063 -0.96866947 0.24835208 0.00081698532 0.00215235
-0.13726306 -0.023449847 0.035720401 0.98560709 0.16899368 0.004453612 0.00094230392
0.13712575 -0.024498051 0.035634354 -0.9862631 0.16514254 0.0036130915 0.00090660399
-0.13843264 -0.014567815 0.033580992 0.99443781 0.10532268 -0.00075672945 0.0011838903
0.13838229 -0.014953407 0.037141293 -0.99585986 0.090884507 -0.0017614894 0.001306799
-0.14016508 -0.0014110841 0.034507722 0.99996448 -0.0028262471 -0.007946454 0.0026986348
-0.13933855 -0.0076879226 0.036866214 0.99758816 0.069408253 0.00065054896 0.0019641721
0.13951436 -0.0063543296 0.035751563 -0.99757051 0.069466628 -0.0052364753 0.0017955514
0.14012036 -0.0017511125 0.033808745 -0.99993414 0.0070056641 -0.0090916241 0.0025802262
-0.139412 0.0071300208 0.035732437 0.99775827 -0.06692192 -6.8574154e-05 0.001822121
0.13933893 0.0076868497 0.033780392 -0.99746424 -0.070977427 -0.0052250102 0.0018879911
0.14005001 0.0022852924 0.034823645 -0.99999154 -0.0031679482 -0.0026075486 0.0026636235
-0.13839769 0.014833139 0.03441884 0.99532443 -0.096587673 -0.00037700677 0.0011657529
0.13875915 0.0120909 0.035400536 -0.99625814 -0.086290851 -0.0048510549 0.0014930774
-0.13706149 0.024980873 0.035099287 0.9858923 -0.16733952 -0.003724478 0.0010391704
0.1371875 0.024029186 0.035490822 -0.98625523 -0.16522101 0.0016656523 0.0008744807
-0.13542849 0.035918895 0.034152288 0.971457 -0.23717402 0.0044531291 0.0022292284
0.13557589 0.036271103 0.035289533 -0.97155625 -0.23647508 -0.012565891 0.0023048716
-0.13227662 0.044270858 0.035790034 0.94289511 -0.33301505 0.0070563853 0.0013417071
0.13215655 0.044563342 0.034764435 -0.94504893 -0.32692882 -0.00022146637 0.0014548531
-0.12752254 0.055748347 0.034741525 0.91612285 -0.4008975 0.00036170986 0.00044257654
0.12764074 0.055465572 0.036608994 -0.91595745 -0.40126726 -0.0025736203 0.00062975148
-0.12367437 0.065038711 0.035791103 0.87525469 -0.48337469 -0.016675184 0.0025829584
0.12386213 0.064588018 0.034583513 -0.87945169 -0.47596854 -0.0043070568 0.0027368821
-0.12098445 0.070905194 0.036118098 0.86810207 -0.49635661 -0.005375965 0.0024768605
-0.11758429 0.07533931 0.034978017 0.83610809 -0.54848266 -0.0094921077 0.0016814456
0.11666381 0.076540284 0.037485674 -0.83430666 -0.55130041 0.00052800251 0.0022204358
0.12141556 0.070347734 0.033923768 -0.8715477 -0.49031064 0.0002100369 0.0028897231
-0.1113591 0.083452068 0.035187088 0.79488134 -0.60676461 -0.00057541789 0.00074272492
-0.10902099 0.086499132 0.034461427 0.78152549 -0.62387145 0.0015296281 0.0010885907
0.10788861 0.087976277 0.034235869 -0.77308142 -0.6342653 -0.0072548036 0.0014080516
0.11235618 0.082154065 0.035120059 -0.80063486 -0.59914881 0.0021168361 0.00095771335
-0.10245243 0.095059387 0.036442939 0.72643191 -0.6871894 0.0082103973 0.0022568104
0.0993549 0.09903983 0.034388527 -0.71433991 -0.69979453 -0.0024441492 0.0019844859
0.10263759 0.094819486 0.034548674 -0.72534901 -0.68833917 -0.0076208124 0.0022221168
-0.095600657 0.10203743 0.038247161 0.68541366 -0.72811258 0.0077559012 0.0021255403
-0.088381581 0.10757699 0.032415658 0.64351255 -0.76543468 -0.0012033205 0.0018090062
0.088218659 0.10770252 0.033124506 -0.62887549 -0.77750224 0.0024314395 0.00097465224
0.092657313 0.10429663 0.034914311 -0.66612166 -0.74580508 0.0075328974 0.0019627418
-0.081944242 0.11251669 0.033460669 0.60286278 -0.79784417 0.0011100712 0.00066747318
-0.076733597 0.11651509 0.03508798 0.54177338 -0.84048188 0.0084705884 0.001873465
0.073758394 0.11879822 0.033713788 -0.53466976 -0.84497255 -0.012235091 0.0023836186
0.083046786 0.11167102 0.035153665 -0.60999769 -0.79240113 0.0017846113 0.0007361024
-0.071714789 0.12036628 0.037007257 0.50327283 -0.86411512 0.0046506431 0.0022775051
-0.066995747 0.12286454 0.03463215 0.48474368 -0.87465549 -0.0011281137 0.0023202156
-0.055455476 0.12764457 0.032864846 0.40616235 -0.9138006 -0.00077751401 0.00091472437
-0.049912997 0.1299403 0.0394793 0.35193902 -0.93600416 0.0059264298 0.00088715862
0.055467103 0.12763996 0.034687016 -0.39347446 -0.91933364 -0.001876101 0.00035866976
0.066119246 0.12322764 0.034225151 -0.48533297 -0.87427914 -0.0093790172 0.0027660318
0.070561193 0.1212515 0.031945422 -0.50313848 -0.86420339 -0.002019112 0.0029685099
-0.047425956 0.13097043 0.035118416 0.34352773 -0.93912393 0.0059027779 0.0010411664
-0.033261109 0.13597199 0.036040418 0.23185629 -0.97274607 0.0027952096 0.002192525
-0.025848482 0.1369479 0.035331331 0.18306917 -0.98309457 -0.0032664372 0.0013637294
-0.01735853 0.13806561 0.0350991 0.11893652 -0.99289191 0.004436573 0.00065013446
-0.0062619713 0.13952649 0.03765104 0.067497335 -0.99771947 8.1394519e-06 0.0018119378
0.0046995413 0.1397322 0.03487977 -0.03887241 -0.99924308 0.0015082088 0.0022651237
0.016404536 0.13819127 0.03686263 -0.11673787 -0.99316269 -0.00027427988 0.00043971589
0.024498161 0.13712578 0.033558875 -0.1743219 -0.98467642 -0.0049177269 0.0011399462
0.034934446 0.13559973 0.033984806 -0.24671738 -0.96904945 -0.0085827503 0.0017702015
0.046335075 0.13142259 0.035057705 -0.34167847 -0.93981642 0.0009558188 0.0011591649
0.002265116 0.14005268 0.034711905 -0.017286899 -0.99983633 0.0053381985 0.0027792216
-0.0013005899 -0.14017965 0.04617916 0.01348165 0.99988765 0.0065531088 0.0027942914
0.0013621387 -0.14017156 0.044732146 -0.0041695372 0.99999088 0.00097096449 0.0029880011
-0.043404326 -0.13263595 0.044635519 0.31218207 0.94999683 0.0069526979 0.0016446807
-0.034900576 -0.13553207 0.045078315 0.2477822 0.96874291 0.011877893 0.0021300402
-0.025306428 -0.13701907 0.046237428 0.17190504 0.98510152 0.0048600859 0.0010559533
-0.014455779 -0.13844764 0.044678681 0.1059239 0.99437141 -0.0023539425 0.0016558915
-0.006792957 -0.13945653 0.044013083 0.071688533 0.99742693 -0.00046359998 0.0018118966
0.0060308632 -0.13955688 0.043715809 -0.064452365 0.99791712 0.0027320951 0.0016726932
0.013931056 -0.1385168 0.044625215 -0.10212569 0.99476832 0.0025224921 0.00098216487
0.023521867 -0.13725412 0.044590559 -0.15541847 0.98784798 0.001217105 0.00082562939
0.035749298 -0.13538165 0.04531933 -0.25234222 0.96763599 0.0020160275 0.0022394301
0.045058537 -0.13195109 0.046408713 -0.33565068 0.94198638 -0.00051024283 0.0011163458
-0.070133716 -0.12156451 0.040026858 0.49953985 0.86627728 0.0048617176 0.0027510966
-0.065030441 -0.12367831 0.045312643 0.4764939 0.87917733 0.00093408633 0.0023621318
-0.054339483 -0.12810656 0.043593194 0.40106717 0.91604698 -0.0017112469 0.00081760174
0.056298263 -0.1272954 0.043833308 -0.40666139 0.91357785 0.0014163887 0.00078430353
0.065219522 -0.12360005 0.044263314 -0.48597616 0.87393302 0.0082575399 0.0022363609
0.071352765 -0.12064384 0.043802187 -0.52464676 0.85127169 0.009074863 0.0021728564
