# .PCD v0.7 - Point Cloud Data file format
VERSION 0.7
FIELDS x y z normal_x normal_y normal_z curvature
SIZE 4 4 4 4 4 4 4
TYPE F F F F F F F
COUNT 1 1 1 1 1 1 1
WIDTH 583
HEIGHT 1
VIEWPOINT 0 0 0 1 0 0 0
POINTS 583
DATA ascii
-0.10539241 -0.14683798 -0.27732038 0.5899657 0.78821087 -0.17511161 0.021248356
-0.096723184 -0.14472798 -0.27319378 0.55579591 0.79607594 -0.23948705 0.013495375
-0.089032561 -0.14821187 -0.27132863 0.48905611 0.84720069 -0.20754556 0.019920547
0.094698772 -0.14811815 -0.27494606 -0.56654102 0.80142689 -0.1916929 0.014735104
0.10400013 -0.14676368 -0.27704036 -0.55206865 0.80469924 -0.21835591 0.014106332
-0.12237708 -0.13412555 -0.27881607 0.6436131 0.74267364 -0.184927 0.018493246
-0.11564571 -0.13389163 -0.27461317 0.64312172 0.73755795 -0.20591919 0.013641357
-0.10431536 -0.13648498 -0.27158314 0.59945965 0.77698392 -0.19220856 0.021080855
0.10444405 -0.13660084 -0.2729823 -0.61610049 0.76460552 -0.18920517 0.016003232
0.11408501 -0.13465503 -0.27499083 -0.62987524 0.75081152 -0.19884476 0.016249685
0.12528241 -0.13189621 -0.27762067 -0.67949319 0.70501935 -0.20306841 0.020520177
-0.13270395 -0.12422976 -0.27716675 0.75093192 0.63392574 -0.18503891 0.019734792
-0.12533143 -0.12654662 -0.27503937 0.68589652 0.69472432 -0.2165734 0.013336966
-0.11551259 -0.12789305 -0.27112314 0.62469637 0.75633132 -0.19420964 0.02014323
0.11619833 -0.12916161 -0.27397037 -0.64526409 0.73489988 -0.20870155 0.019854052
0.12375689 -0.12328157 -0.27347735 -0.69521761 0.6940136 -0.18712962 0.02939387
0.13371046 -0.12264694 -0.27616033 -0.72070879 0.65609771 -0.22386275 0.014657195
-0.14346504 -0.11020562 -0.27930474 0.77023518 0.6182633 -0.15648705 0.028112596
-0.13393229 -0.11694613 -0.27395523 0.74553239 0.62945342 -0.2190199 0.015473971
0.12649933 -0.11732891 -0.27041018 -0.72265816 0.67438447 -0.15156138 0.031179519
0.13531497 -0.11505933 -0.27633327 -0.75575113 0.61386037 -0.22806923 0.013255829
0.14199112 -0.11140595 -0.27694589 -0.78780907 0.58033872 -0.20631005 0.013908937
-0.14220409 -0.10776141 -0.27548981 0.77319282 0.59631723 -0.21582069 0.014199171
-0.13760976 -0.10377408 -0.2738795 0.77186334 0.59517872 -0.22358288 0.011827434
0.13779312 -0.10507727 -0.27468643 -0.79869813 0.56795132 -0.19877781 0.014283092
0.14640917 -0.10410082 -0.27612078 -0.7973519 0.57737595 -0.17569017 0.019196548
-0.15324257 -0.096747577 -0.27759627 0.81781954 0.53486109 -0.21235557 0.015457126
-0.14432721 -0.097172819 -0.27430341 0.82090133 0.53361565 -0.20340954 0.014864678
-0.13993385 -0.099820696 -0.27099109 0.78095686 0.58877361 -0.20845124 0.01965674
0.147733 -0.094929114 -0.27499086 -0.83707118 0.5262748 -0.14948751 0.024125027
0.15605107 -0.093385093 -0.27687234 -0.8494091 0.48358679 -0.21130069 0.020175215
-0.15702672 -0.087184846 -0.27636158 0.84005964 0.50656074 -0.1941548 0.013327824
0.14867228 -0.088473819 -0.27341327 -0.84538841 0.49421966 -0.20264581 0.019120939
0.1542103 -0.084445946 -0.27389577 -0.86338121 0.46522915 -0.19528136 0.021448784
0.16129476 -0.083333783 -0.27668425 -0.87042022 0.44812831 -0.20383738 0.018055163
-0.16282392 -0.074709602 -0.27505398 0.8908211 0.39969772 -0.21605428 0.010872639
-0.15547258 -0.07824903 -0.27499086 0.87433755 0.44695812 -0.18910904 0.013486696
0.15494455 -0.078334197 -0.27367407 -0.8797158 0.41530365 -0.23156634 0.014271358
0.16360344 -0.076255336 -0.27697062 -0.8882367 0.41406229 -0.19896734 0.020051934
-0.16747577 -0.064475678 -0.27734002 0.91651493 0.36011678 -0.17411566 0.017926337
0.15781444 -0.067895368 -0.27232599 -0.89381766 0.40091118 -0.2008983 0.020780247
0.16646443 -0.064754553 -0.27579054 -0.90280575 0.35918114 -0.23649675 0.019740367
-0.17272818 -0.054392632 -0.27607378 0.93589538 0.279475 -0.21446136 0.015528312
-0.16485885 -0.056068085 -0.27304405 0.93723333 0.27520072 -0.21414556 0.018989217
0.16508466 -0.052312043 -0.27287239 -0.93037403 0.31244963 -0.19177979 0.021851663
0.17192915 -0.056934699 -0.27499086 -0.92994606 0.32290316 -0.17588006 0.020705391
-0.17450295 -0.043956995 -0.27629486 0.94644827 0.21666092 -0.23936087 0.011804582
-0.16770819 -0.046039954 -0.27440286 0.94838327 0.2219989 -0.22646329 0.013520863
0.16777478 -0.044017669 -0.27243498 -0.93554568 0.27614412 -0.22022419 0.019855686
0.17619914 -0.045695394 -0.27690187 -0.94261909 0.25623614 -0.21403784 0.018903591
-0.17660931 -0.034494266 -0.27542019 0.9526521 0.19965124 -0.22933257 0.013297868
-0.168782 -0.034061633 -0.27321193 0.95863533 0.18625417 -0.21523872 0.020203199
0.16842917 -0.036777556 -0.27290395 -0.95395112 0.1960187 -0.2270547 0.017906534
0.17554855 -0.033705853 -0.27582231 -0.96054441 0.17437653 -0.2166732 0.014371836
-0.17644355 -0.024725497 -0.2755082 0.96541762 0.1776398 -0.19082171 0.016200487
-0.16945657 -0.028937729 -0.27049226 0.95745724 0.19683981 -0.21102063 0.018170943
0.1763199 -0.025492394 -0.27666137 -0.96535856 0.17219843 -0.19603713 0.016392004
-0.18011172 -0.015098211 -0.27504009 0.96415448 0.13943382 -0.2257528 0.010706315
-0.17459816 -0.015361125 -0.27499086 0.96345145 0.13582709 -0.23089463 0.011529826
0.17343594 -0.014154953 -0.27441725 -0.97325724 0.12025143 -0.19572936 0.015757887
0.18115003 -0.010014324 -0.27742216 -0.97730207 0.081667751 -0.19547664 0.01851193
-0.18114939 -0.0022163142 -0.27672806 0.97446281 0.055601135 -0.21755651 0.01847012
-0.17791626 -0.007805672 -0.27499086 0.97489816 0.082927823 -0.20663144 0.016408317
0.17450684 -0.0067184889 -0.27404565 -0.97040236 0.031914357 -0.23937578 0.012752472
0.18065321 -0.0087819379 -0.2761209 -0.9835822 0.05377049 -0.17226416 0.015851259
-0.18148227 0.0031942495 -0.27525049 0.97907186 -0.045104254 -0.19845356 0.02113121
-0.17633066 0.0078335209 -0.27371222 0.97897518 -0.091096088 -0.18250778 0.023487387
0.17659198 0.0056297663 -0.27407092 -0.97248471 -0.054000378 -0.22662178 0.019840594
0.18078622 0.0040599229 -0.2773664 -0.97815466 -0.015055819 -0.20733263 0.018906096
-0.1806089 0.014124646 -0.27516866 0.97271687 -0.15764572 -0.1702048 0.019866299
-0.17382173 0.014601004 -0.27362397 0.97354394 -0.16201787 -0.1611286 0.022896318
0.17504573 0.015339226 -0.27499086 -0.9735747 -0.088393375 -0.21056813 0.015852872
0.18009868 0.018000176 -0.27921367 -0.97808003 -0.13188888 -0.16113572 0.022187529
-0.1735716 0.025623763 -0.27499086 0.96502525 -0.18133746 -0.18932262 0.015811317
-0.169523 0.028917789 -0.27349558 0.95897019 -0.19335993 -0.20733592 0.017646996
0.16953819 0.028317725 -0.27167603 -0.96203196 -0.18454517 -0.20109092 0.018511673
0.17812517 0.027599607 -0.2765469 -0.9606877 -0.16161853 -0.22574018 0.017387381
-0.17542522 0.034230925 -0.27619049 0.95973343 -0.18228441 -0.21373859 0.013708291
-0.16814537 0.038897336 -0.27213469 0.95869541 -0.22554624 -0.17329754 0.025850549
0.16910361 0.031618606 -0.27443123 -0.9642247 -0.1929125 -0.18181138 0.020790564
0.17451596 0.035303991 -0.27549362 -0.96116656 -0.19839057 -0.19183339 0.017772535
-0.17535071 0.049399707 -0.2773965 0.94048649 -0.25292963 -0.22696216 0.019656271
-0.16745418 0.043956686 -0.27410311 0.93679243 -0.27811408 -0.21230252 0.021567389
0.16533223 0.049745798 -0.27155754 -0.93945622 -0.30362558 -0.15885055 0.030543882
0.17483345 0.0454068 -0.27549973 -0.94162506 -0.27626842 -0.19240034 0.017908219
-0.16292694 0.057934351 -0.27427512 0.93047637 -0.32007977 -0.17822109 0.022927597
0.16522428 0.055039044 -0.27401724 -0.92843944 -0.30851024 -0.20693371 0.019007372
0.17269717 0.055805959 -0.27837583 -0.92607486 -0.29431018 -0.23615022 0.015285063
-0.17033009 0.061520614 -0.27587575 0.91024274 -0.35499913 -0.21315201 0.015325288
-0.16637455 0.065631956 -0.27561516 0.90674776 -0.35314661 -0.2304258 0.014262877
-0.15729557 0.069148056 -0.27097329 0.89029896 -0.42450133 -0.16482237 0.026439944
0.15914389 0.069381282 -0.27499086 -0.90501601 -0.36988649 -0.21007144 0.012767677
0.16425623 0.063134439 -0.27456698 -0.90837842 -0.37870222 -0.17729408 0.015223443
-0.16412655 0.076497346 -0.27786574 0.8822552 -0.43399662 -0.1824079 0.022734581
-0.15643026 0.071329698 -0.27298185 0.89090168 -0.39625984 -0.22197369 0.020433556
0.15624775 0.073871195 -0.27331024 -0.90572155 -0.38710341 -0.17268315 0.023086455
0.1636057 0.07487765 -0.27590069 -0.91648227 -0.36562458 -0.16241597 0.019359602
-0.1525511 0.085581966 -0.27418086 0.85803735 -0.48739901 -0.16190793 0.024033887
-0.14950284 0.087350108 -0.27176282 0.85458636 -0.48609149 -0.1827489 0.024238776
0.1529671 0.083746232 -0.27398977 -0.8536579 -0.49443835 -0.16370378 0.021899147
0.16188087 0.081918843 -0.27928513 -0.87481219 -0.45653683 -0.16210435 0.023497004
-0.15656194 0.092911981 -0.27736038 0.84345216 -0.4934338 -0.21239498 0.022560894
-0.14596435 0.096126333 -0.27438253 0.80456674 -0.54337215 -0.23962307 0.014868635
-0.13991578 0.09984424 -0.27486682 0.78185022 -0.57567573 -0.23939024 0.013871856
0.14646909 0.095101848 -0.27424654 -0.81346607 -0.54732478 -0.1967449 0.020873601
0.15304573 0.095329873 -0.27645528 -0.81709498 -0.55001491 -0.17274101 0.023105474
-0.14387603 0.10427736 -0.27600345 0.77779669 -0.58447385 -0.23113324 0.012648854
-0.1353922 0.10585182 -0.27227843 0.78146917 -0.59099627 -0.20007338 0.018944945
0.13624841 0.10577631 -0.27333823 -0.78683305 -0.59177142 -0.17521507 0.022424525
0.14147843 0.10190882 -0.27499086 -0.77280885 -0.60899884 -0.17856915 0.016169265
-0.1409625 0.11346702 -0.27877194 0.77231002 -0.60662955 -0.18851466 0.024007041
-0.13187711 0.11338899 -0.27453938 0.75736821 -0.61514169 -0.21907566 0.015873827
-0.12726377 0.11633267 -0.27321565 0.74748045 -0.63514435 -0.19458848 0.024591342
0.12953061 0.11349954 -0.27383721 -0.74965638 -0.62732613 -0.21089643 0.020268159
0.13187024 0.1103294 -0.27442867 -0.74401927 -0.63346779 -0.21249433 0.018016443
0.14155059 0.11270057 -0.27718821 -0.77800673 -0.58042371 -0.24044512 0.01557952
-0.13263655 0.12180775 -0.2759642 0.74727386 -0.63784689 -0.1863682 0.021704076
-0.12525126 0.12462858 -0.27444449 0.71271092 -0.67335969 -0.19654469 0.021170177
-0.11608615 0.12883613 -0.27499083 0.64204407 -0.74352849 -0.18693531 0.01961321
0.11480379 0.12843694 -0.273471 -0.64562649 -0.74479473 -0.16866343 0.032987978
0.12427244 0.12415867 -0.27350917 -0.71407229 -0.67519629 -0.18496118 0.027969869
0.13435201 0.12208195 -0.27902627 -0.76371169 -0.62001771 -0.17978434 0.021133067
-0.12379775 0.13218547 -0.27618557 0.66935158 -0.7125836 -0.21022151 0.018118372
-0.11188992 0.13474308 -0.2741982 0.629421 -0.75379884 -0.18872355 0.019813538
-0.10274833 0.13814014 -0.2723363 0.59324962 -0.7865448 -0.17147067 0.024597006
0.10155461 0.13860337 -0.27081957 -0.60202438 -0.77631569 -0.18681739 0.025060805
0.11333845 0.13387987 -0.27476263 -0.65644252 -0.72752672 -0.1994696 0.025468877
0.12374442 0.13307635 -0.27687362 -0.65423936 -0.73070365 -0.19504635 0.027294107
-0.10487265 0.14488439 -0.27505016 0.57892203 -0.79414153 -0.18490133 0.018943869
-0.093572132 0.14532064 -0.27277258 0.54975116 -0.81117684 -0.19941358 0.019364556
0.096377879 0.14437777 -0.27411017 -0.54287273 -0.80415589 -0.24212095 0.018309705
0.10526265 0.14667785 -0.27625018 -0.56814289 -0.79126221 -0.22609238 0.016884618
0.11251774 0.14169088 -0.27920437 -0.59617221 -0.77894306 -0.19449024 0.023653273
-0.095868468 0.15431581 -0.27783227 0.52673256 -0.82154793 -0.21820132 0.021958005
-0.086754948 0.15553597 -0.27499086 0.45250604 -0.86602956 -0.21267621 0.019940151
-0.077561125 0.15599298 -0.27421448 0.40593618 -0.88064027 -0.24431241 0.013068581
-0.068819478 0.15894686 -0.27499086 0.37464502 -0.89101475 -0.25638601 0.01165904
0.065613739 0.15875953 -0.27234599 -0.38263634 -0.90510356 -0.18541054 0.021600056
0.075875714 0.15455538 -0.27369672 -0.44136229 -0.87542099 -0.19707215 0.017353758
0.085814953 0.15552942 -0.27422509 -0.5044961 -0.83483922 -0.22028884 0.018968588
0.094484992 0.1555279 -0.27741438 -0.49464095 -0.84725839 -0.19360699 0.02359011
-0.082287438 0.16172817 -0.2787796 0.4079867 -0.89299041 -0.19003929 0.019996691
-0.075028315 0.164735 -0.27703759 0.37761867 -0.9053492 -0.19428582 0.021926785
-0.06663724 0.16467321 -0.27520058 0.36604387 -0.91149873 -0.18756853 0.018709702
-0.056435831 0.16450028 -0.27432048 0.30849189 -0.9314602 -0.19291109 0.019153295
-0.045083933 0.16729148 -0.27369654 0.26536244 -0.935045 -0.23510343 0.01200693
-0.036251813 0.16849363 -0.27438763 0.21159959 -0.95028412 -0.228442 0.008527468
0.025323499 0.1699324 -0.27453354 -0.16414048 -0.96055639 -0.22447526 0.015357655
0.03477791 0.16868769 -0.27156916 -0.145703 -0.96919584 -0.19857009 0.016406812
0.043547526 0.16812825 -0.27220204 -0.18536319 -0.96250629 -0.19804594 0.020788068
0.056988828 0.16574335 -0.27423364 -0.3289302 -0.91696119 -0.22580323 0.014439655
0.066489935 0.16654718 -0.27499086 -0.37492812 -0.9056018 -0.19827817 0.013379161
0.074644245 0.16470186 -0.27655873 -0.4186846 -0.88840425 -0.18825814 0.020078676
-0.042932581 0.1738763 -0.27579406 0.25334334 -0.93847793 -0.2346832 0.010446888
-0.036565155 0.17465749 -0.27602434 0.22040154 -0.946024 -0.23761678 0.0089521836
-0.022004299 0.17603752 -0.27696866 0.13296978 -0.97054464 -0.2009031 0.018562365
-0.014300412 0.17459333 -0.27397987 0.11764938 -0.96709377 -0.22558446 0.012582224
-0.0047902628 0.17531528 -0.274019 0.015802635 -0.980187 -0.19744325 0.020861574
0.0024026234 0.17294998 -0.27497652 -0.058496006 -0.97555786 -0.2118136 0.020863077
0.014288798 0.17490989 -0.27492613 -0.10782173 -0.97086304 -0.21400808 0.016282437
0.023489838 0.17282827 -0.27469403 -0.14458048 -0.96971756 -0.19683579 0.015787035
0.035375081 0.17547508 -0.27538988 -0.16605406 -0.96492088 -0.2033561 0.012759419
0.045009099 0.17391492 -0.27638355 -0.19632818 -0.95546681 -0.22031459 0.014457506
0.056600295 0.17236817 -0.27661058 -0.31440061 -0.92164272 -0.22743581 0.015700461
0.061410468 0.1703757 -0.27756688 -0.33761799 -0.92416608 -0.17869292 0.021411126
-0.013212082 0.18072903 -0.27781597 0.11285608 -0.97675651 -0.18223652 0.019744636
-0.0078722965 0.18143202 -0.27605283 0.052372769 -0.9737255 -0.22162068 0.015198362
0.007565856 0.18147239 -0.27656347 -0.0852037 -0.97036892 -0.22610708 0.018509841
0.017933367 0.18010747 -0.27672908 -0.12964006 -0.96477991 -0.22889544 0.013334473
-0.014582479 -0.17134649 -0.26317352 0.060095556 0.99640459 -0.059719954 0.040593531
-0.0060222168 -0.17247345 -0.26373419 0.091121383 0.99151802 -0.09267617 0.03629078
0.008114839 -0.17219794 -0.26400304 -0.13385379 0.98982656 -0.048234452 0.037896536
0.013930865 -0.17143226 -0.2631976 -0.14129201 0.98889387 -0.046102598 0.039328773
0.024133814 -0.17008902 -0.26686692 -0.17293748 0.97715998 -0.12349515 0.028435405
-0.055827126 -0.16281328 -0.26333025 0.29601786 0.9509061 -0.090283386 0.035671018
-0.046805989 -0.16648994 -0.26302454 0.25646341 0.96035641 -0.10927963 0.038481988
-0.033501558 -0.16885574 -0.26393926 0.19792037 0.9780702 -0.064855084 0.03960143
-0.027752174 -0.16961265 -0.26481336 0.15188079 0.98399478 -0.093201779 0.037960399
0.029412221 -0.16939411 -0.26698777 -0.16520281 0.97761744 -0.13027732 0.028431904
0.034153074 -0.16876996 -0.26693618 -0.1846728 0.97032607 -0.15608746 0.026825685
0.045181379 -0.16700223 -0.26590014 -0.25703487 0.96264702 -0.085110448 0.032941382
0.059175365 -0.1614264 -0.26870418 -0.33462831 0.93245924 -0.1361752 0.027792683
0.061378799 -0.1605137 -0.26579326 -0.34411979 0.93422502 -0.093835659 0.031663686
-0.083118051 -0.151509 -0.26363486 0.4796454 0.87359941 -0.082245976 0.038801983
-0.078492753 -0.15342487 -0.2642622 0.41942504 0.90582037 -0.059767064 0.039548647
-0.067391783 -0.15802304 -0.26466018 0.43615913 0.89847028 -0.050164435 0.033893157
0.066589221 -0.15835547 -0.26663694 -0.35025421 0.93340927 -0.07790482 0.031295322
0.078338176 -0.1534889 -0.26665369 -0.38159198 0.91792476 -0.10863594 0.033989519
0.083108366 -0.15151301 -0.26426917 -0.4342812 0.90032202 -0.028637344 0.042463165
-0.094016641 -0.14438745 -0.26249689 0.57440293 0.81840181 -0.016726965 0.038369346
-0.088511348 -0.14861181 -0.26484731 0.49589151 0.86362129 -0.09082897 0.037089836
0.093395628 -0.14486395 -0.26656756 -0.58692586 0.80421424 -0.093581729 0.034903876
-0.11140963 -0.13104135 -0.26109737 0.62986177 0.77632523 -0.024356935 0.038181353
-0.10532443 -0.13571069 -0.26381931 0.62228894 0.77155501 -0.13213325 0.030187564
0.10784844 -0.13377394 -0.26115957 -0.62248707 0.78003335 0.06370163 0.035899192
0.11097696 -0.13137335 -0.26317796 -0.64550263 0.76177013 -0.055070527 0.041483261
-0.12215115 -0.12260097 -0.26404172 0.70473731 0.69216597 -0.15572922 0.028974608
-0.1170717 -0.12669669 -0.26547241 0.67598957 0.71664333 -0.17164062 0.028682012
0.11940195 -0.12490863 -0.26139739 -0.71361023 0.69879258 -0.049490884 0.046441186
-0.1302792 -0.11240287 -0.26984295 0.74182612 0.63261819 -0.22245945 0.0198124
-0.12551527 -0.11861137 -0.26346979 0.7113297 0.68901819 -0.13879481 0.033028007
0.12762681 -0.11585955 -0.26274872 -0.75777251 0.64607275 -0.091492169 0.036997396
0.13064796 -0.11192232 -0.26599294 -0.76804841 0.632976 -0.097175263 0.032825153
-0.13565016 -0.10540333 -0.2665813 0.76140666 0.62129372 -0.18507835 0.021220664
0.13427678 -0.10719315 -0.2651428 -0.77304631 0.62537754 -0.10631227 0.033945348
-0.1434069 -0.09529452 -0.26610693 0.81236517 0.55964279 -0.16389863 0.027361747
0.14353985 -0.095121279 -0.26302418 -0.82203358 0.56759375 -0.045805316 0.038700093
-0.15029806 -0.086041547 -0.26081309 0.85521072 0.51746786 -0.02900965 0.034850053
0.14820752 -0.089038253 -0.26703238 -0.85488421 0.49344876 -0.16025385 0.030993616
0.1517211 -0.082605965 -0.26532531 -0.88753206 0.43717757 -0.14547372 0.031400703
-0.15544602 -0.073613256 -0.2688632 0.88238227 0.4392184 -0.16878647 0.019950958
0.15521634 -0.074167751 -0.26133576 -0.88743836 0.46008259 -0.027878381 0.037930597
-0.15916595 -0.064632587 -0.26261163 0.9228211 0.38518798 -0.0056144041 0.034605511
0.15868534 -0.065792821 -0.26752001 -0.9034847 0.39647484 -0.16285904 0.025851876
0.16059031 -0.061193839 -0.26431173 -0.92395306 0.37511235 -0.074842855 0.039017528
-0.1637502 -0.0535652 -0.26436114 0.95710695 0.28703639 -0.039450932 0.035467327
0.16258028 -0.056389604 -0.26512283 -0.93663245 0.33080861 -0.11526185 0.037743337
-0.16720639 -0.044562209 -0.26570371 0.97486651 0.19286622 -0.11152539 0.034012102
0.16728409 -0.044245623 -0.26520252 -0.95793897 0.2740463 -0.085156038 0.040551927
-0.16843548 -0.03669364 -0.26460642 0.96692395 0.21728237 -0.13359025 0.033207919
0.16861051 -0.035364028 -0.26602483 -0.97423083 0.17842636 -0.13797966 0.031953122
-0.17034455 -0.022192823 -0.26463103 0.97080255 0.20586227 -0.12313896 0.030236853
-0.16971911 -0.026943507 -0.26949871 0.96245897 0.20765223 -0.17479499 0.023907602
0.17031039 -0.022452163 -0.26824677 -0.98187369 0.14422539 -0.12297536 0.029070884
-0.17105182 -0.016820475 -0.26441237 0.97881234 0.19256924 -0.069594629 0.033930644
0.17159136 -0.012722423 -0.26794145 -0.9873265 0.073137395 -0.14084521 0.030998256
-0.1725132 -0.0057202708 -0.26423764 0.98800218 0.083980627 -0.12961127 0.036283929
0.17243922 -0.0062823258 -0.2633276 -0.99288428 0.056469977 -0.10484241 0.037021048
-0.17272902 0.0040811072 -0.26497364 0.98662239 -0.060410868 -0.15141593 0.036193479
0.17292628 0.0025826609 -0.26362264 -0.99695671 -0.017404376 -0.07598871 0.039533429
-0.17144297 0.013849598 -0.26841995 0.97185707 -0.16935878 -0.16374221 0.026382672
0.17129266 0.014991172 -0.26738352 -0.98475182 -0.10527793 -0.13849324 0.031256571
-0.17013496 0.023784962 -0.26301777 0.97952574 -0.18491538 -0.079596251 0.033185475
-0.16978076 0.026475266 -0.26448902 0.9720372 -0.19222981 -0.13487515 0.02861782
0.16980568 0.026285846 -0.26365036 -0.97850901 -0.19040845 -0.079149395 0.032816678
-0.16890824 0.033102825 -0.26520866 0.97048932 -0.20519258 -0.12667507 0.030871773
0.1687305 0.034452647 -0.26603931 -0.97379452 -0.19820473 -0.11153077 0.034478266
-0.16694836 0.045340192 -0.26451984 0.96276712 -0.26386222 -0.058788113 0.03757745
0.16715452 0.04463784 -0.2655353 -0.96483606 -0.24544081 -0.094075412 0.035249174
-0.16298619 0.05540967 -0.26343778 0.96156138 -0.27369958 -0.022096962 0.040801454
0.16354623 0.054057572 -0.2657055 -0.9544816 -0.28823045 -0.076734357 0.035691906
-0.16100459 0.06019371 -0.2694993 0.92140126 -0.35952157 -0.14752616 0.029544599
-0.15883592 0.06542933 -0.2658723 0.92780828 -0.36281607 -0.086811833 0.034450527
0.15863147 0.065922841 -0.26536438 -0.92029864 -0.38128984 -0.087569594 0.03422498
-0.15418097 0.076667331 -0.26312932 0.89268529 -0.4506698 -0.0031102486 0.04041516
0.1548807 0.074978039 -0.26433951 -0.90918577 -0.3982836 -0.12145568 0.031726643
-0.15064028 0.085215315 -0.2631284 0.86633593 -0.49942982 0.0056506917 0.042560034
-0.14895044 0.088070035 -0.26381809 0.82844973 -0.56006342 4.1861324e-05 0.042748559
0.15067619 0.08512862 -0.26606107 -0.8568579 -0.49672115 -0.1380678 0.031766906
-0.14371312 0.094895437 -0.26384124 0.82485783 -0.56531453 -0.0053834431 0.03802916
0.14210683 0.096988805 -0.26473695 -0.82471353 -0.55904186 -0.085555203 0.033148553
-0.13837741 0.10184908 -0.26542506 0.80088675 -0.58754236 -0.11564796 0.030776337
0.13538949 0.10574301 -0.26124102 -0.80097008 -0.59789294 0.031158915 0.036919318
-0.13082431 0.11169247 -0.26329237 0.77989793 -0.6250785 -0.032188907 0.038382035
-0.12746802 0.11606649 -0.26564345 0.76086932 -0.63682473 -0.12462813 0.033951908
0.12817594 0.11514392 -0.26886353 -0.76753777 -0.6300084 -0.11821717 0.03313151
-0.12208277 0.12266147 -0.2639513 0.69457364 -0.71210551 -0.10233822 0.038591933
-0.11762896 0.1262691 -0.26801911 0.67388642 -0.72400647 -0.14728147 0.03274348
0.11398971 0.12906158 -0.26479709 -0.66694498 -0.74117446 -0.076451138 0.042002413
0.12295856 0.12184776 -0.26584345 -0.71076548 -0.68993956 -0.1370979 0.038648564
-0.10640264 0.13488334 -0.26392499 0.61925995 -0.78174913 -0.073384963 0.037272122
-0.09996289 0.13982475 -0.26280093 0.57586735 -0.81487441 -0.066004649 0.034979492
0.099820778 0.13993379 -0.26230156 -0.59060216 -0.80572045 -0.044762678 0.043812405
0.10468594 0.13620062 -0.26649877 -0.58886623 -0.80030382 -0.11291788 0.035336632
-0.092310645 0.14569652 -0.2648049 0.50670713 -0.85012406 -0.14330736 0.033969123
-0.088550448 0.1485818 -0.26656315 0.52593327 -0.83527619 -0.16033681 0.029065659
0.08854083 0.14858918 -0.26452923 -0.50036824 -0.8567369 -0.1250342 0.036904603
0.096999511 0.14209861 -0.26536968 -0.5403713 -0.83823061 -0.073269047 0.043201081
-0.082839414 0.15162443 -0.26269361 0.47913292 -0.87634009 -0.04959552 0.040658742
-0.073170833 0.15562926 -0.26515365 0.426714 -0.89810753 -0.10638615 0.033555888
-0.065607116 0.15876226 -0.26657528 0.39312509 -0.9132176 -0.10717417 0.030885879
0.07381589 0.15536208 -0.26465932 -0.42591891 -0.89865816 -0.10491204 0.035554174
-0.060199291 0.16100225 -0.26544517 0.32974786 -0.93749958 -0.11117986 0.03024994
-0.055900618 0.16278282 -0.26437268 0.31338724 -0.94703555 -0.070086904 0.036093596
-0.04137418 0.16781926 -0.2633853 0.21489279 -0.97484428 -0.059158072 0.035948485
-0.034884557 0.16867365 -0.26586241 0.18990023 -0.9764576 -0.10231582 0.033147406
-0.027355352 0.16966487 -0.26373723 0.1937571 -0.9784165 -0.07182911 0.037066009
0.027299443 0.16967224 -0.26749983 -0.13706253 -0.97286201 -0.18642274 0.023150265
0.032696869 0.16896166 -0.26322773 -0.15550885 -0.98420519 -0.084600516 0.033723187
0.046260688 0.16664501 -0.26287803 -0.19157058 -0.97866499 -0.074266858 0.03884
0.052833073 0.16405344 -0.26419973 -0.27862898 -0.95949852 -0.041574061 0.042479705
-0.022896022 0.17025197 -0.26501659 0.15817167 -0.981749 -0.10559652 0.031724259
-0.011985438 0.17168836 -0.26453897 0.12628831 -0.98520911 -0.11582019 0.035760712
-0.007067393 0.17233586 -0.26603311 0.056131508 -0.98976737 -0.13118629 0.035897788
0.003499602 0.17280556 -0.26231346 -0.096021071 -0.9910962 -0.092240497 0.033589091
0.016100066 0.17114668 -0.2645027 -0.14892805 -0.97578257 -0.1602149 0.025484174
0.022135451 0.17035209 -0.26712531 -0.12118778 -0.96991277 -0.21114644 0.0175079
-0.022738196 -0.17027275 -0.25903237 0.11429156 0.9927671 0.036754508 0.040672865
-0.011790561 -0.17171404 -0.25556654 0.089418821 0.98565376 0.14314632 0.034838941
-0.0046969294 -0.17264791 -0.25443581 0.082327791 0.99001843 0.11439234 0.035828665
0.0057517467 -0.17250906 -0.25304261 -0.085683919 0.98869234 0.12306821 0.031834584
0.013004895 -0.17155416 -0.25705409 -0.12880969 0.98966354 0.06304042 0.037662122
0.023889489 -0.17012118 -0.25359461 -0.16042817 0.97385949 0.1608118 0.024054578
-0.061271619 -0.1605581 -0.25783467 0.35291356 0.93360561 0.061908595 0.03652427
-0.04701164 -0.16639937 -0.25548935 0.26177055 0.95538938 0.13677445 0.034065101
-0.033656493 -0.16883534 -0.25190946 0.173041 0.97148091 0.16211636 0.030748077
-0.028746502 -0.16948175 -0.25476685 0.14859121 0.97812808 0.14555469 0.033002395
0.029613456 -0.16936761 -0.25863826 -0.16258782 0.9861387 0.03310135 0.034148492
0.036192764 -0.16850144 -0.25464985 -0.18712144 0.97377723 0.12939648 0.026565017
0.044044431 -0.16722216 -0.25392482 -0.24770637 0.9599812 0.13068116 0.028221773
0.051884186 -0.16444652 -0.25477862 -0.29088959 0.9502303 0.1115604 0.030378018
0.0622826 -0.16013934 -0.25718832 -0.36655 0.92753732 0.072908148 0.032436036
-0.083108492 -0.15151298 -0.2506929 0.49132344 0.85764331 0.15181956 0.027854081
-0.073749401 -0.15538962 -0.25573814 0.41004959 0.90853256 0.080174401 0.036330201
-0.064476542 -0.15923057 -0.25504661 0.40422845 0.90905178 0.10111528 0.033793163
0.06660822 -0.15834761 -0.25366122 -0.35275963 0.92018318 0.16977511 0.025892535
0.076506473 -0.15424761 -0.25419638 -0.39657307 0.90517944 0.15290515 0.030092726
0.083578818 -0.15131815 -0.25520113 -0.4509643 0.88507205 0.11523345 0.041008674
-0.096584044 -0.14241743 -0.25360787 0.58403903 0.80149293 0.12848149 0.031634565
-0.089127339 -0.14813915 -0.25449002 0.53223717 0.84066266 0.1000495 0.038111228
0.088118806 -0.148913 -0.25314406 -0.46827778 0.8665362 0.17271671 0.032246519
0.094995424 -0.14363639 -0.25464836 -0.55814874 0.81596535 0.15056737 0.030130686
-0.11151823 -0.13095804 -0.25279763 0.64908803 0.75312006 0.10721482 0.035751913
-0.10495064 -0.13599752 -0.2551862 0.62846529 0.77294225 0.087129258 0.032886025
0.10605975 -0.13514645 -0.25460202 -0.56460851 0.80392855 0.18685822 0.02393047
-0.12309811 -0.12168054 -0.25504673 0.70152736 0.70877391 0.074154638 0.037930742
-0.11711298 -0.12666503 -0.25368577 0.65874159 0.74507338 0.10452414 0.03557102
0.11559585 -0.12782915 -0.2543864 -0.65459561 0.73864031 0.1609813 0.031794544
0.12166533 -0.12317189 -0.25200143 -0.73334843 0.66748452 0.12909138 0.031769834
-0.12592435 -0.11807823 -0.25648814 0.7125026 0.70113373 -0.027414618 0.036622267
0.12924188 -0.11375473 -0.25185925 -0.76002145 0.63333857 0.1457724 0.031123498
0.13129422 -0.1110801 -0.25211912 -0.76298457 0.63599467 0.11560868 0.034882724
-0.13540673 -0.10572056 -0.25506461 0.78978354 0.61175358 0.044716444 0.032350969
0.13665301 -0.10409638 -0.25170964 -0.78728378 0.59493202 0.16198829 0.024714392
-0.14298095 -0.095849618 -0.2538493 0.83132321 0.55360335 0.049244229 0.035402842
0.1399235 -0.099834189 -0.25065303 -0.77682602 0.60516047 0.17413282 0.024264785
0.14303099 -0.095784433 -0.25511989 -0.81200415 0.57200497 0.11601479 0.032944292
-0.15222435 -0.081391104 -0.25345382 0.87269109 0.47441441 0.11550421 0.033602342
-0.14964557 -0.087164126 -0.25551111 0.86972135 0.48372945 0.097931661 0.031755086
0.14987841 -0.086860687 -0.25989088 -0.87611169 0.48202688 -0.0088567892 0.043101512
0.15031289 -0.08600577 -0.25104883 -0.86880654 0.47097075 0.15284517 0.029677209
-0.15515992 -0.074303955 -0.2542206 0.89306206 0.42682949 0.14232622 0.02831848
0.15546009 -0.073579274 -0.25646442 -0.90667385 0.4103432 0.097779676 0.033700559
-0.16095868 -0.060304549 -0.2537317 0.91719049 0.36580527 0.15794991 0.028983917
-0.15855435 -0.066109121 -0.25479382 0.88286227 0.44791588 0.14115812 0.027452826
0.15829456 -0.066736236 -0.25434458 -0.91770089 0.38747567 0.087678798 0.035551105
-0.16353004 -0.054096755 -0.25593859 0.94078499 0.30608556 0.14572294 0.032324255
0.16283776 -0.055767983 -0.25558808 -0.93281412 0.35449994 0.064711347 0.041865908
-0.16653654 -0.046550218 -0.25367358 0.95626414 0.25257128 0.14753501 0.032076847
0.16722327 -0.044175394 -0.25542748 -0.95262676 0.2925247 0.083255857 0.036054555
-0.16896161 -0.032697231 -0.25598264 0.98090547 0.16560163 0.10198255 0.031004168
0.16891184 -0.033075094 -0.25486451 -0.97465783 0.17747395 0.13618051 0.028894002
-0.17024562 -0.022944231 -0.25841492 0.98548043 0.16690777 0.031146323 0.037819374
-0.16993146 -0.025330598 -0.25528771 0.97771674 0.17396463 0.11750025 0.03016158
0.16978079 -0.026474886 -0.2557933 -0.98430514 0.15662803 0.081308261 0.034328967
0.17019928 -0.023296224 -0.25215814 -0.97632158 0.14614642 0.15949069 0.023789873
-0.17157851 -0.012819998 -0.25321177 0.9851203 0.14181043 0.097097173 0.033471633
0.17162068 -0.012499525 -0.25566396 -0.99327433 0.092913352 0.069088139 0.036129046
-0.1722917 -0.0074028582 -0.25691825 0.99586427 0.088162899 0.021947404 0.040666461
0.17296346 -0.0023002976 -0.25413254 -0.99285054 0.023847761 0.116958 0.035197563
0.17275767 0.0038634255 -0.25709474 -0.99851972 -0.048136339 0.02532229 0.042274751
-0.17148286 0.013546541 -0.25535461 0.98272842 -0.15021898 0.10807019 0.032473311
0.17162573 0.01246133 -0.25830445 -0.99429798 -0.10463645 0.020560984 0.036219142
-0.17059177 0.020314937 -0.2518248 0.97430646 -0.15347353 0.16484177 0.023091685
-0.16990179 0.02555608 -0.25478569 0.96590948 -0.22240768 0.13249044 0.02637543
0.16943206 0.029123796 -0.25261122 -0.9758535 -0.15335172 0.15554203 0.026555004
0.17031972 0.022381321 -0.25586107 -0.98096961 -0.15202628 0.12077525 0.031103367
-0.16856007 0.035747468 -0.25250611 0.97034484 -0.17284088 0.16898768 0.026531011
0.16826561 0.037983775 -0.25704607 -0.97649431 -0.20359352 0.070770882 0.038508974
-0.16559254 0.049117427 -0.25364366 0.95838839 -0.25966114 0.11860781 0.032745644
0.16677317 0.045923136 -0.25404277 -0.9601922 -0.24664794 0.13113192 0.033258248
-0.16379882 0.053447831 -0.25623104 0.94557315 -0.29585212 0.13550971 0.036120988
0.16335626 0.054516196 -0.25467736 -0.9413113 -0.31336558 0.12543941 0.03447115
-0.16040374 0.061644271 -0.25395992 0.93212968 -0.338094 0.1297182 0.032994524
-0.15815847 0.067064814 -0.25258175 0.91153538 -0.38196668 0.15233086 0.027899638
0.15841652 0.066441782 -0.25174594 -0.91746086 -0.35507071 0.17941692 0.02037495
0.16064431 0.061063439 -0.25535399 -0.93110228 -0.35549176 0.081695959 0.036328699
-0.15527442 0.074027546 -0.25462702 0.90485793 -0.40893051 0.11835543 0.034427769
0.15445718 0.076000519 -0.25801721 -0.89821476 -0.43232557 0.079403259 0.035686988
-0.15143412 0.083298825 -0.2583687 0.87639856 -0.4765847 0.069228604 0.038328413
0.1484679 0.088698879 -0.25419426 -0.83259493 -0.53820848 0.13083279 0.029399848
0.15154693 0.083026469 -0.25422066 -0.85551965 -0.50577432 0.11080814 0.033363715
-0.14276177 0.096135281 -0.25728771 0.80844659 -0.57538545 0.12387781 0.032416765
0.14228572 0.096755691 -0.25176075 -0.79760063 -0.57270527 0.18931971 0.020349892
-0.13527504 0.1058922 -0.25728688 0.78231889 -0.6142323 0.10342117 0.029234895
0.13603486 0.10490194 -0.25679588 -0.81143349 -0.58059675 0.066955745 0.034387313
-0.12935057 0.11361308 -0.25615513 0.76534849 -0.63163555 0.12360496 0.031213848
0.1263307 0.11754867 -0.25739497 -0.73928022 -0.66838282 0.082031697 0.042536005
0.13112885 0.1112956 -0.25373885 -0.77748424 -0.60652971 0.16625278 0.029368289
-0.12330984 0.12148555 -0.25233287 0.70086783 -0.69328302 0.16775842 0.027967734
-0.11730661 0.12651643 -0.25522646 0.67888325 -0.72598797 0.10981312 0.038263775
0.12300744 0.12187965 -0.25893229 -0.70802611 -0.70369971 0.059208222 0.041619532
-0.11121494 0.13119073 -0.25772777 0.62503421 -0.78016084 0.026099894 0.039141696
-0.10413999 0.13661954 -0.25552794 0.59957141 -0.793832 0.10171036 0.034013417
0.10450358 0.13634054 -0.25625712 -0.60312164 -0.79330558 0.083128907 0.037743498
0.1119666 0.13061398 -0.25324118 -0.64998239 -0.74782741 0.13519281 0.033221502
-0.096488103 0.14249106 -0.2565386 0.58668214 -0.80252844 0.1084075 0.036414966
0.089272507 0.14802775 -0.25981876 -0.51746339 -0.85564661 0.0100235 0.044526938
0.09518078 0.14349417 -0.25488091 -0.52570653 -0.83830303 0.14450128 0.030625356
-0.081648447 0.15211773 -0.25147796 0.46478346 -0.87479383 0.13679187 0.03268994
-0.079010643 0.15321034 -0.25234494 0.44779739 -0.88586944 0.12129664 0.034004956
-0.065827072 0.15867116 -0.25465399 0.34060434 -0.93123591 0.12957029 0.029736537
0.067593597 0.15793943 -0.25544429 -0.38955477 -0.91628551 0.093101583 0.037096791
0.077262759 0.15393434 -0.25772744 -0.42628244 -0.90235287 0.063581474 0.037791464
0.08264114 0.15170653 -0.25626373 -0.50913697 -0.85352224 0.11081213 0.038862173
-0.062081121 0.16022278 -0.25308284 0.34081781 -0.9267441 0.15807749 0.028232574
-0.054138072 0.16351289 -0.25215873 0.29279011 -0.93819475 0.1845659 0.026394937
-0.046745084 0.16646774 -0.25500694 0.21996522 -0.96185094 0.16265923 0.029455315
-0.030342519 0.16927162 -0.25776646 0.18018782 -0.98139352 0.066325516 0.037969649
-0.026117664 0.16982782 -0.25478205 0.14935225 -0.98078102 0.12554917 0.029834727
0.027759671 0.16961165 -0.25362578 -0.15839431 -0.98327136 0.089936972 0.029936509
0.035611771 0.16857789 -0.25648445 -0.16942832 -0.983459 0.064049937 0.03293496
0.044885624 0.1670316 -0.25137872 -0.18583344 -0.97340715 0.13395667 0.033689108
0.052327637 0.16426279 -0.25464559 -0.24188434 -0.96907741 0.048795052 0.038665745
0.061480112 0.16047172 -0.25289699 -0.34717321 -0.93248665 0.099696629 0.037457567
-0.022500075 0.1703041 -0.25128251 0.12334505 -0.98085743 0.15068083 0.027295817
-0.017462384 0.17096733 -0.25545001 0.16383763 -0.98406708 0.069059826 0.035332497
-0.0042493022 0.17270686 -0.25345752 0.027333558 -0.99823439 0.052734904 0.04200815
0.002962163 0.17287631 -0.25515398 -0.06892845 -0.99749798 0.015706517 0.037855767
0.016649522 0.17107433 -0.25401473 -0.12845272 -0.98570526 0.10901908 0.028181141
0.023106247 0.17022428 -0.2563501 -0.11649452 -0.99151003 0.057765402 0.029382698
-0.017713062 -0.18013647 -0.24167868 0.098263346 0.98152649 0.16416435 0.025020998
-0.0069769472 -0.18154991 -0.24596298 0.06212445 0.97478533 0.21432222 0.021842476
0.0052983733 -0.18177091 -0.24238458 -0.066860653 0.9845643 0.16174963 0.025157873
0.016324231 -0.18031932 -0.24298155 -0.12826625 0.97060686 0.20364253 0.0194385
-0.060607336 -0.17070837 -0.24568647 0.35639372 0.90215451 0.24310662 0.014411433
-0.042779271 -0.17683643 -0.24343117 0.20398244 0.96310121 0.17557658 0.023030564
-0.033616092 -0.17804278 -0.24397139 0.17557673 0.95363665 0.24443804 0.013145857
-0.024448819 -0.17787452 -0.24439198 0.13442615 0.96382922 0.23013678 0.019610738
-0.01483241 -0.17605996 -0.24713193 0.07129138 0.97477919 0.21147834 0.02328443
-0.00086319924 -0.17376581 -0.24782138 0.030580649 0.98474401 0.17130113 0.032454025
0.0056602135 -0.17591329 -0.24712563 -0.084928304 0.97843087 0.18830895 0.021565154
0.016194781 -0.17415711 -0.24819428 -0.11258724 0.97557282 0.18863145 0.019660367
0.025303537 -0.17602849 -0.24574788 -0.15976694 0.97000492 0.18320785 0.017863719
0.030913513 -0.17301644 -0.24678491 -0.17656836 0.96766508 0.18013319 0.017033292
0.041458372 -0.17364518 -0.24615912 -0.20632561 0.96293795 0.17372479 0.015550757
0.05898536 -0.17138022 -0.24323066 -0.30818066 0.92702121 0.21367346 0.015776195
-0.084605038 -0.16076821 -0.24122725 0.45117205 0.86842144 0.20564055 0.021101305
-0.074314877 -0.16503052 -0.24369667 0.39188614 0.89812523 0.19949028 0.023452945
-0.061890122 -0.16754472 -0.24631333 0.35791317 0.91141522 0.20302808 0.017687116
-0.056191232 -0.16604936 -0.24678491 0.28362554 0.93809259 0.19884352 0.021060778
-0.030367794 -0.16926831 -0.24942066 0.15011872 0.96995968 0.19142242 0.025010575
-0.027748708 -0.16961309 -0.2475405 0.14835858 0.97340924 0.17454036 0.025244657
0.025748154 -0.16987647 -0.24893676 -0.17513409 0.96197802 0.20958629 0.015874632
0.035073351 -0.16864881 -0.24917595 -0.16713963 0.96954405 0.17902145 0.018270764
0.047505248 -0.16768134 -0.24728295 -0.25884619 0.94525015 0.19874799 0.013616292
0.057686515 -0.16642776 -0.24738763 -0.31456202 0.92760426 0.20149702 0.013185315
0.066380918 -0.16580358 -0.24489036 -0.36257267 0.90608501 0.21806206 0.014596036
0.0754188 -0.16301617 -0.24678491 -0.399147 0.89384741 0.20425096 0.017859992
0.081031881 -0.16224825 -0.24064177 -0.43561694 0.88451463 0.16694845 0.022473533
-0.097425431 -0.15327165 -0.24275236 0.54182953 0.80936158 0.22661568 0.016368026
-0.086143263 -0.15640189 -0.24645561 0.48682901 0.84411514 0.22464904 0.017680123
-0.075059988 -0.15765764 -0.24678493 0.43706742 0.87774253 0.19631658 0.018585015
-0.066117175 -0.15855101 -0.24933027 0.40483424 0.89512664 0.1867018 0.020576837
0.068826318 -0.15747079 -0.24834308 -0.38090211 0.90277302 0.19978593 0.020618187
0.075380132 -0.15621044 -0.24824938 -0.4169831 0.8891356 0.18858163 0.021320121
0.087042727 -0.15832226 -0.24513876 -0.44057947 0.8825323 0.16439761 0.024232104
0.097477615 -0.15285271 -0.24327131 -0.51755488 0.83691663 0.17806602 0.026505319
0.10112305 -0.15043435 -0.24036568 -0.54066712 0.82811576 0.14799745 0.026369348
-0.1103432 -0.1424804 -0.24477072 0.61428452 0.75110763 0.24185108 0.014331684
-0.10246713 -0.14127298 -0.24678493 0.60751587 0.75485623 0.24721767 0.011560791
-0.095411986 -0.14467856 -0.24787673 0.58350003 0.78029245 0.22510307 0.01936757
0.087197356 -0.14962007 -0.24726307 -0.48046133 0.86134219 0.16506541 0.029152175
0.094958924 -0.14589976 -0.24733548 -0.53398538 0.82450742 0.18720883 0.024871502
0.10543942 -0.14586495 -0.24467276 -0.573865 0.79120141 0.21137498 0.01795293
0.11303067 -0.1412973 -0.24404706 -0.57173878 0.78395283 0.24193557 0.018580223
-0.1255706 -0.13145082 -0.24426329 0.68346483 0.69228834 0.23154396 0.01115089
-0.11305013 -0.13554357 -0.24608846 0.63230962 0.74565554 0.21019612 0.015405602
-0.10613224 -0.13681158 -0.24833116 0.61309433 0.75459439 0.23388594 0.015721155
0.10673848 -0.13495244 -0.24834876 -0.54943621 0.80142808 0.23628975 0.015931133
0.11514135 -0.13518398 -0.24678488 -0.65815485 0.72329998 0.20897214 0.018434109
0.12505394 -0.13123888 -0.24472348 -0.68801838 0.70611835 0.16741414 0.021662759
-0.12361344 -0.12215939 -0.24707238 0.67774856 0.70980757 0.19191177 0.016783945
-0.11803153 -0.12596019 -0.24831013 0.66165173 0.72076058 0.20669119 0.020600131
0.12686473 -0.12895121 -0.24455483 -0.70357162 0.6870563 0.18149562 0.020739242
0.13370974 -0.12287121 -0.24411091 -0.73431879 0.65151185 0.19054723 0.018947035
-0.1367996 -0.11509393 -0.24406262 0.7579006 0.62448227 0.18870229 0.018172164
-0.1249923 -0.1192929 -0.24880131 0.70894456 0.68420708 0.1710504 0.025512584
0.13616769 -0.11438683 -0.24466455 -0.76520753 0.61194485 0.1999525 0.018636454
0.14014539 -0.11453187 -0.24306783 -0.76896626 0.61650753 0.16914275 0.025332751
-0.13688919 -0.10581315 -0.24715036 0.7785247 0.6045292 0.16865288 0.016927253
0.13707455 -0.10601451 -0.24692672 -0.78015548 0.58199298 0.22943768 0.013793024
0.143401 -0.10387697 -0.24632989 -0.77570754 0.60029405 0.19474283 0.019176604
0.15027425 -0.10133168 -0.24613436 -0.77551353 0.59244704 0.21814072 0.017053708
-0.15271001 -0.096553624 -0.24485536 0.81923676 0.54276073 0.18510026 0.0177669
-0.14512298 -0.097113192 -0.24719131 0.7982536 0.56555802 0.20720848 0.014575689
0.14375614 -0.097375862 -0.24803776 -0.81338799 0.54236645 0.21032989 0.021230441
0.15709648 -0.092331104 -0.2430546 -0.85186929 0.49137953 0.18128678 0.025021082
-0.15336029 -0.083740689 -0.24679327 0.85419053 0.48231632 0.19424073 0.021587977
-0.14922638 -0.087710418 -0.24868767 0.8482039 0.49046513 0.1999853 0.018847721
0.15423067 -0.086198419 -0.24662894 -0.84792912 0.49256045 0.19596019 0.02099782
-0.16404296 -0.075548358 -0.24431905 0.88436306 0.41965073 0.20443888 0.015483877
-0.15737231 -0.076650701 -0.24678493 0.87872899 0.43351048 0.19976018 0.017326292
0.15799949 -0.07109125 -0.24678493 -0.89856851 0.36818454 0.23877749 0.013280143
0.16444501 -0.072145388 -0.24492201 -0.90547955 0.36472234 0.21698953 0.014880611
-0.16521269 -0.066479266 -0.24600497 0.87636298 0.42743057 0.22201592 0.012062917
-0.15864784 -0.066293895 -0.24685517 0.87943655 0.43018001 0.20380504 0.017760189
0.15898116 -0.066924274 -0.24678491 -0.90244269 0.3589285 0.23825927 0.012219408
0.16482091 -0.062999792 -0.24655294 -0.90107018 0.40597862 0.15249231 0.021969754
-0.17130136 -0.058388077 -0.24276966 0.93110055 0.31169 0.18947573 0.027242694
-0.16827734 -0.053059772 -0.2467849 0.94028854 0.29325217 0.17280197 0.024205526
0.16340958 -0.05633758 -0.24699414 -0.91522497 0.34843475 0.20237713 0.019115645
0.17153713 -0.058606558 -0.2461426 -0.9121505 0.35523373 0.20442706 0.022257283
-0.1763334 -0.045740042 -0.24265884 0.94650239 0.26338956 0.18643817 0.021669136
0.16625939 -0.048776083 -0.24708641 -0.93566239 0.29257235 0.19732536 0.021795791
0.17617099 -0.046454497 -0.24366905 -0.93994248 0.26807287 0.21129368 0.015971866
-0.17435026 -0.034127977 -0.2454779 0.96257156 0.1495229 0.22605063 0.010260033
-0.16889688 -0.033632986 -0.24760891 0.96655983 0.16074856 0.19980498 0.016617585
0.17544268 -0.035650175 -0.24530573 -0.95626974 0.19312789 0.21965837 0.011860786
-0.17491944 -0.024474142 -0.24569128 0.97192442 0.153677 0.17817454 0.018349186
0.17553815 -0.024735263 -0.24605493 -0.96293211 0.16688785 0.21192016 0.013141291
-0.18022922 -0.017008681 -0.24349774 0.97183514 0.1166903 0.20474356 0.017314553
-0.17315711 -0.015583699 -0.24749391 0.97529811 0.15250795 0.15979631 0.02330184
0.17402323 -0.014816823 -0.24757351 -0.97708207 0.092478447 0.19172494 0.017753605
0.1801637 -0.017506313 -0.24119422 -0.98157996 0.094615221 0.16597816 0.019770974
-0.1816718 -0.0043034106 -0.24510002 0.96135426 0.015604058 0.2748718 0.013856556
-0.17479362 -0.0043612393 -0.24843626 0.98931766 0.065986432 0.12998605 0.031473383
0.17567129 -0.0064209234 -0.24678491 -0.98573685 0.0671186 0.15433085 0.020172315
0.18134026 -0.0085694119 -0.24450508 -0.97799319 0.076493718 0.19410874 0.017515479
-0.18114717 0.0050851279 -0.24678491 0.98638654 -0.037856206 0.16002695 0.024518175
-0.1749852 0.0096298736 -0.24724606 0.98378152 -0.10303105 0.14682844 0.02636604
0.17488468 0.0062649772 -0.24693587 -0.97464621 -0.051448215 0.21775644 0.015087726
0.18211918 0.0026530537 -0.24319644 -0.97663087 -0.00092531653 0.21492152 0.015238812
-0.18055817 0.014509813 -0.24525379 0.97777307 -0.11438516 0.17571534 0.022859871
-0.17135423 0.014523507 -0.24865142 0.97625697 -0.10965908 0.18680802 0.025673214
0.1756143 0.014545519 -0.24678491 -0.97069126 -0.093706056 0.22130902 0.015825445
0.18026268 0.016754357 -0.24195231 -0.97230077 -0.11910011 0.20111276 0.018159982
-0.17408992 0.025528129 -0.24720444 0.96356148 -0.14777733 0.22295988 0.013301714
0.17505285 0.023182483 -0.24631181 -0.96941888 -0.13094777 0.20755662 0.014769644
-0.1758032 0.034099862 -0.24516279 0.96373242 -0.17570183 0.20086971 0.016977761
-0.16874886 0.034313403 -0.24811345 0.95995241 -0.18799004 0.2077283 0.018449124
0.1681976 0.038500369 -0.24812149 -0.95331299 -0.22507644 0.20133273 0.023629475
0.17636515 0.033780951 -0.2456222 -0.96183819 -0.16720237 0.2165886 0.012176918
-0.17436646 0.046032313 -0.24544913 0.94864327 -0.24151959 0.20431429 0.016677419
-0.16795909 0.046749391 -0.24755396 0.93870497 -0.24531433 0.24218582 0.012356869
0.16702771 0.046942107 -0.24678491 -0.93658251 -0.29273099 0.19267006 0.02387679
0.1744737 0.045352623 -0.24570614 -0.93554181 -0.27135643 0.2261133 0.021514062
-0.17311105 0.054806784 -0.24165088 0.93261409 -0.3157948 0.17465577 0.02485623
-0.16562386 0.056902695 -0.24678493 0.92477441 -0.31702605 0.21044433 0.021085734
0.16986144 0.052766599 -0.24678493 -0.92811507 -0.30196616 0.21775897 0.019772993
0.17383915 0.051473573 -0.24381094 -0.93171817 -0.30265582 0.20075041 0.023717772
-0.17038181 0.060769096 -0.24543667 0.92311251 -0.3179864 0.21621253 0.015270938
-0.16568503 0.064787909 -0.24447513 0.91514057 -0.36684668 0.1671564 0.023972197
-0.1598756 0.064825736 -0.24678491 0.90324193 -0.38963029 0.17983943 0.02140932
0.15877871 0.067277364 -0.24725163 -0.89483863 -0.39332399 0.21109229 0.014422112
0.16690038 0.065387368 -0.24486017 -0.92095393 -0.35812059 0.15360193 0.026350342
-0.1630789 0.074599616 -0.24481893 0.90544397 -0.37495124 0.19895412 0.016992543
-0.15745361 0.075947747 -0.24836294 0.88550925 -0.39576712 0.2433966 0.011116842
0.15558758 0.073271513 -0.24837148 -0.88994634 -0.41886929 0.18039963 0.023412772
0.16355237 0.073863432 -0.24519859 -0.90274417 -0.38871598 0.18426339 0.021621039
-0.16098364 0.084084958 -0.24256845 0.87410009 -0.41910535 0.24556018 0.013760272
-0.15550804 0.085362658 -0.24573873 0.86658186 -0.44799444 0.21985658 0.015649995
-0.14998494 0.086721845 -0.24685889 0.85774976 -0.46707493 0.21472405 0.015113413
0.15598871 0.085056007 -0.24566162 -0.85422879 -0.47199941 0.21796709 0.016527168
0.16264093 0.080083892 -0.24649665 -0.88515234 -0.42491841 0.18960387 0.022878189
-0.1540525 0.095391579 -0.24403088 0.82925409 -0.52380878 0.19483872 0.017951688
-0.14663999 0.095581234 -0.24745582 0.79997009 -0.56466812 0.20297237 0.015301298
0.14666902 0.093884051 -0.24722567 -0.83350122 -0.52998775 0.15616903 0.022062462
0.15345946 0.094157159 -0.24474926 -0.82888877 -0.51028883 0.22923508 0.01853477
-0.14543533 0.10343432 -0.24509396 0.77142811 -0.59136969 0.2349053 0.0099089546
-0.13619468 0.10561067 -0.24826138 0.76389712 -0.6084311 0.21511124 0.014185444
0.13543043 0.10573543 -0.24737301 -0.79710054 -0.56379062 0.21626572 0.011867267
0.14442937 0.10537718 -0.24636634 -0.79160488 -0.58252281 0.18446951 0.015658027
-0.14230482 0.11171764 -0.24338242 0.76965308 -0.60458583 0.20520744 0.017786294
-0.13706648 0.11036287 -0.2467849 0.76589376 -0.60696983 0.21211851 0.013469174
-0.1273568 0.11621144 -0.2481133 0.73777527 -0.64537174 0.19794652 0.020145644
0.12631448 0.11756981 -0.2482155 -0.72133762 -0.6494844 0.24050373 0.01467841
0.1350276 0.11410091 -0.24585429 -0.78314042 -0.59052372 0.1948656 0.014378708
0.14333794 0.11037126 -0.24549335 -0.79345757 -0.55960816 0.2392984 0.012119593
-0.13113798 0.12294739 -0.24476917 0.72225547 -0.65881252 0.21050693 0.020064989
-0.12584816 0.1260256 -0.24623966 0.67174917 -0.71004575 0.21115883 0.02164208
-0.11765388 0.12723431 -0.2475152 0.66631728 -0.72614199 0.16952623 0.025524037
0.12628902 0.12580806 -0.24611561 -0.70930701 -0.66877651 0.22275902 0.015375737
0.13198505 0.12437463 -0.24438487 -0.72901952 -0.64846438 0.21914485 0.01744633
-0.12729119 0.13035481 -0.2418385 0.67806375 -0.71920645 0.15156381 0.026718004
-0.11549899 0.13413231 -0.24610227 0.63094819 -0.75456494 0.18037765 0.023592718
-0.10723896 0.13424161 -0.24874967 0.62569541 -0.74980444 0.21517095 0.017719978
0.10860679 0.13684978 -0.24741507 -0.59618157 -0.77326614 0.21593271 0.012853419
0.11803477 0.1374575 -0.24658558 -0.63066477 -0.74548191 0.21568176 0.014122832
0.12645382 0.1306989 -0.24678491 -0.69846934 -0.68378621 0.21113253 0.015356536
-0.11356436 0.14075591 -0.24664259 0.62640285 -0.75969261 0.1746044 0.020282362
-0.10206641 0.14014351 -0.24678493 0.57632577 -0.79451996 0.19127633 0.017251723
-0.094473973 0.1458057 -0.24782856 0.56277251 -0.80147058 0.20231666 0.022118812
0.09826012 0.1453248 -0.24678491 -0.53808659 -0.81104219 0.22950678 0.011509048
0.10339218 0.14786498 -0.24501759 -0.53149891 -0.81452525 0.23250276 0.010928435
0.11171538 0.14230657 -0.24241872 -0.58892822 -0.78430605 0.19500642 0.018983502
-0.10121351 0.15036492 -0.2461125 0.57097602 -0.79760933 0.19443686 0.021208715
-0.093828283 0.15503891 -0.24400537 0.50971156 -0.83880937 0.19129305 0.020872457
-0.084804818 0.15412974 -0.24603884 0.48452002 -0.85320538 0.19308276 0.017114062
0.066548705 0.15868118 -0.24771398 -0.37521851 -0.90160435 0.21522246 0.017139064
0.075048052 0.15692572 -0.2470374 -0.40352499 -0.89505023 0.18987538 0.0179772
0.085654005 0.15354265 -0.24678493 -0.48557442 -0.8550722 0.18184894 0.020135226
0.095080994 0.15507059 -0.24438892 -0.47444531 -0.85829973 0.19550742 0.01724072
