# .PCD v0.7 - Point Cloud Data file format
VERSION 0.7
FIELDS x y z normal_x normal_y normal_z curvature
SIZE 4 4 4 4 4 4 4
TYPE F F F F F F F
COUNT 1 1 1 1 1 1 1
WIDTH 570
HEIGHT 1
VIEWPOINT 0 0 0 1 0 0 0
POINTS 570
DATA ascii
-0.13388719 -0.11713766 -0.3526471 0.76036423 0.64525557 -0.074105293 0.0012657166
0.13568538 -0.11558712 -0.35652411 -0.76415479 0.64395922 -0.037202571 0.001848903
-0.14399795 -0.10458353 -0.35439858 0.80306572 0.59372574 -0.050746378 0.0015460171
-0.13997731 -0.10957579 -0.35377687 0.78149384 0.62121874 -0.057919376 0.00075011648
0.14283538 -0.10580105 -0.35668835 -0.80694562 0.58905172 -0.043091916 0.00063077535
-0.15305433 -0.092675075 -0.35607535 0.86285269 0.50279957 -0.051748164 0.0020487027
-0.14874701 -0.098686807 -0.35296741 0.82604045 0.56001902 -0.063529022 0.0021549019
0.14860736 -0.097901046 -0.35521579 -0.82864571 0.55701661 -0.055487461 0.00098963571
0.15214764 -0.093055509 -0.3535386 -0.84183931 0.53649294 -0.059007913 0.0014082277
-0.15637448 -0.085886978 -0.35439181 0.88158482 0.46867219 -0.056166466 0.0018107402
0.15802573 -0.084098659 -0.35309243 -0.88190043 0.46860203 -0.051613469 0.0025144005
-0.16172165 -0.073790237 -0.35391447 0.90967566 0.41238174 -0.049311265 0.00060093572
-0.1590077 -0.079929933 -0.35239184 0.89816427 0.43533513 -0.061515871 0.0011183445
0.16123463 -0.075867802 -0.3554388 -0.91066885 0.4108547 -0.043366499 0.0016930026
-0.16524002 -0.06583076 -0.35570055 0.92127246 0.38650161 -0.043284465 0.0008215101
0.16449574 -0.067439646 -0.35096475 -0.92686027 0.36861625 -0.071077861 0.0012285823
-0.17094076 -0.052934133 -0.35323554 0.95522887 0.2906296 -0.055428792 0.0025635175
-0.16840217 -0.058677096 -0.35655361 0.93209314 0.35915795 -0.046988323 0.0015886528
0.16841252 -0.057316933 -0.35735241 -0.94061887 0.33722258 -0.038948253 0.00099491421
0.17078704 -0.051180169 -0.35605896 -0.95749408 0.28630447 -0.035141602 0.0020501732
-0.17262661 -0.046655659 -0.35723805 0.96723294 0.2503852 -0.042042065 0.0024661024
0.17274018 -0.045992643 -0.35645434 -0.96436179 0.2610881 -0.042887609 0.0022726341
-0.17436619 -0.035479348 -0.35827112 0.98067731 0.1929695 -0.032166537 0.00089746289
0.17498495 -0.035186261 -0.35466293 -0.97770542 0.20352373 -0.051674601 0.0021019925
-0.1758468 -0.025966834 -0.35786617 0.98684865 0.15799145 -0.034181315 0.00041321901
0.1762031 -0.023886669 -0.35313654 -0.98987901 0.12936197 -0.058351964 0.00083540368
-0.17746751 -0.015554384 -0.35220742 0.9901008 0.11892499 -0.07454747 0.0015356946
0.17692988 -0.017145082 -0.35653827 -0.99302924 0.10766607 -0.047969069 0.00079013174
-0.17903528 -0.0030969302 -0.35725868 0.99910772 0.010917247 -0.040800527 0.0025616649
0.17823055 -0.0050797975 -0.35418129 -0.99668497 0.053444043 -0.061341885 0.0016323681
-0.17821977 0.0051798802 -0.3516472 0.99646211 -0.051584847 -0.066349685 0.0018971442
0.17896843 0.0017648789 -0.35199502 -0.9976812 4.4021166e-05 -0.068059936 0.0022068601
-0.17693305 0.017115582 -0.35727641 0.99321055 -0.10884401 -0.041057978 0.00070374977
0.17760575 0.014666115 -0.35592192 -0.99373227 -0.099491462 -0.050966572 0.001205022
-0.17587426 0.026937069 -0.35521409 0.98728991 -0.14913812 -0.054922026 0.0011971828
0.17562874 0.027367849 -0.35320914 -0.98647863 -0.1510863 -0.063504763 0.00085957139
-0.17507499 0.034351017 -0.35483602 0.98200047 -0.18364455 -0.044156455 0.0014652694
0.1740284 0.037649635 -0.35612574 -0.97655827 -0.21043046 -0.045309592 0.0015561462
-0.17245352 0.046873171 -0.35188732 0.96148562 -0.26660696 -0.066828191 0.0019260336
0.17292276 0.044752955 -0.35445642 -0.96590972 -0.25343749 -0.052800305 0.0025845163
-0.17072445 0.051341869 -0.35703525 0.95495522 -0.29399183 -0.04036523 0.0014116976
-0.16889422 0.05607203 -0.35513741 0.94755769 -0.31673652 -0.042573113 0.0013278803
0.16867308 0.058064245 -0.3594594 -0.93991834 -0.33985558 -0.03243158 0.0017208487
0.17056835 0.05377664 -0.35402367 -0.9534514 -0.29517776 -0.061648138 0.0024846327
-0.16550219 0.064838536 -0.35507569 0.9285689 -0.36671323 -0.057282608 0.0010351476
0.1655935 0.065031052 -0.354819 -0.92417318 -0.37739405 -0.058970854 0.0013684463
-0.16256492 0.072429791 -0.356024 0.91667384 -0.39661509 -0.049046017 0.0012776187
0.16252655 0.07196933 -0.35347265 -0.91130871 -0.40728408 -0.060301036 0.00076667714
-0.15694122 0.08597181 -0.35399616 0.87328649 -0.48256859 -0.067068622 0.0023405319
0.15691239 0.084670104 -0.35417819 -0.88851231 -0.45581806 -0.052685432 0.001367555
-0.15193455 0.093347155 -0.35475248 0.84035265 -0.53823072 -0.064149335 0.0019405339
-0.14819624 0.098463736 -0.35556197 0.82848591 -0.55734575 -0.054561131 0.0015416601
0.14847256 0.099027574 -0.35558155 -0.83357716 -0.55020016 -0.049283732 0.0021163253
0.15033859 0.096710615 -0.35748231 -0.84309602 -0.5364055 -0.038188126 0.0021222003
-0.14251681 0.10623708 -0.35523877 0.80278903 -0.59446269 -0.04630287 0.00075738569
0.14448784 0.10397525 -0.35680225 -0.80053794 -0.59830689 -0.034174062 0.0010804809
-0.13635801 0.11466651 -0.35489729 0.77581304 -0.62867755 -0.053653527 0.0013278879
0.13639688 0.11402147 -0.35783443 -0.77116066 -0.63570762 -0.034451835 0.00024984687
-0.13065168 0.12247665 -0.35914534 0.73824841 -0.67389536 -0.029228911 0.0022862395
-0.12727344 0.12572409 -0.35318986 0.69539988 -0.71569669 -0.064786956 0.0018370545
0.12491645 0.12827626 -0.35798189 -0.68630183 -0.72629398 -0.038558666 0.0022323101
-0.11543339 0.13525976 -0.35675982 0.64808381 -0.76006228 -0.047882706 0.00092419359
-0.10996532 0.13966359 -0.35560298 0.62080574 -0.78160441 -0.060784943 0.00092208723
0.10979583 0.13991667 -0.35279784 -0.61038154 -0.78967869 -0.06198398 0.0011155253
0.11518093 0.13598217 -0.35488197 -0.6235258 -0.7798515 -0.05520159 0.0014858147
0.12156998 0.13131411 -0.35901701 -0.67624933 -0.73552758 -0.041061934 0.0022882542
-0.10561254 0.14316921 -0.35477996 0.60432041 -0.79477227 -0.055981293 0.00096790935
-0.097949997 0.14934042 -0.35255662 0.55236918 -0.83085722 -0.067560852 0.0020837372
0.10191925 0.14567155 -0.35037857 -0.57406181 -0.81577301 -0.070480146 0.0010000586
-0.092797242 0.15308844 -0.35713279 0.51895279 -0.85370362 -0.04333758 0.0025573568
-0.086392984 0.1561508 -0.35478586 0.48365429 -0.87317443 -0.060374085 0.0022777268
-0.079311982 0.15928085 -0.35694051 0.42722127 -0.90309525 -0.043599568 0.0010740737
0.079200476 0.15994512 -0.35260132 -0.43814126 -0.8973431 -0.052987788 0.0021782955
0.088891864 0.15518972 -0.35774601 -0.49735057 -0.86681098 -0.035791505 0.0019418874
0.093199946 0.15204211 -0.35443315 -0.53245407 -0.84474069 -0.053906206 0.0018515916
-0.074134812 0.16156934 -0.35729474 0.41553402 -0.90866762 -0.04067678 0.00077604712
-0.06682419 0.16480087 -0.35400486 0.38575518 -0.92005503 -0.068496116 0.00087370543
-0.056882933 0.16919523 -0.35645762 0.34375736 -0.93791342 -0.046361212 0.0020283801
0.056810673 0.16860841 -0.35509804 -0.33807939 -0.9398998 -0.047861896 0.00085398083
0.065522671 0.16523747 -0.35248131 -0.3653231 -0.92871076 -0.063525058 0.00098634313
0.073389187 0.16219369 -0.35342327 -0.39979237 -0.91465068 -0.059834883 0.0014864206
-0.053614169 0.17064016 -0.35793793 0.32264856 -0.94572443 -0.038771335 0.0024469031
-0.045896284 0.17274481 -0.3550387 0.25623927 -0.96463454 -0.061819553 0.0026857501
-0.036298178 0.17423876 -0.35434204 0.17770246 -0.98226738 -0.059771705 0.0011440566
-0.022187712 0.17643501 -0.35325745 0.1295491 -0.98905706 -0.070591025 0.0010259541
-0.014468078 0.17763656 -0.3557359 0.1061019 -0.99318033 -0.048323613 0.0015153975
-0.0017863649 0.17897074 -0.35607618 -0.0017917098 -0.99863905 -0.052122843 0.0022896451
0.0066307387 0.17806335 -0.35497466 -0.042585645 -0.99777907 -0.051218223 0.0020476859
0.016774505 0.1769698 -0.35154146 -0.11179304 -0.99161869 -0.064766571 0.00086617877
0.023911932 0.17620036 -0.35610843 -0.13454287 -0.98965019 -0.049907759 0.00073325046
0.034909908 0.17501473 -0.3520596 -0.1764048 -0.98181814 -0.070103973 0.00157965
0.044435408 0.1732384 -0.35490286 -0.24683245 -0.96772087 -0.050892822 0.0021389348
0.051175993 0.17078865 -0.35298246 -0.30347598 -0.95098245 -0.059452463 0.0017679944
-0.046204552 -0.17200105 -0.3442333 0.25598285 0.96104485 -0.10423806 0.0020343396
-0.036452685 -0.17421171 -0.34449971 0.19269094 0.97591197 -0.10230369 0.0018952318
-0.023534719 -0.17551006 -0.34398037 0.12771572 0.98558581 -0.11094745 0.00088790234
-0.017846826 -0.17646861 -0.3458989 0.10439405 0.99006343 -0.094213806 0.0010770069
-0.0019424685 -0.17835572 -0.34663004 0.015402776 0.99501705 -0.0985085 0.0022943364
0.0050724023 -0.17835157 -0.34492376 -0.012491982 0.9950884 -0.098199457 0.0022820174
0.016454753 -0.17714339 -0.34727311 -0.11459146 0.99004906 -0.081680439 0.0016813669
0.035962213 -0.17384858 -0.3456718 -0.18649805 0.97794253 -0.094058007 0.0011293027
0.040579293 -0.17265746 -0.34263656 -0.21749076 0.96975845 -0.11075319 0.0014694839
0.053746399 -0.17058171 -0.34902093 -0.30914286 0.9476245 -0.08024019 0.002257559
-0.074273556 -0.16096637 -0.34308964 0.41271901 0.90285879 -0.12045369 0.0016713655
-0.067249775 -0.16398522 -0.34519893 0.37516329 0.92097235 -0.10517798 0.00098190503
-0.05467204 -0.1689629 -0.34530705 0.33247712 0.93687141 -0.10830954 0.0011766095
0.059443608 -0.16673259 -0.34083027 -0.33938047 0.93489599 -0.10387655 0.0017831912
0.065969646 -0.16486435 -0.3462193 -0.38342267 0.91885465 -0.093237892 0.0012646466
0.073437318 -0.16187766 -0.34930831 -0.4093636 0.91036874 -0.060417272 0.00097907963
-0.091680206 -0.1521828 -0.34403777 0.53084624 0.84147406 -0.10061633 0.0015770562
-0.083929032 -0.15750866 -0.34576041 0.47763017 0.87385225 -0.090838701 0.0022436765
-0.077233925 -0.15989107 -0.34346721 0.42337894 0.89872563 -0.11420409 0.0018269003
0.084465839 -0.15667719 -0.34631547 -0.46012682 0.88299251 -0.092776604 0.0016541081
0.093452662 -0.15166791 -0.34243575 -0.52923012 0.84208465 -0.10396595 0.0023433249
-0.10299433 -0.14405362 -0.34397447 0.57808918 0.80868787 -0.10879702 0.00090050948
-0.097779572 -0.14782393 -0.34427607 0.55301249 0.82598704 -0.10919086 0.0011535313
0.099034518 -0.14724851 -0.34237731 -0.56765437 0.81633162 -0.10663627 0.0018003951
0.10367464 -0.14428784 -0.34593868 -0.59238517 0.7998175 -0.096807443 0.0012763736
-0.12186725 -0.13109694 -0.34805927 0.67234105 0.73417288 -0.09459275 0.0024936548
-0.11398395 -0.13611837 -0.34448031 0.62909943 0.76797026 -0.12023156 0.0020047636
-0.10828323 -0.13981639 -0.34223682 0.5874722 0.79993773 -0.12237646 0.00087574206
0.1080543 -0.13958497 -0.34058353 -0.60992551 0.78248894 -0.12530737 0.000812785
0.11556264 -0.13450177 -0.3451623 -0.64449799 0.75653106 -0.11082913 0.0011758761
0.12154934 -0.13033412 -0.34814066 -0.67274195 0.73325074 -0.098800346 0.0020541858
-0.12338462 -0.12892069 -0.34366006 0.68467593 0.71864861 -0.12150345 0.0023636913
0.12518646 -0.12644622 -0.34378758 -0.68048227 0.7233988 -0.11678213 0.0019237467
0.13099718 -0.12098031 -0.3443687 -0.72742397 0.67886567 -0.099978521 0.0030512973
-0.13720545 -0.11249208 -0.34642673 0.77027953 0.62850016 -0.10796786 0.00078413729
0.13689968 -0.11344396 -0.34667867 -0.78741926 0.6103 -0.08663024 0.0013248691
-0.14251499 -0.1049962 -0.34268215 0.78855735 0.60325122 -0.11943768 0.0012247872
-0.13899758 -0.10918929 -0.34205136 0.77675408 0.61858433 -0.11834907 0.00076739612
0.13960123 -0.10833736 -0.34141886 -0.79339349 0.59582412 -0.12458139 0.0007966159
0.14535956 -0.10057219 -0.34181419 -0.81249195 0.57221586 -0.11147142 0.00086922251
-0.15220368 -0.093730479 -0.34568009 0.85015917 0.51783961 -0.095244385 0.0021789684
-0.14801773 -0.098512791 -0.34445521 0.82445765 0.55528396 -0.10922089 0.0021179805
0.15109086 -0.093462855 -0.34431565 -0.83495301 0.5405429 -0.10327999 0.0016477843
-0.15727527 -0.080526069 -0.34010115 0.89151329 0.43740463 -0.11781867 0.0011295129
0.15739539 -0.084252693 -0.3465113 -0.88015711 0.4651733 -0.094536901 0.0026439505
-0.16101915 -0.073753998 -0.34406063 0.90275532 0.41547599 -0.1114118 0.00070810376
0.15991296 -0.077999935 -0.34517965 -0.89743149 0.42993656 -0.098849781 0.0022301206
0.16112179 -0.07601849 -0.34800446 -0.90405571 0.41998351 -0.079353243 0.0019968681
-0.16419066 -0.067025006 -0.34510052 0.91650248 0.3869136 -0.10159301 0.00097433617
0.16650565 -0.061683483 -0.34668273 -0.93386823 0.34862837 -0.079677358 0.00130926
-0.1707505 -0.052814305 -0.34758174 0.95219558 0.29108515 -0.09269882 0.0026199319
-0.16935247 -0.054076418 -0.34213567 0.94651097 0.30406013 -0.10800132 0.0027744188
0.16790798 -0.057222389 -0.34517923 -0.93764573 0.33260423 -0.10097007 0.0010762976
0.17116815 -0.050195172 -0.34790349 -0.95198786 0.29237723 -0.090745136 0.001934311
-0.1717099 -0.048298012 -0.34484845 0.95638347 0.276061 -0.095504612 0.0025995323
0.17296554 -0.044824254 -0.34702924 -0.96662873 0.24378733 -0.078718483 0.002316698
-0.17388488 -0.031061618 -0.34118864 0.97948867 0.16132247 -0.12073487 0.00064700359
0.17494042 -0.032867316 -0.34640691 -0.98117936 0.16929592 -0.092875831 0.0016825622
-0.17526907 -0.026101151 -0.34487844 0.98373109 0.14855118 -0.1010235 0.00077638309
0.17545962 -0.02715263 -0.34565696 -0.98692977 0.13149174 -0.09316425 0.0010215604
-0.17710572 -0.015938021 -0.34613013 0.99011767 0.10503593 -0.092921905 0.0018120653
0.17590235 -0.017444151 -0.34214327 -0.9883495 0.10704665 -0.10819587 0.00092495955
-0.17829826 -0.0056576566 -0.34451017 0.99326783 0.040437531 -0.10855325 0.002545153
0.17776836 -0.0042488864 -0.34483394 -0.99454784 0.042950079 -0.095025681 0.0016913802
-0.17798808 0.0037859329 -0.34648025 0.99514997 -0.050461937 -0.084439881 0.0018355181
0.17805219 0.0021717653 -0.34319004 -0.99403441 -0.0051074917 -0.10894744 0.0022711568
-0.17703739 0.015505381 -0.34745491 0.99077308 -0.10670555 -0.083561815 0.0011487482
0.17705439 0.015679624 -0.34560829 -0.98976874 -0.10497524 -0.096633397 0.0013439482
-0.17560169 0.021828266 -0.34312969 0.98714262 -0.1179792 -0.10784441 0.00085442903
0.17567742 0.026090801 -0.34733337 -0.98468047 -0.14629848 -0.09487436 0.00084667921
-0.1748936 0.032809511 -0.34592208 0.98053515 -0.17142825 -0.095724717 0.0016599471
0.1736562 0.03639188 -0.34519318 -0.97705191 -0.18996303 -0.096351296 0.001391793
-0.17228499 0.04559828 -0.34485397 0.95871788 -0.26508197 -0.10291556 0.0022137079
0.17314787 0.043162446 -0.3482511 -0.97042906 -0.22501466 -0.087382913 0.0020163844
-0.16782436 0.057344474 -0.34477001 0.93648279 -0.33612549 -0.10009861 0.0011815057
0.16813929 0.056934271 -0.34240004 -0.93520099 -0.33403242 -0.11756504 0.0017775375
0.17059112 0.051504944 -0.34267378 -0.95137 -0.28697979 -0.11197118 0.0022589131
-0.16480517 0.065265864 -0.34545565 0.92730248 -0.36051002 -0.10071062 0.001073032
0.16563691 0.064149998 -0.34672987 -0.92697752 -0.36316308 -0.093943149 0.0014900871
-0.16117412 0.076024219 -0.3483119 0.9078877 -0.41239271 -0.075313821 0.0017481755
0.15945613 0.077090353 -0.34359509 -0.89850569 -0.42467251 -0.11108916 0.00093869574
0.16127478 0.074002206 -0.34616709 -0.90294743 -0.41969118 -0.092441067 0.00097928953
-0.1579981 0.084232464 -0.34995615 0.87638187 -0.47418684 -0.084271319 0.002303062
0.15667288 0.08399231 -0.34510192 -0.88170058 -0.46129355 -0.099057175 0.0019457496
-0.1526777 0.092064276 -0.34694755 0.8477062 -0.51990181 -0.10533936 0.0018191773
-0.14649709 0.099827394 -0.34457815 0.82196951 -0.55831462 -0.11247651 0.0011290321
0.14844514 0.09789595 -0.34363389 -0.82932299 -0.5479967 -0.10919233 0.0020722337
0.15243481 0.092530444 -0.34335828 -0.85113722 -0.51463145 -0.10353681 0.0020743229
-0.14185184 0.10624957 -0.34506255 0.8031038 -0.58636391 -0.1058381 0.00080986624
-0.13923839 0.10924008 -0.342801 0.79164881 -0.5994969 -0.11788021 0.0010365065
0.14234926 0.105923 -0.34591973 -0.79201156 -0.60179925 -0.10273963 0.0011526325
-0.13478957 0.1158396 -0.34470809 0.75951129 -0.6432519 -0.096797436 0.0017640515
0.13575338 0.11356102 -0.34362203 -0.76790667 -0.63210696 -0.10373064 0.00079935341
0.12583604 0.12603492 -0.34430656 -0.71421522 -0.69246131 -0.10195056 0.0022993993
0.13030013 0.12037322 -0.34344339 -0.73492306 -0.66928911 -0.10927104 0.0017182565
-0.12014382 0.13115925 -0.34647322 0.66418517 -0.74201065 -0.090984955 0.001276001
-0.11540386 0.13404673 -0.34254277 0.64214826 -0.75769788 -0.11636002 0.00094937586
-0.10935716 0.13897806 -0.34257114 0.62121123 -0.77591527 -0.10978245 0.00081392558
0.11519251 0.13559124 -0.34670013 -0.62899065 -0.77249241 -0.087327771 0.0016712144
0.12129687 0.13034654 -0.34241527 -0.66478324 -0.73778903 -0.11717773 0.0018980989
-0.10456006 0.14344005 -0.34573126 0.60160464 -0.79397553 -0.087605424 0.0011912424
-0.098348156 0.14874609 -0.34720638 0.55575925 -0.82614934 -0.092784807 0.0023737955
0.097500563 0.14791426 -0.34326053 -0.54485637 -0.83223295 -0.10256559 0.0014145083
0.10196204 0.14491948 -0.34468523 -0.57224321 -0.81462467 -0.094468199 0.00091981975
-0.092189275 0.15267392 -0.34429085 0.50622213 -0.8556062 -0.10806083 0.0028491842
-0.086443223 0.15602528 -0.34797159 0.48987442 -0.86743706 -0.087040231 0.0024214045
-0.078989565 0.15942338 -0.34850633 0.42524463 -0.90073967 -0.08851523 0.0011633408
0.079131342 0.15921737 -0.3437925 -0.44534713 -0.88829589 -0.11223315 0.0023080187
0.085302316 0.15663293 -0.34486932 -0.48300394 -0.8672561 -0.12072304 0.0023464779
0.092988268 0.1520042 -0.34733695 -0.53255367 -0.84180868 -0.088003911 0.0017779755
-0.072048962 0.16219194 -0.34688091 0.40368864 -0.91049308 -0.089654744 0.0010070166
-0.066270858 0.16403762 -0.34253407 0.3826991 -0.9166742 -0.1151076 0.0010098327
-0.059069619 0.16822866 -0.34932047 0.34761897 -0.93393993 -0.08317057 0.0017204032
0.050842799 0.16990924 -0.34242693 -0.29853395 -0.94709557 -0.11784555 0.0018974984
0.06617333 0.16457967 -0.34632742 -0.36824721 -0.92542142 -0.089382268 0.0010677063
0.075193986 0.16077894 -0.34427115 -0.40274465 -0.90904111 -0.1069628 0.0014515239
-0.050289914 0.17146355 -0.34450242 0.28272468 -0.95314205 -0.10764293 0.0026520721
-0.043381263 0.17258945 -0.34473491 0.23475136 -0.96621448 -0.10640168 0.0023345381
-0.037210207 0.17354837 -0.34472579 0.17545781 -0.97934127 -0.10052427 0.0013006427
-0.025729686 0.17505276 -0.34311518 0.1435539 -0.98364764 -0.10876412 0.00085557386
-0.01640865 0.17627418 -0.34180751 0.11175593 -0.98559457 -0.1269411 0.0011346986
-0.0037244773 0.17856571 -0.34536675 0.0044522816 -0.99586713 -0.090713091 0.0024817882
0.0066580512 0.17806041 -0.34795967 -0.043822672 -0.99578297 -0.080597393 0.0020743797
0.014226372 0.17663351 -0.34449154 -0.10017122 -0.98901248 -0.10872003 0.0010285549
0.021716667 0.17567766 -0.34349635 -0.12501593 -0.98616385 -0.10886644 0.00080082333
0.036760185 0.17411737 -0.3442165 -0.1997517 -0.97389746 -0.10780978 0.002161213
0.046481408 0.17184441 -0.34398022 -0.26944843 -0.95676517 -0.1095354 0.0023000364
0.050903291 0.17041676 -0.34570375 -0.28750387 -0.95238119 -0.10154636 0.0021188634
-0.042414058 -0.17250228 -0.33883128 0.23647653 0.96318549 -0.12787679 0.0021220765
-0.034071766 -0.17302163 -0.33590165 0.17418699 0.97496718 -0.13819537 0.001647245
-0.024179501 -0.17426443 -0.3369132 0.12452289 0.9828034 -0.13635081 0.00077290187
-0.016051192 -0.17505948 -0.33644745 0.10202249 0.98498958 -0.13923712 0.0005022579
-0.0061337994 -0.17619124 -0.33680677 0.054077964 0.98941517 -0.13465938 0.0012493196
0.0075209974 -0.17640834 -0.33468658 -0.051215425 0.98811984 -0.14490049 0.0022988713
0.017817557 -0.17487031 -0.33505505 -0.1186608 0.98220664 -0.14556687 0.001050448
0.024057433 -0.17380035 -0.33449218 -0.14500272 0.9781087 -0.14925717 0.00029503671
0.03316351 -0.17227533 -0.33387849 -0.17427596 0.97355646 -0.14770152 0.00051381584
-0.074437693 -0.16014095 -0.33899042 0.40745932 0.90437257 -0.12683518 0.0015639599
-0.064621404 -0.16302752 -0.3340854 0.36501038 0.91825068 -0.15356778 0.00042228104
-0.055712722 -0.16673295 -0.33547571 0.3263846 0.93468398 -0.14085114 0.00081553677
-0.047927711 -0.16887055 -0.33076972 0.27408075 0.94935244 -0.15365441 0.001864884
0.053861126 -0.16835086 -0.33634838 -0.29796058 0.94414443 -0.14075075 0.00221886
0.063136414 -0.16408032 -0.3354485 -0.37016279 0.91746998 -0.14569941 0.0012950514
0.070829406 -0.16029972 -0.33344328 -0.39954406 0.90402704 -0.15198618 0.00030102319
-0.084890142 -0.15517126 -0.33673999 0.48480955 0.86499196 -0.12941594 0.0022844812
-0.077261955 -0.15796393 -0.33315688 0.43259299 0.88814235 -0.15513341 0.0019013658
0.078045867 -0.15746176 -0.33530042 -0.42265788 0.89518416 -0.14144161 0.00063794426
0.083916977 -0.15522484 -0.33719105 -0.46942723 0.87338239 -0.12977372 0.0016189993
-0.10249921 -0.14230825 -0.33415902 0.57685995 0.80306512 -0.14939536 0.00054114574
-0.095424674 -0.1472884 -0.33327988 0.54748893 0.82295763 -0.151646 0.00081792957
0.097643375 -0.14737552 -0.33791402 -0.57722962 0.80547118 -0.13424636 0.0017467571
-0.11810735 -0.13171889 -0.3379527 0.65394986 0.74341935 -0.14027543 0.0019934943
-0.10611489 -0.1397154 -0.33438671 0.59102762 0.79320943 -0.14664629 0.00047811226
0.10668074 -0.13899337 -0.332955 -0.61087143 0.77725828 -0.15068409 0.00061018503
0.11434741 -0.13353032 -0.33615175 -0.64107847 0.75381857 -0.14413895 0.00076744641
-0.12539531 -0.12399475 -0.33502287 0.71312058 0.68634266 -0.14280303 0.0018973846
0.12582766 -0.12411053 -0.33564606 -0.69699883 0.70108503 -0.15057363 0.0022100881
0.13028312 -0.12023986 -0.33852243 -0.72109312 0.67926049 -0.13649163 0.0023464379
-0.13380355 -0.11376891 -0.33528602 0.75786316 0.63710815 -0.14048752 0.0006546434
-0.12990636 -0.11769713 -0.3319903 0.74645925 0.64778322 -0.15223485 0.0007258546
0.1327962 -0.11652835 -0.33759707 -0.74484169 0.65202415 -0.14168759 0.0020777564
-0.14424531 -0.10124638 -0.3368876 0.80117971 0.58349061 -0.13285258 0.0015253423
-0.13917488 -0.10593071 -0.33105642 0.77758187 0.60807961 -0.16001767 0.00043589377
0.13702619 -0.10948402 -0.33332634 -0.77930659 0.60854107 -0.1495292 0.0010591712
0.14295468 -0.10202044 -0.33554077 -0.80041307 0.58390987 -0.13560325 0.00053343171
-0.15005587 -0.092998073 -0.33314747 0.82666701 0.54251695 -0.14932187 0.0020237854
-0.14837316 -0.095396891 -0.33426735 0.82359219 0.54708654 -0.14964044 0.0020643303
0.147181 -0.095417909 -0.33275664 -0.82208365 0.54767424 -0.15566488 0.0010973591
0.15071291 -0.091173984 -0.33476508 -0.84347904 0.51528072 -0.1517528 0.0022435295
-0.15238793 -0.088690817 -0.33335653 0.85789466 0.49157017 -0.14958471 0.0021698237
0.15507151 -0.084301621 -0.3352429 -0.8703323 0.47153208 -0.14205329 0.0021176268
-0.15840004 -0.075239636 -0.33370602 0.89693111 0.42024028 -0.13752373 0.00062294345
0.15998591 -0.07410302 -0.33745944 -0.90319538 0.40356377 -0.14619994 0.0013398855
-0.16293699 -0.065671325 -0.33532804 0.90914756 0.38928604 -0.14801012 0.00058596826
0.16354834 -0.064205021 -0.33602071 -0.92055196 0.36331376 -0.14348246 0.00067020633
-0.17011476 -0.050614428 -0.33808318 0.95104164 0.2822957 -0.12581366 0.0028961697
-0.16780519 -0.053404797 -0.33240494 0.93700755 0.30902982 -0.16284172 0.0024181516
0.16671994 -0.055575535 -0.33512008 -0.93495929 0.32546493 -0.14115101 0.00095684291
-0.17113769 -0.044170488 -0.33715948 0.96455592 0.22900359 -0.13110752 0.0025266509
-0.16981131 -0.044932164 -0.33027446 0.96205723 0.22886281 -0.14855203 0.0020157462
0.16880161 -0.048473168 -0.33153427 -0.94395047 0.29310334 -0.15181534 0.0014902187
0.17145991 -0.043213889 -0.3353484 -0.9583537 0.25342771 -0.13165335 0.002029496
-0.17181921 -0.036018912 -0.33381191 0.97342235 0.17373157 -0.14921904 0.00072940788
0.17280471 -0.035493296 -0.33553639 -0.97244519 0.18582527 -0.14078143 0.0017507557
-0.17325975 -0.027833631 -0.33476105 0.97769624 0.15817763 -0.1381664 0.00048325513
0.17383362 -0.024433199 -0.33459902 -0.98158139 0.12583598 -0.14374758 0.00053778541
0.1750229 -0.0124359 -0.33400208 -0.98548996 0.078732319 -0.15036847 0.00097948988
-0.1765731 -0.0062555349 -0.33487457 0.98759204 0.041697476 -0.15140432 0.0019915281
0.1759118 -0.0017679501 -0.33250409 -0.9888072 0.017661385 -0.1481501 0.0021934905
-0.17554019 0.0056662457 -0.33278319 0.98687845 -0.055389814 -0.15166694 0.0012815231
0.17659412 0.0034448828 -0.33425763 -0.98787898 -0.022396797 -0.15360178 0.0020397198
-0.17538841 0.011097889 -0.33527121 0.98551452 -0.084603287 -0.14698087 0.00061503681
0.17524602 0.015278271 -0.33494374 -0.98516184 -0.089479506 -0.14645666 0.0015668038
-0.17363319 0.025917977 -0.33436757 0.98052859 -0.12851092 -0.14848799 0.00041206347
0.17341086 0.026905676 -0.33479917 -0.97768128 -0.14781804 -0.14929524 0.00036149961
-0.17271876 0.033730973 -0.33395362 0.97521704 -0.17073636 -0.14071539 0.0016458916
0.17203039 0.034982689 -0.33409625 -0.97048664 -0.182657 -0.15745538 0.0006585574
-0.17062113 0.047031742 -0.33832315 0.95194721 -0.27803937 -0.12841627 0.0017603518
0.17063366 0.04334579 -0.3335546 -0.96075052 -0.23501748 -0.14739484 0.0015409678
-0.1657365 0.057830021 -0.33452222 0.93119287 -0.33232132 -0.14980753 0.00074162154
0.16826332 0.053648684 -0.33539096 -0.93918824 -0.31215966 -0.14311494 0.0018079972
-0.1636551 0.065297775 -0.33887008 0.92241192 -0.3639783 -0.12913561 0.0007193237
0.16331014 0.065145284 -0.33607015 -0.91818345 -0.37324303 -0.13277334 0.0011259023
-0.16023213 0.07431744 -0.3392306 0.90047073 -0.415023 -0.13003223 0.0016907026
-0.15835063 0.076125592 -0.33287171 0.89590323 -0.4192237 -0.14700006 0.0014793214
0.15756258 0.077207312 -0.33387649 -0.89502496 -0.42089587 -0.1475704 0.00077910133
-0.15592307 0.082847975 -0.33490872 0.87782055 -0.45825413 -0.13940684 0.0020227467
0.15437196 0.084973849 -0.33515581 -0.87298274 -0.46671495 -0.14169796 0.0016049253
-0.14523104 0.097741663 -0.33158201 0.81935561 -0.55262709 -0.15251127 0.00075361668
0.14672495 0.097230554 -0.33349714 -0.81889808 -0.55416596 -0.1493521 0.0016626221
0.15095219 0.092632264 -0.3358511 -0.84057736 -0.52337492 -0.13967274 0.0021204059
-0.14232294 0.10300017 -0.33593246 0.80190051 -0.58102822 -0.13914655 0.00051598565
-0.13450257 0.11375817 -0.33611757 0.76492244 -0.62884068 -0.13947445 0.0015394932
0.13335088 0.11528111 -0.33872423 -0.75801474 -0.63989389 -0.1262911 0.00089455664
-0.13007765 0.1208933 -0.33978918 0.73052913 -0.67183459 -0.12233343 0.0020883072
-0.12498621 0.12517814 -0.33753726 0.68889767 -0.7128635 -0.13132201 0.0019812658
-0.11872259 0.12877114 -0.33060041 0.65746969 -0.73794997 -0.1521953 0.0013163829
0.12469649 0.12505753 -0.33546272 -0.69393444 -0.70574337 -0.14276296 0.0022862747
-0.11259985 0.13446181 -0.33401331 0.6268301 -0.76539081 -0.14581098 0.00035549735
-0.10550639 0.13994886 -0.33299848 0.59907413 -0.78552312 -0.15512426 0.00074170844
0.10817035 0.13896738 -0.33789784 -0.60214186 -0.78799224 -0.12842731 0.00084386783
0.11412213 0.13439134 -0.33683813 -0.63146669 -0.76085943 -0.14947499 0.0013486381
-0.10343587 0.142327 -0.33619139 0.59206241 -0.79351723 -0.14068571 0.0010067532
-0.097006954 0.14683241 -0.33317077 0.54373723 -0.82508463 -0.15357506 0.0021314495
0.093053684 0.14973676 -0.33661538 -0.53057128 -0.83745545 -0.13100538 0.0013078958
0.10206033 0.14299002 -0.33584109 -0.57742578 -0.80367029 -0.14385279 0.00055292191
-0.092010848 0.15064523 -0.33287907 0.51569772 -0.84330672 -0.15129358 0.0022699942
-0.08438383 0.15480122 -0.33604464 0.45558444 -0.87824863 -0.14533445 0.0016480251
-0.075821921 0.15792511 -0.33255813 0.41580158 -0.89668024 -0.15189983 0.00048361352
0.075835481 0.15948977 -0.33839673 -0.40438357 -0.90577483 -0.12667239 0.0013270846
0.084625594 0.15506871 -0.33488515 -0.47189251 -0.8701188 -0.14216468 0.0018822424
-0.070939176 0.16006693 -0.33247101 0.40238771 -0.90305418 -0.15025748 0.00043206365
-0.065411113 0.1631318 -0.33574912 0.37741068 -0.91643596 -0.13306461 0.0009803545
-0.058009356 0.16548724 -0.33091384 0.3365168 -0.92778939 -0.16113164 0.0016292937
0.049352311 0.1687209 -0.33293033 -0.30106679 -0.94056904 -0.15712647 0.0015010766
0.0547508 0.16667089 -0.33313912 -0.31717396 -0.93674588 -0.14801268 0.0010821382
0.063008584 0.16384685 -0.33513612 -0.35227582 -0.92459697 -0.14499065 0.00045784336
0.072049566 0.16089346 -0.33806747 -0.40080091 -0.90691608 -0.12985288 0.0012826468
-0.050442006 0.17015889 -0.33791387 0.28351986 -0.94793624 -0.14502929 0.0023470854
-0.047726728 0.17067477 -0.33767605 0.26538226 -0.954831 -0.13367862 0.002197712
-0.032475788 0.1724665 -0.33435801 0.16531982 -0.97386539 -0.15574223 0.00071668887
-0.025422502 0.17356373 -0.33435458 0.14018409 -0.97948945 -0.14473745 0.00050538575
-0.014651085 0.17538099 -0.33515656 0.10637074 -0.98323601 -0.14809529 0.0010397518
-0.0038416409 0.17734557 -0.33725935 0.028983252 -0.98901379 -0.14495425 0.0023286322
0.0031066556 0.17603242 -0.33402386 -0.031281162 -0.98892039 -0.1451132 0.0017942964
0.017118342 0.1746266 -0.33462444 -0.10457323 -0.98395646 -0.14454806 0.00042413472
0.025662597 0.17368515 -0.33450758 -0.14427775 -0.97958624 -0.13998115 0.0011224832
0.032436315 0.17255355 -0.33220553 -0.15972254 -0.97661871 -0.14389145 0.0011284023
0.043371376 0.17128158 -0.33478603 -0.24695894 -0.95850515 -0.14240517 0.0024362777
-0.035191048 -0.17025059 -0.32069948 0.18538408 0.96737212 -0.17269562 0.0021321478
-0.022710873 -0.17187685 -0.32231036 0.11971323 0.97832727 -0.16895118 0.00036489029
-0.01413626 -0.17311238 -0.32409501 0.083576038 0.98152739 -0.1721019 0.00045770407
-0.0076642456 -0.17410684 -0.32579708 0.058825556 0.98321027 -0.17273419 0.00093583611
0.0048365449 -0.17508452 -0.32625341 -0.031253707 0.98394352 -0.17572239 0.0020409541
0.014781162 -0.17341651 -0.32407364 -0.08408805 0.98076272 -0.17616391 0.0015026662
0.028118735 -0.17095953 -0.32190183 -0.16790769 0.97093797 -0.17054771 0.0003701814
0.035303522 -0.17071612 -0.32688901 -0.19213872 0.96932399 -0.15327673 0.00083053694
-0.061173521 -0.16260815 -0.32465121 0.3487547 0.92204517 -0.16793688 0.00024354002
-0.053745795 -0.16575482 -0.32611823 0.31844729 0.93310016 -0.16707946 0.00096639182
-0.046197534 -0.16826065 -0.32388622 0.26406246 0.94850838 -0.17493683 0.0016832037
-0.039914981 -0.16981243 -0.32110721 0.21936654 0.96114099 -0.16758931 0.0020298974
0.035541907 -0.16975728 -0.32163471 -0.19770437 0.96356833 -0.18013613 0.0010455661
0.046848141 -0.16846213 -0.32437348 -0.26761323 0.9480918 -0.17177057 0.0017267108
0.055266839 -0.16568179 -0.32554379 -0.30583829 0.93554574 -0.17668353 0.0018535212
0.06586609 -0.16071168 -0.32404041 -0.39483559 0.90306264 -0.16906415 3.5441884e-05
-0.090361446 -0.15006754 -0.32899341 0.5192377 0.83982974 -0.15836081 0.0015253692
-0.081320599 -0.15459 -0.32345325 0.45396885 0.87562621 -0.16489691 0.0020424291
0.088383816 -0.15091921 -0.32489064 -0.49337626 0.85368079 -0.16676025 0.0021591401
-0.10192642 -0.14137797 -0.32787609 0.57694811 0.80129015 -0.15831922 0.00022584561
-0.094645508 -0.14683199 -0.32850209 0.54876363 0.8219378 -0.15256687 0.00075230864
0.089618534 -0.14959273 -0.32077128 -0.50306529 0.84694403 -0.17207871 0.0021883713
0.096777298 -0.14558958 -0.32675567 -0.5674389 0.80586541 -0.16909771 0.0014018561
0.1019547 -0.14049549 -0.32260251 -0.58390701 0.79226208 -0.17712559 0.0011046913
-0.11348655 -0.13235697 -0.32519847 0.64015079 0.74957281 -0.16836724 0.0018303104
-0.10672804 -0.13692345 -0.32346803 0.59947938 0.78195328 -0.17080273 0.00051340624
0.10649496 -0.13657476 -0.32141566 -0.61554295 0.7690888 -0.17207357 0.00011777176
0.11351224 -0.13184041 -0.3255367 -0.63693988 0.75225466 -0.16858409 0.00045434092
-0.1251568 -0.12043688 -0.32056427 0.71993494 0.67101622 -0.17728744 0.0016219593
-0.11856697 -0.12756225 -0.32015452 0.67574614 0.71801752 -0.16678746 0.0023503585
0.11704919 -0.1289562 -0.32537651 -0.65828794 0.73321766 -0.17043734 0.0013702423
0.12539245 -0.12206402 -0.32490677 -0.6927796 0.70214283 -0.16447423 0.0019006741
-0.13237795 -0.11228693 -0.32351798 0.7522794 0.63709736 -0.16787703 0.00052027003
-0.12676305 -0.11949551 -0.32437482 0.72647947 0.66679835 -0.16615507 0.0013898959
0.12867512 -0.11847787 -0.32503515 -0.72003925 0.67420626 -0.164285 0.0021725162
0.13088374 -0.1153091 -0.32453871 -0.74598408 0.64451778 -0.16764455 0.0017934223
-0.14130083 -0.10147573 -0.32448772 0.78154916 0.59971488 -0.1718227 0.00042692205
-0.13588756 -0.10741341 -0.32165164 0.77173471 0.61267239 -0.17046461 0.00034688922
0.13655658 -0.1066241 -0.32140526 -0.77804542 0.60422868 -0.17190979 0.00085635856
-0.14736865 -0.094042167 -0.32489622 0.82341665 0.53957933 -0.17561099 0.0022046419
0.14605953 -0.094863296 -0.32564497 -0.81715584 0.55247307 -0.16440745 0.00082590274
-0.15174578 -0.086002588 -0.32369807 0.85391277 0.49197614 -0.16968334 0.0022477012
-0.14958575 -0.08980713 -0.32117435 0.83910936 0.51465338 -0.17614582 0.0024565444
0.1527292 -0.086057767 -0.32674479 -0.85157657 0.49261761 -0.17929102 0.001974185
-0.15657184 -0.075283274 -0.32416114 0.8960672 0.41183624 -0.16569372 0.00027527905
0.15816183 -0.072529778 -0.32437015 -0.90080053 0.40141329 -0.16560698 0.00098438177
-0.16191271 -0.06357421 -0.32503217 0.90960854 0.37837103 -0.17160302 0.00048644093
0.16118442 -0.065248273 -0.32547387 -0.91482478 0.36838335 -0.16549763 0.00023688842
-0.16450433 -0.056272592 -0.32167658 0.92765069 0.3310574 -0.17281534 0.0016364558
0.16492847 -0.055504821 -0.32533413 -0.93185717 0.31982446 -0.1713317 0.0010201314
-0.16831356 -0.046978343 -0.32369843 0.95251989 0.24845339 -0.17600213 0.0025906865
0.1680619 -0.045307335 -0.32096365 -0.94625258 0.26919255 -0.17928006 0.0019462792
0.1701038 -0.041412581 -0.3238416 -0.95423585 0.23660284 -0.18290189 0.002382871
-0.17091817 -0.032835312 -0.32585081 0.97083306 0.16933013 -0.16973604 0.00034199769
-0.1693871 -0.0386976 -0.32232445 0.96508777 0.19346049 -0.17657475 0.00090361823
0.17060165 -0.034812536 -0.32247901 -0.96517944 0.19082329 -0.17892773 0.0019660585
-0.17222345 -0.023869807 -0.32533675 0.97470719 0.14817673 -0.16730061 2.4100838e-05
0.17152424 -0.026944052 -0.32290551 -0.97485179 0.1427581 -0.17112623 0.0010052355
-0.17332062 -0.018695693 -0.3270002 0.97865373 0.1192596 -0.16737387 0.00092116283
0.17390683 -0.013745268 -0.32841015 -0.98408854 0.080937237 -0.15817375 0.00067407067
-0.17462851 -0.0038912762 -0.32229468 0.98446018 0.045279495 -0.16967018 0.0019318744
0.17437948 -0.0054149567 -0.32597026 -0.98510897 0.042452093 -0.16660783 0.0014906292
-0.17377093 0.0085773095 -0.324435 0.98316473 -0.071194507 -0.16828088 0.0010320991
0.17471744 0.0082183061 -0.32566652 -0.98414457 -0.063797809 -0.16549721 0.0016603997
-0.17311585 0.014512439 -0.32434756 0.98104203 -0.10092498 -0.16544086 5.0409068e-05
0.17326504 0.014293614 -0.3227776 -0.98301417 -0.081074864 -0.16465113 0.0017351694
-0.17216544 0.025839269 -0.32590017 0.97818297 -0.12754546 -0.16398218 0.00034059319
0.17240424 0.023599992 -0.3261281 -0.97739178 -0.1321792 -0.16502716 0.00040704163
-0.17067888 0.03295688 -0.32177454 0.96931601 -0.17771626 -0.16983362 0.0020336497
-0.16998935 0.038691066 -0.3213653 0.9586432 -0.2234471 -0.17627986 0.0024151634
0.16910209 0.039902706 -0.32176906 -0.96324015 -0.21197571 -0.16502941 0.0015546778
0.17078224 0.03391929 -0.32603785 -0.96957004 -0.17833714 -0.16771926 0.00052266184
-0.17049207 0.043070104 -0.32938135 0.95366943 -0.25630522 -0.15755071 0.0019570703
-0.16812603 0.047053151 -0.32494333 0.94633496 -0.2749728 -0.16982368 0.0017715022
0.16868332 0.045678206 -0.32450625 -0.94913673 -0.26356259 -0.17226179 0.0020748177
-0.16501006 0.055285845 -0.3253172 0.92833537 -0.32930979 -0.17247751 0.00053544232
0.16463841 0.057405271 -0.32502598 -0.92538506 -0.33894402 -0.16964509 0.0013113446
-0.16161382 0.064196326 -0.32559431 0.91581428 -0.36506668 -0.16736348 0.00035790246
-0.15988411 0.069942199 -0.32824966 0.9094274 -0.38410351 -0.1593934 0.00076526852
0.16197865 0.065056108 -0.32883635 -0.91151053 -0.37712857 -0.16408139 0.00051584368
-0.15760152 0.075919084 -0.3284114 0.88869929 -0.42903742 -0.16168027 0.0018515141
0.15739119 0.075667381 -0.3293803 -0.89465177 -0.41787449 -0.15804793 0.0004908478
-0.15305445 0.08454904 -0.32313812 0.85958081 -0.48176962 -0.17034945 0.0021557624
-0.14914462 0.089440159 -0.32155871 0.84386545 -0.51170957 -0.16138305 0.0019765908
0.15253149 0.084026955 -0.32323593 -0.86971325 -0.46104601 -0.17616887 0.0017979642
-0.14645799 0.094006948 -0.32458657 0.82830018 -0.53651202 -0.16147329 0.0011286099
0.14731991 0.094417945 -0.32600275 -0.82695919 -0.53647149 -0.16833535 0.002151418
-0.14143816 0.10089363 -0.32464147 0.80285043 -0.57204771 -0.16790675 0.00038459833
-0.13799945 0.10623948 -0.32681745 0.78013086 -0.60395515 -0.16319925 0.00081428973
0.13763715 0.10640332 -0.32585758 -0.77934563 -0.60388219 -0.16717294 0.00041368621
0.14167921 0.10146099 -0.3261345 -0.78783596 -0.59260505 -0.16773137 0.00068577641
-0.13269311 0.11322485 -0.32587352 0.75887847 -0.62791032 -0.1727199 0.0016532933
-0.12888543 0.11870208 -0.32677802 0.72557402 -0.66768926 -0.16653377 0.0023228801
0.1300711 0.11521167 -0.32373661 -0.75195122 -0.63755518 -0.16760907 0.00059726002
-0.1253989 0.12152167 -0.32218695 0.70292258 -0.69036114 -0.17117651 0.0023613416
0.1249048 0.12269773 -0.32761312 -0.70860642 -0.68734562 -0.15947698 0.0024093164
-0.11133103 0.13383439 -0.32660288 0.63188928 -0.75734121 -0.16477334 0.0004160321
-0.10704289 0.13622814 -0.32184106 0.61156327 -0.77245092 -0.17120151 0.00042759831
0.10866622 0.13649648 -0.32807553 -0.59786546 -0.78519827 -0.16130878 0.0002733556
-0.10243457 0.14130321 -0.32796806 0.59655708 -0.78646249 -0.15998888 0.00061768986
-0.09617912 0.14524181 -0.3230285 0.55527121 -0.81393421 -0.17083594 0.00170223
0.089074872 0.1499047 -0.32385617 -0.49558243 -0.85412443 -0.15770034 0.0019139746
0.094201609 0.14630875 -0.32455397 -0.54250151 -0.82523441 -0.1570996 0.0010765393
0.10341796 0.14054565 -0.3290754 -0.59205419 -0.78970301 -0.16075118 0.0003133812
-0.091147691 0.15010557 -0.32705045 0.51529688 -0.84001106 -0.16985436 0.0020736137
-0.083143249 0.15316151 -0.32449913 0.46538019 -0.86961681 -0.16488723 0.0017771673
-0.072586954 0.15806188 -0.32573453 0.40619901 -0.89901978 -0.16360238 0.00042528959
0.067331031 0.15983565 -0.32255298 -0.3719953 -0.91170245 -0.17440803 0.00042763207
0.07252413 0.15825419 -0.3248553 -0.3912513 -0.90472031 -0.16853344 0.00077895273
0.086056709 0.15214613 -0.32422721 -0.48783371 -0.85876548 -0.15665276 0.002135348
-0.061246365 0.16304916 -0.32559919 0.36374334 -0.91596919 -0.16938488 0.00089923997
-0.055077981 0.16499771 -0.32149354 0.30723894 -0.93392247 -0.18273765 0.0022805484
-0.045806967 0.16871096 -0.32477817 0.25719243 -0.95114505 -0.17080745 0.0025605918
-0.039361145 0.16960369 -0.32414794 0.20695722 -0.96266508 -0.17448404 0.00158811
0.038901128 0.1699083 -0.32103029 -0.21792181 -0.9608115 -0.17132238 0.0022189615
0.045569003 0.16884321 -0.32571223 -0.26935008 -0.94697565 -0.17517895 0.0020465276
0.052748911 0.16598868 -0.32530105 -0.30520675 -0.93710113 -0.16938205 0.0014842581
0.064534403 0.1610492 -0.32326022 -0.36428407 -0.91589403 -0.16862744 0.000247827
-0.04170654 0.17005241 -0.32878679 0.21880229 -0.96218568 -0.16224726 0.0018889698
-0.031155961 0.17144728 -0.32737696 0.16964507 -0.97127384 -0.16687612 0.00059931917
-0.027056968 0.17151724 -0.32413888 0.15551998 -0.97331929 -0.16871043 0.00025455165
-0.016243165 0.1731945 -0.3241052 0.11621077 -0.97822273 -0.17197493 0.00084144116
-0.006068958 0.17479192 -0.3245832 0.044377368 -0.98421079 -0.17134702 0.0019617884
0.0053844922 0.17367151 -0.32189053 -0.035565343 -0.98371512 -0.17618081 0.0016567697
0.016351216 0.1731416 -0.32563224 -0.106851 -0.97992647 -0.16830634 0.00014636805
0.026488185 0.1713984 -0.3219018 -0.13907829 -0.97590399 -0.16813266 0.00070317899
0.034704305 0.17080304 -0.3235673 -0.17655702 -0.96958107 -0.1695293 0.0014712653
0.040181883 0.1709426 -0.3277548 -0.23337047 -0.95679969 -0.17341439 0.0023582636
-0.025867257 -0.17088154 -0.31855312 0.15200107 0.97264779 -0.1756473 0.0010365595
-0.014745055 -0.17097728 -0.31222495 0.085172974 0.98225796 -0.16707738 0.00061452971
-0.0069189551 -0.17225684 -0.31472507 0.058038488 0.98363894 -0.17054616 0.0011085329
0.0070710778 -0.17311728 -0.31576386 -0.061095141 0.98294473 -0.17345634 0.0020479283
0.01488173 -0.17183241 -0.31513271 -0.082066558 0.98255825 -0.16686645 0.0017198846
0.026867982 -0.17002466 -0.31546289 -0.16053557 0.97214186 -0.17078775 0.00030427738
-0.061507449 -0.16113904 -0.317442 0.34631154 0.92266393 -0.16958663 0.00018968228
-0.051207043 -0.1646286 -0.31477347 0.2953296 0.93862092 -0.17824486 0.0016064241
-0.043673743 -0.16767026 -0.31591913 0.25120285 0.95103073 -0.18010445 0.0021546273
-0.036763486 -0.16931243 -0.31629068 0.20197298 0.96271062 -0.17998624 0.0020777523
-0.029772846 -0.16995934 -0.31567854 0.15434125 0.97192878 -0.17757623 0.0010853616
0.034315951 -0.16869906 -0.31451464 -0.19481511 0.96569586 -0.17169347 0.0010115477
0.048800848 -0.16672412 -0.31668651 -0.27613565 0.94431514 -0.17893586 0.0019055324
0.055244558 -0.16361016 -0.31456062 -0.31811741 0.93308729 -0.16777787 0.0023959847
0.062271267 -0.16070078 -0.31559834 -0.35759836 0.9175899 -0.1736438 0.0014985785
-0.084207661 -0.15174098 -0.31605959 0.4851943 0.85946375 -0.16096152 0.001961366
-0.075602211 -0.15509491 -0.31426516 0.41862148 0.89202088 -0.17045471 0.0013976207
-0.067637347 -0.15878575 -0.31754178 0.36938259 0.91343373 -0.17086622 0.00028489
0.067741975 -0.15731868 -0.31051248 -0.39599332 0.90195519 -0.17223869 0.00030229581
0.076376572 -0.15449248 -0.31573933 -0.43706462 0.88350862 -0.16848415 0.0011136082
0.081501722 -0.15175429 -0.31324509 -0.46053663 0.87160099 -0.16798107 0.0016248918
-0.096411362 -0.14315623 -0.31738958 0.56005639 0.81062114 -0.17096856 0.00047613162
0.095462598 -0.1439717 -0.31472892 -0.56630129 0.80477083 -0.17789519 0.001525257
-0.11196712 -0.13198073 -0.31827459 0.64339191 0.74749339 -0.16522846 0.0017613925
-0.10604496 -0.1354572 -0.31431311 0.60364479 0.77884114 -0.17035121 0.00059162907
0.10635237 -0.13608529 -0.31870052 -0.60808194 0.77471495 -0.17335843 0.00038028014
0.11278832 -0.13107513 -0.3194786 -0.63929224 0.74821013 -0.17744592 0.00058540294
-0.12135532 -0.12327752 -0.31376305 0.71191406 0.68178421 -0.16837037 0.0016152663
-0.11606189 -0.12796557 -0.31350735 0.66337186 0.7323814 -0.15347728 0.002178371
0.11633757 -0.1275323 -0.31640378 -0.65942353 0.73098928 -0.17554303 0.0013374889
0.1209027 -0.12297955 -0.31246728 -0.67933846 0.71369553 -0.1706986 0.0016231082
-0.13213746 -0.11099851 -0.31777504 0.75485998 0.63376737 -0.16889402 0.00050091482
-0.12881331 -0.11390991 -0.31337467 0.74188203 0.6476202 -0.17377914 0.00086865207
0.12995426 -0.11505587 -0.31934726 -0.74484062 0.64561462 -0.16850555 0.0019274625
0.1311475 -0.11102479 -0.31118611 -0.75742012 0.62988234 -0.17193957 0.0016162785
-0.14028947 -0.10055789 -0.31662232 0.7876904 0.58982635 -0.17790079 0.00085528038
-0.13661458 -0.10481289 -0.31550783 0.77886236 0.60259008 -0.17394981 0.00037770843
0.13530117 -0.10624003 -0.31425014 -0.78167433 0.59934217 -0.17255197 0.0005787682
-0.14455204 -0.094893545 -0.31527731 0.82270491 0.5406962 -0.17551154 0.0020458091
0.1457932 -0.093130916 -0.31850833 -0.815575 0.55131596 -0.1757502 0.00069238711
-0.15136132 -0.084930509 -0.31916887 0.85684496 0.48497984 -0.17496102 0.0019955824
-0.14916012 -0.087770663 -0.31417862 0.84813815 0.50241786 -0.16804157 0.0022315546
0.15227859 -0.082487933 -0.31359705 -0.86870235 0.46573284 -0.16866879 0.002309429
-0.1547635 -0.075449765 -0.31500772 0.88893968 0.42470676 -0.17149451 0.00068840146
0.15507308 -0.076532431 -0.31608436 -0.88944256 0.42221919 -0.17499369 0.001565395
-0.15751907 -0.069233909 -0.31504959 0.90179187 0.39773086 -0.16906083 0.00032190734
0.15856867 -0.066367626 -0.31373048 -0.91476446 0.36653647 -0.16987352 0.00018040129
0.16046123 -0.060988538 -0.3127149 -0.92480564 0.34094661 -0.16878997 0.00046881376
-0.16412364 -0.053186674 -0.31247017 0.93615949 0.30722427 -0.17093454 0.0020936176
0.16173461 -0.058289066 -0.31394625 -0.92534065 0.3376801 -0.17238553 0.00042837998
-0.16757773 -0.043770522 -0.31651133 0.95783544 0.22760028 -0.17535493 0.0018373218
0.16556458 -0.048610184 -0.31440315 -0.94247931 0.282401 -0.17883626 0.0019112143
-0.16877535 -0.034798693 -0.31537789 0.96844935 0.17776515 -0.17465805 0.00043426032
0.16936921 -0.034935825 -0.31548616 -0.96611363 0.19514835 -0.16894281 0.0023291793
-0.17048407 -0.024677549 -0.31613812 0.97454894 0.14244609 -0.17309961 0.00045445669
0.1696091 -0.02444417 -0.31037465 -0.97812676 0.11939371 -0.17033246 0.00029889843
0.17035632 -0.020295054 -0.31209499 -0.97792763 0.11984684 -0.17115599 0.00028440898
-0.17170057 -0.014148971 -0.31373113 0.98270416 0.086333431 -0.16382615 0.0014694144
0.17200032 -0.015281511 -0.31842458 -0.98217618 0.082376182 -0.16894998 0.00057993125
-0.17314132 -0.0045996164 -0.31387451 0.98472184 0.022502057 -0.17267452 0.0021138729
0.17257191 -0.0051129307 -0.31541544 -0.98460746 0.039642405 -0.17022528 0.0016076025
-0.17273578 0.004928383 -0.31624132 0.9855752 -0.03140549 -0.16629919 0.0024017815
0.17307355 0.0019574803 -0.3139208 -0.98456275 0.0024399548 -0.175015 0.0019440081
-0.17142192 0.014854359 -0.31484297 0.98115295 -0.09453591 -0.16852863 0.00049976527
0.17195046 0.0132944 -0.31439731 -0.98194122 -0.084892534 -0.16907036 0.0017307459
-0.1703881 0.025833031 -0.31570169 0.97804862 -0.12235939 -0.16866842 0.00024440855
-0.16971949 0.024213728 -0.31086537 0.97807825 -0.11901432 -0.17087588 0.0002203886
0.17064533 0.024174891 -0.31661144 -0.9763726 -0.12948237 -0.17300503 0.00050649879
-0.16915202 0.034353457 -0.31388026 0.96971148 -0.17536932 -0.1700155 0.0019273584
0.16829301 0.036256827 -0.31392217 -0.96621007 -0.1935336 -0.17024317 0.00097542483
-0.16743572 0.043661363 -0.31416821 0.95388389 -0.24904545 -0.16757655 0.0021548735
0.16676451 0.04555361 -0.31345773 -0.95370406 -0.25210804 -0.16398215 0.0017346489
-0.16270126 0.055883247 -0.31413877 0.92617077 -0.33619797 -0.17081727 0.00039929696
0.1636128 0.055104971 -0.31424898 -0.92865312 -0.32578671 -0.17738751 0.0014156095
-0.16142716 0.060439944 -0.31676987 0.92236125 -0.34605804 -0.17173687 0.00045881036
-0.15900661 0.064441897 -0.31207779 0.91551137 -0.36490017 -0.16937183 0.00024500318
0.15879512 0.06841927 -0.31988272 -0.90359914 -0.39267114 -0.17122461 0.0002122018
0.16106366 0.062140446 -0.31720793 -0.91454387 -0.36428636 -0.17579813 0.0008327486
-0.15498269 0.075889252 -0.31425902 0.88947648 -0.42355591 -0.1715572 0.0014892044
0.15533151 0.074031211 -0.3146961 -0.89154398 -0.41846922 -0.17329992 0.00033840275
-0.15091991 0.08396598 -0.31119746 0.85944825 -0.48243734 -0.16912414 0.0021502264
-0.14939325 0.087067164 -0.31464058 0.85556865 -0.49173948 -0.16184732 0.0021496934
0.14963152 0.087233394 -0.31541276 -0.85300148 -0.49118975 -0.17641138 0.002463737
0.15075053 0.082685709 -0.31071028 -0.86583114 -0.46883455 -0.17473002 0.0014687666
-0.14285383 0.096582845 -0.3165645 0.81084538 -0.5607518 -0.16759251 0.00057918433
0.1442007 0.095875859 -0.31725326 -0.81443459 -0.55285102 -0.17621617 0.0020325491
-0.13714601 0.1040774 -0.31548342 0.78567147 -0.5939489 -0.17304614 0.0003921056
0.13772458 0.10311286 -0.31434348 -0.78156376 -0.59946567 -0.17262389 0.00042624594
-0.12729965 0.116864 -0.31326607 0.72143835 -0.67002219 -0.17491986 0.002668224
0.12747253 0.11606439 -0.31514668 -0.74210078 -0.64624184 -0.17792653 0.001022947
0.13220236 0.11103508 -0.31819898 -0.76128978 -0.62548721 -0.17089106 0.00037103106
-0.11857422 0.1263053 -0.3189843 0.66339374 -0.72970855 -0.16563238 0.0016430391
0.11695985 0.12727115 -0.31332877 -0.67250568 -0.71960229 -0.17294134 0.0019584207
0.12295368 0.12209928 -0.31668103 -0.70653909 -0.68537939 -0.17623155 0.0018648874
-0.10734963 0.13478261 -0.3164562 0.61544913 -0.76903838 -0.17263354 0.00030261988
0.112969 0.13071617 -0.31579387 -0.6359598 -0.75054902 -0.17953087 0.0016908796
-0.095920786 0.14321305 -0.31297827 0.55576378 -0.81291521 -0.17405608 0.0017337435
-0.087218098 0.14925735 -0.31340277 0.49452156 -0.85291976 -0.16726133 0.0018895469
0.086933717 0.1487096 -0.31100187 -0.48678681 -0.85726041 -0.16775933 0.0022766881
0.090698302 0.14581151 -0.31031448 -0.53177345 -0.83077532 -0.164406 0.001448182
