# .PCD v0.7 - Point Cloud Data file format
VERSION 0.7
FIELDS x y z normal_x normal_y normal_z curvature
SIZE 4 4 4 4 4 4 4
TYPE F F F F F F F
COUNT 1 1 1 1 1 1 1
WIDTH 573
HEIGHT 1
VIEWPOINT 0 0 0 1 0 0 0
POINTS 573
DATA ascii
-0.015288684 -0.086904377 -0.49975109 -0.045762919 -0.0023063407 0.99894965 0.031136774
-0.0031132526 -0.085504346 -0.49957752 0.0059713442 -0.03840876 0.99924427 0.027283229
0.0045604347 -0.083735526 -0.49944711 0.032432277 -0.084235124 0.99591798 0.025787849
0.016974306 -0.083700217 -0.49956998 0.032090124 -0.046278488 0.99841303 0.026963405
0.025395034 -0.084901489 -0.4998129 -0.0027281882 0.020147704 0.99979335 0.032794721
0.034578752 -0.085128784 -0.4995904 -0.0031553279 0.098828837 0.99509948 0.032164343
0.045708317 -0.085101947 -0.49871275 -0.16716564 0.26518843 0.94959503 0.03276277
0.055403806 -0.085076526 -0.49644533 -0.23384854 0.41966587 0.87703788 0.020668045
0.064612158 -0.084208071 -0.49332765 -0.36293232 0.47159615 0.80366492 0.019350473
-0.081390947 -0.072819911 -0.49096873 0.49615616 0.43052632 0.7539736 0.015144922
-0.07638032 -0.0765597 -0.49216405 0.46491435 0.45916817 0.75698036 0.012079905
-0.063686855 -0.075907081 -0.49782458 0.22256601 0.27101684 0.93649036 0.027421329
-0.057407118 -0.076218434 -0.49902302 0.19022256 0.25633967 0.94768417 0.02919054
-0.044090312 -0.073816717 -0.4994984 7.4935757e-05 -0.028843058 0.99958396 0.029702453
-0.036834929 -0.073739015 -0.49908853 -0.041692309 -0.089843348 0.99508291 0.022298433
-0.025148967 -0.074399777 -0.49787775 -0.073942602 -0.20794134 0.97534245 0.017644141
-0.016491687 -0.07460843 -0.49683294 -0.065642297 -0.2856414 0.95608586 0.010850021
-0.0062795691 -0.074156657 -0.49606583 -0.01277677 -0.31069133 0.95042497 0.006949672
0.0039012202 -0.074926354 -0.49619231 0.010665061 -0.32870784 0.94437146 0.0061818194
0.01449017 -0.074370846 -0.49669248 0.075613588 -0.248871 0.96558058 0.013819663
0.024788687 -0.075385198 -0.49804598 0.040151808 -0.15758811 0.98668832 0.023622291
0.035438925 -0.073198609 -0.49897814 0.072495453 -0.14488983 0.98678845 0.021790499
0.043606389 -0.074374005 -0.49964476 0.042700775 -0.098631307 0.99420744 0.022476697
0.053832341 -0.072524317 -0.49981093 -0.06724073 0.083325721 0.99425125 0.030626206
0.064394839 -0.07348071 -0.4980804 -0.2039689 0.23283696 0.95088571 0.023226326
0.075492039 -0.077260584 -0.49228969 -0.43542057 0.44359797 0.78334528 0.015434721
0.08160989 -0.072792962 -0.49081334 -0.46533734 0.44832194 0.76319641 0.016188644
-0.082552776 -0.061667703 -0.49567631 0.38067627 0.28654703 0.8791908 0.024944497
-0.075695559 -0.064973831 -0.49738604 0.26311961 0.23935428 0.93460023 0.03102834
-0.066024363 -0.065979511 -0.49936965 0.13784343 0.12928876 0.98197943 0.033834666
-0.058146853 -0.067504205 -0.49989074 0.011417273 0.029054269 0.99951261 0.032914933
-0.045855459 -0.066044554 -0.49859565 -0.083672278 -0.13515839 0.98728472 0.022409203
-0.0360834 -0.064008549 -0.49527109 -0.15708466 -0.25473383 0.95416725 0.011306853
-0.02450842 -0.06718868 -0.49443775 -0.092260331 -0.27723145 0.95636332 0.0088222716
-0.011423141 -0.065842301 -0.49175519 -0.055555705 -0.3554391 0.93304694 0.0036921827
-0.0045413221 -0.067067787 -0.49191102 -0.02066146 -0.37134069 0.92826682 0.0034619002
0.0038900608 -0.066342026 -0.49145842 0.015999638 -0.35893404 0.93322581 0.0035241153
0.016093116 -0.06590347 -0.49222347 0.087810136 -0.36008024 0.9287796 0.0029576747
0.026002938 -0.064538784 -0.49332958 0.12062187 -0.33912972 0.93297452 0.0043359599
0.036348715 -0.066797629 -0.49679199 0.11923721 -0.20488784 0.97149545 0.016978893
0.043505266 -0.066018723 -0.498137 0.12467281 -0.1515881 0.98054975 0.020146469
0.056051612 -0.064387009 -0.49954358 -0.005163732 -0.0060964199 0.99996811 0.033697668
0.067143254 -0.06370078 -0.49968529 -0.1329364 0.1484949 0.97993731 0.027795382
0.074128665 -0.066916585 -0.49748993 -0.31995678 0.28106385 0.90478218 0.026046297
0.085130334 -0.064121626 -0.49293381 -0.44768557 0.35190517 0.82203436 0.016433896
0.090768382 -0.06084175 -0.49083501 -0.55588478 0.35409373 0.75207031 0.018416403
-0.092757411 -0.054314196 -0.49273148 0.54622078 0.30231696 0.78118324 0.014208338
-0.087859012 -0.053532589 -0.49592444 0.40402198 0.23448125 0.88418603 0.029869938
-0.074302301 -0.055961493 -0.49946675 0.15767275 0.12107661 0.98004073 0.034635823
-0.062961839 -0.054630693 -0.49940333 -0.090249673 -0.058933914 0.99417394 0.024778262
-0.053409729 -0.054672569 -0.49695787 -0.17530757 -0.19268318 0.96547419 0.011450501
-0.045197986 -0.054260932 -0.49387932 -0.20569021 -0.25712287 0.94423485 0.0070544789
-0.034512568 -0.057190854 -0.49164745 -0.21143779 -0.3256627 0.92154098 0.0024326483
0.029071957 -0.057940565 -0.49061882 0.17358902 -0.33740163 0.92521733 0.0021050146
0.036620319 -0.057387792 -0.49231642 0.20133735 -0.30074084 0.93221152 0.0045637167
0.046937987 -0.054314051 -0.49449402 0.22754569 -0.26145622 0.93801045 0.0060411114
0.055337608 -0.054612145 -0.4974179 0.22335987 -0.22735086 0.94785124 0.009283538
0.065103531 -0.052645478 -0.49940872 0.084400967 -0.064733408 0.99432695 0.02848847
0.075787932 -0.052242875 -0.49952874 -0.17154361 0.13505627 0.97587532 0.024517095
0.086853847 -0.054254293 -0.49618685 -0.43214583 0.23188294 0.87148166 0.022079654
0.095746994 -0.05116668 -0.49173355 -0.56916869 0.28614646 0.77082235 0.015928578
-0.092680171 -0.045643006 -0.49543795 0.45389235 0.20117098 0.86805069 0.027186677
-0.083949715 -0.044715934 -0.49919158 0.18760945 0.10509785 0.97660494 0.033865128
-0.076010026 -0.046209436 -0.49957058 0.044392604 0.059531655 0.99723881 0.038976178
-0.06063376 -0.044346392 -0.49649954 -0.20616969 -0.14222902 0.96812451 0.01317086
-0.055530615 -0.044791304 -0.49429584 -0.25843748 -0.20232111 0.9446038 0.0075599873
-0.044912197 -0.04793524 -0.49111891 -0.2499961 -0.28064242 0.92668319 0.0029540583
0.045223314 -0.047408603 -0.49092928 0.26205122 -0.27280745 0.92569178 0.0027797907
0.056152783 -0.045195054 -0.49475116 0.23953499 -0.19734731 0.95061934 0.0090413624
0.06477315 -0.047025274 -0.49838972 0.16333324 -0.1286478 0.97814727 0.017582679
0.075851619 -0.044337824 -0.499852 -0.050914276 -0.010095214 0.99865204 0.031771231
0.085244007 -0.04625335 -0.49852502 -0.27628615 0.16338971 0.94708478 0.023621768
0.095406115 -0.045032557 -0.49392581 -0.55128413 0.25186521 0.79539275 0.015472393
0.10015035 -0.042935807 -0.49091908 -0.58247882 0.25530258 0.77171171 0.017103117
-0.10292055 -0.032853793 -0.49205285 0.57152677 0.19353925 0.79743326 0.022216532
-0.09531825 -0.035833336 -0.49623775 0.45048171 0.15149361 0.87983853 0.019806789
-0.082648471 -0.033955727 -0.49991548 0.068768986 0.033936769 0.99705523 0.028424447
-0.074273117 -0.034718916 -0.49895483 -0.11653046 -0.063104019 0.99118036 0.022249663
-0.065027326 -0.034234565 -0.49536526 -0.2444534 -0.12661949 0.96135843 0.013083796
-0.056631584 -0.035888053 -0.49177289 -0.30509797 -0.18344654 0.9344852 0.0041891458
0.057883244 -0.035031095 -0.49198681 0.31576046 -0.18429321 0.93076921 0.0029532958
0.066282451 -0.035704453 -0.4964501 0.25233418 -0.13168132 0.95863831 0.010478947
0.074470103 -0.034937907 -0.49919632 0.092465229 -0.062138937 0.99377513 0.02743914
0.084939376 -0.036538329 -0.49946591 -0.14871247 0.096001968 0.98420954 0.039168719
0.09211193 -0.036151648 -0.49773327 -0.35014507 0.12954135 0.92769474 0.022631297
-0.10448747 -0.024295028 -0.49278259 0.55024344 0.14933354 0.8215422 0.019226715
-0.095953107 -0.024936695 -0.49775705 0.32151705 0.029474989 0.94644487 0.025096336
-0.087007262 -0.027350398 -0.49981648 0.15657079 0.050660972 0.98636657 0.031420566
-0.07518553 -0.024976412 -0.49819461 -0.15586205 -0.024375392 0.98747796 0.02185699
-0.065503277 -0.025219465 -0.49363977 -0.34822702 -0.11096209 0.93081975 0.0038283954
-0.059055164 -0.029191878 -0.49117395 -0.33214328 -0.17235589 0.92734796 0.0026270628
0.058919087 -0.026147967 -0.49050784 0.34297502 -0.1592961 0.92573911 0.0026972233
0.062851854 -0.025889784 -0.49239728 0.35136956 -0.15099491 0.92398047 0.0030387917
0.073076755 -0.025093796 -0.4973695 0.22427259 -0.10684387 0.96865171 0.014029974
0.084872611 -0.025913659 -0.49984196 -0.032595016 0.010918918 0.99940902 0.031678408
0.094789244 -0.024800548 -0.49815065 -0.35127956 0.086453252 0.93227065 0.017547587
0.10281338 -0.024335897 -0.49414477 -0.50889534 0.12838027 0.85120147 0.021948507
-0.10480835 -0.016852606 -0.49335802 0.55884206 0.092473723 0.82410198 0.02420699
-0.095212266 -0.015161577 -0.49860281 0.28903252 0.040516209 0.95646149 0.025836524
-0.085208729 -0.013625609 -0.49976629 -0.00069576286 0.019156056 0.99981624 0.030055162
-0.075289167 -0.014765816 -0.49703133 -0.23813389 -0.042684697 0.97029388 0.016067835
-0.067594089 -0.016423021 -0.49312851 -0.32013816 -0.082603455 0.94376278 0.006532785
0.066322632 -0.014124395 -0.49223477 0.36925966 -0.079994082 0.92587698 0.002878231
0.074688658 -0.014574883 -0.49683115 0.22186185 -0.058474079 0.97332323 0.015673591
0.082873315 -0.014317383 -0.49952751 0.11501624 -0.01349544 0.99327201 0.027823288
0.092901498 -0.01444884 -0.4993262 -0.19640705 0.037225097 0.9798156 0.03617467
0.10434513 -0.013044419 -0.4941414 -0.52779782 0.069233201 0.84654367 0.029452125
-0.10557576 -0.004839472 -0.49390525 0.59120941 0.0078976471 0.80647939 0.015736505
-0.09326382 -0.0036030347 -0.49944744 0.18099152 0.041188966 0.98262179 0.030597908
-0.083591573 -0.0053319689 -0.49944225 -0.079980619 -0.013261553 0.99670815 0.026227685
-0.075299069 -0.0046223504 -0.49645007 -0.31339467 0.0023511436 0.94962007 0.0067408159
-0.066814438 -0.0044920933 -0.4917624 -0.3681244 -0.019746562 0.9295668 0.0037418508
0.066142194 -0.0068421573 -0.4915559 0.35210642 -0.053654294 0.93442082 0.0035528156
0.076127224 -0.0035932343 -0.49695981 0.26785761 0.0062518837 0.96343821 0.012877095
0.08404725 -0.0036429919 -0.49943313 0.074507549 -0.011539968 0.9971537 0.025757367
0.094457246 -0.0038372066 -0.49905264 -0.20829493 0.022007884 0.97781843 0.033407491
0.106368 -0.0046697981 -0.49344373 -0.5990023 0.022159593 0.80044061 0.019372778
0.11037523 -0.0012653806 -0.49033338 -0.65581161 -0.00019406006 0.75492454 0.015298855
-0.11013401 0.0013908908 -0.49053878 0.66817242 -0.0026085442 0.74400192 0.018938849
-0.10447289 0.0051425369 -0.4946408 0.56667364 -0.019210007 0.82371831 0.014605857
-0.093402475 0.0051191673 -0.49936914 0.17829561 -0.0020792854 0.98397475 0.033574443
-0.082783915 0.0029270488 -0.49926496 -0.10890727 0.010363933 0.99399787 0.025304286
-0.074488245 0.0071507436 -0.49626103 -0.32393444 0.038057473 0.94531375 0.0064275879
-0.066632658 0.0072511956 -0.49185765 -0.35567132 0.047675375 0.93339431 0.0039217747
0.065848216 0.0050288872 -0.49130443 0.3947362 0.023529768 0.91849315 0.0013977234
0.071369924 0.0038766728 -0.49429032 0.33507055 0.0091802608 0.94214833 0.0053695589
0.086526334 0.0058626696 -0.49974498 0.075259052 0.028957374 0.99674344 0.02689993
0.095497854 0.0041521252 -0.49903744 -0.25402415 -0.017603446 0.96703768 0.022720536
0.10549006 0.0050672498 -0.49389356 -0.61344665 -0.066974655 0.78689116 0.015389769
-0.10440344 0.01588433 -0.49376658 0.55546373 -0.066685386 0.82886249 0.019869849
-0.09272033 0.015447714 -0.49931949 0.19370715 -0.035058741 0.98043281 0.027854132
-0.085548759 0.016040361 -0.4997758 0.018880585 -0.028446004 0.99941701 0.028502703
-0.075548522 0.015890524 -0.49733099 -0.25398231 0.055147547 0.96563536 0.015060495
-0.067776769 0.015507041 -0.4931283 -0.32859039 0.08609499 0.94054031 0.0062120468
0.065809369 0.01607419 -0.49210224 0.36941469 0.078157715 0.92597198 0.0026252437
0.075464249 0.015691571 -0.49727917 0.24189326 0.066458166 0.96802425 0.014278335
0.085308395 0.015416141 -0.49973342 0.075653173 -0.014060405 0.99703503 0.025119828
0.095134884 0.014097295 -0.49855608 -0.31955266 -0.056279205 0.94589573 0.025363414
0.10463405 0.01417127 -0.49369302 -0.56425875 -0.068979897 0.82271129 0.022218157
-0.10414934 0.024229437 -0.49317619 0.61707401 -0.15227379 0.77203131 0.009320775
-0.095279403 0.022628533 -0.49810314 0.26586363 -0.066516355 0.96171308 0.026266061
-0.086105905 0.025489777 -0.49986959 0.069648661 -0.046749942 0.99647558 0.029712535
-0.073944852 0.023921462 -0.49751607 -0.22164123 0.040773213 0.97427553 0.015328126
-0.066341177 0.02548128 -0.49418813 -0.30695939 0.11692604 0.94451272 0.0062883245
-0.058162153 0.028987318 -0.49070773 -0.32941821 0.17080696 0.92860574 0.0026649684
0.059151441 0.023759045 -0.49014685 0.3499791 0.14750759 0.92507088 0.0016710232
0.063558318 0.025703251 -0.49270996 0.34083667 0.14161885 0.92939466 0.0025855368
0.073258273 0.023135345 -0.49720326 0.25986126 0.078148305 0.96247858 0.0093743997
0.085595287 0.026472766 -0.4997406 -0.045318343 -0.031652186 0.99847102 0.03409395
0.096334614 0.025211306 -0.49766263 -0.40625361 -0.12092134 0.90572411 0.019910833
0.10485312 0.024805102 -0.49248827 -0.62565732 -0.13747247 0.7678895 0.011731536
-0.10290726 0.034423124 -0.49156937 0.579247 -0.18886644 0.7929706 0.016532723
-0.097425163 0.03880344 -0.49434042 0.49778163 -0.19640937 0.84477025 0.020015867
-0.085161142 0.036186673 -0.49933428 0.16444685 -0.061846841 0.98444515 0.030891234
-0.073901698 0.035315715 -0.49904194 -0.10144459 0.054562803 0.99334377 0.023044197
-0.065772869 0.032756228 -0.49546373 -0.28558379 0.12164643 0.95060188 0.0085139833
-0.055249766 0.036767881 -0.4914622 -0.32819358 0.19674689 0.92389369 0.0029380939
0.055694353 0.035670493 -0.49128413 0.32530865 0.20225789 0.923724 0.0028465418
0.066026144 0.035268679 -0.49617472 0.25317216 0.14716354 0.95616251 0.01044605
0.072604425 0.03435988 -0.49866137 0.17617437 0.12615985 0.97624087 0.017453726
0.086231552 0.034790702 -0.49943134 -0.1619617 -0.075725466 0.98388726 0.027064459
0.093537025 0.034958392 -0.49727416 -0.35951367 -0.13034487 0.92399144 0.026899628
0.102786 0.035011269 -0.49145287 -0.60784465 -0.18561366 0.77205724 0.012176597
-0.10093752 0.040885266 -0.49095893 0.62022752 -0.26004082 0.74006534 0.019643212
-0.095217325 0.044353578 -0.49418175 0.47307181 -0.22198926 0.85259831 0.022859417
-0.086419605 0.045564316 -0.49842918 0.26434067 -0.1173126 0.95726794 0.022227755
-0.075454101 0.046102326 -0.49982688 0.062845565 -0.023240848 0.99775267 0.03632044
-0.06617783 0.044798914 -0.4984633 -0.13767792 0.090219676 0.9863596 0.022787161
-0.054336879 0.043853614 -0.49342972 -0.2765182 0.2100165 0.93777966 0.0060279444
-0.046627577 0.045005735 -0.49064222 -0.27400744 0.25150225 0.92825997 0.0029152655
-0.039359666 0.049974889 -0.49007845 -0.24183421 0.29643279 0.9239285 0.001343222
0.046153035 0.046399567 -0.49091062 0.25758278 0.26212415 0.9300226 0.0026301532
0.056030132 0.046915337 -0.49528298 0.24294797 0.19270504 0.95070553 0.0085809883
0.065613732 0.046308141 -0.49841097 0.1478392 0.10705516 0.98320031 0.020410787
0.076962471 0.044570506 -0.49988359 -0.064278267 -0.011272597 0.99786836 0.032189727
0.084807143 0.046210915 -0.49875408 -0.29898858 -0.18394959 0.93635911 0.022794617
0.094896063 0.045185678 -0.49424249 -0.49853012 -0.26888534 0.82411677 0.019397728
-0.093475886 0.052099239 -0.49318939 0.50340152 -0.28653431 0.81515956 0.020291531
-0.084424242 0.055930126 -0.49666756 0.34095386 -0.22033937 0.91389328 0.018257227
-0.075176544 0.053983435 -0.49949163 0.12762636 -0.09211348 0.98753572 0.033212055
-0.065041602 0.056455113 -0.49971682 -0.045303442 0.045385979 0.99794173 0.027892612
-0.050319269 0.052316114 -0.49480921 -0.2218256 0.23207641 0.94706595 0.0076236716
-0.046398971 0.054460656 -0.49442363 -0.20148936 0.23041137 0.95200449 0.0077291932
-0.03823271 0.055370528 -0.49193636 -0.1998269 0.29840836 0.93328542 0.0034222305
0.025073929 0.059030101 -0.49034873 0.14614731 0.34466457 0.92727953 0.0020054874
0.036104102 0.057203542 -0.49201542 0.20587394 0.309879 0.9282192 0.0029948002
0.046166349 0.056112804 -0.49504015 0.20248029 0.23452906 0.95078802 0.0086809518
0.052734762 0.055043783 -0.49684381 0.19628242 0.17343216 0.96508777 0.013634453
0.063005045 0.056032062 -0.49955899 0.064340204 0.036055285 0.99727643 0.027342558
0.073228419 0.054810658 -0.49968755 -0.15469094 -0.12755154 0.97969449 0.034056958
0.085773163 0.053836975 -0.49649492 -0.40007368 -0.24951462 0.88186377 0.02274761
0.09442357 0.054802034 -0.49129629 -0.59556955 -0.34412384 0.72586197 0.010711254
-0.088878438 0.061389998 -0.4919017 0.49569234 -0.35478571 0.79272711 0.017213603
-0.072387069 0.065101601 -0.49847609 0.22862121 -0.19542515 0.95369881 0.029665325
-0.065382555 0.066138983 -0.49955025 0.12200933 -0.10939553 0.98648179 0.036930639
-0.057638742 0.063251898 -0.49965382 -0.050203126 0.061722908 0.99682993 0.02985023
-0.044596422 0.066910751 -0.49863231 -0.065525413 0.13546656 0.98861277 0.019922059
-0.035034049 0.064714268 -0.49559906 -0.13576084 0.25389054 0.95765787 0.0088329483
-0.024243653 0.065131947 -0.49325949 -0.1300046 0.31411353 0.9404422 0.005046322
-0.013237742 0.067395024 -0.49272743 -0.065764345 0.33459061 0.9400661 0.0054266639
-0.0089723216 0.067406408 -0.4924548 -0.044252042 0.35048085 0.93552393 0.0056853276
0.0058548078 0.067112103 -0.49201789 0.036548555 0.39314982 0.91874778 0.0017415183
0.016889729 0.065690085 -0.49212778 0.081718594 0.37733868 0.92246282 0.0015217105
0.023926752 0.063599497 -0.49238375 0.12320614 0.3641046 0.92317283 0.0024665121
0.033830665 0.062748149 -0.49410138 0.16829368 0.30146819 0.93850642 0.0056529045
0.047115549 0.067275189 -0.499053 0.10887147 0.14005905 0.98413944 0.02089365
0.056338411 0.065371551 -0.49975511 0.010040981 0.0031382479 0.99994469 0.026831225
0.066409595 0.064682767 -0.4995645 -0.17896478 -0.13158898 0.97501588 0.03588726
0.075224333 0.065681614 -0.49737933 -0.315813 -0.27967504 0.90666646 0.024980234
0.085259952 0.063677311 -0.4931559 -0.46582943 -0.36203447 0.80742431 0.017966518
-0.074148618 0.07436873 -0.49451694 0.4251928 -0.42788076 0.79757696 0.012666669
-0.06607917 0.075579278 -0.49728802 0.25722277 -0.29031786 0.92171144 0.030799504
-0.054045387 0.075171635 -0.4995597 0.11189343 -0.1673338 0.97953016 0.034996558
-0.045093633 0.073700704 -0.4998239 0.03822542 0.011514207 0.99920279 0.022215057
-0.035597693 0.076349385 -0.49949634 -0.0452484 0.10480636 0.99346274 0.020773472
-0.022262095 0.075567059 -0.49785343 -0.070858873 0.22260517 0.97233021 0.014717451
-0.016167261 0.076040477 -0.49749878 -0.10307738 0.18980907 0.97639519 0.018675648
-0.0034742057 0.073327616 -0.49530286 -0.0017497917 0.28671074 0.95801556 0.01166945
0.0041617234 0.076301388 -0.49695781 -0.0065810466 0.20579073 0.97857386 0.017954828
0.016687628 0.073634416 -0.49649906 0.039760936 0.27758056 0.95987922 0.0097721852
0.024507491 0.074277975 -0.49778569 0.095105752 0.26124537 0.9605757 0.01017313
0.034923147 0.07391461 -0.49895805 0.039931376 0.084255531 0.99564373 0.024484929
0.046534408 0.07438615 -0.49972084 0.011882632 0.016873466 0.99978703 0.028971707
0.054248739 0.075946853 -0.49914271 -0.11936863 -0.1952747 0.97345722 0.032164644
0.064570598 0.07535322 -0.49756128 -0.23984824 -0.25402021 0.93698806 0.026423695
0.07381805 0.073349975 -0.49536362 -0.37587222 -0.37383944 0.8479175 0.022344563
0.080939136 0.074024461 -0.49062732 -0.47110516 -0.43933579 0.76488167 0.012619009
-0.072468318 0.081513375 -0.49107727 0.44829506 -0.48927534 0.74809164 0.013858199
-0.062494755 0.084811188 -0.49385253 0.31763196 -0.44813317 0.83563548 0.017965538
-0.055491578 0.085497782 -0.4965257 0.25141028 -0.44062257 0.86176831 0.03018206
-0.046433263 0.083267763 -0.49910063 0.11911566 -0.2298421 0.96591103 0.036297541
-0.035035945 0.086379848 -0.49935746 0.062912159 -0.19226687 0.97932404 0.027241478
-0.024386462 0.086327814 -0.49983421 -0.0035838215 -0.076587841 0.99705637 0.031908412
-0.014208304 0.085645422 -0.4996849 0.015487696 0.0084993755 0.99984396 0.031073466
-0.0060412893 0.086894728 -0.49968219 -0.017985722 0.019218685 0.99965352 0.032726016
0.0044809813 0.083579883 -0.49939388 -0.026747314 0.082179725 0.99625856 0.027341187
0.013087009 0.084342115 -0.49970984 -0.01531188 0.016993947 0.9997384 0.028518902
0.024334395 0.085451499 -0.49977165 0.0081518088 -0.06342677 0.99795312 0.030338975
0.035282955 0.083076932 -0.49985522 -0.041136593 -0.11548018 0.99245757 0.034792956
0.045922719 0.085164651 -0.49868488 -0.15671232 -0.27947587 0.94727737 0.02693546
0.054902807 0.084063806 -0.49720615 -0.23707569 -0.33335665 0.9125067 0.02614134
0.062567085 0.083877891 -0.49455872 -0.32152349 -0.45234439 0.83186972 0.019463794
0.072039351 0.082094833 -0.49089414 -0.43875247 -0.48083189 0.75914222 0.015204049
-0.052860394 0.093860902 -0.49266654 0.28642887 -0.52738553 0.79988945 0.016723875
-0.045889642 0.094869442 -0.49396667 0.27642855 -0.51496661 0.81141639 0.015809292
-0.032867111 0.094061434 -0.49725151 0.15553926 -0.37514126 0.91382527 0.020468989
-0.026003499 0.092933059 -0.49880558 0.086626887 -0.26097801 0.96145004 0.03662663
-0.012500625 0.095581613 -0.49874318 0.051161494 -0.24213013 0.96889395 0.032476015
-0.0050239363 0.096068762 -0.49872535 0.0035756167 -0.26378658 0.9645744 0.027519748
0.007502608 0.096916512 -0.49846092 -0.030373026 -0.29881814 0.95382661 0.022746824
0.016505593 0.095449343 -0.49853081 -0.054723866 -0.28475964 0.95703572 0.020675071
0.025392184 0.09549699 -0.49803555 -0.093777977 -0.34356174 0.93443614 0.01931848
0.03346974 0.095597498 -0.49650306 -0.15321209 -0.43276405 0.88839257 0.02385558
0.044865064 0.096714735 -0.49306288 -0.27453676 -0.55713516 0.7837283 0.015396991
0.053725161 0.093657836 -0.49224684 -0.29965556 -0.53462362 0.79017979 0.019378873
-0.03026324 0.10609072 -0.49033317 0.18179522 -0.67341489 0.71656328 0.013131585
-0.024292316 0.10323794 -0.49381179 0.16728789 -0.53427577 0.8285917 0.025568705
-0.014154625 0.10463575 -0.49368024 0.078556187 -0.57682735 0.81308001 0.024177382
-0.0044021043 0.10276537 -0.49588138 0.0048167803 -0.46466544 0.88547319 0.031164467
0.0050804666 0.10609249 -0.49371317 -0.039247748 -0.56642109 0.82318091 0.025849273
0.014738982 0.1040441 -0.49418727 -0.059376493 -0.55163085 0.83197224 0.025301244
0.025516301 0.10420667 -0.49294063 -0.16771792 -0.62718558 0.76059783 0.01467218
0.036510102 0.10216676 -0.49146461 -0.24600203 -0.61155254 0.75198841 0.020347409
0.0016643829 0.11017919 -0.49046504 -0.020230208 -0.68370551 0.72947764 0.018413061
-0.034418486 -0.11108211 -0.48285308 0.2478454 0.8062647 0.53713119 0.0060385088
-0.022759348 -0.1130933 -0.48376837 0.16113731 0.80609101 0.56943136 0.010730321
-0.013802603 -0.11365478 -0.48445946 0.097318351 0.79769635 0.59515518 0.0095956614
-0.005946184 -0.11415455 -0.48527104 0.0520592 0.77607512 0.62848812 0.010887406
0.0057525281 -0.1151175 -0.4839831 -0.053926796 0.77317947 0.63189036 0.010799164
0.014313996 -0.11352833 -0.48461077 -0.11083032 0.78269583 0.61245722 0.0087678069
0.023906931 -0.11372305 -0.48261818 -0.17803116 0.80973196 0.55914134 0.0097015118
0.034714449 -0.11123858 -0.48237991 -0.2532782 0.82026434 0.51285154 0.0068057165
-0.062222719 -0.10052005 -0.48003435 0.45377961 0.74617767 0.48713753 0.010490529
-0.051130947 -0.10459884 -0.48213434 0.35925835 0.74671948 0.55977082 0.0080412012
-0.044763222 -0.10499208 -0.48493868 0.30860665 0.72273052 0.6184032 0.0098634986
-0.035917282 -0.10766428 -0.48612991 0.24454023 0.72722518 0.64136082 0.014044923
-0.021008376 -0.10838644 -0.48967308 0.1508058 0.67999113 0.71754414 0.012760997
-0.010293916 -0.10965736 -0.48982412 0.0598731 0.68731475 0.7238878 0.014839306
0.022945238 -0.10864946 -0.48911279 -0.16079856 0.68538177 0.71020812 0.01651134
0.035447948 -0.10677589 -0.48737362 -0.21321176 0.71372193 0.66718936 0.014734617
0.045771386 -0.10383967 -0.48580557 -0.31323284 0.70892119 0.63191438 0.0088783856
0.054394722 -0.10220156 -0.48350683 -0.40140164 0.73914546 0.54087031 0.010445055
0.0603454 -0.10132854 -0.48082229 -0.42296317 0.74474078 0.51620096 0.010412453
-0.070627391 -0.093407489 -0.48086149 0.51553285 0.66956753 0.53470099 0.0091834236
-0.065062299 -0.09521845 -0.4836162 0.47993729 0.66525137 0.57192719 0.010183754
-0.057050455 -0.097738929 -0.48720598 0.37186629 0.64926833 0.66345012 0.014003227
0.05708218 -0.099228621 -0.48557913 -0.41044506 0.69130224 0.59467316 0.0085981712
0.065138876 -0.093988776 -0.48498791 -0.44233507 0.65226108 0.61554468 0.011550908
0.074820191 -0.090049274 -0.4810372 -0.54535109 0.65826923 0.51891595 0.010350697
-0.080816716 -0.083784685 -0.48301432 0.53899097 0.58159065 0.60929561 0.0099319536
-0.074934855 -0.085840769 -0.48559794 0.50847965 0.58464891 0.63216615 0.014578443
0.069096893 -0.087800637 -0.48801571 -0.45516542 0.57360208 0.68103242 0.016044309
0.072788343 -0.086686946 -0.48625508 -0.48658952 0.5852741 0.64860225 0.012701211
0.082940057 -0.082828879 -0.48223895 -0.604756 0.60802668 0.51436734 0.0095771141
-0.091160357 -0.071636654 -0.48269758 0.66441864 0.50078338 0.55476481 0.012132434
-0.084667601 -0.074334435 -0.48709407 0.57410145 0.51065308 0.64003205 0.011788595
0.079039447 -0.07854753 -0.48932219 -0.48799679 0.50788182 0.70986986 0.018471811
0.085063361 -0.075468749 -0.48587877 -0.58054996 0.51427209 0.63125736 0.012038116
0.090003803 -0.073574133 -0.48228595 -0.66130036 0.54372394 0.51676512 0.0075936229
-0.095073663 -0.063544296 -0.48504254 0.65303612 0.40761951 0.63827121 0.013907934
-0.089448869 -0.067923754 -0.48736829 0.59943044 0.43442163 0.67228043 0.01538827
-0.011815215 -0.061015196 -0.4892914 -0.073521391 -0.37099946 0.92571807 0.0018526622
-0.0044318107 -0.062096924 -0.48937768 -0.018867483 -0.37840059 0.92544961 0.0018360431
0.0055271653 -0.061575454 -0.48919004 0.040116228 -0.37874058 0.92463309 0.0014566367
0.013483452 -0.061396223 -0.48957396 0.079460099 -0.37157506 0.92499626 0.0015958257
0.089825034 -0.068996705 -0.486233 -0.60903305 0.47279885 0.6368202 0.011271184
0.094946317 -0.063878737 -0.48496029 -0.67363 0.44078937 0.59323472 0.010951717
-0.10239719 -0.054288715 -0.48333746 0.71681929 0.38767546 0.57954955 0.0068257391
-0.098010093 -0.058088712 -0.48620826 0.66273975 0.39022213 0.63914216 0.013209865
-0.034395281 -0.051236283 -0.48909408 -0.21755044 -0.31895459 0.92246395 0.0019911425
-0.025804095 -0.054919284 -0.48867896 -0.16319878 -0.3552323 0.92042166 0.0018112456
-0.013749898 -0.054304358 -0.48660949 -0.0774187 -0.33939633 0.93745214 0.0020316746
-0.0063180723 -0.05463386 -0.48632702 -0.053814486 -0.33247453 0.94157565 0.0020775599
0.0054495223 -0.054243892 -0.48618796 0.046157859 -0.3247273 0.94468069 0.0022248654
0.015411718 -0.054410476 -0.48695415 0.091358729 -0.34453002 0.93431932 0.0019184523
0.024199151 -0.054790195 -0.48837012 0.1389503 -0.34753743 0.92731363 0.0017006693
0.034530431 -0.052973043 -0.48978877 0.20748577 -0.31200641 0.92714709 0.0019330835
0.09723416 -0.054135792 -0.48897177 -0.63073552 0.35104582 0.69205457 0.014253877
0.10209247 -0.054633811 -0.48350242 -0.72198516 0.39530945 0.56786251 0.011758042
-0.10473084 -0.04530682 -0.48505521 0.699727 0.30567703 0.64571172 0.010899566
-0.042692978 -0.044468999 -0.48905134 -0.26166531 -0.27330542 0.92565405 0.0021906649
-0.034221701 -0.045068942 -0.48698527 -0.22184713 -0.28474951 0.93257791 0.0023642944
-0.025103642 -0.04529427 -0.48510826 -0.14663635 -0.27524829 0.95012426 0.0019010381
-0.015677162 -0.047409225 -0.48451516 -0.10244701 -0.29120773 0.95115858 0.0021590048
-0.0033032876 -0.045520365 -0.48318288 -0.0027341784 -0.27589864 0.96118289 0.0016462668
0.0042445487 -0.042932108 -0.48252931 0.013378333 -0.25666115 0.96640885 0.0020026446
0.015262384 -0.045565825 -0.4839195 0.092620112 -0.26550385 0.95965058 0.0018262434
0.025472546 -0.04539999 -0.48518553 0.14838582 -0.27163386 0.95089263 0.0019658371
0.034748219 -0.044406176 -0.48688281 0.21373917 -0.27335021 0.93786734 0.0021530027
0.042436719 -0.04425538 -0.48888934 0.26508152 -0.27657148 0.92370987 0.0018055286
0.099764839 -0.048941482 -0.48891103 -0.64496535 0.30286372 0.70163608 0.018274078
0.10646996 -0.043780681 -0.4837105 -0.73364007 0.2991457 0.61015087 0.009645503
-0.11309081 -0.032197043 -0.4812901 0.83207172 0.25249448 0.49386558 0.0098959822
-0.10716561 -0.035290089 -0.48704723 0.70357412 0.23728043 0.66983694 0.013557136
-0.051093332 -0.034081269 -0.4889608 -0.30811813 -0.20980068 0.92792612 0.0017541961
-0.046378992 -0.036484677 -0.48798382 -0.30000201 -0.22583835 0.92682028 0.001544417
-0.032647975 -0.035400033 -0.4838872 -0.19842403 -0.20835431 0.9577142 0.0022220975
-0.024955854 -0.036068041 -0.48273435 -0.13958526 -0.21247824 0.96714473 0.0021542392
-0.015471071 -0.030479325 -0.48068014 -0.090210728 -0.16276388 0.98253238 0.0019303579
-0.0027108677 -0.032824956 -0.48052031 -0.011413648 -0.15365775 0.98805821 0.0020361308
0.0056593246 -0.035583373 -0.48101398 0.027176112 -0.18879843 0.9816398 0.0027267081
0.014520151 -0.035190694 -0.4814032 0.071544454 -0.19228403 0.97872782 0.0026144909
0.024224373 -0.034299556 -0.48229843 0.140303 -0.1966504 0.97038323 0.0021663799
0.0358431 -0.036705948 -0.48489767 0.22825631 -0.22895302 0.94629788 0.0019085469
0.044818908 -0.036464058 -0.48747179 0.27627248 -0.22333379 0.93477029 0.001826272
0.052410051 -0.032570615 -0.48902494 0.3265557 -0.19825925 0.92415076 0.0020292858
0.1076331 -0.035771076 -0.4863598 -0.71732521 0.23267196 0.65674067 0.013290814
0.11108917 -0.033420891 -0.48335931 -0.7884115 0.23488696 0.56853795 0.0065884655
-0.11183129 -0.023533907 -0.48534527 0.76781714 0.1608697 0.62014329 0.01081886
-0.10929912 -0.023998849 -0.48826003 0.71945709 0.14940737 0.67827648 0.016547924
-0.054141745 -0.025973829 -0.4883889 -0.33586091 -0.16941176 0.92655116 0.0020489462
-0.043916337 -0.02723822 -0.48503083 -0.2735118 -0.17025283 0.94668114 0.0022441451
-0.036647912 -0.026463943 -0.48311076 -0.21311133 -0.1562099 0.96445942 0.0022297536
-0.026832415 -0.021303572 -0.48070988 -0.15041146 -0.11632215 0.98175639 0.0021301738
-0.011204218 -0.028277488 -0.4801532 -0.05027898 -0.12710673 0.99061388 0.0022608228
-0.0059731179 -0.028946519 -0.48007417 -0.02679388 -0.12523396 0.99176538 0.0023730574
0.0040261471 -0.029372353 -0.48007277 0.015795179 -0.12734292 0.99173295 0.0026266258
0.017398436 -0.028946843 -0.48059216 0.086845279 -0.14189647 0.98606449 0.0024807088
0.02478235 -0.022195682 -0.4805921 0.11415247 -0.10737079 0.98764408 0.0021383883
0.033471718 -0.024996301 -0.48224574 0.18632016 -0.14532636 0.97168159 0.0019874894
0.044382229 -0.023370098 -0.48459774 0.27000841 -0.14092937 0.95248848 0.0020759718
0.053902343 -0.027136274 -0.48847654 0.33542815 -0.17878933 0.92494452 0.0019840987
0.11258282 -0.027063146 -0.48371011 -0.77152884 0.18791465 0.60780871 0.0083308425
-0.11344135 -0.015215524 -0.48454556 0.78337252 0.11263621 0.61126155 0.010536921
-0.10937861 -0.01805043 -0.48902106 0.71617651 0.1185492 0.6877771 0.01599188
-0.060981069 -0.015154414 -0.48947406 -0.375743 -0.085498139 0.92277145 0.0016383145
-0.056338649 -0.014397421 -0.48756576 -0.37659883 -0.082614802 0.92268527 0.0018260072
-0.04557021 -0.015814524 -0.48396888 -0.28464177 -0.099597618 0.95344603 0.0019384655
-0.035238288 -0.013846421 -0.48139101 -0.19439059 -0.071779944 0.97829437 0.0022351344
-0.027190421 -0.014577925 -0.48022979 -0.11492439 -0.047733817 0.99222672 0.0019665235
0.026903206 -0.018353319 -0.48042881 0.13531199 -0.097491518 0.98599494 0.0023631719
0.033839185 -0.015308556 -0.48124897 0.18526916 -0.085183613 0.97898877 0.0024943654
0.04512506 -0.012780074 -0.48355719 0.27416626 -0.063901961 0.95955694 0.0017653742
0.055591386 -0.014211448 -0.48723149 0.34302834 -0.075477362 0.93628782 0.0022785272
0.061758872 -0.015054941 -0.4898653 0.36807173 -0.088845506 0.92554295 0.0017326601
0.10881319 -0.019541305 -0.48942032 -0.68025804 0.14026104 0.71942741 0.015247794
0.11353498 -0.015063134 -0.48446995 -0.79596162 0.1151914 0.59428614 0.011090354
-0.1148606 -0.0068912916 -0.48414463 0.78146744 0.049994297 0.6219399 0.01231144
-0.061247729 -0.0054824315 -0.48902908 -0.37683648 -0.040678944 0.92538613 0.0018352392
-0.053405922 -0.0057663163 -0.48583379 -0.32813579 -0.036874745 0.94391054 0.0023114933
-0.044793718 -0.0051507084 -0.48310035 -0.26650691 -0.027937829 0.96342802 0.002049126
-0.035319306 -0.0039349641 -0.48094884 -0.18878953 -0.024641102 0.98170841 0.0024587631
-0.0035659482 -0.0010892932 -0.48033565 -0.0056447359 -0.0032110231 0.99997896 7.6351258e-05
0.0050247991 -0.0028510713 -0.48006779 0.011170571 -0.0061206021 0.99991882 5.1368374e-05
0.029063802 -0.0041162181 -0.48004189 0.12309588 -0.013594453 0.99230158 0.0025684994
0.035010591 -0.0064588226 -0.48095727 0.18501611 -0.043143973 0.98178798 0.0023012764
0.046057627 -0.0069710049 -0.48349246 0.28218418 -0.046124082 0.95825076 0.0019378964
0.055476118 -0.0070003537 -0.48665658 0.34002379 -0.051367104 0.93901294 0.0022136555
0.062156633 -0.0028858846 -0.4892765 0.3859657 -0.0085537443 0.92247349 0.0019054062
0.11343977 -0.0038207248 -0.48647323 -0.77427727 0.011333618 0.63274503 0.011711631
-0.1132306 0.0049307127 -0.48649874 0.74360031 -0.02767987 0.66805118 0.010439929
-0.062682487 0.0075051524 -0.48982936 -0.38268161 0.042450521 0.92290455 0.0017756083
-0.05545374 0.0045819907 -0.48657876 -0.361536 0.029073179 0.93190479 0.0022830812
-0.046678174 0.0060776323 -0.48366249 -0.28160882 0.045690149 0.95844096 0.0020329116
-0.03558689 0.0066966494 -0.481056 -0.19634598 0.039701346 0.97973067 0.0022875341
-0.029217046 0.0071742414 -0.48010829 -0.12634045 0.027426016 0.99160773 0.0023293011
-0.0016277042 0.0035898646 -0.48035392 -0.0050190235 0.0070299939 0.99996269 0.00019373681
0.0011145938 0.0049266014 -0.48019624 0.0022367067 0.0074484367 0.99996978 0.00016952696
0.029307067 0.0046611726 -0.4800747 0.12260041 0.023720948 0.99217266 0.0025197091
0.033475317 0.0043751048 -0.4806467 0.1599275 0.020586701 0.9869141 0.0028237235
0.044592369 0.0080669709 -0.48311147 0.28377649 0.051487926 0.95750713 0.0019168518
0.051316109 0.0048317635 -0.48501828 0.31231081 0.024283729 0.94966954 0.0024283472
0.061429419 0.00636739 -0.48918709 0.37127104 0.04441813 0.9274615 0.0017834165
0.11439899 0.0062568523 -0.48476961 -0.77881545 -0.049554057 0.62529272 0.010508279
-0.11355501 0.01479574 -0.48446918 0.79902136 -0.10989343 0.59117538 0.012497284
-0.1093865 0.015850531 -0.48932582 0.67905515 -0.084066473 0.72925782 0.014786592
-0.061499201 0.015040595 -0.48979571 -0.36245951 0.096509971 0.92698914 0.002001812
-0.056313183 0.016062079 -0.48774812 -0.34544149 0.10190526 0.93289095 0.0021340204
-0.046387833 0.015473191 -0.4841938 -0.29895625 0.099339008 0.94908214 0.0019514537
-0.03559852 0.015344419 -0.48158565 -0.19671445 0.086911306 0.97660124 0.002668018
-0.027518079 0.014372177 -0.48026243 -0.12772608 0.056310948 0.9902097 0.0029189016
0.028958391 0.012134643 -0.48028341 0.12861194 0.053292997 0.99026203 0.0025305478
0.035444267 0.015680173 -0.48154765 0.20087758 0.085618675 0.97586763 0.0021031681
0.045009173 0.013721153 -0.48361635 0.26584563 0.082636267 0.96046728 0.0016831467
0.054804668 0.015281609 -0.4870213 0.33876479 0.093651943 0.93619859 0.0018947707
0.060755182 0.014943275 -0.48936296 0.36343414 0.081065238 0.92808616 0.00194944
0.11377619 0.014453981 -0.48418331 -0.79424012 -0.095060408 0.6001218 0.0091113159
-0.11279853 0.024282239 -0.48387009 0.80602956 -0.18243866 0.56305629 0.0099994587
-0.1083558 0.026024811 -0.48892719 0.64507461 -0.16421244 0.74626613 0.014400731
-0.053273406 0.024557382 -0.48780105 -0.33825439 0.16203378 0.92700011 0.0020203155
-0.044833701 0.024648935 -0.4848423 -0.27733737 0.15315612 0.94848675 0.0019835455
-0.034316339 0.025522191 -0.48249087 -0.19093543 0.15902124 0.96863616 0.0022925106
-0.02662864 0.026530623 -0.48132235 -0.15972933 0.15455201 0.97498727 0.0024822019
-0.016301235 0.026901251 -0.48032561 -0.076261126 0.13154648 0.98837227 0.0029796746
0.014038333 0.026739683 -0.48014456 0.052787811 0.11430069 0.99204272 0.0025172336
0.025805173 0.022568414 -0.48076105 0.12797147 0.1182219 0.98470646 0.001889308
0.035073221 0.024974121 -0.48252809 0.19966236 0.13935372 0.9699049 0.0020792752
0.04389884 0.029045034 -0.48538664 0.27072433 0.188841 0.94395304 0.0024062458
0.05329508 0.024407841 -0.4877761 0.33775529 0.14741886 0.9296177 0.0020780396
0.11249289 0.025360949 -0.48407027 -0.78195632 -0.18806453 0.5942862 0.0072957547
-0.11215131 0.034246556 -0.48145935 0.82883751 -0.24381292 0.50357091 0.0085715223
-0.10491029 0.035608612 -0.48929125 0.67614615 -0.23117913 0.69955885 0.017376788
-0.051786583 0.036216196 -0.48983258 -0.31637636 0.20952642 0.92520523 0.0017717395
-0.044248216 0.033394534 -0.48655447 -0.26488411 0.2013794 0.9430179 0.0019785049
-0.034163997 0.035008498 -0.4841857 -0.20950325 0.19902334 0.95733911 0.0020571793
-0.023383532 0.036165625 -0.48252854 -0.13800526 0.20702641 0.96855283 0.0018181768
-0.015326984 0.03379387 -0.48125243 -0.078347616 0.17942733 0.98064643 0.0023240179
-0.0065285838 0.032500338 -0.48051736 -0.027268482 0.147237 0.9887253 0.0027327833
0.0049824342 0.034875356 -0.48090458 0.019515304 0.17878224 0.98369509 0.0022073316
0.015444773 0.03525193 -0.48151767 0.088979885 0.19990508 0.9757666 0.0016431437
0.023998046 0.034227379 -0.48223358 0.14217585 0.20083494 0.96925294 0.0019994513
0.03436197 0.033161324 -0.4838199 0.20673618 0.19612956 0.95853704 0.0022631949
0.042324085 0.034741048 -0.48621687 0.26558197 0.21661276 0.93943876 0.0019350463
0.050956231 0.036396556 -0.48955813 0.31538394 0.21739288 0.92372793 0.0018167628
0.10693584 0.036248676 -0.48684415 -0.71908313 -0.22602412 0.65713966 0.013817141
0.11164972 0.032627013 -0.48302731 -0.79542124 -0.22502585 0.56273288 0.0085565597
-0.10373386 0.04491723 -0.48632669 0.69901264 -0.29469308 0.65156537 0.011500078
-0.04739283 0.041459844 -0.48968104 -0.29423243 0.24633515 0.9234426 0.0019283108
-0.037036143 0.044201761 -0.48736686 -0.22299585 0.27794597 0.93435484 0.0018112269
-0.023321204 0.045551032 -0.4848963 -0.14364406 0.28323629 0.94823176 0.0021673669
-0.01482995 0.046502471 -0.48410279 -0.10365945 0.28939727 0.95157975 0.0020961822
-0.0008987441 0.047635823 -0.48370352 0.0031076095 0.28090525 0.95973045 0.0020321626
0.005512896 0.044150941 -0.48294821 0.027928608 0.25923479 0.96541047 0.0023043284
0.016380962 0.04436329 -0.48369884 0.097148687 0.26777533 0.95857102 0.0020546026
0.023192018 0.0481309 -0.48569345 0.14185658 0.30339256 0.94224709 0.002120167
0.035297576 0.045309447 -0.48734349 0.21858126 0.28586093 0.93300903 0.002025062
0.04170654 0.041198764 -0.48758951 0.26733166 0.25884557 0.92818797 0.0017234342
0.099260576 0.048561726 -0.48957783 -0.64201349 -0.30376816 0.70394856 0.017101217
0.10366504 0.045399114 -0.48619938 -0.70388025 -0.28696167 0.64977342 0.013697496
-0.10292606 0.052261047 -0.48380142 0.71561599 -0.36256987 0.59702325 0.0089712217
-0.097171552 0.05703517 -0.48752767 0.63116032 -0.40673175 0.66045886 0.013802599
-0.024648827 0.053093769 -0.48772889 -0.157851 0.32778224 0.93147296 0.0016287002
-0.016152335 0.054106254 -0.48689264 -0.098472834 0.33781731 0.93604624 0.0019997286
-0.0039871386 0.054497808 -0.48615608 -0.010504793 0.34711635 0.93776321 0.0021287845
0.004143496 0.056847613 -0.48707271 0.022843372 0.36900145 0.92914814 0.0018658541
0.012519548 0.055256441 -0.48692629 0.067038804 0.35596853 0.93209028 0.0019763964
0.024920693 0.053955834 -0.48812655 0.1568023 0.34374911 0.92587775 0.0017297865
0.031773902 0.053416654 -0.48915726 0.19309212 0.32485685 0.92584205 0.0020191534
0.097812101 0.056241103 -0.48750028 -0.63503569 -0.37430072 0.67574304 0.015901828
0.10249821 0.055138301 -0.48274741 -0.7408191 -0.40035298 0.53935575 0.010638367
-0.093462765 0.064761952 -0.48569337 0.63400668 -0.43770367 0.6375351 0.012485811
-0.08948604 0.066162027 -0.48850617 0.58267933 -0.42778677 0.69100171 0.015110911
-0.013771124 0.061517071 -0.48965839 -0.095672317 0.35905147 0.92840123 0.0017702662
-0.0057316325 0.060989775 -0.48893088 -0.014356988 0.36658007 0.93027568 0.0021506099
0.0021006847 0.060931243 -0.48869675 0.0094674928 0.37815744 0.92569292 0.0018619039
0.089338683 0.069885164 -0.48603088 -0.59102207 -0.47027627 0.65538776 0.011658202
0.094533466 0.063635245 -0.48547068 -0.6221568 -0.42673725 0.65636599 0.014426267
0.10112345 0.060550921 -0.48088151 -0.75129539 -0.43693554 0.49461353 0.0089954436
-0.092577443 0.071236938 -0.48131323 0.67895925 -0.51226282 0.52592874 0.0080668125
-0.086121067 0.075304583 -0.48497757 0.58674216 -0.51562178 0.624394 0.011097851
0.086338632 0.075844556 -0.48410127 -0.57977664 -0.53214347 0.61699462 0.011873772
0.091749415 0.070689991 -0.48286885 -0.64968801 -0.50025851 0.5724045 0.014575044
-0.0845275 0.081130691 -0.4818131 0.60915315 -0.56337494 0.55815876 0.0082666632
-0.074531779 0.086400166 -0.48527288 0.51953197 -0.58351153 0.62418008 0.010707961
-0.068195261 0.08781144 -0.48860523 0.4445312 -0.55265409 0.70495778 0.018837867
0.07423275 0.085425176 -0.48639691 -0.51029521 -0.57935148 0.63557112 0.0096878354
0.082373381 0.082696468 -0.48262984 -0.59201789 -0.59845752 0.53978086 0.012329617
-0.070853479 0.093697168 -0.48028409 0.50933135 -0.69047648 0.51363784 0.0075902734
-0.064569727 0.095155813 -0.48394161 0.45736355 -0.67055953 0.58409631 0.011963326
-0.055545986 0.098862112 -0.48699805 0.37739164 -0.67569345 0.63325661 0.012576362
0.055602122 0.099042982 -0.48675969 -0.35571066 -0.64571089 0.675668 0.015570129
0.06592387 0.093741298 -0.48443773 -0.44609985 -0.65367949 0.6113084 0.0085294442
0.073210858 0.090824045 -0.48161086 -0.5307557 -0.64697343 0.54747039 0.012451146
-0.061942868 0.10042376 -0.48042208 0.44628507 -0.72246146 0.52809006 0.009438226
-0.055636626 0.10244026 -0.48260629 0.39580232 -0.72450411 0.56429988 0.0098046781
-0.044773187 0.10471243 -0.48521438 0.31708753 -0.71975279 0.61758518 0.009493012
-0.035685398 0.10673722 -0.48735738 0.23762734 -0.71488023 0.65763175 0.012969143
-0.024892321 0.1090349 -0.48838118 0.16352418 -0.71235311 0.68250483 0.016758539
-0.017452333 0.10915269 -0.48935068 0.098118961 -0.69159412 0.71559083 0.018119372
0.017403696 0.10860869 -0.48994601 -0.083895534 -0.65428483 0.75158024 0.020100551
0.02531752 0.10818785 -0.48921451 -0.15999945 -0.6987462 0.69724745 0.021215547
0.035431586 0.10705291 -0.48707527 -0.24268003 -0.71844143 0.65188068 0.015463633
0.046288174 0.10487048 -0.48438397 -0.31530738 -0.70743287 0.63255042 0.011450022
0.051092423 0.10164394 -0.48592883 -0.35434094 -0.6678741 0.65451258 0.01063227
0.060618158 0.10044161 -0.4816671 -0.44130567 -0.71043485 0.5482077 0.009687488
-0.035062701 0.11148356 -0.481839 0.24944954 -0.81438792 0.52397251 0.0089395717
-0.024539076 0.11409444 -0.48206756 0.17792739 -0.80972707 0.55918151 0.011607318
-0.013857113 0.11325426 -0.48492521 0.095367856 -0.76801652 0.63328958 0.0090317065
-0.0072760102 0.11339322 -0.4859643 0.037340466 -0.7627151 0.64565587 0.013004994
0.0042785523 0.11495795 -0.48444396 -0.015758758 -0.79142648 0.61106128 0.0094136335
0.013958717 0.11327084 -0.48502928 -0.088432722 -0.78440851 0.61390793 0.0088222176
0.027412537 0.11174642 -0.48477817 -0.18104561 -0.78477246 0.59275174 0.0081855981
0.035274569 0.11197826 -0.48109245 -0.25356025 -0.82227385 0.50948298 0.0079540396
-0.010303685 -0.12207513 -0.47013599 0.074665897 0.93149877 0.35599878 0.0081819948
-0.004159438 -0.12133188 -0.47382131 0.038216013 0.92371368 0.38117257 0.010141403
0.0050472934 -0.12091268 -0.47460461 -0.044708092 0.91220373 0.40729043 0.0083349729
-0.042950451 -0.11326802 -0.47319454 0.31140274 0.87349415 0.37421438 0.0091652377
-0.035022099 -0.11574892 -0.47473866 0.24671355 0.87623668 0.41393441 0.0080866506
-0.026922306 -0.11764072 -0.47523162 0.20434386 0.87478435 0.43931296 0.0056626094
-0.017666174 -0.11877347 -0.47547314 0.13958053 0.89131069 0.43137267 0.0071379021
-0.005351407 -0.11937492 -0.47752088 0.063936278 0.89075786 0.44995841 0.0079779262
0.0038078362 -0.11848083 -0.47950399 -0.033017632 0.87799877 0.47752282 0.0083097601
0.013346115 -0.11800967 -0.47811753 -0.10346456 0.87414002 0.47452545 0.0066610142
0.026628807 -0.11817105 -0.47421226 -0.20094444 0.89865232 0.38993004 0.0089265788
0.035283688 -0.11569012 -0.47458825 -0.25907072 0.86875272 0.42207932 0.0097244745
0.045303885 -0.11213936 -0.47361657 -0.3320919 0.85630226 0.39555195 0.010468127
0.050286628 -0.11148838 -0.4705025 -0.38961717 0.86433887 0.31798878 0.0080454694
-0.064812489 -0.10287528 -0.47320461 0.49385908 0.76016861 0.4221929 0.0098701091
-0.055900596 -0.10675004 -0.4755165 0.41170582 0.7963047 0.44316736 0.0085196896
-0.04756701 -0.10920519 -0.47740296 0.33350456 0.81105649 0.48058501 0.0082556698
0.0470354 -0.10803842 -0.47973981 -0.33740509 0.78322738 0.522219 0.011415921
0.055085734 -0.10732353 -0.47506487 -0.40139121 0.79865921 0.44836205 0.0078781713
0.063654326 -0.10289361 -0.47477087 -0.48227978 0.76667196 0.42381638 0.010295304
-0.074082389 -0.094798349 -0.47486743 0.56388956 0.69934046 0.4392626 0.0079181297
-0.068706848 -0.098557234 -0.47566485 0.50021398 0.73934978 0.45071942 0.0075331326
0.068412423 -0.097120479 -0.47815061 -0.51100999 0.72119945 0.46769664 0.0071348147
0.074637905 -0.094264492 -0.47508153 -0.57372522 0.7062459 0.41479647 0.005887893
0.081409402 -0.091643035 -0.47043008 -0.62216502 0.69778812 0.35496834 0.0083905701
-0.090928555 -0.081288822 -0.47200653 0.68329287 0.63027239 0.36860222 0.0072915955
-0.086540118 -0.084668472 -0.47461891 0.64731896 0.65462691 0.39043814 0.0069533526
0.085375659 -0.086082697 -0.47431725 -0.64800996 0.6450991 0.40488294 0.0075041601
-0.094275393 -0.075005352 -0.47453263 0.70939249 0.57792175 0.40344611 0.0087959431
-0.088863671 -0.078421704 -0.47906998 0.6620878 0.58375144 0.46997243 0.0082130125
0.089054272 -0.079935946 -0.47701824 -0.6627413 0.60006583 0.44798988 0.0083480794
0.093487456 -0.075849004 -0.47483847 -0.71510261 0.56930685 0.40560824 0.0068029533
-0.102721 -0.065804265 -0.47208464 0.78034776 0.51591802 0.35339192 0.0078474386
-0.098719515 -0.068986692 -0.47498238 0.75151527 0.51218033 0.41580778 0.010245752
0.097160198 -0.067064047 -0.47959176 -0.716883 0.48865598 0.49728683 0.0077567273
0.10348777 -0.062996507 -0.47457892 -0.76994193 0.46553898 0.43642053 0.0075264797
-0.10769226 -0.055792909 -0.47375903 0.80817485 0.40884817 0.42390636 0.0091535933
0.1066768 -0.056438074 -0.47505078 -0.77889472 0.42816633 0.45825389 0.0067157918
-0.11189196 -0.043821421 -0.47523612 0.82417572 0.33107984 0.45947856 0.0074560107
-0.10924207 -0.046002135 -0.47848311 0.81310999 0.34065962 0.47202027 0.0083965044
0.1077726 -0.049281437 -0.47872168 -0.78416938 0.37175465 0.496867 0.0086699314
0.11253937 -0.042965189 -0.47469771 -0.85362911 0.31740835 0.41300023 0.0082653398
-0.11543939 -0.036610264 -0.47396612 0.88259292 0.25673485 0.39384887 0.0083838739
0.11455953 -0.036845919 -0.4756285 -0.85377985 0.29578525 0.42845187 0.0082165217
-0.11838978 -0.024698367 -0.47429606 0.88850498 0.19141595 0.41703573 0.0056814966
-0.012094916 -0.021821499 -0.47964621 -0.038544185 -0.070856519 0.99674153 0.0018383907
-0.0049027447 -0.023784101 -0.47962022 -0.0061971443 -0.068800293 0.99761117 0.0019838815
0.0048906044 -0.02516555 -0.47971681 0.023984725 -0.08762341 0.99586487 0.0024035103
0.01701129 -0.022621864 -0.47993168 0.066644132 -0.087393552 0.99394208 0.0021827554
0.11804263 -0.026221493 -0.47455332 -0.89064115 0.19332604 0.41156209 0.01015703
-0.12143333 -0.012309493 -0.47109401 0.92477041 0.075231776 0.37301448 0.0092487875
-0.11781181 -0.014686247 -0.47813436 0.87141043 0.1193307 0.47581926 0.0066776555
-0.022458144 -0.01551858 -0.47982889 -0.073691227 -0.043877181 0.99631542 0.0015900012
-0.014200302 -0.015905494 -0.47946724 -0.037794828 -0.03347154 0.99872482 0.0011562422
-0.0047445651 -0.014365658 -0.47944728 -0.0077918414 -0.027335919 0.99959594 0.00075875915
0.0058278614 -0.015415546 -0.47941864 0.019469364 -0.034554821 0.9992131 0.00075771898
0.01438628 -0.014273645 -0.47948223 0.026985608 -0.027838238 0.99924809 0.00058529899
0.022609562 -0.014822401 -0.47980261 0.066126183 -0.04334477 0.99686939 0.0015479841
0.1178516 -0.017051542 -0.47746572 -0.88200438 0.12961374 0.45306557 0.0064368006
0.12111352 -0.016678674 -0.47048154 -0.92619646 0.11440477 0.35926539 0.010186606
