# .PCD v0.7 - Point Cloud Data file format
VERSION 0.7
FIELDS x y z normal_x normal_y normal_z curvature
SIZE 4 4 4 4 4 4 4
TYPE F F F F F F F
COUNT 1 1 1 1 1 1 1
WIDTH 580
HEIGHT 1
VIEWPOINT 0 0 0 1 0 0 0
POINTS 580
DATA ascii
-0.1066391 0.1373339 0.24460447 0.60417485 -0.78034306 -0.16136158 0.00091542699
0.10630459 0.13748536 0.2451679 -0.59906709 -0.78111476 -0.1760067 0.0009826821
0.11189184 0.13292024 0.24674648 -0.63303941 -0.75325072 -0.17853391 0.0013682465
-0.10110116 0.14171319 0.24387865 0.58434558 -0.79534209 -0.16115572 0.00087876932
-0.092729703 0.14776817 0.24593861 0.52674049 -0.83196568 -0.17429166 0.0020310509
0.093650326 0.14754489 0.24321985 -0.54388905 -0.82383442 -0.15962954 0.0013015248
0.10226381 0.14082581 0.24385354 -0.59024066 -0.79307312 -0.15050258 0.00066239556
-0.084363617 0.15308483 0.24460712 0.480654 -0.86077672 -0.16743702 0.0021535975
-0.073433697 0.15762299 0.24562959 0.40439048 -0.89933479 -0.16632888 0.0011854172
-0.069239333 0.15913475 0.24709734 0.38747758 -0.90465295 -0.17738093 0.0011371527
0.074922539 0.15682144 0.24683371 -0.41281986 -0.89372951 -0.17557716 0.0013898492
0.083905883 0.15312174 0.24634616 -0.47756186 -0.8594231 -0.18255591 0.0021019145
-0.066121072 0.16083719 0.24442455 0.38286972 -0.90803689 -0.16994049 0.00089820154
-0.058736973 0.16339645 0.24767306 0.34093383 -0.92259812 -0.18049052 0.0015630003
-0.04690199 0.16838828 0.24629915 0.28271073 -0.94299358 -0.17560719 0.0017993471
-0.038937166 0.16981466 0.24761824 0.21998669 -0.95873648 -0.18008402 0.0023121352
0.037874766 0.1698674 0.24822673 -0.21212545 -0.95943308 -0.18571736 0.0019813371
0.047244694 0.16889718 0.24285713 -0.2652424 -0.95109463 -0.15832093 0.0018558492
0.055857506 0.16503847 0.24471349 -0.33471274 -0.92976737 -0.15329683 0.0012342153
0.064684093 0.1610858 0.24668109 -0.36993349 -0.91398627 -0.16666839 0.00088633329
-0.034067579 0.17069045 0.24597995 0.18377249 -0.96750516 -0.17367055 0.0019741808
-0.025097245 0.17204748 0.24475083 0.12854201 -0.98000848 -0.15185612 0.00065981969
-0.014948555 0.17332609 0.245152 0.097375691 -0.98095357 -0.16807181 0.0011741983
-0.0056649293 0.17449698 0.24551037 0.035517313 -0.98495626 -0.16911425 0.0020753178
0.0052438444 0.17491436 0.24295759 -0.046250749 -0.98692238 -0.15441836 0.0014891853
0.016575355 0.1733622 0.24340501 -0.10672763 -0.98097658 -0.16215485 0.00080917001
0.024209306 0.17213199 0.24497701 -0.12837578 -0.97785652 -0.16527677 0.0007735336
0.033443589 0.17083654 0.24553376 -0.18334502 -0.9686532 -0.16761757 0.0017566838
-0.032081671 -0.17026588 0.25065428 0.17552896 0.96225291 -0.20798786 0.0017398726
-0.024381559 -0.17078727 0.25278667 0.13730623 0.96516466 -0.22272013 0.0014407322
-0.015705338 -0.17129289 0.25553754 0.10611907 0.96658385 -0.23335485 0.0016709946
-0.008936082 -0.17214434 0.25570914 0.064856522 0.96718848 -0.24564205 0.0025900959
0.0046210103 -0.17312759 0.25387448 -0.036260992 0.97239149 -0.23052111 0.0027636313
0.015042578 -0.17164196 0.25438458 -0.091890417 0.97119367 -0.21986139 0.0015829478
0.02624405 -0.17024986 0.25404966 -0.13440236 0.96691537 -0.21681927 0.0013484969
0.030257126 -0.17025408 0.25174859 -0.15556 0.96514845 -0.2104506 0.0016098525
-0.06183029 -0.16116984 0.25254965 0.36018601 0.90862334 -0.21135201 0.0016034438
-0.056888852 -0.16240031 0.25583655 0.33187315 0.9106757 -0.24602816 0.0017958428
-0.045282904 -0.16714123 0.25547642 0.24248445 0.93893778 -0.24412537 0.0024244483
-0.033695109 -0.16903247 0.25507104 0.19770525 0.94875383 -0.24653348 0.0018472112
-0.024531389 -0.16963707 0.25767139 0.13823685 0.95666981 -0.25626826 0.0013921764
0.019481739 -0.16991886 0.25932661 -0.11349753 0.95939541 -0.25822222 0.0016596059
0.02643404 -0.16901003 0.25929874 -0.14603116 0.9517743 -0.26981601 0.001887033
0.036679108 -0.1688924 0.25396708 -0.19559896 0.95601332 -0.21858545 0.0025362915
0.045029953 -0.16690861 0.25594872 -0.25033391 0.9349187 -0.25151527 0.0028214864
0.050972261 -0.16619168 0.25041422 -0.30440184 0.93184811 -0.19748075 0.0021859603
-0.082384467 -0.15231778 0.25391158 0.46190363 0.85795408 -0.22485508 0.0027602233
-0.072983228 -0.15628152 0.2536312 0.39553717 0.89209151 -0.2184564 0.0017299443
-0.064298943 -0.15924592 0.25617886 0.36181623 0.90059775 -0.24085835 0.0015932317
0.065638371 -0.15796992 0.25908321 -0.36893693 0.89215493 -0.26066276 0.001421926
0.075780749 -0.15494154 0.25435749 -0.41126779 0.8789925 -0.24131092 0.00198042
0.085293151 -0.15118177 0.25332484 -0.49800602 0.83962715 -0.21683195 0.0029818956
-0.090737604 -0.14670795 0.2566205 0.52787238 0.81434375 -0.24123611 0.0028566746
-0.08941219 -0.14804362 0.25551885 0.50892609 0.82597721 -0.24239634 0.0027216524
0.087204151 -0.14876503 0.25839567 -0.49947935 0.82408643 -0.26721141 0.0030664233
0.09228152 -0.14590205 0.25531182 -0.52229422 0.82208496 -0.22668254 0.002726166
-0.10503647 -0.1357329 0.25663155 0.5897212 0.77235436 -0.2360035 0.0014793624
0.10620654 -0.1352087 0.25534046 -0.60309786 0.76215523 -0.235356 0.0012731119
0.11064146 -0.13047409 0.25994396 -0.60658669 0.74845278 -0.26808777 0.0023413177
-0.12186954 -0.12284116 0.25625899 0.67659211 0.6966486 -0.23854531 0.0026723153
-0.1165921 -0.12772298 0.25366843 0.64684701 0.73314738 -0.20996171 0.0023736677
0.11589003 -0.12763393 0.25583947 -0.63790214 0.73576206 -0.2274534 0.0022169531
0.12283175 -0.12214722 0.25506121 -0.69724452 0.67868364 -0.23073477 0.0026007972
-0.13117328 -0.11192415 0.25412306 0.74845862 0.62417805 -0.22407906 0.0018800716
-0.12524676 -0.11955114 0.25437939 0.70374107 0.67497957 -0.22170025 0.0025800471
0.12764236 -0.11575998 0.25615513 -0.73088574 0.63984436 -0.23749782 0.0020466335
-0.13613465 -0.10454174 0.25655478 0.77287048 0.59003258 -0.23352258 0.0011193181
0.13715108 -0.10416464 0.25404066 -0.77635837 0.58899182 -0.22440194 0.0014394065
-0.14295872 -0.095806196 0.25613609 0.7997002 0.55124247 -0.23793124 0.0020163411
0.13931356 -0.099198692 0.25974005 -0.7812987 0.56365103 -0.26808548 0.001954922
0.14408243 -0.094770908 0.25499821 -0.80292368 0.55079347 -0.22790384 0.0020788857
-0.1510556 -0.085674815 0.25333205 0.85171181 0.4749108 -0.22146483 0.0027286212
-0.14878367 -0.087957852 0.25681794 0.836882 0.48978865 -0.24440862 0.0026804972
0.14954819 -0.087633505 0.25503635 -0.83584607 0.50122577 -0.22390652 0.0026314075
0.15159433 -0.083761387 0.25447029 -0.85088295 0.4690876 -0.23654823 0.0024958863
-0.15487951 -0.075213611 0.25555575 0.88019812 0.41248792 -0.23474452 0.0017542844
0.15520515 -0.075098291 0.25443813 -0.87979817 0.41709691 -0.22800295 0.0021495624
-0.15904696 -0.067284152 0.25200096 0.89905977 0.38161376 -0.21462153 0.0014480568
0.15756893 -0.066509113 0.25924641 -0.88886762 0.3675701 -0.2735078 0.0020757096
0.16120449 -0.06223033 0.25174305 -0.91412908 0.35042238 -0.2038926 0.0013202659
-0.16214013 -0.057740729 0.255463 0.91401744 0.34123212 -0.21939172 0.0017950222
0.16355094 -0.055665221 0.25322711 -0.92149651 0.32791147 -0.20813024 0.0020240995
-0.16661404 -0.046295241 0.25620311 0.93115699 0.27266514 -0.24207506 0.0028905184
0.16802639 -0.043978605 0.25353515 -0.94482613 0.24187584 -0.22090635 0.0027055142
-0.17004085 -0.03163068 0.25188801 0.96459138 0.16088746 -0.20899436 0.0019125679
-0.16846815 -0.037492804 0.25533542 0.95234698 0.19378372 -0.23554865 0.0029931818
0.16836463 -0.037557185 0.25576016 -0.94891959 0.20530969 -0.23958194 0.0024277989
-0.17078355 -0.023050461 0.25355977 0.9659918 0.12443994 -0.22665972 0.001501949
-0.1694807 -0.026957834 0.25696641 0.95648515 0.14135844 -0.2552526 0.0018228218
0.17117536 -0.023513978 0.25158161 -0.97248244 0.12662086 -0.19556327 0.0013913827
-0.17214219 -0.014414646 0.25254244 0.97357798 0.095346481 -0.20749724 0.0015003131
0.17156303 -0.014561919 0.25502083 -0.96283615 0.094869703 -0.25287604 0.001817578
-0.17264637 -0.0059493431 0.2552388 0.96974105 0.049519107 -0.23906077 0.0027117236
0.17251368 -0.0059873238 0.25579056 -0.97209042 0.031554442 -0.23247471 0.0027461585
-0.17242023 0.0045516831 0.2570107 0.97057402 -0.027556503 -0.23922086 0.0029327706
0.17291209 0.006287782 0.25387517 -0.97608155 -0.042218074 -0.21326616 0.002208493
-0.17188901 0.014681745 0.25354373 0.97464764 -0.074749522 -0.21088946 0.0016037471
0.17129308 0.01731169 0.25461471 -0.96548432 -0.097500846 -0.24152355 0.0015611203
-0.17038201 0.024444059 0.25450182 0.96679211 -0.13378856 -0.21774685 0.0012479988
-0.16951135 0.026121449 0.25730953 0.95496678 -0.14305377 -0.25995004 0.0019891982
0.16951023 0.02626735 0.25723249 -0.95250994 -0.14853641 -0.26582262 0.0018260085
0.17111716 0.025810817 0.25054806 -0.96891141 -0.14959876 -0.19705534 0.0014683151
-0.16852385 0.03529343 0.25635901 0.95181662 -0.19325085 -0.23811594 0.0020141611
0.16869542 0.03538261 0.25556785 -0.95002055 -0.19471352 -0.2440239 0.0022904412
-0.16628367 0.047644891 0.25561744 0.9345274 -0.26419401 -0.23845355 0.0026470462
0.16755684 0.045777198 0.25319049 -0.94130188 -0.25719032 -0.21864119 0.0023249844
-0.16320585 0.055561043 0.25477505 0.91026109 -0.33227757 -0.2470149 0.0017263436
0.16358756 0.054345872 0.25529805 -0.92578113 -0.30661637 -0.22116904 0.0022507359
-0.16093467 0.061399613 0.25421435 0.90942287 -0.34774819 -0.22808166 0.00152532
-0.15816651 0.06704253 0.25594866 0.89528781 -0.38535774 -0.22351553 0.0014650762
0.15843889 0.065708913 0.25707778 -0.89127707 -0.37696716 -0.25203362 0.0018836336
0.16018596 0.062906168 0.25471738 -0.90676039 -0.3515507 -0.23280397 0.001453241
-0.15449668 0.075439848 0.2567198 0.88199902 -0.41435394 -0.22447364 0.0019580866
0.15551807 0.074231915 0.25462312 -0.88133579 -0.41394839 -0.22780271 0.0018277727
-0.15139598 0.081591979 0.25894365 0.84656793 -0.46768099 -0.25415978 0.0025223771
-0.14843914 0.089034289 0.25515351 0.82713997 -0.51251668 -0.23057777 0.0024051205
0.14898118 0.088318773 0.25517872 -0.83343536 -0.49817935 -0.23917116 0.0022447631
0.15159747 0.082425632 0.25674409 -0.85141695 -0.46495363 -0.24270825 0.0023823555
-0.14614628 0.092523448 0.25382438 0.82700723 -0.51972812 -0.21434003 0.0023604848
0.14414032 0.094285607 0.25608581 -0.79922754 -0.55131423 -0.2393489 0.0022561445
-0.13552605 0.10606436 0.25461239 0.77445382 -0.5984301 -0.20518914 0.0012927147
0.13586204 0.10484155 0.25670245 -0.76852608 -0.5901143 -0.2472506 0.0022461526
0.14094281 0.10003363 0.25189105 -0.79906476 -0.56355363 -0.20952976 0.0016155862
-0.13059388 0.11171401 0.2566838 0.74809086 -0.62249702 -0.22990756 0.0020786982
-0.12600638 0.11808883 0.25563252 0.70913637 -0.67029029 -0.21871555 0.0030532249
0.12675162 0.11653291 0.25718409 -0.72464931 -0.64183301 -0.25086585 0.0020384642
0.13062678 0.11197156 0.25588709 -0.74560773 -0.6272977 -0.22487053 0.0018212482
-0.12185085 0.12206309 0.25804168 0.67962021 -0.68912822 -0.2514331 0.0030021204
-0.11769566 0.12676197 0.25406322 0.65438783 -0.72109556 -0.22759116 0.0024364539
0.11438729 0.12763341 0.25982779 -0.63473237 -0.72549546 -0.26602861 0.0026244833
0.12129956 0.12392239 0.25430369 -0.68060136 -0.70084047 -0.21355182 0.0021656074
-0.11238166 0.13140762 0.25209913 0.62563986 -0.74968696 -0.21574129 0.001990699
-0.10397318 0.13718662 0.25442615 0.58324993 -0.78256315 -0.21774864 0.0015244939
0.10191881 0.13828546 0.25607783 -0.57925206 -0.78151822 -0.23172498 0.0013678962
0.11169606 0.13154787 0.25343382 -0.62923378 -0.75039554 -0.20241416 0.001542902
-0.094619565 0.14445311 0.25411767 0.54988921 -0.80674595 -0.21629362 0.0016951369
-0.088077351 0.14897963 0.25582391 0.49153599 -0.83793658 -0.23718062 0.0023639232
0.094808795 0.14421405 0.25444305 -0.55016136 -0.80721313 -0.21384436 0.0016872921
-0.082074165 0.15251926 0.25361776 0.4546259 -0.86434239 -0.21500598 0.0021979199
-0.073716171 0.15533486 0.25621361 0.41029266 -0.87383723 -0.26089931 0.002100216
-0.065955617 0.15850408 0.25640249 0.36419317 -0.89503044 -0.25745642 0.0016983529
0.066838443 0.15841085 0.25530618 -0.37856087 -0.89735717 -0.22680779 0.0012913939
0.074311383 0.15569037 0.25379673 -0.40947202 -0.88684911 -0.21408223 0.0016986213
0.08344388 0.151519 0.25532889 -0.46410218 -0.85654366 -0.22570348 0.0023177625
-0.061528306 0.16085513 0.25431195 0.35482627 -0.90174955 -0.24687253 0.0013772299
-0.05674364 0.16269653 0.25488555 0.32528821 -0.91747981 -0.22895066 0.0018044298
-0.044894781 0.16688053 0.25649181 0.2553862 -0.93720096 -0.23755476 0.0025748878
-0.036922321 0.16855799 0.25528485 0.19946459 -0.94960576 -0.24179056 0.0025552365
-0.027046867 0.16977952 0.2556245 0.1483998 -0.96048313 -0.23547751 0.00207877
0.025851773 0.16918321 0.25888121 -0.14394349 -0.95336694 -0.26527658 0.0020574685
0.035524148 0.16861807 0.25582081 -0.19544421 -0.95002663 -0.24341533 0.0022778197
0.046355154 0.16705148 0.25356114 -0.26147532 -0.94016296 -0.21845877 0.0022771163
0.056525469 0.16249089 0.256078 -0.33019558 -0.91673988 -0.22485301 0.0014182767
0.060562059 0.16122444 0.25444502 -0.34231031 -0.91193634 -0.22626494 0.0012838522
-0.03101635 0.17043076 0.25055251 0.17408773 -0.96384114 -0.20175172 0.002158853
-0.025011284 0.17105889 0.25122723 0.12750532 -0.96997905 -0.2070822 0.0015732301
-0.015336331 0.17123871 0.25598136 0.092568159 -0.96467167 -0.24665737 0.0019802342
-0.0065221442 0.17287238 0.25393641 0.050605621 -0.97505748 -0.21610655 0.0022967204
0.0038917395 0.17261662 0.2565383 -0.023458837 -0.97048813 -0.24000545 0.0027626255
0.012794614 0.17209983 0.25370666 -0.068879656 -0.97328126 -0.21904142 0.0017908768
0.02446311 0.17120735 0.25091138 -0.13220297 -0.97272515 -0.1905995 0.0013386135
0.033398088 0.17009552 0.25064641 -0.19102456 -0.95959234 -0.20662096 0.0021303811
-0.010664349 -0.17038822 0.26167542 0.069932848 0.95344698 -0.29333973 0.0027753438
-0.0039830059 -0.17151046 0.2609247 0.031101443 0.96207321 -0.27101257 0.002677951
0.0030817636 -0.17144598 0.26149166 -0.015259704 0.96110451 -0.27576321 0.0028127779
-0.054115854 -0.16102119 0.26432481 0.30946544 0.90140778 -0.30281219 0.0024184734
-0.043867648 -0.16473426 0.26479021 0.23658049 0.92173696 -0.30729568 0.0023510663
-0.035327826 -0.16482562 0.26882908 0.18978219 0.92132372 -0.33933082 0.0023182787
-0.025213169 -0.16692965 0.26644993 0.14053226 0.93304485 -0.33117667 0.0016198944
-0.019832326 -0.16778594 0.26592273 0.115397 0.93867362 -0.32492357 0.0015198631
-0.0014192609 -0.16915211 0.26926568 0.00084248092 0.93785304 -0.34703156 0.0029295308
0.0049816016 -0.16959889 0.26643261 -0.041282397 0.94652236 -0.3199861 0.0031114218
0.017537847 -0.16699427 0.26937652 -0.11500134 0.93534195 -0.33452982 0.0019520134
0.022103149 -0.16754393 0.26581648 -0.1223256 0.93770397 -0.32518873 0.0014595311
0.037390158 -0.16616662 0.26385093 -0.21126711 0.92960411 -0.30199718 0.0024212212
0.044387113 -0.16457745 0.2650134 -0.23775023 0.92463052 -0.29754543 0.0023893039
0.053892706 -0.16107702 0.26443079 -0.30583125 0.90524602 -0.29495236 0.0022108546
-0.082447246 -0.15000713 0.26224554 0.46547076 0.84104055 -0.2756587 0.0029516004
-0.074746706 -0.15238376 0.26456052 0.402872 0.85721815 -0.32073537 0.0025620603
-0.063622087 -0.1569521 0.2647039 0.35882691 0.88210875 -0.30516765 0.0019740521
-0.057538908 -0.15851904 0.26745084 0.3246536 0.88422024 -0.33578971 0.0019724283
0.055826921 -0.15849215 0.26953945 -0.3233628 0.87962574 -0.34884804 0.0028690118
0.064832725 -0.15711796 0.2627804 -0.36313608 0.88196975 -0.30043575 0.0010625058
0.074967973 -0.1516605 0.26640975 -0.40657598 0.85309064 -0.32700509 0.0021794704
-0.092638724 -0.14220066 0.2651459 0.53435093 0.78785098 -0.30620244 0.0026621863
-0.084907413 -0.14804095 0.26446933 0.46373793 0.83189398 -0.30479425 0.0032217947
-0.078060403 -0.14953659 0.26884085 0.42405978 0.83542275 -0.34963143 0.0027240051
0.08675845 -0.14633292 0.26581049 -0.49323556 0.81209832 -0.31179312 0.0023972383
0.09165588 -0.14208476 0.26730046 -0.52512056 0.78703779 -0.32375896 0.0023717168
-0.10324914 -0.13481812 0.26326662 0.58180153 0.75937843 -0.29129288 0.0018405765
-0.098082043 -0.13814124 0.26485536 0.56314766 0.77426863 -0.28874347 0.0019151348
0.098573983 -0.13810495 0.26401106 -0.55771375 0.77924138 -0.28589889 0.0019610689
0.10454316 -0.1336325 0.26374394 -0.5854454 0.75871366 -0.28567004 0.0020714528
-0.11678537 -0.12345346 0.265688 0.65409976 0.68343061 -0.32415441 0.0028267219
-0.10929801 -0.12900209 0.26617467 0.59793973 0.73407376 -0.32187548 0.0019615567
0.10928535 -0.12821582 0.26814553 -0.59904796 0.72078049 -0.34873629 0.0027837451
0.11732513 -0.12354004 0.26444829 -0.65816325 0.69121325 -0.29840469 0.0031202575
0.12195894 -0.12063378 0.26207706 -0.68773794 0.66782618 -0.28464833 0.0028744198
-0.12522256 -0.11461238 0.26543593 0.71009928 0.62691939 -0.32051682 0.0026051586
0.12482947 -0.1147024 0.26623842 -0.70594227 0.63298428 -0.3177678 0.0026081118
-0.13326363 -0.10310519 0.26738861 0.74296057 0.57785839 -0.33777091 0.0019458174
-0.12818964 -0.10926304 0.26819065 0.7205267 0.60597533 -0.33709809 0.0022486765
0.12903409 -0.10766302 0.2692019 -0.72824162 0.59678918 -0.33690789 0.0024969778
0.13385515 -0.10398159 0.26420656 -0.75546175 0.5849337 -0.29517829 0.0019780232
-0.14256468 -0.092889942 0.26376724 0.79046077 0.52655661 -0.31290558 0.0023489525
-0.13939521 -0.09558025 0.26650357 0.77547312 0.53770363 -0.33093238 0.0021935271
0.1376874 -0.098519221 0.26514921 -0.77230954 0.55899906 -0.30175817 0.0018673572
0.14144845 -0.093066253 0.26614705 -0.78234577 0.52569288 -0.3340393 0.0021944027
-0.14634328 -0.086756907 0.26551187 0.81279469 0.4886438 -0.31716239 0.0026962562
0.14743042 -0.084986731 0.26584631 -0.81829548 0.47149155 -0.3287679 0.0029384049
-0.15276133 -0.073590383 0.26488191 0.85660142 0.40955442 -0.31384566 0.0026960904
0.14926973 -0.079317853 0.26811004 -0.83291596 0.43708295 -0.33942512 0.0026098613
0.15287498 -0.073622897 0.26451671 -0.85739928 0.40870389 -0.31277409 0.002587226
-0.15676439 -0.064205676 0.26454821 0.87925577 0.3595044 -0.31251526 0.0018594933
0.15654911 -0.064810701 0.26444748 -0.88005996 0.36080271 -0.30873266 0.00145204
-0.16279629 -0.051605385 0.26220515 0.90755063 0.29536745 -0.29851297 0.0021946956
0.15906496 -0.054588407 0.26938704 -0.88284469 0.31937271 -0.34436375 0.0019118378
0.16081594 -0.057638161 0.26071131 -0.8993082 0.34743172 -0.26558614 0.0020894581
-0.16513243 -0.042227816 0.26507977 0.92111939 0.24278663 -0.30429214 0.0026505331
0.16514403 -0.042634446 0.26460278 -0.91888434 0.2364492 -0.31582174 0.0025897475
-0.16534752 -0.034936614 0.26736286 0.92608619 0.18897308 -0.32657853 0.0027964283
0.16570038 -0.036977001 0.26546231 -0.92651713 0.20559552 -0.3151136 0.0025496155
-0.16755745 -0.024986483 0.26459962 0.94208467 0.13970363 -0.30489248 0.0016100246
0.16836731 -0.024641551 0.26223505 -0.94696927 0.12997684 -0.29386258 0.0020831989
-0.1688403 -0.012274041 0.26580843 0.94516867 0.067149363 -0.31960475 0.0023564918
0.16903436 -0.016093183 0.26365322 -0.95096332 0.1017712 -0.29208112 0.0021244991
0.17071868 -0.011892732 0.26015255 -0.96232307 0.080534652 -0.2597084 0.0021391995
-0.17092407 -0.0024378486 0.26336783 0.95281577 0.0030455284 -0.30353382 0.0032149053
-0.16981547 -0.0046008937 0.26591668 0.94556755 0.025197016 -0.32444906 0.0033607897
0.1691736 -0.004575918 0.26791435 -0.93817174 0.035054639 -0.34439054 0.0031739844
0.17116944 -0.0047215228 0.26167884 -0.96111989 0.029429872 -0.27455848 0.0030127263
-0.17051673 0.0039398153 0.26401627 0.95526707 -0.025976706 -0.29460132 0.0032966991
-0.16878557 0.0049187629 0.26897347 0.93559593 -0.039437942 -0.35086298 0.0035539775
0.16909817 0.0045281677 0.26813507 -0.9428882 -0.022842702 -0.33232525 0.0030550063
0.17106086 0.0042975838 0.26218778 -0.9638738 -0.02813974 -0.26486862 0.002775701
-0.17003557 0.016690832 0.26031137 0.95583904 -0.099710628 -0.27645895 0.0021271838
-0.16883937 0.015741423 0.2643989 0.94623142 -0.10262416 -0.30678058 0.0018106779
0.16831408 0.01273253 0.26725146 -0.9391464 -0.086676635 -0.33240217 0.0021149211
0.17055735 0.01007058 0.26139408 -0.95799166 -0.069681011 -0.27820221 0.0024769064
-0.16805875 0.024564356 0.26322031 0.94130725 -0.13312449 -0.31019109 0.0016812207
0.16846259 0.021002423 0.26342303 -0.9474448 -0.11743248 -0.29758692 0.0018911886
-0.16551116 0.036835365 0.26610434 0.92440468 -0.20522119 -0.32149684 0.0022180679
0.16565275 0.0371617 0.26552469 -0.92393094 -0.20885438 -0.32051748 0.0021616872
-0.16454616 0.045404729 0.26342547 0.92193079 -0.24790353 -0.29763654 0.0024250683
0.16512172 0.043014478 0.26438263 -0.9240247 -0.23040685 -0.30510828 0.0024905226
-0.1616441 0.054137301 0.26250336 0.90318227 -0.32183373 -0.28405073 0.0023447301
-0.15978079 0.057828005 0.26346803 0.89833409 -0.33005241 -0.28993347 0.0020404984
0.15921743 0.059671033 0.26289231 -0.89514846 -0.34267947 -0.28509644 0.0021318095
0.16179709 0.052304275 0.26425236 -0.90438873 -0.2952511 -0.3080712 0.0026083488
-0.15593664 0.066270724 0.26446843 0.87438464 -0.3790096 -0.30299056 0.0017325975
0.15728341 0.063574463 0.2638067 -0.88133973 -0.36811748 -0.29619208 0.0016504354
-0.15223885 0.075641096 0.26393914 0.85896349 -0.4117201 -0.30441478 0.002322318
0.15183906 0.075934276 0.26474309 -0.8488102 -0.42594728 -0.31319326 0.002132318
-0.14751245 0.084665902 0.26541716 0.82393551 -0.47358999 -0.31119591 0.0026691104
0.14579183 0.086811781 0.26685387 -0.81526315 -0.47519276 -0.33096504 0.0026301353
-0.14234357 0.091997221 0.26601088 0.78879732 -0.52585179 -0.31824312 0.002253751
-0.13724785 0.098668039 0.26592603 0.76905334 -0.56105679 -0.30622271 0.0015751055
0.13558657 0.098803468 0.26972193 -0.75825495 -0.55024207 -0.34968987 0.0020235768
0.14201507 0.093513675 0.26394424 -0.79100329 -0.53887743 -0.28969789 0.0021652395
-0.13324945 0.10462712 0.26452169 0.75503218 -0.58124006 -0.30345723 0.0015524343
-0.12716952 0.10990539 0.26952764 0.71666038 -0.60148823 -0.35300121 0.0023142267
0.13463593 0.10406594 0.26216653 -0.75563121 -0.5909248 -0.28254083 0.0022240628
-0.12448609 0.11633759 0.26398191 0.69081014 -0.65244997 -0.31159323 0.0027219646
0.12427113 0.11560577 0.26590458 -0.70071495 -0.64121181 -0.31280363 0.0024930821
-0.11440982 0.12528898 0.26565647 0.62794274 -0.70370686 -0.33239225 0.0020164507
0.11484519 0.12513709 0.26519963 -0.63211191 -0.70883548 -0.31302828 0.0025845757
-0.10503493 0.13269262 0.26513633 0.58691043 -0.7453739 -0.3161546 0.0011569927
-0.097824395 0.13905749 0.26307636 0.55811697 -0.77900666 -0.28575155 0.0019241878
0.098776996 0.13819543 0.26340145 -0.56083941 -0.77320963 -0.29598299 0.0023759494
0.10284021 0.13416001 0.26564816 -0.57776034 -0.75318903 -0.3144826 0.0016585551
-0.094647467 0.14194965 0.2619513 0.54820126 -0.78662103 -0.28408238 0.0020663748
-0.07973361 0.14925137 0.26766506 0.433431 -0.83826935 -0.33082038 0.0024875032
0.08629626 0.14673008 0.26524583 -0.50266576 -0.80601352 -0.3125211 0.0027557961
0.092392541 0.14302939 0.26356241 -0.52442408 -0.79876798 -0.2948713 0.0023788686
-0.081479155 0.15017053 0.26293057 0.45148686 -0.8446095 -0.28774017 0.0025073653
-0.075375229 0.15241794 0.26374042 0.41477126 -0.86020786 -0.29666033 0.0019520919
-0.063088261 0.15656456 0.26642826 0.36129674 -0.87514108 -0.32185814 0.0014285456
-0.059728961 0.15804122 0.26621303 0.33879176 -0.88818908 -0.31038719 0.0016063898
0.056812998 0.15957901 0.26526201 -0.3169969 -0.89553851 -0.3122879 0.0017251808
0.065508515 0.15582585 0.26569843 -0.36894631 -0.87008691 -0.32684457 0.0013283781
0.074696772 0.15263146 0.26393539 -0.40759027 -0.86146432 -0.30290139 0.0026023062
0.081217065 0.15006296 0.26355407 -0.44685605 -0.84611195 -0.29054126 0.0027290338
-0.052786388 0.16166368 0.26405999 0.29552853 -0.90499824 -0.30600843 0.0021879002
-0.045971539 0.16393812 0.26494265 0.26557821 -0.90959048 -0.31955197 0.0024926176
-0.033274662 0.16665713 0.26400918 0.17212167 -0.93987906 -0.29496038 0.0019710604
-0.025871724 0.16730592 0.2650173 0.13792528 -0.9412185 -0.30835763 0.0016472326
-0.014911219 0.16907367 0.26401255 0.089241743 -0.94702762 -0.3085039 0.0019717177
0.0053134151 0.1690772 0.26783442 -0.055970684 -0.94374222 -0.32591096 0.0025350517
0.014650119 0.16861714 0.26551899 -0.092439234 -0.94710481 -0.30732307 0.0018311831
0.025628025 0.16713996 0.26563033 -0.13628341 -0.94202238 -0.30662775 0.0017096178
0.032995827 0.16592555 0.26638657 -0.16783296 -0.93323535 -0.31765378 0.0018012925
0.043928545 0.1643109 0.26587397 -0.24211797 -0.91481543 -0.32325155 0.0025919364
0.052731294 0.16128457 0.26521912 -0.2928265 -0.90227282 -0.31647491 0.0021384563
-0.0037265862 0.17061421 0.26380211 0.043079905 -0.95510274 -0.29312614 0.0027899928
0.0038827965 0.17048799 0.26412934 -0.035286393 -0.94895071 -0.31344453 0.0027276531
-0.045049801 -0.161221 0.27338731 0.25622854 0.89269072 -0.37074283 0.0026898894
-0.035353031 -0.16090617 0.27824503 0.18335435 0.89014226 -0.41716665 0.0029073486
-0.024307424 -0.1638197 0.27482218 0.13163419 0.90790254 -0.39797664 0.0018646261
-0.018525716 -0.16586109 0.27177536 0.11688022 0.92191267 -0.36934537 0.0022475705
-0.0026990534 -0.16613843 0.27607399 0.012055666 0.91810566 -0.39615226 0.0027180961
0.0064445641 -0.16572361 0.27586716 -0.051467642 0.91321898 -0.40420574 0.0028333408
0.017840961 -0.16530173 0.27332115 -0.11107332 0.9176724 -0.3814972 0.0019243975
0.02555429 -0.16464415 0.27246943 -0.14129019 0.92217737 -0.36003596 0.0019670138
0.033677466 -0.16184796 0.2764039 -0.17057036 0.90197635 -0.39666656 0.001860618
0.04314192 -0.16179176 0.27336326 -0.22061691 0.90013146 -0.37562156 0.0023792693
-0.071165219 -0.1512908 0.27141973 0.38203317 0.84516191 -0.37383422 0.0025246087
-0.063275442 -0.15184139 0.27737945 0.34085336 0.84236586 -0.41741908 0.0018405475
-0.054689754 -0.15672567 0.27449137 0.320373 0.86721516 -0.38118112 0.0024345259
-0.046904344 -0.15799418 0.27855948 0.26378572 0.86182559 -0.43321332 0.0029794162
0.045548618 -0.15866412 0.27852854 -0.24734421 0.87867665 -0.40834802 0.0025576001
0.056400109 -0.15548916 0.27563688 -0.31808618 0.85323566 -0.41329169 0.0021009948
0.064434975 -0.15218094 0.27562854 -0.35754552 0.83558547 -0.41708285 0.0014901068
0.071281917 -0.15045103 0.2731753 -0.38882414 0.84009808 -0.37822077 0.0027261467
-0.084961042 -0.14327674 0.27486077 0.47560129 0.77751315 -0.41143259 0.0026331733
-0.077163294 -0.14656599 0.27633643 0.4174062 0.80936998 -0.41314924 0.0024678761
-0.068658397 -0.14889468 0.27892935 0.36872688 0.82653672 -0.4252972 0.0025376927
0.06686227 -0.14926122 0.27960029 -0.36863199 0.82160491 -0.43482855 0.0019244833
0.075001329 -0.1477114 0.2757526 -0.40980855 0.81487727 -0.40991715 0.0025235929
0.084556043 -0.14401758 0.2743986 -0.47220537 0.79182792 -0.38733783 0.0027114113
-0.10136189 -0.13204487 0.27272743 0.56420118 0.7337181 -0.37859577 0.0017819706
-0.095933259 -0.1357965 0.27351561 0.53008366 0.75515902 -0.38567629 0.0017060438
0.093751565 -0.1369413 0.27452397 -0.52784663 0.74861437 -0.40119135 0.0016425718
0.10197642 -0.13290994 0.27018228 -0.56852347 0.74161291 -0.35607773 0.002324482
-0.11382397 -0.12312272 0.2715081 0.62291318 0.68767494 -0.37293738 0.0025221235
-0.10664757 -0.12521082 0.27792609 0.58697313 0.69397873 -0.41696054 0.0016643404
0.1049396 -0.1275894 0.27589235 -0.57459122 0.70447576 -0.41660401 0.0013333756
0.11272541 -0.12250841 0.27428377 -0.61992246 0.6772992 -0.39618424 0.002449438
-0.12207736 -0.11276671 0.27504379 0.67586851 0.61623234 -0.40430117 0.0023898175
-0.11679952 -0.11631841 0.279625 0.6397236 0.64228135 -0.42217094 0.0026993044
0.11763561 -0.11829078 0.27504322 -0.63961762 0.66245133 -0.38993287 0.0027847735
0.12089734 -0.11508545 0.27390337 -0.67805856 0.62726039 -0.38312021 0.0031077866
-0.12688698 -0.10608653 0.27564612 0.70682645 0.57762873 -0.40833992 0.0016178037
0.12664689 -0.10616517 0.27596542 -0.71292549 0.57104093 -0.4070006 0.001974788
0.13064189 -0.10430253 0.27110285 -0.73785979 0.57757282 -0.34924573 0.0020916986
-0.1354171 -0.09440507 0.276407 0.75011778 0.51866108 -0.41026095 0.0017128049
0.13358274 -0.096363917 0.2769466 -0.73714221 0.5325802 -0.41590825 0.0015074465
0.14151819 -0.090457112 0.27062258 -0.7831232 0.5130223 -0.35146287 0.0026876053
-0.14355676 -0.084097631 0.27545652 0.78481245 0.4687598 -0.4053809 0.0023621442
0.1430413 -0.085204333 0.2746889 -0.78532034 0.47262564 -0.39987117 0.0024004038
-0.15154694 -0.070295289 0.27165097 0.84493208 0.38364062 -0.37270585 0.0026511659
-0.14763428 -0.075367533 0.27563274 0.81766874 0.41098872 -0.4031204 0.0023784698
0.14751722 -0.075491734 0.27581492 -0.81617063 0.41588366 -0.40113112 0.0020234634
-0.15309459 -0.064863168 0.27320865 0.85324949 0.35746238 -0.3797183 0.0017543023
-0.1498286 -0.069117337 0.27654368 0.8314451 0.38481742 -0.40076751 0.0020470144
0.14802879 -0.069963351 0.27950817 -0.81685066 0.38524655 -0.42934856 0.0021110605
0.15238264 -0.064057045 0.27549899 -0.84736592 0.35556829 -0.39438844 0.0020097953
-0.15535335 -0.056786519 0.2754381 0.85769415 0.3256281 -0.39790347 0.0019323574
0.1561348 -0.056170389 0.27445251 -0.86525518 0.32251978 -0.38381568 0.0020673317
-0.16305456 -0.041638028 0.27121288 0.90786362 0.22947243 -0.35089323 0.0028875782
0.15886149 -0.047804359 0.27608818 -0.87694192 0.27977431 -0.39076734 0.0023898985
0.16173995 -0.043015126 0.27348328 -0.891738 0.23813626 -0.38483039 0.0024293335
-0.16237354 -0.032244004 0.27577662 0.89801371 0.16582811 -0.4075197 0.0021948812
0.16210234 -0.035978585 0.27516532 -0.8957392 0.1994395 -0.39733514 0.0024297736
-0.16359603 -0.023844689 0.27549028 0.91440141 0.12344673 -0.38552681 0.001712176
0.16415563 -0.022687638 0.27449626 -0.91516095 0.12677552 -0.38263348 0.0020181576
-0.16457014 -0.01644375 0.27549943 0.9158783 0.11152771 -0.38565341 0.0016327041
0.16503637 -0.016365988 0.27441588 -0.92331868 0.10139945 -0.37040609 0.0018555622
-0.16593598 -0.003668281 0.27620283 0.91145694 0.014448652 -0.41114166 0.0028949799
0.1657545 -0.0015268931 0.27720934 -0.91308236 0.0081334831 -0.40769419 0.0027745864
-0.16752304 0.00063546794 0.2734248 0.91876811 0.001644766 -0.3947942 0.0031979815
0.16500938 0.0059795096 0.27773407 -0.90949523 -0.037000526 -0.41406453 0.0025385052
-0.16492382 0.014140843 0.2753306 0.91237652 -0.089949541 -0.39934728 0.001819147
0.16371897 0.015245077 0.27771637 -0.90184522 -0.095472887 -0.42137888 0.0019187526
-0.16461319 0.024003673 0.27302855 0.92062515 -0.13353142 -0.3669042 0.0015846277
0.16334136 0.025137145 0.27569354 -0.90889394 -0.13663527 -0.39400819 0.0020087422
-0.16219433 0.035758127 0.27506042 0.89891404 -0.1952877 -0.39219415 0.0027825707
-0.15972893 0.038207199 0.27986336 0.87277555 -0.20088705 -0.4448677 0.0028783025
0.16234514 0.033988442 0.27529928 -0.90171731 -0.17785332 -0.39404839 0.0025154983
-0.16144127 0.042604726 0.2747317 0.89470458 -0.23299445 -0.3810738 0.0028261647
-0.1584041 0.046536904 0.2782681 0.87042224 -0.25307131 -0.42227957 0.0031700949
0.15817396 0.047990639 0.27731445 -0.86412537 -0.27988619 -0.41827151 0.0024102724
0.16127072 0.044044342 0.27384865 -0.8879261 -0.24257436 -0.39082593 0.0026358226
-0.15602875 0.055969179 0.27487153 0.86040485 -0.33232239 -0.38634878 0.0017122659
0.15481228 0.058026109 0.27568087 -0.85244817 -0.32572636 -0.40894315 0.0021370137
-0.15272535 0.064175092 0.27463093 0.84807891 -0.35399646 -0.39426979 0.0017258476
0.15324976 0.062497761 0.27503833 -0.84845126 -0.3464492 -0.40012929 0.0022755463
-0.15028387 0.070109293 0.27462283 0.83599013 -0.38403016 -0.3919712 0.0018105668
-0.14757416 0.075526088 0.27565622 0.82058078 -0.41026604 -0.3979058 0.0021767188
0.1470018 0.073304281 0.27881354 -0.8191005 -0.39274487 -0.41812167 0.0024548238
-0.14403796 0.083287813 0.27541155 0.80540365 -0.44579482 -0.39063025 0.002338415
-0.13749042 0.089308836 0.27967733 0.75610542 -0.48872951 -0.43525627 0.0021734361
0.13711733 0.089531682 0.27998626 -0.75081658 -0.49829012 -0.4335683 0.0026340282
0.14355209 0.084136039 0.2754775 -0.79374623 -0.46285379 -0.39463049 0.00287241
-0.13390632 0.096779063 0.27583453 0.73687327 -0.54369736 -0.4017598 0.0019723112
0.13539898 0.09500023 0.27563247 -0.75013399 -0.53145558 -0.3935149 0.0024773588
-0.12795267 0.10441402 0.27596149 0.70194894 -0.57704586 -0.41747543 0.0016945007
0.12728074 0.1055968 0.27557671 -0.71037334 -0.57759017 -0.4021931 0.0020112095
0.13239108 0.10038716 0.27349347 -0.7309922 -0.56285304 -0.38580686 0.0026488244
-0.1229289 0.11433268 0.27113384 0.68357849 -0.63555539 -0.35887301 0.0026235122
-0.11750565 0.1180732 0.27553517 0.64489257 -0.65581578 -0.3924529 0.0027056236
0.11917402 0.11680581 0.27464294 -0.66121572 -0.638946 -0.39311814 0.0026034652
0.12250473 0.11241499 0.27474475 -0.68988943 -0.61350167 -0.38427639 0.0023017207
-0.11001188 0.12152563 0.27979761 0.59859842 -0.67546487 -0.43061262 0.0026902542
-0.10678205 0.12536062 0.27750322 0.58815986 -0.69247895 -0.41778085 0.0023043777
0.10691385 0.12807995 0.27216572 -0.59188455 -0.71825421 -0.36576417 0.0020517325
0.11508572 0.12059161 0.27448517 -0.62891918 -0.66958255 -0.39512017 0.002746959
-0.10209813 0.13143106 0.2728205 0.5737378 -0.73263729 -0.3661525 0.0019585947
-0.096918106 0.13384381 0.27573276 0.54447287 -0.73823553 -0.39819279 0.0016583374
-0.087905727 0.13930549 0.27855039 0.50270087 -0.76125151 -0.40961927 0.0024547414
0.094410121 0.13640362 0.27458584 -0.52780473 -0.75309581 -0.39277083 0.0016112138
0.10297062 0.13096049 0.27244222 -0.57536107 -0.72993749 -0.36898616 0.001968699
-0.09154506 0.14020184 0.2715385 0.52574122 -0.76993859 -0.36165014 0.0024638867
-0.086301625 0.14307073 0.27333054 0.48521191 -0.79058957 -0.37354726 0.0026761121
-0.07487487 0.14733338 0.27677462 0.40186805 -0.81875604 -0.41004962 0.0026035761
0.076437593 0.14802681 0.27381542 -0.41492531 -0.82443404 -0.38489673 0.0027901586
0.084181584 0.14461301 0.27339053 -0.46479571 -0.79791689 -0.38378859 0.0028253265
-0.072013102 0.15091795 0.27146778 0.39771315 -0.85596859 -0.33036658 0.0017776475
-0.06173541 0.15354556 0.27506492 0.35266253 -0.85057837 -0.39005837 0.0024371853
-0.055144954 0.15657295 0.27441996 0.30545634 -0.87469757 -0.37629855 0.0018958484
-0.047249548 0.15858892 0.27718893 0.26996914 -0.8716042 -0.40917328 0.0026897423
0.043730602 0.15928167 0.27845791 -0.24397105 -0.8768121 -0.41434121 0.0025961807
0.055902954 0.15567748 0.27564824 -0.3246659 -0.85269445 -0.40927291 0.0021079665
0.066263944 0.15129128 0.27592137 -0.35524946 -0.84391648 -0.40199855 0.0016386516
0.070256121 0.15184152 0.27103382 -0.3774927 -0.85491341 -0.35584021 0.0019812784
-0.044088118 0.16081591 0.27486295 0.24735601 -0.89405131 -0.37347981 0.0025981909
-0.031356189 0.16197713 0.27692375 0.16161455 -0.90007174 -0.40466231 0.0023132418
-0.026773354 0.16390592 0.27383435 0.14557382 -0.91553283 -0.37497708 0.0021505544
-0.015523313 0.16515839 0.2743409 0.095658287 -0.9232772 -0.37203327 0.0014618821
-0.0073749311 0.16664651 0.27339977 0.053524449 -0.92608786 -0.37349218 0.0024914106
0.0049810219 0.16563295 0.27642924 -0.039571844 -0.91158241 -0.40920851 0.0022885927
0.013439029 0.16568471 0.27377853 -0.076115295 -0.91632932 -0.39312482 0.0021355867
0.025601178 0.16344397 0.27524075 -0.1448354 -0.90528613 -0.39934912 0.002331079
0.033908125 0.16122024 0.27789116 -0.18084908 -0.89232391 -0.41358393 0.0021991942
0.043962523 0.16145673 0.27337679 -0.24881931 -0.88858205 -0.385371 0.0025757113
-0.030048393 -0.16053674 0.28037167 0.15632795 0.88744026 -0.4336029 0.0024378707
-0.013241899 -0.16177779 0.2822243 0.080424741 0.8893671 -0.45006445 0.002386967
-0.0034391903 -0.16315421 0.28206053 0.02411399 0.88629729 -0.46248847 0.0026206684
0.0050691436 -0.16349088 0.2810095 -0.03577679 0.89447409 -0.44568604 0.0031940469
0.013775853 -0.16064456 0.28425151 -0.085557811 0.87964225 -0.46787757 0.0024325699
0.023555435 -0.16029213 0.28246835 -0.12426186 0.87874895 -0.46082446 0.0015561539
-0.052938886 -0.15304564 0.28312376 0.30496216 0.83049345 -0.46613166 0.0023455536
-0.044656347 -0.15493838 0.28564757 0.24884947 0.83540362 -0.4900763 0.0030710164
-0.035881702 -0.15665723 0.2860904 0.19460285 0.85243642 -0.48526475 0.0026142148
-0.027275711 -0.15682109 0.28785565 0.13929512 0.85584158 -0.49812847 0.0016115534
-0.014166868 -0.15875405 0.28760046 0.086925425 0.85820204 -0.50589854 0.0022531678
-0.0070388969 -0.15907338 0.28863037 0.047410764 0.86507064 -0.49940461 0.0025971357
0.0073508425 -0.15901029 0.288665 -0.056687612 0.85227638 -0.52001107 0.0023783925
0.017670773 -0.15794635 0.2882033 -0.10418265 0.85525209 -0.5076316 0.0015292806
0.023725335 -0.15782319 0.287018 -0.12055616 0.85976744 -0.49625212 0.0013027437
0.034296688 -0.15763992 0.28474343 -0.1761211 0.86242574 -0.47455573 0.0026551734
0.045677651 -0.15585931 0.28340536 -0.25906894 0.85007864 -0.4585298 0.0024823386
0.05307021 -0.15385446 0.28158998 -0.30125573 0.84671116 -0.43854889 0.0019442175
-0.080463037 -0.14249876 0.28160602 0.4370769 0.77884817 -0.44984365 0.0027735895
-0.07538759 -0.14186786 0.28635436 0.39882302 0.77455038 -0.49092975 0.0027244962
-0.064993113 -0.14586341 0.28681609 0.34454373 0.79321462 -0.50209564 0.0021440284
-0.057711955 -0.14857684 0.28731751 0.31738001 0.81195378 -0.48989877 0.0016842292
0.066657074 -0.1461397 0.28528991 -0.35314298 0.80325741 -0.47965369 0.0026516931
0.07548961 -0.14284816 0.28461918 -0.40095583 0.77866662 -0.48261032 0.0030105701
0.080582745 -0.14048044 0.28510484 -0.44337219 0.76124924 -0.47320259 0.002848279
-0.092521928 -0.13277376 0.2831125 0.51056033 0.72621012 -0.46037695 0.0021927699
-0.084966011 -0.13743737 0.28475565 0.46614429 0.74757111 -0.47312474 0.0025550269
-0.075135507 -0.1398342 0.28971776 0.40424073 0.75108469 -0.52197808 0.0029087283
0.07749898 -0.13942216 0.28889033 -0.40551966 0.75428975 -0.51633394 0.002931729
0.08539433 -0.13703749 0.28493524 -0.47045591 0.74658644 -0.47040394 0.0026759398
0.093954511 -0.132254 0.28222883 -0.53210443 0.72018045 -0.4452022 0.001974666
-0.10494494 -0.12280346 0.2837806 0.55956805 0.68306416 -0.46936873 0.0021098149
-0.094043344 -0.12909314 0.2868312 0.51666403 0.70220971 -0.48985693 0.0014893914
0.095266752 -0.12924655 0.28528157 -0.52318698 0.69659597 -0.49094743 0.0022917055
0.10168093 -0.1238981 0.28589085 -0.55053645 0.68330514 -0.47958693 0.0018534448
-0.11570186 -0.11310091 0.2846742 0.62815547 0.61200792 -0.48048612 0.0030993931
-0.10840929 -0.11860869 0.28595439 0.58276802 0.64744544 -0.49111706 0.002874129
0.10827085 -0.11898883 0.28570777 -0.58725584 0.6493156 -0.48323882 0.0024207777
0.1136677 -0.11624136 0.28319487 -0.6179657 0.63687062 -0.46099272 0.0027773706
0.12013645 -0.11049156 0.28135651 -0.66004395 0.59373999 -0.46023339 0.0027119631
-0.12333874 -0.10367694 0.28436291 0.67132217 0.56403321 -0.48082539 0.0018741282
-0.11588873 -0.10813137 0.28999594 0.6352396 0.57761949 -0.51266593 0.0028684156
0.11751163 -0.10804284 0.28793982 -0.64397269 0.58573049 -0.49215746 0.0023013027
0.12643598 -0.1012378 0.28257892 -0.69793421 0.54742032 -0.46175632 0.0017141636
-0.13165134 -0.093225271 0.28398582 0.711528 0.51302654 -0.48013705 0.0015169114
-0.12406537 -0.09853486 0.28897685 0.68095464 0.52358752 -0.51201254 0.0022359986
0.1283865 -0.0992736 0.28190231 -0.7122972 0.54040223 -0.44788185 0.0018360276
0.13096783 -0.093115158 0.28517431 -0.71613628 0.50659299 -0.48011699 0.0018924816
-0.14177904 -0.080874562 0.28258204 0.77093458 0.43735379 -0.46301347 0.002509645
-0.13566135 -0.086436339 0.28578472 0.7335335 0.47374621 -0.48733264 0.002421282
0.13446374 -0.086094812 0.2878899 -0.71968079 0.47947842 -0.5021553 0.0021863014
-0.14182454 -0.073426284 0.28765035 0.77636826 0.38359034 -0.50011069 0.0026822756
0.13895904 -0.07795018 0.28929365 -0.75228292 0.41398284 -0.51253164 0.0025956044
0.14384049 -0.075370774 0.28297067 -0.78509468 0.41576725 -0.45909032 0.0026324287
-0.14699329 -0.06421864 0.28547275 0.79617524 0.34005684 -0.50046617 0.0020484768
0.14703223 -0.06419085 0.28540787 -0.81028575 0.34141284 -0.47631323 0.0021459369
0.15056854 -0.060761444 0.28176841 -0.8187837 0.32915333 -0.47037366 0.0021333513
-0.15155551 -0.052016452 0.28645051 0.82624638 0.28045753 -0.48852894 0.0019700462
-0.14898111 -0.056881171 0.28739691 0.81299096 0.31080085 -0.49239069 0.0019616694
0.14871483 -0.056263041 0.28816599 -0.80840653 0.30687201 -0.50230318 0.0021462175
0.15227877 -0.054430332 0.28338957 -0.82602763 0.30614245 -0.47323897 0.0024718188
-0.15580054 -0.042922463 0.28540325 0.85242361 0.23973618 -0.46465111 0.002226661
0.15424146 -0.04430655 0.28712681 -0.83143914 0.22938718 -0.50605386 0.0025629855
-0.15699704 -0.0353272 0.28565246 0.85088491 0.19182988 -0.48907691 0.0023878976
0.15699653 -0.034483839 0.2858915 -0.85541171 0.17436177 -0.48771781 0.0023136979
-0.16055116 -0.025768772 0.28141814 0.88749093 0.14300184 -0.43807566 0.0026069132
-0.15926236 -0.025107419 0.28404203 0.8689149 0.13142641 -0.47719383 0.0023331665
0.15841812 -0.025417902 0.28552818 -0.86557454 0.13125226 -0.48327368 0.0018100434
-0.15885413 -0.014628403 0.28736091 0.86684042 0.076457769 -0.49268845 0.0018646235
0.15772736 -0.018227171 0.28843227 -0.85827512 0.10284829 -0.50277829 0.0018903264
0.16127631 -0.016198626 0.28243938 -0.88121891 0.098135389 -0.46240973 0.0022859122
-0.1634948 -0.0040319501 0.28126192 0.8945753 0.022178499 -0.44636661 0.0023386357
-0.15910147 -0.0059910775 0.28880218 0.85940832 0.040627848 -0.50967306 0.0024547344
0.15914688 -0.0022518584 0.28950328 -0.84424883 0.0058915867 -0.53591901 0.0024239521
0.16258913 -0.006529511 0.28236336 -0.89133829 0.047246639 -0.4508701 0.0028986649
-0.16167593 0.0046898588 0.2845653 0.88686395 -0.039210949 -0.46036363 0.0027021172
0.1582931 0.009239289 0.28939968 -0.84829223 -0.05363832 -0.52680475 0.0021947781
0.16183223 0.0071639619 0.28364751 -0.87452483 -0.041931994 -0.48316455 0.00254734
-0.16087912 0.01310941 0.28397101 0.8766399 -0.081705563 -0.47415879 0.0017157664
-0.15759626 0.014914228 0.28931996 0.85309744 -0.082259052 -0.51522642 0.0023119838
0.15850008 0.013223043 0.28820127 -0.85649127 -0.069405138 -0.51147395 0.002491574
0.1617385 0.015932508 0.28162482 -0.89057636 -0.10067446 -0.44355208 0.0023239013
-0.16030118 0.021171475 0.28304908 0.87527287 -0.11205538 -0.47046897 0.0018854293
-0.15922588 0.026248869 0.28382498 0.87569261 -0.12924455 -0.46525082 0.0022774818
0.15737016 0.025546957 0.28730264 -0.8483668 -0.13242055 -0.51258028 0.0025845165
0.16049363 0.02467115 0.28180483 -0.88910246 -0.12980588 -0.43891606 0.0017889398
-0.15566088 0.036022358 0.28797844 0.84345603 -0.18594909 -0.50398892 0.0027748174
0.15856323 0.032045778 0.28363466 -0.86657768 -0.17231041 -0.46835065 0.0026536712
0.16013502 0.030961951 0.28090933 -0.8887108 -0.15681233 -0.43081665 0.0021407353
-0.15381584 0.046050396 0.28655553 0.82868505 -0.25706053 -0.49719319 0.0026490483
0.15616585 0.042360757 0.28536627 -0.83786255 -0.23072042 -0.49472654 0.0023842244
-0.15305804 0.05384611 0.28241658 0.83250844 -0.30006981 -0.4657121 0.0024814459
-0.1480044 0.058169968 0.28804922 0.8028574 -0.31134436 -0.50841391 0.0022162793
0.14937089 0.059632901 0.28472742 -0.81974137 -0.31977633 -0.47514966 0.0022543257
-0.14728828 0.064092048 0.28504792 0.80411136 -0.34121642 -0.48680207 0.0020355748
0.14627306 0.066284314 0.28524294 -0.80071408 -0.35110497 -0.48536828 0.0021340607
-0.14249755 0.075195253 0.28541735 0.77341098 -0.40689272 -0.48607993 0.0028733872
-0.1384578 0.078727044 0.28955519 0.74062878 -0.41720676 -0.52669483 0.0026705088
0.13838568 0.07824941 0.28994966 -0.74491656 -0.41985458 -0.51847982 0.0029928409
0.14316353 0.072351649 0.28621972 -0.77616668 -0.38519385 -0.49919045 0.0027967743
-0.13462119 0.087870568 0.28550789 0.7235021 -0.48246673 -0.49373132 0.0022859634
0.13716187 0.085768312 0.284325 -0.74026638 -0.46602428 -0.48458961 0.0030050934
0.14114359 0.0822234 0.28239977 -0.76825833 -0.44390509 -0.46122384 0.003071263
-0.13306557 0.093108155 0.2819632 0.7157234 -0.50658017 -0.48074591 0.0017444598
-0.12822434 0.095779054 0.28602892 0.69290859 -0.51621222 -0.50339121 0.001707266
0.12740344 0.096533343 0.286506 -0.68783045 -0.52705079 -0.49910593 0.001660064
0.13114446 0.094832569 0.28288493 -0.71124572 -0.52665937 -0.46557423 0.0023612052
-0.12345695 0.104919 0.28271967 0.68204844 -0.56494039 -0.46438369 0.0022794718
-0.11970093 0.10679241 0.28614628 0.65636915 -0.56910163 -0.49528065 0.0024704821
0.11893125 0.10746422 0.28674012 -0.65773153 -0.56679857 -0.49611363 0.0024409092
0.12227972 0.10604721 0.28328973 -0.67790097 -0.574512 -0.45867878 0.0029777733
-0.11316653 0.11451428 0.28649014 0.61306655 -0.61493862 -0.49598387 0.0030201268
-0.10660537 0.11874684 0.28773752 0.57992125 -0.63863468 -0.50580341 0.0028016772
0.10886742 0.11947358 0.28426951 -0.57798254 -0.66147029 -0.47790501 0.002699961
0.11312914 0.11671076 0.28347045 -0.61352044 -0.63295192 -0.47219113 0.002827222
-0.11088514 0.1205757 0.28022465 0.60154736 -0.6699025 -0.4351683 0.0024996868
-0.10403231 0.12318378 0.28422987 0.56600332 -0.66877848 -0.48205364 0.0021420789
-0.0976509 0.1275923 0.28501374 0.52724308 -0.69834191 -0.48407975 0.002307072
0.095457956 0.12862723 0.28590202 -0.51667941 -0.69571853 -0.49901724 0.0022156236
0.10246778 0.12308746 0.28612396 -0.5499689 -0.67354035 -0.49383959 0.0022714015
-0.09276817 0.13184182 0.28424639 0.50896823 -0.70970803 -0.48709944 0.002266241
-0.084307164 0.13773787 0.28515631 0.46501771 -0.74915844 -0.47172043 0.0031016329
-0.079340085 0.13950823 0.28765118 0.42119101 -0.75326735 -0.50515985 0.0028276888
0.078065127 0.13990383 0.28779733 -0.41102046 -0.7595073 -0.50419331 0.0028041115
0.088100366 0.13203573 0.28902268 -0.48359224 -0.71022278 -0.51158774 0.0025311117
0.094639897 0.13194419 0.28189886 -0.53361046 -0.71548778 -0.45092911 0.0018919626
-0.081481986 0.14093779 0.28358132 0.43896988 -0.76901108 -0.46467999 0.0031707964
-0.07525792 0.14173041 0.28660861 0.39322302 -0.76857013 -0.50465399 0.0028522643
-0.067495048 0.14755881 0.28215951 0.36469549 -0.81233937 -0.45508468 0.0022684985
-0.054828703 0.14922017 0.2882472 0.29753733 -0.80797559 -0.50857359 0.0020036085
0.05812043 0.14973852 0.28518683 -0.3152318 -0.8133983 -0.48888871 0.0019070936
0.063385487 0.14715259 0.28590667 -0.33980647 -0.79962343 -0.49511018 0.0023186372
0.076160006 0.14192852 0.28571248 -0.40400743 -0.77064431 -0.49283403 0.0026138804
0.081259593 0.14180765 0.28224808 -0.44328132 -0.77569288 -0.44922403 0.0026351665
-0.060447223 0.15125674 0.2807759 0.33590487 -0.83433682 -0.4370926 0.0022306717
-0.053372502 0.15195194 0.28472579 0.28740406 -0.8208921 -0.49349272 0.0020680132
-0.044824928 0.15553738 0.28450793 0.24478434 -0.84702379 -0.47183818 0.0028171754
-0.033312872 0.15837663 0.28357235 0.17590721 -0.86343575 -0.47279531 0.0022339032
-0.026079794 0.15796612 0.2861307 0.14405906 -0.8610487 -0.48769069 0.0021927697
-0.015040228 0.1583263 0.28815067 0.09501034 -0.85660672 -0.50714684 0.0023638946
-0.0041319453 0.15913987 0.28912592 0.033341352 -0.86015689 -0.50893855 0.0024678416
0.01537083 0.15877762 0.28735185 -0.078644216 -0.86270434 -0.49955618 0.0019183749
0.023382509 0.15813148 0.28650576 -0.11942586 -0.86238647 -0.49196249 0.0021178499
0.034742456 0.15741405 0.2851482 -0.19522391 -0.85405767 -0.48215464 0.0024502655
0.045736104 0.15464726 0.28536332 -0.25329638 -0.83433944 -0.48961067 0.0026085381
0.054137558 0.15183657 0.28429195 -0.30686003 -0.81426519 -0.49275666 0.0020426684
-0.031860396 0.16006148 0.28082317 0.17246975 -0.87906045 -0.44441751 0.0025696373
-0.025995921 0.1612467 0.28003523 0.14068416 -0.89537239 -0.42251179 0.0019166804
-0.013137517 0.16159324 0.28260267 0.072989948 -0.88366586 -0.46239284 0.0023095163
-0.005752888 0.16237688 0.28296223 0.038069479 -0.88869053 -0.45692438 0.0024901808
0.0066488832 0.1624826 0.2825357 -0.049027264 -0.89314592 -0.44708696 0.0017907534
0.019478315 0.16109222 0.28196609 -0.10857657 -0.88037127 -0.46168983 0.0014151579
0.024947006 0.16042711 0.28186154 -0.13328694 -0.88329422 -0.44947287 0.0020529986
-0.043632351 -0.15151671 0.29171258 0.24716058 0.81373572 -0.52606642 0.0027083862
-0.033674967 -0.15287511 0.29273558 0.17051131 0.8161971 -0.5520401 0.002461439
-0.024725715 -0.15265268 0.29489988 0.12976418 0.81152904 -0.56972086 0.0020347515
