# .PCD v0.7 - Point Cloud Data file format
VERSION 0.7
FIELDS x y z normal_x normal_y normal_z curvature
SIZE 4 4 4 4 4 4 4
TYPE F F F F F F F
COUNT 1 1 1 1 1 1 1
WIDTH 555
HEIGHT 1
VIEWPOINT 0 0 0 1 0 0 0
POINTS 555
DATA ascii
0.1319482 0.042804461 -0.02490871 -0.95416069 -0.2992914 0.0014286527 0.0027853476
-0.12619375 0.056160916 -0.024925934 0.90970016 -0.41523731 -0.0048561711 0.001409375
0.12658766 0.054789476 -0.025763229 -0.91446477 -0.40465939 0.0022422837 0.00066176505
-0.12282068 0.064685665 -0.023005659 0.88425314 -0.46697417 0.0056117997 0.0021197251
0.1198893 0.069765642 -0.021611162 -0.8639549 -0.50355595 0.0036451439 0.0023590543
0.12251435 0.063896567 -0.025122758 -0.88126045 -0.47261268 0.0041583427 0.0016737276
-0.11615408 0.07475888 -0.024658693 0.84262818 -0.53848779 -0.0029265422 0.0016582955
0.11592805 0.075860813 -0.025808444 -0.83087695 -0.55645591 0.00067227572 0.0021572665
-0.11177769 0.08080405 -0.025858499 0.80533522 -0.59281909 0.00078364916 0.0013006177
-0.10826056 0.085662313 -0.026759213 0.78172958 -0.62361008 -0.0030356955 0.0014581935
0.10806996 0.085715137 -0.026900603 -0.79075378 -0.61212361 -0.0036325518 0.00081990485
0.11098441 0.082128599 -0.02502252 -0.79617375 -0.60506755 -0.00069805514 0.0010399455
-0.10259241 0.093457647 -0.024937494 0.73329437 -0.67973697 -0.015397307 0.002055946
-0.098712943 0.097507872 -0.024260387 0.72707975 -0.68654329 -0.0036367914 0.0022584477
0.098795108 0.097128868 -0.024420794 -0.71532875 -0.69873309 0.0087657915 0.0022569043
0.10208382 0.09308175 -0.025227662 -0.7330572 -0.68015474 0.0040874686 0.0022113065
-0.093073845 0.10209024 -0.02402629 0.68661827 -0.72701168 -0.0030617502 0.0020155988
-0.086691119 0.10727686 -0.024657285 0.61560684 -0.78805274 -0.0010023041 0.0008780717
0.086226344 0.10785224 -0.02696855 -0.6203475 -0.784325 -0.0018097804 0.0010472203
0.093545258 0.10236159 -0.028430007 -0.68014169 -0.7330634 -0.0050394749 0.0023474249
-0.080929399 0.11195888 -0.024269775 0.5914517 -0.80633605 -0.0026601006 0.0015121038
-0.074982665 0.11661805 -0.024452044 0.53592795 -0.84416085 -0.013183444 0.0023107061
0.074307911 0.11648054 -0.025453577 -0.54179287 -0.84051138 0.0010587065 0.001146799
0.080371857 0.11209057 -0.025863025 -0.59205675 -0.80589247 -0.0024943657 0.00096486299
-0.064367861 0.12230356 -0.025105329 0.47308239 -0.88098758 -0.0073385299 0.0015352463
-0.055080853 0.12645733 -0.024248764 0.40393135 -0.91476846 -0.0061718086 0.0014976081
-0.049187616 0.12909321 -0.027267106 0.3625381 -0.93196857 -0.00077498925 0.0014104191
0.046444006 0.12990478 -0.025311368 -0.33207813 -0.94323945 -0.004836502 0.00058595726
0.054051131 0.12699953 -0.023241049 -0.37656915 -0.92638099 0.0037240938 0.0014533075
0.065130517 0.1224701 -0.024213698 -0.47184533 -0.88168132 -7.4929696e-05 0.0020311859
-0.046587132 0.13025633 -0.024399815 0.3387107 -0.94088912 -0.0016219547 0.0012235169
-0.035730254 0.13395271 -0.023311483 0.25835732 -0.96604681 -0.0022603073 0.0017216154
-0.026561528 0.13542967 -0.023517637 0.20884308 -0.97794712 0.0019985216 0.0012586489
-0.014777803 0.1373166 -0.025801234 0.0988205 -0.99510467 -0.0011050325 0.0013806389
-0.0048959814 0.13871278 -0.025420517 0.03543774 -0.99929911 -0.012060542 0.002186018
0.0052306489 0.13812022 -0.026119515 -0.053111788 -0.99858153 -0.0037616764 0.0013643547
0.013511339 0.13726412 -0.024033006 -0.095176034 -0.99545801 0.0022138667 0.0013367375
0.026038855 0.13596897 -0.02320211 -0.20235637 -0.97928876 -0.0067372271 0.0021324421
0.035277478 0.13415495 -0.024168778 -0.27087438 -0.96259141 -0.0066964584 0.0019947963
0.041311029 0.13186513 -0.023602236 -0.29016477 -0.95697647 -0.0007127297 0.0018246865
-0.042421333 -0.1314411 -0.016282607 0.29541567 0.95536536 0.0025746736 0.0014895266
-0.036908582 -0.13354649 -0.013847898 0.27399075 0.96173239 0.00013568063 0.0017740072
-0.024970667 -0.13607939 -0.016122349 0.19507156 0.98078889 0.00059764297 0.0018935368
-0.014688361 -0.13714243 -0.016047336 0.10888203 0.99405152 0.0025172757 0.0011364423
-0.0065040141 -0.13798857 -0.012979373 0.05432108 0.99852228 -0.0015366602 0.001285066
0.0050596157 -0.13878009 -0.013585648 -0.049422849 0.99877608 0.0019125515 0.0017158954
0.013811276 -0.13747135 -0.015837889 -0.096792586 0.99530363 -0.001415267 0.0018533294
0.025537837 -0.13559359 -0.013737447 -0.20328408 0.97911948 -0.00078295293 0.00079421862
0.035684682 -0.13396047 -0.014913863 -0.24853313 0.96862131 -0.002023411 0.0014468445
0.042341162 -0.1321554 -0.015309819 -0.28894791 0.9573186 0.0070858914 0.0024990295
-0.057206631 -0.1257944 -0.014551354 0.41504228 0.90979928 -0.0022616701 0.0011459721
-0.048135221 -0.12925889 -0.017270451 0.35067347 0.93649769 -0.00023464537 0.0011264794
0.048997439 -0.12917827 -0.015456 -0.36303619 0.93175143 0.0066345055 0.0016719478
0.05464831 -0.12665081 -0.014479292 -0.40495658 0.91433144 -0.002876628 0.00042618479
0.063676134 -0.12261295 -0.014281699 -0.46672583 0.88428092 -0.014636925 0.00148306
-0.081055366 -0.11159575 -0.01036584 0.58969921 0.80762023 0.0021359138 0.00094175339
-0.073641993 -0.11696264 -0.014469439 0.52171558 0.85311937 -0.00050379243 0.0017446112
0.06973464 -0.11990316 -0.013796108 -0.50292283 0.86429703 -0.0076969666 0.002305208
0.075089492 -0.11654236 -0.014624769 -0.54111695 0.84091288 -0.0076136119 0.0024043568
0.081573151 -0.11143576 -0.016197428 -0.60339046 0.79743671 -0.0038299356 0.00094234751
-0.092837751 -0.10306593 -0.01572356 0.67959481 0.73356932 0.0051969285 0.0021067702
-0.08732073 -0.10705996 -0.015306977 0.63786823 0.77009809 -0.0085394392 0.0016712989
0.086248964 -0.10763617 -0.014391573 -0.61399597 0.78930467 0.0026357044 0.00092911167
0.093395323 -0.10182901 -0.014590619 -0.68197495 0.7313754 -0.00040418029 0.0019745794
-0.10166568 -0.093596324 -0.014935063 0.73330045 0.6799013 0.0021438254 0.001751346
-0.097867846 -0.098269962 -0.014649993 0.71099383 0.70319217 0.0029510295 0.0017387015
0.098237388 -0.097894318 -0.017627761 -0.70540398 0.7087999 -0.002803209 0.001979853
0.1027086 -0.093331344 -0.013653313 -0.73045456 0.68291163 0.008245307 0.002208218
-0.11147517 -0.081524648 -0.015449124 0.79952568 0.60061699 0.004237561 0.00078962359
-0.10701284 -0.087016039 -0.016633684 0.77411336 0.63304543 0.0013962195 0.0013024705
0.10776508 -0.086346745 -0.015400883 -0.78740871 0.61643142 2.7565242e-05 0.0014118335
0.11128281 -0.081487626 -0.01447906 -0.79744148 0.60338759 0.0032268728 0.00094127242
-0.11867043 -0.072062112 -0.012496439 0.85259694 0.52247918 0.0096983369 0.0025717593
0.11464983 -0.076836713 -0.015737133 -0.82810092 0.56057775 -0.0012315896 0.0012704058
-0.12218826 -0.064625651 -0.013993861 0.87837023 0.47790569 0.0084754666 0.0017883389
0.12277072 -0.06444069 -0.014101739 -0.88214147 0.47092515 0.00748104 0.0020931752
-0.12637772 -0.055258851 -0.014922248 0.91543359 0.40246907 0.00031937016 0.00035569968
0.12722543 -0.053459607 -0.013975528 -0.92013609 0.39159736 0.0010889946 0.001083118
-0.1320377 -0.042604316 -0.013146268 0.95472515 0.29743713 0.0055754134 0.0022642429
-0.12936145 -0.048587859 -0.013386369 0.93441278 0.35618615 0.0020492531 0.0014794543
0.12936719 -0.047851641 -0.013476963 -0.93883771 0.34434944 0.0027018108 0.00065924192
0.13080731 -0.044080831 -0.011337068 -0.9523139 0.30511969 -0.00034235214 0.0014056036
-0.13400404 -0.035464495 -0.013573995 0.9687795 0.24769096 0.010742316 0.0014842877
0.13370024 -0.036468677 -0.015589664 -0.96644562 0.25671232 0.0090341503 0.0017076691
-0.13570993 -0.024811333 -0.014172127 0.98045754 0.19673061 -0.00011824246 0.00074720429
0.13620991 -0.023708319 -0.012872033 -0.98255843 0.18595335 -0.00049029844 0.0016149131
-0.13744314 -0.013987464 -0.015080403 0.99535418 0.096146047 0.0051007993 0.0018558463
0.13699144 -0.016148841 -0.015316044 -0.99081624 0.13509037 0.0058121937 0.0010016327
-0.13863426 -0.0057928916 -0.013470793 0.99916631 0.04064095 0.0038531916 0.0019957181
0.13828596 -0.0036274022 -0.015338558 -0.99996179 0.0075173243 -0.0044641099 0.0020286795
-0.13797992 0.0065875305 -0.014202639 0.99884158 -0.047958042 0.0039340402 0.0013005735
0.13855532 0.00704192 -0.016219994 -0.99800205 -0.063142769 -0.0021957618 0.0022835843
-0.13716593 0.014461047 -0.014285251 0.99512875 -0.098583698 0.00033366526 0.00079707982
0.1372648 0.015101208 -0.015113136 -0.99200773 -0.126119 0.0038280564 0.0010851241
-0.13604571 0.025296615 -0.013464271 0.98061639 -0.19572364 0.0091540795 0.001561028
0.13555357 0.025787814 -0.013192805 -0.98292017 -0.18400458 -0.0032126738 0.0018960714
-0.13495454 0.032336794 -0.012717833 0.97380698 -0.22709677 0.011269168 0.0020831588
0.1338741 0.036275983 -0.015381265 -0.97039282 -0.24152924 -0.001161509 0.0018293126
-0.13088877 0.043867528 -0.01902372 0.94597316 -0.32424292 0.0011385073 0.00068335305
-0.12956043 0.047345657 -0.018026266 0.94114387 -0.33800635 3.7417562e-05 0.00071196421
0.12931308 0.048696011 -0.013551174 -0.93299574 -0.35987383 0.0031399264 0.0017708254
0.13201866 0.042646937 -0.015786422 -0.94952625 -0.31358445 -0.0080456967 0.002666052
-0.12672226 0.054777075 -0.014848906 0.91735661 -0.39806238 -0.0017984887 0.0010446268
0.12705329 0.053748421 -0.014495495 -0.9207328 -0.39019367 -0.00021668983 0.0011896861
-0.1226179 0.065065056 -0.014419894 0.879713 -0.47549897 0.0024201537 0.0021553049
0.11985933 0.069832638 -0.012417152 -0.86475801 -0.50218862 -0.00020065335 0.0024673343
0.12234675 0.064271286 -0.013302828 -0.8852669 -0.46503153 0.006945577 0.0013551938
-0.11555342 0.075588562 -0.014402904 0.8319537 -0.55484354 0.0012890691 0.0014184904
0.11679254 0.074853659 -0.015998354 -0.8422761 -0.53902727 0.0045449864 0.0025060736
-0.11121757 0.081577741 -0.015582598 0.79661417 -0.60448664 -0.001353242 0.00092293601
-0.10792205 0.086129889 -0.015664596 0.78724134 -0.61664331 -0.0014798631 0.0010521454
0.10786111 0.085972153 -0.015250988 -0.79119986 -0.61155593 -0.0014697041 0.00083093683
0.11088016 0.082256876 -0.015705481 -0.79652733 -0.60459763 -0.0024334458 0.000882869
-0.10197072 0.09424334 -0.015597831 0.72760576 -0.68597239 -0.0056339093 0.0024450868
-0.097297095 0.098658413 -0.016813075 0.70472491 -0.7094506 -0.0065358947 0.0023177713
0.09806107 0.098032176 -0.011738718 -0.70198226 -0.71218163 0.004260337 0.0020961217
0.10235424 0.092748962 -0.017224029 -0.74693143 -0.66489369 -0.0031262485 0.0017128425
-0.092701346 0.10239293 -0.01627389 0.6820091 -0.73134261 -0.0011985316 0.0017292748
-0.08656916 0.10737598 -0.013393116 0.61252761 -0.79044533 -0.0024742857 0.00093942293
0.086144224 0.10791168 -0.013406259 -0.62660176 -0.77933574 -0.0024762149 0.0012765311
0.094068706 0.10211654 -0.016139472 -0.67603976 -0.73686439 0.0010492818 0.0022603732
-0.082144462 0.1109715 -0.012379845 0.5982278 -0.80132586 0.00052971259 0.0013216765
-0.076187268 0.1157766 -0.014974303 0.54895961 -0.83584565 -0.002320677 0.0022100115
0.073344946 0.11717767 -0.014014981 -0.52025551 -0.85400385 0.0034267367 0.0017385483
0.081637599 0.11117425 -0.01495898 -0.60541594 -0.79590023 -0.003798672 0.0012969602
-0.064811282 0.12210524 -0.017054887 0.47657275 -0.87912083 -0.0050073168 0.0014551821
-0.055548206 0.12624831 -0.01443447 0.4028545 -0.91526347 0.0010290601 0.00058304885
-0.049866185 0.12878969 -0.01931753 0.36210719 -0.93213439 -0.0019649658 0.0017136101
0.048199594 0.1292343 -0.014653163 -0.34947845 -0.93694341 -0.0013306749 0.00092458224
0.058945067 0.12513046 -0.013081843 -0.43002179 -0.90272039 0.013311346 0.0018049577
0.064819925 0.12268204 -0.01450743 -0.46999064 -0.88261592 0.0098973308 0.0021954132
-0.043015156 0.13185397 -0.014574352 0.31466758 -0.94917411 0.0072661662 0.0018580433
-0.033723976 0.13428277 -0.014267449 0.25378776 -0.96725512 0.0030520794 0.0017743581
-0.025608649 0.13558225 -0.014331878 0.1978704 -0.98020613 0.0065730605 0.0009503857
-0.017681705 0.13685159 -0.016323242 0.13653293 -0.99062651 -0.0042334758 0.0010410463
-0.0041634548 0.13895431 -0.017567456 0.035797328 -0.9993549 -0.0029093868 0.0019673549
0.0052000913 0.13812336 -0.014535148 -0.049330905 -0.99877083 0.0048241834 0.00121247
0.016495286 0.13695562 -0.018301351 -0.14008532 -0.99012923 -0.004508229 0.0011245016
0.026537782 0.13591738 -0.016954172 -0.20180725 -0.97941977 -0.0032891056 0.0021647955
0.032970086 0.13490175 -0.016568394 -0.23641537 -0.97163504 -0.0057489309 0.0022942778
0.044518087 0.13064031 -0.01540679 -0.30494002 -0.95237064 -0.0013074008 0.001296154
-0.042767048 -0.13130906 -0.0067786677 0.32300615 0.94636089 -0.0082538342 0.0012653162
-0.034706153 -0.13436633 -0.0044449898 0.23731717 0.97142738 0.0030708618 0.0021293215
-0.026125398 -0.13596001 -0.0060613481 0.2001612 0.97974509 -0.0059228051 0.0018212997
-0.013000073 -0.13731697 -0.0059911287 0.08556056 0.99631381 0.0061770892 0.0010934367
-0.0061019263 -0.13803014 -0.0044315523 0.061438698 0.99808192 -0.0075918389 0.0011996663
0.0047180615 -0.13879843 -0.0070395404 -0.038869213 0.99921972 -0.0070136152 0.0019605616
0.014969155 -0.13728595 -0.0058407541 -0.10552149 0.99441612 0.0013311575 0.0014839735
0.023856062 -0.13586289 -0.0045706523 -0.19128963 0.98153365 7.447508e-05 0.00082569034
0.035628587 -0.13397375 -0.0050278627 -0.25154063 0.96783835 0.0040304614 0.0018175277
0.045380015 -0.13079622 -0.0047850544 -0.33484021 0.94227403 0.0012997524 0.0018734141
-0.064252354 -0.12307884 -0.0074050995 0.46310839 0.88626486 0.0080842962 0.0023158097
-0.054844771 -0.12669642 -0.0052379617 0.4002409 0.916408 0.0018939461 0.00065934547
-0.049088582 -0.12889478 -0.0065251458 0.36565453 0.93074018 -0.0044214511 0.0012834722
0.047934841 -0.12965353 -0.0027118511 -0.34292024 0.93936265 -0.0018999483 0.001692331
0.054147679 -0.12687472 -0.0016540589 -0.39425838 0.91896796 -0.0076300795 0.001102582
0.064372443 -0.12230151 -0.0050826301 -0.47873831 0.87792504 -0.0075692665 0.0017900894
-0.074453965 -0.1163748 -0.0047492022 0.52856106 0.84889299 0.0019769 0.0017298589
-0.069867201 -0.11969538 -0.0052429866 0.50402677 0.86368775 0.00070624257 0.0023313616
0.075672314 -0.11623081 -0.004108231 -0.55613309 0.83108807 -0.002954311 0.0019383776
0.081041723 -0.11186759 -0.0046021058 -0.60237169 0.79821432 0.0014959434 0.00086393667
-0.093017697 -0.10293565 -0.0051619499 0.66472417 0.74708551 -0.0022265452 0.0021394223
-0.086115465 -0.1079325 -0.0049599432 0.62761045 0.77846032 -0.010227892 0.0015544749
0.086823933 -0.10716894 -0.0042183436 -0.62821579 0.77803284 0.0031479937 0.0012341049
0.094056897 -0.10129141 -0.0072413073 -0.69187731 0.72201502 -0.00030334451 0.0018659829
-0.10305835 -0.091882475 -0.0042979708 0.75488418 0.65581125 -0.0078322524 0.0012644753
-0.09853068 -0.09745428 -0.006621317 0.71636468 0.69766945 -0.008883181 0.0017756959
0.099619344 -0.09677133 -0.0015870966 -0.72294182 0.69090354 0.0027408986 0.0022057598
0.10241403 -0.09373825 -0.0052491855 -0.72510678 0.68863636 -0.00017517729 0.0023142358
-0.11170487 -0.081241973 -0.0056187008 0.79854572 0.60191703 0.0045354362 0.00081960682
-0.10689688 -0.08715874 -0.0046864399 0.77236831 0.63517267 -0.0016666 0.001646045
0.10784165 -0.086240977 -0.0041397517 -0.78279114 0.6222685 0.0044719945 0.0015977945
0.11162356 -0.081016958 -0.0050645042 -0.80559182 0.59246659 0.0022569413 0.0010984745
-0.11653074 -0.075044796 -0.0054984204 0.8396762 0.54308432 -0.0017976867 0.0024763627
0.11666024 -0.074059695 -0.0038939277 -0.84525073 0.53436983 -0.00013708741 0.0016219523
-0.12247042 -0.063994795 -0.0048815785 0.88567364 0.46430284 -0.0022910491 0.0018744996
0.12314791 -0.063736945 -0.006327555 -0.88522506 0.46516296 -2.8664823e-05 0.0021861782
-0.12695849 -0.053960375 -0.0040531657 0.91568577 0.40189439 -0.00068931439 0.0004060237
0.12622571 -0.05607729 -0.0058167768 -0.91222781 0.40967354 -0.0028246618 0.0012816553
-0.13169314 -0.043374691 -0.0092469938 0.95029968 0.31132874 -0.0022289655 0.0018710447
-0.12918594 -0.048980266 -0.0077579673 0.93080235 0.36542141 -0.0086169848 0.0015321379
0.12967138 -0.047055185 -0.0042165574 -0.93544382 0.35347471 -0.00070783228 0.0011880216
0.13078052 -0.04415096 -0.004661262 -0.94645655 0.32283133 1.6798545e-05 0.0013502402
-0.13383383 -0.036513131 -0.0061997352 0.9611159 0.27614203 -0.0013201439 0.0023004613
0.13454486 -0.034130652 -0.007097254 -0.96576333 0.25935945 -0.0058206855 0.0015729306
-0.13563459 -0.025281871 -0.0024183497 0.98266762 0.18536399 0.0021222306 0.0013802886
0.13586101 -0.027083108 -0.0067742951 -0.98012006 0.19839525 -0.0020035915 0.0020942101
-0.13718596 -0.015593594 -0.0054647722 0.99117017 0.13255733 0.0031987708 0.0011140615
0.13698763 -0.016185822 -0.0049362937 -0.9904232 0.13802409 0.003347303 0.0012582849
-0.13888773 -0.0045711747 -0.0012424425 0.99975497 0.0220495 0.0019620447 0.0022973225
0.13835356 -0.0029736036 -0.0056386115 -0.99997914 0.0048887311 0.0042179739 0.002101352
-0.13825579 0.0039193267 -0.0049882941 0.99943662 -0.033514023 0.0017951729 0.0017211781
0.13883266 0.0021243633 -0.0045830766 -0.99995846 0.0023601044 0.0088042412 0.0022114406
-0.13695005 0.016549457 -0.0046819723 0.99106532 -0.13337684 0.0004410129 0.00095911231
0.13739713 0.014274897 -0.0056679724 -0.99327189 -0.11578064 -0.0023930834 0.00067205727
-0.13610433 0.02472949 -0.0066169938 0.98264742 -0.18545578 0.0031986998 0.0017473024
0.13584161 0.023988988 -0.0043791691 -0.9842388 -0.17682666 0.00252468 0.0014206873
-0.13387363 0.035826053 -0.004464325 0.96254945 -0.27099362 0.0078202952 0.0013922257
0.13420588 0.03420407 -0.0069735991 -0.96988094 -0.24356347 -0.0028104603 0.0016828058
-0.1310614 0.043415468 -0.0048784986 0.95287466 -0.30334947 -0.0029908244 0.0012576041
-0.12929001 0.048053741 -0.0070107505 0.94308746 -0.33253515 -0.0025311548 0.00051112473
0.12944947 0.048391066 -0.005305972 -0.93689775 -0.34957188 -0.0046934611 0.0014709017
0.13138698 0.044059187 -0.0056782668 -0.94234258 -0.33453763 -0.0086564766 0.0016861612
-0.12654813 0.055233058 -0.0064386544 0.91497093 -0.40351465 0.0020529535 0.0011136822
0.12673412 0.054462027 -0.0057174824 -0.91614205 -0.40085071 -0.0015529885 0.00051714218
-0.1231517 0.063915066 -0.0059225447 0.88160771 -0.47197923 -0.0018695159 0.0022047977
0.12143614 0.066307224 -0.0063692443 -0.8776418 -0.47927314 -0.0064814002 0.0018479779
-0.11569411 0.075394221 -0.0065431143 0.83920318 -0.54381734 0.00076748885 0.00097048766
0.11604741 0.07588914 -0.0063283145 -0.82699054 -0.56220073 -0.0041194013 0.0021584572
-0.11120366 0.081596948 -0.0061273682 0.79356998 -0.6084702 -0.0032586025 0.0010508974
-0.10749211 0.086723782 -0.0050548944 0.78531271 -0.61909777 0.0013471069 0.0011385327
0.1055744 0.0887862 -0.0044548959 -0.76199299 -0.64756149 0.0055414084 0.0016321329
-0.10308506 0.092770614 -0.006649192 0.73385304 -0.67930418 0.0023349402 0.0023810305
-0.096819967 0.099046119 -0.0032018672 0.68999225 -0.72374797 0.0099814245 0.0018113645
0.098315187 0.097719461 -0.004523173 -0.70427132 -0.70989805 0.006841159 0.0023206025
0.1023502 0.092753932 -0.0051583182 -0.73287874 -0.68031764 0.0075307386 0.0022233459
-0.093545139 0.10170726 -0.0015875157 0.68058705 -0.73266673 0.00081793655 0.0016741739
-0.085302219 0.10840551 -0.0072438056 0.61272436 -0.79029632 0.00076523417 0.00092844694
0.08548072 0.10839202 -0.003261639 -0.62564176 -0.78011036 0.00037485998 0.001264155
0.094964057 0.10152356 -0.0052285297 -0.67959899 -0.7335692 0.0046313284 0.0023292345
-0.081716329 0.11131941 -0.0024358658 0.59716874 -0.80211133 0.0026349195 0.001510415
-0.074990563 0.11667904 -0.005493253 0.53654122 -0.84384233 0.0073175388 0.0020762442
0.075817689 0.11538755 -0.0052532633 -0.56569296 -0.82461566 0.00071198336 0.0012500096
0.080315173 0.11213161 -0.0075833462 -0.5939638 -0.80449092 0.0011165392 0.00088328391
-0.064207368 0.12237533 -0.0032878078 0.47621709 -0.87928826 0.0083295591 0.001282807
-0.058086611 0.12511297 -0.0057389396 0.42802906 -0.90376371 -0.001498327 0.0012192127
-0.048188016 0.12954029 -0.0045678457 0.34915707 -0.93704659 0.0057435692 0.001875156
0.048002776 0.12930946 -0.004274026 -0.34363711 -0.93909073 0.0047076889 0.0010009021
0.053995699 0.12702069 -0.0048784022 -0.3923738 -0.91978788 -0.0057472866 0.00098534662
0.065046757 0.12276994 -0.0038331829 -0.47280791 -0.8811329 0.0075919763 0.0020479131
-0.043465745 0.13165241 -0.0046371813 0.31628653 -0.94866347 0.00070373114 0.002041752
-0.035947137 0.1339222 -0.0039366134 0.26110861 -0.96530128 0.0039634039 0.0018259598
-0.025958471 0.13552624 -0.0051671122 0.20373757 -0.97902548 -0.00035635309 0.0011225536
-0.013551374 0.13751298 -0.0063785994 0.11371049 -0.9935137 -0.00072058273 0.00089220377
-0.0042307391 0.13883303 -0.0049700849 0.025843471 -0.99964011 0.0072026704 0.0023495001
0.0039716843 0.13825038 -0.0053831059 -0.039452676 -0.99921316 0.0040656831 0.0014076445
0.017092424 0.13689388 -0.0064887595 -0.13532919 -0.99077976 0.0064413701 0.0011541628
0.024459979 0.1361322 -0.0067391247 -0.187554 -0.98224097 -0.0051153107 0.0020150058
0.034970086 0.13413651 -0.0060562626 -0.26321319 -0.96472776 -0.0043804622 0.0018718346
0.043328069 0.1310948 -0.0069854022 -0.30943975 -0.95091885 0.00051682797 0.0013772997
-0.041755348 -0.13169543 0.0039126514 0.30296963 0.95293754 -0.010930122 0.001492821
-0.032622714 -0.13518332 0.0067243041 0.22360559 0.97461802 0.010961641 0.0019375612
-0.025024753 -0.1360738 0.0041086422 0.18948485 0.98185778 -0.0071289102 0.0019129275
-0.0182731 -0.13677181 0.0057056141 0.14370078 0.98962122 0.00014116288 0.0012033542
-0.0050698114 -0.13813685 0.0071469746 0.049159393 0.99877447 0.0057378369 0.0011282737
0.0026972671 -0.13874888 0.0057244217 -0.0059560318 0.9999671 -0.0054989289 0.0022884458
0.015466779 -0.13720626 0.0058659008 -0.12328704 0.99236393 0.0037562903 0.0012462203
0.026528826 -0.13543491 0.0044813179 -0.1996439 0.97983569 0.0080238068 0.001293021
0.034553051 -0.13414998 0.0052801277 -0.24623834 0.96915227 0.010515796 0.0016311873
0.044277128 -0.13128951 0.0048790048 -0.31853712 0.94790626 0.0028123304 0.0021677797
-0.06471426 -0.12260377 0.0066180988 0.4742583 0.88026381 0.014647706 0.0022292261
-0.052618116 -0.1275468 0.0037061137 0.38415211 0.92326301 0.0035370155 0.0014388831
-0.048808619 -0.12900171 0.0079981787 0.3554953 0.93467772 -0.00077388441 0.0011552725
0.047973946 -0.12963603 0.00082663074 -0.34316322 0.93927395 -0.0018502414 0.0013859274
0.055257481 -0.12637833 0.0052112252 -0.40753689 0.91318685 0.0018717999 0.00051084644
0.063193478 -0.12282882 0.0060339221 -0.4659116 0.88480479 -0.0068466365 0.0012544862
-0.080533259 -0.11197373 0.0011532344 0.60510832 0.79613256 -0.0040979595 0.00065822434
-0.074233048 -0.11653474 0.0068312986 0.52863473 0.84877169 0.011487652 0.0016701536
-0.069543585 -0.11992967 0.0080247819 0.50233507 0.86461109 0.010354007 0.0022165221
0.075437807 -0.11619983 0.0052110977 -0.55420363 0.83232629 -0.0095525272 0.0019756651
0.081863448 -0.11119986 0.0063335169 -0.60449618 0.79660738 0.00105422 0.0010892675
-0.092153974 -0.10356095 0.0027481944 0.66368532 0.74800801 -0.0024253903 0.0022681195
-0.087120913 -0.10720462 0.0033228074 0.63171124 0.77520198 0.0016799252 0.0017939229
0.087466419 -0.10664687 0.0054089935 -0.62245572 0.78265065 0.0026040825 0.0012842262
0.091812849 -0.10311493 0.0043817027 -0.67055398 0.74186051 -0.00050021155 0.0013888828
-0.10204772 -0.09312617 0.0066385404 0.73702884 0.67583048 0.006461455 0.0019284078
-0.099634416 -0.096096009 0.0089328708 0.72388887 0.68991399 0.0019178862 0.0018792737
0.096848294 -0.099023104 0.0074653914 -0.69598228 0.71802622 0.0068651261 0.0021566688
0.10335088 -0.092444159 0.0083885342 -0.74394298 0.66824239 -0.00095076719 0.0022571855
-0.11146072 -0.081542432 0.0060012415 0.80719882 0.59026992 -0.0033825769 0.0016194772
-0.10717216 -0.086819977 0.0049933842 0.77979606 0.62601203 0.005195538 0.0011751634
0.10755203 -0.086641036 0.0062920987 -0.77210557 0.63546538 -0.0060576554 0.001817417
0.11157557 -0.08108326 0.0046953899 -0.80488813 0.59342104 0.0025569398 0.0015011248
-0.11641686 -0.075354099 0.0059919194 0.83601546 0.54866755 -0.0064823111 0.0025247436
0.11491811 -0.076466136 0.0055253855 -0.82495987 0.56516874 0.0050481264 0.0012304891
-0.12024835 -0.068962865 0.0040796064 0.87246144 0.48868224 0.0009176532 0.0023719072
-0.11999378 -0.069532037 0.0015461296 0.8677032 0.49706882 0.0037045702 0.0022468239
0.11981084 -0.069707707 0.0032370873 -0.86721629 0.49783754 0.009680802 0.0020510119
0.12284943 -0.064499058 0.0051138005 -0.8822279 0.47038549 0.020285236 0.002026605
-0.12561168 -0.056971587 0.0060259113 0.90602696 0.42318127 -0.0057237213 0.0010345527
0.12615821 -0.056254018 0.0058706589 -0.90926844 0.41620946 0.00087172317 0.0013495302
-0.13206576 -0.042541597 0.0052634245 0.94920778 0.31463602 0.0029604486 0.0026609115
-0.12913756 -0.049088463 0.0045108516 0.9318254 0.36290684 -5.8029826e-05 0.0016630662
0.12942612 -0.047697298 0.0036440913 -0.93980569 0.34170941 7.2385221e-05 0.00070280989
0.13167502 -0.041808818 0.0044469372 -0.95722222 0.28934824 -0.0017784358 0.0015754539
-0.13415758 -0.034505624 0.0035867591 0.9676379 0.25233403 -0.002105267 0.001903618
0.13397136 -0.035668455 0.0030966797 -0.96598935 0.25856692 -0.0027897584 0.0013695632
-0.13565417 -0.025159456 0.0049428493 0.98127687 0.19260259 -6.5011016e-05 0.00082182558
0.13606551 -0.025104944 0.005770735 -0.98267752 0.18532333 0.00029090623 0.0017987131
-0.13732222 -0.014742699 0.0064133443 0.99218035 0.1247948 0.002093245 0.0011416062
0.1370016 -0.016050475 0.0049182521 -0.9907341 0.13581119 -0.0011178239 0.00086091808
-0.13885891 -0.0049192808 0.005945236 0.99986947 0.011306686 0.011540409 0.0023461625
0.13811155 -0.0053145834 0.0049677631 -0.99958795 0.028442681 0.0038631591 0.0016241939
-0.13812487 0.0051855193 0.0049496475 0.99836969 -0.057055458 0.0015973483 0.0012753526
0.13848402 0.0064354241 0.0066510751 -0.99879837 -0.049005132 0.0005382942 0.0020171797
-0.13697536 0.016304325 0.0044995639 0.99022716 -0.13941613 0.0036478008 0.0011394172
0.13701171 0.01668174 0.0056445468 -0.99142992 -0.13063949 -4.9870847e-05 0.0011601789
-0.13609603 0.024809692 0.0083685648 0.98499334 -0.17244953 0.0070249052 0.001724586
0.13587436 0.023784421 0.0032825531 -0.98469746 -0.17426233 -0.0018969979 0.0015106753
-0.13448974 0.034071218 0.0042326511 0.96838218 -0.24947128 -0.00022485819 0.0019445146
0.13391931 0.035958655 0.0037148457 -0.96445042 -0.26407179 -0.010071643 0.0017992109
-0.13176011 0.041586038 0.0048493352 0.95668775 -0.29110962 -0.0019619882 0.0016600053
-0.12976891 0.046799779 0.0015940627 0.94310969 -0.33246431 -0.0034040492 0.00074204913
0.12923348 0.048873983 0.0075795818 -0.9340598 -0.3570945 0.0039812215 0.0018541818
0.13173528 0.043280486 0.0046059759 -0.95022315 -0.31155109 -0.0034393342 0.0021343473
-0.12636878 0.055702645 0.0043327059 0.90892613 -0.41693431 -0.0043536271 0.0016183206
0.12627679 0.05548453 0.0064671012 -0.90959197 -0.41548485 0.0038436819 0.00083521957
-0.12249678 0.064978339 0.004142846 0.88066477 -0.47372648 0.0035795863 0.0022435435
0.12192794 0.06520769 0.0055195224 -0.88207579 -0.47107229 -0.0057654027 0.001537828
-0.11555766 0.07558272 0.0049517183 0.83086491 -0.55647278 0.0012451991 0.0011442485
0.11684135 0.074787952 0.0044067991 -0.8406288 -0.54146808 -0.012472274 0.0024034358
-0.11139973 0.081326142 0.0041275444 0.80251497 -0.5966202 -0.0037555634 0.0015208204
-0.10778015 0.086325936 0.0061003813 0.78872073 -0.61475098 -0.00092614599 0.001130708
0.10739937 0.086540379 0.0059049265 -0.78565258 -0.61866534 0.0017867063 0.00048891461
0.11214516 0.080700167 0.0051552681 -0.80734247 -0.59007561 -0.0029861876 0.0013948493
-0.10252891 0.093579553 0.0059529808 0.73119134 -0.68211895 0.0085424678 0.0020917575
-0.097274065 0.098677114 0.005319492 0.70220202 -0.71196896 -0.0035489262 0.0020617903
0.098161489 0.097908616 0.0032342493 -0.69931692 -0.71480483 0.0031307754 0.0025848406
0.10268259 0.092344888 0.0054556183 -0.73338902 -0.67980021 0.0034953395 0.0018632746
-0.093036138 0.10212088 0.0060515702 0.68648517 -0.72714359 -0.0006296137 0.0018376674
-0.085858911 0.10795313 0.0076004541 0.61174566 -0.79105198 0.0020030597 0.00094598596
0.085797973 0.10816235 0.0048320661 -0.62226045 -0.78277975 0.0069113839 0.0014598981
0.094001643 0.10215409 0.0045436067 -0.67284471 -0.73977894 0.0026473235 0.002122564
-0.077550568 0.11470453 0.0055403463 0.56255096 -0.82674581 0.0052661123 0.0018128187
0.074879363 0.11606685 0.0052752225 -0.53806216 -0.84290421 -0.0012782005 0.0018685418
0.082913078 0.11025086 0.0062260046 -0.61492831 -0.78857428 0.0037051337 0.00099963462
-0.064205952 0.12237598 0.0050190459 0.47723693 -0.87877458 0.00043463902 0.0014038485
-0.052810214 0.12747292 0.0025023669 0.38123515 -0.92447811 0.00026321298 0.0017123665
-0.048653398 0.12933214 0.0053374874 0.33964375 -0.94055182 -0.0021166585 0.0015145276
0.049119197 0.12888309 0.0073538572 -0.3558723 -0.93453246 0.0020139599 0.0010931919
0.054805964 0.12671123 0.0033984543 -0.40542716 -0.91412097 -0.0034311134 0.0012255391
0.06557548 0.12237675 0.0048359958 -0.4782877 -0.87820315 9.0455127e-05 0.0022268288
-0.042857666 0.13192439 0.0063941251 0.30208492 -0.95327866 0.0021231365 0.00232678
-0.034706037 0.1341255 0.0014092885 0.24718159 -0.96896863 0.0010662144 0.0018078347
-0.025428608 0.13561109 0.005539733 0.2030596 -0.97916603 0.00088249636 0.0010219855
-0.013602096 0.13750486 0.0040829582 0.10829544 -0.994115 -0.0027413033 0.0015408931
-0.0055717449 0.13867427 0.0052241571 0.058311649 -0.99829805 0.00087061647 0.0023852636
0.0056315535 0.13807876 0.0055283699 -0.058304008 -0.99827647 -0.0066832802 0.0013636833
0.014416852 0.13717049 0.0053842547 -0.10530728 -0.99442494 -0.0054217782 0.0010147697
0.025511647 0.13602348 0.0044844118 -0.19062498 -0.98165816 0.0030808782 0.0016036045
0.03511548 0.13410594 0.0064517087 -0.24955973 -0.96835929 -0.00043772825 0.0019318531
0.043988369 0.13084261 0.0053465208 -0.31679973 -0.94848299 -0.0042449706 0.0010194459
-0.04327736 -0.13111417 0.013522543 0.31322995 0.94967079 -0.0035069548 0.0019741582
-0.0364662 -0.13371544 0.014401183 0.26422963 0.96445948 0.00070186076 0.0015038964
-0.024339 -0.13614471 0.016645389 0.16816325 0.98574102 0.0059859375 0.0017154127
-0.014464526 -0.13716556 0.015051402 0.12093138 0.99266082 0.00051953987 0.0012743396
-0.005863151 -0.13805482 0.013963953 0.047790024 0.9988541 -0.0025603175 0.0011972307
0.005439518 -0.13867781 0.016790088 -0.026113652 0.9996289 0.0077620549 0.0021927743
0.012420994 -0.13769399 0.012025229 -0.10379953 0.99458212 -0.0056615043 0.001468337
0.026424836 -0.13545156 0.013320213 -0.18964323 0.98185259 -0.00094944658 0.00078069681
0.03565615 -0.13397337 0.015502946 -0.25105157 0.96795619 0.0058163451 0.0017994753
0.041667402 -0.13245676 0.011863884 -0.2979334 0.95455945 -0.0072070495 0.002280097
-0.066353738 -0.12179916 0.01523782 0.47287092 0.8811214 0.0042638504 0.0024694935
-0.054665785 -0.12676479 0.014246313 0.401878 0.91569275 0.00093590334 0.00081940088
0.054962236 -0.1265104 0.015934704 -0.40096721 0.9160924 -6.6251436e-05 0.00063550711
0.065660171 -0.12172554 0.016258551 -0.47880188 0.8778286 0.012875978 0.0017644049
-0.082756728 -0.11036405 0.015082181 0.61128914 0.79140675 -0.0010219142 0.00090980291
-0.07568226 -0.11548559 0.014485328 0.5566628 0.83070815 -0.007101859 0.0015435253
-0.069765478 -0.11976903 0.016382856 0.49816269 0.86706972 0.004915142 0.0022116634
0.075066455 -0.11649688 0.013463927 -0.55252004 0.83349961 0.00011734995 0.002127334
0.082612075 -0.11059153 0.015989842 -0.61122459 0.79144841 0.0037221089 0.00088971935
-0.094652489 -0.10164101 0.014664778 0.68628812 0.72732848 0.0014109919 0.0025712273
-0.086011976 -0.10800743 0.013440093 0.61653882 0.78732038 0.0025573019 0.0010513477
0.088086218 -0.10614321 0.014664692 -0.63732201 0.77059746 0.00049072754 0.0013909921
0.09082891 -0.10391448 0.019837894 -0.66214269 0.74937475 -0.0021345993 0.0011861249
-0.10202905 -0.093149148 0.012803165 0.74046928 0.67208958 -0.00088103261 0.00183188
-0.098492153 -0.097501688 0.012964387 0.71605587 0.69803733 -0.0027932664 0.002268811
0.098035686 -0.098058224 0.014667927 -0.71392435 0.70018482 0.0073039858 0.0023950841
0.10301098 -0.092913657 0.015519666 -0.73776352 0.67505443 0.0025479996 0.0023927402
-0.11144114 -0.081566527 0.015148859 0.80947751 0.58714861 0.0016022183 0.001493655
-0.10879507 -0.084822811 0.014221331 0.78979987 0.61336416 -0.00077454618 0.00069694169
0.10769355 -0.086445555 0.014733057 -0.78000212 0.62575883 -0.0047496171 0.0014842225
0.11082537 -0.08211951 0.014451656 -0.79806262 0.60252351 -0.0078426581 0.0006582106
-0.11698944 -0.074503608 0.015240045 0.8352353 0.54988492 0.0029163053 0.0025372771
0.11565828 -0.075443707 0.015477989 -0.83981824 0.54285967 0.0029660533 0.0017977351
-0.12179781 -0.065498598 0.012769272 0.88014853 0.47467119 -0.0050781332 0.0017774369
-0.11988116 -0.069783837 0.010616797 0.86217833 0.50659734 0.002760103 0.0026984364
0.11982275 -0.069691263 0.016960772 -0.86625755 0.4994337 0.012799482 0.0023653391
0.12299362 -0.064453602 0.014249012 -0.8860116 0.46366176 0.0010612208 0.0024122167
-0.12552056 -0.057175286 0.013142384 0.90538967 0.42457905 0.0014884216 0.0010334395
0.12682423 -0.054510117 0.013558145 -0.91457981 0.40439263 -0.0032140038 0.00096963259
-0.1318015 -0.043132424 0.012916125 0.94910496 0.31495327 -0.0020397108 0.0026032173
-0.12943166 -0.048430879 0.013361256 0.93298018 0.35992435 -0.0015610298 0.0015549355
0.12874076 -0.04949189 0.015711984 -0.93254733 0.36096722 -0.0076248758 0.0011796206
0.13144973 -0.042398755 0.013928737 -0.95394909 0.29988185 -0.0072164955 0.0019563043
-0.13387389 -0.036210876 0.015196997 0.96656114 0.25643471 -0.00095806119 0.0018266318
0.13417375 -0.035052914 0.013694518 -0.96399105 0.26591447 -0.0032784832 0.0014620051
-0.1354399 -0.026497627 0.014791165 0.9807117 0.19543687 -0.0030122651 0.00086939108
0.13605793 -0.025178263 0.018795637 -0.98191613 0.18931592 -0.00040578094 0.0017113709
-0.13747051 -0.013816506 0.01461867 0.99259061 0.12132438 -0.0066631017 0.0011524055
0.13718198 -0.014305905 0.014482486 -0.99337184 0.1148556 -0.0045346878 0.001374711
-0.13870373 -0.0031670772 0.013473429 0.99988377 0.015060206 -0.0023868422 0.0025068903
0.13823712 -0.0040999348 0.014500747 -0.99982148 0.01319884 -0.013520432 0.0019667863
-0.13813256 0.0051111863 0.016967611 0.99849647 -0.054811362 -0.00067599153 0.0012663209
0.13891193 0.0024273973 0.017290531 -0.99998391 -0.004043295 0.0039781462 0.0023384178
-0.13701236 0.015946461 0.018501483 0.99094617 -0.13416451 0.005055815 0.0010828496
0.13736407 0.014481164 0.016119566 -0.99532324 -0.096504599 0.0042929607 0.0014064772
-0.13626418 0.023183372 0.015372096 0.98452163 -0.17524777 -0.0023205818 0.0018393602
0.13570862 0.024819495 0.016212588 -0.98256785 -0.18590418 0.0001849252 0.0012064431
-0.13479595 0.033275142 0.01311527 0.97199404 -0.23488414 -0.0075501399 0.0021162375
0.13412008 0.034739807 0.015521301 -0.96826446 -0.24989066 0.0043121995 0.001910531
-0.13117394 0.04312085 0.014336156 0.95098978 -0.309201 0.0036291936 0.0016245861
-0.12971477 0.046941519 0.018572934 0.94075215 -0.33909282 -0.0012166991 0.00086661923
0.12938741 0.048529826 0.018024268 -0.93777525 -0.34724182 -0.00089469808 0.0017422534
0.13112889 0.044636231 0.014349123 -0.95241362 -0.30480337 0.001804997 0.0019577825
-0.12624693 0.056021728 0.014701424 0.91727161 -0.39825553 0.0023272233 0.00092255301
0.12680204 0.054310162 0.014494542 -0.91809714 -0.3963486 -0.0023258817 0.00041014247
-0.12332837 0.063624419 0.014186123 0.88432598 -0.46686935 -0.00067936687 0.0021321261
-0.1199377 0.069532469 0.012141058 0.87091058 -0.49144134 -0.00047566873 0.001981819
0.12355875 0.061561506 0.014824003 -0.901039 -0.43373713 -0.00089847151 0.000991354
-0.11564843 0.075457335 0.014866596 0.83473492 -0.55063671 -0.0041016857 0.0011501798
0.11719181 0.074134931 0.013545101 -0.84713143 -0.53132737 -0.0077217012 0.0022069036
-0.11077082 0.08219485 0.018922489 0.79370177 -0.60829967 0.0029893478 0.00095296284
-0.10811311 0.085865997 0.01615848 0.78602755 -0.61819059 0.0010885892 0.0012045403
0.10711142 0.086894713 0.015721219 -0.77958709 -0.62629205 0.0014777604 0.0011044039
0.11203651 0.080833852 0.016859874 -0.80749637 -0.58986789 0.0023599493 0.0015268761
-0.10222932 0.093893312 0.014411002 0.73308188 -0.68010443 -0.0069913282 0.0024851519
-0.098340914 0.097810179 0.015655749 0.70182377 -0.71235043 0.00045463102 0.0022887059
0.098683938 0.097265661 0.014224401 -0.71312654 -0.70103437 -0.0011624122 0.0023714539
0.10160859 0.093666568 0.0148686 -0.7243951 -0.6893847 0.00074838346 0.0020949733
-0.093698502 0.10158263 0.013537426 0.68648243 -0.72714645 -3.9931801e-05 0.001595396
-0.086578287 0.10736856 0.016615221 0.61151743 -0.79122818 -0.0020876022 0.00096336572
0.087168448 0.1071702 0.016122263 -0.6276992 -0.77844959 0.0031655212 0.0015692541
0.09376052 0.10236772 0.016009817 -0.66943556 -0.74286985 -0.00057182933 0.0021838087
-0.081563056 0.11144396 0.017196011 0.5917865 -0.80607665 0.0054034516 0.0014211709
-0.075589716 0.11628757 0.014594996 0.55267364 -0.83339715 -0.00098529365 0.0020257444
0.077326998 0.11429489 0.011601705 -0.56175894 -0.8272869 -0.0048201727 0.0012829443
0.082658455 0.1104352 0.015896499 -0.61110103 -0.79154855 0.0025258814 0.00095500471
-0.063605726 0.12264444 0.014722839 0.47533897 -0.87980211 0.0010721149 0.0014558376
-0.055681869 0.12618852 0.01394553 0.4159562 -0.90938443 -0.00062361534 0.0011292485
-0.048252407 0.12951149 0.016793141 0.3439559 -0.93898267 0.0024428458 0.0016406915
0.054296236 0.12690592 0.015623936 -0.39110506 -0.92034596 0.00027089441 0.0013345919
0.065796271 0.12220989 0.014904821 -0.47726256 -0.87873042 -0.0072999015 0.0020007235
-0.042278405 0.13218346 0.015302403 0.29980645 -0.95397323 -0.0071675535 0.0022583273
-0.03412633 0.13421832 0.013223834 0.22748679 -0.97375894 -0.0065845381 0.0014191051
-0.023769537 0.13587674 0.015933624 0.17700879 -0.98420912 -0.00044614013 0.0012620939
-0.015085042 0.13726741 0.015744934 0.12761228 -0.99181539 0.0041633532 0.0009561468
-0.0055918265 0.13867468 0.015060081 0.051705096 -0.99864304 -0.0062143295 0.0022194821
0.0031597738 0.1383343 0.01462912 -0.024362663 -0.99969023 -0.0050958232 0.0015938875
0.016567715 0.13694814 0.013192099 -0.1364729 -0.99064362 0.00061964773 0.0010750338
0.027479405 0.13582003 0.016008327 -0.20594637 -0.97856265 -0.0010809494 0.0018636672
0.03460848 0.13434117 0.016383236 -0.2603668 -0.96550971 -0.00042140379 0.0014656882
0.04202947 0.13159075 0.013226293 -0.29490107 -0.95552427 -0.0025872253 0.0015782912
-0.043327648 -0.13109496 0.026031362 0.31338164 0.9495967 -0.0076207826 0.0018000755
-0.036535803 -0.13368836 0.024915399 0.26359946 0.9646104 -0.0064771157 0.0016222629
-0.025111934 -0.1360648 0.023780655 0.18139456 0.98337752 -0.0080442838 0.001789992
-0.017119803 -0.13689105 0.025527874 0.1374986 0.99050111 0.0013000736 0.0011394563
-0.0057730218 -0.13806415 0.026087943 0.048601974 0.99877781 0.0089879967 0.0011348506
0.0042109052 -0.13875967 0.026966525 -0.024315223 0.9997043 1.5324034e-05 0.0024851381
0.014758219 -0.13731973 0.024805555 -0.12577292 0.99205697 -0.0020433429 0.0012260359
0.025557246 -0.13559049 0.025301898 -0.18127692 0.98343062 -0.0016923232 0.00051469135
0.035540037 -0.13399196 0.024881938 -0.25352553 0.96732825 0.00096888357 0.0017191089
0.044002205 -0.13141248 0.026860932 -0.32250053 0.94654524 0.0067384499 0.0018622547
-0.06517075 -0.12243588 0.026981492 0.4692767 0.88304573 -0.0030942457 0.0023449506
-0.055361588 -0.12649904 0.024473837 0.40996787 0.912099 -0.001322084 0.0011422669
-0.048022974 -0.12930176 0.027130153 0.34922373 0.93703455 0.0030049926 0.00076543068
0.048425205 -0.1294342 0.029155178 -0.35160792 0.93614733 -0.00014127945 0.0013926356
0.05473385 -0.12661254 0.02748635 -0.40692037 0.91346335 -0.00069755455 0.00045032651
0.064782038 -0.1221183 0.024088454 -0.48005858 0.8772043 0.007506744 0.0017360444
-0.082330339 -0.11067273 0.026265334 0.61122561 0.79145205 0.0026439438 0.00088357669
-0.076626405 -0.11480208 0.027058005 0.56304485 0.82642615 0.0005900198 0.0012115566
0.069667317 -0.11993326 0.025072675 -0.50799835 0.86114293 0.019251183 0.0023634939
0.075651333 -0.11616502 0.023969013 -0.55133009 0.8342641 0.0062073655 0.0019642103
0.080842473 -0.11202951 0.02432218 -0.59802562 0.80147612 -0.0011677187 0.00073118374
-0.0943482 -0.10184858 0.026756173 0.68831426 0.72538459 0.0063703479 0.0023626536
-0.086704224 -0.10750627 0.026043771 0.62488699 0.78069496 0.005618677 0.0013329894
0.086948648 -0.10706758 0.024152203 -0.62265325 0.78249735 -0.00095598405 0.00074813841
0.09310136 -0.10206789 0.022977186 -0.66968638 0.74263489 0.0036796255 0.0016953485
-0.10164225 -0.093625151 0.024957677 0.7326358 0.6805858 0.0069024437 0.0016183651
-0.097731709 -0.098437496 0.025285199 0.70157796 0.71248001 0.012666059 0.002421852
0.095685743 -0.099967808 0.029336438 -0.68510085 0.72844684 0.0014496198 0.00151728
0.10153672 -0.094737895 0.02313076 -0.73119521 0.68216044 -0.0032532907 0.0021671033
-0.11170776 -0.081238426 0.02551966 0.80367595 0.59506714 -0.00034352767 0.001242246
-0.10675048 -0.087338887 0.026398527 0.78004932 0.62571424 0.0021686633 0.0015449612
0.10890005 -0.084778979 0.025505304 -0.78779894 0.61592531 -0.0029604682 0.0011311281
-0.11629082 -0.075409956 0.026687825 0.84018832 0.5422641 -0.005758801 0.0024950181
0.11482742 -0.076591417 0.023661217 -0.82926154 0.55884373 0.0043684482 0.0013385358
-0.12300848 -0.06279178 0.024631647 0.88760638 0.46060237 -0.00066708686 0.0016581288
-0.119943 -0.069645584 0.029078579 0.86640859 0.49924603 -0.0094656944 0.0021584004
0.11962758 -0.069960855 0.029449282 -0.8693431 0.49420914 0.00014861186 0.0023823439
0.12230822 -0.065695375 0.0244272 -0.8830294 0.4692786 0.0060583614 0.0023641253
-0.12603311 -0.05602935 0.026425675 0.90958279 0.41551846 -0.0018565992 0.00073555729
0.1265662 -0.055185739 0.025369938 -0.91652101 0.39998645 -0.0003282534 0.00097044732
-0.13136686 -0.04410417 0.023642758 0.94287437 0.33314332 -0.0018361986 0.0017283461
-0.12927014 -0.048792016 0.02493234 0.93123907 0.36440349 -0.0019456084 0.0015766741
0.12945807 -0.047613665 0.022055011 -0.93926042 0.3431924 -0.002976137 0.00091697241
0.13144463 -0.042412069 0.027449587 -0.95467722 0.29763606 0.0020343724 0.0014646562
-0.13378987 -0.036801994 0.02398267 0.96258724 0.27094507 0.0038227374 0.002208221
0.13436717 -0.034601912 0.027700599 -0.97136098 0.23760565 -0.0011979837 0.0019218642
-0.13534279 -0.027104041 0.02614666 0.98117316 0.19312824 0.00076905213 0.00089095568
0.1360995 -0.024776122 0.024570152 -0.98219877 0.18749978 0.011376999 0.0016505256
-0.13745493 -0.013913845 0.02283735 0.99487168 0.10105949 -0.0041582119 0.0015089747
0.13696902 -0.016365675 0.025568096 -0.99217081 0.12487591 0.0017531205 0.0015839732
-0.13875635 -0.0053734332 0.026222421 0.99875623 0.049860653 -7.5987242e-05 0.0019730225
0.13804598 -0.0059486153 0.023824695 -0.99923134 0.038087431 -0.009283931 0.001827615
-0.13809575 0.0054671993 0.023920724 0.99825299 -0.058929943 -0.0042767362 0.0012770998
0.1385843 0.0068609617 0.025026154 -0.99822682 -0.059506509 -0.0014813596 0.0022128245
-0.13706669 0.015420871 0.024754358 0.99432433 -0.1063528 -0.0028478834 0.001154938
0.13757455 0.013166772 0.027822249 -0.99666882 -0.081533499 0.0018932974 0.0018089898
-0.13609324 0.024836874 0.025134571 0.98073477 -0.19534384 -0.00030243522 0.0017856483
0.1358777 0.02376356 0.024364261 -0.98455971 -0.17502747 0.002757997 0.0015723944
-0.13415997 0.034969412 0.024569847 0.96877009 -0.24794911 -0.0024072197 0.0020671615
0.13433103 0.033422437 0.025406972 -0.97208756 -0.23461758 -0.00059743854 0.0017276509
-0.13139379 0.042545162 0.023565784 0.95426559 -0.29894024 -0.0034496335 0.0015589551
-0.12880854 0.04931438 0.02554363 0.93504304 -0.35453343 0.00067729154 0.0014397466
0.12920031 0.048948132 0.0290186 -0.93577152 -0.35260266 -0.0017430128 0.0018828015
0.1316117 0.043556795 0.028489996 -0.94997352 -0.31233051 0.00016944463 0.0020786058
-0.12678556 0.054611377 0.024138566 0.9134326 -0.40698782 -0.001307946 0.0015044102
0.12627897 0.055479638 0.023601416 -0.90742898 -0.42019346 0.0031861712 0.0010882084
-0.12289679 0.06415309 0.025100324 0.88018817 -0.47458497 0.0061563351 0.0023446472
0.12229481 0.064387403 0.024838638 -0.87657845 -0.48125243 0.0025239866 0.0018574416
-0.11596113 0.075025409 0.025595527 0.83834147 -0.54514158 0.0020498198 0.0017574186
0.11872768 0.072150007 0.027590906 -0.85670573 -0.5157662 0.0063634808 0.0021547806
-0.11235874 0.080001436 0.028564811 0.81421083 -0.58056897 0.00064263854 0.001472879
-0.10860177 0.085191004 0.024842238 0.7879923 -0.61567086 0.0041888584 0.0011433742
0.10694262 0.087102458 0.027134486 -0.77306205 -0.63429391 -0.0068057948 0.0016334807
0.11228008 0.080534115 0.026382338 -0.81411195 -0.58070731 0.00085075939 0.0017454114
-0.10246465 0.093668304 0.023795694 0.72822785 -0.68533152 -0.0022069134 0.0023935151
-0.097988948 0.098096192 0.02553123 0.71201861 -0.70205688 -0.012065143 0.002306897
0.097104669 0.099209122 0.021189466 -0.69738513 -0.71668071 -0.0047762007 0.0020576431
0.10240684 0.092684239 0.025410572 -0.73424423 -0.67888302 -0.0017975261 0.0019703209
-0.093279734 0.10192293 0.024318587 0.67925674 -0.73389214 -0.0035500226 0.0020048346
-0.085805692 0.10799637 0.027138932 0.61041152 -0.79208291 0.0015948962 0.0011408342
0.086667225 0.10753307 0.027301747 -0.62833571 -0.77793586 0.0031801963 0.0017117849
0.094045728 0.1021243 0.025696674 -0.68621129 -0.72740066 -0.0015640295 0.0025128527
-0.082109429 0.11099996 0.023843745 0.59989989 -0.80005914 0.0050439402 0.0011200897
-0.076330423 0.11565534 0.023869749 0.55857289 -0.82942319 -0.0073177656 0.0021179903
-0.06960953 0.11995912 0.025061168 0.50642538 -0.86226213 -0.0061064726 0.0020983601
0.069954626 0.1196321 0.020955671 -0.5099051 -0.86022842 -0.0019469846 0.0018042169
0.07502494 0.11596145 0.023136767 -0.55524868 -0.83167946 -0.0028785323 0.00094408845
0.080888271 0.11171671 0.023227137 -0.59320897 -0.80504626 -0.0018845168 0.0012682119
-0.064024918 0.12245695 0.025357932 0.47181782 -0.88169289 -0.0023543828 0.0014437988
-0.052566804 0.1275818 0.026873004 0.38765407 -0.92179823 0.0035217174 0.0013160085
-0.049401402 0.12899758 0.025795601 0.34969842 -0.93686122 -0.001399531 0.0018437251
0.048175905 0.12924334 0.024958994 -0.33778524 -0.94121951 0.0026540195 0.00077000167
0.056517247 0.12605768 0.02587151 -0.41520813 -0.90968138 0.0090582119 0.0013017798
0.063625269 0.12320175 0.025344765 -0.46442366 -0.88561219 -0.0013663059 0.0024647114
-0.043395989 0.13168362 0.026176522 0.30866107 -0.95116937 -0.0022756688 0.0023890641
-0.034338541 0.13418435 0.025426447 0.23475827 -0.97205323 0.0010003566 0.0015015166
-0.025398433 0.13561592 0.026719837 0.19224413 -0.98134345 0.0026963463 0.0014336836
-0.015695401 0.13716966 0.026435649 0.13168272 -0.9912914 0.00097876485 0.0011546472
-0.0064806989 0.13848241 0.024613166 0.042843301 -0.99902219 -0.01091721 0.0025177691
0.0031952509 0.13833064 0.026126418 -0.0056620827 -0.999982 0.0019784383 0.002199173
0.015782638 0.13702931 0.025177043 -0.12719513 -0.99184614 0.0079081282 0.00092087995
0.023393443 0.13624246 0.026141634 -0.16739403 -0.98585767 -0.0079866061 0.0018225013
0.03608704 0.13380188 0.026881168 -0.27425167 -0.96165705 -0.0013289922 0.0018766753
0.041540358 0.13177755 0.025932333 -0.28782156 -0.95765609 0.0073237377 0.0016525511
-0.040676847 -0.13210733 0.035064079 0.29969871 0.95403332 -0.0010039329 0.0016813704
-0.035729196 -0.13395916 0.035667408 0.2696746 0.96294606 0.0032366326 0.0017510814
-0.026335524 -0.1359383 0.035970461 0.20351958 0.97905302 -0.0059220265 0.0019444973
-0.015771409 -0.13703045 0.035610124 0.13661025 0.9906171 0.0039072367 0.0010115675
-0.0042961943 -0.13821682 0.036787786 0.032540634 0.99946326 -0.0037915411 0.0018731238
0.0043335841 -0.13864082 0.033361897 -0.028057454 0.9995575 -0.0098740822 0.0019881111
0.015283889 -0.13723555 0.034267783 -0.12424828 0.9922511 -0.00038052147 0.0011118326
0.025152637 -0.13565527 0.035381392 -0.1857169 0.98260128 0.0019686567 0.0014994688
