# .PCD v0.7 - Point Cloud Data file format
VERSION 0.7
FIELDS x y z normal_x normal_y normal_z curvature
SIZE 4 4 4 4 4 4 4
TYPE F F F F F F F
COUNT 1 1 1 1 1 1 1
WIDTH 560
HEIGHT 1
VIEWPOINT 0 0 0 1 0 0 0
POINTS 560
DATA ascii
0.036025696 -0.1188762 -0.2938866 -0.30141768 0.95349181 -0.00088190357 0.0021469863
0.045455359 -0.11497028 -0.29377264 -0.38363004 0.92348623 -0.0011047778 0.0012484667
0.053086948 -0.11180916 -0.29324895 -0.44037095 0.89781594 0.000228091 0.0019964869
-0.070675313 -0.10158055 -0.29901463 0.57022583 0.82148665 0.0014664811 0.0021079055
-0.066780858 -0.10456887 -0.29451853 0.54776025 0.83663321 0.0018815395 0.0019861874
-0.059670597 -0.1090821 -0.29236728 0.48243207 0.8759203 0.0047814203 0.0019749531
0.058445971 -0.10958937 -0.29554152 -0.45801786 0.88893139 0.0045425491 0.001961957
0.064887919 -0.10589424 -0.29515776 -0.53254277 0.84640253 -0.00094627205 0.0019462026
0.071365148 -0.10105123 -0.29506144 -0.57999468 0.81461412 -0.003176061 0.0022237888
-0.081570119 -0.093220644 -0.2951836 0.66509449 0.74673533 -0.0059633586 0.0027447995
-0.076929256 -0.096781716 -0.29556301 0.61838585 0.78585088 -0.0061053173 0.0023252114
0.075782321 -0.097661793 -0.2956242 -0.60678095 0.79486871 0.00073388539 0.0019765415
0.083085813 -0.092057623 -0.29526895 -0.68127519 0.73202676 0.00097275403 0.0022734751
-0.091645673 -0.083622672 -0.29543787 0.72716057 0.68643314 -0.0068595395 0.0025396589
-0.088061407 -0.088016689 -0.29328433 0.70179296 0.71231383 0.0097842989 0.0020620574
0.087978393 -0.088193484 -0.29638058 -0.70368546 0.71047878 -0.0068198708 0.0024157967
0.092750549 -0.082182787 -0.29483259 -0.74249232 0.66983235 0.0054579941 0.0023915237
-0.10062734 -0.071917549 -0.29602367 0.80433953 0.59416312 0.0028577468 0.0013108794
-0.097238109 -0.076334476 -0.29399431 0.79121792 0.61152381 0.0035921712 0.0018174218
0.096850216 -0.076839991 -0.29790488 -0.79072028 0.61217743 -0.00049929699 0.0017641431
0.10048343 -0.072105102 -0.29660416 -0.80776852 0.58948702 -0.0038784917 0.0013578926
-0.10650607 -0.064189166 -0.29476559 0.85532695 0.51805919 0.0055196928 0.0021479854
0.10564988 -0.06514737 -0.29440197 -0.84314054 0.5376817 0.0035340351 0.0018245764
-0.11190303 -0.052860323 -0.29436421 0.89675999 0.44249249 0.0046626939 0.0016969813
0.10966162 -0.058271565 -0.29907364 -0.88401163 0.46745726 -0.0026850661 0.0023018941
0.11148885 -0.053860251 -0.2949903 -0.89659476 0.44284853 -0.0017432839 0.0022051618
-0.11524152 -0.044800483 -0.29479083 0.93206221 0.36229837 -0.00011711322 0.00080315839
0.11519801 -0.04490561 -0.29446036 -0.93039954 0.36652821 -0.0037025979 0.0010399368
-0.12037337 -0.032081164 -0.29584584 0.96738917 0.25302929 -0.011591094 0.0026021774
-0.11831336 -0.037384458 -0.29547137 0.95052892 0.31060636 -0.0042906054 0.0024382353
0.11892703 -0.03590297 -0.29481295 -0.95432687 0.29875162 -0.0027895425 0.0022997714
0.12042095 -0.031956144 -0.29686317 -0.96482176 0.26288325 -0.0033669497 0.0030392562
-0.12160145 -0.023386711 -0.29262263 0.9825722 0.18588157 -3.2121934e-05 0.0020176617
0.1212211 -0.026275879 -0.29547125 -0.9744615 0.22447076 -0.0061435807 0.0024317794
-0.12286466 -0.013791614 -0.29629871 0.99467736 0.1029245 -0.0048575816 0.0014943705
0.12284401 -0.013948468 -0.29622537 -0.99271649 0.12047382 0.00011150903 0.00082579546
-0.12403557 -0.0048975828 -0.2952264 0.99895102 0.045628678 0.0038683258 0.0021083038
0.1240171 -0.0050378004 -0.29501706 -0.99855745 0.05309267 0.008017784 0.0016884925
-0.12405451 0.0047538183 -0.29421359 0.99921441 -0.039160941 0.0060729356 0.0021585943
0.12403145 0.0049288422 -0.29681256 -0.99829108 -0.058432352 0.00070862286 0.0015614894
-0.1228041 0.01425171 -0.29461214 0.99452353 -0.10435728 0.0057036374 0.0014010801
0.12253725 0.016278746 -0.29551068 -0.99054956 -0.13709445 -0.0040926742 0.0012672819
-0.12120081 0.026429908 -0.29439262 0.97918552 -0.20296663 -0.00052284903 0.0019384602
0.12142503 0.024726948 -0.29230118 -0.979011 -0.20378433 0.0030644624 0.0017003473
-0.12050289 0.031596456 -0.29467967 0.9675712 -0.25257292 0.0035920839 0.0032188268
-0.11888507 0.036004256 -0.29595935 0.95382017 -0.30037344 -0.0016843117 0.0023050462
0.11891408 0.035934262 -0.29570219 -0.9514975 -0.3073782 -0.013083259 0.0021051029
0.12051735 0.031480074 -0.29222438 -0.96552128 -0.26028532 0.0045006126 0.0030000329
-0.11522054 0.044851206 -0.29585186 0.92600918 -0.37749875 0.0012771711 0.0014286179
0.11524714 0.044786993 -0.29530054 -0.93181688 -0.36292285 -0.002067812 0.0018898851
-0.11111697 0.054758031 -0.29578087 0.89356232 -0.4489024 -0.0057463245 0.0018288768
-0.10933578 0.059058208 -0.2934832 0.88232666 -0.47063354 -0.0019254182 0.0022699051
0.10940348 0.058894798 -0.29008883 -0.88539773 -0.46483174 0.0014943806 0.0025148869
0.11142775 0.054007754 -0.29521215 -0.89644843 -0.44314325 0.0020613591 0.0021641981
-0.10628193 0.064327039 -0.29507554 0.84766954 -0.53052425 -0.00065624889 0.0020153041
0.10750493 0.062592596 -0.29435924 -0.86447275 -0.50267953 0.00039420684 0.0026292205
-0.1013893 0.070924543 -0.29991114 0.81842202 -0.57461637 0.0011794366 0.0022525538
-0.097035021 0.076599143 -0.29478249 0.7905159 -0.61243916 0.0017110753 0.0018482202
0.096149616 0.07775303 -0.29364556 -0.78223938 -0.62297207 0.0027151394 0.0021576553
0.10127404 0.071074761 -0.29401162 -0.8161546 -0.57783252 0.001133662 0.0017066839
-0.09161979 0.083656393 -0.29410505 0.72743028 -0.68617529 0.002953389 0.0022483952
-0.088061139 0.088100739 -0.29572454 0.71752745 -0.69646609 -0.009446105 0.0026662333
0.088167846 0.08788202 -0.29512405 -0.70050704 -0.71358138 0.0095622316 0.0027717547
0.091837466 0.083372734 -0.29482904 -0.73055148 -0.68283021 0.0061156731 0.0024116475
-0.082115807 0.092801943 -0.29605201 0.65794468 -0.75304413 -0.0057685897 0.0022202642
-0.076891921 0.096810371 -0.29712415 0.62334478 -0.78194022 0.0032873165 0.0021862099
0.076811507 0.096872091 -0.29417878 -0.61722273 -0.78676426 -0.0061713085 0.0019176577
0.083050169 0.092084989 -0.29413575 -0.66423875 -0.74751824 0.0017859894 0.0023511325
-0.071237437 0.10114922 -0.29415664 0.59008032 -0.80734301 -0.0015563455 0.0013960853
-0.064604186 0.10615927 -0.29556307 0.52542287 -0.8508231 -0.0055423668 0.0021019175
-0.059221484 0.10926815 -0.29576537 0.4905867 -0.87136126 -0.0073651518 0.0024042274
0.059391666 0.10919765 -0.29233178 -0.4828909 -0.87563759 0.0086706914 0.0021857752
0.065271877 0.1057 -0.29486412 -0.53392452 -0.84552032 0.0044637118 0.0020970029
0.071314543 0.10109007 -0.29318359 -0.58867675 -0.8083685 0.00021069376 0.0013810395
-0.053526051 0.11162728 -0.29555944 0.44819477 -0.89391381 -0.006284026 0.0020057617
-0.044041604 0.11555588 -0.29569024 0.36645281 -0.93043625 -0.00086592825 0.00079081074
-0.035875343 0.11893848 -0.29445791 0.30050033 -0.95377994 -0.0018448159 0.002334049
0.036471833 0.11869139 -0.29422599 -0.30376405 -0.95274729 -5.0984923e-05 0.0021084154
0.04436557 0.11542169 -0.29317072 -0.35138395 -0.93621886 0.004857603 0.0013865515
0.054461706 0.11123973 -0.2947877 -0.44892552 -0.89355552 0.0049379473 0.0020658849
-0.031368792 0.12048934 -0.29456508 0.25400591 -0.9671495 -0.010144349 0.0027384292
-0.024308065 0.12148017 -0.2967163 0.18951546 -0.98185879 -0.0060917237 0.0015982256
-0.01470848 0.12274396 -0.29320332 0.12556411 -0.99208516 -0.00079409633 0.0007603683
-0.0052468446 0.12398959 -0.2951844 0.041449916 -0.99911165 -0.0076046293 0.002241483
0.0029413879 0.12429313 -0.29594991 -0.034427982 -0.99939728 -0.0044368166 0.0022679905
0.016053544 0.12256689 -0.29390985 -0.14010201 -0.99012864 -0.0040822844 0.0013610247
0.024478134 0.12145778 -0.29489422 -0.18205264 -0.98327529 -0.0051497961 0.0020930041
0.031113533 0.12058422 -0.2972213 -0.24628051 -0.96918344 -0.0054100808 0.0026512677
-0.031283163 -0.12056187 -0.28543341 0.25643435 0.96651155 -0.0098361736 0.0029712997
-0.025003275 -0.12138862 -0.28579137 0.18802917 0.98216021 -0.0025156247 0.0022436222
-0.016719665 -0.12247916 -0.28527015 0.13904192 0.99028516 -0.0016137124 0.0011724912
-0.0062731015 -0.12385448 -0.28314084 0.04765648 0.99886364 -0.00061124715 0.0020064793
0.0047029359 -0.1240612 -0.28386027 -0.043904744 0.99901748 0.006027258 0.0024478962
0.013630624 -0.12288586 -0.28476292 -0.11639649 0.99320161 0.0015746745 0.00056668941
0.023517074 -0.1215843 -0.28508583 -0.17056984 0.98525238 -0.013548315 0.0020841421
0.032568466 -0.12026012 -0.28594008 -0.27358055 0.96184224 -0.0036443716 0.003025918
-0.053489413 -0.11164244 -0.28517184 0.44914055 0.89343601 0.0067055142 0.0019626841
-0.044154249 -0.1155092 -0.28479385 0.35047621 0.9365716 -0.00034456441 0.0015888264
-0.037445206 -0.11828821 -0.28274238 0.30777183 0.95145816 -0.0019676071 0.001854123
0.035738871 -0.118995 -0.28468522 -0.3036899 0.95276201 -0.0041322759 0.0021738326
0.044267971 -0.11546212 -0.28587386 -0.37046739 0.92884308 -0.0020884685 0.00092921389
0.055045258 -0.110998 -0.28387284 -0.44944724 0.89329302 -0.0049751629 0.0016111995
-0.070988789 -0.10134001 -0.28591889 0.58094418 0.81394273 0.001037866 0.0018393795
-0.064730093 -0.10610277 -0.28591445 0.52977473 0.84813464 0.0025267114 0.0018560906
-0.058226526 -0.10968027 -0.28765824 0.46506333 0.88527477 0.0021454121 0.0022755342
0.058428857 -0.10959646 -0.28606117 -0.46109363 0.88723469 -0.014397017 0.0017345358
0.065293923 -0.10560299 -0.283999 -0.53458983 0.84511149 0.00055795274 0.0018598653
0.071677506 -0.10081154 -0.28610969 -0.5853253 0.81079656 -0.0018000223 0.0013697289
-0.083895467 -0.091436349 -0.28600037 0.68713921 0.72652555 0.00054903975 0.0021832178
-0.075711347 -0.097716257 -0.28500232 0.60769027 0.79416353 -0.004085206 0.0017167482
0.075173005 -0.098129347 -0.28608739 -0.6023317 0.79824406 0.0017171466 0.0014259631
0.083198808 -0.091970906 -0.28481111 -0.67835313 0.73472941 0.0031279211 0.0019846812
-0.091885127 -0.083310597 -0.28697544 0.73587298 0.67711008 -0.003584845 0.002242127
-0.0882333 -0.087802291 -0.28520361 0.70151436 0.71264243 -0.0042950683 0.002392059
0.088001698 -0.088043042 -0.28475934 -0.70982778 0.70437318 0.0016904394 0.002570963
0.092261143 -0.082820557 -0.28473815 -0.73396873 0.6791749 0.0033625506 0.0026319604
-0.10128046 -0.071066387 -0.28498897 0.81749588 0.57591879 -0.0042452696 0.0017648492
-0.096502475 -0.077293172 -0.28519556 0.76770622 0.64076358 -0.0070221936 0.0019981551
0.096824653 -0.07687331 -0.28497294 -0.79814255 0.60246241 0.00274145 0.0013110586
0.10086727 -0.071604893 -0.28543475 -0.80837649 0.58865547 0.0035023212 0.0011927893
-0.10666405 -0.063798673 -0.28553078 0.85778975 0.51399457 0.0025193058 0.0021757353
0.10556708 -0.065479994 -0.28407174 -0.84275424 0.53825241 0.0070403451 0.0017681371
-0.11082823 -0.055455092 -0.28514856 0.89262426 0.45080033 0.0010160423 0.0021482711
-0.10926667 -0.059225023 -0.2822527 0.87354571 0.48670763 0.0057845335 0.0021212471
0.10947254 -0.058728013 -0.28502294 -0.87811786 0.47843137 0.0035276667 0.0023647354
0.11177488 -0.053169742 -0.28622347 -0.90121853 0.43334132 0.0045272773 0.0019959966
-0.1145877 -0.046378955 -0.2845926 0.92254078 0.38587579 -0.0042833118 0.0016480737
0.11512706 -0.045076873 -0.28526416 -0.93039995 0.36654422 -0.0010610851 0.00099264679
-0.1206221 -0.030825641 -0.28436595 0.96993876 0.24334726 -0.00099456648 0.0030835762
-0.11830312 -0.037409164 -0.28461492 0.94806617 0.31803873 -0.0046732384 0.0021543573
0.11832338 -0.037360314 -0.2857345 -0.94935912 0.31417236 -0.0036080296 0.0019249347
0.12053927 -0.031318653 -0.28371716 -0.96799719 0.25092506 0.0042430595 0.0030954562
-0.12127265 -0.025884261 -0.28403074 0.97542429 0.22023888 -0.0064944904 0.0022572398
0.12160188 -0.023383461 -0.28560629 -0.98324305 0.18218304 -0.0065142941 0.0017309111
-0.1225296 -0.016336657 -0.28532812 0.99316227 0.11669751 -0.0032216816 0.0012182929
0.12259334 -0.015852524 -0.28367135 -0.99336886 0.11488656 -0.004395159 0.0013871156
-0.12392674 -0.0057241484 -0.28416345 0.99815327 0.060669292 -0.0030428206 0.0017278319
0.12402841 -0.0049519204 -0.28465334 -0.99902719 0.044071924 0.0015296385 0.0020689
-0.12400492 0.0051304754 -0.28320646 0.99824512 -0.059088103 0.0039125821 0.0016227878
0.12418541 0.0037595241 -0.28473821 -0.99938792 -0.034953158 -0.001483859 0.0023767774
-0.1229731 0.012968047 -0.28363031 0.99580419 -0.091461875 0.0029629711 0.0018291703
0.12285219 0.013886332 -0.28322875 -0.99455005 -0.10421467 0.0030913712 0.0015106703
-0.12149855 0.024168324 -0.28502414 0.98162574 -0.19081625 0.00020418419 0.002086475
0.12155677 0.023726283 -0.28513122 -0.98554569 -0.16940983 0.00031007297 0.0019423231
-0.12014008 0.032974433 -0.28325978 0.96263117 -0.27077311 0.0048192283 0.0030861367
-0.11883704 0.036120225 -0.28532311 0.95395875 -0.29992431 0.0028418289 0.0023895095
0.11867692 0.036506817 -0.28526086 -0.94879013 -0.31585991 0.0054645133 0.0021848185
0.12038307 0.031828865 -0.28790545 -0.96506226 -0.26197261 -0.005021554 0.0029455135
-0.11502802 0.045315977 -0.28452063 0.92078501 -0.39000344 -0.0072355187 0.0015654016
0.11501328 0.045351591 -0.28672555 -0.92971265 -0.36828423 -0.0010607275 0.0013220615
-0.11161051 0.05356653 -0.28448999 0.89381015 -0.44844443 0.00095162488 0.0018860614
-0.10955167 0.058536977 -0.28465804 0.88003886 -0.47488514 0.0039792969 0.0023941933
0.10934451 0.059037119 -0.28407738 -0.87780923 -0.47891608 0.0094999317 0.0026945153
0.11206637 0.052466035 -0.28480798 -0.90116835 -0.4334645 0.0020316245 0.0018577656
-0.10505683 0.066093095 -0.28501013 0.83652121 -0.54791951 -0.0040480625 0.0019169447
0.10602611 0.064753711 -0.28345811 -0.84661615 -0.53215879 0.0069468315 0.0018279237
-0.10111079 0.071287513 -0.28562349 0.81715995 -0.57637918 -0.0060522612 0.0018441515
-0.097138874 0.076463826 -0.28365105 0.7928732 -0.60938448 0.001631673 0.0018739863
0.097939111 0.075420931 -0.28603768 -0.80123955 -0.59831208 0.0061484743 0.0012905726
0.1019806 0.070153967 -0.28340453 -0.82060611 -0.57148498 0.0032517991 0.0019064826
-0.092532754 0.08246661 -0.28576913 0.7466988 -0.66513741 0.0057541188 0.0025914207
-0.087929785 0.087876759 -0.28412926 0.70028365 -0.71385747 0.0032298735 0.0025173796
0.088081121 0.088018276 -0.28467622 -0.7065711 -0.70762902 0.0042819805 0.0027547076
0.092546701 0.08244846 -0.28508928 -0.74305165 -0.66921467 0.0051034037 0.0031041419
-0.082381323 0.0925982 -0.2865589 0.66369641 -0.74798161 -0.0055316007 0.002205566
-0.076727122 0.096936822 -0.28552839 0.61417449 -0.78916365 -0.0032374237 0.0020371813
0.076030336 0.097471498 -0.28579447 -0.60876906 -0.79333323 0.0047628796 0.001984596
0.083382048 0.091830328 -0.28569314 -0.68043768 -0.73280424 -0.0016046112 0.0022645935
-0.071708724 0.10078758 -0.28432232 0.59089315 -0.80674928 -0.0010323719 0.0014964974
-0.065477774 0.10552751 -0.28559557 0.53143072 -0.84710157 0.00061135733 0.0020893684
-0.059988543 0.10895042 -0.28990418 0.48327541 -0.87546676 -0.0016878223 0.0021707783
0.05862318 0.10951598 -0.28459126 -0.46750161 -0.88398826 -0.0026462467 0.001992479
0.062404454 0.1076778 -0.28503513 -0.5019666 -0.86486161 0.0066352659 0.002531955
0.071527593 0.10092658 -0.28386971 -0.59313267 -0.80510104 -0.0024426326 0.0014505938
-0.052220777 0.11216794 -0.28335947 0.42598104 -0.9047277 -0.0028047529 0.0022403863
-0.043102592 0.11594483 -0.28554681 0.35153061 -0.93617612 0.00075381639 0.0015327961
-0.037682265 0.11819001 -0.28548518 0.30469254 -0.95244855 0.0020487942 0.0022034419
0.036606055 0.1186358 -0.28422591 -0.30688927 -0.95170444 0.008814835 0.0021829575
0.045025852 0.1151482 -0.28476006 -0.36330429 -0.93167007 -0.00089871406 0.00094203866
0.052833468 0.11191417 -0.28606004 -0.43285578 -0.90143299 0.0073793158 0.0023053235
-0.031558014 0.12045616 -0.28267658 0.24728668 -0.96892703 0.0054554013 0.0025908444
-0.0256842 0.121299 -0.2850084 0.22543976 -0.97424847 -0.004108218 0.002470183
-0.014440773 0.12277919 -0.2855556 0.12312725 -0.99239081 0.0002690292 0.0018623928
-0.0051973658 0.1239961 -0.28498775 0.053565074 -0.99856126 0.0024754498 0.0019654634
0.0043569002 0.12410676 -0.28671685 -0.051862571 -0.99864995 -0.0029261641 0.0016617756
0.014790383 0.12273318 -0.28446236 -0.11020702 -0.9939006 -0.0040111071 0.0012002392
0.025171414 0.12136652 -0.28523302 -0.21839827 -0.97585022 0.0042963526 0.0020140912
0.031718593 0.12049156 -0.2868748 -0.26548433 -0.96407074 -0.0092566898 0.0027114737
-0.032175161 -0.1203564 -0.27647695 0.26702064 0.9636113 -0.012379748 0.0027992434
-0.024249233 -0.1214879 -0.27514637 0.18989924 0.98180318 0.00089572888 0.0020242187
-0.015854474 -0.12259308 -0.2743178 0.12754197 0.99183053 0.0022755526 0.00071584678
-0.0045531904 -0.12408091 -0.2754783 0.04219288 0.99910682 -0.0023230149 0.0020933524
0.0039839842 -0.12415586 -0.27488038 -0.027834184 0.99950117 -0.014921966 0.002311501
0.016838068 -0.1224636 -0.27536592 -0.15327208 0.9881711 -0.0050476338 0.0018459649
0.025966194 -0.12126186 -0.27751955 -0.21669582 0.976237 -0.002068284 0.0022854472
0.031497769 -0.12052182 -0.27423611 -0.24173485 0.9702912 0.0099573368 0.0029151884
-0.05311539 -0.11179737 -0.27480191 0.44689125 0.89458692 -0.0015240503 0.002130511
-0.045411255 -0.11498854 -0.2737022 0.37714365 0.92612618 -0.0072768573 0.0013550788
-0.036225311 -0.11879351 -0.27512041 0.29811546 0.95452976 -5.7599587e-05 0.0022828311
0.035418551 -0.11912768 -0.2753264 -0.29268384 0.95620787 -0.0016456874 0.0023144532
0.045183722 -0.11508281 -0.27424082 -0.35941494 0.93317181 -0.0033468618 0.0016210967
0.053531352 -0.11162509 -0.27583352 -0.4384425 0.89875478 0.0028248371 0.0018453125
-0.071873963 -0.10066079 -0.27463654 0.59186721 0.806023 0.0044782963 0.001391954
-0.064064652 -0.10651951 -0.27486983 0.52520847 0.8509618 -0.004477378 0.0018267435
-0.058297887 -0.1096507 -0.27406275 0.48179713 0.87628204 -0.0011894631 0.002601238
0.065157406 -0.10575161 -0.27539474 -0.52844733 0.8489514 0.0050122733 0.0019637654
0.071620002 -0.10085566 -0.27471659 -0.59077859 0.80683362 -0.0004598856 0.001452269
-0.082655251 -0.092387997 -0.27611071 0.67401707 0.73867625 -0.0076348297 0.002493164
-0.076739721 -0.096927144 -0.27665007 0.61689454 0.78700113 0.0083894292 0.0021403215
0.075537123 -0.097849943 -0.27351686 -0.60290879 0.79780984 0.00060349418 0.001521831
0.084177673 -0.091219798 -0.27392167 -0.68598288 0.72759014 0.0063257944 0.0024522843
-0.092177987 -0.082928926 -0.27554199 0.74015087 0.67244017 0.0009701263 0.0029818052
-0.088049777 -0.088019185 -0.27434161 0.71415639 0.69998616 -5.500744e-05 0.0022105193
0.088215649 -0.087868921 -0.27306339 -0.70570284 0.70850712 0.0010789497 0.0027321225
0.09298344 -0.081879266 -0.27408168 -0.74939549 0.66211921 0.0021382528 0.0022771989
-0.10124115 -0.07111764 -0.27424362 0.82439691 0.56600803 0.0021668281 0.0021780417
-0.096259557 -0.077609748 -0.27496135 0.78629684 0.61783546 -0.0040783244 0.0017357798
0.097854361 -0.075531378 -0.2749795 -0.79938972 0.60081053 -0.0016917222 0.0012193754
0.10144174 -0.070856221 -0.27277705 -0.8110131 0.58502424 0.0020880203 0.0013214562
-0.10533587 -0.065657265 -0.27548692 0.84124988 0.54061443 -0.005897318 0.0019611139
0.1053896 -0.065640755 -0.27525499 -0.84161854 0.54007107 0.001185643 0.0020260017
-0.11187509 -0.052927732 -0.27542353 0.90552455 0.42428765 -0.0023073184 0.0025758592
-0.10944209 -0.058801524 -0.27512252 0.87702727 0.48043296 0.0026999929 0.0023645943
0.10926016 -0.059240777 -0.27479735 -0.87635517 0.4815923 -0.0083969515 0.0022037614
0.1112383 -0.054465126 -0.27519622 -0.89320177 0.44963989 -0.0038156596 0.0018752089
-0.11500192 -0.045378942 -0.27539694 0.92755061 0.37369752 -0.0002398131 0.001382495
0.11543433 -0.044335078 -0.27442884 -0.93499219 0.35464597 0.0039763986 0.0015700646
-0.12049639 -0.031337187 -0.27418667 0.96715862 0.25406426 0.0074496698 0.0032693115
-0.11822397 -0.037600286 -0.27520648 0.94952929 0.31364179 -0.0047791861 0.0019868165
0.11849678 -0.036941715 -0.27663913 -0.94967979 0.31318867 -0.0045969714 0.0021118522
0.1205406 -0.031444769 -0.27157933 -0.96848112 0.2490768 0.0022383893 0.0027853374
-0.12141559 -0.024798343 -0.27447239 0.97842938 0.20658039 0.00068742933 0.0028701616
0.12146159 -0.024449181 -0.27581984 -0.98483807 0.1734497 0.00302141 0.0019484484
-0.12262571 -0.015606648 -0.27497447 0.99353915 0.11348353 0.0011855855 0.0012913131
0.12256543 -0.016064415 -0.27484858 -0.98837972 0.15169618 -0.009684775 0.0016419855
-0.12419709 -0.0036707115 -0.27526483 0.99961108 0.026198162 0.0095655508 0.0025551922
0.12409059 -0.0044796346 -0.27612934 -0.99937332 0.035276346 -0.0029158394 0.0023621153
-0.12408749 0.0045033139 -0.27598643 0.99942029 -0.033209283 -0.0075009749 0.0024419408
0.12402403 0.0049853856 -0.27458557 -0.99921858 -0.039505802 0.0012740445 0.0019997554
-0.12255427 0.016149258 -0.274955 0.99216825 -0.12487821 0.002762049 0.00069716579
0.12272175 0.014877319 -0.27497783 -0.99357522 -0.11314815 -0.0023874647 0.0010927456
-0.12139555 0.024950814 -0.27451384 0.97937548 -0.20203908 -0.0019781825 0.0022975458
0.12152781 0.023946228 -0.27492473 -0.98253238 -0.18588567 0.0087525453 0.0019355017
-0.12045203 0.031990498 -0.27440602 0.96789849 -0.25131273 0.0038044788 0.0032642249
-0.11860555 0.036679063 -0.2768231 0.94973975 -0.31301373 0.0040919329 0.0024635654
0.11846294 0.037023399 -0.27480981 -0.94951725 -0.31361106 0.0080715828 0.0021018242
0.12055197 0.03129096 -0.2756187 -0.96738786 -0.25328359 0.0028525572 0.003247702
-0.11491086 0.045598794 -0.27460954 0.92581707 -0.37796959 0.0012763694 0.0014255461
0.1148778 0.045678668 -0.27686295 -0.92498869 -0.37999359 0.00093042979 0.0016855337
-0.11167571 0.053409129 -0.27215812 0.89427137 -0.44752368 0.0011038702 0.0018925332
-0.10937723 0.058958132 -0.27632415 0.88135272 -0.47239119 -0.0079958281 0.0022937348
0.10940119 0.058900297 -0.27327275 -0.87915146 -0.47649884 -0.0064471704 0.0028983064
0.1111673 0.05463656 -0.27922666 -0.89969701 -0.43651462 -0.00053245231 0.0017674732
-0.10681005 0.063687712 -0.27431551 0.86125088 -0.50812656 0.0073644761 0.0021633662
0.10759667 0.062491875 -0.27624324 -0.8640151 -0.50343287 -0.0057786638 0.0024306104
-0.10168226 0.070542768 -0.27585602 0.82632589 -0.56318623 -0.0026116953 0.0018278043
-0.09771312 0.075715415 -0.27586305 0.80442882 -0.59404474 -0.0022838535 0.001351967
0.09744031 0.076070979 -0.27573597 -0.79308844 -0.60909474 0.0037823343 0.0018213213
0.1013725 0.07094647 -0.2722066 -0.82415885 -0.56634897 0.0033228516 0.001813808
-0.09258952 0.082392626 -0.27476019 0.73404616 -0.67909712 -0.0018486769 0.0025002742
-0.087977521 0.088032596 -0.27494824 0.71045929 -0.70373821 -0.00010146157 0.00243365
0.088080086 0.088025615 -0.27635843 -0.7057026 -0.70850497 -0.0021493863 0.0022657197
0.092184901 0.082919925 -0.27553353 -0.73650962 -0.67642283 0.0024106887 0.0027799443
-0.083526276 0.091719635 -0.27543449 0.6855306 -0.72801006 -0.0070130378 0.0022678352
-0.07601437 0.097483739 -0.2767764 0.6016441 -0.79875267 -0.0043098549 0.0014001642
0.076779962 0.096896291 -0.2739355 -0.62335432 -0.7819348 -0.002726631 0.0020843591
0.083822966 0.09149199 -0.27590147 -0.68227571 -0.73109317 -0.001634632 0.0022048876
-0.070938677 0.10137846 -0.27634954 0.58022124 -0.81444913 -0.0039905161 0.0011808777
-0.065577857 0.10535513 -0.27484387 0.5418781 -0.84045601 -0.0013678137 0.0019442156
-0.057565492 0.10995409 -0.27093726 0.45894858 -0.88846201 -0.0012105294 0.0017817557
0.058849081 0.10942242 -0.27249911 -0.47798243 -0.87836283 -0.0033960824 0.0021718529
0.066097818 0.10503457 -0.27513835 -0.5423196 -0.84010172 -0.010888719 0.0019959239
0.071303375 0.10109863 -0.27616265 -0.58622807 -0.81013882 -0.0034259267 0.0013130918
-0.052521452 0.11204341 -0.2753748 0.4247559 -0.90530455 0.0024922539 0.0021613538
-0.044425759 0.11539676 -0.27559531 0.36852908 -0.92961544 0.0012133815 0.00090792414
-0.036442794 0.11870342 -0.27519503 0.30443376 -0.95252901 0.002931355 0.0022536591
0.035902809 0.11892711 -0.27196911 -0.30018306 -0.95386142 0.0062074461 0.0020656302
0.044059247 0.11554858 -0.27423149 -0.35429516 -0.93513209 0.0016934399 0.0015296674
0.053895589 0.11147422 -0.27461278 -0.44063234 -0.89767689 -0.0044008438 0.002570804
-0.031653978 0.12047925 -0.27405849 0.25263217 -0.96756244 0.00014619209 0.0029784495
-0.025768695 0.12128787 -0.27390358 0.21978213 -0.97548401 0.011257404 0.0023860924
-0.014524383 0.12276819 -0.27619055 0.12873153 -0.99167949 5.2957184e-05 0.00068393565
-0.0042324918 0.12412313 -0.2762188 0.048920587 -0.99879527 -0.003835697 0.0020234266
0.0049246005 0.12403204 -0.27630296 -0.057219267 -0.99835962 -0.0019985531 0.001531502
0.015987035 0.12257564 -0.27534717 -0.13682672 -0.99059486 -0.000513484 0.001206239
0.026020732 0.1212547 -0.27573156 -0.2257435 -0.97418654 -0.00062023121 0.0023386336
0.030531671 0.12066083 -0.27043191 -0.25642419 -0.96656317 0.0015050076 0.0025935732
-0.030446021 -0.12067208 -0.26646847 0.24520594 0.96943337 -0.0085469773 0.002873922
-0.024350487 -0.12147456 -0.26578549 0.18387555 0.98292685 -0.0066798241 0.0022466609
-0.014078653 -0.12282687 -0.26607442 0.10933227 0.99400192 0.0025649341 0.0014709829
-0.0032339811 -0.12425458 -0.26226762 0.024846865 0.99968654 0.0030791524 0.0023779236
0.0047572809 -0.12405405 -0.26521209 -0.044070136 0.99902445 0.0028285705 0.002152618
0.01575461 -0.12260623 -0.26514834 -0.12324689 0.99237502 -0.0013829223 0.0017498503
0.025745973 -0.12129086 -0.26452824 -0.19973402 0.97982359 0.0072152214 0.002314558
0.03153773 -0.12045457 -0.26368111 -0.23910196 0.97094238 0.010054856 0.0026777447
-0.052829783 -0.11191567 -0.26546818 0.44033873 0.89781892 -0.0047971266 0.0016492866
-0.04733995 -0.11418965 -0.26344225 0.38604805 0.92247343 -0.0031073336 0.0015271906
-0.036643185 -0.1186204 -0.26528883 0.29891658 0.95424229 -0.0083991233 0.002099199
0.037276559 -0.11835808 -0.26659486 -0.30790746 0.95138657 -0.0075228973 0.0018118729
0.043296315 -0.11586459 -0.26531321 -0.34875914 0.93721241 -2.6493924e-05 0.0017274341
0.052428942 -0.11208172 -0.2667388 -0.43704206 0.89943749 -0.0025288095 0.0019385288
-0.07069239 -0.10156745 -0.26603508 0.57324606 0.81937748 0.0030991198 0.0019161813
-0.06513828 -0.10578486 -0.26431435 0.5334667 0.84580123 -0.0058018439 0.0017658211
-0.058021508 -0.10976519 -0.26626506 0.46700612 0.88424909 -0.0029657136 0.0022302517
0.065728717 -0.10527438 -0.26534882 -0.54138666 0.84077376 -6.8900154e-05 0.0019448795
0.070923507 -0.10139011 -0.26497781 -0.58054197 0.81422615 0.0025897473 0.0010678192
-0.081528522 -0.093252562 -0.26473159 0.65166593 0.75850332 0.0020419706 0.0022209508
-0.075784199 -0.097660363 -0.2649149 0.59693468 0.80228597 -0.0024975603 0.0014826617
0.075548455 -0.097841255 -0.26528731 -0.60020429 0.79982185 0.0063188639 0.0015397485
0.082546264 -0.092471629 -0.26461825 -0.68425369 0.72921056 0.0069846781 0.0023735687
-0.091947041 -0.083229922 -0.26480851 0.72602457 0.68764162 -0.0061010807 0.0024949273
-0.08787296 -0.088168345 -0.26341474 0.69332004 0.72062564 -0.0024250848 0.0022505661
0.088392481 -0.087661579 -0.26597434 -0.7143262 0.69981289 -0.00010423728 0.0026365467
0.091887712 -0.083307244 -0.26514733 -0.73984683 0.67275053 0.0057724491 0.0024120794
-0.10067906 -0.071850151 -0.26703766 0.80816334 0.58894694 -0.0036941865 0.0017917791
-0.097349785 -0.076188944 -0.26517481 0.79762292 0.60315412 -0.001686755 0.0014690254
0.097372286 -0.076159619 -0.26585168 -0.79311085 0.60907429 0.0019386014 0.0011324092
0.1011577 -0.071226381 -0.26467317 -0.80478925 0.5935539 -0.0028233943 0.0013325011
-0.10629974 -0.064402789 -0.26518366 0.85158056 0.52420193 -0.004785981 0.001984796
0.10531303 -0.065758847 -0.2645565 -0.83804041 0.54560411 0.0021282742 0.0019243824
-0.11175655 -0.053213924 -0.26342258 0.89641058 0.44322023 -0.0019451173 0.0018960101
-0.10952877 -0.058592275 -0.26188248 0.88688487 0.46198589 -0.0020829996 0.0021541626
0.10909467 -0.059640266 -0.26455793 -0.87113219 0.49102175 0.005134732 0.0023531376
0.11096819 -0.055117216 -0.26345524 -0.89418244 0.44770083 0.0013284618 0.001831005
-0.11429089 -0.047095541 -0.26547632 0.92253125 0.38589105 0.0049125724 0.0016337233
0.11576812 -0.043529231 -0.26586807 -0.93499732 0.3546381 0.0034397962 0.0017169164
-0.12034693 -0.032177281 -0.26429284 0.96286482 0.26996946 0.002798564 0.0028245654
-0.11913142 -0.035409503 -0.2644484 0.9533388 0.30181059 0.0074496488 0.0021954936
0.11827487 -0.0374774 -0.26447108 -0.95283437 0.30332458 0.010038711 0.0023027526
0.12041754 -0.031688884 -0.2642014 -0.97048038 0.24108142 0.0068956502 0.002722855
-0.12163055 -0.023165539 -0.26750839 0.98343772 0.18124285 0.0011304023 0.0024681082
0.12134554 -0.025330668 -0.26581386 -0.98181415 0.18984459 3.4066146e-05 0.0019081411
-0.12278496 -0.014396948 -0.26469338 0.99280763 0.11971764 -0.00082180806 0.00070911017
0.12296203 -0.013052019 -0.26575005 -0.99566644 0.092994139 -0.00066175795 0.0020141685
-0.12411232 -0.0043145739 -0.26444849 0.9984116 0.055997167 0.0062144175 0.0017476804
0.12407034 -0.0046335561 -0.26601404 -0.99895096 0.045295678 -0.0067266994 0.0021782978
-0.12400772 0.0051092706 -0.26626882 0.99891537 -0.046529658 -0.0017595559 0.0021212709
0.12409543 0.0044429903 -0.2657617 -0.99906927 -0.043123551 0.00096707913 0.0022843641
-0.1225404 0.016254636 -0.26530513 0.99040049 -0.13821405 -0.0019461263 0.0013449144
0.12288203 0.013659745 -0.26457101 -0.99498004 -0.10003312 -0.0028622057 0.0013849653
-0.12130276 0.025655448 -0.26320001 0.97725147 -0.21200019 0.0059665446 0.0020971291
0.12146746 0.024404597 -0.26638082 -0.98162895 -0.19071779 -0.0055901501 0.0021211375
-0.12047677 0.03192956 -0.26355919 0.96626598 -0.25754336 0.001216396 0.0032261773
-0.11902891 0.035657004 -0.26544407 0.95406222 -0.29960749 -0.00074871152 0.0024087883
0.11866058 0.036546286 -0.26386365 -0.95259356 -0.30415097 -0.0075989896 0.0023447708
0.12041292 0.032315761 -0.26567194 -0.96256799 -0.27102703 0.0026785191 0.0031190289
-0.11520599 0.044886306 -0.26472548 0.9314748 -0.3638007 -0.0019245523 0.002247104
0.11482733 0.0458005 -0.26496044 -0.92219234 -0.38669452 -0.0053528338 0.0016806572
-0.11242212 0.051607158 -0.26657343 0.90869653 -0.41744339 0.0033916314 0.0019781042
-0.10950225 0.05865632 -0.26513925 0.8815791 -0.4720335 -0.0016567888 0.0024242208
0.10950878 0.058640528 -0.26604003 -0.87833893 -0.47773537 -0.017022118 0.0022133517
0.11096374 0.055128001 -0.2648491 -0.8928687 -0.4501622 -0.011811398 0.002053913
-0.1051603 0.06601011 -0.2652092 0.84269708 -0.53838688 -0.0010974086 0.0019657896
0.10570379 0.065205857 -0.26396954 -0.84609622 -0.53284466 -0.014062829 0.0019519303
-0.10128108 0.07106559 -0.26328859 0.81458157 -0.58000702 0.0069778278 0.0018425967
-0.096491113 0.077307984 -0.26513559 0.78713173 -0.61674547 -0.0069777346 0.0017270547
0.096455574 0.077354297 -0.26621568 -0.77740991 -0.62895054 -0.0074189701 0.0021133032
0.10124862 0.071107902 -0.26191688 -0.81802726 -0.57517505 -0.0022619215 0.0022833045
-0.093030803 0.081817538 -0.26450372 0.7539171 -0.65696889 -0.00098229235 0.0022513415
-0.08913181 0.086876877 -0.26567385 0.71550131 -0.69861144 -5.6901922e-07 0.0022184774
0.087969981 0.088137075 -0.26594305 -0.70220101 -0.71197832 0.0007069218 0.0024204513
0.093301803 0.081464373 -0.26488551 -0.76031387 -0.6495533 0.0018173015 0.0021124773
-0.083190113 0.091977589 -0.26501644 0.68404675 -0.72943592 0.001808678 0.0021960565
-0.074905798 0.098334387 -0.26369202 0.60017806 -0.79986644 4.3507574e-05 0.0015941522
0.076415546 0.097175919 -0.26398084 -0.61023742 -0.79221445 0.0025877955 0.0019387314
0.081871085 0.09298972 -0.26445675 -0.66471326 -0.74709475 -0.0024121711 0.0026549047
-0.071803987 0.10071449 -0.26574787 0.58193761 -0.8132304 -0.0022153764 0.0020077568
-0.064923637 0.10583325 -0.26539555 0.52495575 -0.8511228 -0.0033742499 0.0017688166
-0.058648266 0.10950558 -0.2631641 0.46059203 -0.88761199 8.2308397e-05 0.0019566834
0.058290105 0.10965394 -0.26441553 -0.46869037 -0.88333774 -0.0066201934 0.0023171296
0.064875089 0.1059626 -0.26611242 -0.52586311 -0.85052079 -0.0090770805 0.0018823461
0.072567545 0.10012859 -0.26132488 -0.59341687 -0.80489051 0.0027660197 0.001520631
-0.054018032 0.11142348 -0.26509097 0.44507909 -0.89549088 -0.00083004282 0.0018337171
-0.045693681 0.11487156 -0.26483306 0.38061258 -0.92473269 -0.0018508761 0.0015182765
-0.037178572 0.11839864 -0.26303428 0.30620122 -0.9519667 0.00051618513 0.0023177539
0.037060119 0.11844773 -0.26644564 -0.304957 -0.95235598 0.0043951632 0.0020939079
0.045059063 0.11513446 -0.26582631 -0.36642599 -0.93044609 -0.0014095593 0.0009352545
0.053433388 0.11166567 -0.26465264 -0.4506588 -0.89268553 -0.0043775034 0.0020024066
-0.03161959 0.1205176 -0.26441124 0.27289447 -0.9620285 0.0054629245 0.0032482764
-0.024287859 0.12148282 -0.26414162 0.19076787 -0.98162729 0.0039377767 0.0018509352
-0.014549926 0.12276483 -0.2658681 0.10638233 -0.99432528 -0.00012352796 0.001280406
-0.0046144514 0.12407283 -0.26491123 0.044299241 -0.99900597 0.004962774 0.002158524
0.0035666765 0.12421078 -0.2645666 -0.03870884 -0.9992438 0.0036765873 0.0021808033
0.015316006 0.12266397 -0.26563263 -0.11419851 -0.9934566 -0.0016320391 0.0014086342
0.023958737 0.12152616 -0.26486385 -0.19031426 -0.98170477 0.0060185292 0.0021539612
0.031376064 0.12051525 -0.26454416 -0.25158113 -0.96777922 0.010498633 0.0030250533
-0.031182077 -0.12057517 -0.25338471 0.2551091 0.96689808 0.0052397284 0.0029597729
-0.025156373 -0.12136848 -0.25577545 0.20509125 0.9787395 -0.0025471949 0.0026578875
-0.013663241 -0.12288156 -0.25606918 0.10112547 0.99484634 -0.0073715616 0.0016202941
-0.0051545571 -0.12400174 -0.25444475 0.056459557 0.9984026 -0.002169193 0.0016190286
0.0045029474 -0.12408753 -0.25463787 -0.042049721 0.99908447 -0.007870866 0.0022814823
0.015756005 -0.12260604 -0.25512856 -0.12924783 0.9916122 0.00054112187 0.0018004808
0.025351416 -0.12134279 -0.25441757 -0.19069903 0.98164552 0.0024271256 0.0019000808
0.031409074 -0.12051674 -0.2537694 -0.26052031 0.96546674 0.0017485761 0.0032256295
-0.053115744 -0.11179722 -0.25380844 0.43695867 0.89947879 -0.0022556633 0.0023432898
-0.045757052 -0.11484531 -0.25426075 0.3794069 0.92522931 -0.0010528873 0.0013184918
-0.036725618 -0.11858626 -0.25386387 0.29661748 0.95499396 0.0021558919 0.0022513811
0.037532911 -0.11825188 -0.25480318 -0.31932747 0.94764137 -0.0024289954 0.002453546
0.043970253 -0.11558542 -0.25472891 -0.36482689 0.93106085 0.0051938063 0.0020735399
0.054558601 -0.11119958 -0.25545424 -0.44809678 0.89397615 0.0039918497 0.0017307302
-0.071608238 -0.10086469 -0.2555424 0.57411438 0.81877452 0.00099220127 0.0020123101
-0.065819018 -0.10523388 -0.25713566 0.53810817 0.84286958 0.0032352605 0.0018490646
-0.059735585 -0.10905518 -0.25651884 0.48980111 0.87183207 0.0019450205 0.002166335
0.058095679 -0.10973446 -0.25070715 -0.45687971 0.88949823 0.00733566 0.0016830132
0.064421311 -0.1060945 -0.25429505 -0.51617855 0.85646486 0.005266468 0.0021602141
0.070220649 -0.10192943 -0.25579056 -0.56930536 0.82212162 0.0027213318 0.0018156102
-0.082487158 -0.092516981 -0.25789627 0.66926122 0.74302679 -0.00082030892 0.0022414504
-0.075877242 -0.097588949 -0.25464547 0.60583836 0.79558778 -5.704146e-05 0.0019334275
0.076079354 -0.09743388 -0.25682235 -0.61338055 0.78976965 -0.0053216349 0.0019882012
0.083133839 -0.092020765 -0.25527236 -0.68603271 0.72756869 0.0017234068 0.0024327913
-0.091923214 -0.083260961 -0.25419587 0.73596752 0.67701417 -0.0019148823 0.0024039873
-0.088170819 -0.087921336 -0.25349662 0.70256627 0.71153837 0.010662919 0.0021199402
0.088233344 -0.087735437 -0.25592366 -0.71503544 0.69905007 -0.0073045488 0.0023201765
0.092437863 -0.082590275 -0.25439903 -0.73774552 0.6750446 0.0068079792 0.0025511396
-0.10063852 -0.07190299 -0.25372174 0.81355947 0.58147973 0.0014884195 0.0017498713
-0.096888974 -0.076789476 -0.25515327 0.78970051 0.61348194 0.0035902031 0.0021306768
0.096743368 -0.07697925 -0.25583825 -0.78757 0.61621904 -0.0027423617 0.0018970018
0.10099608 -0.071437016 -0.25729874 -0.81208491 0.58346617 -0.0092419842 0.0018827937
-0.10653739 -0.064073078 -0.25458986 0.85814703 0.51338691 -0.0042023985 0.002182438
0.10464729 -0.066653572 -0.25504532 -0.84044957 0.54188728 -0.0016279962 0.00197313
-0.11129896 -0.05431867 -0.25411895 0.89373595 0.44853517 -0.007235554 0.0019253986
-0.10936143 -0.058996249 -0.25711986 0.88704258 0.46165988 -0.0050607985 0.0021163498
0.10931761 -0.059102084 -0.25800276 -0.8825292 0.4701809 -0.0084986305 0.0022967719
0.11231229 -0.051872265 -0.2540659 -0.9035297 0.42852309 0.0014178003 0.0023180228
-0.11455756 -0.046451733 -0.25635716 0.92565584 0.37836644 0.00034978442 0.0014594466
0.1147642 -0.045952916 -0.25434741 -0.9205156 0.39070466 -0.00098944327 0.001637348
-0.12037921 -0.03239708 -0.25959051 0.96163386 0.27433503 -0.0007876482 0.0029436245
-0.11866103 -0.036545131 -0.25431079 0.95391768 0.30004576 0.0036888896 0.0022626531
0.11848144 -0.036978729 -0.2548295 -0.95278263 0.30360657 0.0053220461 0.0023875227
0.12037163 -0.032101676 -0.25735259 -0.96804571 0.25065821 -0.0076085501 0.0029146278
-0.12135621 -0.025249491 -0.25442946 0.98046941 0.19662285 -0.0043772487 0.0023813942
0.12138791 -0.025008768 -0.25371063 -0.97975761 0.20017278 0.0024394607 0.0024041266
-0.12274777 -0.014679426 -0.25364664 0.9937259 0.11183251 -0.0015329596 0.0013293364
0.12290023 -0.013521467 -0.25476605 -0.99576235 0.091962889 0.00011823089 0.0018836566
-0.12400642 -0.005119001 -0.25504544 0.99845237 0.055405527 -0.0047956388 0.0017060149
0.12402822 -0.0049534142 -0.25556809 -0.99828893 0.058220774 -0.0054342095 0.0016922916
-0.1241132 0.0043079788 -0.25519699 0.99907154 -0.04234748 -0.0079241507 0.0021515884
0.12405374 0.0047596819 -0.253598 -0.99918449 -0.040354069 0.0013659985 0.0021598968
-0.12278224 0.014417856 -0.2545464 0.99387425 -0.11041758 -0.0046803281 0.0011629082
0.12280766 0.014224637 -0.25572991 -0.99492472 -0.10059826 -0.0021864632 0.0014877641
-0.1213586 0.025231399 -0.25501406 0.97889704 -0.20435393 0.00035888195 0.0018291825
0.12134971 0.02529911 -0.25537315 -0.98033208 -0.19725002 -0.0064331219 0.0016623674
-0.12043828 0.032221969 -0.25964794 0.96188807 -0.2734434 -0.00025717181 0.0029944959
-0.11869153 0.036471494 -0.25478446 0.95360273 -0.30105233 -0.0030656671 0.002294539
0.11866825 0.036527749 -0.25323671 -0.95470536 -0.29753152 0.003546322 0.002247182
0.12049781 0.031387784 -0.25647631 -0.96996546 -0.24322392 -0.0030319288 0.0027416539
-0.11529009 0.044683255 -0.25357434 0.92990959 -0.36776784 0.0038711659 0.00091382413
0.11499392 0.045398325 -0.25495115 -0.92472947 -0.38062462 0.00047229568 0.0013027528
-0.11128545 0.054351293 -0.2528801 0.89218402 -0.45165104 0.0043574735 0.001900645
-0.10921746 0.059343822 -0.25580561 0.87542593 -0.48330709 -0.0066065541 0.0023906177
0.10924029 0.059288722 -0.25781697 -0.87330705 -0.48711395 -0.0073936791 0.0021366016
0.11126187 0.054408263 -0.25672787 -0.89164102 -0.4525902 -0.011764368 0.0019209536
-0.10571447 0.065246046 -0.25388521 0.84151506 -0.54023355 -0.00030573105 0.0020723375
0.10583548 0.064946853 -0.25482976 -0.84708428 -0.53140265 -0.0077086259 0.001900551
-0.10120277 0.071167648 -0.25430983 0.80837548 -0.58866501 0.0015826512 0.0015782244
-0.096958429 0.076698959 -0.25593564 0.7886045 -0.61488843 -0.0039066123 0.0016410062
0.096779868 0.076931678 -0.25460002 -0.78925657 -0.61405843 0.0024836271 0.0020092132
0.10067121 0.071860403 -0.25572497 -0.80001599 -0.5999701 -0.0031928266 0.0012319871
-0.091487132 0.083829276 -0.25528258 0.72586817 -0.68783247 -0.0013432952 0.0021761563
-0.087838568 0.088256232 -0.25489068 0.71045476 -0.70374274 -0.000438697 0.00247542
0.087741092 0.08839003 -0.2560671 -0.70600259 -0.70818317 -0.0060694227 0.0026190963
0.092674784 0.08228153 -0.25427112 -0.73571593 -0.67728579 -0.0024377282 0.002548432
-0.08284127 0.092245258 -0.25460792 0.67635059 -0.73656881 0.0040391032 0.0021878008
-0.077084564 0.096662544 -0.25397974 0.62219089 -0.78281391 0.0090022804 0.0024855975
0.076575458 0.097053215 -0.25565678 -0.61734611 -0.78668314 0.0036420063 0.002442894
0.082547337 0.092470825 -0.25460517 -0.67697871 -0.73599738 0.0027665906 0.0021003454
-0.070999973 0.10133144 -0.253259 0.5722326 -0.82009137 -0.00011003228 0.0014692699
-0.065744683 0.1053268 -0.25557473 0.53847033 -0.8426435 0.0012561019 0.0017309461
-0.058423981 0.10959848 -0.25691009 0.46355397 -0.88606638 -0.0019936906 0.0019099598
0.06484466 0.10593359 -0.25501606 -0.53114825 -0.84727466 -0.002687935 0.0020045929
0.071539663 0.10091731 -0.25244194 -0.57910883 -0.81524992 0.0007212832 0.0018673735
-0.053477358 0.11164744 -0.25581396 0.43829378 -0.89883113 0.0011131252 0.0022779419
-0.043950118 0.11559379 -0.25591612 0.36569956 -0.93072361 -0.0041829743 0.00085903628
-0.035696372 0.11901261 -0.254114 0.30801484 -0.95138115 0.00089324143 0.0022415731
0.036360893 0.11873736 -0.25530893 -0.2989538 -0.95426565 -0.0019300203 0.0022982613
0.046366096 0.11459304 -0.25518435 -0.37885419 -0.92545611 0.00069988554 0.0015279924
0.053125981 0.11179299 -0.25518274 -0.43977845 -0.89810532 0.0013093563 0.0022362641
-0.032309145 0.12034946 -0.25597471 0.26412797 -0.96447945 0.0039614486 0.0031761192
-0.025478641 0.12132605 -0.25464302 0.21892796 -0.97574091 0.00047777875 0.0023778565
-0.013504757 0.12290243 -0.25456539 0.09605024 -0.99535525 -0.0065082153 0.0016752513
-0.0051364871 0.12400412 -0.25556806 0.054696262 -0.99848926 -0.0052385721 0.0017349912
0.0044107358 0.12409969 -0.25482848 -0.05569787 -0.99844307 -0.0030326373 0.0017324367
0.015410427 0.12265155 -0.25486633 -0.11385871 -0.99348348 -0.0051729036 0.001289701
0.02530783 0.12134855 -0.25621739 -0.21593495 -0.97639912 -0.0040936549 0.0023542261
0.032371078 0.12028739 -0.2549673 -0.26600733 -0.96391594 -0.010302171 0.0031627631
-0.032067664 -0.12045857 -0.24142645 0.26958993 0.96295631 0.0060301521 0.0029460078
-0.0244307 -0.12146401 -0.24669233 0.20048904 0.97969043 0.0032947012 0.0017662633
-0.01460993 -0.12275691 -0.24600062 0.11397351 0.99347728 -0.0035836843 0.0013046581
-0.0040517421 -0.12414692 -0.24459977 0.05498156 0.99847728 0.0044846362 0.0016545092
0.0055803494 -0.1239457 -0.2438042 -0.058825463 0.99824554 0.0067337183 0.0015318242
0.013482074 -0.12290542 -0.24407594 -0.091237858 0.99582165 0.0038429375 0.0019646976
0.026199915 -0.1212311 -0.24520844 -0.2023779 0.97930747 9.2378512e-05 0.0016936695
0.031524871 -0.12052073 -0.24500629 -0.26005241 0.96559441 -0.00039839846 0.0033038482
-0.053905305 -0.11147019 -0.2431706 0.44471261 0.89566225 0.0044587599 0.0016846404
-0.044365983 -0.11542153 -0.24530862 0.36388856 0.93142939 0.0049335496 0.00098256173
-0.036982331 -0.11847992 -0.2448281 0.31233674 0.94994527 0.0070528844 0.0020393222
0.036261611 -0.11877848 -0.24435033 -0.30570182 0.95212382 0.0025786574 0.0025439402
0.043865956 -0.11562864 -0.24420288 -0.36364111 0.93153459 0.0029300861 0.00081739295
0.054643754 -0.11116431 -0.24471927 -0.44857571 0.89371765 0.0069655729 0.0018540743
-0.070991099 -0.10133824 -0.24264207 0.58227891 0.81298882 0.00065544597 0.0017176302
-0.064751737 -0.10605858 -0.24374786 0.53150034 0.84703052 0.0068288934 0.0017904857
-0.057618663 -0.10993204 -0.24502826 0.45689166 0.88950503 -0.0055460236 0.0020300683
0.058295894 -0.10965154 -0.24652907 -0.45398167 0.89100397 0.0035681336 0.0019343956
0.063604146 -0.10679264 -0.24578339 -0.50100291 0.8654443 0.0015094432 0.0027048492
0.071093865 -0.10125938 -0.24483609 -0.59568495 0.80317807 -0.0080333613 0.0013934681
-0.083267875 -0.09191791 -0.24499825 0.68158418 0.73173529 0.0025657222 0.0023958387
-0.075415857 -0.097943 -0.24539627 0.59690255 0.80231321 0.00088538707 0.0013413741
0.075389154 -0.09796349 -0.24457489 -0.6016224 0.79875517 -0.0063829366 0.0013801536
0.083401591 -0.091815308 -0.245399 -0.68101138 0.73227257 0.00070645049 0.0022989614
-0.091521531 -0.083784454 -0.24447381 0.7245695 0.68915373 0.0081391959 0.0024493043
-0.088016346 -0.087997772 -0.24604979 0.69776803 0.71632379 0.00021017279 0.0024408151
0.086714327 -0.089273356 -0.24614048 -0.69033778 0.72348219 0.0027039975 0.0023684353
0.092799246 -0.082119331 -0.24563168 -0.74202293 0.67036527 -0.0035107327 0.0025357765
-0.10098735 -0.071448363 -0.24418975 0.81053787 0.58568615 3.3022308e-05 0.0012725204
-0.096982747 -0.076667272 -0.24461639 0.79939908 0.60080034 -0.00015516877 0.0013626073
0.097163267 -0.076432005 -0.24657451 -0.79838949 0.60211873 -0.0052202265 0.0014756714
0.10114533 -0.071242511 -0.24723484 -0.81576902 0.57837355 -0.002185846 0.0016446734
-0.10669651 -0.063830882 -0.2449234 0.85849869 0.51278925 0.0051982617 0.0020599512
0.10567385 -0.065214485 -0.24410045 -0.85059309 0.5257836 -0.0065618963 0.0018920964
-0.11151976 -0.053785607 -0.24479276 0.89410627 0.4478547 0.00033587276 0.0020873877
-0.10917673 -0.059442148 -0.24521196 0.88001424 0.47494686 0.00073381688 0.0019741817
0.10916007 -0.059482396 -0.24352776 -0.87925303 0.47631374 0.0062711448 0.0023693356
0.11152902 -0.053763259 -0.24371453 -0.8947233 0.44658148 0.0059338016 0.0016320108
-0.11534727 -0.04454523 -0.24545597 0.93281096 0.36033902 -0.004418686 0.0015371962
0.11545718 -0.044279922 -0.2453426 -0.92990589 0.36779755 0.00020928442 0.00092872948
-0.12049311 -0.031595491 -0.24462475 0.96724439 0.25384587 -0.00076578889 0.002837291
-0.11790105 -0.038379859 -0.24427128 0.94533032 0.32605785 0.0060683792 0.0020922958
0.11860585 -0.036678381 -0.24331968 -0.95304102 0.30281863 -0.0036892125 0.0022566125
0.12023626 -0.032742213 -0.24875364 -0.96306896 0.26925358 -0.00080466381 0.0028906979
-0.12135858 -0.025231494 -0.24377902 0.98035669 0.19722492 -0.0017578881 0.001727088
0.12138364 -0.025041342 -0.24499445 -0.97988719 0.19952248 0.0034586203 0.0023537246
-0.12260869 -0.015735868 -0.24441488 0.98942548 0.14503917 -0.00096131 0.001248221
0.12282015 -0.014129717 -0.24447574 -0.99418652 0.10764606 0.0023429475 0.0012988705
-0.1240795 -0.0045639942 -0.24527457 0.9993211 0.036672726 0.0035161998 0.0023896717
0.123963 -0.0054488806 -0.24483061 -0.99856108 0.05361497 0.0011333505 0.0017073966
-0.1239996 0.0051708762 -0.2439182 0.99891764 -0.046513975 -0.00012534592 0.0019396897
0.12411458 0.0042974814 -0.24500465 -0.99912804 -0.041747686 -0.00057202484 0.0020572562
-0.1226984 0.015054544 -0.24626677 0.99213886 -0.12513947 0.00077178574 0.00057264778
0.12271436 0.014933293 -0.24641284 -0.99460876 -0.10368519 -0.0016771171 0.001541761
-0.12149096 0.024226077 -0.24604273 0.98284364 -0.18440545 -0.003601433 0.0020998791
0.12119792 0.026452027 -0.24688171 -0.97596234 -0.21789153 -0.0045486637 0.0021834916
-0.12046006 0.031616088 -0.24427676 0.96428204 -0.26485574 -0.0034034427 0.0032262551
-0.11847331 0.03699835 -0.24443708 0.9539656 -0.2999121 -0.0015380458 0.0024088016
0.1182928 0.037434161 -0.24576512 -0.95132732 -0.3081665 0.0031217167 0.0020637449
0.12036654 0.032012019 -0.24177186 -0.96643239 -0.25682873 0.0068845511 0.0030061884
-0.11537732 0.044472676 -0.24430317 0.92625862 -0.37687391 -0.0033174516 0.0014528877
0.11536032 0.04451374 -0.24503794 -0.92920876 -0.36955252 0.0014289297 0.00098485546
-0.11165569 0.053457469 -0.24414143 0.89298218 -0.45005119 0.0060619633 0.0018210518
-0.10928515 0.059180405 -0.24561343 0.87909377 -0.4766463 0.0015466837 0.002251822
0.1116271 0.053526491 -0.2440196 -0.89731771 -0.44135094 0.0055028913 0.0022245361
-0.1054623 0.065473095 -0.24513124 0.84427714 -0.53590512 -0.0013503045 0.0018666711
0.10538307 0.065488547 -0.24372524 -0.84202188 -0.53944105 0.0016040555 0.0017903475
-0.1015385 0.070730098 -0.24243237 0.81985539 -0.57256985 -0.00098021689 0.0022231126
-0.097026296 0.076610506 -0.24460684 0.7861883 -0.61798024 0.0029168327 0.0022580018
0.096849248 0.076841258 -0.24587776 -0.78544676 -0.61892754 0.0014179409 0.0018023722
0.10082676 0.071657687 -0.24288809 -0.80979586 -0.58671123 0.00076715124 0.001132881
-0.093088299 0.081742607 -0.2465983 0.74996209 -0.66148067 -0.00043147235 0.0024086004
-0.088330045 0.08777336 -0.24440753 0.71622294 -0.69783348 0.0072892648 0.0026653011
0.087392069 0.088670157 -0.24685852 -0.69835711 -0.71570015 -0.0084011527 0.0026158884
0.092553727 0.082439281 -0.24434522 -0.73307031 -0.68010306 0.0082351593 0.0022750264
