# .PCD v0.7 - Point Cloud Data file format
VERSION 0.7
FIELDS x y z normal_x normal_y normal_z curvature
SIZE 4 4 4 4 4 4 4
TYPE F F F F F F F
COUNT 1 1 1 1 1 1 1
WIDTH 578
HEIGHT 1
VIEWPOINT 0 0 0 1 0 0 0
POINTS 578
DATA ascii
0.057212591 0.1602321 -0.088457122 -0.3084355 -0.94930273 0.060761206 0.19694687
-0.035399508 -0.16562365 -0.075138114 0.21995342 0.97362119 -0.060680442 0.17963672
-0.026254661 -0.16788399 -0.073693693 0.35731149 0.93385065 -0.015857438 0.21468093
-0.012465939 -0.1695541 -0.075407386 0.093468837 0.99508047 -0.032838728 0.20633189
-0.0062546092 -0.16943307 -0.075549841 0.091556385 0.9924733 -0.081327446 0.19872369
0.0055812215 -0.16920243 -0.078999847 0.016577886 0.99909014 0.03929507 0.19174193
0.015892623 -0.1690015 -0.074687392 -0.20576486 0.97727025 -0.051026642 0.18189955
0.025467763 -0.16834681 -0.072087295 -0.18680634 0.9823941 -0.002270964 0.16746184
0.034192208 -0.16632423 -0.07282351 -0.29422528 0.95559132 0.016637258 0.17503813
0.047341447 -0.16252485 -0.073902614 -0.41505811 0.89232075 -0.17745537 0.18333383
0.051697336 -0.16126625 -0.078730941 -0.26351547 0.94157475 -0.2097538 0.17333347
-0.072547726 -0.15330729 -0.077266887 0.32145566 0.92955768 -0.18052366 0.1979883
-0.0621382 -0.15886198 -0.076524176 0.44514787 0.89423651 -0.046737757 0.19692653
0.063325904 -0.15790628 -0.073484182 -0.39189568 0.90790892 -0.14872535 0.18690452
0.075470172 -0.15217242 -0.075602598 -0.45353359 0.88743162 -0.082294345 0.20426641
-0.092078932 -0.14253268 -0.076736152 0.56394166 0.82382172 0.057336628 0.21767457
-0.083079092 -0.14749753 -0.079706699 0.52614868 0.85026628 0.014659516 0.18438797
-0.053482275 -0.14057156 -0.07854335 0.29844311 0.95265037 -0.058214322 0.19328742
-0.048634082 -0.14176989 -0.077047735 0.22083409 0.97163737 -0.084576666 0.17774814
-0.036109317 -0.14486566 -0.071354866 0.30542701 0.95131713 -0.041351959 0.1727621
-0.026021093 -0.14735918 -0.074148796 0.30759823 0.94437253 -0.11637767 0.18173479
-0.015956776 -0.14947155 -0.072094962 0.38527131 0.91748136 0.098964587 0.20825012
-0.00098298606 -0.14934535 -0.075780049 -0.00017810003 0.98344934 -0.1811835 0.21293309
0.0043172296 -0.14924206 -0.074131772 -0.060575396 0.99813658 -0.0073508453 0.21647452
0.014779731 -0.1490382 -0.073773563 -0.095962226 0.98688143 -0.12983216 0.21389973
0.025200766 -0.14796905 -0.076171383 -0.22501832 0.97434163 -0.0050121271 0.19555689
0.033775348 -0.1456461 -0.075067572 -0.31436682 0.93249041 -0.17786255 0.19612442
0.045069225 -0.14238285 -0.074588291 -0.3860226 0.91435516 -0.12223419 0.20410343
0.052834898 -0.14013901 -0.076092675 -0.49056786 0.8713761 0.0068474985 0.19156812
0.084975332 -0.14643487 -0.077386953 -0.45222333 0.89116162 0.036401786 0.20975691
0.093715705 -0.14115894 -0.074946582 -0.53635931 0.84299117 0.041043691 0.19009466
-0.10405187 -0.13479134 -0.073756382 0.62815058 0.77346039 -0.084769599 0.18459207
-0.09826766 -0.1391186 -0.0772257 0.49984768 0.86524916 -0.038681708 0.16019107
-0.071378961 -0.13113204 -0.075954065 0.4770413 0.87643594 -0.065510929 0.17809844
0.056313489 -0.13913393 -0.078602366 -0.42207307 0.9032768 -0.077106342 0.20558403
0.066329598 -0.1343507 -0.0737947 -0.2177256 0.97320378 0.073958568 0.20487104
0.072488815 -0.13063282 -0.071309522 -0.49789995 0.86481094 -0.064789504 0.19171461
0.098166682 -0.1384722 -0.0781665 -0.47214901 0.86447829 -0.17248949 0.20183621
-0.11290088 -0.12628064 -0.074845105 0.60173625 0.79530257 -0.073534556 0.179241
-0.086549953 -0.12276281 -0.073553145 0.56880867 0.82082951 -0.051919393 0.19964348
-0.078731708 -0.12707582 -0.073882148 0.41096717 0.90660238 -0.095802024 0.194654
0.078251444 -0.12715435 -0.075187959 -0.3288101 0.90622008 -0.26579922 0.20118901
0.083994068 -0.12368793 -0.074082017 -0.68600696 0.72755301 0.0078129219 0.21559277
0.11559169 -0.12401474 -0.076537624 -0.73688895 0.6722787 -0.070964627 0.17286475
-0.12374462 -0.11585143 -0.074304417 0.67463052 0.71243489 0.19315855 0.1634734
-0.095329486 -0.11545749 -0.077397645 0.52571702 0.84890229 0.054649197 0.20730713
0.094833717 -0.11626974 -0.07341072 -0.58128333 0.81283736 0.037486099 0.20027639
0.1011394 -0.11021669 -0.072595052 -0.51783884 0.85366428 -0.05567988 0.18262237
0.12269044 -0.11663385 -0.076889992 -0.60975534 0.79102534 0.049773857 0.1750837
-0.13625823 -0.10183449 -0.075672805 0.76349115 0.64501309 -0.032239862 0.21422814
-0.10534998 -0.10582012 -0.075782113 0.67978257 0.73322892 0.016459905 0.2017747
0.10460669 -0.10661159 -0.074777134 -0.47781694 0.87582767 -0.067947596 0.1735509
0.12951466 -0.10953843 -0.076054782 -0.6579864 0.7530272 -0.0020102931 0.18504633
0.13567443 -0.10313382 -0.076477945 -0.8420397 0.51553911 0.15870899 0.17365961
-0.14113867 -0.093749277 -0.077965036 0.88759953 0.46059942 0.0038981868 0.18057477
-0.13834718 -0.098373793 -0.076887123 0.78618133 0.617347 -0.028310947 0.18859363
-0.11596248 -0.095454283 -0.07119374 0.59593278 0.80126876 -0.053220324 0.18289191
0.11722422 -0.093492538 -0.078040726 -0.79129004 0.5962581 0.13541153 0.22564933
0.13889706 -0.09866944 -0.074424371 -0.84007156 0.51960754 0.15584493 0.17037652
0.14141706 -0.094101384 -0.077800058 -0.89121485 0.44701234 0.076915696 0.18807468
-0.12198202 -0.086820275 -0.077622011 0.94497842 0.32645866 -0.020989053 0.20216618
0.12485524 -0.082756996 -0.073211797 -0.84264165 0.48581877 0.23223956 0.20946366
0.14630672 -0.085237771 -0.07571546 -0.97249955 0.21591699 0.087318189 0.19170199
-0.15093005 -0.07752838 -0.07088457 0.9150725 0.38955152 -0.10436469 0.13114588
0.12908076 -0.075097345 -0.076099992 -0.91421592 0.39733636 -0.079580322 0.19918689
0.13095936 -0.071691953 -0.076794282 -0.9524852 0.30363837 -0.023994839 0.19127707
0.15303479 -0.073041722 -0.076335609 -0.92567223 0.32555795 -0.19272487 0.21971419
-0.15699087 -0.066114649 -0.076348044 0.95667517 0.29114345 -0.0028564075 0.13987428
-0.13490845 -0.065405652 -0.074641123 0.84750193 0.51846051 0.11375054 0.19627716
0.13426827 -0.065693848 -0.073504806 -0.92869139 0.36017129 -0.088368483 0.21551687
0.15737939 -0.064935379 -0.074966036 -0.87255716 0.48417294 0.064965971 0.1952759
-0.16104199 -0.052473664 -0.074788146 0.8885448 0.45875284 0.0058342372 0.16708423
-0.13993239 -0.053550076 -0.07742025 0.8955394 0.44234079 0.04841217 0.22095232
0.13903892 -0.057045996 -0.074232176 -0.95646822 0.28187227 -0.075608052 0.20286681
0.14123124 -0.050813355 -0.074766211 -0.84430057 0.53050369 0.075646169 0.18421403
-0.16344647 -0.044151988 -0.074597657 0.95703512 0.28991139 0.0059269005 0.17199174
-0.14248216 -0.044725697 -0.073822536 0.97477978 0.22160801 0.026348162 0.23546284
0.1425572 -0.045448851 -0.078274503 -0.92205399 0.38369367 0.050946727 0.20369518
0.16437271 -0.040460601 -0.073789552 -0.91924131 0.32133344 -0.22746465 0.1915258
-0.16623379 -0.034505397 -0.076638661 0.98293436 0.18355381 -0.012166041 0.17542441
-0.14488274 -0.03641751 -0.075667091 0.97215801 0.22243989 0.073683523 0.21178849
0.14497748 -0.035657052 -0.078457572 -0.94094718 0.33487657 -0.049761731 0.20029394
0.16550983 -0.035860065 -0.076299995 -0.95868659 0.23006356 -0.16730489 0.17981003
-0.16840594 -0.02673096 -0.075761639 0.99632752 0.077283539 0.036859225 0.18375395
0.14742215 -0.025766578 -0.07356599 -0.90214086 0.3829799 0.19866627 0.19378497
0.16807783 -0.025470583 -0.074308962 -0.99657291 0.042402629 0.071024187 0.20404758
-0.16908255 -0.011737003 -0.075378671 0.99868333 -0.051244099 -0.0023440716 0.20838936
-0.14903845 -0.014770167 -0.074726596 0.99086893 -0.017711721 0.13366041 0.20159101
0.14955878 -0.011932479 -0.076717071 -0.98818296 -0.018008936 -0.15221731 0.22487867
0.16960169 -0.015610908 -0.074686207 -0.99705076 -0.065110326 0.040626641 0.18197168
-0.16916476 -0.0075187553 -0.076780364 0.9893204 -0.057615031 0.13388672 0.20565671
-0.1492665 -0.0030672394 -0.078195579 0.9965626 -0.020487636 0.080270603 0.19331308
0.14944193 -0.0059357793 -0.076799095 -0.98874515 -0.083059825 0.12443501 0.23540004
0.16942105 -0.005634971 -0.074540891 -0.99746209 -0.0051858132 -0.071009867 0.19270445
-0.16938113 0.0035851523 -0.076810837 0.99813861 -0.048711162 -0.036695689 0.17765716
-0.14941207 0.0044040191 -0.077358052 0.98736155 -0.1400653 0.07415475 0.18055657
0.14918694 0.0071498267 -0.074167669 -0.98518831 -0.15817206 0.066223018 0.20529182
0.16921231 0.0050778165 -0.075836286 -0.99955338 -0.013173868 -0.026823461 0.19924648
-0.14946561 0.015989235 -0.074936278 0.99828428 -0.032571748 0.048657402 0.20510139
0.14904512 0.014427402 -0.076717079 -0.99264705 -0.029640196 0.11735963 0.22002219
0.16898605 0.016687928 -0.072098494 -0.96567613 -0.24151696 -0.0955991 0.19113767
-0.16827315 0.024680382 -0.074437745 0.99926925 -0.025546476 -0.028432038 0.19183932
-0.14774871 0.0244454 -0.078913227 0.99400413 -0.099429689 0.045492351 0.1796831
0.14706488 0.028865352 -0.077822119 -0.97395903 -0.11470692 -0.19556607 0.19704117
0.16820213 0.027557772 -0.07534074 -0.99499625 -0.099862032 0.0031791902 0.17735764
-0.16564322 0.035320502 -0.077424958 0.99343705 -0.11169054 0.02465645 0.19369119
-0.14582625 0.032223161 -0.073444664 0.9750452 -0.22199616 0.002157819 0.19138415
0.14540884 0.034596704 -0.073687285 -0.99166298 -0.12853938 -0.0090595493 0.19943866
0.16590136 0.035655878 -0.079006679 -0.99495703 -0.067894772 0.0738298 0.18035102
-0.16439147 0.040384702 -0.076385736 0.95646828 -0.27286512 0.1035036 0.19516148
-0.14231673 0.046421774 -0.075081035 0.8858583 -0.45819396 0.07289321 0.18454272
0.14147383 0.048215322 -0.072410397 -0.90911865 -0.415741 -0.025743386 0.2214096
0.16228132 0.04818441 -0.074587338 -0.96554071 -0.24038389 -0.099733226 0.18744065
-0.16180183 0.050861802 -0.076289646 0.8915779 -0.44376898 0.090321332 0.17915955
-0.15980665 0.058933809 -0.074476108 0.92342335 -0.3809697 0.046383701 0.19709612
-0.14083321 0.05242369 -0.075307503 0.86926317 -0.48568225 0.092164308 0.19975136
0.13903126 0.056668762 -0.071949482 -0.9416374 -0.32641804 0.082281478 0.22123465
0.15949127 0.057840489 -0.070608497 -0.93008327 -0.34955931 -0.11293074 0.1887491
0.16045494 0.054505307 -0.074166477 -0.96464014 -0.23918925 -0.11071542 0.17331456
-0.15851951 0.063099466 -0.070622385 0.86848283 -0.49512643 0.024237376 0.19729948
-0.13514972 0.064096056 -0.073454775 0.90093964 -0.38737983 0.19556244 0.19598413
0.13549571 0.064432785 -0.076018535 -0.81603372 -0.56050354 -0.14115502 0.2066942
0.15759632 0.064398721 -0.071986251 -0.90872103 -0.41721368 -0.012599698 0.20805483
-0.15288773 0.073308289 -0.073214464 0.83964723 -0.51720625 0.16580185 0.20628504
-0.14943799 0.079561695 -0.07315623 0.93644464 -0.31941861 0.14506263 0.20399171
-0.13097665 0.071660697 -0.075095631 0.80161905 -0.49681324 0.3325409 0.18928657
0.13122661 0.071505196 -0.075683884 -0.9316327 -0.36279544 -0.02097686 0.20370449
0.15191922 0.075889684 -0.073938891 -0.91578031 -0.38518143 0.11393742 0.17588526
-0.14564157 0.086443543 -0.074711613 0.83528137 -0.54511112 0.071825244 0.1868449
-0.12286072 0.086284243 -0.077103302 0.88328761 -0.46685717 0.042980455 0.20514536
0.12216976 0.08650925 -0.073877908 -0.79526609 -0.51826048 0.3145757 0.21166483
-0.14278102 0.091628879 -0.071167946 0.94271225 -0.33359501 -0.0028207442 0.18835133
-0.13828211 0.099784166 -0.078003824 0.85650635 -0.51581162 -0.018310614 0.15810665
-0.11308663 0.097794607 -0.077105716 0.84203047 -0.53908253 0.019354636 0.20919117
0.11484194 0.096691057 -0.075853415 -0.64600825 -0.7138375 -0.27038744 0.20156741
0.13831423 0.098428413 -0.075530469 -0.83176553 -0.54167885 0.12145008 0.19539067
0.14118235 0.09367691 -0.07250011 -0.85928738 -0.50760835 0.062919773 0.20051402
-0.13506073 0.10374458 -0.076198913 0.80741036 -0.58107793 0.10216201 0.19065039
-0.10757962 0.10352051 -0.079391755 0.85228711 -0.51239312 0.10516575 0.20613779
0.10558118 0.10559774 -0.076181278 -0.71791667 -0.69557709 -0.027715605 0.20629933
0.11078352 0.1005943 -0.070635259 -0.63432074 -0.74582398 -0.20343004 0.18744136
0.13372068 0.10549764 -0.075130388 -0.66786593 -0.7442233 0.0093199583 0.18059288
-0.12191299 0.11744221 -0.074719653 0.70369565 -0.70904469 -0.045475733 0.18768717
-0.098624364 0.11283171 -0.074491546 0.78768891 -0.61307263 0.060730271 0.19955407
0.094091795 0.11664788 -0.075715058 -0.53861988 -0.83554369 -0.10842203 0.2049408
0.12497413 0.11466893 -0.077677161 -0.73771054 -0.66148639 0.13497773 0.16777222
-0.11319254 0.12650923 -0.074598216 0.77423835 -0.63278127 0.011949543 0.16364382
-0.083901733 0.12374367 -0.07436876 0.40858477 -0.90896511 -0.082709692 0.21513748
0.075743943 0.12872404 -0.07626266 -0.53735751 -0.84288305 -0.028195972 0.19969639
0.081994876 0.12527567 -0.078347646 -0.6044867 -0.79607385 -0.029363455 0.21452469
0.090494305 0.12010783 -0.071417436 -0.48186013 -0.86365092 0.14804673 0.18917012
0.11522397 0.12404635 -0.074945547 -0.77480716 -0.61070836 0.16342935 0.20384696
-0.10463525 0.1345676 -0.075824782 0.62080973 -0.77778816 -0.09818764 0.14127058
-0.09657757 0.13943143 -0.076846458 0.47229582 -0.87867785 0.069728307 0.17366403
-0.07204213 0.13090247 -0.072858125 0.27175668 -0.9534322 0.13082576 0.19833326
-0.06321419 0.13623124 -0.074270323 0.55966473 -0.82742286 0.046333004 0.20903635
-0.055896692 0.13925436 -0.07448563 0.41653877 -0.90746051 0.054871526 0.21940777
0.059871703 0.13748011 -0.075973138 -0.41589129 -0.88238215 -0.22008196 0.2031316
0.065332927 0.13446738 -0.077353321 -0.59424382 -0.80151099 -0.066740975 0.19817516
0.070786379 0.13145892 -0.074730307 -0.52107137 -0.83327204 -0.18477634 0.20266068
0.10520055 0.13368659 -0.07252419 -0.62834322 -0.76710427 0.12936698 0.18645202
-0.082117692 0.14815979 -0.077717409 0.41319367 -0.90990615 -0.036631506 0.17344452
-0.048463453 0.14140211 -0.073524743 0.35311309 -0.93035394 -0.098754972 0.21372502
-0.035774253 0.14506854 -0.076422334 0.25848061 -0.95837438 -0.12127009 0.20686062
-0.026088074 0.14786729 -0.077046387 0.19868238 -0.96084964 -0.19311497 0.19934654
-0.010621188 0.14911923 -0.07074099 0.04869796 -0.9983393 0.030775489 0.17691004
-0.0038622136 0.14925092 -0.075179808 0.089228153 -0.99565518 -0.026630444 0.20018445
0.0019596263 0.14936437 -0.075222276 0.021876032 -0.99770117 0.064139873 0.19854783
0.013225144 0.14958391 -0.074008606 -0.010216369 -0.99882138 0.04745001 0.21004924
0.034434162 0.14527971 -0.073291108 -0.30733791 -0.94637936 -0.09954638 0.18063241
0.052375041 0.14084524 -0.077160738 -0.3299506 -0.91163379 -0.24506406 0.21228082
0.085723788 0.14603855 -0.07668943 -0.51204681 -0.85736394 -0.052298646 0.18729992
0.09392444 0.1415146 -0.076911777 -0.46079701 -0.87578464 0.14376138 0.20611781
-0.074629158 0.15268008 -0.075690433 0.38241121 -0.90577525 0.1825728 0.17982113
-0.063673943 0.15780571 -0.074985199 0.57457072 -0.79899007 0.17743573 0.20376697
-0.058907665 0.15918289 -0.076475859 0.36288309 -0.92266166 0.13042782 0.22023936
0.059647322 0.1596303 -0.070813537 -0.32237089 -0.93398345 -0.15411639 0.20474379
0.066741548 0.15651034 -0.075727537 -0.54306728 -0.83876139 -0.039463535 0.18249062
0.075089872 0.15190488 -0.071504407 -0.52838022 -0.84820396 -0.036936857 0.1929992
-0.05357004 0.16072515 -0.076813683 0.33166406 -0.93870538 0.093974277 0.21605559
-0.043380275 0.16366941 -0.075816706 0.30088153 -0.95220596 0.052671194 0.20329489
-0.036342766 0.16570283 -0.076511599 0.15783672 -0.98343384 -0.089137547 0.1723194
-0.024960682 0.16858786 -0.073581062 0.079346888 -0.99611974 0.038070727 0.17418879
-0.014708607 0.16902456 -0.075305507 -0.011583445 -0.98665428 -0.16241631 0.17210001
0.0042913095 0.16939482 -0.074601114 0.020452548 -0.99794149 -0.060782861 0.18853815
0.019667825 0.16951206 -0.07427828 -0.15649129 -0.98767924 -0.00049252936 0.17779621
0.021401299 0.1690836 -0.076290622 -0.29303092 -0.95286822 0.078581639 0.16440311
0.038350858 0.16489416 -0.078332029 -0.13111997 -0.99035233 0.04483128 0.17705277
0.043224141 0.16368964 -0.075014986 -0.34579867 -0.93725419 -0.044472933 0.18534194
0.052213911 0.16146761 -0.076363645 -0.30186927 -0.94782966 -0.10244003 0.18932907
-0.055163562 -0.16073856 -0.068199158 0.27687055 0.95409292 0.11423435 0.2122501
-0.044916648 -0.16327129 -0.063913099 0.34804711 0.93239814 0.097452134 0.20451996
-0.035881665 -0.16550447 -0.06159031 0.14024207 0.99011385 0.0025709867 0.18334909
-0.027830442 -0.16749451 -0.061412416 0.29450333 0.95552993 0.015177638 0.19873199
-0.015956439 -0.16962212 -0.064943716 0.1591862 0.98724622 0.0021324467 0.18311897
-0.0022590065 -0.1693552 -0.067850322 0.092198379 0.99298769 0.073992997 0.17012128
0.0055091921 -0.16920383 -0.065931737 0.049560901 0.99433017 0.094081014 0.17345303
0.012939303 -0.16905904 -0.065390848 -0.20518512 0.97851068 -0.020396514 0.17479789
0.021053541 -0.16890094 -0.062484801 -0.16466609 0.98166525 0.096012205 0.18496417
0.033531822 -0.16651504 -0.066521637 -0.25223157 0.96743965 -0.02097127 0.19929707
0.045113765 -0.16316853 -0.068290234 -0.42180324 0.90643358 -0.02145387 0.21363762
-0.074085161 -0.15245914 -0.066811509 0.36178508 0.93047583 -0.057672754 0.18944751
-0.06556116 -0.15702078 -0.06506747 0.067925945 0.99727529 0.028776634 0.20273404
0.063063495 -0.1579821 -0.063484244 -0.4122431 0.90928787 0.057019357 0.20310852
0.074595354 -0.15270048 -0.06356851 -0.32444391 0.94590145 -0.0025666358 0.18825255
-0.091811553 -0.14268018 -0.068104282 0.33687276 0.93897581 -0.069578752 0.18901579
-0.086558819 -0.14557791 -0.064538755 0.25668964 0.96427685 0.065426312 0.18507706
-0.052007444 -0.14093609 -0.068195798 0.24204096 0.96922541 0.044925608 0.19393986
-0.044055209 -0.14290167 -0.064052351 0.21045503 0.97635639 0.049365193 0.19018574
-0.035880171 -0.1449223 -0.065077081 0.26313117 0.95600343 0.12968996 0.15747879
-0.02634822 -0.14727832 -0.063523583 0.28631437 0.91599387 0.2810325 0.16950001
-0.018063664 -0.14920969 -0.064038537 0.36175245 0.93218225 0.013088155 0.19116829
-0.0067076781 -0.14945689 -0.063079856 0.042389497 0.99888289 -0.020882769 0.20431401
0.00095984933 -0.14930749 -0.067459077 0.057745837 0.99832016 0.0047086379 0.20171636
0.014367966 -0.14904623 -0.06563352 -0.05599235 0.9938181 0.095866568 0.21700622
0.023217807 -0.14858256 -0.064761072 -0.18361747 0.97598082 -0.11724377 0.20901564
0.034499615 -0.14543682 -0.066826336 -0.41805738 0.90521193 -0.076285884 0.2139626
0.044181809 -0.14263925 -0.062141232 -0.47509715 0.8764109 -0.078654774 0.19232188
0.050111767 -0.14092585 -0.06857001 -0.25175053 0.9484669 -0.19243748 0.18731509
0.085058607 -0.1463846 -0.063367717 -0.50255221 0.85972047 0.091225587 0.18794502
0.092120491 -0.14212185 -0.067738444 -0.60892171 0.78678757 0.10089464 0.22256404
-0.10482314 -0.13404956 -0.06545414 0.62083471 0.78012568 0.077253811 0.17612898
-0.098314136 -0.13909295 -0.061521214 0.59924448 0.79941124 0.042984776 0.22209196
-0.070541322 -0.13159412 -0.060605094 0.22733261 0.97380871 -0.0040752799 0.1600357
-0.064156763 -0.13511622 -0.067810856 0.36947009 0.91370201 -0.16923518 0.18470877
-0.058555678 -0.13820612 -0.060922373 0.47098163 0.87238276 0.13086127 0.1958831
0.056368783 -0.13911794 -0.064703092 -0.41469583 0.90954298 -0.027548404 0.21311702
0.063454673 -0.13607953 -0.066203706 -0.23596472 0.94744772 0.21601714 0.20788096
0.070687979 -0.13171986 -0.06084574 -0.40354976 0.91062498 0.088936761 0.18662857
0.097024187 -0.13916183 -0.060172137 -0.66855276 0.73811519 0.090681523 0.18470885
0.10371993 -0.13493006 -0.063050553 -0.5908705 0.8029573 0.078304015 0.16856335
-0.11649244 -0.12282638 -0.063825622 0.75306338 0.65726119 -0.030055877 0.20438565
-0.086881392 -0.12255725 -0.064624943 0.42400017 0.90090942 -0.092660494 0.21296996
-0.077747807 -0.12761861 -0.066075005 0.49327385 0.8642813 -0.098482244 0.18813917
0.077649638 -0.12751761 -0.068682492 -0.46552449 0.88088131 0.085644819 0.19365953
0.082839787 -0.12438469 -0.066047534 -0.61877161 0.71425855 0.32704172 0.19072843
0.11537389 -0.12424117 -0.065230623 -0.71084046 0.68326032 -0.16691679 0.18538444
-0.12576872 -0.1139047 -0.066174828 0.70754558 0.70442712 -0.056228135 0.1665936
-0.10015964 -0.11081201 -0.065992966 0.47417897 0.87872058 -0.054812141 0.20040028
-0.095686264 -0.11511438 -0.065280005 0.68854082 0.72243702 -0.063216954 0.21530375
0.096275605 -0.11508869 -0.064940169 -0.57621443 0.81375575 -0.076016888 0.21392263
0.11990938 -0.11952543 -0.062545717 -0.53403854 0.8372131 0.11780078 0.16404645
0.1244882 -0.11476465 -0.066069692 -0.57643223 0.81439579 0.066973537 0.15292314
-0.13097799 -0.10889459 -0.063708574 0.74172735 0.66432226 -0.092284918 0.16377975
-0.10407016 -0.10705101 -0.063512027 0.70570129 0.70849627 0.0043248027 0.21341385
0.10713501 -0.10398276 -0.063378155 -0.64650631 0.76058519 -0.059495952 0.20461337
0.13658857 -0.10218334 -0.064455047 -0.73620069 0.66965711 -0.097815931 0.16314246
-0.14284766 -0.090918101 -0.067809358 0.85104936 0.51588279 -0.0978771 0.18934645
-0.13892163 -0.097422138 -0.067071036 0.84815568 0.51997805 0.10126563 0.20080695
-0.11655474 -0.09455543 -0.064625978 0.70151925 0.71010047 -0.060234066 0.19724421
0.1160264 -0.09473794 -0.063560173 -0.77624255 0.60898179 0.16306004 0.21236241
0.13850771 -0.099375196 -0.061038248 -0.80274034 0.59303808 -0.062559992 0.15733297
0.14196332 -0.093111143 -0.066874623 -0.93680549 0.34970656 0.010038595 0.18228106
-0.14411321 -0.088821508 -0.065971062 0.78845543 0.61454666 -0.025891524 0.20409583
-0.12175723 -0.087192662 -0.06355264 0.66099167 0.74634224 -0.077866748 0.21322551
0.12444781 -0.083495572 -0.067012891 -0.91264582 0.39481509 0.1058239 0.20562482
0.14750694 -0.083062142 -0.069095835 -0.94659233 0.308613 0.093385853 0.19214103
-0.1529703 -0.074148402 -0.065112419 0.88657582 0.46217868 0.019342978 0.14210366
-0.1498397 -0.079334721 -0.061103351 0.82539076 0.53298259 -0.18617079 0.14018221
-0.12925838 -0.074765876 -0.063998535 0.97236723 0.21723352 0.085508019 0.19289817
0.12647755 -0.079816222 -0.066172704 -0.91803956 0.39026782 0.069960386 0.20747446
0.13108833 -0.071458176 -0.061702065 -0.98043442 0.19288288 -0.039301101 0.18022241
0.14961736 -0.07923656 -0.062854022 -0.92439997 0.36293986 0.11730057 0.18889076
0.15255858 -0.073904939 -0.065109916 -0.91758853 0.35558835 0.1777311 0.19317149
-0.15758193 -0.064428002 -0.066419452 0.87718481 0.46919131 0.10201159 0.17816201
-0.13532729 -0.064711779 -0.06578365 0.88171923 0.47011217 -0.039569311 0.19329508
0.13454112 -0.065199219 -0.066350356 -0.9462738 0.31612119 -0.068067968 0.204809
0.15710813 -0.065657891 -0.067233935 -0.9012056 0.43104947 -0.044998299 0.20189613
-0.16050082 -0.054346561 -0.063779548 0.93511486 0.35409775 -0.01322787 0.19337063
-0.15965776 -0.05726435 -0.062341988 0.96469527 0.25549573 0.063913956 0.19373406
0.1377109 -0.059453316 -0.068194866 -0.92342359 0.35639924 -0.1423678 0.18989366
0.14083122 -0.052431762 -0.065433413 -0.91297472 0.40695548 0.029399956 0.19382602
0.15963043 -0.059646748 -0.065644667 -0.92022401 0.39061728 -0.024615377 0.1987956
0.1605923 -0.055755213 -0.068028972 -0.96209371 0.2593568 0.084319979 0.20762052
-0.16256417 -0.047205508 -0.065286167 0.9667542 0.24427083 0.075618647 0.18383898
-0.1424394 -0.044873655 -0.064255871 0.94288838 0.33194143 -0.027862474 0.21776433
0.14218621 -0.046949845 -0.063586943 -0.90508878 0.42519492 -0.0048565697 0.20498528
0.16418189 -0.041232657 -0.063506201 -0.95623225 0.29210404 0.017181871 0.18629311
-0.16479824 -0.039473683 -0.066440038 0.97840512 0.20093615 -0.048455745 0.15458313
-0.144777 -0.036783509 -0.06778536 0.9657408 0.25640908 -0.039989665 0.2094706
0.14558131 -0.033214118 -0.063935675 -0.94570607 0.32438537 -0.020349115 0.20295258
0.1666247 -0.031349685 -0.062359437 -0.98515779 0.14158754 -0.097041868 0.18167831
-0.16865428 -0.024798708 -0.067943797 0.98792952 0.15207498 -0.029469846 0.16255838
-0.14828785 -0.02440609 -0.065822601 0.97994727 0.18464939 -0.074886754 0.21282092
0.14827438 -0.022318684 -0.066276543 -0.98136562 0.16317157 -0.10147139 0.21641301
0.16856673 -0.023492616 -0.068145752 -0.98671365 0.16222125 -0.0089701079 0.19467963
-0.16898343 -0.016824597 -0.067196712 0.99388683 -0.030487973 0.10611103 0.16527128
0.14958508 -0.013282945 -0.063764155 -0.96430796 0.16424026 -0.20769021 0.18696854
0.16953462 -0.011463047 -0.06800352 -0.99178088 0.12779261 0.0063048359 0.19477378
-0.16918212 -0.0066274609 -0.060535923 0.99129874 0.10739756 0.076109104 0.20269895
-0.14922792 -0.005046804 -0.06393721 0.99851656 -0.036438867 -0.040457826 0.20052743
0.14938325 -0.0029250598 -0.061592121 -0.99865228 0.024929106 -0.045520727 0.19783226
0.1694532 -0.0072851605 -0.06511993 -0.98020971 0.13849759 -0.14144732 0.18645409
-0.16943067 0.0061278688 -0.06742613 0.9990859 -0.040628426 0.013292865 0.20157658
-0.14942494 0.0050638723 -0.066566795 0.97128451 -0.23398787 0.043082137 0.19265842
0.1492584 0.003481911 -0.065728806 -0.98910475 -0.14086874 0.042752784 0.21021435
0.16913497 0.0090457676 -0.065972358 -0.99890041 -0.031395718 0.03481818 0.2006994
-0.16957729 0.013651846 -0.065581925 0.99975669 -0.021778403 -0.0035267172 0.19722916
-0.14953926 0.017201288 -0.061456315 0.99530965 -0.092489257 0.02836342 0.19299611
0.14895295 0.019157557 -0.064718127 -0.98349237 -0.16814354 0.066861011 0.20636721
0.16906939 0.012412164 -0.063544229 -0.99687105 -0.071659684 0.033360653 0.19570762
-0.16741538 0.028150639 -0.066180862 0.99769348 -0.050201647 -0.045688901 0.17693852
-0.14781553 0.024175053 -0.064788677 0.99605644 -0.054317947 -0.07015042 0.2111768
0.14830659 0.024567936 -0.067035086 -0.98282319 -0.17873278 -0.045969259 0.20482109
0.16887762 0.022253342 -0.067625873 -0.99853134 -0.037278622 0.039310958 0.17833908
-0.16545917 0.036065035 -0.063707694 0.98534441 -0.13077398 0.1095195 0.19745678
-0.14546962 0.033665948 -0.068222322 0.98344195 -0.17759718 0.036072895 0.19787636
0.14598095 0.032616764 -0.064583264 -0.99494684 -0.10024074 0.0057066372 0.19394118
0.16635032 0.034102011 -0.062443029 -0.98921323 -0.14283143 0.032499742 0.18626826
-0.16352661 0.043883722 -0.064768344 0.90779161 -0.39476171 0.14169551 0.20530927
-0.14291906 0.04398492 -0.066708565 0.94241071 -0.325115 0.078500934 0.19756666
0.14270261 0.043962676 -0.069537669 -0.96917403 -0.23775868 0.064594373 0.23109064
0.16325845 0.044802733 -0.06272082 -0.97309202 -0.20280664 0.10936831 0.18984999
-0.16153602 0.05193717 -0.06743069 0.92404085 -0.37325731 0.082628295 0.18962429
-0.14093946 0.051993888 -0.064680718 0.90063328 -0.43201891 0.047110893 0.20601611
-0.13869083 0.057676978 -0.060561068 0.9213379 -0.38360265 -0.063130841 0.20243642
0.13877469 0.057556756 -0.065393016 -0.93817019 -0.3457523 0.017091665 0.22046471
0.14009206 0.052997526 -0.062652424 -0.92799503 -0.36947736 -0.048080757 0.22891212
0.1590946 0.059213318 -0.06879019 -0.9375447 -0.34647417 -0.031074518 0.1904777
0.16172162 0.050121482 -0.067074299 -0.95499092 -0.29602408 0.019031756 0.20233968
-0.15731862 0.065276325 -0.064221233 0.88365042 -0.46073392 0.082983203 0.20952293
-0.13314356 0.067732662 -0.067668207 0.88861477 -0.45817706 -0.020917993 0.19582681
0.13217244 0.069938287 -0.067525312 -0.91045195 -0.40783507 0.068904229 0.18694851
0.15755482 0.064542368 -0.062914342 -0.8785305 -0.47717968 0.021991888 0.19060001
-0.15253773 0.073942751 -0.068851389 0.8573882 -0.49685654 0.13423507 0.19877107
-0.13085622 0.071878962 -0.063939549 0.80971438 -0.56247389 0.16728957 0.20527457
-0.12824586 0.076610826 -0.066955388 0.93775827 -0.3423273 0.058492992 0.19181338
0.12953353 0.074310035 -0.067057773 -0.94261795 -0.31565768 0.10877281 0.17303197
0.14973266 0.07951203 -0.064970084 -0.8873536 -0.44849744 -0.10702167 0.19352517
0.15541422 0.070099667 -0.068748802 -0.89962387 -0.43504843 -0.037547648 0.19387515
-0.14667842 0.08456403 -0.063805684 0.80382597 -0.54685849 0.23411462 0.20974118
-0.12123698 0.089146942 -0.066751972 0.82018429 -0.39618686 0.4127149 0.18328252
0.12358073 0.08417175 -0.062685959 -0.9295724 -0.36830825 0.015622746 0.20968139
0.1467047 0.084528305 -0.064852044 -0.88749087 -0.45894206 -0.041619323 0.18762229
-0.14093922 0.094967574 -0.062552974 0.80456829 -0.54227656 0.24208668 0.18320715
-0.13865553 0.099107265 -0.060924225 0.86054969 -0.50836635 -0.031905767 0.18182561
-0.12038288 0.090208359 -0.062398043 0.77278525 -0.54552847 0.32434794 0.21849738
-0.11977034 0.090845242 -0.060961362 0.82717496 -0.51192117 0.23177218 0.22113189
0.11905099 0.091675967 -0.064831197 -0.65201825 -0.73932666 0.16813199 0.2233973
0.13896668 0.097347535 -0.064146563 -0.81255805 -0.58122021 -0.043959789 0.21594629
0.14110528 0.09380462 -0.064890742 -0.86828899 -0.49605271 -0.0024482557 0.21559168
-0.13336816 0.10553177 -0.06610065 0.7778548 -0.62838483 0.0086233336 0.18959808
-0.12912442 0.10994416 -0.066170096 0.6938622 -0.71965694 0.025480986 0.17728022
-0.10605901 0.10510156 -0.064382419 0.81498796 -0.5760408 -0.06302128 0.21951035
0.1023096 0.10874426 -0.063871965 -0.72925943 -0.68419826 0.0073139798 0.18032371
0.13544573 0.1031805 -0.061448269 -0.70784158 -0.67754334 -0.19973814 0.21098213
-0.12618358 0.11300188 -0.062246952 0.68120223 -0.73207319 0.0056849793 0.18605986
-0.1005442 0.11083555 -0.064607911 0.7369501 -0.66384715 -0.12732475 0.20298882
-0.095702171 0.1156351 -0.064681329 0.62496716 -0.77857065 -0.056953602 0.2153523
0.096201897 0.11461844 -0.06577073 -0.49328533 -0.83889896 0.23003919 0.18826023
0.12597914 0.11370233 -0.064858504 -0.70424771 -0.69828695 -0.1281814 0.18871838
-0.11580455 0.1237934 -0.06513492 0.76329571 -0.64597058 -0.010084798 0.16349323
-0.083569065 0.12394448 -0.064896807 0.47725955 -0.87844437 0.023638288 0.2352574
0.076468453 0.12832436 -0.063994534 -0.31022382 -0.92045319 0.23775436 0.20182255
0.087601557 0.12206224 -0.061342493 -0.50014883 -0.85418159 0.1422151 0.22093369
0.10906531 0.12996957 -0.067780204 -0.71926171 -0.69217861 0.059592534 0.1911712
0.11198542 0.1271611 -0.065071821 -0.82024693 -0.55768341 -0.12721692 0.21050514
-0.10404659 0.13488287 -0.062476836 0.63214195 -0.77021158 -0.084679559 0.16078462
-0.096441947 0.13951328 -0.06167949 0.6612832 -0.74953848 0.029944006 0.18069586
-0.070977494 0.1315451 -0.063361019 0.33902922 -0.94056392 0.019967729 0.20050846
-0.066791162 0.1340721 -0.064758524 0.43893585 -0.8985095 -0.0039855633 0.2125368
-0.056939878 0.13895294 -0.064053997 0.29707557 -0.94468874 0.13895822 0.2072131
0.064937979 0.13468526 -0.066021763 -0.56052494 -0.8278656 -0.021220701 0.20963033
0.072113283 0.13072693 -0.067704849 -0.48834217 -0.86566514 -0.11020764 0.17873308
0.098114707 0.13920298 -0.060476821 -0.41444287 -0.9043588 0.10184431 0.20370522
0.10301751 0.13571681 -0.062501229 -0.67238832 -0.73418653 0.09414921 0.20893893
-0.094168708 0.14088547 -0.065152697 0.55535752 -0.82758623 -0.081725068 0.18773742
-0.085159928 0.14632343 -0.066094592 0.40932468 -0.91166013 0.036458243 0.19608019
-0.079121463 0.1499684 -0.062532134 0.37528077 -0.91926473 -0.11881351 0.18298985
-0.05118819 0.14061482 -0.065086216 0.21575789 -0.97179198 0.09523122 0.21183716
-0.04775843 0.14160582 -0.066577263 0.43587226 -0.8999781 0.0074012438 0.20936725
-0.033719867 0.14566214 -0.067962125 0.26401958 -0.96447128 0.009428273 0.21300533
-0.026730577 0.14768164 -0.065949976 0.15961652 -0.97797287 0.13450518 0.19063914
-0.018581055 0.14896412 -0.060844384 -0.0085223103 -0.9999336 0.0077550323 0.19624873
-0.0031342146 0.14926511 -0.068749107 0.062671311 -0.99779731 0.021743955 0.19940062
0.0018752365 0.14936273 -0.064505257 -0.096309535 -0.99406213 -0.050644752 0.20412366
0.017913595 0.14935699 -0.066186912 -0.0022216397 -0.9972648 -0.073877834 0.20072407
0.028239135 0.14681095 -0.063954674 -0.18843967 -0.9609006 -0.20288074 0.18439928
0.034443196 0.14527747 -0.064494014 -0.23533618 -0.96255451 -0.13455737 0.1991161
0.047369849 0.14208238 -0.06340763 -0.57252026 -0.80944753 -0.13044235 0.19605646
0.053831652 0.14048521 -0.061691824 -0.50102007 -0.85957217 -0.10057104 0.19746311
0.07881096 0.1498521 -0.065331534 -0.43821684 -0.89696443 -0.058487777 0.19399387
0.085604206 0.14610453 -0.06493561 -0.40515199 -0.91340613 0.039256271 0.19729698
0.092700496 0.14218979 -0.0670081 -0.51354176 -0.85243398 -0.098138876 0.2044218
-0.074343741 0.15285236 -0.065509617 0.2515364 -0.92876476 -0.27225986 0.19831485
-0.063618563 0.15782171 -0.064161256 0.46266291 -0.8751635 -0.14153415 0.18059549
-0.058130138 0.15940754 -0.060045376 0.42255864 -0.90432239 -0.060376339 0.18555321
0.064459234 0.15769275 -0.065056495 -0.54191589 -0.84038377 0.0090808487 0.19497068
0.074869931 0.15202622 -0.066186503 -0.48356918 -0.84712052 -0.22033517 0.19442026
-0.051731631 0.16125634 -0.065907016 0.22642101 -0.97068745 -0.080619402 0.18768355
-0.045793395 0.16297215 -0.064566396 0.26405901 -0.96152252 0.07580962 0.19652899
-0.035955876 0.16581464 -0.065767966 0.28305054 -0.95894569 0.017482946 0.18480422
-0.027814362 0.16816704 -0.065310761 0.15070759 -0.9840548 0.09446305 0.16677006
-0.01494934 0.16901988 -0.068270087 0.099943601 -0.99437141 0.035166938 0.1829067
-0.004948365 0.16921476 -0.062326942 -0.060048793 -0.99734044 -0.04130543 0.20117375
0.0072721811 0.16945291 -0.062141411 0.035480727 -0.99518061 0.091415308 0.17874993
0.014900682 0.16960154 -0.065525532 0.18572672 -0.97797018 -0.095289223 0.18762825
0.029102197 0.16718017 -0.068210512 -0.13603522 -0.98999947 -0.037358209 0.17462631
0.035272896 0.16565496 -0.063659951 -0.16185331 -0.98195565 -0.097809263 0.1938096
0.048566014 0.16236927 -0.064910434 -0.21549043 -0.97373313 -0.073537439 0.2004002
0.053980947 0.16103086 -0.064975157 -0.36857063 -0.92277378 -0.11244655 0.1900156
-0.055405982 -0.16067864 -0.059190735 0.28915152 0.93511951 0.20479977 0.2097621
-0.046861336 -0.16279063 -0.052988861 0.30271107 0.92020422 0.24817361 0.19723752
-0.023378834 -0.16859481 -0.056374453 0.3774704 0.92534572 0.03537593 0.19040394
-0.010837381 -0.16952236 -0.052934915 0.22251423 0.97036809 0.094197601 0.17871545
-0.0079274066 -0.16946566 -0.054490149 0.25322852 0.96739948 -0.0036841747 0.15887375
0.0028485199 -0.16925569 -0.056360155 0.071732379 0.99629772 0.047384456 0.18937285
0.014909371 -0.16902065 -0.051035434 -0.13016182 0.98555136 -0.10838151 0.17310479
0.024693917 -0.1685507 -0.057083771 -0.21837407 0.97370112 -0.064953186 0.16980357
0.033623505 -0.16648853 -0.051853497 -0.23512726 0.96729696 0.095140599 0.19353265
0.044385895 -0.16337883 -0.055158369 -0.48160321 0.87571013 -0.03449706 0.1837461
0.053896789 -0.16063075 -0.059136391 -0.31715626 0.94807565 -0.023758233 0.1917091
-0.072194748 -0.15350202 -0.056109354 0.47511676 0.8798669 -0.0099199358 0.20647554
-0.067135826 -0.15629283 -0.054093048 0.55319732 0.79012954 0.26394722 0.19286716
0.065849155 -0.15715611 -0.056703359 -0.32674545 0.94067931 0.09143208 0.18190941
0.074605234 -0.15269452 -0.055554722 -0.29789871 0.92837596 0.22220351 0.16719367
-0.093680635 -0.14164908 -0.05540619 0.45169654 0.87458289 0.1762815 0.20154916
-0.086185336 -0.14578395 -0.053992573 0.20046426 0.97803617 -0.057089385 0.18217924
-0.052352194 -0.14085089 -0.056635611 0.34920534 0.92580575 0.14470424 0.19886163
-0.042959422 -0.1431725 -0.059985965 0.28033769 0.95990151 -9.53976e-06 0.18128884
-0.035440911 -0.14503089 -0.051679872 0.23636097 0.9592154 0.15504621 0.18741593
-0.026882896 -0.14714618 -0.055383608 0.34971428 0.93578589 0.044773277 0.19124575
-0.01465556 -0.14929827 -0.054974627 0.23956759 0.96316767 0.12212853 0.2085346
-0.0089490628 -0.14950058 -0.05608001 0.142113 0.98782694 0.063260123 0.19647534
0.014690046 -0.14903995 -0.05365888 -0.071284115 0.99237508 -0.10054982 0.19447197
0.025069445 -0.14804403 -0.055398822 -0.29193977 0.95626736 -0.017998902 0.19859965
0.03582076 -0.1450551 -0.053704739 -0.33063236 0.9428339 0.041790958 0.19982395
0.043545589 -0.14282307 -0.053182978 -0.23352578 0.95452154 0.18534908 0.19983692
0.052103765 -0.14035028 -0.053363103 -0.17055084 0.95595235 0.23888837 0.19819871
0.079233587 -0.14990073 -0.054523248 -0.37435278 0.91685432 0.13870195 0.17564075
0.086762071 -0.14535633 -0.056067295 -0.48766711 0.86775905 0.09578675 0.1851009
-0.10574695 -0.13316107 -0.052056812 0.7155875 0.69852024 -0.0020176675 0.18799095
-0.09955173 -0.13841024 -0.054223761 0.51724839 0.85092688 0.091528952 0.19036512
-0.070680439 -0.13151738 -0.053352803 0.20981078 0.97746623 0.023223761 0.18410718
-0.06646046 -0.13384536 -0.056170929 0.38245636 0.90563452 0.18317598 0.18740584
-0.058847144 -0.13804533 -0.054560695 0.36597374 0.9105261 0.19236816 0.17606838
0.053911753 -0.13982788 -0.057902105 -0.35218158 0.93134874 0.092507809 0.20852612
0.06768705 -0.1335313 -0.054759383 -0.37456259 0.92062616 0.11022823 0.19774754
0.098193742 -0.13845587 -0.055305392 -0.65369588 0.74740118 0.11863039 0.17071517
0.10741097 -0.13233356 -0.051968753 -0.66996872 0.73238361 0.12147483 0.15689605
-0.11223746 -0.12691869 -0.057722438 0.68217182 0.73112959 0.0095450617 0.18438202
-0.086938292 -0.12254858 -0.055078026 0.42908126 0.86848408 0.24824308 0.23118055
-0.076771617 -0.12815714 -0.05100242 0.34166157 0.93533528 0.091735281 0.2001787
0.08864525 -0.12088034 -0.056085121 -0.68724775 0.70360965 0.18062115 0.19390094
0.090044126 -0.12003595 -0.053487927 -0.67548186 0.72352254 0.14226538 0.18717951
0.1145958 -0.12505019 -0.052150466 -0.65277696 0.74740916 0.12353827 0.19588576
-0.12113362 -0.11836262 -0.055419277 0.69827557 0.71487486 0.036947746 0.17367555
-0.11958498 -0.11985204 -0.052399006 0.70546436 0.68933159 0.16474833 0.17974791
-0.10064101 -0.11034904 -0.055535831 0.71274596 0.62229359 0.32364163 0.23393634
-0.096014023 -0.11479914 -0.053816903 0.67838621 0.70190364 0.21707925 0.23287793
0.095027506 -0.11627942 -0.053861052 -0.66696799 0.74479741 0.02074573 0.18758398
0.10057095 -0.11080774 -0.055595029 -0.66823107 0.7304759 -0.14096892 0.1973826
0.11991799 -0.11951648 -0.055582985 -0.56962186 0.82189554 -0.0043173344 0.18417582
0.12363566 -0.11565105 -0.05539608 -0.48929825 0.86496043 -0.11149323 0.16169949
-0.13468333 -0.10424399 -0.054186791 0.8069241 0.58339703 -0.092311189 0.15964411
-0.10424525 -0.10688262 -0.053232133 0.66992217 0.71340626 0.20556213 0.21880336
0.10901527 -0.10202777 -0.059664827 -0.64421457 0.76481485 0.0067629553 0.18750881
0.13484469 -0.10399655 -0.05725285 -0.77089709 0.63549018 -0.043242186 0.17782867
-0.14161865 -0.092954129 -0.05571593 0.86365104 0.48775679 -0.12728 0.17220663
-0.13847299 -0.098165385 -0.055953298 0.81104064 0.58498955 0.00062210072 0.16084307
-0.11819763 -0.093089662 -0.056326237 0.71520907 0.65937901 -0.23172222 0.20428337
0.11464655 -0.096172653 -0.053770054 -0.62424606 0.77836424 -0.066828154 0.19119366
0.13868952 -0.099045634 -0.052544661 -0.8043583 0.59362531 -0.02483605 0.14525872
0.1415448 -0.093869813 -0.054438144 -0.90019888 0.43324891 -0.044015519 0.1729838
-0.14870253 -0.0812186 -0.056034379 0.87576121 0.46524405 -0.12880318 0.17501855
-0.12379315 -0.083819836 -0.057362601 0.93484432 0.34137142 -0.097630523 0.20765983
0.12376589 -0.084731713 -0.053315822 -0.86470181 0.49978161 -0.050090056 0.20988905
0.14570928 -0.08632081 -0.05305602 -0.94795728 0.3099857 -0.072703592 0.18120936
-0.15303858 -0.074035287 -0.054852728 0.87417459 0.48387262 -0.041060992 0.17699052
-0.13113636 -0.071654707 -0.055826005 0.88221955 0.40532413 -0.23958494 0.19605364
-0.12886187 -0.075422741 -0.056418091 0.90881389 0.38823915 -0.15273428 0.19435762
0.12915044 -0.074971043 -0.053407777 -0.97145706 0.2371113 -0.0070201964 0.17685622
0.15257412 -0.073876768 -0.055808537 -0.9506858 0.30472416 0.057789318 0.17949264
-0.15795082 -0.063171819 -0.055933356 0.86939907 0.48749074 0.080611013 0.19193155
-0.1372223 -0.061572399 -0.052854232 0.87881309 0.43800309 -0.18931665 0.21025039
0.1348263 -0.064682283 -0.053380635 -0.86766011 0.48712763 0.099360801 0.19512811
0.1578017 -0.064271346 -0.055275034 -0.92832154 0.31196529 0.2022295 0.22000502
-0.16068229 -0.053718552 -0.054989547 0.95296484 0.29866436 -0.051551454 0.18518707
-0.13905889 -0.056573197 -0.054799005 0.90077466 0.3661128 -0.23359464 0.19633001
0.14033568 -0.054436591 -0.054516092 -0.96148646 0.2721056 0.038760684 0.20601027
0.16111027 -0.053659659 -0.05276661 -0.91246426 0.4086037 0.021258293 0.19658674
-0.16347846 -0.044041306 -0.055856869 0.95297271 0.27847329 -0.1195645 0.19903058
-0.14260387 -0.044304423 -0.055800598 0.9228636 0.37691572 -0.079103321 0.21996759
0.1435042 -0.041617554 -0.058660723 -0.9201932 0.37837926 0.10036761 0.17929325
0.16323078 -0.04508061 -0.054378822 -0.96692067 0.1896479 -0.17058119 0.19431348
-0.1657974 -0.036015753 -0.053910952 0.97601676 0.20304538 -0.078510538 0.17835574
-0.14566836 -0.033698618 -0.056407791 0.99224883 0.1153934 -0.046114676 0.20274875
0.14490737 -0.035940666 -0.054686949 -0.95634109 0.27616638 -0.095623814 0.19243228
0.16619368 -0.033093482 -0.055294413 -0.97429448 0.12306615 -0.18869276 0.18480143
-0.16883472 -0.022276651 -0.055574767 0.97600228 0.15274511 -0.15520485 0.16622169
-0.14834706 -0.023952663 -0.057872497 0.99214816 0.12502547 0.0032564676 0.2048966
0.14726532 -0.026401028 -0.054832965 -0.95314884 0.23673248 -0.18832159 0.20787661
0.16785116 -0.026387636 -0.055865794 -0.95943195 0.25303259 -0.12435788 0.18588373
-0.16899852 -0.016048785 -0.05755198 0.98945069 0.052910484 -0.13486186 0.17208773
-0.14911477 -0.010853374 -0.055080723 0.99524885 0.037159044 -0.089993998 0.20673975
0.14957044 -0.014366252 -0.056162797 -0.98744559 0.057839669 -0.14698942 0.21686769
0.16958396 -0.015532461 -0.054523248 -0.96590441 0.067143753 -0.25004068 0.17220567
-0.16924509 -0.003396607 -0.052402306 0.99180156 -0.11656822 -0.052357953 0.1894078
-0.14920288 -0.0063312901 -0.054361857 0.99823594 0.058864105 0.0077400398 0.20132628
0.16943 -0.0060941186 -0.052951824 -0.99413991 0.041836318 -0.099677399 0.16659558
-0.16937464 0.003251984 -0.056556601 0.99746835 -0.070093259 -0.01199375 0.17165746
-0.14943956 0.0058144745 -0.055775877 0.99305266 -0.025145184 0.11495208 0.1872911
0.14923561 0.0046524825 -0.058713313 -0.99872816 -0.048724137 0.01295963 0.20075102
0.16924229 0.0035397094 -0.05617471 -0.99358046 -0.049900491 -0.10152774 0.19540706
-0.16963087 0.016401885 -0.058024362 0.97006053 -0.11036418 -0.21633874 0.19059028
-0.1496207 0.015110669 -0.053633139 0.99284542 -0.044720303 -0.11071638 0.2088896
0.14903577 0.014908294 -0.055010725 -0.99738657 -0.068257399 -0.023683315 0.18829854
0.16903059 0.014402582 -0.055031259 -0.99267423 -0.080358289 0.090224758 0.18824174
-0.16789298 0.026218459 -0.054974705 0.99880594 -0.048286062 0.0074249147 0.19281791
-0.14774345 0.024466673 -0.053545658 0.97835588 -0.096531875 -0.18303379 0.19329637
0.14872071 0.02299013 -0.057599947 -0.98451495 -0.16642675 0.05506837 0.21568006
0.16829546 0.026782148 -0.055517923 -0.99706674 -0.03920744 -0.065732196 0.16663499
-0.16632767 0.032551277 -0.054101616 0.97439975 -0.22241849 -0.032790031 0.1900904
-0.14612804 0.031002188 -0.053911928 0.97868222 -0.18466203 0.089894675 0.1966228
0.14515476 0.035476122 -0.054478254 -0.97424203 -0.22462301 0.019923596 0.20820919
0.16571641 0.036295991 -0.055400562 -0.99140948 -0.13059591 -0.0072165974 0.18355852
-0.16377811 0.04286617 -0.055638194 0.97592342 -0.21761504 -0.014738144 0.19397023
-0.14283213 0.044336505 -0.053429022 0.94259417 -0.33224186 0.033638682 0.19533829
0.14259036 0.044351198 -0.055593379 -0.98853338 -0.1200145 -0.091642112 0.20743506
0.16379361 0.042950548 -0.055183195 -0.97177494 -0.21904883 0.087585174 0.17682198
-0.16133879 0.052735142 -0.051746145 0.95619226 -0.29214594 -0.018631194 0.16572802
-0.15979037 0.05899962 -0.053097907 0.93790478 -0.33939183 0.071748093 0.17703103
-0.14080255 0.052547764 -0.053339195 0.91575396 -0.39790651 -0.055363245 0.19974832
0.13882034 0.057398811 -0.05772388 -0.86968654 -0.47927469 0.11807232 0.19644234
0.15966848 0.057227202 -0.054722667 -0.95532829 -0.28774756 -0.067446887 0.19013135
0.16093227 0.052853324 -0.056756675 -0.88372284 -0.46772259 0.016419549 0.20718578
-0.15718865 0.065511912 -0.057099029 0.91746724 -0.39708963 0.023949601 0.19620815
-0.13380659 0.066530764 -0.054915018 0.862203 -0.49373841 0.11326241 0.19908889
0.13502656 0.06520997 -0.053297862 -0.82860482 -0.55502367 -0.073230788 0.18900867
0.15615822 0.068623409 -0.051337209 -0.90908372 -0.38298532 -0.16397859 0.18730946
-0.15291311 0.073262289 -0.056462001 0.87072206 -0.49133998 0.020691033 0.19531547
-0.14951338 0.079425037 -0.056599211 0.89817655 -0.43038586 0.08970426 0.20272231
-0.13062736 0.072293818 -0.058111005 0.87868601 -0.47580272 0.039021246 0.20389476
-0.1285961 0.075975962 -0.055863779 0.91558343 -0.40186742 -0.014476968 0.21865487
0.12621328 0.079810522 -0.056049231 -0.94856346 -0.31617239 -0.016199905 0.19681448
-0.1484127 0.081420258 -0.058325097 0.82027996 -0.57187456 0.010012234 0.19222483
-0.12157138 0.088497832 -0.058437265 0.88338405 -0.46861485 -0.0057283267 0.20988573
0.1244348 0.082756855 -0.052484583 -0.87473375 -0.44547671 -0.19076507 0.1872226
0.14739041 0.083392337 -0.053058434 -0.86604464 -0.47006598 -0.17030786 0.18923345
-0.14232337 0.092458494 -0.053687088 0.88281548 -0.4654305 0.063334204 0.19264282
-0.11508273 0.095719181 -0.057953827 0.74137539 -0.55259538 0.38078979 0.19484362
0.11972541 0.090558678 -0.055340547 -0.69217002 -0.68137413 -0.23797043 0.20363998
0.13886517 0.09751568 -0.056116495 -0.74664688 -0.60896891 -0.26772231 0.226768
0.14129248 0.093494467 -0.054248478 -0.82033074 -0.46890935 -0.32738587 0.20011929
-0.13640541 0.10237381 -0.052040577 0.75265348 -0.65378815 0.077934697 0.16875245
-0.12959062 0.10945943 -0.052269794 0.68164712 -0.73159564 0.011176771 0.20190673
-0.10691291 0.1042137 -0.056816503 0.72403359 -0.67750758 0.12945585 0.22739348
0.10535281 0.1058174 -0.054615725 -0.64503628 -0.75383848 0.12512322 0.17328353
0.13448772 0.10455459 -0.055899471 -0.73296243 -0.66318262 0.15150885 0.22478949
-0.12335347 0.11594446 -0.057678428 0.67828947 -0.73162109 0.068220265 0.19537339
-0.096856482 0.11466984 -0.053484753 0.76972699 -0.62906951 -0.10859064 0.21406256
0.093642443 0.11708005 -0.054246992 -0.47213435 -0.84000075 0.26737237 0.22746846
0.12425657 0.11535906 -0.055749431 -0.65172035 -0.74620384 0.13579579 0.1630066
-0.11418317 0.12547924 -0.05795015 0.72430527 -0.68945271 0.0060719647 0.12971358
-0.081250109 0.12534426 -0.056055736 0.43151429 -0.90210605 0.00028735597 0.21510327
-0.076671228 0.1281082 -0.052386381 0.24797791 -0.94965404 -0.19147891 0.20885089
0.074554354 0.1293803 -0.05414997 -0.27444297 -0.96152902 0.011963851 0.17977484
0.083536014 0.12442548 -0.058320381 -0.41771516 -0.90625215 -0.064969786 0.21376641
0.1135368 0.12566902 -0.052713361 -0.69707131 -0.71152568 -0.088446438 0.18623185
-0.10542639 0.13356827 -0.053975433 0.73080277 -0.67543739 0.098546714 0.19380964
-0.098182149 0.13846286 -0.056475267 0.57937491 -0.81299472 0.058002979 0.16919023
-0.0672068 0.1338212 -0.056413807 0.21815947 -0.95161104 -0.21643187 0.20857736
0.057438686 0.13882232 -0.056267008 -0.39910954 -0.90563416 0.14331192 0.19843213
0.061376102 0.13665019 -0.05375953 -0.48744407 -0.87111664 -0.059616145 0.18989561
0.073308349 0.13006766 -0.055124611 -0.25413525 -0.96706909 0.013882756 0.17550924
0.098561771 0.13895635 -0.052855119 -0.50329721 -0.8604359 0.079636723 0.20385076
0.10219435 0.13657786 -0.053996734 -0.50958461 -0.85857493 0.056327231 0.19734241
-0.091122374 0.14272434 -0.059584845 0.4482775 -0.89035004 -0.079524025 0.19721296
-0.085252464 0.14626756 -0.05421878 0.36701727 -0.928675 -0.053488974 0.18883146
-0.052217379 0.14031744 -0.055431388 0.26423779 -0.94661748 -0.18464498 0.20451146
-0.04562971 0.1422209 -0.054639626 0.40145338 -0.91560614 -0.022376115 0.20703147
-0.035640094 0.14510731 -0.058124274 0.28445968 -0.94504184 0.16117874 0.20569241
-0.027589431 0.14743347 -0.055630427 0.137605 -0.98858166 0.06140919 0.2124279
-0.014892028 0.14903601 -0.054094359 0.014120143 -0.99974597 -0.017568475 0.21421964
-0.0051739193 0.14922537 -0.059430029 0.16582698 -0.98511994 0.045167524 0.19415246
0.0050979024 0.14942554 -0.056233853 0.032898154 -0.99723208 0.066677392 0.20343333
0.015730493 0.14934608 -0.054299466 -0.15887977 -0.9872871 0.0046233837 0.21073163
0.024867486 0.14764434 -0.052903816 -0.21115252 -0.96609455 -0.14857984 0.20697807
