# .PCD v0.7 - Point Cloud Data file format
VERSION 0.7
FIELDS x y z normal_x normal_y normal_z curvature
SIZE 4 4 4 4 4 4 4
TYPE F F F F F F F
COUNT 1 1 1 1 1 1 1
WIDTH 572
HEIGHT 1
VIEWPOINT 0 0 0 1 0 0 0
POINTS 572
DATA ascii
0.033686735 -0.073230326 0.30373651 -0.40036017 0.88225675 -0.2476586 0.0051705679
-0.051087525 -0.061902117 0.30499798 0.61681938 0.74332517 -0.25884667 0.0046258071
-0.044544496 -0.066848271 0.30521911 0.50939554 0.82330668 -0.25036427 0.0031107508
0.04589181 -0.065298386 0.30675167 -0.56382763 0.78322303 -0.26203078 0.0039477875
0.051961258 -0.060561858 0.30698711 -0.62283033 0.73810762 -0.25938284 0.0028426102
-0.061375994 -0.052929748 0.30236247 0.7192117 0.64243454 -0.26459852 0.0031070102
-0.05812471 -0.05615123 0.30449423 0.70885634 0.65455687 -0.26282704 0.0036983904
0.057033222 -0.057276063 0.30460638 -0.66589731 0.69674814 -0.26668879 0.0047162306
0.061229683 -0.052782606 0.30313227 -0.73174077 0.62750375 -0.26607218 0.0030452183
-0.070708945 -0.041489992 0.30071458 0.82954562 0.48752221 -0.27235281 0.0046196659
-0.066204831 -0.044612128 0.30697587 0.80351734 0.53245103 -0.26618749 0.0034107941
0.065153137 -0.04658854 0.30559537 -0.7760691 0.57424456 -0.26069087 0.0046037999
-0.072517335 -0.033481345 0.30649647 0.86938888 0.41401228 -0.26973456 0.0040765204
0.072636418 -0.035220824 0.30359292 -0.85784799 0.4456833 -0.25585777 0.0030971549
-0.076855868 -0.024178058 0.30473727 0.92841721 0.27403539 -0.25089088 0.0043048193
0.07702864 -0.023855494 0.30454826 -0.92303985 0.28553775 -0.25780937 0.0041993433
-0.08035285 -0.01232329 0.30101681 0.95611054 0.1271839 -0.26396388 0.0044092024
-0.078294486 -0.01646601 0.30663168 0.94491565 0.20182319 -0.25768545 0.0034439876
0.078162171 -0.017045295 0.3068397 -0.94894218 0.17431304 -0.26291364 0.0034514414
-0.080710545 -0.0014838417 0.30498531 0.96828377 0.0088982051 -0.24969438 0.0045223418
-0.079456113 -0.0074898759 0.30670628 0.95902282 0.094926104 -0.26695365 0.0038257316
0.08151643 -0.0012690128 0.30209953 -0.96382624 0.034587491 -0.26427776 0.0031884224
-0.080773681 0.0053179679 0.30287775 0.96148682 -0.066410571 -0.2667073 0.0043146759
-0.079371423 0.0077796765 0.30687898 0.95667434 -0.12433267 -0.26327848 0.0043735448
0.079358704 0.0071283393 0.30724439 -0.95922285 -0.10738883 -0.26145577 0.004474103
0.081264071 0.004779187 0.30132106 -0.9642303 -0.044618741 -0.26128364 0.0042102989
-0.079008676 0.016794724 0.30382064 0.94882733 -0.18744108 -0.25415051 0.0038621936
0.078912385 0.015759265 0.30468386 -0.94251579 -0.20795976 -0.26156598 0.0024456286
0.080322728 0.010112344 0.3022089 -0.95507193 -0.12733836 -0.26762375 0.0049410956
-0.077058144 0.025006678 0.30291128 0.91713488 -0.30125967 -0.26097178 0.0037776937
0.075931557 0.025432767 0.30608878 -0.91624707 -0.3034586 -0.26154196 0.0033317911
-0.072443537 0.034891859 0.30473116 0.85692841 -0.43768141 -0.27222934 0.0039905566
0.072385117 0.034489635 0.30550936 -0.8733241 -0.40150017 -0.27586719 0.0051057125
-0.065784603 0.045450225 0.30631399 0.80013037 -0.54041773 -0.26026908 0.003126092
0.065048561 0.045728117 0.30786657 -0.78260076 -0.56871724 -0.25317356 0.0041859397
0.07102643 0.040911354 0.30100927 -0.82577354 -0.50270009 -0.255716 0.0045232228
-0.061497122 0.052860212 0.30216125 0.71784949 -0.63955855 -0.27505815 0.0039975094
-0.056218479 0.057077006 0.3063581 0.66746622 -0.69650251 -0.26338753 0.0043305703
0.057030041 0.056515519 0.30624962 -0.68908018 -0.67456222 -0.2648288 0.0054853335
0.06031207 0.055299588 0.30012184 -0.71032625 -0.6508801 -0.26793972 0.0032882742
-0.051278193 0.061908267 0.30454522 0.6104207 -0.75025618 -0.25397304 0.0045125852
-0.047079664 0.06515374 0.30447444 0.57111979 -0.77985102 -0.25623152 0.0039126715
-0.038600776 0.069620326 0.30918166 0.47750214 -0.84053022 -0.25593108 0.0047602141
0.044844292 0.066562518 0.30538461 -0.5412994 -0.79676402 -0.26862988 0.0036157537
0.052732736 0.061459493 0.30256349 -0.62912494 -0.72877413 -0.27035168 0.003264671
-0.040170044 0.070303552 0.30457103 0.49035591 -0.83208877 -0.25918978 0.0044872351
-0.032861322 0.073729701 0.30319196 0.39333749 -0.88310963 -0.25573993 0.0043882313
-0.025247445 0.076412641 0.30467287 0.30485517 -0.9160589 -0.2605755 0.0047597066
-0.015291629 0.078557678 0.3062287 0.19582357 -0.94774783 -0.25184762 0.0029241131
-0.0086648893 0.079461783 0.3061111 0.11845203 -0.96118277 -0.24919242 0.0040570823
0.005528857 0.079376221 0.3079609 -0.094801955 -0.96371782 -0.2495207 0.0035591412
0.01583543 0.078672707 0.30553615 -0.18583728 -0.95022047 -0.25009108 0.0035218694
0.025499983 0.076097958 0.3055234 -0.29315874 -0.91762638 -0.26836506 0.0035595696
0.035281446 0.072388537 0.30436331 -0.4574514 -0.84893739 -0.26465741 0.0031262885
0.040400833 0.070732459 0.30275717 -0.4779568 -0.83800817 -0.26324841 0.0040165074
-0.010979111 0.080076694 0.30269843 0.13788803 -0.95335186 -0.26852781 0.0040985676
-0.0033707195 0.081124313 0.30252793 0.027359297 -0.96653283 -0.25507993 0.0042293165
0.0042497292 0.080462992 0.3045527 -0.053390894 -0.96854287 -0.24305169 0.0045788628
-0.031920861 -0.071482897 0.31230906 0.39659548 0.87603307 -0.27436829 0.0047183866
-0.024568703 -0.073747531 0.31498656 0.34731653 0.89948553 -0.26513591 0.0043995222
-0.015762897 -0.075958073 0.31564596 0.18465431 0.95078629 -0.24881363 0.0026319735
-0.0046940711 -0.077030323 0.31707469 0.055298943 0.9631198 -0.26332918 0.0048629353
0.0056741452 -0.077676617 0.31419739 -0.082530968 0.96176291 -0.26115286 0.0035502035
0.015788702 -0.075959109 0.31562945 -0.19056939 0.94867706 -0.25237885 0.0031840131
0.025007645 -0.073543295 0.31508651 -0.32084802 0.91359919 -0.24978577 0.0050979801
0.032069374 -0.071594574 0.31171018 -0.39704543 0.88246673 -0.25220507 0.0050894106
-0.050235312 -0.060358629 0.3115235 0.62145633 0.73752934 -0.26427731 0.0049021314
-0.043838408 -0.064097747 0.31499618 0.54729867 0.79268324 -0.26854688 0.0037786043
-0.036239054 -0.068989612 0.31474587 0.44275773 0.85952622 -0.25530422 0.0034780817
0.036348831 -0.068622537 0.31564626 -0.4592222 0.84806228 -0.26439586 0.0029034421
0.044452272 -0.063280463 0.31602442 -0.56809586 0.77681816 -0.27169955 0.0045421622
-0.055439927 -0.054183263 0.31599727 0.69535172 0.66998142 -0.26002088 0.0047087106
-0.049812101 -0.059620962 0.31467852 0.61660892 0.74522638 -0.25383276 0.0044102641
0.049350314 -0.058753043 0.31830817 -0.61270362 0.74489897 -0.26404518 0.0056667384
0.055020846 -0.05486244 0.31568617 -0.68487412 0.68124306 -0.25856405 0.0054776329
0.060700089 -0.050283998 0.31039855 -0.74700648 0.61163098 -0.26055503 0.0045737014
-0.063852072 -0.044417169 0.31440696 0.78118396 0.56873626 -0.2574698 0.0042116498
0.059074797 -0.048946448 0.31827301 -0.75017881 0.60564375 -0.26538172 0.0051410734
0.062647939 -0.04551046 0.3154915 -0.77455676 0.57119548 -0.27165723 0.0047815586
-0.07141307 -0.031730488 0.31282324 0.88335526 0.39090273 -0.25860882 0.0044605699
-0.068010569 -0.038552552 0.31461608 0.834297 0.48859003 -0.2553983 0.0039100894
0.068197474 -0.035935484 0.31782562 -0.84129596 0.4700141 -0.26703534 0.0036189661
0.07062991 -0.032067813 0.3150484 -0.87374616 0.4066945 -0.266772 0.0047204103
-0.074287407 -0.024083918 0.31383646 0.91789854 0.30377418 -0.25531086 0.0045016478
0.072926983 -0.025556117 0.31643227 -0.89950329 0.35433435 -0.25561875 0.0048706341
-0.076074228 -0.01598046 0.31510857 0.95060742 0.18176414 -0.25160956 0.0041763796
0.075457677 -0.014994389 0.31787848 -0.95376408 0.16199178 -0.25316551 0.0037319602
-0.077651106 -0.0045600343 0.31483641 0.96491534 0.07384944 -0.25196138 0.0028941962
0.077691995 -0.0033633446 0.31526926 -0.96402329 0.047986716 -0.26145056 0.0046608169
-0.077374741 0.0039545074 0.31615785 0.96318722 -0.054124285 -0.26332673 0.0044867145
0.077427879 0.0064289486 0.31475168 -0.96240461 -0.10171605 -0.2518554 0.0045352285
-0.076958083 0.01315842 0.3132073 0.95354259 -0.15299979 -0.25951421 0.003752725
0.076317817 0.014184193 0.31508219 -0.95073634 -0.18008551 -0.25232828 0.0037100362
-0.072881415 0.025949208 0.31602672 0.89924872 -0.34544739 -0.26836121 0.003806097
0.073701441 0.025219813 0.31423572 -0.91086823 -0.3228415 -0.25708458 0.00440503
-0.072289526 0.030187016 0.3120032 0.89262271 -0.36409846 -0.26581365 0.0040301387
-0.069270708 0.034288723 0.31656748 0.86057168 -0.4418098 -0.25341782 0.003944857
0.068815596 0.035730377 0.31591487 -0.85242349 -0.45430413 -0.25880888 0.0032241428
0.070768014 0.033825878 0.31205249 -0.87389231 -0.40824646 -0.2639071 0.0048659672
-0.062293779 0.046211462 0.31494591 0.77409339 -0.57748866 -0.25939578 0.0039734226
0.059154138 0.049638785 0.31645972 -0.7547586 -0.60097194 -0.26300609 0.0036394235
0.06474486 0.04309696 0.31476405 -0.78668058 -0.55974329 -0.2604247 0.0038470207
-0.06025666 0.050471462 0.31128821 0.73553258 -0.62250358 -0.26735955 0.0047064708
-0.055159427 0.054656811 0.31522828 0.67835671 -0.68681008 -0.26100615 0.0036166345
0.055332042 0.05460491 0.31537268 -0.67882901 -0.68942112 -0.25276402 0.0049176291
-0.043435048 0.063491546 0.3177155 0.54810607 -0.79261178 -0.26710722 0.004801088
-0.035304956 0.06906832 0.31581172 0.44062135 -0.8602494 -0.25656146 0.0035341
0.035906345 0.068943568 0.31538168 -0.45704976 -0.84853387 -0.2666381 0.0030722243
0.045146495 0.062796585 0.31587949 -0.57933134 -0.76905036 -0.27006802 0.0046090181
0.050607737 0.060278118 0.31091398 -0.61314523 -0.74351257 -0.26691201 0.0044735642
-0.032789689 0.070103027 0.31583643 0.41901967 -0.87290025 -0.24993533 0.004045282
-0.026030356 0.073264904 0.31457478 0.3399359 -0.9073478 -0.24731255 0.0040039644
-0.016713221 0.075589538 0.31654936 0.22948556 -0.93897384 -0.25625086 0.0033433826
-0.0030462667 0.07762447 0.31567481 0.031796817 -0.96362495 -0.26536003 0.0039728959
0.0044643437 0.07758788 0.31511775 -0.067849301 -0.96350467 -0.25895038 0.0037843739
0.015087104 0.075848483 0.31638283 -0.18517393 -0.9516905 -0.2449408 0.0033267927
0.024814302 0.073411807 0.31573889 -0.32331231 -0.90805733 -0.26627243 0.005013308
0.0319461 0.071488172 0.3122547 -0.40797797 -0.87301904 -0.26719236 0.0057335901
-0.023007996 -0.071670324 0.32442808 0.31056473 0.91592205 -0.25423679 0.0052727107
-0.015279037 -0.073862389 0.32365972 0.19601345 0.94505531 -0.26162806 0.0030717743
-0.0047648195 -0.075301707 0.32345527 0.053234167 0.96255553 -0.26580626 0.0042748149
0.00539666 -0.074853159 0.32481113 -0.059594985 0.96402586 -0.25904176 0.0048894957
0.015017358 -0.073564641 0.32489255 -0.21615383 0.93998146 -0.26403111 0.0051354067
0.024948202 -0.071222268 0.32319835 -0.3280578 0.90804863 -0.26043355 0.005373782
-0.043118671 -0.061588436 0.32408804 0.56841403 0.78015941 -0.26125979 0.0045069577
-0.035414685 -0.066101268 0.32572308 0.46315476 0.84979695 -0.25166002 0.0039014015
-0.028410485 -0.068911463 0.32623011 0.38458681 0.88973749 -0.24588637 0.0045768302
0.027244378 -0.069220975 0.32683009 -0.34925258 0.89980102 -0.26149747 0.0041867988
0.036206804 -0.066037379 0.32436457 -0.48710778 0.83244628 -0.26411974 0.0042703738
0.041723263 -0.061931379 0.3262493 -0.54072165 0.8030467 -0.25047165 0.0055907564
-0.052547701 -0.05432272 0.32383192 0.65677255 0.70551974 -0.26625511 0.0039676884
-0.046466902 -0.058441382 0.32580411 0.57896078 0.77239215 -0.26117954 0.0045805685
0.045881636 -0.059118263 0.32512763 -0.57294786 0.78072912 -0.24938467 0.0040433202
0.054141667 -0.052227132 0.32496077 -0.70805365 0.65448451 -0.26516044 0.0053150337
-0.060038064 -0.046235301 0.32159024 0.77040654 0.58173108 -0.26088828 0.0042426675
-0.057752121 -0.047752351 0.32492179 0.74396145 0.61928779 -0.25100601 0.0047494401
0.058086384 -0.046739608 0.3262369 -0.75926608 0.59923512 -0.25383526 0.0054453458
0.062191512 -0.041903745 0.32506555 -0.78631502 0.55581552 -0.26977345 0.0057764766
-0.066041708 -0.034677725 0.32677001 0.86368167 0.4321875 -0.25936067 0.0034448183
0.066397987 -0.035055261 0.32521337 -0.84899443 0.46583334 -0.24941477 0.0036354701
-0.07183557 -0.021854376 0.32550916 0.91701794 0.29800969 -0.26508191 0.0054576797
0.069301479 -0.027277613 0.32650414 -0.88948041 0.37340999 -0.26341912 0.0051023145
0.071651608 -0.02306626 0.32440937 -0.90494567 0.32339066 -0.27657151 0.0067618378
-0.072656974 -0.015743433 0.32787013 0.933887 0.23100266 -0.27293372 0.0035368644
0.073540546 -0.014941052 0.3250193 -0.94334996 0.20344071 -0.26211211 0.0041096918
-0.074770264 -0.0054926774 0.32507187 0.96311682 0.057713117 -0.26282147 0.0044754343
0.074728295 -0.0055130725 0.32521766 -0.96509391 0.070024237 -0.25236943 0.004024371
-0.074634425 0.005125145 0.32575557 0.96624237 -0.052862123 -0.25215322 0.0042176973
0.074470803 0.0060871211 0.32589278 -0.96007293 -0.058602508 -0.27354291 0.0041783308
-0.073696069 0.014534888 0.32464054 0.94748026 -0.18721427 -0.25929129 0.0029491822
0.073649772 0.015237038 0.32446924 -0.94190335 -0.21025552 -0.26193649 0.0024966418
-0.071370348 0.024172537 0.32379735 0.91175985 -0.31351167 -0.26533866 0.0050245663
-0.069421224 0.027829409 0.32529956 0.90194041 -0.35050061 -0.25229502 0.0038579132
0.068933293 0.028208023 0.32644463 -0.88729608 -0.37840164 -0.26366225 0.0045825527
0.071481876 0.022058865 0.32643935 -0.92356962 -0.28222889 -0.25954977 0.0056318515
-0.066073008 0.035123941 0.32581523 0.84649748 -0.46954009 -0.25094652 0.004273484
0.066275626 0.03610111 0.32415706 -0.8418076 -0.46832442 -0.26838812 0.0043154019
-0.060965389 0.042712599 0.32686359 0.77470982 -0.57549894 -0.26196498 0.004818284
-0.05768745 0.047209334 0.32635126 0.75059068 -0.60859531 -0.2573429 0.0056001772
0.059250195 0.047054932 0.32206228 -0.76875931 -0.58661205 -0.25474569 0.0040822676
0.062082056 0.043164454 0.32251787 -0.78229702 -0.56522125 -0.26179451 0.0038101217
-0.051808447 0.053762149 0.32746932 0.66510618 -0.7007339 -0.25808093 0.0045013851
-0.046841156 0.057862014 0.32667181 0.5986585 -0.75568771 -0.26560128 0.0055514877
0.048252653 0.057845328 0.32350501 -0.60128695 -0.75547689 -0.26020896 0.0054270127
0.053609665 0.052737851 0.32528242 -0.70490956 -0.65839761 -0.26384664 0.0045515439
-0.042705413 0.061594486 0.32501173 0.55896097 -0.78376806 -0.27068493 0.0044019334
-0.035691343 0.065866888 0.3259365 0.47047803 -0.84311813 -0.26038864 0.0043164939
-0.027356246 0.069055989 0.32724047 0.36428407 -0.8904869 -0.27263561 0.0053718556
0.027382579 0.06922631 0.32661372 -0.35279161 -0.90004677 -0.2558395 0.0041093063
0.035175737 0.066388473 0.32497996 -0.45468256 -0.85180539 -0.26017568 0.0034502407
0.043385189 0.061391331 0.32406604 -0.57391846 -0.77658087 -0.25988415 0.0042323763
-0.023220444 0.071272179 0.32550064 0.30239588 -0.91324717 -0.27301344 0.0045644077
-0.014196761 0.073705547 0.32477057 0.19136155 -0.94564593 -0.26293439 0.0052201496
-0.0040575881 0.075072616 0.32465097 0.053673826 -0.96353084 -0.26215911 0.0040782886
0.0024635142 0.074407496 0.32789817 -0.038783908 -0.9644469 -0.26141533 0.0037108718
0.013734404 0.073386557 0.32618028 -0.15949929 -0.95220006 -0.26052848 0.0049538771
0.023043336 0.071937174 0.32345465 -0.28761137 -0.92018044 -0.26560804 0.0046799546
-0.02017943 -0.07068643 0.33188242 0.28007305 0.92078853 -0.27149117 0.0060758982
-0.012690058 -0.072464876 0.33011103 0.15722658 0.95307177 -0.2587162 0.004519897
-0.004888495 -0.072554938 0.33358845 0.052294526 0.9638077 -0.261419 0.0035182217
0.0071310871 -0.071709521 0.33563027 -0.083554611 0.96233273 -0.25871688 0.0049029072
0.016192226 -0.07100559 0.33363819 -0.2235862 0.94145942 -0.25231594 0.0054192445
0.020290811 -0.071110278 0.33025709 -0.2819396 0.92480636 -0.25542757 0.0052764816
-0.040358942 -0.060329184 0.3341161 0.55069089 0.79118079 -0.26603115 0.0053156978
-0.03454731 -0.062938958 0.33726871 0.47345221 0.84183514 -0.25914586 0.0033761836
-0.025805127 -0.067592323 0.33452404 0.32929754 0.90844166 -0.25748196 0.0050690933
-0.016939892 -0.069440588 0.33910358 0.22890201 0.93555933 -0.26894721 0.00443635
0.018549208 -0.069585033 0.33793584 -0.26079223 0.92982721 -0.25963196 0.0049725687
0.027112376 -0.066679738 0.33580741 -0.37412518 0.88707292 -0.27042922 0.0056229397
0.033773147 -0.064519107 0.33359596 -0.46581882 0.84495133 -0.26281181 0.0052476753
0.040506352 -0.061187029 0.33123273 -0.52250713 0.81399977 -0.25375319 0.0057222373
-0.051247016 -0.05157334 0.33507299 0.69506919 0.67025477 -0.26007196 0.0035979645
-0.04466683 -0.056565836 0.33547562 0.60065222 0.75507265 -0.26283529 0.0061797472
0.044591095 -0.056104094 0.33701935 -0.56714845 0.78301758 -0.25539389 0.0043551652
0.051580667 -0.051735058 0.33406684 -0.68071097 0.68154442 -0.26857001 0.004820331
-0.060180042 -0.040056858 0.3352474 0.79957747 0.53633446 -0.27022451 0.007443524
-0.05764411 -0.042735267 0.33667493 0.77254355 0.58456296 -0.24791676 0.0045322282
0.055796377 -0.045813523 0.33514768 -0.74569005 0.61803049 -0.24896702 0.0052033849
-0.063168116 -0.034806933 0.33655193 0.8404119 0.47393396 -0.26285827 0.0050497707
-0.059883356 -0.038861819 0.33885157 0.81129909 0.52433169 -0.2585924 0.0063532842
0.064230494 -0.03342763 0.33512723 -0.86033183 0.43822306 -0.26036462 0.004519884
-0.070411503 -0.020490177 0.33238801 0.92088014 0.27746743 -0.27384591 0.0050679846
-0.066008426 -0.027568685 0.33747533 0.88417232 0.38346556 -0.26682106 0.0046556871
0.068124123 -0.024655912 0.33433113 -0.90382719 0.33244237 -0.2694039 0.0050251596
-0.071265221 -0.014155686 0.33384705 0.93595183 0.2091276 -0.28330156 0.0053132498
0.069520406 -0.016898841 0.33870468 -0.93646979 0.23233546 -0.26276341 0.0040888442
0.071649872 -0.014193981 0.3324008 -0.9489522 0.17519343 -0.26229191 0.0037569364
-0.071879961 -0.0041799545 0.33643958 0.96568412 0.033240478 -0.25758353 0.0047564199
0.071688019 -0.0057079983 0.33640531 -0.96269768 0.087083563 -0.25618264 0.0058425786
-0.072259203 0.0056302673 0.33432356 0.96034425 -0.084890231 -0.26557958 0.005896654
0.071877897 0.0066595427 0.33523577 -0.95897305 -0.10465686 -0.26347217 0.0050343382
-0.070933208 0.014232978 0.33504137 0.9428131 -0.19516456 -0.2702114 0.0053848936
-0.069663085 0.017259255 0.33827642 0.93353993 -0.24593401 -0.26080588 0.0053377058
0.069454998 0.01827538 0.33855221 -0.93263233 -0.25133777 -0.25889426 0.0050881179
0.071293935 0.013960798 0.33383566 -0.9461925 -0.1910782 -0.26116842 0.0044721775
-0.067882597 0.024645146 0.3351818 0.91235602 -0.31911534 -0.25646046 0.0049834265
0.06720376 0.025970459 0.33563095 -0.90080589 -0.34206712 -0.26746744 0.0049585588
-0.06409575 0.033472728 0.33529395 0.85393 -0.45242241 -0.2571331 0.005397642
-0.059688866 0.038887635 0.33937031 0.81206101 -0.5249086 -0.2550056 0.0052097538
0.063467383 0.033727791 0.33683589 -0.84858829 -0.44993183 -0.27831519 0.0061171073
-0.057268053 0.043740839 0.33550033 0.75891548 -0.59993213 -0.25323653 0.0057061245
0.056854784 0.044639811 0.33467913 -0.75842154 -0.59262866 -0.2712712 0.0055527296
0.0600297 0.04202275 0.33121419 -0.78938067 -0.55900997 -0.25374418 0.0037906994
-0.051573548 0.05246764 0.33146331 0.67146653 -0.69438201 -0.25877863 0.0040782527
-0.046135098 0.055324394 0.33581653 0.62301087 -0.73969263 -0.25438589 0.0053694849
-0.039511062 0.059620574 0.3381525 0.5474233 -0.79890513 -0.24915497 0.0069503481
0.045427717 0.055934474 0.33561674 -0.61991197 -0.73559695 -0.27314159 0.0057924562
0.051489081 0.051681202 0.33400133 -0.68274307 -0.68316942 -0.25911656 0.0031607631
-0.040446423 0.06140054 0.33073524 0.5253033 -0.81053877 -0.25900444 0.00545377
-0.035470504 0.06342309 0.33398107 0.48830116 -0.83288532 -0.26050711 0.0056608082
-0.025211049 0.067102119 0.33707026 0.32834485 -0.9078474 -0.26077339 0.0053454908
-0.018029891 0.069083251 0.33932322 0.25581127 -0.93054014 -0.26202202 0.0042492677
0.016529255 0.069468141 0.33935654 -0.22393577 -0.93723792 -0.26727861 0.0037874498
0.024726087 0.067739427 0.33556095 -0.32466075 -0.9056111 -0.27288088 0.0060969731
0.035514563 0.063035503 0.33501589 -0.48305425 -0.83465815 -0.2645832 0.0043585584
-0.020186249 0.07113333 0.33032715 0.28461412 -0.92508459 -0.25142249 0.0048817359
-0.01423867 0.071391091 0.33333933 0.20494469 -0.94142383 -0.26780367 0.0060810889
-0.0035848147 0.072464362 0.33456153 0.019807413 -0.96266896 -0.26995569 0.0052500307
0.0043272865 0.071924172 0.33620349 -0.029357793 -0.96632141 -0.2556583 0.005059401
0.013666455 0.071530774 0.3331005 -0.17467831 -0.94606632 -0.27284798 0.0054626367
-0.0002638209 -0.070303947 0.34420171 -0.00097228965 0.9615106 -0.27476597 0.0055033755
0.0026363267 -0.070489235 0.34235489 -0.036029689 0.967022 -0.25213149 0.0053901449
-0.033240866 -0.061952155 0.34337774 0.4564634 0.85093385 -0.25990909 0.0050776498
-0.022380184 -0.066868722 0.34193242 0.31309417 0.91089797 -0.26876926 0.0053327805
-0.015971035 -0.067594573 0.34608421 0.23746239 0.93384606 -0.26747566 0.0046966779
-0.0050550578 -0.068818703 0.34737271 0.07388813 0.95863652 -0.27487555 0.0069278041
0.0043449346 -0.069311582 0.34589058 -0.05987649 0.96422577 -0.2582314 0.0054503381
0.014957223 -0.068419181 0.34401739 -0.22987066 0.93820769 -0.25870004 0.0038461792
0.024339601 -0.064638875 0.34683701 -0.349556 0.89841956 -0.26580605 0.0069062528
0.033980288 -0.061056338 0.34541649 -0.48654047 0.82665402 -0.282704 0.0054217866
-0.045985311 -0.053149395 0.34261686 0.6224094 0.7370134 -0.2634725 0.0045096176
-0.039963644 -0.055848867 0.34832188 0.55631763 0.78905672 -0.26057661 0.0068106507
0.037807737 -0.058480874 0.34541836 -0.52053094 0.8105545 -0.26841944 0.0050605475
0.046176255 -0.052442964 0.34427959 -0.64577329 0.70976174 -0.28145173 0.005628536
-0.053857107 -0.043974012 0.34509829 0.71880716 0.63994056 -0.2716476 0.0048833382
-0.049438618 -0.048573989 0.34766313 0.68923813 0.67124724 -0.27272329 0.0057899877
0.049950276 -0.049653146 0.34375924 -0.67285323 0.68796349 -0.27198297 0.0061083427
0.053444356 -0.044828225 0.34437755 -0.72665465 0.63458115 -0.26321062 0.005317545
-0.061091371 -0.035412967 0.34225559 0.83880979 0.47789097 -0.26080328 0.0058211279
-0.058316648 -0.037192557 0.34730786 0.81700325 0.51809645 -0.25314361 0.0053972104
0.057565801 -0.038584761 0.34636524 -0.80827564 0.52871162 -0.25914192 0.0061984188
0.062142991 -0.031967662 0.34454158 -0.8673926 0.42476252 -0.25924298 0.0055790762
-0.064518325 -0.025142659 0.34610358 0.89452469 0.36154473 -0.26288974 0.0063546333
0.064943381 -0.026388554 0.34284893 -0.89248532 0.36208686 -0.26900375 0.0056898221
-0.068082407 -0.013732775 0.34586552 0.94626188 0.20430523 -0.25069496 0.0066410927
0.068252191 -0.01474647 0.34458107 -0.94180697 0.19667599 -0.27261361 0.0049494524
-0.070151791 -0.0095321164 0.34023806 0.95730758 0.12709877 -0.25963044 0.0056999428
-0.069001526 -0.0063645341 0.34605446 0.96381223 0.081717819 -0.25374824 0.0036843347
0.069085471 -0.0054519223 0.34618884 -0.95616078 0.10987683 -0.2714473 0.0053870152
0.070679106 -0.0031546752 0.34139705 -0.96698081 0.021355022 -0.25395286 0.0055632191
-0.070557594 0.0037423489 0.34156087 0.9633761 -0.065620966 -0.26000082 0.0066281483
-0.068716362 0.0054599978 0.34755468 0.95840466 -0.11220647 -0.26243141 0.0044291625
0.069428876 0.0028545735 0.34618345 -0.96668667 -0.00753371 -0.25585181 0.0055463994
0.07025677 0.0056928243 0.34172431 -0.95925242 -0.10972153 -0.26037636 0.0047518951
-0.068253413 0.013726837 0.3452338 0.94697106 -0.19110869 -0.25830847 0.0061381473
0.068625897 0.014422917 0.34351134 -0.94695497 -0.18229121 -0.26466233 0.0056813699
-0.064399421 0.026250919 0.34492719 0.88856971 -0.37129977 -0.26940748 0.0046267053
0.064949818 0.024489023 0.34554765 -0.90204525 -0.34655687 -0.25731844 0.0056132963
-0.062289726 0.03227511 0.34359375 0.86698896 -0.43062103 -0.25079009 0.0074201929
-0.058205768 0.039151955 0.34317228 0.80179495 -0.53915501 -0.25775331 0.0059714196
0.059346795 0.037330486 0.34393439 -0.82289523 -0.50119764 -0.2676647 0.0043173963
0.061841875 0.032994535 0.34396556 -0.85490394 -0.45112205 -0.25618014 0.0059804381
-0.053403474 0.044850886 0.34444731 0.72375339 -0.64068007 -0.25633961 0.0045547695
0.048633751 0.048957165 0.34855407 -0.69428807 -0.66741699 -0.26929268 0.0058563151
0.053395476 0.045938171 0.34199351 -0.73118567 -0.62631863 -0.27035609 0.0048391339
-0.043747742 0.053885311 0.34553015 0.61812121 -0.73979938 -0.26574996 0.0044388976
-0.036788791 0.058501828 0.34767804 0.51471084 -0.81844836 -0.25537238 0.0057322187
0.037783533 0.059000842 0.34392944 -0.49860147 -0.82768965 -0.257539 0.0045752274
0.044458892 0.053296279 0.34565893 -0.63172567 -0.73386264 -0.24973632 0.0050325398
-0.033589076 0.061555035 0.34397188 0.45397359 -0.8503207 -0.26620048 0.0045406581
-0.024559211 0.064630538 0.34655127 0.3673856 -0.88984305 -0.27056822 0.0042096041
-0.013554006 0.06846258 0.34454191 0.1954125 -0.9446274 -0.2636154 0.0060714097
-0.0069603352 0.069595769 0.34355807 0.10523973 -0.95639032 -0.27247426 0.0047221128
0.0059145852 0.068852693 0.34682664 -0.091634959 -0.96159321 -0.25873053 0.0043532085
0.01462961 0.067610465 0.34697923 -0.21114811 -0.93930531 -0.27041098 0.0057433173
0.023147183 0.066625968 0.34167328 -0.3107892 -0.91185111 -0.26821199 0.00513126
0.036757737 0.060562242 0.34163004 -0.49851763 -0.82616949 -0.26253423 0.0047298297
-0.0040813768 0.07017307 0.34282225 0.052821044 -0.96053541 -0.27309644 0.0054978882
-0.03195763 -0.060390435 0.35061666 0.45271498 0.85216165 -0.26243049 0.0053275437
-0.025230508 -0.061866838 0.35514721 0.38560814 0.88387233 -0.26471883 0.0058219237
-0.014299463 -0.0655495 0.35458291 0.20350561 0.94371879 -0.2607303 0.0056374436
-0.00397756 -0.066379927 0.35694984 0.060820855 0.96209109 -0.26585993 0.006523693
0.0068205991 -0.066286296 0.35590824 -0.10202657 0.95949292 -0.2626099 0.006905992
0.015007342 -0.065457523 0.35473463 -0.2203434 0.9383353 -0.26641262 0.0064326837
0.022591477 -0.062722661 0.35596779 -0.32487297 0.90764266 -0.26578632 0.0074615641
0.030878885 -0.060514428 0.35173315 -0.46279261 0.84515446 -0.2674638 0.0059011644
-0.042318687 -0.051866941 0.35478038 0.61057347 0.74943 -0.25603652 0.0053727296
-0.035444722 -0.057210326 0.35447845 0.5194307 0.81257266 -0.26441899 0.0052873264
-0.028867662 -0.059644494 0.3576225 0.42588577 0.86799848 -0.25534257 0.0052882787
0.034443948 -0.057376463 0.3555176 -0.48445311 0.83578366 -0.25840077 0.0049910638
0.040436368 -0.053554889 0.35405695 -0.59447247 0.75901747 -0.2655091 0.0055321194
-0.050655078 -0.0459712 0.3500562 0.71185148 0.6485244 -0.26959887 0.0054132855
-0.047231711 -0.048194122 0.3541784 0.67905682 0.67983025 -0.27697048 0.0076063615
0.047020324 -0.04759229 0.35598767 -0.66307634 0.69998413 -0.26523957 0.007861618
0.052248798 -0.042059459 0.35423711 -0.72395855 0.63683587 -0.26518697 0.0050160983
-0.056408715 -0.036389854 0.35454133 0.80195993 0.53138596 -0.27292711 0.0062593156
0.056725275 -0.035188928 0.35602868 -0.81950945 0.51434487 -0.25269279 0.0057029366
0.060018044 -0.031407759 0.35269213 -0.85663611 0.44269446 -0.26494578 0.0064961319
-0.061399974 -0.026871832 0.35441062 0.88160366 0.39459229 -0.25898239 0.0044229496
0.05974995 -0.029214308 0.35676128 -0.87013322 0.4252063 -0.24913399 0.0058648251
0.062180117 -0.023726815 0.35621777 -0.90713567 0.33451897 -0.25534669 0.006930206
-0.065945521 -0.013813638 0.3537375 0.94564247 0.19662942 -0.25903118 0.0062508169
0.065907381 -0.012394066 0.35459137 -0.94715601 0.18281041 -0.26358247 0.0064486056
-0.066752501 -0.0050942926 0.35502154 0.96180063 0.062660441 -0.26648298 0.0046253451
0.06710469 -0.0046065296 0.35395285 -0.95978564 0.077001907 -0.26996708 0.0070514879
-0.066944189 0.0049807192 0.35436565 0.95896202 -0.092336021 -0.26807806 0.0060171867
0.066667795 0.0034178831 0.35615495 -0.96141565 -0.038520981 -0.27238977 0.0047062947
-0.066094719 0.014848149 0.35265061 0.94712752 -0.20240337 -0.24896248 0.0063360902
0.065587617 0.014769277 0.35448554 -0.94156015 -0.20513576 -0.26717758 0.0048874435
-0.062643878 0.025196722 0.3525084 0.88753378 -0.37936071 -0.26147512 0.0047576153
-0.058956597 0.029154263 0.35959086 0.85794574 -0.4378064 -0.26880217 0.0070748953
0.063105837 0.023206349 0.35376194 -0.89544308 -0.36061475 -0.26103371 0.0059222225
-0.060426053 0.030078284 0.35318556 0.85872352 -0.43162218 -0.27621785 0.006304313
-0.056234129 0.035885274 0.35591424 0.80270153 -0.5392012 -0.2548182 0.0056601819
0.056334972 0.035825711 0.35598844 -0.80210549 -0.53021556 -0.27476948 0.0058603478
-0.051556226 0.043423679 0.35318515 0.72560787 -0.63377225 -0.26800367 0.00410076
-0.047730505 0.047973175 0.35312319 0.68694991 -0.67786783 -0.26190671 0.0057936036
0.047027238 0.047206849 0.35687399 -0.69801688 -0.66791511 -0.25818974 0.0062183435
0.052419636 0.041881856 0.35413447 -0.74265742 -0.62022817 -0.25254101 0.0050596604
-0.041461218 0.051558543 0.35765013 0.62611544 -0.73379964 -0.26366189 0.006010694
-0.035834536 0.056207892 0.35645348 0.53080392 -0.80267686 -0.27195063 0.0059894412
0.03569195 0.056753907 0.35499352 -0.52785957 -0.80652708 -0.26623008 0.0064045028
0.04136299 0.0531375 0.35318503 -0.58469427 -0.77046853 -0.25398976 0.0055479426
-0.030950475 0.060522914 0.35160121 0.44290677 -0.8568579 -0.26387158 0.005918059
-0.024744924 0.061940491 0.35558805 0.38360268 -0.88396454 -0.26731199 0.0042705331
-0.014807163 0.065427765 0.35499033 0.22858141 -0.93608415 -0.26738906 0.0040395274
-0.0043287976 0.066717699 0.35552472 0.066362262 -0.96250534 -0.26301995 0.0052091437
0.0049526817 0.066521518 0.35594794 -0.072434366 -0.96206427 -0.26303178 0.0052714571
0.015489898 0.065391034 0.35471839 -0.2492061 -0.93404239 -0.25585359 0.0047717872
0.024234165 0.062448632 0.3545624 -0.36908188 -0.88981146 -0.26835448 0.0056175431
0.031425878 0.060508367 0.35097051 -0.43947926 -0.85820067 -0.26523507 0.0060519539
-0.021742465 -0.061584115 0.36112133 0.3218562 0.91014308 -0.26086056 0.0075214687
-0.01633811 -0.062242176 0.36548474 0.26844621 0.92995036 -0.25125462 0.0060219979
-0.0044016936 -0.063963018 0.36571208 0.054853383 0.96242368 -0.26595449 0.0059794546
0.003849434 -0.06436374 0.3644948 -0.049396697 0.96058345 -0.27356771 0.0053542396
0.014353967 -0.062538713 0.36586511 -0.23944661 0.93374658 -0.26605004 0.0039449488
0.021595772 -0.061316077 0.3622584 -0.3117412 0.91225225 -0.26573169 0.0066874991
-0.040745467 -0.050376255 0.3627921 0.60086298 0.74757886 -0.28300104 0.0057067024
-0.034384806 -0.054257892 0.36512259 0.5331971 0.80465221 -0.26121962 0.0052541438
-0.027250776 -0.058356054 0.36439434 0.41914406 0.86763924 -0.26743302 0.0063687586
0.026756085 -0.057841193 0.36688343 -0.42397413 0.86793154 -0.25872886 0.0063498658
0.035254505 -0.054009959 0.3641122 -0.55523509 0.78642577 -0.27064455 0.0063450355
-0.044952124 -0.044981137 0.36738303 0.67501563 0.68929195 -0.26311693 0.007331992
0.045689322 -0.046075355 0.36337891 -0.67545509 0.68730611 -0.26715302 0.0068415613
0.050766241 -0.041342791 0.36027282 -0.72769469 0.63231289 -0.26578334 0.0060562748
-0.054437589 -0.034309417 0.3652837 0.81465578 0.5120824 -0.27222684 0.0062419889
-0.049938101 -0.039778948 0.36629564 0.75484747 0.59606075 -0.27370933 0.0070416243
0.053811587 -0.03529828 0.36494032 -0.79732102 0.5338183 -0.2816332 0.0064229509
-0.060710471 -0.023119384 0.36217022 0.90388662 0.34569851 -0.25195539 0.0068358327
-0.058135476 -0.027636757 0.36460426 0.85930425 0.43403631 -0.27057102 0.0056066886
0.05738705 -0.027834838 0.36690879 -0.85935575 0.42318526 -0.28709206 0.0062588747
-0.062792152 -0.013583651 0.3655535 0.93522358 0.22043151 -0.27706817 0.0070476937
0.062436324 -0.0155093 0.36522537 -0.93207175 0.23787579 -0.2732349 0.0067294487
-0.064200588 -0.0035219502 0.36526021 0.95866317 0.067414001 -0.2764422 0.0050812121
0.063664354 -0.0054691467 0.36629894 -0.95328844 0.10619975 -0.28277677 0.0068553765
-0.064300641 0.0048787431 0.36422604 0.96283817 -0.080132216 -0.25791767 0.0060556219
0.064412743 0.0044232761 0.3640326 -0.9606967 -0.051654689 -0.27275202 0.0049745948
-0.062399101 0.016526915 0.36465165 0.92312932 -0.2787835 -0.26478678 0.0058952523
0.062843151 0.014381077 0.36428082 -0.93827009 -0.20133087 -0.28127399 0.0078477338
-0.060583126 0.022162862 0.36398083 0.90103191 -0.34230828 -0.26639539 0.0062241498
-0.058362711 0.026355617 0.36565354 0.88539499 -0.39051142 -0.25214398 0.0046143946
0.058172066 0.027670531 0.36442935 -0.86015385 -0.43566915 -0.26519373 0.0058306037
0.060599625 0.021777265 0.36447605 -0.90137345 -0.33653209 -0.27252892 0.0081545012
-0.053565707 0.03532787 0.36540142 0.78446645 -0.55831438 -0.26999539 0.0057321135
-0.049536515 0.039069396 0.36910504 0.76185334 -0.59018171 -0.26695529 0.0063451743
0.049303409 0.039497305 0.36882222 -0.76471454 -0.58997613 -0.25911358 0.0078301243
0.053313043 0.035445619 0.36592487 -0.79012024 -0.5545944 -0.26102686 0.0061319415
-0.050436348 0.041008558 0.36201411 0.74142843 -0.61735874 -0.26296777 0.0061787083
-0.045641039 0.044349901 0.36695665 0.68905348 -0.68100607 -0.24786291 0.0071970224
-0.039698578 0.049990632 0.36632276 0.59427214 -0.76067019 -0.26119259 0.0064466433
0.039105356 0.049626052 0.36875725 -0.58552772 -0.76577395 -0.26598415 0.0077581559
0.043757707 0.046100371 0.36721775 -0.67903167 -0.68707681 -0.25853705 0.0067359484
-0.040786508 0.050739061 0.36162114 0.61494917 -0.74462205 -0.25956821 0.0069945455
-0.035381626 0.054120302 0.3637915 0.55579162 -0.78589898 -0.2710323 0.0058230394
-0.027575478 0.057308238 0.36755285 0.44464153 -0.8563568 -0.26257744 0.0078083472
0.026617024 0.058583401 0.36451593 -0.41892806 -0.86979163 -0.26069489 0.0053773066
0.034958977 0.054054417 0.36430454 -0.53042763 -0.8058123 -0.26327375 0.0063553681
-0.021748025 0.060890429 0.36351225 0.315485 -0.91121465 -0.26487204 0.0070334626
-0.015357014 0.062369391 0.36554775 0.2544753 -0.92761785 -0.27343634 0.0068453602
-0.0042006942 0.06387189 0.36614847 0.078070916 -0.96309805 -0.25757927 0.0039319065
0.0056719105 0.064209975 0.36417499 -0.086905196 -0.96121222 -0.26176041 0.0065492108
0.014899783 0.063125819 0.3636899 -0.26785541 -0.92605007 -0.26586601 0.0055737412
-0.016806491 -0.06027953 0.3720797 0.25627634 0.93106449 -0.25969487 0.0055533662
-0.0044187671 -0.061391339 0.37524757 0.066352531 0.96092373 -0.26874349 0.0081636691
0.0061544827 -0.061155673 0.37527415 -0.10841428 0.95655328 -0.27065164 0.0076677585
0.01507524 -0.060873847 0.3707346 -0.25417894 0.92929417 -0.26796547 0.0046429932
-0.032352217 -0.052657116 0.37479395 0.49413338 0.82286519 -0.28058004 0.0067879451
-0.025905214 -0.055823009 0.37508169 0.38820204 0.88348234 -0.26221779 0.0054605748
-0.018208537 -0.058801699 0.37580574 0.30547491 0.91356909 -0.26847103 0.0078116599
0.017087195 -0.059478451 0.37457156 -0.27071062 0.92596406 -0.26326093 0.0057862028
0.02480207 -0.056035917 0.37592551 -0.35772279 0.90109921 -0.24506035 0.0062791402
0.033130575 -0.051884875 0.37551826 -0.52129894 0.81485641 -0.2534883 0.0079490691
-0.043288425 -0.043491803 0.37635273 0.66675061 0.69942099 -0.25739831 0.0059244419
0.037658352 -0.048623364 0.37503213 -0.58907354 0.76996458 -0.2452486 0.0073894178
0.044262979 -0.043531701 0.37376577 -0.68861485 0.67996985 -0.25189418 0.0044779205
-0.050583366 -0.035377849 0.37440816 0.79596734 0.54173988 -0.2700997 0.0066886577
0.048585527 -0.037487783 0.37553316 -0.78493804 0.56491548 -0.25444594 0.0059820851
0.053661048 -0.032291658 0.37213591 -0.81829321 0.49744463 -0.28800178 0.0095524034
-0.055642333 -0.026601002 0.37470981 0.8639009 0.42169347 -0.27540857 0.0055181775
0.056117415 -0.024346014 0.376297 -0.87641734 0.40654054 -0.25810382 0.0048925215
-0.060690515 -0.015342015 0.37251157 0.93557405 0.2335061 -0.26490766 0.0066863261
-0.058919627 -0.017144358 0.37645543 0.93391407 0.25428852 -0.25128078 0.0062470511
0.05892197 -0.016884606 0.37677553 -0.93072051 0.25862375 -0.25859833 0.0047614663
0.060413379 -0.011645425 0.37534615 -0.95310199 0.16979668 -0.25053072 0.0080137271
-0.061475568 -0.0079880739 0.37319112 0.95124632 0.14122902 -0.27419838 0.0069501502
0.061325938 -0.0050221197 0.3751955 -0.96490377 0.08494328 -0.24848603 0.0066419304
-0.061416745 0.0048432965 0.37494591 0.95473713 -0.096435927 -0.28138441 0.0077459067
-0.059921544 0.0069065513 0.37948674 0.95917708 -0.12371296 -0.25431147 0.0065969145
0.061576314 0.005289013 0.37413591 -0.95556819 -0.098906517 -0.27768117 0.0052249008
-0.060579903 0.013952496 0.37360096 0.93816155 -0.22318511 -0.26465318 0.0083170943
-0.059391081 0.016362093 0.3758685 0.92210048 -0.2916677 -0.25428474 0.0066773095
0.059317455 0.015538126 0.37721208 -0.9359026 -0.25046843 -0.24769306 0.0077794571
0.060870737 0.01424931 0.37236696 -0.92881924 -0.25072733 -0.27281973 0.0073219547
-0.056093417 0.025709068 0.3744275 0.8670131 -0.41806141 -0.27113265 0.0063122069
0.056048229 0.025423635 0.37499258 -0.86270666 -0.43343785 -0.26051664 0.0061656875
-0.052669078 0.032352831 0.37477854 0.80232161 -0.53123891 -0.27214935 0.0086994013
-0.04850959 0.037948824 0.37470809 0.74590307 -0.60675943 -0.274721 0.0078347605
0.048698377 0.037386592 0.37542862 -0.78166872 -0.56432408 -0.26557922 0.0071260515
0.053188741 0.031205922 0.37617764 -0.83770037 -0.48117787 -0.25831369 0.0068483017
-0.043523289 0.043500386 0.375453 0.69629997 -0.66447181 -0.27137351 0.0059623602
-0.038588654 0.04748717 0.37628633 0.60663301 -0.75364202 -0.25302202 0.0083928583
0.038294204 0.048291497 0.37456876 -0.59027481 -0.76344341 -0.26216379 0.0088833272
0.043389 0.044390976 0.37405801 -0.69407535 -0.66702145 -0.27081713 0.0055938307
-0.03267961 0.052763987 0.3739289 0.52933753 -0.80633062 -0.26388043 0.0073881047
-0.025071746 0.055523228 0.37731224 0.40826151 -0.87670231 -0.25439286 0.0075096204
-0.016622808 0.059102066 0.37613481 0.26166087 -0.93164223 -0.25214341 0.0078714257
0.0085701188 0.059649587 0.37968323 -0.13593395 -0.95566612 -0.26119763 0.0076924632
0.015683319 0.05938936 0.3761149 -0.2656123 -0.92952061 -0.25581539 0.0053084292
0.024082998 0.056574702 0.3750923 -0.36496213 -0.89284164 -0.26388744 0.0057813497
0.031840295 0.053425729 0.37356564 -0.48029959 -0.8411203 -0.24865422 0.0077801174
-0.014203177 0.060850203 0.37247536 0.23577073 -0.93525827 -0.26401553 0.0068212529
-0.0046453141 0.061287992 0.37552041 0.095683247 -0.96220469 -0.25496411 0.0083139446
0.0049381135 0.061306912 0.37530717 -0.080197372 -0.96113247 -0.26418328 0.0071353358
0.011826031 0.060650215 0.37437898 -0.20290188 -0.94200301 -0.26732203 0.010080512
-0.00090704317 -0.060389716 0.3806805 0.009046196 0.96348333 -0.26761562 0.0078159515
-0.031137981 -0.050683063 0.38377348 0.53604281 0.80473161 -0.25507852 0.00799473
-0.026295258 -0.052909389 0.38459194 0.43820086 0.8595612 -0.26293454 0.0078647425
-0.015953537 -0.056644887 0.38601652 0.28132114 0.92993963 -0.23679264 0.0099340752
-0.0059153712 -0.058539178 0.38510114 0.11883973 0.9595564 -0.25520301 0.0068803048
0.0066881664 -0.058593579 0.38452166 -0.13578692 0.95616364 -0.25944754 0.0091455542
0.016253099 -0.056858405 0.38503286 -0.27923495 0.93130386 -0.23388252 0.0074164388
0.024052495 -0.052958895 0.38761333 -0.44128898 0.8711127 -0.21546835 0.0090048835
0.032225505 -0.050787397 0.3809855 -0.50225759 0.82793361 -0.24952614 0.0072082826
-0.041588772 -0.042243283 0.38457683 0.64935434 0.72507393 -0.22936185 0.0081499545
-0.037454221 -0.046237081 0.38258368 0.62281489 0.74369234 -0.24294724 0.0073995758
0.033605564 -0.048362762 0.38504109 -0.56380403 0.79365265 -0.22856174 0.01030525
0.040109415 -0.044536591 0.38158318 -0.64219993 0.71729505 -0.27030927 0.0073473528
-0.051633403 -0.030494306 0.38241804 0.83102554 0.49196649 -0.25954875 0.0075056353
-0.047469281 -0.034986682 0.38454729 0.77540118 0.58797526 -0.23029961 0.0078888088
0.044669896 -0.036903437 0.38849279 -0.73519665 0.63141167 -0.24658713 0.010557607
-0.055035751 -0.023178935 0.38170943 0.88842779 0.38302493 -0.25295824 0.010157027
0.053130168 -0.026378999 0.38369283 -0.85166138 0.45794171 -0.25487703 0.007887329
-0.056968313 -0.013499501 0.38687283 0.94715285 0.23150146 -0.222055 0.01079049
0.056953277 -0.01563873 0.3841579 -0.93953776 0.24013191 -0.24414209 0.0081735384
-0.058373097 -0.0061369441 0.38560924 0.96802193 0.07918527 -0.23804037 0.0096311849
0.058652043 -0.0059436401 0.38466847 -0.9667055 0.11613558 -0.22801979 0.0060825972
-0.05867584 0.0041364981 0.38546312 0.96519786 -0.063537106 -0.25368503 0.0083875228
0.058556102 0.0041795094 0.3858864 -0.96708059 -0.078809313 -0.24195887 0.0083226664
-0.05665718 0.01593063 0.38570735 0.94121689 -0.24937849 -0.22786191 0.0087385643
0.057476241 0.013971561 0.38441107 -0.94462311 -0.21861161 -0.24473716 0.0095975045
-0.05373567 0.024191076 0.38475552 0.86134666 -0.44807807 -0.2393906 0.0082555693
0.053326104 0.025114691 0.38484886 -0.85394222 -0.46090615 -0.2415538 0.0076225083
-0.05101214 0.030923132 0.38328576 0.83575344 -0.48582444 -0.25591198 0.0088321324
-0.047429848 0.035300825 0.3839485 0.76704788 -0.58898348 -0.25443256 0.006576953
0.045940049 0.037059575 0.38436508 -0.76696479 -0.59406638 -0.24259028 0.0081034042
-0.041258004 0.042595949 0.38472894 0.66972923 -0.69020993 -0.27399457 0.0077869855
-0.03688401 0.045305423 0.38664973 0.61728239 -0.75248659 -0.2296221 0.0089054825
0.034887604 0.047220543 0.38551167 -0.58042532 -0.7783674 -0.2392709 0.010977879
0.042248774 0.042274203 0.38274011 -0.67829806 -0.69395328 -0.24153796 0.0058925007
-0.031329826 0.050968777 0.3824878 0.50948125 -0.82197607 -0.25452736 0.0092550609
-0.025134305 0.05325282 0.38507426 0.44477797 -0.86487424 -0.23273385 0.0096941851
-0.016280403 0.056755897 0.38489354 0.2896556 -0.93040401 -0.22460622 0.0091648037
-0.0053976513 0.058532722 0.38537809 0.1183307 -0.96473873 -0.23511043 0.007199341
0.004462054 0.058277879 0.38678092 -0.049809773 -0.9687928 -0.24281555 0.0097204493
0.014306788 0.057427663 0.38450307 -0.26415735 -0.93603265 -0.23251626 0.0067621423
0.026244629 0.052812628 0.38488245 -0.44871411 -0.86914986 -0.2079282 0.0090032583
0.0012224101 0.060352422 0.38066483 0.0069597857 -0.96280092 -0.2701222 0.0097803837
-0.022559753 -0.051690891 0.39416364 0.43924242 0.87706125 -0.19449878 0.0093902573
-0.017676499 -0.053461444 0.39503565 0.31801048 0.92921239 -0.18823843 0.013860006
-0.005749749 -0.055988759 0.394647 0.09758231 0.97302616 -0.20904008 0.014278052
0.0089868428 -0.055731207 0.39402124 -0.17454998 0.95931035 -0.22193658 0.013464023
0.017265536 -0.053574119 0.39512631 -0.320301 0.93368053 -0.1601501 0.011233514
0.022493184 -0.052167118 0.3926121 -0.38458598 0.89703017 -0.21778528 0.01303233
-0.033255108 -0.044884346 0.39616933 0.59961152 0.7873897 -0.14312069 0.013791095
-0.029170219 -0.048461005 0.3948561 0.50581837 0.83914822 -0.19994515 0.011648778
0.027576558 -0.048741072 0.3964467 -0.48271227 0.85496086 -0.18981791 0.0094533991
0.034599572 -0.044259392 0.39496157 -0.61395371 0.75992286 -0.21349028 0.013986723
-0.043721061 -0.035080586 0.39546418 0.74345851 0.64774501 -0.16642067 0.014026495
-0.039054997 -0.039473783 0.39902064 0.70078313 0.69813907 -0.14664511 0.015423528
0.043677341 -0.034805126 0.3962217 -0.7414543 0.64988321 -0.16702507 0.01241062
-0.051648661 -0.021850849 0.39532512 0.9070496 0.37888271 -0.18359992 0.014508431
-0.049045105 -0.028820099 0.39374211 0.83214825 0.51202589 -0.21297587 0.011382252
0.048748374 -0.027466791 0.39669347 -0.86039007 0.48660916 -0.15146144 0.011304439
0.051704485 -0.021423472 0.39574423 -0.91513759 0.37220138 -0.15488464 0.014886998
-0.053854741 -0.016667677 0.39471942 0.92735773 0.31060252 -0.20864733 0.011141719
0.054433297 -0.014207859 0.39481401 -0.94722998 0.25910687 -0.18873006 0.014299913
-0.055673197 -0.0067766239 0.39531642 0.98095965 0.091465153 -0.17132474 0.011244291
0.055641834 -0.0049734586 0.39631376 -0.98080093 0.075363055 -0.17986113 0.010598084
-0.056021452 0.0064007565 0.39420763 0.97766435 -0.087092206 -0.19127831 0.0095344065
0.056115005 0.0058059548 0.394151 -0.97595274 -0.075511754 -0.20448533 0.0097767888
-0.053459994 0.019305499 0.39270723 0.92076725 -0.32395005 -0.21735731 0.010378153
0.054514751 0.014993894 0.39420155 -0.94566762 -0.26558557 -0.18755521 0.014406471
-0.052876782 0.020206859 0.39343295 0.9141928 -0.35091382 -0.20275858 0.013589906
-0.049409192 0.027688688 0.39462197 0.85430056 -0.49057898 -0.17176408 0.012065059
0.049025893 0.026746944 0.39696237 -0.86599261 -0.47517931 -0.15576085 0.010650946
0.051658481 0.024533743 0.39144805 -0.86208069 -0.46161637 -0.2091105 0.0093024066
-0.044574738 0.034491293 0.39427185 0.74479187 -0.63943994 -0.19079219 0.011498052
0.043947354 0.035304505 0.39428189 -0.7444517 -0.63048989 -0.21971382 0.01076686
-0.035175387 0.044175673 0.39389813 0.6275565 -0.7543565 -0.19266304 0.011375828
-0.028786546 0.049216285 0.39338437 0.50138754 -0.84015864 -0.20674613 0.011392545
0.027772605 0.048038602 0.39850268 -0.47034281 -0.87018132 -0.14684007 0.010286512
0.035141744 0.043515582 0.395935 -0.64173859 -0.74421573 -0.18524161 0.011773184
0.040126584 0.040416479 0.39375505 -0.69995958 -0.68110043 -0.21484582 0.011972784
-0.023368437 0.052438803 0.39041877 0.3693929 -0.90488833 -0.21148513 0.011024802
-0.013646079 0.054327738 0.39626309 0.2564685 -0.9487707 -0.18454801 0.011920082
-0.0054819179 0.055970319 0.39484629 0.097513013 -0.97763616 -0.18632995 0.011167856
0.0049420474 0.055805959 0.39572003 -0.074800536 -0.97958934 -0.18657346 0.012589578
0.015556148 0.054354582 0.39443901 -0.26151085 -0.9463762 -0.18969491 0.013927791
0.024911957 0.051405594 0.39178085 -0.4343859 -0.87693775 -0.20564309 0.0088436818
-0.020990102 -0.05016125 0.40327403 0.42113978 0.8946473 -0.14915574 0.015775422
-0.016171217 -0.05207045 0.40560126 0.32581648 0.94176286 -0.083224714 0.014301038
-0.0043516452 -0.054271813 0.40495846 0.032031875 0.99573404 -0.086530954 0.013884334
0.0068152193 -0.053951129 0.40574184 -0.12205564 0.98729742 -0.10171607 0.015630571
0.015134613 -0.052342027 0.40645209 -0.31846312 0.94343364 -0.092272453 0.013254465
0.021295477 -0.050074778 0.4015635 -0.42269909 0.89219809 -0.15908504 0.016340775
-0.032659598 -0.043636218 0.40415475 0.60477304 0.78785151 -0.11635999 0.01318675
-0.024140069 -0.048749026 0.40511242 0.47777492 0.87212616 -0.10548497 0.01098208
0.024621427 -0.04852898 0.4045828 -0.44808543 0.88264775 -0.14195916 0.013441439
0.032353211 -0.043818727 0.40240636 -0.58661473 0.79403049 -0.1593698 0.015765719
-0.042783424 -0.033822604 0.40376034 0.75893527 0.64232582 -0.10693327 0.013706161
-0.039291829 -0.038096409 0.40376815 0.70416659 0.70199209 -0.106567 0.016643006
0.039281804 -0.038272906 0.40205789 -0.70535982 0.69180006 -0.15453222 0.015754672
0.04292066 -0.033395868 0.40451875 -0.75186944 0.64974898 -0.11188664 0.014622358
-0.047807377 -0.026322955 0.40520343 0.86556274 0.48463088 -0.12623043 0.011067849
0.047825322 -0.026059376 0.40494084 -0.86265641 0.4972111 -0.092762977 0.012311486
0.05023957 -0.020801017 0.40817285 -0.90959877 0.40793893 -0.078841172 0.015719429
-0.052541964 -0.014752586 0.40395975 0.94413346 0.30428332 -0.12658463 0.017349616
0.052066103 -0.015749389 0.40635428 -0.94683212 0.31144789 -0.080679409 0.010775269
-0.05445914 -0.0029287168 0.40710568 0.99499875 0.044749532 -0.089303069 0.013731257
0.054257039 -0.0053970711 0.40304261 -0.98475379 0.068290047 -0.15998919 0.011507412
-0.054440886 0.0036324966 0.40412441 0.99088246 -0.066766731 -0.11702267 0.011353497
0.054312151 0.0042581996 0.40606013 -0.99168825 -0.061812498 -0.11284328 0.010351778
-0.052996892 0.013687553 0.40320572 0.95305312 -0.26765335 -0.14160287 0.014084097
0.051918026 0.016734118 0.40390927 -0.93533713 -0.33135971 -0.12387609 0.012347364
-0.050199702 0.020897254 0.40815729 0.90869796 -0.4074885 -0.090670541 0.014689473
-0.048414629 0.025080124 0.40543118 0.8834697 -0.45750135 -0.10086536 0.013032241
0.047830734 0.0263339 0.40427741 -0.85331178 -0.50917077 -0.11226824 0.013839808
0.050368711 0.020924056 0.40473306 -0.91379046 -0.3938413 -0.099378623 0.017435072
-0.042790771 0.033555534 0.40522 0.75602198 -0.6470235 -0.098951824 0.012792756
-0.03792448 0.039438367 0.40513596 0.69729012 -0.70730561 -0.11621189 0.016545855
0.039913632 0.037305109 0.40833044 -0.70481002 -0.70457655 -0.082551301 0.013847907
0.04332285 0.032914322 0.40509573 -0.75044191 -0.6528697 -0.10294703 0.012278738
