# .PCD v0.7 - Point Cloud Data file format
VERSION 0.7
FIELDS x y z normal_x normal_y normal_z curvature
SIZE 4 4 4 4 4 4 4
TYPE F F F F F F F
COUNT 1 1 1 1 1 1 1
WIDTH 565
HEIGHT 1
VIEWPOINT 0 0 0 1 0 0 0
POINTS 565
DATA ascii
0.20296817 -0.081814095 -0.35361505 -0.91792029 0.39666221 0.0090190209 0.0022699276
-0.20338376 -0.078887381 -0.35638154 0.9400636 0.34081164 -0.011307763 0.0014898041
0.20597976 -0.073442392 -0.35507131 -0.94891584 0.31552887 0.0005365269 0.0016960092
-0.2075742 -0.064765573 -0.3568069 0.95864552 0.28460294 -5.8840709e-05 0
0.20791702 -0.065355971 -0.3526949 -0.96173519 0.27395582 -0.0036888269 0.00084625016
-0.2109317 -0.05345067 -0.35512972 0.96451157 0.2639989 0.0046912548 0.0004785888
-0.20927981 -0.059017565 -0.35771987 0.95933467 0.28227082 0.00033538666 3.179421e-05
0.20956893 -0.058460832 -0.35851002 -0.96958297 0.24476029 -0.0011198228 0.00023512958
0.21115991 -0.051819891 -0.35501391 -0.9725818 0.23256078 0.00019196446 7.7313098e-06
-0.21418148 -0.042498898 -0.35327441 0.97919309 0.20289496 0.0038216941 0.0019869206
-0.21594125 -0.035809256 -0.35470313 0.98176581 0.19004466 -0.004341898 0.002020488
0.21508794 -0.035423961 -0.35535464 -0.97950095 0.20143522 0.0013268027 0.00069281296
-0.2168133 -0.025731061 -0.35456064 0.99337077 0.11490203 -0.0034884366 0.0021964994
0.21764165 -0.02426629 -0.35501352 -0.99423152 0.10676008 0.010297546 0.002375995
-0.21714373 -0.013338689 -0.35556731 0.99918348 0.040395308 0.00080137909 0.00035592905
0.2178506 -0.013170201 -0.35698068 -0.9992497 0.038516656 0.0040682582 0.0013150868
-0.21741836 -0.0030392134 -0.35711253 0.99974257 0.022684809 0.00049343152 5.2071813e-05
0.21757428 -0.0028074177 -0.35005984 -0.9997974 -0.020117575 0.00070368301 4.1776617e-05
-0.21764314 0.0053903633 -0.35308295 0.99979228 0.020379523 0.00025160299 3.9921513e-05
0.21732043 0.0067125633 -0.35482582 -0.99955565 -0.029806755 -0.000199858 2.5816344e-05
-0.2178461 0.013001079 -0.35745278 0.99949193 -0.03181953 -0.0018528808 0.0014367839
0.21704073 0.017201418 -0.35486135 -0.99788719 -0.064969622 0.00020401123 0.00088658807
-0.2178113 0.023006296 -0.35472807 0.99505806 -0.099291265 -0.00079585903 0.0026150283
0.21682099 0.025442481 -0.357687 -0.99604344 -0.088469893 -0.0083962018 0.0012652739
-0.21509996 0.035373725 -0.35865858 0.98152655 -0.19127761 0.0042982502 0.0012066098
0.21609829 0.03461837 -0.35517609 -0.98548585 -0.1697318 0.0029655597 0.0023070206
-0.21239084 0.046681941 -0.35664558 0.97343975 -0.22894183 -0.00084713841 3.9610735e-05
0.21315014 0.045974538 -0.35652861 -0.97093582 -0.23926498 -0.0059998143 0.0012179459
-0.21114428 0.051885262 -0.35707074 0.97274137 -0.23189226 -0.00043916036 4.2167398e-05
-0.20963313 0.058192845 -0.35561529 0.96847409 -0.24911427 0.00010143512 0.00035532308
0.20944299 0.058467694 -0.35250652 -0.95979065 -0.28071651 -0.00023590947 4.5089018e-05
0.21050096 0.0549023 -0.35322151 -0.95991683 -0.28028458 -0.00055533258 6.0176841e-05
-0.208341 0.06358628 -0.35294542 0.96314371 -0.26898527 -0.0010839663 0.00086252287
0.20880549 0.060616065 -0.350903 -0.95913917 -0.28293419 0.00053858745 0
-0.20556101 0.075190276 -0.35446998 0.9437812 -0.33047667 -0.007886122 0.0022886817
0.20505887 0.073242188 -0.35589635 -0.95241088 -0.30481634 0.00071010285 0.00046387696
-0.20194235 0.083705559 -0.35522383 0.91610414 -0.40093973 0.00083293725 0.0021396759
0.20170714 0.08453761 -0.35162365 -0.92694736 -0.37516591 0.0043624355 0.0018578592
-0.19667201 0.093423426 -0.3536965 0.88421303 -0.46708354 0.00053129281 0.00013893907
0.19583304 0.096567929 -0.35795328 -0.88472342 -0.46608746 -0.0051964121 0.0016761421
-0.19292444 0.10033347 -0.35239071 0.8810907 -0.47294736 7.0986149e-05 1.7999262e-05
-0.18982609 0.10604645 -0.35052973 0.87887084 -0.47705972 -0.00013927445 1.4573308e-06
0.19152963 0.1035829 -0.35643598 -0.86539561 -0.50108689 -0.0015446462 0.00054251496
-0.18497346 0.11499408 -0.35459217 0.86741984 -0.49757522 -0.0013326482 0.00048632018
0.18444191 0.11513659 -0.35472396 -0.85234541 -0.52297932 -6.3774889e-05 6.450116e-06
-0.18137126 0.12163605 -0.35412657 0.83776277 -0.54600626 -0.0055364557 0.0018603877
-0.17827757 0.12734047 -0.35966402 0.81267196 -0.58271736 -0.0021738163 0.0024252019
0.17756559 0.12634571 -0.35620794 -0.83357644 -0.55239588 -0.0030303977 0.00094633701
0.18125349 0.12033403 -0.35316631 -0.84473407 -0.53518623 -0.00029823024 0.00029536895
-0.17366844 0.13283329 -0.35496509 0.77604252 -0.63067734 -0.0020054183 0.0018094868
-0.16723859 0.13961545 -0.35204178 0.74470568 -0.66739231 -0.00094613509 0.00053795759
0.1725772 0.13447721 -0.35314274 -0.7972551 -0.60346025 -0.014829868 0.0022250067
-0.16501054 0.14196557 -0.35946062 0.74100173 -0.67150313 -0.00011554045 0.00042825469
-0.1597957 0.14746614 -0.35344243 0.72815794 -0.68540943 -1.6192327e-05 0
0.15942426 0.14845875 -0.35231608 -0.7148993 -0.69922024 -0.0031456524 0.0010370973
0.16448289 0.14366288 -0.35192564 -0.7480616 -0.66362667 -0.0018788748 0.0023386588
-0.15490691 0.15262279 -0.35645598 0.72317278 -0.69066697 0.00049786479 8.7955059e-06
-0.1493175 0.15851843 -0.35698593 0.71519393 -0.69892216 -0.0023413841 0.00022258995
0.14848624 0.1588286 -0.35121071 -0.68800437 -0.72570652 4.0296094e-05 0
0.15298876 0.15455997 -0.35580459 -0.69342983 -0.72052407 0.00022045082 9.3367715e-05
-0.14443512 0.16366835 -0.35502854 0.68117797 -0.73210996 -0.0033845671 0.0019585059
-0.13963071 0.16873603 -0.35505497 0.65988755 -0.75136131 -0.0021747968 0.0020036085
0.13719416 0.16953412 -0.35497037 -0.64264584 -0.7661441 -0.0054407832 0.0014171117
0.14449801 0.16260965 -0.35566497 -0.67890203 -0.73422837 0.00088661601 0.00016635584
-0.13194177 0.17413262 -0.35452947 0.58775061 -0.80904216 0.00016146647 0.0017780132
-0.1239326 0.17904592 -0.35411572 0.54171419 -0.84056151 -0.0014830489 0.00047923435
0.12591678 0.1790497 -0.35417661 -0.55806297 -0.82978898 0.0040063201 0.0019668657
0.1347729 0.17182963 -0.35706842 -0.63558614 -0.7720288 -0.0013679845 0.001297138
-0.12057659 0.18110469 -0.35473135 0.5395056 -0.84198171 0.00073855696 0.00041270634
-0.11161308 0.18660343 -0.35672045 0.52291775 -0.85238314 -1.1934424e-05 5.55614e-06
-0.10831486 0.18862677 -0.35815415 0.51061434 -0.85980868 -0.0014042502 0.00016760339
0.10772923 0.18891346 -0.35537353 -0.47682837 -0.87899643 2.7004512e-06 0
0.11492378 0.18501158 -0.35711789 -0.51399428 -0.85779339 -0.00057152839 0.0011373191
0.12015879 0.18217245 -0.35015482 -0.5363524 -0.84399259 -0.0015752109 0.001682741
-0.10523303 0.19051734 -0.35463268 0.50699741 -0.86194754 0.00023647313 0.00020554589
-0.095017888 0.19678392 -0.35401979 0.45672438 -0.88959074 0.0055789631 0.0015021288
0.088975362 0.19908433 -0.35736212 -0.43389136 -0.90093267 -0.0076448652 0.0012901237
0.095501475 0.195545 -0.3537387 -0.46617419 -0.88469285 0.00034289414 0.00016978374
0.10115389 0.19247949 -0.35586593 -0.47674623 -0.87904096 5.6068777e-05 1.3133827e-05
-0.084489137 0.20172152 -0.35689181 0.38092461 -0.92459381 0.0047597717 0.0023838868
-0.074105017 0.20480286 -0.3565197 0.32254523 -0.94648349 0.011559262 0.00091526803
-0.064792603 0.20756616 -0.35463575 0.28457987 -0.95865232 4.907063e-05 0
-0.058124196 0.20954491 -0.3559261 0.2842648 -0.95874578 0.00022295178 0
0.065638304 0.20784941 -0.35431319 -0.27362874 -0.96183527 -0.00036396517 0.0008942376
0.073922299 0.20586479 -0.35525894 -0.32895982 -0.94431853 -0.0069268686 0.0018495563
0.082055405 0.20283727 -0.35416633 -0.38555536 -0.9226824 -0.0020776715 0.002560935
-0.052904077 0.2110939 -0.35460511 0.26364851 -0.96461791 -0.0012762075 0.00053252198
-0.043555524 0.21386796 -0.35178924 0.21248426 -0.97715402 0.0045254729 0.001786931
-0.038906466 0.21524748 -0.35425413 0.21178178 -0.9773097 0.003769943 0.0018122426
-0.026205197 0.21680064 -0.35425702 0.10594483 -0.99437064 0.001662201 0.0016768234
-0.0033436245 0.21741024 -0.35503557 0.024366599 -0.99970281 0.00069303002 2.5649753e-05
0.0073040514 0.21769416 -0.35576919 -0.022316048 -0.99973387 -0.0058411201 0.00090253406
0.01455438 0.21788751 -0.35845768 -0.057540473 -0.99833971 -0.0026323069 0.001543408
0.026691679 0.21714361 -0.35435516 -0.14843513 -0.98891944 0.0023106183 0.001687175
0.035719018 0.21501726 -0.35426909 -0.17510904 -0.98454839 -0.0011961837 0.0013780151
0.043899439 0.21305743 -0.35570118 -0.2182754 -0.97588456 -0.0022642722 0.00031725314
0.054812979 0.21044286 -0.35782266 -0.24023096 -0.9707157 -0.00039046159 9.6598858e-05
-0.053976726 -0.21064322 -0.34733844 0.23216243 0.97267705 -4.6478639e-05 3.1955758e-05
-0.043177631 -0.21323037 -0.34378448 0.22176783 0.97509843 0.0014457476 0.00021743882
-0.033445418 -0.21556194 -0.34338513 0.18768448 0.98222405 -0.0032404573 0.0013686616
-0.025084034 -0.2172963 -0.3458786 0.14339216 0.98959923 -0.011489651 0.0023962611
-0.01689955 -0.21795005 -0.34529683 0.073893845 0.99722302 -0.0092683872 0.0022736641
-0.0049762311 -0.2176321 -0.34497634 0.00075363263 0.99999964 -0.00037327377 0.00067042536
0.0053027361 -0.21735801 -0.34695435 -0.026655775 0.9996447 -1.0186988e-05 0
0.013175916 -0.21714807 -0.34434578 -0.032547373 0.99947 -0.00060228334 2.7551911e-05
0.023939669 -0.21686105 -0.34538418 -0.071270287 0.99745601 -0.001430603 0.00094406871
0.035821978 -0.21589395 -0.34443134 -0.19105582 0.98157817 -0.0014216896 0.0027207248
0.045322757 -0.21334353 -0.34448391 -0.24775936 0.96880001 -0.0064698686 0.00077830744
-0.08386156 -0.20185775 -0.34781665 0.38934526 0.92107177 0.0060857148 0.0019178035
-0.076878592 -0.20510474 -0.34473467 0.35236287 0.93586093 -0.0022010382 0.0022786842
-0.063581504 -0.20834216 -0.34345675 0.27553633 0.96129054 0.00048088562 0.00086144503
-0.057657599 -0.20976137 -0.3468774 0.24564341 0.96936017 0.00045683398 0.00028921152
0.063450694 -0.20796436 -0.34530306 -0.28330213 0.95903069 -2.227292e-05 0
0.073209018 -0.20506872 -0.3447018 -0.30996123 0.95074922 -7.7234559e-05 0.00044829247
0.082502767 -0.20231095 -0.34503725 -0.37865913 0.92552561 0.0044313972 0.0021894216
-0.10254166 -0.19172686 -0.34486651 0.47497112 0.88000143 0.00019325066 1.9852032e-06
-0.094566822 -0.1960519 -0.3440547 0.46595225 0.88480991 9.4110095e-05 0.00011500457
0.094349854 -0.19719374 -0.34640557 -0.45612362 0.8899163 -0.00048844423 0.0017165646
0.10373316 -0.19143745 -0.34598464 -0.50965679 0.8603757 0.0019061376 0.00027472081
-0.12122677 -0.18159325 -0.3451378 0.54396725 0.83904099 0.01047741 0.0020154838
-0.11591481 -0.18447411 -0.34531808 0.52006769 0.85408902 0.0078445189 0.0012550743
0.10725388 -0.18927762 -0.34606916 -0.51160049 0.85922158 0.0017584019 0.00025901975
0.11468044 -0.18472174 -0.34387329 -0.52289701 0.85239583 -3.6263802e-06 0
0.12101254 -0.18083724 -0.34831357 -0.53618503 0.84409964 0.0011917333 0.00029294798
-0.13530715 -0.17132311 -0.34687302 0.64475352 0.76434857 0.0080050481 0.0013374296
-0.12834892 -0.17773065 -0.34490797 0.59340382 0.8048386 0.010332636 0.0025617445
0.12703444 -0.17714305 -0.3467685 -0.55572867 0.83136356 0.00055058586 0.0011293187
0.135722 -0.17181359 -0.34480143 -0.61391073 0.7893607 0.0048296973 0.00197071
-0.14470483 -0.16241355 -0.34627172 0.68122387 0.73207289 -0.0018039959 0.00013383935
-0.13896072 -0.16785932 -0.34934983 0.64965796 0.76021326 0.0045111375 0.0012027727
0.14263621 -0.1655658 -0.34484875 -0.6579051 0.75309759 0.0022317315 0.0020089492
-0.1531785 -0.15438007 -0.34328818 0.69024301 0.72357696 0.00094846904 1.1588385e-05
-0.14913717 -0.15821148 -0.3472884 0.68683559 0.72681266 0.00051613379 0
0.1491522 -0.15869281 -0.34782702 -0.70509624 0.7090987 -0.0042804102 0.00068747654
0.153575 -0.15402767 -0.34486741 -0.72179234 0.6921097 -0.00010483765 7.3507981e-05
-0.16289525 -0.14516807 -0.34640017 0.72921282 0.68417472 0.012396021 0.0014061666
-0.15904401 -0.14881924 -0.34474316 0.70558929 0.70855862 0.0094029959 0.00040244509
0.16288981 -0.14420252 -0.34543374 -0.73143327 0.681912 0.0011494274 0.00018592289
-0.1720458 -0.13534351 -0.3476429 0.79188168 0.61067325 -0.0012623509 0.0022055921
0.16839911 -0.13839135 -0.34434164 -0.7572788 0.65303761 0.00840618 0.0013933489
0.17231435 -0.13426158 -0.34375936 -0.77198428 0.63560587 0.006739316 0.0020278764
-0.18132012 -0.12022543 -0.34346658 0.84900326 0.52838731 -0.00048218871 6.0041344e-05
-0.17809165 -0.12548816 -0.34402725 0.8338576 0.55197799 0.0013326127 0.00077979668
0.1784589 -0.12700608 -0.34715837 -0.82252151 0.56869841 0.0063627334 0.002214608
0.18084681 -0.1226031 -0.34619635 -0.83005673 0.55767703 0.0014907783 0.0018460213
-0.18548377 -0.11343827 -0.34468323 0.85238451 0.5229156 3.0612382e-06 0
0.18712096 -0.11103436 -0.3465904 -0.86994201 0.49314168 -0.0034750542 0.00038890354
-0.19147538 -0.10367136 -0.346012 0.8668462 0.49857044 -0.0022755472 0.00057711604
0.18897033 -0.10762434 -0.34867173 -0.87652653 0.48135358 4.2672989e-05 6.9298636e-05
0.19199272 -0.10205144 -0.34273592 -0.88010091 0.47478643 -0.00038346098 1.7539271e-05
-0.19681197 -0.094972156 -0.34500435 0.888614 0.45864391 -0.003307404 0.0017699067
0.1976995 -0.091528833 -0.34140784 -0.89251548 0.45099485 0.0044428958 0.00074820081
-0.20151152 -0.085196853 -0.34379017 0.92610854 0.37710378 0.010755517 0.0016288857
0.20202899 -0.083545782 -0.3429864 -0.91118127 0.41200566 0.00020265978 0.0018119419
-0.20546684 -0.071867362 -0.34302816 0.95385993 0.30024463 -0.0020818482 0.0003462384
0.20604472 -0.073106863 -0.34422123 -0.94494027 0.32723972 0.0014025419 0.0017650247
-0.20875916 -0.060772158 -0.34597772 0.95892787 0.28364992 0.00016577849 0
0.20819584 -0.064192273 -0.34691274 -0.95917177 0.28278327 -0.0048248558 0.001121536
-0.21093059 -0.053454459 -0.34658468 0.96277761 0.27029097 0.0014827574 0.00029672886
0.21104963 -0.052280277 -0.34588975 -0.97238922 0.23336509 -0.00018909365 8.224848e-06
-0.21346255 -0.044921685 -0.34692326 0.97433674 0.22506484 -0.0036859554 0.001203966
-0.21647577 -0.034767136 -0.34688592 0.98560989 0.16884038 0.0081292195 0.0022858051
0.21468982 -0.037085705 -0.34543824 -0.97901386 0.20378847 0.0014598088 0.00066611223
-0.21688105 -0.02318969 -0.34387523 0.99736488 0.072533615 -0.0014983567 0.0011108065
0.21776883 -0.024233576 -0.34258759 -0.99329835 0.11557158 -0.0012559503 0.0024494182
-0.21706152 -0.016422274 -0.34647426 0.998564 0.053524833 0.0022516148 0.00065022369
0.2178901 -0.014652203 -0.34596041 -0.99924898 0.038381618 0.0053207139 0.0013980162
-0.21736757 -0.0049441396 -0.34610474 0.9996652 0.025870422 0.00036100892 8.8926299e-06
0.21760468 -0.0039473395 -0.34401405 -0.99994951 -0.010042485 -0.00022664352 0.0003710521
-0.21758795 0.0033201345 -0.34429947 0.99979925 0.020021867 0.0006759619 7.3502881e-05
0.21746282 0.0013726748 -0.34497669 -0.99976456 -0.02168957 0.00064781704 3.5281898e-06
0.21707764 0.015817139 -0.3453944 -0.99894613 -0.045898106 0.00012112434 0.00036491331
-0.21805403 0.020799577 -0.34403729 0.99617457 -0.086944379 -0.0087662805 0.0025967876
0.21681994 0.025481123 -0.34489578 -0.99548966 -0.09486147 0.0012551162 0.0017786082
-0.21512502 0.035269182 -0.34377205 0.98133558 -0.19229767 0.0014423251 0.00073555432
0.21648256 0.032373518 -0.34344682 -0.98850995 -0.15070254 0.011695677 0.0026624871
-0.21307088 0.043843329 -0.34525123 0.97347879 -0.22877732 -0.00014368314 8.0409438e-05
0.21404946 0.042943791 -0.34471488 -0.97696465 -0.21340126 -0.00024888618 0.0015178062
0.21179187 0.050551929 -0.34701881 -0.96545589 -0.26056421 0.001078511 0.00057863246
-0.20866004 0.062254678 -0.34422934 0.96309394 -0.26915804 -0.0019621099 0.00080884557
0.20771171 0.064302117 -0.34543911 -0.95868599 -0.28446642 5.5803539e-05 0
-0.20509873 0.077119872 -0.34586948 0.93283427 -0.36029387 -0.0029511347 0.0023233381
0.20496462 0.073559783 -0.34585428 -0.9500339 -0.31214437 0.0012373495 0.00038896786
-0.20262444 0.082447879 -0.34878123 0.9160251 -0.40112078 0.00026110423 0.0019293997
-0.199715 0.087812528 -0.34347448 0.90407413 -0.42737526 0.00066871481 0.0016275108
0.20191234 0.083846092 -0.3472783 -0.93102711 -0.36490744 -0.0055787256 0.0019926208
-0.19537149 0.095821403 -0.3433415 0.88301861 -0.4693372 -0.00086112868 8.9077002e-05
0.19783552 0.093303658 -0.34531221 -0.89792866 -0.44013825 0.001542439 0.0017538468
-0.19211568 0.10182473 -0.34740531 0.87938362 -0.47611377 5.2308906e-06 2.1621847e-06
-0.18938525 0.1068593 -0.34315798 0.8788771 -0.47704828 -3.5074136e-05 0
0.1890007 0.10770533 -0.34400293 -0.85931247 -0.51144779 0.0017924907 0.0001632116
-0.18553162 0.1139649 -0.34272066 0.86804771 -0.4964807 -5.8424819e-05 0.00065024506
0.18425614 0.11543943 -0.34738997 -0.85221416 -0.52319306 -9.7408731e-05 0
-0.18171075 0.12101011 -0.34413242 0.84522003 -0.5344153 0.0018631913 0.0017392975
-0.17819063 0.12721217 -0.34360752 0.80988598 -0.58658481 0.0016967743 0.0023677794
0.17703684 0.12720759 -0.34478557 -0.82197887 -0.56951791 -0.0003150889 0.0012640388
-0.17370953 0.13278997 -0.3462342 0.78454983 -0.62006205 0.0021411444 0.0018083842
-0.16920261 0.1375438 -0.34229586 0.76335984 -0.64597332 -0.00051446049 0.0012660202
0.17231677 0.13490178 -0.34383303 -0.79427421 -0.60755599 0.0020256562 0.0020722575
-0.1637181 0.14332883 -0.3449994 0.74085283 -0.67166722 -0.0004505915 0.00044411435
-0.15815817 0.14919339 -0.3417775 0.72732741 -0.68629074 8.7387198e-05 6.8644175e-07
0.15861656 0.14922449 -0.34984261 -0.70596838 -0.70824134 -0.0016814931 0.00071688928
0.16641456 0.14183158 -0.3482244 -0.7568866 -0.65354627 0.00028599575 0.0023111319
-0.14971897 0.15809497 -0.34460112 0.70963478 -0.70456964 -0.00029425521 0.00051881047
0.14959346 0.15777889 -0.34945181 -0.68799591 -0.72571462 6.2736151e-05 0
0.15391001 0.15368654 -0.34512392 -0.69344676 -0.72050345 0.0025232483 9.8887707e-05
-0.14324024 0.1649287 -0.34417018 0.670874 -0.74146521 0.012545709 0.0022515703
0.14277826 0.16424006 -0.3457883 -0.66866916 -0.7435593 -0.0010867174 0.00062081183
-0.13731796 0.17083454 -0.34285828 0.61889833 -0.78528297 0.017187437 0.0022828802
0.12711512 0.17836651 -0.34327137 -0.57150406 -0.82059294 -0.003205895 0.0022655914
0.13625386 0.17042555 -0.34364584 -0.63779283 -0.77019739 0.0040287669 0.0015028113
-0.11421909 0.18500477 -0.34662804 0.52297527 -0.85234791 1.0276956e-05 0
-0.10656732 0.1896988 -0.34424052 0.51240313 -0.85874289 0.0019338957 0.00015723864
0.10724491 0.18917613 -0.3413744 -0.4774853 -0.8786397 -0.00024146923 3.5080415e-05
0.11501784 0.18496057 -0.34930572 -0.50917792 -0.86065811 0.0023278836 0.00093663507
0.12127349 0.18156792 -0.34152192 -0.539765 -0.84180993 0.0031298848 0.0016015036
-0.10432936 0.19107172 -0.34634429 0.50877041 -0.86088634 0.0052409163 0.00019504913
-0.093781359 0.19754249 -0.34845144 0.4516218 -0.89219326 0.0053740218 0.0016286136
0.088192269 0.19950905 -0.34708282 -0.43262863 -0.90157199 0.00057599955 0.0012390981
0.092652939 0.19708987 -0.34528318 -0.46514937 -0.88521272 0.0058706645 0.00017796614
0.10305837 0.19144662 -0.34474197 -0.47682339 -0.87899911 3.7026428e-05 0
-0.086006604 0.20127124 -0.34594491 0.41055867 -0.91180789 0.0069212504 0.0023340008
-0.075536683 0.20437804 -0.34459001 0.30222812 -0.95323402 0.0017846647 0.00032007575
-0.06442178 0.20767622 -0.34671709 0.28450572 -0.95867437 -6.9588445e-05 1.163358e-05
0.057974875 0.20968536 -0.3456338 -0.24328257 -0.96995515 0.00078081712 0.00019431757
0.064305142 0.20816879 -0.34405908 -0.27720311 -0.96080816 0.002477912 0.00087869028
0.075175285 0.20556462 -0.34850019 -0.32624701 -0.94527632 0.0039512343 0.0019577453
0.083813131 0.20188399 -0.34821033 -0.41234496 -0.91102546 0.0020684965 0.0019067628
-0.050599076 0.21177787 -0.34250715 0.25897878 -0.96588045 0.0022387148 0.00052507996
-0.046580151 0.21297044 -0.34719518 0.24418168 -0.96972775 0.0018255867 0.00072407589
-0.038835496 0.21526855 -0.34164619 0.20439024 -0.9788841 0.0032522921 0.0015858277
-0.025351794 0.2168234 -0.34451076 0.11809327 -0.99297547 0.0073281983 0.0020578296
-0.01470168 0.21710739 -0.34528562 0.048529215 -0.99881399 0.0039505498 0.00037681439
-0.0076279803 0.217296 -0.34498417 0.027236674 -0.99962902 -7.0859627e-05 1.0520823e-05
0.006277835 0.2176668 -0.34656715 -0.012729736 -0.99990445 -0.0053879749 0.00089130166
0.017285392 0.21796031 -0.34512031 -0.070537142 -0.99750429 -0.0031168007 0.0020079107
0.029250989 0.2165668 -0.34660202 -0.15659808 -0.98766237 0.00032203962 0.0018057157
0.035120118 0.21516073 -0.34586176 -0.17897646 -0.9838497 -0.0026678266 0.0015088164
0.04163558 0.2135998 -0.34561908 -0.225297 -0.97429001 -0.00054499466 0.00014586451
0.053173173 0.21083571 -0.34504673 -0.23296435 -0.97248524 -1.6121705e-05 0
-0.053594891 -0.21073467 -0.33542645 0.23390728 0.97225893 2.6523277e-05 2.8134733e-05
-0.044885047 -0.21282132 -0.33738357 0.22482131 0.97439885 0.0014875907 0.00018495998
-0.03445426 -0.21532024 -0.33435455 0.20283057 0.97921348 -0.00081233069 0.00066440238
-0.02324372 -0.21800599 -0.33537501 0.096403219 0.99527544 -0.011540907 0.0025610016
-0.0122876 -0.21782705 -0.33619803 0.024266925 0.99969202 -0.0052035358 0.0013426406
-0.0030297299 -0.2175802 -0.33231905 -0.018056354 0.99983615 -0.0012719368 6.1710336e-05
0.0058852648 -0.21734247 -0.33147329 -0.028791482 0.99958533 0.00047606151 4.5478628e-06
0.014517136 -0.2171123 -0.33584452 -0.032341275 0.99947685 0.00028561847 5.8476631e-05
0.029291011 -0.21671836 -0.33588254 -0.10668924 0.99426997 -0.0066862851 0.0016946105
0.035698075 -0.21598057 -0.33441663 -0.14905526 0.98880005 -0.0075526042 0.0021037299
0.044892326 -0.21347126 -0.33436888 -0.24629208 0.96918327 0.0049116043 0.00075700594
-0.084584452 -0.2014657 -0.33599082 0.39204887 0.91993111 -0.0049504177 0.0023202896
-0.075408846 -0.20550749 -0.33683321 0.3223016 0.94659787 -0.0086093862 0.0018260441
-0.064670973 -0.20808116 -0.33507654 0.27408633 0.96168816 -0.0057039629 0.00073032902
-0.058196157 -0.20963234 -0.33335954 0.24662608 0.96911025 -0.00087736361 0.00023123929
0.058926541 -0.20930682 -0.33757567 -0.28224909 0.95934105 0.00026094657 6.3663078e-06
0.06898132 -0.20632324 -0.33244279 -0.2990253 0.95424497 -0.0006830467 0.00032461048
0.074818321 -0.20459118 -0.33350027 -0.31378993 0.94949245 0.00012103275 0.00058505981
0.089094847 -0.20035486 -0.33311811 -0.40435064 0.9145838 0.0060800943 0.0018494769
-0.10284282 -0.19156353 -0.33138984 0.4770216 0.87889153 -8.2944935e-05 2.3705185e-05
-0.095645301 -0.195467 -0.33103192 0.46976402 0.882792 0.00014723306 8.7136366e-05
-0.088363409 -0.19941622 -0.33420971 0.42713705 0.90417558 -0.0045242677 0.0017054303
0.096534446 -0.19585356 -0.335621 -0.45548958 0.89023972 -0.0015524401 0.0019545825
0.10294121 -0.19192328 -0.33378381 -0.50354618 0.86396468 0.0024925712 0.00037300232
-0.12380707 -0.18019386 -0.33488706 0.56159818 0.82740581 -0.0026534756 0.002292101
-0.11721288 -0.18377012 -0.33625931 0.51942837 0.85450226 0.0044809035 0.0011355056
-0.10991424 -0.18772843 -0.33430064 0.48664328 0.87360054 -0.00062071427 0.00026688547
0.10631458 -0.18985385 -0.33819485 -0.50941491 0.86051822 0.0022139943 0.00026176448
0.11624072 -0.18376458 -0.3339828 -0.52370048 0.85190237 -0.0004199527 4.4413329e-05
0.12113187 -0.18076405 -0.3345547 -0.54231888 0.84017247 0.00075151894 0.00059094554
-0.13373689 -0.17281179 -0.33447012 0.63186771 0.7750752 -0.0012749078 0.0020861169
-0.12688398 -0.17852513 -0.33809349 0.57230502 0.8200385 -0.0019546994 0.0023577858
0.12576082 -0.17792436 -0.33568695 -0.54530859 0.83823514 -0.00060725678 0.00059652916
0.13121779 -0.17457674 -0.33317554 -0.58301061 0.81245005 0.0048565893 0.0018906948
-0.14360121 -0.1634599 -0.33706591 0.67616779 0.73674768 0.00018643802 0.00030777435
-0.13785902 -0.1689038 -0.33663359 0.65194535 0.75825495 0.0040726941 0.0011771702
0.14485684 -0.16322352 -0.33385998 -0.68332845 0.73006928 0.0078158118 0.0018199563
-0.15465873 -0.15297672 -0.33675554 0.69632739 0.71772206 0.0018065356 0.00020768719
0.15298858 -0.15464623 -0.33563343 -0.71745092 0.69660872 -0.00058817765 0.00029313
-0.16340256 -0.1446871 -0.33277941 0.7280302 0.68550825 0.0071062087 0.0015738985
0.1585132 -0.14881891 -0.334975 -0.72574598 0.68796277 -1.514418e-05 0
0.16293021 -0.1441599 -0.33334962 -0.72749281 0.68611491 0.000685565 3.7834809e-05
-0.17446013 -0.13140789 -0.33615926 0.80485266 0.59335351 -0.011991806 0.0018851203
-0.1685077 -0.13984714 -0.33722478 0.76205653 0.6475085 0.0015928078 0.002296177
0.16877382 -0.13799612 -0.332901 -0.75343549 0.65751815 -0.0021897967 0.0012899509
0.17316632 -0.13336295 -0.33639932 -0.77817714 0.62803513 0.003499113 0.0021668435
-0.17896485 -0.12406473 -0.33752012 0.83655977 0.54786777 -0.0029406422 0.000653358
0.17703375 -0.12928361 -0.33388349 -0.8046307 0.59376103 0.0041611195 0.0024757006
-0.18332545 -0.11695654 -0.33424124 0.85036325 0.52619612 0.000225975 2.7591461e-05
0.18456785 -0.11574197 -0.33524546 -0.8547529 0.51900595 0.0055038924 0.0011816937
-0.19288029 -0.10138121 -0.33424777 0.87118232 0.49095073 0.0029584409 0.00069900713
0.18774158 -0.10989002 -0.33318138 -0.87303138 0.4876636 -0.00074278709 0.00024696186
-0.1964196 -0.095611759 -0.33484989 0.89021289 0.45553622 0.0027969005 0.0012686368
0.19547494 -0.095630668 -0.33678302 -0.88417673 0.46715248 0.00031260453 0.00018279374
-0.20171431 -0.084513448 -0.33356938 0.92448896 0.38118362 0.0043808222 0.0018564558
0.1991702 -0.088817045 -0.33957446 -0.90290964 0.42981753 0.0033246847 0.001432534
0.20158605 -0.084362514 -0.33650541 -0.91055554 0.41338179 -0.0020535949 0.0017374175
-0.20424965 -0.075969346 -0.3368659 0.94566399 0.32509074 0.0059777265 0.00079882151
0.20512778 -0.076700784 -0.33492586 -0.93566686 0.35281789 0.0068499716 0.0021522641
-0.20814149 -0.062853709 -0.33647496 0.95867884 0.28449067 1.089838e-05 0
0.20833288 -0.063620239 -0.33482379 -0.96300912 0.2694684 -0.00051722408 0.00078463712
-0.21086878 -0.053662717 -0.33393303 0.9640305 0.26578429 -0.0019444636 0.0002853733
0.21051541 -0.054510105 -0.33722204 -0.97238952 0.2333637 1.0251581e-06 2.5290537e-05
-0.21359417 -0.044478133 -0.33581808 0.97118127 0.23832363 0.0029678671 0.00072313513
0.21290632 -0.044530224 -0.3332577 -0.97308534 0.23044485 -0.00024730415 0
0.21575435 -0.032642256 -0.33739948 -0.98662567 0.16296268 0.0036140615 0.0016658375
-0.2168036 -0.026094614 -0.33138922 0.99435282 0.10610926 0.0017899578 0.0018772723
0.21781971 -0.024021253 -0.33322883 -0.9956407 0.093225688 0.0029181191 0.0023342106
-0.21717347 -0.012223324 -0.33595482 0.99953949 0.030303564 -0.0015895735 2.263102e-05
0.21786802 -0.013823377 -0.334667 -0.99949056 0.031820871 0.0024701818 0.0014498837
-0.21734214 -0.0058970321 -0.33529302 0.99969256 0.024792751 -0.00025034009 5.2433101e-05
0.21766694 -0.0062825554 -0.33569846 -0.99997252 -0.0073984223 0.00040953458 0.00046259016
-0.21755207 0.0019749147 -0.3366763 0.99973226 0.023136524 -0.00032712499 0
0.21734421 0.0058202366 -0.33589435 -0.99966699 -0.025803691 0.00016952502 0
-0.21789159 0.014707524 -0.33497909 0.99936724 -0.035396788 -0.0034974359 0.0013174016
-0.21777503 0.023746677 -0.33539119 0.99434763 -0.10609093 -0.0041874065 0.0024698365
0.21689314 0.022736553 -0.33469963 -0.99809289 -0.061686564 0.0023033351 0.00080888288
-0.2153291 0.034417309 -0.33292866 0.98101121 -0.19391531 -0.0037093705 0.00065798202
0.2159383 0.036578357 -0.33768189 -0.98062813 -0.19582821 -0.0044459207 0.001812205
-0.21282716 0.044860646 -0.33475938 0.9735145 -0.2286244 0.00066931651 1.4342389e-05
0.2136441 0.044309884 -0.33596504 -0.97320032 -0.22991759 -0.0043629422 0.0012531549
-0.21121091 0.051607072 -0.33918214 0.97249913 -0.23290652 -0.00014625605 0
0.2093911 0.058642566 -0.33619961 -0.95953739 -0.28158075 0.00049299537 3.6685891e-05
0.21108837 0.052922726 -0.3362762 -0.96426517 -0.26493663 0.0011318697 0.00037733203
-0.20764756 0.066480771 -0.3335554 0.95953113 -0.28159422 0.0021622388 0.00099029893
0.20869495 0.060988534 -0.3361845 -0.95873374 -0.28430548 -5.2006835e-05 7.4190625e-06
-0.20527376 0.075999856 -0.33386377 0.93907589 -0.34370676 0.0014914516 0.0022449924
0.20600654 0.070048526 -0.33039182 -0.95400858 -0.29976171 0.0032342949 0.00023944803
-0.20187083 0.083837427 -0.33685124 0.90824294 -0.41838002 0.0072777178 0.0016472727
-0.19885008 0.08940731 -0.3384003 0.89936513 -0.43719316 0.0021178843 0.0012954554
0.20288157 0.080579691 -0.33131772 -0.93879008 -0.34445608 -0.0048242486 0.0017856648
-0.19610694 0.094465323 -0.33813512 0.88366044 -0.46812832 -0.00016453987 0.00010563359
0.19647743 0.095517509 -0.33434951 -0.89056331 -0.45484897 -0.0030675274 0.0018537518
-0.19242479 0.10125476 -0.33518896 0.88048226 -0.47407886 -0.00011854686 4.8240749e-05
-0.18809594 0.10923662 -0.33447805 0.87427378 -0.48542577 0.0026608941 0.00023013937
0.18887286 0.10791373 -0.33190107 -0.8559891 -0.51699382 -0.0002400956 0.00011127952
0.19147086 0.10367869 -0.33504829 -0.86501616 -0.50172842 0.003947014 0.00042607199
-0.18451369 0.11584184 -0.33627596 0.85934943 -0.51138783 -0.0010054247 0.0010736702
0.18355213 0.11658701 -0.33223358 -0.8522476 -0.52313858 -2.5400139e-05 0
-0.18149228 0.12141291 -0.33695707 0.84304965 -0.53783292 -0.0017549531 0.0018905809
-0.17857085 0.12679967 -0.33999401 0.82340282 -0.56745631 -0.0010727138 0.0021546686
0.17664041 0.12785383 -0.3347913 -0.82700753 -0.56218791 -0.0018194166 0.0010264316
0.18083569 0.12101509 -0.33633965 -0.84205085 -0.53939658 -0.0012657619 0.00036056148
-0.17309271 0.13344058 -0.33444238 0.78473562 -0.61982805 -0.0017893923 0.001868467
-0.16859829 0.13818124 -0.33339179 0.75570029 -0.65489668 -0.0052391086 0.00089021504
0.17018402 0.13825791 -0.33406734 -0.77976823 -0.62597477 0.010819592 0.002119638
-0.1625735 0.14453614 -0.33421436 0.73469734 -0.67838836 -0.0030146511 0.00021366609
0.16391931 0.1441972 -0.33425134 -0.73746234 -0.67537117 0.0048037986 0.0017325195
-0.15404837 0.15352838 -0.33708087 0.72305584 -0.69078946 -0.0003929282 5.1484149e-05
-0.14814678 0.15975332 -0.33665544 0.7071442 -0.70706785 0.0014077289 0.0005789905
0.15451685 0.15311123 -0.33622441 -0.69110566 -0.72275215 0.0014989785 5.65544e-05
-0.14507282 0.1629957 -0.33324659 0.69699037 -0.71707076 0.0037257329 0.0011561264
0.13883726 0.16797636 -0.33514252 -0.6532082 -0.75717491 -0.0022617979 0.0010059276
0.14577849 0.16139571 -0.3328625 -0.68618417 -0.72742772 0.00058668904 2.7237194e-05
-0.1352606 0.17207414 -0.3369714 0.60960269 -0.79270697 0.00043671206 0.002310341
-0.1283998 0.17630546 -0.33794186 0.56600863 -0.82439333 0.0031599368 0.0013754673
0.12923722 0.17696823 -0.33064154 -0.59291732 -0.80524993 -0.0046474086 0.0023298408
0.13516213 0.17146057 -0.3332445 -0.63891208 -0.76919121 0.011671033 0.0015377506
-0.12071092 0.18102229 -0.33583245 0.53653431 -0.84387857 0.00010067462 0.00027369391
-0.11656232 0.18356729 -0.33354378 0.52424914 -0.85156488 -0.00035058032 2.6996346e-05
-0.10912426 0.18813023 -0.33914167 0.51625955 -0.85643178 0.00078221323 7.6149794e-05
0.10746516 0.18905665 -0.33603802 -0.47747785 -0.87864375 -0.00025109097 2.5703965e-05
0.11590935 0.18447708 -0.33520964 -0.51606202 -0.85654342 -0.0036459076 0.001246971
0.12216296 0.18108553 -0.33553022 -0.54529852 -0.83823818 0.0025220457 0.001695584
-0.10163218 0.19272631 -0.33477628 0.49227592 -0.87043864 0.00096772483 0.0008058768
-0.091542192 0.19891612 -0.33471194 0.45670837 -0.88957071 0.0090262899 0.0015658955
0.087595657 0.19983262 -0.33506495 -0.42839128 -0.90359235 -0.001315041 0.0014085582
0.093385182 0.19669275 -0.33523464 -0.45528466 -0.89034063 0.0030770274 0.00066095038
0.10307311 0.19143863 -0.33838162 -0.47576118 -0.87957454 -0.00020160367 1.7658265e-05
-0.085927017 0.20129485 -0.33890775 0.40508983 -0.91416568 0.014259505 0.0019860982
-0.074720547 0.20462021 -0.33499581 0.31059238 -0.95054269 0.00096565305 0.00081141741
0.065574579 0.20786469 -0.33601093 -0.28541771 -0.95839167 -0.0047146422 0.0011601473
0.077185169 0.2050509 -0.33366951 -0.34115478 -0.9400059 0.0014963605 0.0021959292
0.08488182 0.20130439 -0.33416328 -0.4058972 -0.91391748 0.0015149432 0.0018587328
-0.052834582 0.21111453 -0.33525217 0.26545882 -0.96412152 0.00116049 0.00035031978
-0.047772266 0.21261668 -0.33224535 0.24527879 -0.96944773 -0.0030832055 0.00071731245
-0.034441561 0.21646836 -0.33878025 0.14544554 -0.98934072 -0.0071148109 0.0018611741
-0.028122138 0.21674953 -0.33323973 0.12657416 -0.99195158 -0.0033133694 0.0019736737
-0.015719818 0.21708024 -0.33504048 0.036594432 -0.99932992 0.00069932517 0.00011906457
-0.0070518358 0.21731138 -0.33392048 0.028639112 -0.9995898 -0.00029896092 0
0.0039245086 0.21760406 -0.33319998 0.012815772 -0.99991477 0.0024885668 0.00023228397
0.013911352 0.21787035 -0.33402783 -0.033789616 -0.99940413 0.0070466818 0.001130387
0.025747664 0.21732865 -0.33385849 -0.12023352 -0.99274033 -0.0032342556 0.0019874931
0.034500096 0.21530926 -0.33711764 -0.18849096 -0.98207426 0.0011443277 0.001195202
0.044480551 0.21291821 -0.33408636 -0.22591732 -0.97414482 0.0017690796 8.2870742e-05
0.055340204 0.21031654 -0.33381665 -0.23387779 -0.97226602 -0.00011237836 0
-0.05379992 -0.21068555 -0.32609034 0.23360799 0.97233081 -0.00017662132 4.8639988e-05
-0.047048938 -0.21230292 -0.32894003 0.2324453 0.9726094 0.00046513288 1.5076334e-05
-0.038062166 -0.21445589 -0.32666513 0.20556767 0.97864258 0.00077959971 0.0006482274
-0.026672777 -0.21718448 -0.3266212 0.13763823 0.99041265 -0.011768412 0.0021240925
-0.015175177 -0.21790405 -0.32629147 0.039965749 0.99913847 -0.011180403 0.001566851
-0.0045004925 -0.21761942 -0.32219714 -0.017526934 0.99984503 -0.0016452406 8.8882021e-05
0.0051193009 -0.2173629 -0.32627749 -0.026343891 0.99965292 0.00022099118 0
0.013076484 -0.21715072 -0.32439199 -0.033213437 0.99944758 -0.0011923802 6.4720109e-05
0.024683699 -0.21684122 -0.32498723 -0.086110093 0.99628562 0.0002767707 0.001426433
0.034209102 -0.21654558 -0.32920098 -0.15327406 0.98811007 -0.012061503 0.0025466329
0.04497128 -0.21344784 -0.32396689 -0.24392654 0.96978247 -0.0046621929 0.0010620327
0.054723322 -0.21055406 -0.32158968 -0.27746844 0.96072578 0.004156658 8.6533524e-05
-0.082585014 -0.20255008 -0.32380238 0.38921696 0.92113751 0.0039867517 0.0024790154
-0.075996891 -0.20524505 -0.32579887 0.32234615 0.94660264 -0.0060382788 0.0018103744
-0.062170669 -0.20868015 -0.32556009 0.26702219 0.96368873 0.0017768161 0.00073410035
-0.057553075 -0.2097864 -0.32883543 0.24955297 0.96836096 -0.0006440673 0.00031288076
0.057854578 -0.20962492 -0.32200313 -0.28339389 0.95900333 0.00074766838 0
0.066566564 -0.20703977 -0.32504258 -0.29105318 0.95670688 -3.0038427e-06 0.00015329337
0.076070406 -0.20421965 -0.32344934 -0.32259366 0.94651985 -0.0057878327 0.00099476334
0.084312215 -0.20177403 -0.3247366 -0.37330577 0.92770773 -0.0010905659 0.0021557652
-0.10326913 -0.19133233 -0.32370281 0.47699207 0.87890762 4.1373485e-05 0
-0.094581582 -0.19604389 -0.32440555 0.46601775 0.88477415 -0.0014625874 0.0001186762
-0.088477358 -0.19935441 -0.32810807 0.42937818 0.90307635 -0.0093588652 0.0014889629
0.093958721 -0.19743368 -0.32487264 -0.43587017 0.8999961 0.0049320897 0.0019904594
0.10379325 -0.1914006 -0.32439035 -0.51022732 0.86003149 -0.003732628 0.0002537223
-0.12218869 -0.18107156 -0.32370752 0.55665141 0.83072162 -0.0063834116 0.0021577182
-0.11294273 -0.18608598 -0.32525125 0.49203396 0.8705759 -0.00022895336 0.00052939187
-0.10855886 -0.18846351 -0.32167777 0.48181418 0.8762725 0.0012761644 0.00016692757
0.10780771 -0.18893787 -0.32538423 -0.51334405 0.85818207 -0.0012153427 0.00018168252
0.11738554 -0.18306227 -0.32142198 -0.5253343 0.85089588 -5.3213033e-05 5.2174873e-06
0.12120201 -0.18072101 -0.32019645 -0.53205985 0.84670651 0.00058777764 0.00021627832
-0.13355649 -0.17298284 -0.32664868 0.6121403 0.79070759 -0.00811351 0.0019765762
-0.12707423 -0.17831889 -0.32514951 0.56940734 0.82204729 -0.0036724552 0.002269103
0.12818001 -0.1764403 -0.32134333 -0.56488466 0.82514763 0.0060650962 0.0011728425
0.13453279 -0.17254312 -0.32321355 -0.61588097 0.78782058 0.0054203919 0.0023231404
-0.14456861 -0.16254272 -0.32539493 0.67741609 0.73559898 -0.0012492004 0.00024601343
-0.13833839 -0.16844933 -0.32356331 0.66169739 0.74977076 0.00069885113 0.00072191568
0.13875744 -0.16965713 -0.32127282 -0.63085139 0.77587056 0.0071671181 0.0025809631
0.14388385 -0.16424981 -0.32516009 -0.6711235 0.74132609 0.0053807413 0.0022278496
-0.15249629 -0.15502685 -0.32424942 0.68947321 0.72431111 -0.00018710953 1.063022e-05
-0.14738642 -0.15987128 -0.32475656 0.68452781 0.7289865 -0.00051961653 3.5348858e-05
0.14870669 -0.15916272 -0.32729721 -0.70748389 0.70672816 0.0013314701 0.00067032513
0.15519409 -0.15231989 -0.328372 -0.7229749 0.69087434 -0.00011301399 7.4509873e-05
-0.1644024 -0.14373919 -0.32496023 0.73952729 0.67311525 -0.003909973 0.0018227464
-0.15966554 -0.14822999 -0.3251594 0.70919168 0.70500869 -0.0031652229 0.00068875455
0.15886042 -0.14845265 -0.32618964 -0.72624016 0.68744087 -0.00046742827 3.0191832e-05
0.16458167 -0.14241795 -0.32536301 -0.73150289 0.68183088 -0.0032023182 0.00018809103
-0.17143424 -0.13634041 -0.32519549 0.78306341 0.62192899 -0.0040046112 0.0020627237
-0.16909039 -0.13929473 -0.32740754 0.77422082 0.63290632 -0.0034284464 0.0021781046
0.1679952 -0.13881738 -0.32565761 -0.75347883 0.65747195 -0.0005190206 0.0011113444
0.17281137 -0.13373733 -0.32376966 -0.7800194 0.62574309 0.0039302148 0.0020809404
-0.17684585 -0.12751895 -0.32356027 0.82455897 0.56577593 -5.0632872e-05 0.0013969933
0.17714798 -0.12912318 -0.3247956 -0.79598325 0.60530496 0.0040706699 0.0021884076
-0.18340907 -0.11682022 -0.32429355 0.85126442 0.52473676 0.00039799479 0
0.1834653 -0.11777494 -0.3234016 -0.85508853 0.51843327 0.0071103815 0.0013457759
-0.19244434 -0.10209182 -0.32635346 0.87173218 0.48995283 -0.0054198485 0.00077493279
-0.18854874 -0.10844206 -0.32694563 0.85801649 0.5136205 0.0012787203 0.00015405536
0.18880889 -0.107922 -0.32513261 -0.87619138 0.48195925 -0.0019671125 7.3439202e-05
0.19169801 -0.10259485 -0.32261169 -0.87904805 0.47673315 -3.7930073e-05 0
-0.19658799 -0.095337272 -0.3240397 0.88553977 0.46456325 -0.00062755961 0.0013440172
0.19585487 -0.094930097 -0.32731831 -0.88658112 0.46256986 0.0017483603 0.00022441735
-0.20163971 -0.084764846 -0.32603395 0.92331326 0.3839483 -0.0087415399 0.0021997218
0.20108846 -0.085280016 -0.32110822 -0.91766542 0.39735368 0.00048377132 0.0018108463
-0.20454121 -0.074986741 -0.3224225 0.94950086 0.31369463 0.0066139586 0.00086485193
0.20543437 -0.075718991 -0.32601842 -0.94422859 0.32923254 -0.0061818631 0.0015530292
-0.2085582 -0.061449427 -0.32169673 0.95962578 0.2812798 -0.00022601079 3.1112078e-05
0.20854327 -0.062742047 -0.32441667 -0.96273077 0.27042201 -0.0046183565 0.00070992042
-0.21147446 -0.051621579 -0.32414019 0.96579558 0.25928956 0.0028066137 0.00058730168
-0.20965999 -0.057736322 -0.32174298 0.9609381 0.27676326 -0.0003123646 0.00014154312
0.2101642 -0.055976123 -0.32721928 -0.97229218 0.23376863 -0.00021527191 0
-0.21286002 -0.046952266 -0.32650119 0.96944767 0.24529794 0.00025834245 0.00076994632
0.21220337 -0.047464445 -0.32899818 -0.97301763 0.23072974 -0.00062013796 3.6802241e-05
-0.21613432 -0.034778707 -0.32533559 0.98637527 0.16435736 -0.0071016876 0.0021359136
0.21549764 -0.033713784 -0.32195559 -0.98292339 0.18399806 0.0025105961 0.0015073298
-0.2168555 -0.024148006 -0.32689071 0.99569237 0.092718661 -0.00010496732 0.0016941135
0.217628 -0.022954 -0.32720143 -0.99507594 0.098676234 -0.0093207182 0.0026624447
-0.2170931 -0.015237632 -0.32374191 0.99949086 0.031898148 -0.00075314107 5.4910412e-05
0.21787371 -0.014037222 -0.32571185 -0.99941158 0.033854578 -0.0055127479 0.0012341114
-0.21739526 -0.0039053527 -0.3263768 0.99971509 0.023869127 0.00035970955 7.9214233e-06
0.21760432 -0.0039344067 -0.32231292 -0.99996734 -0.0079558836 -0.0014070767 0.00053139217
-0.21760379 0.0039141369 -0.32625547 0.99983168 0.01813763 -0.0027659996 7.5051452e-05
0.21736379 0.0050865919 -0.3259238 -0.9997046 -0.024302835 -0.00010027962 6.5685558e-06
-0.21784274 0.012875784 -0.32654834 0.9996646 -0.025734561 0.0028922476 0.0013003385
0.21704169 0.017166236 -0.32600844 -0.99827474 -0.058611054 0.0035162591 0.00079475966
-0.21783555 0.023035958 -0.32190108 0.99427009 -0.10652767 0.0088801784 0.0027125392
0.21676721 0.027459493 -0.32508567 -0.99400628 -0.10931279 -0.0014696829 0.0017479042
-0.21468705 0.037097324 -0.3246229 0.97948915 -0.20144987 -0.0043537063 0.00069131446
0.21622504 0.035457693 -0.3255626 -0.98334616 -0.1817397 0.0010630741 0.001957691
-0.21258871 0.045855977 -0.32476854 0.97329378 -0.22955826 -0.0014898099 2.5150595e-05
0.21319033 0.04583915 -0.3264347 -0.97340715 -0.22907048 0.0022641185 0.001259384
-0.21123871 0.051491 -0.32521123 0.97258711 -0.23253861 -0.00035254893 0
0.20983203 0.057156608 -0.32224205 -0.95893979 -0.28360969 -0.00029564532 1.691109e-05
-0.20803209 0.064875714 -0.32375148 0.9609676 -0.27642384 -0.01145114 0.00095131085
0.2076911 0.064371541 -0.32478458 -0.95846963 -0.28519475 -7.4100237e-05 2.633192e-05
-0.20548043 0.075438507 -0.32412452 0.94305205 -0.33263889 0.0020525458 0.0019370785
0.20521702 0.072709255 -0.32625085 -0.95224988 -0.30531818 0.0010274646 0.00033342838
-0.20215423 0.083314866 -0.32806289 0.92130595 -0.38881823 -0.0039621145 0.0017771516
-0.19909282 0.088959724 -0.32218662 0.90423185 -0.42702174 -0.0041602352 0.0015278996
0.20179448 0.084243298 -0.32588866 -0.92869097 -0.37085399 -0.00065032416 0.0021865042
-0.19509898 0.096323907 -0.32569328 0.88309366 -0.46919671 0.00024830867 0.00011444886
0.19778803 0.093381085 -0.32561958 -0.89415979 -0.44769394 0.0069550066 0.0018535934
-0.19177854 0.10244638 -0.32328817 0.87904567 -0.47673771 -1.2169236e-05 0
0.18923491 0.10732353 -0.32171673 -0.85816997 -0.51336569 2.5712663e-05 0.00016253704
0.1918762 0.10301795 -0.32448578 -0.86530662 -0.50124198 0.00096336775 0.00053072342
-0.18604977 0.11300948 -0.32495454 0.8695339 -0.49387172 -0.0012810121 0.00047089896
0.18505867 0.11413123 -0.32376492 -0.85239255 -0.52290237 -5.5466148e-06 0
-0.18074794 0.12278542 -0.3244499 0.83115113 -0.55604631 0.0004992194 0.0020017165
-0.17920011 0.12563942 -0.32388619 0.81873149 -0.57409847 0.0094723469 0.002499731
0.17793766 0.12573919 -0.32377517 -0.83319563 -0.55297494 -0.0019186588 0.00096796476
0.18108134 0.12061467 -0.32512709 -0.84734213 -0.53104717 -0.0004984173 0.00017225542
-0.17253141 0.13403262 -0.3242034 0.77160001 -0.63610733 -0.00096205121 0.0013751958
-0.16768998 0.13913934 -0.32324743 0.75689071 -0.65348244 -0.0087865843 0.00083423191
0.17340264 0.13313168 -0.32078367 -0.79987913 -0.60014516 -0.0043807416 0.0022705295
-0.1628006 0.14429662 -0.32546324 0.73605365 -0.67692244 -0.00096010958 0.00018630648
-0.15927179 0.14801875 -0.32326683 0.72852486 -0.68501937 8.3844017e-05 9.163082e-05
0.1586924 0.14915258 -0.32959598 -0.70551014 -0.70869839 0.0014679336 0.00057789619
0.16585812 0.14235911 -0.32569507 -0.74721795 -0.66456634 -0.0041040191 0.0019597074
-0.15314604 0.15448014 -0.32155204 0.71840042 -0.69562131 0.0034307265 0.00015498328
0.14849606 0.15881927 -0.32724074 -0.68753219 -0.72615385 2.8597793e-05 1.5428257e-05
0.15402746 0.15357521 -0.32483864 -0.69462061 -0.7193746 -0.0015372339 0.00014571108
-0.14244685 0.16576554 -0.32315189 0.66885155 -0.74338651 0.0037587616 0.0023518368
-0.13918598 0.16920508 -0.32829505 0.63133115 -0.77549183 -0.0057749571 0.0025904807
0.13891093 0.16790651 -0.32908466 -0.65712082 -0.75377429 0.0040898202 0.0010043251
0.14450116 0.16260666 -0.32610178 -0.68631375 -0.72730482 0.0010319073 2.1353437e-05
-0.13318229 0.17337161 -0.32865492 0.59549373 -0.80335993 0.00034942286 0.0017603621
-0.12367682 0.17920282 -0.3256734 0.54297197 -0.83974892 0.0018120043 0.00049486861
0.12854224 0.17762326 -0.32681277 -0.58703226 -0.80955434 -0.0038507092 0.0027846936
0.1335317 0.17300631 -0.32251838 -0.62723488 -0.77882785 -0.0019111573 0.0019236925
-0.1141413 0.18505248 -0.32632488 0.52439284 -0.85147637 0.00030628045 0
-0.1077664 0.18896322 -0.32144269 0.51224089 -0.858841 -0.0011552196 0.00019961855
0.11366642 0.1856935 -0.32643247 -0.49524248 -0.86874187 -0.0047401646 0.00048959424
0.12027813 0.18210773 -0.32974154 -0.52867371 -0.84881568 -0.004019558 0.0012968431
-0.10301995 0.19187498 -0.32626539 0.49952126 -0.86627859 -0.006316008 0.00062702532
-0.092028834 0.19861758 -0.32643956 0.45683819 -0.88953453 -0.0052118208 0.0017583405
-0.089961596 0.19988577 -0.32791731 0.4520826 -0.89194661 -0.0072441697 0.0015799297
0.088999487 0.19907124 -0.32220379 -0.43673956 -0.89958721 0.0011351076 0.0012830039
0.096950606 0.19475907 -0.32522458 -0.4725827 -0.88128603 -0.0007422014 4.3456457e-05
0.10276373 0.19160642 -0.32445085 -0.47612387 -0.8793782 0.00018915116 3.2987225e-06
-0.083456367 0.20202798 -0.32529601 0.37361953 -0.92748928 -0.013116545 0.0027729247
-0.076707527 0.20403059 -0.32085735 0.32048371 -0.94724745 -0.0035370949 0.0012249163
-0.061279368 0.20860867 -0.32305896 0.28250048 -0.95926714 6.3042662e-06 1.3225563e-05
-0.058391232 0.20946567 -0.32686487 0.28221881 -0.95935005 -0.00029876051 0
0.05728744 0.20985004 -0.32962084 -0.24613236 -0.96923625 1.9853971e-06 0.00021548447
0.064215407 0.20819029 -0.32368177 -0.27618432 -0.96110046 0.0028421406 0.00093871995
0.078386165 0.20458546 -0.32470936 -0.34998572 -0.93674386 -0.0045754872 0.0023538913
0.081967838 0.20288476 -0.32120779 -0.38868919 -0.92136252 -0.0034589611 0.0020461986
-0.050432704 0.21182725 -0.32159722 0.25809738 -0.96611822 0.0010977512 0.00068137335
-0.048381846 0.2124358 -0.32553425 0.25481138 -0.96698785 -0.002411983 0.00061295129
-0.034225978 0.2162265 -0.32576016 0.16301334 -0.98661739 -0.0035797558 0.0020592562
-0.024787204 0.21683845 -0.32472318 0.091867767 -0.99577022 0.0013899774 0.0017033119
-0.01135214 0.2171967 -0.32478216 0.030933756 -0.99952096 -0.00098702661 2.2856491e-05
-0.0026247024 0.21742944 -0.32486054 0.020710459 -0.99978524 0.00072796521 4.1348114e-05
0.0035925671 0.2175952 -0.3289983 0.019001579 -0.99981952 7.6270306e-05 8.2536513e-05
0.015684187 0.21791764 -0.3241474 -0.050606046 -0.99870038 0.0060489583 0.0014789738
0.022846607 0.21794221 -0.32407731 -0.09976209 -0.99500465 0.0036379595 0.0018642067
0.034556553 0.21529573 -0.3256692 -0.19470575 -0.98085487 -0.0036535051 0.00074456231
0.041924268 0.21353063 -0.32310379 -0.22383858 -0.97462595 0.00063765579 0.00020578332
0.052052971 0.21110408 -0.32352868 -0.23340447 -0.97237968 -3.68697e-05 0
-0.054735001 -0.21046154 -0.31409705 0.24083331 0.97056568 0.0012949513 9.1479342e-05
-0.044365637 -0.21294574 -0.31370321 0.2223608 0.97496259 0.0019110176 0.00019885857
-0.037250694 -0.21465027 -0.31655279 0.21212719 0.97724205 1.3155898e-05 0.00046289107
-0.024639215 -0.21764994 -0.31287742 0.10877206 0.99406654 0.00056661828 0.0020943277
-0.015017917 -0.21789986 -0.31629279 0.048690543 0.99881268 0.0015853209 0.002215727
-0.0018715775 -0.21754932 -0.31493607 -0.017271161 0.99985051 0.00081675895 9.2902286e-05
0.0065903361 -0.21732368 -0.31657284 -0.026656341 0.99964464 -1.9569419e-05 0
0.014756419 -0.21710594 -0.3134737 -0.044319928 0.99900961 -0.0039518401 0.00024876391
0.021333598 -0.21693054 -0.31499627 -0.066334896 0.99779546 -0.0019708015 0.00091000582
0.037930891 -0.21553695 -0.31246948 -0.1796778 0.98370594 -0.0062062726 0.0020844943
0.047163267 -0.2127974 -0.31315768 -0.24271223 0.97009832 9.8909193e-05 0.00091089937
0.051158302 -0.21161193 -0.31505772 -0.26408809 0.96449757 0.0013609831 0.00056232623
-0.082786366 -0.20244086 -0.31633571 0.38628513 0.92237097 -0.0039439062 0.002539112
-0.064926639 -0.20801991 -0.31462091 0.26870367 0.96321708 0.0033246349 0.00052537327
-0.058200773 -0.20963123 -0.31420416 0.24974658 0.96831125 -0.00020229715 0.00021741216
0.057718653 -0.20966525 -0.31473273 -0.28404483 0.95881093 0.00034773734 2.7962767e-06
0.060079556 -0.20896471 -0.31653881 -0.28409308 0.95879662 0.00018080354 6.3584721e-06
0.073917687 -0.20485844 -0.31712279 -0.3044889 0.95250714 -0.004086934 0.00042482375
0.083737656 -0.2019445 -0.31627738 -0.37260869 0.92798847 -0.00030867886 0.0021810553
-0.10481569 -0.19049355 -0.31670105 0.47700021 0.87890327 0.00013380407 2.0589876e-05
-0.093927659 -0.19639853 -0.31477195 0.46704301 0.88422978 -0.0029204707 8.3682004e-05
