# .PCD v0.7 - Point Cloud Data file format
VERSION 0.7
FIELDS x y z normal_x normal_y normal_z curvature
SIZE 4 4 4 4 4 4 4
TYPE F F F F F F F
COUNT 1 1 1 1 1 1 1
WIDTH 555
HEIGHT 1
VIEWPOINT 0 0 0 1 0 0 0
POINTS 555
DATA ascii
-0.14466678 0.015659073 -0.10429685 0.99393004 -0.10998324 0.0026055407 0.0011069153
0.14499512 0.013165114 -0.10623637 -0.99642926 -0.084400423 0.0023042879 0.001683981
-0.14366207 0.02329066 -0.10694214 0.9860698 -0.16633201 0.00030910884 0.0011938722
0.14349702 0.024544265 -0.10590067 -0.98713678 -0.15978973 -0.0053183776 0.0011199956
-0.14197598 0.035680927 -0.10587844 0.96900988 -0.24686733 -0.0087404782 0.0024204212
0.14228442 0.033754949 -0.10424998 -0.97397155 -0.22665967 0.0021802231 0.0020643657
-0.14019158 0.041687042 -0.10339473 0.96146935 -0.27486041 0.0053407564 0.0027699429
-0.13950884 0.043335311 -0.10701112 0.95477563 -0.29732677 -0.00045935027 0.0025916777
0.13835029 0.046132285 -0.10658866 -0.94330049 -0.33193961 0.00051218912 0.0015063293
-0.13609938 0.051566467 -0.10613671 0.93359578 -0.358311 0.0034742272 0.0014309908
0.13400817 0.056615092 -0.10603092 -0.92163211 -0.38806221 -0.0014079921 0.00058740098
-0.1315475 0.062555678 -0.10540998 0.90340209 -0.42878023 0.0034803427 0.0014619124
0.12956028 0.067353249 -0.10599121 -0.88888711 -0.45807251 -0.00701351 0.0018980898
0.13177358 0.062009871 -0.10543059 -0.9009366 -0.43394795 0.0015515391 0.0015908976
-0.12362643 0.077852555 -0.10215375 0.84627515 -0.5327307 0.004028609 0.0019668376
0.1275751 0.071665093 -0.10293122 -0.87097049 -0.4911828 0.012238473 0.0021397562
-0.12090286 0.081401981 -0.10752553 0.82881707 -0.55951834 0.0011955715 0.00135532
-0.1168916 0.086629547 -0.10807683 0.80850929 -0.58847976 -0.0020985147 0.0012687417
0.1162541 0.087460347 -0.10672758 -0.79780936 -0.60290736 0.0017276157 0.00126589
0.12116212 0.081064083 -0.10666839 -0.82951152 -0.55846727 0.004994303 0.0012906885
-0.11034079 0.095166728 -0.10449477 0.75884664 -0.65126592 -0.0021193896 0.0012991197
-0.10878935 0.097188607 -0.10464242 0.74948114 -0.66200238 -0.0055547305 0.0013055952
0.11206277 0.092922606 -0.10534663 -0.7633152 -0.64602596 -0.00047414799 0.001210005
-0.10152522 0.10546175 -0.10496023 0.68363035 -0.72976673 -0.0094936518 0.0021273706
-0.097408652 0.10862049 -0.10493268 0.66979152 -0.74254453 0.0026372352 0.0019618012
0.097173497 0.10880093 -0.10348237 -0.6686874 -0.74353606 -0.0033810509 0.0020477416
0.10255726 0.1046324 -0.10506217 -0.69782776 -0.71624559 -0.0053555067 0.0023011093
-0.091787264 0.11293395 -0.10464112 0.62292945 -0.7822777 0.00067242514 0.0009389316
-0.084818885 0.11828096 -0.10745024 0.57955855 -0.81492883 0.0017377713 0.00098663825
0.087796822 0.11599591 -0.10515803 -0.60010201 -0.79992342 0.00026675931 0.00032430983
0.091758445 0.11295605 -0.10521989 -0.63536173 -0.77220821 0.0031475718 0.0016050879
-0.081293799 0.12098586 -0.10726947 0.56802106 -0.82300895 -0.0028879337 0.0008653432
-0.075591236 0.12516171 -0.1031846 0.52398509 -0.85172302 -0.0027217853 0.0020905756
-0.068481587 0.12909292 -0.10794479 0.46587208 -0.88483113 -0.0060786437 0.0019394562
0.068321481 0.12915923 -0.10452831 -0.46756813 -0.88388222 0.011501193 0.0019572212
0.07570783 0.12522648 -0.10504589 -0.53029239 -0.84780681 0.0036751025 0.0018632287
0.080912337 0.12127855 -0.10833591 -0.56920671 -0.82219392 0.00088463922 0.0011441013
-0.063830405 0.13101949 -0.10974117 0.4443216 -0.89586723 -0.00029173712 0.0014842474
-0.052430555 0.13574147 -0.10592243 0.36588636 -0.93065375 -0.0032737865 0.00073698326
-0.046791494 0.13807723 -0.10393778 0.33585981 -0.94191176 0.00066937535 0.001219205
0.047096603 0.13795085 -0.10666674 -0.32533041 -0.94559854 -0.0018902359 0.0016312003
0.054483894 0.13489093 -0.1036029 -0.38847607 -0.92145842 -0.00086949964 0.00033019588
0.062157404 0.13171248 -0.10583255 -0.4244923 -0.90542573 -0.0032320002 0.001033861
-0.034482848 0.1421576 -0.10406117 0.22297512 -0.97482407 3.6360114e-05 0.0018547457
-0.02561005 0.14335671 -0.1050741 0.18125862 -0.98343492 0.0010602741 0.0016878441
-0.014579354 0.14480893 -0.10531054 0.10240673 -0.99474239 0.00054865907 0.0012060581
-0.0064085722 0.14588463 -0.10347533 0.056663234 -0.99838406 0.0043170997 0.0017445756
0.0042152666 0.14617339 -0.10357827 -0.02059287 -0.99978179 0.0035122246 0.0020381249
0.014755822 0.1447857 -0.10242102 -0.10589822 -0.99435639 0.0063978177 0.0011235427
0.025535859 0.14336649 -0.10444397 -0.17203704 -0.9850716 0.006094445 0.00087879336
0.037542496 0.1416042 -0.1053747 -0.27422473 -0.96164495 0.006308862 0.0029192709
0.040703129 0.14059912 -0.10490143 -0.28515869 -0.9583751 0.014203549 0.0027006571
-0.041828997 -0.14013276 -0.09500622 0.28742963 0.95779854 0.0024681487 0.0025237743
-0.034413349 -0.14216614 -0.094854817 0.24338509 0.96992838 -0.0016466919 0.0024248336
-0.025081672 -0.14342625 -0.094757266 0.16302462 0.98662204 -0.00026189507 0.0009603228
-0.015920922 -0.14463231 -0.093477331 0.1218386 0.99254477 -0.0031913214 0.00050378713
-0.0046277982 -0.14611907 -0.094633102 0.025972201 0.99963999 0.0067348834 0.0021821908
0.0043547675 -0.14615503 -0.097574286 -0.0378621 0.99928272 -0.00073470274 0.0023045288
0.018277712 -0.14432202 -0.094710514 -0.13936251 0.99024117 0.0007575053 0.00085600908
0.024616348 -0.14348753 -0.096695639 -0.16288273 0.9866395 0.0034120441 0.00097529037
0.033465967 -0.14232245 -0.096158437 -0.22703964 0.97387689 -0.0041121282 0.0023630967
0.040710919 -0.14059587 -0.092755951 -0.28441823 0.9586969 0.0025678431 0.0026479033
-0.061576098 -0.13195324 -0.092609465 0.41628087 0.90921617 0.0060192952 0.0013328057
-0.055782598 -0.13435298 -0.094736479 0.39235407 0.91981214 0.0020043764 0.00051064882
-0.045852143 -0.13846631 -0.096252955 0.3284525 0.94452035 0.00050676329 0.0015091423
0.045596905 -0.13857204 -0.096124098 -0.31734717 0.94830596 -0.0025845622 0.0019275926
0.056740839 -0.13395606 -0.09688846 -0.39695746 0.91783273 -0.0028082826 0.00074448815
0.063027106 -0.13135222 -0.095334195 -0.44101304 0.8974995 -0.0014635263 0.0015550214
-0.080698609 -0.12144254 -0.093456313 0.55532998 0.83162433 -0.0030924713 0.0018643219
-0.074053623 -0.12654142 -0.097014748 0.51505876 0.85714698 -0.0036578975 0.0016285141
-0.068822995 -0.12895148 -0.094869383 0.47031733 0.8824957 0.0017255209 0.0020705063
0.068083525 -0.12925775 -0.094727568 -0.45662051 0.88965863 -0.0022889946 0.0016179096
0.073730037 -0.1264303 -0.094742022 -0.51527828 0.85702056 -0.002033124 0.0021084577
0.081765719 -0.12062372 -0.093853496 -0.56006891 0.82844013 -0.0031344632 0.0014607209
-0.09274061 -0.11220239 -0.093452178 0.63318348 0.77397299 -0.0066734669 0.0014477581
-0.086394727 -0.11707177 -0.094475031 0.58900338 0.80813026 -0.00076475838 0.0012083687
0.08735463 -0.11633521 -0.094615124 -0.60894698 0.79318631 -0.0062444755 0.0011983674
0.094162598 -0.11111126 -0.094602011 -0.6482529 0.76142251 0.0019927041 0.001329039
-0.10398305 -0.10306389 -0.095714502 0.71310294 0.70105892 0.00073039345 0.0025114613
-0.098327324 -0.10791557 -0.093005776 0.68038803 0.73283988 0.0042245495 0.0018040342
0.096842356 -0.10905501 -0.093441844 -0.65824592 0.75280148 0.0015280853 0.0013324011
0.1039286 -0.10317242 -0.097034909 -0.70882177 0.70538431 -0.0021623932 0.0025665006
-0.11249913 -0.092353918 -0.093358345 0.76603353 0.64279199 -0.003315412 0.00093478512
0.10889465 -0.097051352 -0.095789105 -0.73610556 0.6768378 0.0062620742 0.001715754
0.11190679 -0.093125857 -0.092068084 -0.76826197 0.64012873 -0.0029657825 0.0012974209
-0.12103423 -0.08123076 -0.092388868 0.83067429 0.55675679 0.0014387247 0.0016174706
-0.11633582 -0.087353818 -0.095003098 0.80222917 0.5969826 -0.0063271299 0.001046754
0.11691476 -0.086599328 -0.093206145 -0.80588377 0.59207278 0.001068241 0.00094699656
0.12128347 -0.080905937 -0.098310187 -0.83052754 0.55697286 -0.0023044685 0.0017022855
-0.12596817 -0.07464879 -0.094423227 0.86434305 0.50288546 -0.004160509 0.0019767717
0.12746742 -0.072388612 -0.094204791 -0.86830276 0.49592483 0.010433055 0.0023495792
-0.13107523 -0.063695811 -0.094808586 0.89502478 0.44601643 0.0001895179 0.0017587849
-0.12986685 -0.0666131 -0.09484525 0.89079905 0.45439744 5.7294605e-05 0.0017290553
0.1294059 -0.067725942 -0.093824431 -0.88951582 0.45690385 -0.00071450043 0.0019145317
0.13089566 -0.064129338 -0.096000113 -0.89315516 0.44973293 0.003765512 0.0016723517
-0.13427484 -0.055971302 -0.096428216 0.91766053 0.39736494 -0.00042266955 0.00076561962
0.13446614 -0.055509463 -0.095356032 -0.91658103 0.39979771 0.0064065433 0.00072978775
-0.13756603 -0.048025664 -0.093545951 0.93815184 0.34622374 0.00048720062 0.0013188918
0.13864227 -0.045427397 -0.092556752 -0.94603431 0.32398775 0.0071409298 0.001611206
0.14073834 -0.04036703 -0.094953693 -0.96032798 0.27885357 0.0032865452 0.0025278956
-0.1420738 -0.035097439 -0.093790494 0.97585875 0.21824883 -0.0081965867 0.0021101004
0.14192088 -0.03620781 -0.095328145 -0.96993351 0.24332851 -0.004505198 0.0020499791
-0.14329949 -0.026044721 -0.094014563 0.98411435 0.17753579 -0.00010439195 0.00085993088
0.14391994 -0.021331934 -0.095872432 -0.98979914 0.14244193 -0.0028142519 0.0012499583
-0.14473827 -0.015116097 -0.094640136 0.99331248 0.11539181 -0.0038747767 0.00047734758
0.14475942 -0.01495536 -0.09382166 -0.99487954 0.10097817 0.0042718505 0.00073704025
-0.14588761 -0.0063859504 -0.094777502 0.99877274 0.048486546 0.010100301 0.0016267344
0.14633515 -0.0029865082 -0.097346425 -0.9998973 0.013913188 -0.0034411887 0.0022383681
-0.1460412 0.0052193059 -0.093664393 0.99879587 -0.048254367 0.0088460753 0.0012585389
0.14606829 0.0050136633 -0.095122628 -0.99935913 -0.035691004 -0.0027412057 0.0019725647
-0.14476608 0.014904797 -0.095718943 0.99443346 -0.10523371 -0.0052777794 0.00099167798
0.14519885 0.011617579 -0.093633115 -0.99768043 -0.06807138 -1.0526178e-05 0.0015796378
-0.14345571 0.024858039 -0.094281733 0.98625153 -0.16524743 -0.0010751549 0.00065604679
0.14369501 0.02304031 -0.095100589 -0.9882068 -0.1531011 0.0027286962 0.00074098015
-0.14219476 0.034395915 -0.096161 0.97550738 -0.21987191 -0.0064574801 0.0020951175
0.14222769 0.034185715 -0.094135791 -0.97480083 -0.22296065 0.0072068865 0.0021839202
-0.14036122 0.041277498 -0.092967272 0.95794231 -0.28695211 0.0022388317 0.0025167023
-0.13864109 0.045430239 -0.092367619 0.94352692 -0.33128548 -0.0026252852 0.0014476335
0.13840292 0.046005208 -0.095209852 -0.94645089 -0.32283226 -0.0031783339 0.0017674484
0.14015436 0.041776855 -0.097205818 -0.9507243 -0.309899 -0.0092721367 0.0018077426
-0.13459513 0.055198051 -0.094137423 0.92059016 -0.39052454 0.0020975603 0.0005357936
0.13429132 0.055931538 -0.092977121 -0.92006588 -0.39175296 -0.0028881386 0.00080343592
-0.13115063 0.063513771 -0.097096406 0.89666098 -0.44271365 -0.0019143464 0.0016899935
-0.12902647 0.06864199 -0.093534604 0.88259512 -0.47013164 -0.0014916618 0.0021246213
0.12917645 0.068279877 -0.092650771 -0.88670963 -0.46223944 0.0089892708 0.0020000052
0.13140467 0.062900506 -0.096166559 -0.89857531 -0.4388105 -0.002802274 0.0013546353
-0.12662268 0.073607251 -0.094582126 0.86419469 -0.50314361 -0.0037535306 0.0022088112
0.12493668 0.07601735 -0.096722551 -0.84495389 -0.53481549 -0.0050338409 0.0017802023
-0.12126255 0.080933206 -0.095571518 0.8304795 -0.55704403 0.0023968918 0.0014882141
-0.1170921 0.086368263 -0.097693861 0.80786353 -0.58936119 -0.0031216342 0.0010754929
0.1159206 0.087894954 -0.093015596 -0.79718459 -0.60369515 0.0070010312 0.0010222741
0.12128016 0.080910251 -0.092477694 -0.8350144 -0.55022722 0.0010197567 0.0016751034
-0.11293494 0.091785967 -0.092499815 0.77413553 -0.6330049 -0.0043570241 0.0014253164
-0.10767648 0.098638929 -0.095788144 0.73896158 -0.67374605 -0.001409017 0.0018263181
0.10903347 0.096870452 -0.093400232 -0.75445825 -0.65632105 0.0059558013 0.0013597634
0.11262722 0.092186972 -0.095480263 -0.77309781 -0.63427234 0.0042896033 0.0014290666
-0.10332431 0.10364675 -0.095717773 0.70622927 -0.70792991 -0.0086923307 0.0024570036
-0.097768866 0.1083441 -0.094553858 0.6594708 -0.75172693 -0.0022245336 0.0018892732
0.09945567 0.10704976 -0.095225871 -0.68036413 -0.73286545 0.0035877319 0.0017284317
0.10376964 0.10330238 -0.096281238 -0.70985854 -0.70433807 -0.0029593825 0.0021723076
-0.092872277 0.11210138 -0.090766013 0.6455524 -0.76371557 0.00082274043 0.0010660447
-0.087171704 0.11647559 -0.093898341 0.5912863 -0.80645972 -0.0018155589 0.00097380485
0.08546035 0.11778874 -0.098280147 -0.58133662 -0.81366259 -0.00098237628 0.000873096
0.094160028 0.11111324 -0.095273517 -0.65112597 -0.75896376 0.0030050986 0.001240273
-0.08010605 0.12189724 -0.096424133 0.56572562 -0.82458276 -0.0042263009 0.001001699
-0.073910102 0.12636375 -0.094912648 0.51949781 -0.85446411 0.0036208627 0.001885152
-0.06839738 0.12912777 -0.096097171 0.4632785 -0.88620561 0.0035662437 0.0019167337
0.067431025 0.12952806 -0.096320808 -0.45588735 -0.89002991 0.003666227 0.0016886181
0.074602477 0.12591761 -0.09580256 -0.51938015 -0.85452735 0.0052195936 0.001844818
0.081549153 0.12078991 -0.094963282 -0.57483083 -0.81826234 -0.0040342398 0.00093078747
-0.061679922 0.13191023 -0.09509553 0.440413 -0.8977918 0.0025039893 0.001565039
-0.052761644 0.13560431 -0.097603045 0.35646403 -0.93430901 0.00039997869 0.0011594066
-0.044592958 0.13898791 -0.095828384 0.32345045 -0.94624436 -0.0012099991 0.0013640508
0.046504546 0.1381961 -0.095324092 -0.33957773 -0.94057661 -0.0015855094 0.001319611
0.055104848 0.13463373 -0.090763114 -0.39122903 -0.92029327 -0.00017350886 0.00044731196
0.063249983 0.1312599 -0.09608122 -0.43411574 -0.90083528 0.0062694266 0.0013060753
-0.041108094 0.14043137 -0.095752195 0.28017366 -0.95994723 -0.0020399457 0.0025121013
-0.037195448 0.14163741 -0.096874326 0.25069955 -0.96806192 -0.0024413597 0.0020895656
-0.024491193 0.14350401 -0.09480226 0.16961484 -0.98550498 0.0032673916 0.0012937395
-0.014834987 0.14477527 -0.095638365 0.099688709 -0.99501747 -0.0015129539 0.00094257528
-0.005026143 0.14606664 -0.093622684 0.035519868 -0.99936891 0.00050059363 0.0018034831
0.0039303494 0.14621088 -0.094219595 -0.025574818 -0.99967051 0.0021977858 0.002018868
0.014524775 0.14481613 -0.096085384 -0.10571633 -0.99439573 0.0010798163 0.0010356342
0.025502406 0.14337088 -0.09567742 -0.17304815 -0.98491198 -0.0016311983 0.00088062399
0.034720916 0.14204396 -0.094159693 -0.22215666 -0.9750104 -0.0010813836 0.0020048167
0.040550441 0.14066237 -0.099824101 -0.27923194 -0.96022367 -0.00023250206 0.0030247697
-0.040450998 -0.14070353 -0.086826295 0.27810699 0.96049184 -0.010581093 0.0024472722
-0.036143839 -0.14196992 -0.08402662 0.26815176 0.96334893 -0.0073106228 0.0027361475
-0.025841689 -0.14332622 -0.087036423 0.16963777 0.98550606 -0.00092381483 0.00068071397
-0.014322281 -0.14484277 -0.086440429 0.10796914 0.99414843 -0.0034115696 0.0011728747
-0.0047892928 -0.14609782 -0.086640909 0.032049332 0.99942464 -0.011098051 0.0019187586
0.0045715435 -0.14612648 -0.084769934 -0.038040679 0.99927342 0.0023541988 0.0015538112
0.014602439 -0.14480588 -0.085766919 -0.11009782 0.99391848 -0.0021080549 0.00094847736
0.025531908 -0.14336699 -0.085911803 -0.17330848 0.98486674 -0.0013059678 0.00072761893
0.035763588 -0.1419346 -0.083224982 -0.24554904 0.96938211 0.0020299261 0.0023455236
0.041069165 -0.1404475 -0.080809377 -0.27997169 0.95999235 0.0055191675 0.0024217803
-0.062465332 -0.1315849 -0.082837343 0.42995146 0.90284932 0.0021899675 0.0016090762
-0.055259984 -0.13456945 -0.0845116 0.39129254 0.92026573 0.0010945506 0.00075688923
-0.047229994 -0.13789558 -0.085004196 0.34281877 0.93938816 -0.0050259782 0.0011769693
0.045298349 -0.1386957 -0.085642993 -0.31562513 0.94887447 -0.0042332835 0.0020129781
0.055525534 -0.13445945 -0.085567147 -0.39207241 0.91993427 0.00018946064 0.00062215526
0.062167227 -0.13170838 -0.086128756 -0.42287663 0.90618646 0.0012309239 0.001369925
-0.082075596 -0.12038594 -0.081819825 0.56551808 0.82472962 -0.003206677 0.0013549291
-0.073940001 -0.12636037 -0.085460655 0.50912541 0.86069226 -0.00042081901 0.0021000772
-0.069486901 -0.12867647 -0.085976116 0.47755656 0.87860101 0.00026551777 0.0021125255
0.068848379 -0.12894095 -0.082952932 -0.47211334 0.88151079 0.0069113183 0.0020914678
0.073822774 -0.12648074 -0.085020296 -0.51556695 0.85681784 0.0073469239 0.0023655177
0.081273764 -0.1210012 -0.087078616 -0.55361265 0.83277422 0.00051002169 0.0015531507
-0.094018571 -0.11122178 -0.08341518 0.64862365 0.76110411 0.0028252858 0.0012061443
-0.087382525 -0.1163138 -0.084173277 0.59179688 0.80607539 -0.0043565328 0.00093199807
0.085670196 -0.11762771 -0.086607613 -0.5811373 0.81380421 -0.0014340789 0.00095415703
0.093556337 -0.11157647 -0.088255517 -0.65240061 0.75787199 0.0018983468 0.0012083746
-0.10317243 -0.10381129 -0.085470259 0.70599419 0.70811278 0.012185677 0.0026215923
-0.097881675 -0.10825751 -0.084348656 0.68351036 0.72989994 0.0077163386 0.0021433055
0.096981712 -0.10894807 -0.086263433 -0.66052908 0.75078589 -0.0046816017 0.0013067211
0.10563641 -0.10129758 -0.084456407 -0.72505939 0.68868554 0.0010960466 0.0019739121
-0.11230096 -0.092612147 -0.083966382 0.76707625 0.64154977 0.0028007315 0.0015676048
-0.10712633 -0.099355876 -0.08548177 0.7284326 0.6850161 0.011785284 0.0020805616
0.1083144 -0.097807534 -0.085841931 -0.73937464 0.67329335 0.0010784151 0.0018970504
0.11238454 -0.092503227 -0.086307332 -0.76508933 0.64390743 -0.0046252543 0.0013916751
-0.12067489 -0.081699051 -0.088844165 0.82518053 0.56486273 -0.0027089191 0.0013652262
-0.11723551 -0.08618132 -0.085177362 0.80536395 0.59277809 0.0017570595 0.0012940298
0.11875722 -0.084198207 -0.081384145 -0.81411994 0.58069617 0.00081519398 0.00082667521
0.12045275 -0.081988543 -0.086212799 -0.82362938 0.56711012 -0.0045558843 0.0013407439
-0.12561297 -0.07505998 -0.086805142 0.84756881 0.53063661 -0.0072000492 0.0017789614
0.12625869 -0.073926799 -0.084682524 -0.86147034 0.50780261 0.0023316133 0.0027181879
-0.13107403 -0.063698716 -0.084900454 0.89936537 0.43719706 0.00081079151 0.0016477648
-0.12923312 -0.06814304 -0.087460682 0.88487273 0.46579885 -0.0056284545 0.0022404271
0.12855145 -0.069788754 -0.085857749 -0.87452632 0.48492318 0.0072835297 0.0025575352
0.1314756 -0.062729269 -0.085634053 -0.89771193 0.44058266 0.00053488696 0.0017018775
-0.13402131 -0.056583364 -0.085831776 0.91768819 0.39730009 0.0010076382 0.00079323805
0.13410141 -0.056389973 -0.085930318 -0.92031151 0.39117298 0.0032301382 0.00060488738
-0.14033566 -0.041339152 -0.087271228 0.95749176 0.28840095 -0.0058709104 0.0025788222
-0.13883515 -0.044961743 -0.084191129 0.94522488 0.32633767 -0.0073264828 0.0014524895
0.13822259 -0.046440613 -0.083576232 -0.94332767 0.33184773 0.0031656497 0.0017795777
-0.14183368 -0.036281858 -0.085241683 0.96907711 0.24666183 -0.0068864059 0.0025849547
0.14155507 -0.037722412 -0.085452713 -0.96759278 0.25249061 -0.0035720477 0.0022854649
-0.1435077 -0.024463085 -0.085777074 0.98495024 0.17281389 0.0028939277 0.00086175668
0.14345329 -0.024876555 -0.084888779 -0.98499018 0.17255901 -0.0042046728 0.00087023043
-0.14517558 -0.011794453 -0.087030619 0.99654686 0.082971409 -0.0031869519 0.0015784244
0.14454104 -0.016614269 -0.084515959 -0.99403453 0.10905784 -0.0013285035 0.00083624671
-0.14581311 -0.006951835 -0.085592151 0.99846119 0.055183548 -0.0054774387 0.0017601253
0.14577027 -0.0072772573 -0.085276313 -0.99932259 0.036791205 0.00088293216 0.0015407056
-0.14582573 0.0068560001 -0.087337494 0.99831814 -0.057910599 0.0026648499 0.0014843699
0.14604783 0.0051689614 -0.085303083 -0.99960089 -0.027752785 -0.0052779717 0.0019843022
-0.14461035 0.016087789 -0.086138576 0.99412102 -0.10824111 -0.0026965747 0.00081868091
0.14412209 0.019796452 -0.082718715 -0.99051595 -0.13719788 0.007412991 0.0009003224
-0.14323737 0.026516689 -0.084564701 0.98440439 -0.17584218 -0.0052522644 0.00090226176
0.14330438 0.026007792 -0.084419243 -0.98508209 -0.17207792 0.0015876318 0.00090512238
-0.14213903 0.034859244 -0.085943542 0.97427261 -0.22530013 -0.0057290583 0.0020811313
0.14194298 0.035647433 -0.08614251 -0.96719545 -0.25400192 -0.0039963452 0.0021222334
-0.14042649 0.041119922 -0.086038731 0.95759505 -0.28799209 -0.0085012177 0.0026751338
-0.13733299 0.048588276 -0.083138674 0.93647814 -0.35071942 0.0021235065 0.0014058045
0.13887817 0.044857875 -0.086484805 -0.94837606 -0.31713852 -0.0024613929 0.0017033494
0.1402176 0.0416242 -0.08726348 -0.95184612 -0.30647069 -0.0080398023 0.0019760621
-0.13458337 0.055226441 -0.086212806 0.92052442 -0.39068449 0.00072575331 0.00063262071
0.13449891 0.055430371 -0.085620664 -0.91844976 -0.39553747 -0.00034444346 0.0010876189
-0.13104352 0.063772365 -0.085017532 0.89684278 -0.4423292 -0.0042368295 0.0016111748
-0.12914753 0.068349719 -0.083885491 0.885104 -0.46538347 0.0030469976 0.0020511416
0.12890592 0.068932995 -0.082320727 -0.88504583 -0.46548232 0.0044779168 0.0021293899
0.13118498 0.063430861 -0.081260808 -0.90057737 -0.4346931 0.0015631587 0.001401771
-0.12539074 0.075341716 -0.085262038 0.85676885 -0.51568723 0.0037172216 0.0022461612
0.12694721 0.073134474 -0.084391229 -0.85968417 -0.51080197 0.0049389405 0.0021907547
-0.12075792 0.081590861 -0.08711347 0.82817596 -0.56044203 0.0054172655 0.0013956212
-0.11726574 0.086141966 -0.08385887 0.81105602 -0.58495951 0.0032597322 0.0011963943
0.11875062 0.084206805 -0.084750541 -0.81818706 -0.57494384 -0.0031046069 0.00088280381
0.12140386 0.08074905 -0.085221574 -0.83577824 -0.5490641 -0.0018508493 0.0016165002
-0.11164507 0.093466952 -0.086704433 0.76148689 -0.64817643 -0.0022513317 0.0011640723
-0.10854993 0.097500607 -0.084069632 0.74485004 -0.66720372 -0.0061334237 0.0015638173
0.10889569 0.097050004 -0.085298806 -0.75662863 -0.65383911 -0.0027300969 0.001343983
0.11181681 0.09324313 -0.084005281 -0.76602554 -0.64280611 0.0022566356 0.0013788932
-0.10422752 0.10279454 -0.083731458 0.70774114 -0.70647192 -1.681235e-05 0.0025530164
-0.09818092 0.10802791 -0.086887844 0.66654474 -0.74546403 -0.0012520036 0.001600676
0.098871559 0.10749796 -0.089144096 -0.66748089 -0.74462694 -0.0001496508 0.0017092426
0.10315323 0.10406939 -0.085005738 -0.6966272 -0.71740735 -0.0061090393 0.002639154
-0.092780098 0.1121721 -0.085815117 0.64873904 -0.76100534 0.0029239838 0.0012746138
-0.085329607 0.11788907 -0.088322237 0.57591915 -0.81749755 -0.0038536261 0.0009184035
0.086340904 0.11711306 -0.088209823 -0.58154613 -0.8135134 0.00029456711 0.00072653353
0.092345662 0.11250545 -0.087297007 -0.64348912 -0.76545519 0.00021663224 0.001188735
-0.082528234 0.12003864 -0.087645203 0.57479966 -0.81826055 -0.0074112504 0.00098574744
-0.07601212 0.12494704 -0.083993435 0.53112382 -0.84729242 0.0017587406 0.0018997467
-0.067685723 0.12942258 -0.086425602 0.45986393 -0.88797879 0.0043178345 0.0016711714
0.066484541 0.1299201 -0.081911191 -0.44983801 -0.89310771 0.0021066982 0.0017118055
0.075515859 0.1253169 -0.084831096 -0.52588171 -0.85052878 0.0070120427 0.001864701
0.080993228 0.12121648 -0.085326731 -0.54981112 -0.83526963 0.0056892377 0.0014371643
-0.062483486 0.13157742 -0.081535675 0.42590961 -0.90475976 0.0032581754 0.0012163804
-0.054860737 0.13473484 -0.086289018 0.38161194 -0.92432266 0.00020070259 0.00030705045
-0.045060173 0.13879436 -0.08697702 0.32356742 -0.94617045 -0.0081021031 0.0012810006
0.045652278 0.13854912 -0.085560784 -0.33205712 -0.94325525 -0.0027631146 0.0015150032
0.054800436 0.13475981 -0.083178684 -0.393778 -0.91920555 -0.00028678015 0.00072396232
0.062935561 0.13139014 -0.083331674 -0.41975343 -0.90760845 0.0073381518 0.0011777462
-0.034400783 0.14214739 -0.085023254 0.23078977 -0.97300303 -0.0010976449 0.0016681746
-0.025316505 0.14339536 -0.082295336 0.16665076 -0.98601425 -0.0018427423 0.00062948541
-0.015398555 0.14470106 -0.084651582 0.11310679 -0.99357432 0.0041246833 0.00039193395
-0.0037040575 0.14624068 -0.08754845 0.029250542 -0.9995535 -0.0061057634 0.0022320242
0.0065716351 0.14586316 -0.087465778 -0.058981959 -0.99825823 0.0013005296 0.0017305363
0.01545376 0.14469381 -0.08451914 -0.11863808 -0.99293703 0.0010499442 0.00044395184
0.025804121 0.14333116 -0.086402729 -0.16631845 -0.98607135 -0.0011943741 0.00090636621
0.03522547 0.14209081 -0.084977388 -0.24066179 -0.97060031 -0.0041127289 0.0024550057
0.040835448 0.14054433 -0.087233372 -0.28588718 -0.95816553 -0.013691206 0.0025383004
-0.041481584 -0.14027666 -0.078421749 0.28200868 0.95941144 -0.00085547363 0.002449827
-0.03412899 -0.14213614 -0.073974356 0.22482759 0.97438991 -0.0041023204 0.0021212203
-0.025922734 -0.14331554 -0.076102681 0.17525889 0.98451364 -0.004153559 0.00082824769
-0.016673099 -0.14453328 -0.073977344 0.12959468 0.99156684 -0.00051895611 0.00075381645
-0.0054599312 -0.14600952 -0.074628204 0.045699444 0.99893957 -0.0055925222 0.0019501062
0.0056306757 -0.14598705 -0.073168412 -0.033430938 0.99943614 0.0031473476 0.0016549827
0.013334064 -0.14497286 -0.074530587 -0.12240691 0.99247956 0.00094585051 0.00045456839
0.022464003 -0.1437709 -0.074496068 -0.14720573 0.98909897 0.003716042 0.00093934662
0.035201412 -0.14200957 -0.076527297 -0.22500573 0.97433984 -0.005849096 0.0017949445
0.042036839 -0.14004666 -0.075559281 -0.2991108 0.95420063 -0.0058268467 0.0026711512
-0.064074308 -0.13091846 -0.073835388 0.44131842 0.89733398 0.0054535349 0.0016487387
-0.056530286 -0.13404329 -0.075065568 0.39943412 0.91676176 0.00056973321 0.00081093033
-0.045485742 -0.13861808 -0.073868707 0.32100847 0.94707024 0.0033791836 0.0017406724
0.047735061 -0.13768637 -0.075722367 -0.3389847 0.94078988 0.0019601805 0.0014444045
0.055003315 -0.13467577 -0.074602477 -0.38671768 0.92218214 -0.0054400209 0.00035943129
0.066230811 -0.13002518 -0.074851938 -0.44663 0.89471483 0.0026407253 0.0017430309
-0.08092545 -0.12126849 -0.0768755 0.55788815 0.8298943 0.0060304985 0.0017839109
-0.07482484 -0.12577438 -0.0744652 0.52892208 0.84858006 0.012376708 0.0018800879
-0.068901777 -0.12891883 -0.071046531 0.4707002 0.88229305 -0.00063218141 0.0021172485
0.068552025 -0.12906371 -0.075062625 -0.46411389 0.88575083 0.0066111884 0.0017964351
0.077783205 -0.1236796 -0.073939025 -0.53637213 0.84392625 0.0096610161 0.0017739418
0.081634954 -0.12072406 -0.076175183 -0.56857443 0.82261097 0.0058514052 0.00090822828
-0.093170665 -0.11187241 -0.07550592 0.64266968 0.766132 -0.004165146 0.001548773
-0.085762516 -0.11755688 -0.076385096 0.58618116 0.81017989 -0.00047811028 0.0010184337
0.087423049 -0.1162827 -0.077345595 -0.60417908 0.79684854 -0.00031553811 0.00085865275
0.093083516 -0.11193927 -0.078548878 -0.64713538 0.76236814 0.0032760547 0.0014575499
-0.10366521 -0.10338088 -0.073217355 0.70507079 0.70907146 0.0096373679 0.0022914032
-0.097579047 -0.10848972 -0.076266319 0.66394454 0.74777746 -0.0025418429 0.0017203265
0.09723483 -0.10875385 -0.079244137 -0.65645415 0.75436175 -0.0025283019 0.0011644533
0.10231628 -0.10455297 -0.07446298 -0.69970822 0.71442848 0.00057950785 0.0021371208
-0.11147772 -0.093685038 -0.075878844 0.76586527 0.64298636 0.0043481477 0.0013579207
-0.1092786 -0.096550964 -0.074913047 0.75418425 0.65662295 0.0072402419 0.0012834786
0.10945924 -0.09631557 -0.07004118 -0.75172853 0.65947056 0.0016694383 0.0013175574
0.11109338 -0.094185904 -0.074957378 -0.75725514 0.65311664 -0.0018531296 0.0012276564
-0.12110678 -0.081136189 -0.071974047 0.82110721 0.57077402 0.00016704004 0.00087008887
-0.11594188 -0.087867223 -0.07298062 0.79374754 0.60822332 0.0054096901 0.00096608483
0.11702316 -0.08645808 -0.075750582 -0.8120662 0.58356524 -0.00044167278 0.00069020165
-0.12455972 -0.07657735 -0.074776433 0.84959233 0.52742726 -0.0036491596 0.0018937207
0.12614889 -0.074402362 -0.07424935 -0.85724264 0.51491004 -0.0015941727 0.0021330887
-0.13069992 -0.064601891 -0.073655196 0.89523244 0.44555661 0.0061790072 0.0016227592
-0.12848091 -0.069959082 -0.0726308 0.8754428 0.48331061 0.003287663 0.0022672818
0.12858985 -0.069696039 -0.072576798 -0.88417584 0.46713281 -0.0044666501 0.0020309996
0.13103157 -0.063801244 -0.074266627 -0.89643872 0.44307643 -0.0089977123 0.0016661714
-0.13490032 -0.054461256 -0.075131446 0.92470467 0.38068384 0.0010557735 0.00035226048
0.13476205 -0.054795053 -0.076041341 -0.92389458 0.38263756 -0.0026937677 0.00015624831
-0.13771705 -0.047661055 -0.074503496 0.94450641 0.32824546 0.012746342 0.0014032188
0.13711849 -0.049106091 -0.073728181 -0.93747991 0.34795132 0.0078279255 0.0012799535
0.14005181 -0.042024449 -0.071721382 -0.95571095 0.29426202 0.0051439982 0.0026257306
-0.14222929 -0.03417372 -0.07602825 0.97572768 0.21898451 -0.001127374 0.0021649578
0.14197461 -0.035447981 -0.073943742 -0.96915042 0.24646108 0.0020628388 0.0021960812
-0.14367299 -0.02320773 -0.076156221 0.98551375 0.16959418 0.00063344702 0.00093749986
0.14343576 -0.025009619 -0.072691821 -0.98582357 0.1677421 0.0038050006 0.0010386978
-0.14461096 -0.016083123 -0.075909361 0.99354631 0.11327068 0.0059576784 0.0006195574
0.1447048 -0.015370345 -0.076075546 -0.99313915 0.11692203 -0.0019612976 0.00051611179
-0.14589036 -0.0063651139 -0.074864373 0.9991793 0.039940551 0.006740354 0.00181841
0.14605333 -0.0051272758 -0.074695505 -0.99937385 0.035226043 -0.00333421 0.0015545129
-0.14579768 0.0070689446 -0.073559858 0.99826729 -0.058836326 0.00085490075 0.0016109888
0.14623329 0.0037601611 -0.075572245 -0.99948233 -0.030762376 -0.0094191795 0.0022565818
-0.14452974 0.016700039 -0.074576437 0.99272764 -0.120377 0.001144927 0.0005494334
0.14463675 0.015887115 -0.074293859 -0.9931981 -0.11638475 0.0034744863 0.00050013122
-0.14367011 0.023229569 -0.07646054 0.98760271 -0.1569729 -0.00062711723 0.0012428634
0.14345787 0.024841782 -0.075896487 -0.984523 -0.17517889 -0.0051820786 0.00092727778
-0.1421127 0.034743086 -0.07381817 0.97113413 -0.23851126 0.0032866045 0.0023452528
0.14233837 0.033345118 -0.075561114 -0.97494704 -0.22243679 -0.00026751385 0.0021580204
-0.14072178 0.040407013 -0.073552899 0.95923442 -0.28261122 0.00049020397 0.0025764559
-0.13816868 0.046570748 -0.07210853 0.94463551 -0.3280994 -0.0038020033 0.0014639841
0.13740531 0.048413694 -0.073900715 -0.94051874 -0.33974123 0.00062087021 0.0011969839
0.1407298 0.040387645 -0.075310506 -0.9579221 -0.28702822 0.00026409852 0.0024194135
-0.13486937 0.054536015 -0.07528358 0.92579383 -0.37801608 0.0031152854 0.00020524314
0.13459367 0.055201601 -0.074779965 -0.92221147 -0.38668585 0.00025052155 0.0006816641
-0.13167691 0.062243234 -0.074948236 0.90059894 -0.43465033 0.00077209354 0.0016473773
-0.12971689 0.066975184 -0.077071212 0.89514697 -0.44576374 -0.002558795 0.0015656746
0.12957199 0.067325003 -0.075804301 -0.89455378 -0.44691375 -0.0064527765 0.0017054077
0.13117319 0.063459322 -0.075144708 -0.89749235 -0.44102749 -0.0014703438 0.00163383
-0.12614129 0.074407898 -0.075118586 0.8630771 -0.50506818 0.002002097 0.0021013038
0.12516898 0.075785846 -0.075810686 -0.84577924 -0.53352916 -0.0020248273 0.002030221
-0.12041365 0.082039505 -0.070772626 0.81828797 -0.57480681 0.0013873409 0.0010484426
-0.11704127 0.086434506 -0.075725526 0.80958205 -0.58700669 4.1096195e-05 0.0011970818
0.11733241 0.086055063 -0.076598875 -0.81596595 -0.5780974 -0.0017052458 0.001056027
0.12142348 0.080723472 -0.079677969 -0.83468473 -0.55072665 -0.0012466732 0.0016129735
-0.11176395 0.09331204 -0.076576658 0.76139027 -0.64828843 -0.0026589117 0.0011733505
-0.10729193 0.09914007 -0.074409135 0.73937267 -0.67329282 0.0022204358 0.0016234171
0.10806958 0.09812662 -0.07626234 -0.74330479 -0.66895002 -0.0019567292 0.0016906704
0.11179106 0.093276702 -0.073843755 -0.764566 -0.64453828 -0.003043659 0.0011878631
-0.1026892 0.10429587 -0.072666399 0.70417506 -0.71001959 0.0030930405 0.0024277736
-0.098431066 0.10783596 -0.074272335 0.66847211 -0.74371862 0.0052528181 0.0019149744
0.097183585 0.10879319 -0.074364685 -0.65690774 -0.75397092 -0.00025133957 0.0014363547
0.10405743 0.10321078 -0.073937863 -0.72052824 -0.6934219 0.0022652741 0.0021679564
-0.092741154 0.11220199 -0.076751895 0.64198643 -0.76671422 0.0016612225 0.0010009427
-0.087703764 0.11606733 -0.075647041 0.59877342 -0.8009184 -0.00030246822 0.0012610267
0.087654509 0.11610509 -0.073919266 -0.59521276 -0.80356544 -0.002068629 0.0012697222
0.092986919 0.1120134 -0.07062567 -0.64139295 -0.76721013 0.0019275383 0.0014048294
-0.081568256 0.12077525 -0.076128364 0.5733211 -0.81932527 0.0030107587 0.0010894082
-0.075832173 0.12493005 -0.075546272 0.5278641 -0.84932566 -0.0023367098 0.0020300199
-0.066972435 0.12971802 -0.077664211 0.46187434 -0.88694239 0.0022761915 0.0018505687
0.06880264 0.12895992 -0.074670143 -0.48141515 -0.87646574 -0.0068684011 0.0022347406
0.075266391 0.1254295 -0.075370692 -0.52369702 -0.85190344 -0.0013883167 0.0019882089
0.080644011 0.12148444 -0.078202948 -0.55096215 -0.83451903 0.0043375436 0.0017263565
-0.062429667 0.13159969 -0.075222991 0.44469878 -0.89566612 0.005018672 0.0017699234
-0.053603482 0.13525562 -0.073744155 0.36302829 -0.9317773 -0.0011885234 0.00096538494
-0.0464302 0.13822688 -0.074940071 0.33222374 -0.94316822 -0.0078133652 0.001302767
0.047326606 0.13785557 -0.076051779 -0.33077201 -0.94369632 -0.0052120127 0.0013781411
0.055256765 0.13457079 -0.073366508 -0.38885221 -0.92129982 0.00070446043 0.00060216489
0.062379308 0.13162056 -0.073372826 -0.42955235 -0.90303499 -0.003551262 0.0016777772
-0.035366803 0.14206474 -0.074386738 0.25647932 -0.96654677 0.0023857499 0.0023067209
-0.025906509 0.14331768 -0.075936034 0.18046081 -0.98358214 -0.00030612454 0.0011326785
-0.016272154 0.14458606 -0.074231245 0.10845152 -0.99409956 0.0021012146 0.00033502281
-0.0047848811 0.14609841 -0.0757498 0.027460352 -0.99958497 -0.0087069264 0.0019706481
0.0042656278 0.14616676 -0.073605239 -0.037081636 -0.99931204 0.00069055724 0.0016192007
0.016055835 0.14461453 -0.073325776 -0.12134775 -0.99260998 0.00043900171 0.00044108977
0.024338882 0.14352407 -0.074576899 -0.16052917 -0.98701602 -0.0054511651 0.00090122072
0.034541965 0.1421808 -0.076040998 -0.24547064 -0.96936208 -0.0090167904 0.0022499901
0.040853862 0.14053668 -0.074909151 -0.28304026 -0.95907098 -0.0084334537 0.0027591456
-0.041846372 -0.14012556 -0.062511019 0.29437271 0.9556905 0.00059996906 0.0024780163
-0.035606824 -0.14196075 -0.064223848 0.2444081 0.96967244 9.1752867e-05 0.0021281983
-0.027861908 -0.14306024 -0.068741813 0.18117188 0.98342735 -0.0068916664 0.00096150959
-0.014738999 -0.14478792 -0.062561035 0.098281816 0.99515855 0.00023650008 0.0014097485
-0.0032875352 -0.14629552 -0.064897396 0.018927913 0.99981314 0.0039422773 0.0022155652
0.0057872194 -0.14596643 -0.0647154 -0.046679657 0.99886882 0.0090509634 0.0017226816
0.014225255 -0.14485554 -0.063802317 -0.10613809 0.99434668 0.0030608771 0.0009494226
0.023589434 -0.14362271 -0.06717407 -0.1636439 0.98651916 0.00080015755 0.00078984437
0.033877529 -0.14226827 -0.063195057 -0.21471298 0.97665906 0.005941323 0.0018721677
0.040961374 -0.14049214 -0.06644655 -0.27925619 0.96021044 -0.0034575304 0.0030108856
-0.06381081 -0.13102758 -0.065516308 0.44304293 0.89648753 -0.0047977874 0.0016807223
-0.056589354 -0.13401882 -0.064010553 0.38801602 0.92165011 -0.0021579575 0.00052157353
-0.046999667 -0.13799098 -0.065612845 0.34018499 0.94035339 -0.0031053624 0.0012700072
0.044809643 -0.13889813 -0.065105289 -0.32456765 0.94586045 -0.0019894568 0.0017257687
0.054144144 -0.13503164 -0.065466471 -0.38587451 0.92254645 0.0029532334 0.00043068136
0.062685683 -0.13149363 -0.06560111 -0.43590415 0.89996856 -0.0066396645 0.0014021532
-0.076430254 -0.12459314 -0.065395057 0.53486651 0.84493172 -0.0028712414 0.0021467383
-0.068891428 -0.12892312 -0.066307552 0.46002847 0.88790292 -0.0014678225 0.0018708052
0.06795986 -0.129309 -0.065008081 -0.46303308 0.88633454 -0.0033832251 0.0021076547
0.077202223 -0.12411034 -0.064398065 -0.53478426 0.84498829 -0.00081645214 0.0019670057
0.081857204 -0.12055351 -0.06325312 -0.57524127 0.81797415 -0.0039769355 0.0010199773
-0.095313877 -0.11022787 -0.065901406 0.65081972 0.75921345 -0.0053592809 0.0011910235
-0.085834257 -0.11750184 -0.063725844 0.58143252 0.81359124 0.0023430462 0.00085119979
0.08675544 -0.11679496 -0.064041063 -0.59051949 0.80701584 0.0034823592 0.00090186269
0.091364712 -0.11325816 -0.063129902 -0.63472295 0.77273065 0.0037499745 0.0013314546
-0.10513766 -0.10194756 -0.06583754 0.72020257 0.69374919 -0.0045000403 0.002096554
-0.098011702 -0.10815775 -0.063737631 0.6726613 0.7399503 0.0005650614 0.0018336121
0.097252339 -0.10874042 -0.067202762 -0.65979218 0.75144309 -0.0027332697 0.0012631865
0.10448743 -0.10253962 -0.065235622 -0.71370804 0.70044339 7.3647563e-05 0.0020926993
-0.11168096 -0.09342017 -0.064949289 0.76514804 0.64385128 -0.0020284946 0.0013006849
-0.10866977 -0.097344421 -0.065245867 0.75091958 0.66038769 -0.0028161108 0.0013345642
0.10758971 -0.098751977 -0.066648357 -0.73480308 0.67827833 0.0017177368 0.0018872877
0.11230754 -0.092603587 -0.067807525 -0.76452154 0.64459813 -0.00026740954 0.0014559161
-0.11722249 -0.086198315 -0.066649519 0.8058722 0.59208924 0.00054679363 0.00093879155
0.11769997 -0.085576035 -0.064218931 -0.81644964 0.57741129 0.0024841442 0.00098829612
0.12015553 -0.082375899 -0.068137005 -0.82358474 0.56719327 -0.0002510148 0.0015020705
-0.124862 -0.076105602 -0.063436262 0.84435356 0.53577119 0.0040483288 0.0018331773
0.12513076 -0.075811058 -0.064632587 -0.84741896 0.53091192 -0.0036842572 0.0019820156
-0.13139737 -0.062918112 -0.066116966 0.89980823 0.43613648 -0.011405615 0.0013061983
-0.12913193 -0.068387367 -0.063714869 0.88993138 0.45609409 -0.00055567792 0.0017473883
0.12970565 -0.067002267 -0.060699549 -0.89317411 0.44969666 -0.0035843384 0.0015620337
0.13244787 -0.060381971 -0.066334486 -0.91137785 0.41150489 -0.0073522865 0.0010806703
-0.13540678 -0.053238567 -0.066503055 0.92439771 0.38143 -0.00026694353 0.00033645067
0.13386872 -0.056951709 -0.064354375 -0.91596991 0.40124276 -0.0018640045 0.00077979534
-0.14054924 -0.040823523 -0.066640064 0.95960814 0.28133398 -0.0018217177 0.0026080955
-0.13815697 -0.04659906 -0.062381458 0.9414413 0.33711526 0.0064569274 0.0013085005
0.13874093 -0.045189165 -0.065626174 -0.94659764 0.32238859 -0.0042963009 0.0016849507
0.14055884 -0.04080037 -0.063758358 -0.95933825 0.28212106 0.0088226665 0.0025100356
-0.14230551 -0.033594798 -0.063188441 0.97494143 0.22236468 0.0065677282 0.001788839
0.1418452 -0.035944182 -0.06370306 -0.96868259 0.24811479 0.009643361 0.0024669024
-0.14364885 -0.023391165 -0.065874048 0.98706406 0.16030948 0.0023308122 0.00088401575
0.1434169 -0.025152929 -0.064610377 -0.98426795 0.17665903 0.0028844345 0.0010082229
-0.14491877 -0.013745097 -0.063969523 0.99586415 0.090790235 -0.0034229681 0.0013035511
0.14467585 -0.015590185 -0.065515622 -0.99281329 0.11967354 -0.00013530299 0.00054762716
-0.14635475 -0.0028376405 -0.065692998 0.99987257 0.015678359 -0.002989958 0.0019058934
0.14625047 -0.0036297892 -0.063534856 -0.99912643 0.041415665 -0.0055852835 0.0016129405
-0.14603877 0.0052377488 -0.064749129 0.99964964 -0.026333449 -0.0026663865 0.0018001476
0.145817 0.0069223256 -0.066397808 -0.99868083 -0.05128368 -0.0025641893 0.0018068446
-0.14483136 0.014408994 -0.065574728 0.99483997 -0.10145506 0.00061420671 0.00093884883
0.14483066 0.014414305 -0.065120891 -0.99403292 -0.10906722 0.0017098818 0.00047955551
-0.14354792 0.024157777 -0.062349558 0.98448861 -0.1754472 -0.00064953114 0.0013929156
0.14325179 0.026407024 -0.065688595 -0.98296767 -0.18364283 -0.0070587443 0.0011322926
-0.14199603 0.035524227 -0.064926438 0.9732554 -0.22969003 -0.0040503806 0.0019124586
0.14195448 0.03568697 -0.065393746 -0.97038156 -0.24157332 -0.0014055345 0.0022805762
-0.14085148 0.04009388 -0.069610998 0.95977455 -0.28077012 -0.00097166293 0.0023666839
-0.13819787 0.046500247 -0.063558117 0.94420439 -0.32935947 -0.00057326397 0.0014044229
0.13798477 0.047014758 -0.065689668 -0.94253021 -0.33410028 0.0037155617 0.0011286624
-0.13576081 0.052383829 -0.066600613 0.93061686 -0.3659071 -0.0080225281 0.0008255943
0.13448878 0.055454835 -0.06565772 -0.92195868 -0.38728708 -0.00097663992 0.00061090634
-0.13095026 0.063997552 -0.066158935 0.89590782 -0.44423503 -0.0020886543 0.0014923506
-0.12930152 0.067977928 -0.063439637 0.88483846 -0.46581817 0.0086233253 0.00171872
0.12938337 0.067780368 -0.06503772 -0.88093555 -0.47323245 -0.0019057267 0.0019734853
0.13189733 0.061711125 -0.06794513 -0.90532172 -0.42472178 0.0020026229 0.0015242875
-0.12599853 0.07464315 -0.064534135 0.85452151 -0.51941127 0.0021793179 0.0018941023
0.1252242 0.075423881 -0.064767525 -0.84862179 -0.52898538 -0.0039495095 0.0019330007
-0.12068418 0.081686944 -0.066244081 0.81887197 -0.57395768 0.0046164719 0.0010419729
-0.11921525 0.083601296 -0.062146943 0.81702077 -0.57660508 0.0019100438 0.0010319561
0.11748564 0.08585538 -0.065174803 -0.81522918 -0.57913727 -0.0012202699 0.0008983438
0.12106994 0.081184208 -0.064040378 -0.82823491 -0.5603807 -0.00061952096 0.0013239927
-0.11360655 0.090910703 -0.063634783 0.78042901 -0.62524062 -0.002181709 0.0011168468
-0.10818544 0.097975627 -0.065769486 0.74820119 -0.6634233 0.0080360174 0.0016613265
0.1089818 0.096937776 -0.066456348 -0.75153583 -0.65969187 0.0007221282 0.0016872161
0.1130205 0.091674455 -0.063593164 -0.77457631 -0.63247502 -0.0026091083 0.0013628486
-0.10277582 0.1042594 -0.06283816 0.70676458 -0.70740724 0.0076738447 0.0027407412
-0.098311104 0.10792802 -0.063230023 0.67045403 -0.74194556 -0.002852157 0.0018160264
0.096418902 0.10937995 -0.065766111 -0.6535514 -0.75688213 0.00012056824 0.0014580971
0.10207037 0.10499996 -0.064644314 -0.69494033 -0.71905762 -0.0037387214 0.0022858677
-0.09282589 0.11213697 -0.064771786 0.64382213 -0.76516879 0.0031289048 0.0014354259
-0.085066482 0.11809096 -0.062930658 0.58035743 -0.81436163 0.00064370269 0.00081253878
0.085707448 0.11759913 -0.065593667 -0.57906979 -0.81527537 -0.0020701524 0.00089880131
0.091957904 0.11280299 -0.067273058 -0.62343121 -0.78187573 0.0019952159 0.0013153184
-0.081474222 0.1208474 -0.066698611 0.56024545 -0.82832289 -0.0024916485 0.0012717604
-0.072962828 0.12699719 -0.064865567 0.50952321 -0.86045104 0.0031843339 0.0018092934
-0.068662509 0.12901798 -0.06620542 0.47929063 -0.8776527 -0.0025034177 0.0019521374
0.067388698 0.1295456 -0.064630076 -0.46416771 -0.88573712 0.0042619039 0.0021035715
0.07401222 0.12618101 -0.063567378 -0.51553297 -0.85685509 0.0050214613 0.0020100097
0.081271388 0.12100304 -0.060749084 -0.56130767 -0.8276062 -0.0013145395 0.0013468901
-0.065206267 0.13044959 -0.069785208 0.45278114 -0.89162171 0.00015554714 0.001659698
-0.055999249 0.13426325 -0.063699201 0.39720592 -0.91772747 -0.0019301925 0.00082159886
-0.044824682 0.13889191 -0.06400542 0.32371172 -0.94608867 0.011263708 0.0013488241
0.045996472 0.13840653 -0.065274194 -0.33202526 -0.94326603 0.002917049 0.0014627326
0.055417284 0.13450432 -0.065281816 -0.38980046 -0.92089474 -0.0029255718 0.00061680062
0.064035803 0.1309344 -0.066338539 -0.44379196 -0.89611489 -0.0051657744 0.0015116362
-0.035427824 0.14206418 -0.066025026 0.245517 -0.96933091 0.01090338 0.001961886
-0.026116503 0.14329004 -0.069017641 0.18149851 -0.98336381 0.0073398943 0.0011784913
-0.01464989 0.14479965 -0.064771906 0.11227533 -0.99366176 -0.0055245338 0.0005022462
-0.0047893925 0.14609781 -0.064006947 0.025708893 -0.99966693 0.0022623497 0.0018844143
0.0042039366 0.14617488 -0.065042987 -0.018050028 -0.99980795 -0.007626866 0.0020983627
0.015345249 0.1447081 -0.064009972 -0.12468543 -0.99219483 0.0017100549 0.0004069522
0.024535626 0.14349817 -0.064172201 -0.16160563 -0.98685491 -0.0010172898 0.0009277499
0.034717817 0.1420939 -0.065582894 -0.23546311 -0.97186989 -0.0051093898 0.0021160641
0.041711159 0.14018157 -0.067733951 -0.28816769 -0.95754546 -0.0081332242 0.0024055622
-0.04211868 -0.14001276 -0.051711023 0.29248449 0.9562282 0.0089621386 0.0026117761
-0.034898121 -0.14208224 -0.053511061 0.24466276 0.96959323 0.0053898864 0.0020570513
-0.023833117 -0.14359064 -0.055437509 0.17033982 0.98537391 0.0047546988 0.0011665404
-0.01573512 -0.14465675 -0.054523073 0.10936952 0.99400043 0.0012271871 0.001207054
-0.003816884 -0.14622584 -0.053053841 0.025674967 0.99967015 0.00064472383 0.0021478585
0.0036133847 -0.14625262 -0.054963607 -0.015009016 0.99986541 -0.0066347648 0.0023001777
0.014158919 -0.14486428 -0.056475613 -0.099540778 0.9950313 -0.0020590832 0.0015922304
0.026046734 -0.14329921 -0.055344772 -0.16548999 0.986206 -0.0032892392 0.00058531825
0.035392608 -0.1420688 -0.055810608 -0.24432045 0.96968502 0.0042896983 0.0023198039
0.041256938 -0.14036971 -0.052761644 -0.2696645 0.96292979 0.0068660472 0.0023860263
-0.062775999 -0.13145623 -0.053420115 0.43520474 0.90032881 -0.0022069502 0.001757557
-0.050868399 -0.13638851 -0.057811264 0.36042932 0.93278426 0.0020387853 0.0010571467
-0.046762161 -0.13808937 -0.055581182 0.33316416 0.94282097 0.0094983652 0.0013347975
0.046703368 -0.13811372 -0.05473651 -0.33874413 0.94086838 0.0043698535 0.0013159866
0.055110417 -0.1346314 -0.053688884 -0.38478357 0.92300677 -0.000267628 0.0004149673
0.062080149 -0.13174444 -0.054696415 -0.42506889 0.90514559 -0.0052879071 0.0013963019
-0.080938011 -0.12125885 -0.056334 0.55483669 0.83194923 0.004090189 0.0012637665
-0.075529084 -0.12535554 -0.054251421 0.52746654 0.84957439 -0.0015538345 0.0021126857
-0.068458036 -0.12910265 -0.058339577 0.4508079 0.89260674 -0.0050461055 0.0017055104
0.068972208 -0.12888965 -0.055730324 -0.47861591 0.87794906 -0.011500425 0.0022461449
0.075813591 -0.12513839 -0.057571542 -0.52565551 0.85069442 -0.0022832588 0.00217218
0.081717126 -0.120661 -0.056023184 -0.56836486 0.82276875 0.0035907459 0.0010433213
-0.093371645 -0.11171818 -0.0548512 0.65153658 0.7586171 -0.00042306981 0.0011859623
-0.08732456 -0.11635828 -0.054681491 0.59443051 0.80414599 -0.0012895371 0.0011621411
0.086331673 -0.11712013 -0.055300523 -0.58507746 0.81095982 0.0053404658 0.0013158328
0.09295325 -0.11203922 -0.055705063 -0.64619642 0.76316196 0.0037368394 0.0014705185
-0.10493165 -0.10221604 -0.055971783 0.72165745 0.69214827 -0.011888464 0.001916887
-0.097215615 -0.10876862 -0.053813498 0.66002893 0.75123948 -0.0010522652 0.0012818894
0.098174497 -0.10803282 -0.053757168 -0.66694534 0.74508119 0.0061594462 0.0017956198
0.10374784 -0.10328063 -0.055748489 -0.70968235 0.70451218 0.0036828702 0.0026589939
-0.11189039 -0.093147241 -0.052312411 0.76208675 0.64746249 -0.0040108454 0.0011859627
-0.10776471 -0.098523915 -0.054971989 0.74773264 0.66398573 -0.0043491097 0.0017134898
0.10872444 -0.097273171 -0.056136146 -0.75039876 0.66095561 -0.0062764999 0.0018813574
0.11211816 -0.092850387 -0.055838227 -0.76635438 0.6424166 -0.0013718356 0.0011119451
-0.12126648 -0.080928072 -0.05585324 0.83029747 0.55730557 0.0040770164 0.0014814051
-0.11726101 -0.086148098 -0.05371087 0.81579965 0.57833439 0.00037344944 0.00084441638
0.11767716 -0.085605763 -0.054973852 -0.80889571 0.58793265 -0.00478354 0.0011979159
0.12171082 -0.080348998 -0.05175449 -0.83835471 0.54502338 0.01053222 0.0017743072
-0.12544151 -0.07502079 -0.05261749 0.85057002 0.52586156 0.00054610468 0.002265502
0.12584978 -0.074670807 -0.055612728 -0.8599835 0.5103007 -0.0046538701 0.0021479821
-0.13166039 -0.062283158 -0.053767905 0.90258741 0.43050176 0.0020243505 0.0014502369
-0.12911287 -0.068433359 -0.050261602 0.88424492 0.4670234 9.061634e-05 0.0019792204
0.13154322 -0.06256599 -0.05418114 -0.89931607 0.43729886 0.00064138341 0.001422526
-0.13466902 -0.055019658 -0.056644212 0.92020679 0.39142621 0.0022315469 0.00060881447
0.13470916 -0.05492273 -0.057579834 -0.91968399 0.39265409 -0.0020697701 0.00047598465
-0.14087012 -0.04004886 -0.0507842 0.96246529 0.27125835 0.0089126676 0.0026767512
-0.13859046 -0.045552485 -0.05414186 0.94928229 0.31439343 0.0044576288 0.002134986
0.13789339 -0.047235344 -0.055540193 -0.94183677 0.33604795 0.0039190678 0.0015837905
0.1406205 -0.040651541 -0.053818695 -0.95794886 0.28671643 0.011299009 0.0024736398
-0.14197643 -0.035855431 -0.05469339 0.96897256 0.24686538 0.012234359 0.0021161055
