# .PCD v0.7 - Point Cloud Data file format
VERSION 0.7
FIELDS x y z normal_x normal_y normal_z curvature
SIZE 4 4 4 4 4 4 4
TYPE F F F F F F F
COUNT 1 1 1 1 1 1 1
WIDTH 574
HEIGHT 1
VIEWPOINT 0 0 0 1 0 0 0
POINTS 574
DATA ascii
-0.052885078 -0.042328794 0.20551825 0.74266839 0.66382653 -0.088192724 0.022184411
-0.043634072 -0.045810372 0.20514911 0.68527323 0.72561073 -0.062367439 0.027285388
0.038781025 -0.049480721 0.20077884 -0.59225631 0.80170029 -0.080679126 0.029777734
0.048987471 -0.040998735 0.20916215 -0.78995085 0.61316431 0.0026830658 0.029287869
-0.060210936 -0.031847887 0.20871946 0.88504726 0.46449867 -0.030533344 0.027903236
-0.055022575 -0.03435592 0.20374675 0.85842615 0.50867981 -0.065950394 0.032587446
0.055116132 -0.033480678 0.20305578 -0.82999474 0.545784 -0.11501589 0.028008392
-0.058013782 -0.024569025 0.20175491 0.89374566 0.43466699 -0.11083028 0.026380206
0.057092056 -0.026041385 0.20040981 -0.88524437 0.4511137 -0.11330839 0.025545089
-0.062885568 -0.013850179 0.20502588 0.97316927 0.20234431 -0.10953717 0.021096891
0.059875093 -0.018854506 0.2006911 -0.95258963 0.27967846 -0.11980396 0.019721355
0.062663287 -0.015274581 0.20264006 -0.95300847 0.28389841 -0.10571913 0.017006308
-0.067380525 -0.0078690341 0.20612963 0.98057795 0.13775013 -0.13961324 0.021240218
0.067470342 -0.0062754676 0.20603907 -0.98810887 0.1505833 -0.03107365 0.018359281
-0.066468365 0.0044948035 0.20840465 0.99445987 -0.060859192 -0.08570715 0.023070807
0.065757096 0.0061401515 0.20420694 -0.98841876 -0.10913036 -0.10544588 0.029726239
-0.06419649 0.015409595 0.20243339 0.96283215 -0.23958376 -0.12471491 0.037973985
0.066191822 0.014429156 0.20603129 -0.96212232 -0.26442412 -0.066336252 0.021058429
-0.062084276 0.026519533 0.20432156 0.90781403 -0.41066116 -0.085035913 0.031263202
-0.058858495 0.023557581 0.20503144 0.90643394 -0.41443124 -0.081389531 0.032805737
0.056782633 0.028252631 0.20580256 -0.89520437 -0.44150478 -0.06068546 0.017320573
0.063061237 0.022707112 0.20049056 -0.93543494 -0.33958068 -0.098216683 0.022761688
-0.051949516 0.035728157 0.20286302 0.83886439 -0.54154402 -0.055105641 0.032849897
0.058278695 0.035494611 0.20941809 -0.86703932 -0.49823704 -0.0016209547 0.016967984
-0.047094561 0.048796996 0.20602828 0.72179222 -0.69174755 -0.022391086 0.033169948
0.043211062 0.048032161 0.20390087 -0.69512135 -0.71536845 -0.071093723 0.033072297
0.050704177 0.045625683 0.20962904 -0.76156729 -0.64770603 -0.022184568 0.021745956
-0.024476781 0.058139428 0.20229205 0.36000511 -0.93222439 -0.036796059 0.029117454
0.023233894 0.059006836 0.20518038 -0.39091033 -0.91899282 -0.051393874 0.029004754
0.035239734 0.057137895 0.20240821 -0.50128317 -0.85802978 -0.11180326 0.020617532
0.044265792 0.051693376 0.20845236 -0.65082902 -0.7587899 -0.025679758 0.024982108
-0.028960029 0.0615547 0.20815079 0.41881973 -0.90806317 -0.0033627835 0.024940154
-0.01258577 0.066343024 0.20437828 0.22229931 -0.97193259 -0.077007115 0.031212749
-0.0030850871 0.064042076 0.20445362 0.0083040465 -0.99482673 -0.10124608 0.034641501
0.003529503 0.067191422 0.20250088 -0.036979053 -0.99033892 -0.13364615 0.033473801
0.014601123 0.063420951 0.20732409 -0.21627338 -0.97563589 -0.036882818 0.027911784
0.027562529 0.061774399 0.20493586 -0.43165886 -0.90046066 -0.053302787 0.022179231
0.030134432 0.060075305 0.20196937 -0.39070114 -0.91198128 -0.12507115 0.021499135
-0.031409465 -0.061112341 0.21470472 0.47889596 0.87661314 0.046990048 0.016443163
-0.021698866 -0.065670714 0.21983492 0.32270697 0.94630104 0.019356156 0.015330015
-0.01694493 -0.064432152 0.21498792 0.27120709 0.96227396 -0.02180724 0.013266324
0.0037764988 -0.065835118 0.21560724 -0.10770319 0.9938125 0.027143288 0.013700399
0.013331702 -0.064149715 0.21543841 -0.22730802 0.9693774 0.092944317 0.012737372
-0.036259744 -0.056780215 0.2157436 0.51162851 0.85802597 0.045030478 0.016728584
0.029290486 -0.057718165 0.21785139 -0.45319945 0.88701719 0.088378273 0.011605311
0.032213688 -0.056314785 0.21823454 -0.47038418 0.87840331 0.084535897 0.010158271
0.042543441 -0.05410869 0.21502468 -0.59275216 0.80496264 0.026077684 0.014947747
-0.05275771 -0.043973133 0.21422307 0.75203961 0.65888685 -0.017448973 0.019901605
-0.043475632 -0.047549158 0.21609975 0.6503067 0.7593509 0.022077044 0.015119819
0.047587819 -0.046754379 0.21533945 -0.67400515 0.73648542 0.057500891 0.018339781
0.051896036 -0.044970877 0.21442971 -0.74231213 0.66952008 0.02674789 0.015678069
-0.060568351 -0.033391751 0.2190592 0.87603384 0.48033407 0.042940848 0.015832378
0.05674395 -0.035093479 0.2160939 -0.84746695 0.52757305 0.058877088 0.011542892
0.061054766 -0.030562334 0.21016535 -0.89700717 0.44190818 -0.009757963 0.017946592
-0.062703103 -0.022338301 0.21454322 0.9612835 0.27317938 -0.036151376 0.019593718
-0.057685949 -0.029604541 0.21910065 0.87457132 0.48347962 0.037046909 0.01851042
0.063236304 -0.024035065 0.21446708 -0.93014097 0.36360073 0.051306587 0.0094929747
-0.065760724 -0.017703377 0.21520686 0.97130626 0.23559724 0.032528229 0.013882516
0.064530365 -0.015618752 0.21243328 -0.95743066 0.28649452 0.035318382 0.0113098
-0.066124164 -0.0077625378 0.21420603 0.99330395 0.11292098 0.024415614 0.017358692
0.066680305 -0.0041485978 0.21740431 -0.98955071 0.14220522 0.023812704 0.013985928
-0.065766163 0.0031556701 0.21438217 0.99931258 -0.035567481 0.01045398 0.015361262
0.068540186 0.0064111287 0.21617055 -0.99117655 -0.13252738 -0.0023707792 0.021369185
-0.062864468 0.014756778 0.21577697 0.97250962 -0.23285685 -0.0015891207 0.018302511
0.06424401 0.01678412 0.21238087 -0.96090114 -0.27510837 -0.031373605 0.018209815
0.05907657 0.02625238 0.21648762 -0.90050101 -0.43055052 0.061025538 0.011291292
0.062158406 0.028571034 0.21136892 -0.89058357 -0.4545908 0.014426506 0.016473019
-0.061284646 0.03096487 0.21421121 0.87787688 -0.47138938 0.084404871 0.018054489
-0.051159963 0.039060354 0.21244748 0.8225013 -0.56734663 0.04011685 0.021282798
0.054634355 0.038046189 0.21469943 -0.81926119 -0.57341987 -0.00079762813 0.017348191
-0.053078193 0.04375894 0.21553415 0.79694647 -0.59842759 0.082223862 0.015488934
-0.048438981 0.042588398 0.2153604 0.75994468 -0.64365858 0.090486571 0.013672895
0.050189491 0.046941668 0.21453294 -0.74357021 -0.66857797 0.010339822 0.019572413
-0.043177299 0.050604172 0.21406361 0.63404256 -0.772838 0.026670907 0.018135322
-0.038603902 0.053743742 0.21014285 0.56703275 -0.82368803 0.0034361505 0.029985091
0.035512969 0.056246843 0.21412037 -0.4871448 -0.87239307 0.040251177 0.015672259
0.041846521 0.05474893 0.21645519 -0.59534687 -0.80138862 0.057780001 0.01364939
-0.033278245 0.060203269 0.214809 0.49623787 -0.86697519 0.045847028 0.019521782
-0.025756955 0.064010128 0.21879074 0.37362015 -0.92539561 0.063646786 0.016910598
-0.016904408 0.063789293 0.2163866 0.25627074 -0.96609968 0.031252943 0.017181292
-0.0045663756 0.068623096 0.2155067 0.12492904 -0.99210185 0.011254799 0.015349008
0.0078311153 0.065989427 0.21234706 -0.14350931 -0.98934817 0.024398936 0.020982428
0.015984096 0.064650714 0.21421582 -0.23099184 -0.97175086 0.048405021 0.015123094
0.021055894 0.065566994 0.21642372 -0.29976544 -0.95322269 0.038820628 0.0137257
-0.012386737 -0.064084552 0.22401077 0.18425356 0.98073632 0.064860456 0.013886
-0.0031613738 -0.067428373 0.22560184 -0.0082109598 0.9977361 0.066748507 0.012885006
0.0076044388 -0.069417506 0.22839077 -0.16803873 0.98237753 0.081837647 0.011333187
0.017470509 -0.065189235 0.22525285 -0.25059447 0.96600014 0.06360893 0.012192774
0.022689814 -0.060973287 0.221324 -0.37050042 0.9256022 0.077395238 0.011535045
0.031468038 -0.062322654 0.22824444 -0.44042411 0.89626145 0.052364442 0.012165605
-0.043054294 -0.054335892 0.22072524 0.6359272 0.76629299 0.091605455 0.014656832
-0.037403971 -0.057808407 0.22685178 0.5408507 0.83988869 0.0454707 0.014374257
0.035320207 -0.055033132 0.22524872 -0.54201293 0.83727109 0.072104491 0.01347511
0.042744905 -0.052390318 0.22662957 -0.60952067 0.78856891 0.081508636 0.013834417
-0.050796013 -0.044735342 0.22826126 0.7390967 0.67214215 0.044282507 0.011546263
-0.0429435 -0.049498916 0.22763151 0.68464983 0.72809201 0.033713378 0.013804056
0.046211585 -0.049232036 0.22528937 -0.68164498 0.72971785 0.053590417 0.013525103
0.052921373 -0.045176197 0.22556569 -0.74117839 0.66703546 0.075618967 0.015875587
-0.057099953 -0.035812195 0.22369722 0.85197479 0.51740634 0.080185004 0.013728219
0.056357112 -0.037688505 0.22048992 -0.83620864 0.54475331 0.063237712 0.014392595
-0.064782977 -0.025630224 0.22498831 0.93563426 0.34888849 0.053528842 0.0098835081
0.059149884 -0.027057279 0.22118941 -0.90202534 0.42971489 0.04117614 0.010778745
-0.065539643 -0.013204808 0.22610398 0.98096931 0.17852196 0.076348908 0.012242015
0.063248947 -0.01735655 0.22644742 -0.95512849 0.27932808 0.098515518 0.0057638264
-0.064615056 -0.0089165075 0.22225489 0.99041414 0.1209634 0.066690788 0.012133301
0.067237668 -0.0034391745 0.22340763 -0.99191403 0.11336389 0.057052933 0.008490094
0.069422461 0.0070332023 0.22669446 -0.99076921 -0.11546768 0.071017958 0.014758044
-0.062927008 0.018030543 0.22579722 0.9649033 -0.25054801 0.078659594 0.014006783
0.066760905 0.013592776 0.22424145 -0.96648037 -0.25066647 0.055516597 0.010063143
-0.064171322 0.027190417 0.22450963 0.91605061 -0.38770813 0.1026341 0.013952198
0.058273677 0.028773645 0.22091073 -0.8799203 -0.47268417 0.048061963 0.01135798
0.064501241 0.022092098 0.22479339 -0.94186753 -0.33175728 0.05312828 0.011313742
-0.061939634 0.032021329 0.22620544 0.87287718 -0.47671488 0.10405897 0.015022898
-0.057922121 0.039025594 0.22881873 0.83469266 -0.54581988 0.073272698 0.012977597
0.056042194 0.035632625 0.22495362 -0.83295673 -0.551386 0.046438321 0.011838593
0.060509592 0.033772644 0.220378 -0.86707944 -0.49721405 0.030846391 0.010990807
-0.055743296 0.041692536 0.22540325 0.82128644 -0.56062752 0.10576087 0.013912091
-0.046758913 0.046324581 0.22434554 0.66857272 -0.74111986 0.061251719 0.009927351
0.049208894 0.046462242 0.2274235 -0.75407034 -0.65466791 0.052801177 0.015952591
0.050784599 0.047570359 0.22442143 -0.74666041 -0.66265494 0.058194984 0.014690451
-0.047993764 0.050734986 0.22773242 0.67014211 -0.73881382 0.071159549 0.010074737
0.034800902 0.057826143 0.22491904 -0.51075608 -0.85621357 0.077630922 0.0093617709
0.044687603 0.053412508 0.22625041 -0.67514867 -0.73645085 0.042596556 0.012079788
-0.03261533 0.061781213 0.22868553 0.5182004 -0.85347253 0.055254225 0.011413716
-0.022568699 0.061250556 0.22382629 0.34065267 -0.93809986 0.062645487 0.014877387
-0.017459394 0.067106776 0.22052738 0.22266984 -0.97063541 0.091022238 0.009560368
-0.0013142346 0.065293595 0.22369933 0.045965873 -0.99695969 0.062917911 0.01210188
0.0032781209 0.067614987 0.22820224 0.0062263669 -0.99817634 0.060044039 0.01213729
0.012317049 0.066827431 0.22578058 -0.20331207 -0.97756243 0.055099595 0.01217328
0.026535016 0.0620161 0.22547626 -0.38565344 -0.92178082 0.039894693 0.013183465
0.0016811461 -0.07021565 0.23568931 -0.044542842 0.99536765 0.085201241 0.015131137
-0.034411911 -0.061236329 0.23501143 0.46107981 0.88720357 0.016592177 0.0082151135
-0.026517989 -0.060332552 0.23398207 0.40718362 0.91324133 0.013846656 0.010090284
-0.015958467 -0.06388741 0.23261867 0.22485444 0.97424978 0.016668333 0.012122063
-0.008162491 -0.069547296 0.23070347 0.12442028 0.99155313 0.036634564 0.015390213
0.0040772674 -0.065681666 0.23331288 -0.10877135 0.99078608 0.080695048 0.011269449
0.012356897 -0.066204973 0.235743 -0.20914842 0.97531027 0.070900425 0.013639547
0.025872217 -0.064458452 0.23491375 -0.37119618 0.92484182 0.082951292 0.010281422
0.033213258 -0.061857689 0.23553537 -0.44382459 0.89224744 0.083151914 0.012315773
-0.045993567 -0.052981701 0.23538832 0.67493755 0.73777789 -0.011961552 0.013762321
-0.032860938 -0.057207968 0.23610826 0.45883542 0.88792121 0.032646932 0.0088049537
0.028015358 -0.059450865 0.23131192 -0.41494498 0.90821028 0.054541901 0.012038265
0.033386815 -0.057083178 0.2374956 -0.48878562 0.87057936 0.056391899 0.012094256
0.046457529 -0.052507758 0.23432365 -0.65791416 0.75136846 0.050936449 0.013230261
0.045166649 -0.048001166 0.23458335 -0.66947675 0.74056786 0.057965871 0.014277802
-0.062845528 -0.031407464 0.2373607 0.90663236 0.41892368 0.050207932 0.015105984
-0.05721128 -0.036641918 0.23319231 0.83849555 0.54401082 0.031262975 0.011566762
0.055827439 -0.037021287 0.23614755 -0.82409906 0.56398028 0.052793045 0.011030889
0.061673384 -0.033409193 0.23395181 -0.86438894 0.50117826 0.040645711 0.010405272
-0.066480197 -0.022407338 0.23528334 0.95150572 0.30703434 0.01915372 0.010727841
0.059593953 -0.0283756 0.23725715 -0.89116871 0.45247039 0.032997448 0.0107367
0.063907713 -0.023189936 0.23500942 -0.93055236 0.36265501 0.05053468 0.013220376
-0.06503465 -0.016530845 0.23658368 0.9714486 0.23538594 0.029682057 0.010857257
0.066005081 -0.016822295 0.23510689 -0.963929 0.26497054 0.025129521 0.010973155
-0.065667123 -0.0032059096 0.2318494 0.9979248 0.049361952 0.041346814 0.010573491
0.066922948 -0.0072749606 0.23520549 -0.99057883 0.13342234 0.030855319 0.0088426108
-0.067833908 0.004434804 0.23423699 0.99741083 -0.061624128 0.037069179 0.0071901036
0.065919705 0.0016045164 0.23348796 -0.99886316 -0.0083066039 0.046939578 0.011486341
-0.066918395 0.018524325 0.2339768 0.96880943 -0.24490587 0.037807956 0.011243603
0.067180157 0.016277879 0.23582014 -0.96760809 -0.25116512 0.025507169 0.01137661
-0.063929684 0.021388533 0.23714267 0.95511705 -0.29601598 0.011220489 0.011681221
0.058510687 0.029925942 0.23142257 -0.89172602 -0.45099917 0.037742767 0.013064501
0.066227853 0.02335804 0.23811704 -0.94254303 -0.33254787 0.032007959 0.0092050787
-0.062205009 0.03240012 0.23453751 0.89499396 -0.44464555 0.035723917 0.017854171
-0.056970645 0.035629783 0.23477919 0.84742177 -0.52901369 0.044954494 0.013744086
0.057205006 0.038937621 0.23748335 -0.82075602 -0.57127625 0.0017292615 0.012674144
0.061286718 0.034535591 0.23710416 -0.8627876 -0.50540113 0.012931881 0.0092379265
-0.052561469 0.043349922 0.23671731 0.78078228 -0.62479907 -0.0022699067 0.011927744
0.043071486 0.049809817 0.23418708 -0.70199376 -0.71207446 0.012434033 0.014626927
0.053671561 0.04495956 0.2320635 -0.76986516 -0.63735312 0.032995958 0.012686396
-0.042211898 0.053157188 0.23050058 0.64466983 -0.76339734 0.040316161 0.0098739872
-0.036827125 0.059517365 0.23097537 0.5585528 -0.82841522 0.041796926 0.010200991
-0.027355313 0.059767488 0.23113954 0.39204714 -0.91887116 0.044439077 0.014774784
0.037388369 0.054258093 0.23495662 -0.56341249 -0.82586735 0.022572052 0.012391971
0.046088487 0.053044897 0.23774476 -0.68533963 -0.7278288 0.023976307 0.011871854
-0.032426022 0.062292591 0.23638816 0.44225854 -0.89628518 0.03286761 0.012486215
-0.024079273 0.061231017 0.23257752 0.35860687 -0.93226957 0.0476925 0.014423351
-0.014906357 0.067348883 0.23314305 0.19672483 -0.98037088 0.013123717 0.0099675888
-0.0040280968 0.067920625 0.23546833 0.080067948 -0.99496627 0.060260303 0.011536784
0.016581956 0.068053052 0.23194379 -0.24661715 -0.96740478 0.057514913 0.012527277
0.022900658 0.064876102 0.23669375 -0.35053828 -0.9358142 0.037076399 0.014179235
0.033124283 0.061890706 0.23537555 -0.45967668 -0.88757819 0.03003674 0.011416905
0.0023043929 0.070064157 0.233426 0.0069019063 -0.99629313 0.085746415 0.011441901
-0.0067511401 -0.070187561 0.24669588 0.13283798 0.99095523 0.019018874 0.01887363
-0.026234895 -0.06093074 0.24906281 0.3789396 0.92502505 0.027080815 0.010092095
-0.011901904 -0.069482699 0.24558499 0.21237938 0.97717178 0.0055038789 0.016053546
-0.0045499676 -0.066088624 0.24826682 0.10767359 0.99407542 -0.014847077 0.018392531
0.0058005159 -0.066005766 0.24811041 -0.14755426 0.98900461 0.0098822722 0.011335041
0.014150165 -0.064707831 0.24579135 -0.22225855 0.97425187 0.037873488 0.010131708
0.033276156 -0.062077001 0.24014805 -0.45585987 0.88885635 0.046111297 0.013578063
-0.042693309 -0.05617851 0.24622348 0.63301122 0.77407515 -0.010223041 0.016642783
-0.036132626 -0.057164919 0.24674571 0.46970463 0.88213134 0.034953836 0.0085865837
0.029533211 -0.05926973 0.24511209 -0.45162657 0.89051628 0.05490068 0.014101823
0.034645539 -0.056447022 0.24672942 -0.54633945 0.83631748 0.045676537 0.013531804
0.045221288 -0.05407761 0.2463783 -0.66156709 0.74964333 0.019074192 0.010521059
-0.053955793 -0.045331825 0.24489063 0.75803244 0.6519798 0.017581979 0.010700342
0.048604205 -0.044977121 0.242586 -0.7247597 0.68827164 0.031711686 0.013461491
0.051509976 -0.046518244 0.24445048 -0.72372043 0.68958271 0.026541563 0.015263086
-0.05665116 -0.034457959 0.24872127 0.84084862 0.54104692 -0.015548918 0.012239365
0.054610513 -0.037490517 0.24719395 -0.82616895 0.56341356 0.0031650136 0.011470272
0.061418593 -0.034780521 0.24541491 -0.8673209 0.49719417 0.023502273 0.010744479
-0.06525106 -0.02261436 0.24605091 0.96517193 0.26036718 0.025535597 0.011127073
-0.059168626 -0.029673398 0.24180362 0.90188956 0.42998654 0.041313585 0.017105339
0.064225033 -0.023309348 0.24306473 -0.94929999 0.31435567 0.0031816252 0.01437134
-0.06442979 -0.015561158 0.24622996 0.97845745 0.20617327 0.010655651 0.011078954
0.065188147 -0.018296571 0.24644963 -0.96068597 0.27763647 0.00068131636 0.011917038
-0.070246443 -0.0059923604 0.2478044 0.99508905 0.094752595 0.028628169 0.0097988592
0.070246764 -0.005712206 0.24596851 -0.9950496 0.083890177 0.053280182 0.010322571
-0.070449047 0.0021538145 0.24180411 0.99909365 -0.017155949 0.038954739 0.0091572264
-0.06588304 0.0070005408 0.24273795 0.99523586 -0.094465338 0.024119927 0.011042814
0.067113712 0.0047466019 0.24684185 -0.99870247 -0.04510102 0.023646398 0.011109654
0.070276394 0.0050585312 0.24441299 -0.99933606 -0.031208662 0.018799709 0.01139354
-0.065324999 0.017491251 0.24315898 0.96270794 -0.27046484 0.0064957254 0.011932788
0.066090606 0.014318906 0.24410121 -0.96947318 -0.2448511 0.01302594 0.013147852
0.059312515 0.029483296 0.24753955 -0.88483942 -0.46547934 0.019702708 0.01138854
0.066484913 0.023278996 0.24300218 -0.94968981 -0.31041595 0.041607488 0.0097940229
-0.062875748 0.03176064 0.24167247 0.89918041 -0.43719265 -0.018363079 0.014458729
-0.058358684 0.035484023 0.2443675 0.874964 -0.48413339 -0.0072787176 0.017027685
0.056167696 0.037004668 0.24398127 -0.82747906 -0.56070197 0.029859988 0.011717886
-0.053532075 0.042567536 0.24743748 0.77890217 -0.6268695 -0.018602114 0.0095081935
0.045368481 0.048267659 0.2434234 -0.67196661 -0.74057597 -0.0028512999 0.014024118
-0.045179907 0.051279075 0.24500176 0.66450989 -0.74715054 0.013881254 0.010984926
-0.035302848 0.056092165 0.24901398 0.53622556 -0.84404254 0.0073686978 0.011767187
0.03563939 0.055830054 0.24558614 -0.55019867 -0.83497989 -0.0094873663 0.010228773
0.046119604 0.0532845 0.24586463 -0.66125619 -0.75016004 0.00052437955 0.013059174
-0.034627143 0.06135441 0.24563664 0.48486918 -0.87425596 0.024050508 0.014862982
-0.023490084 0.066476941 0.24911258 0.30853504 -0.95117193 0.0088370955 0.013729163
-0.010803165 0.069706023 0.24603952 0.18596791 -0.98179698 0.038609017 0.011753185
-0.0061697247 0.065964311 0.24601583 0.12060183 -0.99165881 0.04547558 0.010586775
0.0058984244 0.065944821 0.24506788 -0.075567067 -0.99700409 0.016503043 0.013290331
0.015890423 0.066468552 0.24360834 -0.2501775 -0.96810395 0.013639376 0.014584461
0.025349647 0.065744549 0.24040729 -0.36832628 -0.92947191 0.020438705 0.013776489
0.036123887 0.060583707 0.24248874 -0.49461427 -0.86911249 -0.00049038127 0.0080986302
0.0044750585 0.070326589 0.24545144 -0.055419717 -0.99846107 -0.0020533062 0.013909101
-0.007111588 -0.070192054 0.25011981 0.12524654 0.99194562 -0.018896081 0.016430242
0.0073685329 -0.07017637 0.25646427 -0.15419751 0.98793286 -0.014550427 0.0088319611
-0.02539574 -0.062308889 0.25378212 0.36181399 0.93223661 0.0050494177 0.0089062974
-0.015277166 -0.066663615 0.25417525 0.25648829 0.96638536 0.017694479 0.01279503
-0.002126592 -0.066287681 0.25314939 0.089311734 0.99506366 -0.043262616 0.016508551
0.016422227 -0.065999232 0.25636372 -0.2514008 0.96781892 -0.011137571 0.0095082354
0.023851132 -0.066247247 0.25374749 -0.27664191 0.96096641 -0.003564395 0.01046746
0.034533508 -0.061514422 0.25965202 -0.48728007 0.87278742 -0.02828856 0.012703383
-0.044056598 -0.054953672 0.25628498 0.63565117 0.77196008 0.0050311852 0.014898612
-0.034168292 -0.056728315 0.25569335 0.49228579 0.87030214 -0.015128928 0.011153473
-0.029376354 -0.059414808 0.25696433 0.38742396 0.92133057 0.032444634 0.0092496537
0.032048929 -0.05807133 0.25560185 -0.48729634 0.87309945 -0.015480909 0.015297054
0.042999584 -0.053207234 0.25286454 -0.64418584 0.76485932 0.0038452144 0.010652351
-0.053097408 -0.046410426 0.25721368 0.74972653 0.66151017 -0.017732527 0.010455799
-0.043537006 -0.049975462 0.25262991 0.65943003 0.75171906 0.0083943261 0.014633026
0.048487913 -0.045179438 0.25742006 -0.72963309 0.68356341 -0.01940899 0.012603949
0.051900618 -0.047674038 0.25931495 -0.72848445 0.68396115 -0.038828067 0.013641099
-0.062494479 -0.032701075 0.25094244 0.88595653 0.46297494 -0.027114352 0.013845174
-0.056918792 -0.03410694 0.25207686 0.86452651 0.50175589 -0.028897274 0.011995354
0.053944513 -0.038550906 0.25150168 -0.80808413 0.58906049 -0.0027937654 0.014323971
0.060954638 -0.035571456 0.25450629 -0.84660935 0.53215313 -0.0081120031 0.011918284
-0.064686894 -0.023417626 0.25378329 0.94769645 0.31860974 -0.018957132 0.011482025
0.067460403 -0.020714406 0.25419557 -0.95856899 0.28467372 -0.010310647 0.011910954
0.069154039 -0.013620545 0.25516462 -0.97169852 0.23573904 -0.015134233 0.012266105
-0.066772901 -0.0067758039 0.25634497 0.99031055 0.1376854 0.018105365 0.011810902
0.066198736 -0.0028375024 0.25806022 -0.99759173 0.065632984 -0.022428811 0.013124388
-0.070292376 0.0059463191 0.2532995 0.99586344 -0.090427324 0.0088830004 0.014750049
0.066479154 0.00088361057 0.25692055 -0.99982679 0.00011354773 0.018613352 0.0077566379
0.070307985 0.0053814822 0.25750548 -0.99333048 -0.11380377 -0.018526632 0.014792982
-0.064739011 0.014188942 0.25673318 0.97532159 -0.21832934 -0.032864083 0.011168574
0.066141136 0.014367953 0.25314784 -0.97408468 -0.22612384 -0.005202387 0.011806852
-0.063264899 0.024124755 0.25543478 0.93990964 -0.34045559 -0.025688594 0.0088978196
0.064444236 0.02646476 0.25377661 -0.93429923 -0.35626593 -0.012635708 0.015324046
-0.062318642 0.033103228 0.25344607 0.89916712 -0.43433484 -0.053401835 0.011575689
-0.05753234 0.032886155 0.2559076 0.87999529 -0.4715091 -0.057336312 0.009058346
0.058476582 0.03110138 0.25933453 -0.86721408 -0.49793214 0.0018193464 0.0097475322
0.060227651 0.036793575 0.25723797 -0.85445607 -0.51941371 -0.01068978 0.0090240231
-0.053897463 0.044185884 0.2511844 0.76657611 -0.64147961 -0.029412147 0.0080848979
0.052073371 0.047599405 0.25661385 -0.71681595 -0.69679183 -0.025614148 0.01324584
-0.045485727 0.051095217 0.25273779 0.67465687 -0.73791748 -0.017773669 0.010485914
-0.036373191 0.055412255 0.25608104 0.55622184 -0.83091199 -0.014233353 0.010773416
0.035462629 0.055846386 0.2566089 -0.50539178 -0.86242461 -0.028335609 0.010988763
0.04352805 0.055384144 0.259159 -0.62429595 -0.78057325 -0.030983921 0.013159382
-0.036759384 0.060269769 0.25336337 0.54090416 -0.84093034 -0.016087059 0.011475857
-0.021495737 0.064191706 0.25590375 0.29392633 -0.9558267 0.001644198 0.012360632
-0.013716022 0.069135368 0.25845754 0.21290655 -0.97706205 -0.0045377105 0.011288784
0.0037047111 0.066171467 0.25161085 -0.063645341 -0.9979654 -0.0037837226 0.012116382
0.017561875 0.068355262 0.2588838 -0.28668511 -0.95711535 -0.041734543 0.010799195
0.024643935 0.063818701 0.25574875 -0.38422698 -0.92212182 -0.045398634 0.013236439
0.032606911 0.0625486 0.25182828 -0.43157974 -0.90203583 -0.0083881291 0.012818676
0.0087364521 0.070085175 0.25006366 -0.12370967 -0.9923169 -0.0017408333 0.01049803
-0.032501999 -0.062208485 0.26764062 0.48609802 0.87315995 -0.036062486 0.013107605
-0.026752831 -0.060340278 0.26720899 0.37835974 0.92551994 -0.016020801 0.012039992
-0.01609464 -0.068468705 0.26430967 0.23653658 0.97153467 -0.013071051 0.012801668
-0.0078633437 -0.068427682 0.26583114 0.13785523 0.99006432 -0.027723845 0.013470137
0.00717662 -0.067709558 0.26769421 -0.11727245 0.99070847 -0.068876669 0.010126662
0.017491236 -0.064612739 0.26410562 -0.234239 0.97217238 -0.0035875824 0.0098277181
0.026316373 -0.065109536 0.26371878 -0.36493248 0.93056864 -0.029431604 0.010714109
-0.042747997 -0.053328499 0.26082632 0.63533485 0.77060902 -0.050113857 0.016991988
-0.035383925 -0.058114327 0.26544458 0.50245517 0.86376476 -0.038068723 0.014731943
-0.027639426 -0.059824232 0.26940045 0.44113049 0.8964324 -0.042577356 0.014770456
0.037577782 -0.059279911 0.26826385 -0.55475885 0.83001041 -0.05766502 0.01578974
0.043310694 -0.05546394 0.26546234 -0.63588506 0.77058303 -0.043034635 0.013239386
-0.050962411 -0.041839428 0.26868308 0.75036669 0.65834475 -0.059430491 0.011394859
0.048500814 -0.044969961 0.26210186 -0.73608214 0.67529202 -0.046517238 0.012762275
0.053041007 -0.046226669 0.26231885 -0.74876231 0.66035676 -0.057304945 0.011328096
-0.061444189 -0.034271255 0.26473284 0.87460959 0.48424861 -0.023693172 0.01349209
0.054873455 -0.036623977 0.26624331 -0.81967133 0.56756955 -0.077483609 0.01046325
0.061873637 -0.033477567 0.26409596 -0.8446849 0.53357971 -0.042427186 0.0090613533
-0.064705342 -0.02743729 0.26818681 0.92517954 0.37788495 -0.035295181 0.013658275
0.0598207 -0.027973361 0.2649115 -0.89811695 0.43646029 -0.05374359 0.012758312
0.060170677 -0.027109303 0.26702714 -0.90339237 0.42381755 -0.065274678 0.013459486
-0.065827228 -0.013235678 0.26301157 0.98133421 0.18992338 -0.030204164 0.012021915
-0.065943822 -0.0029350752 0.26585111 0.99928546 0.018529676 -0.032942217 0.010792724
0.067940287 -0.0041826614 0.26732811 -0.99248916 0.11078573 -0.05188179 0.012116646
-0.070102483 0.0049725017 0.26481113 0.99398547 -0.10780463 -0.019261677 0.011526069
-0.065711565 0.0069850632 0.26346132 0.99008858 -0.13965629 -0.014858373 0.011400132
0.069920346 0.0094049806 0.26054057 -0.97997653 -0.1978883 -0.022050224 0.010870278
0.067496628 0.019695736 0.26569697 -0.96237123 -0.2688053 -0.039815478 0.010966557
-0.063659586 0.026014527 0.26679188 0.93210608 -0.35959682 -0.043226156 0.010663893
-0.059351422 0.029237825 0.26068658 0.90861279 -0.41569707 -0.040234286 0.0085343104
0.059084594 0.029394131 0.26583964 -0.89362341 -0.44507554 -0.057835616 0.01051515
0.064847477 0.023346724 0.26317346 -0.9377743 -0.34513816 -0.038196217 0.014422012
0.05884473 0.038263857 0.26756454 -0.81604898 -0.57740694 -0.025792794 0.012699572
0.061362538 0.034279756 0.26724386 -0.85573095 -0.51602536 -0.037977364 0.011420735
-0.053866535 0.040870339 0.26244512 0.79369265 -0.60726911 -0.035723865 0.011163085
0.04641949 0.046960499 0.26347363 -0.71147817 -0.70205754 -0.030231083 0.013241251
0.051837493 0.047525883 0.26374108 -0.73187107 -0.67999291 -0.044434082 0.013722712
-0.043943174 0.054872736 0.26634279 0.61983359 -0.78364182 -0.041374851 0.014601393
-0.038051721 0.059134394 0.26387104 0.54771018 -0.83556449 -0.042959739 0.011289303
0.035008464 0.055869676 0.26862261 -0.55103487 -0.8323133 -0.060125798 0.011584946
0.041991118 0.055011816 0.26665702 -0.59695536 -0.80005664 -0.059612293 0.015090492
-0.035024125 0.06100674 0.26294971 0.50962889 -0.85916895 -0.045903835 0.01211255
-0.024324274 0.06370163 0.265239 0.34259066 -0.93858933 -0.041010052 0.011139319
-0.017997112 0.063774779 0.26027811 0.26396623 -0.96446979 -0.010950461 0.010357797
0.0051047434 0.067260861 0.26461652 -0.038487472 -0.99887818 -0.0275889 0.014693303
0.015613521 0.065723069 0.26230866 -0.25889531 -0.96520376 -0.036810491 0.011460949
0.026454441 0.060744576 0.26004347 -0.40585348 -0.91337866 -0.031974953 0.012044745
-0.0069553191 0.070037872 0.26278824 0.10375796 -0.99332654 -0.050364763 0.014463196
0.0027487169 0.070163123 0.26743242 -0.027420836 -0.99853832 -0.046575852 0.014432584
-0.031232547 -0.062737629 0.27085674 0.46231964 0.88474685 -0.059021503 0.01571703
-0.024183383 -0.065420002 0.27606562 0.32120797 0.94624549 -0.038012143 0.0092398012
-0.018281225 -0.062996551 0.27515811 0.27717391 0.96034926 -0.030065009 0.010346088
-0.0034732858 -0.067381449 0.27350762 0.037438642 0.99708515 -0.066480063 0.012410066
0.0064332597 -0.066567235 0.27631947 -0.097280636 0.99058229 -0.096349813 0.008662221
0.015383904 -0.066279709 0.27907303 -0.25080821 0.96186262 -0.10915861 0.010402814
0.024169277 -0.065682143 0.27222615 -0.33969486 0.93960756 -0.0417726 0.013147628
0.033323266 -0.061508611 0.2732515 -0.48569319 0.87287652 -0.046783917 0.01543541
-0.04562135 -0.053133063 0.2718561 0.63015199 0.77570343 -0.034534253 0.01312842
-0.038564008 -0.056231484 0.27774391 0.57860559 0.81360471 -0.057122093 0.01348342
0.027220324 -0.059286565 0.27954185 -0.41264129 0.90632504 -0.091115274 0.016392233
0.034775477 -0.056390058 0.27550045 -0.56394815 0.82424998 -0.050739877 0.016071202
0.043525528 -0.052874744 0.27402779 -0.66205806 0.74629885 -0.068681739 0.015148018
-0.049352806 -0.044796109 0.27917737 0.74015403 0.67032295 -0.053283844 0.013364202
0.047248065 -0.045369234 0.27494067 -0.72475111 0.6828109 -0.092222996 0.013328215
-0.05553332 -0.034726311 0.27601054 0.84892792 0.52493203 -0.061381888 0.011853876
0.05852871 -0.030043723 0.27170309 -0.87294543 0.47793821 -0.097679742 0.012060493
0.061832529 -0.032269426 0.27597177 -0.857113 0.50181478 -0.11635847 0.010881723
-0.061925594 -0.026852254 0.27763158 0.92319459 0.37732327 -0.073068447 0.014267353
-0.06754715 -0.017542927 0.2767548 0.97596967 0.20628029 -0.070226178 0.010826005
0.064345829 -0.016622523 0.27454615 -0.96097344 0.26461911 -0.080664672 0.010324917
-0.067252561 -0.0084729493 0.27489105 0.98680782 0.14544955 -0.071097672 0.0092639225
0.068077333 -0.0053926501 0.27591142 -0.98713291 0.13751228 -0.081603102 0.0098901158
-0.068220802 0.0065034009 0.27277005 0.9885332 -0.13941805 -0.058006167 0.011793751
0.068095274 0.0054008607 0.27602103 -0.9878636 -0.13046391 -0.084288992 0.011479088
-0.068804331 0.01094027 0.27752531 0.98392439 -0.1688605 -0.058129713 0.011567226
0.06750112 0.017547337 0.27614632 -0.97351825 -0.22185226 -0.05517086 0.013108163
-0.062955953 0.022408694 0.27697942 0.93611842 -0.34693593 -0.057599351 0.012637135
0.060277045 0.025734063 0.27631944 -0.89642978 -0.44093174 -0.044640232 0.012175789
-0.053401832 0.037449211 0.27960581 0.81972384 -0.56525099 -0.092433758 0.010249621
0.056095857 0.036824483 0.27304801 -0.80075163 -0.59683454 -0.05084677 0.015438288
0.060734808 0.033906117 0.27952394 -0.85209656 -0.51437348 -0.09670274 0.012420548
-0.057147104 0.040201593 0.27431771 0.79958701 -0.59628969 -0.071407661 0.0084313741
-0.047439024 0.045624033 0.27217761 0.74528426 -0.66417283 -0.058530342 0.01023824
0.04966604 0.046400979 0.27131712 -0.72937751 -0.68251228 -0.046749189 0.015583648
0.051590398 0.046789546 0.27718967 -0.74384469 -0.66345263 -0.080782153 0.01530819
-0.044020556 0.051524714 0.27375054 0.66831112 -0.73999536 -0.075941257 0.01451998
-0.038360033 0.053019121 0.27702478 0.56749749 -0.81968951 -0.077818632 0.013191112
-0.028525129 0.059225827 0.2723625 0.44190371 -0.89354646 -0.079345815 0.010468344
0.033661433 0.056344826 0.27346718 -0.53944314 -0.84137797 -0.032927323 0.011775502
0.042691864 0.054105125 0.27418953 -0.61790746 -0.78479177 -0.047878116 0.010224334
-0.034058459 0.060784984 0.27803439 0.47680223 -0.87639594 -0.067747697 0.010403051
-0.022101106 0.062931083 0.27866042 0.31286177 -0.94602835 -0.084545135 0.0097734705
-0.014899028 0.06700372 0.27655315 0.2594533 -0.96120423 -0.093650378 0.010847667
-0.0059015532 0.069445357 0.27661502 0.1092914 -0.99163896 -0.068611294 0.01257176
0.005718722 0.067192182 0.27841195 -0.10227744 -0.99039936 -0.09299659 0.0097909821
0.016091399 0.063451238 0.27733412 -0.31011337 -0.94805688 -0.070836619 0.0099861333
0.026168596 0.063710965 0.2732639 -0.40202254 -0.91168922 -0.084856473 0.014426668
0.034737196 0.060673285 0.27525577 -0.46941331 -0.88089675 -0.060596835 0.012411362
0.00059843116 0.070219874 0.2700372 -0.025320373 -0.99836999 -0.051148586 0.014185006
-0.02516586 -0.064309463 0.28520656 0.32838526 0.94011527 -0.091358289 0.00948554
-0.016082887 -0.062784627 0.28452507 0.22355396 0.97203267 -0.071945414 0.010928967
-0.0057548541 -0.065685868 0.28564337 0.066448949 0.99347013 -0.092744701 0.011906851
0.003835503 -0.066917643 0.28355092 -0.071017556 0.99054992 -0.11733443 0.0085242474
0.017848497 -0.062734969 0.28048718 -0.27657282 0.95571685 -0.10056221 0.011103622
0.024047825 -0.060630832 0.28048569 -0.36272076 0.92530698 -0.11063731 0.015969578
0.030286079 -0.06206682 0.28515622 -0.40251404 0.90869266 -0.11072575 0.015119244
-0.035359554 -0.058025885 0.28581524 0.55314493 0.82714331 -0.099320754 0.012898053
0.027059935 -0.058982134 0.28426653 -0.39613909 0.91226631 -0.10413507 0.01579066
0.038671162 -0.055262163 0.28676012 -0.58633739 0.80386019 -0.10008708 0.015145079
0.040586755 -0.051043954 0.28055668 -0.64252275 0.76253194 -0.075561441 0.017162314
-0.054288708 -0.04267991 0.28653097 0.7933557 0.60124213 -0.095365569 0.0094523001
-0.048477005 -0.043028049 0.28486845 0.74481267 0.65975875 -0.099861957 0.01291046
0.048066169 -0.043446168 0.28540689 -0.74607056 0.66262341 -0.065643303 0.014449161
-0.0615905 -0.030993406 0.28578818 0.89957023 0.42797711 -0.087229662 0.013973736
-0.057584304 -0.03588983 0.28270081 0.8365975 0.53875113 -0.099256836 0.0097785927
0.055065814 -0.036821935 0.28409198 -0.82724798 0.55632794 -0.078485236 0.0096338745
-0.063479036 -0.021107245 0.28564912 0.93836439 0.33854583 -0.069707267 0.018974442
-0.059798285 -0.024967369 0.28584671 0.9177689 0.3878015 -0.085499138 0.015423832
0.05850558 -0.028049333 0.28362456 -0.88059288 0.46707627 -0.079974234 0.010952345
0.061471254 -0.024748182 0.28520477 -0.90618056 0.41631117 -0.074308537 0.010960602
0.067084774 -0.016065819 0.28641349 -0.96547514 0.24778321 -0.080381446 0.0099711744
-0.065887101 -0.0053590764 0.28636453 0.99293131 0.091358952 -0.075769387 0.008362527
0.064194255 -0.0075108833 0.28770176 -0.97767347 0.19300842 -0.083079949 0.011511635
-0.064672038 0.0048083002 0.28423169 0.99071383 -0.094251432 -0.097993605 0.011178894
0.06605272 0.0053279204 0.28714377 -0.99181467 -0.084365547 -0.095844753 0.012061831
-0.067019209 0.011227313 0.28579426 0.97798926 -0.18888319 -0.08865758 0.012386065
0.066925809 0.012655119 0.28578919 -0.97367138 -0.20544517 -0.098774143 0.011559954
-0.063344076 0.024616577 0.28168049 0.91468579 -0.39774111 -0.071776904 0.010799408
-0.058136642 0.028657086 0.28444672 0.88711315 -0.454436 -0.080735043 0.011207687
0.058542181 0.027953552 0.28420779 -0.88979155 -0.4404017 -0.11965562 0.015401011
0.063686199 0.023208877 0.28338921 -0.91685486 -0.37917 -0.12492901 0.013180838
-0.055092882 0.035648428 0.2850033 0.83441198 -0.54521835 -0.0805825 0.010510241
0.056438472 0.03671591 0.28633118 -0.80950952 -0.57784593 -0.10386676 0.012590732
0.060817339 0.033151433 0.28309205 -0.86619514 -0.49207637 -0.086987518 0.014792615
-0.052887853 0.042178091 0.28556025 0.77737057 -0.62093574 -0.10066687 0.012196071
-0.049702927 0.048302069 0.28303427 0.72187865 -0.68159598 -0.11965799 0.013327279
0.045222539 0.046306204 0.28530699 -0.733724 -0.67483163 -0.079065785 0.011833527
-0.040707603 0.053258106 0.28501278 0.59846491 -0.79190451 -0.12135503 0.014052142
-0.036963977 0.05574394 0.285431 0.57845026 -0.80614924 -0.12457449 0.014716412
-0.025222693 0.059372123 0.28899658 0.36601052 -0.92578876 -0.094613127 0.014115168
0.034730066 0.054441527 0.28708071 -0.53281617 -0.84109378 -0.093103223 0.012320692
0.040999383 0.050329871 0.28416106 -0.65574187 -0.74898273 -0.095013775 0.016180985
-0.032283951 0.061288752 0.28260911 0.46518549 -0.8808105 -0.088177323 0.01217482
-0.028113788 0.061471671 0.28554869 0.43515202 -0.89569545 -0.091500789 0.012889846
-0.014691251 0.065946147 0.28620848 0.22606499 -0.96885574 -0.10106008 0.012834441
-0.005020258 0.066935614 0.28256115 0.1047056 -0.98882121 -0.10615729 0.013997355
0.0024224326 0.064818278 0.28466564 -0.013566418 -0.99159652 -0.12865554 0.012265881
0.014346654 0.06739895 0.28656879 -0.23376316 -0.96815789 -0.089583568 0.0099470969
0.034392387 0.060119633 0.28417093 -0.47667086 -0.87753141 -0.052188363 0.010528618
-0.021518029 -0.064467035 0.29529107 0.29738864 0.94728291 -0.1192264 0.010434823
-0.014786071 -0.066516496 0.29387996 0.20362037 0.97221577 -0.11547811 0.01290602
-0.0031686453 -0.066215165 0.29128855 -0.0041033085 0.99081713 -0.13514633 0.010196985
0.0048565674 -0.065407932 0.29690054 -0.069341607 0.98967743 -0.12542033 0.0087939436
0.018059848 -0.061061621 0.29584724 -0.31690726 0.9429419 -0.10212968 0.011950192
0.022378162 -0.064400151 0.29342633 -0.30045903 0.94660574 -0.11688406 0.011944314
-0.044962663 -0.050865173 0.2959398 0.65285528 0.74764216 -0.12170148 0.011531317
-0.036001991 -0.054892879 0.29312688 0.53289568 0.83266407 -0.15064096 0.011315778
-0.025869429 -0.058095988 0.2965368 0.4450089 0.88594627 -0.13063836 0.014172365
0.034670088 -0.057940103 0.29992715 -0.48959574 0.86515564 -0.10863627 0.012050885
0.045150716 -0.050818503 0.29516962 -0.68836671 0.7216931 -0.07287205 0.017604843
-0.048504431 -0.042955399 0.29499435 0.75291431 0.64745462 -0.11799371 0.012777403
0.039227415 -0.049948953 0.29767808 -0.61297572 0.78384072 -0.099270351 0.012207814
-0.052713525 -0.035732802 0.29534402 0.81415582 0.57117695 -0.10443696 0.012269737
0.05346914 -0.034890909 0.29312214 -0.8564772 0.51264977 -0.060307939 0.0087593542
-0.062035982 -0.027444616 0.29638803 0.89945084 0.42306322 -0.10957114 0.012479993
-0.059105929 -0.024211043 0.29449174 0.9171831 0.38459176 -0.10423265 0.014702991
0.058662727 -0.02436104 0.29793191 -0.92065626 0.37265626 -0.11627296 0.011049861
0.061727002 -0.023709886 0.29310837 -0.93386698 0.34491187 -0.094489478 0.010837688
-0.064822622 -0.011523107 0.2952956 0.97972941 0.1607838 -0.11949331 0.010132489
0.065303773 -0.012003916 0.29656854 -0.9738664 0.20400254 -0.099835731 0.010578224
-0.065263636 -0.0032399024 0.29333457 0.98943412 0.053026099 -0.13493848 0.013419373
0.064897694 -0.0078402758 0.29328707 -0.97723347 0.18988593 -0.094647385 0.011647134
-0.067116834 0.0026068096 0.29310051 0.9917959 -0.039669767 -0.12152105 0.014785465
0.063390858 0.0031326916 0.29727405 -0.99165249 -0.049979657 -0.11885832 0.017442554
-0.06398683 0.013928791 0.29184285 0.96456468 -0.24088863 -0.10764598 0.012773784
0.066794366 0.013485218 0.29368937 -0.97002578 -0.20506547 -0.13037682 0.011978182
-0.062157333 0.028123025 0.29334086 0.90500319 -0.40772077 -0.12137959 0.011595072
-0.058654036 0.024838535 0.29544729 0.91668028 -0.38178763 -0.11804914 0.012398926
0.058022618 0.027381821 0.2912088 -0.88614541 -0.44480598 -0.12997669 0.015048867
0.062249072 0.026881862 0.29741418 -0.89856517 -0.40927115 -0.15835947 0.015327703
-0.060479239 0.031521045 0.29336059 0.89599067 -0.43127888 -0.10582661 0.011859769
-0.052285489 0.035712652 0.29859519 0.81018233 -0.57446879 -0.11657698 0.01404269
0.056019671 0.038627043 0.29460287 -0.81058365 -0.57018089 -0.13359585 0.012862625
-0.044894554 0.045858666 0.29186314 0.68359816 -0.72269368 -0.10201731 0.013966139
0.047949344 0.045542266 0.2930491 -0.73806912 -0.66367388 -0.12161813 0.011399305
0.052176818 0.043443501 0.29606503 -0.7706272 -0.62197399 -0.13885999 0.010825898
-0.043822039 0.052199006 0.29375324 0.64591992 -0.75723714 -0.096847415 0.011808507
-0.032160711 0.054741852 0.29751304 0.49125698 -0.86366796 -0.11289013 0.014452453
-0.022107979 0.059465494 0.29769954 0.33885413 -0.93535262 -0.10145679 0.015587794
0.036117338 0.05511567 0.2941483 -0.55033648 -0.82586658 -0.12277714 0.013047308
0.041961383 0.052969895 0.2994217 -0.60626411 -0.78444558 -0.13072424 0.010675721
-0.03015916 0.060444873 0.29893389 0.42962605 -0.89490193 -0.12071496 0.012226134
-0.022300281 0.064617813 0.29183394 0.31438226 -0.94455671 -0.094744064 0.017574765
-0.014473373 0.06306988 0.29512987 0.20269486 -0.97485793 -0.092557065 0.013594755
-0.0059559378 0.064572893 0.2978411 0.10541379 -0.98195362 -0.15701921 0.013921146
0.003338713 0.065307342 0.29289326 0.0080643995 -0.99032378 -0.13854176 0.011792162
0.011764957 0.062789351 0.29362029 -0.17021501 -0.97701752 -0.12831026 0.0094502307
0.028275488 0.061601315 0.29711714 -0.3926875 -0.91401714 -0.10182936 0.014652998
-0.020710606 -0.063604824 0.3039127 0.28616384 0.95146775 -0.11322281 0.01320314
-0.015945731 -0.063329734 0.30430296 0.18043853 0.97589743 -0.12274466 0.014634349
0.0083282767 -0.061987698 0.30500114 -0.10979609 0.98662102 -0.12051473 0.0095638251
0.013208943 -0.060483374 0.30838287 -0.17578894 0.97524685 -0.13413368 0.011857088
0.021413149 -0.062635109 0.30839506 -0.32954597 0.93604296 -0.12338173 0.0093422383
-0.044723153 -0.0502593 0.30133986 0.64683199 0.74423409 -0.16650519 0.0095971534
-0.03450083 -0.054122381 0.30758637 0.56809855 0.8102141 -0.14428155 0.01222651
-0.019126512 -0.059677824 0.30346087 0.28548336 0.95159352 -0.11388194 0.012156714
0.038896337 -0.054602794 0.30296075 -0.57490301 0.80998445 -0.11580934 0.013370411
0.042516932 -0.051227912 0.30610311 -0.64392358 0.75355631 -0.13234538 0.015572469
-0.047976527 -0.044635843 0.30351064 0.73305756 0.66899258 -0.12278248 0.011780636
0.046582256 -0.045917701 0.30434898 -0.7462554 0.65387601 -0.12469551 0.015346125
0.051175188 -0.042401716 0.30684727 -0.80384248 0.58799773 -0.089976966 0.012195964
-0.055124018 -0.037298132 0.30604801 0.80403823 0.57936049 -0.13365555 0.013976381
0.048769981 -0.039346933 0.30377668 -0.81792337 0.56704533 -0.097267099 0.01267541
0.055945635 -0.035950974 0.30647328 -0.84304631 0.52331167 -0.1241687 0.011167951
-0.063214466 -0.022157345 0.30329609 0.93752486 0.31784892 -0.14148895 0.011602122
-0.058652818 -0.025448112 0.30835819 0.90672201 0.3907223 -0.15871724 0.01204608
0.057020146 -0.025639994 0.30450448 -0.89664626 0.42159891 -0.13520288 0.0078078955
-0.06197368 -0.013684859 0.30356917 0.96895653 0.20299147 -0.14112978 0.012675921
0.065413356 -0.013131687 0.3049885 -0.96856314 0.21563335 -0.12404718 0.013483654
0.06639187 -0.0004487946 0.30781904 -0.98931372 0.012402626 -0.14527363 0.017854599
-0.064715795 0.0047763446 0.30293697 0.98355222 -0.098664455 -0.15129569 0.0087276082
0.065075487 0.0039495532 0.30400604 -0.98999983 -0.030464176 -0.13773963 0.016831061
-0.065735742 0.013829444 0.30192345 0.96602631 -0.2164495 -0.14121898 0.013542816
0.062002908 0.014206839 0.30669072 -0.96509385 -0.21661651 -0.14721099 0.017087031
-0.058783721 0.021838704 0.30330846 0.93349004 -0.33393294 -0.13071012 0.011695598
0.056515645 0.025737733 0.30724445 -0.88553387 -0.42439517 -0.18899348 0.011289565
0.063802138 0.021273293 0.3015039 -0.92559588 -0.34554684 -0.15449797 0.0099155754
-0.05499436 0.036112506 0.30403814 0.83828777 -0.52763909 -0.13737066 0.01007089
0.048962671 0.03928794 0.30307701 -0.77124757 -0.61917651 -0.14763978 0.013827186
0.052938275 0.035284415 0.30414096 -0.8120718 -0.56033176 -0.16299602 0.011886628
-0.044750929 0.045275867 0.30400735 0.7064262 -0.69814205 -0.11644551 0.012307864
0.043270454 0.04424582 0.3090266 -0.69957423 -0.69812679 -0.15236415 0.014146163
-0.032086335 0.05581414 0.30588526 0.48368245 -0.86174411 -0.15312873 0.014188503
-0.024500445 0.057746712 0.30295813 0.38471836 -0.91411203 -0.12802789 0.015106835
0.022291129 0.058451399 0.30439037 -0.34458047 -0.93049192 -0.12429444 0.018303808
0.034217112 0.057951119 0.30191576 -0.53706765 -0.83119971 -0.14375451 0.013904258
0.042644188 0.050314456 0.3099829 -0.64553171 -0.74484545 -0.1688018 0.015954208
-0.027906228 0.060531802 0.30556884 0.39766133 -0.90351796 -0.15975197 0.015400806
-0.015289253 0.065552019 0.30135199 0.18295763 -0.97394961 -0.13397279 0.012948697
-0.0055338014 0.066918932 0.30215368 0.095379896 -0.98505735 -0.14340335 0.013678086
0.0019653733 0.062570944 0.30406663 -0.015483153 -0.98708636 -0.15943864 0.012244062
0.016301069 0.062919758 0.30191803 -0.20734292 -0.97149545 -0.11491489 0.010465001
-0.013382438 -0.062796138 0.31114718 0.20477024 0.96987492 -0.13195372 0.014147912
0.023511637 -0.060803708 0.31495172 -0.37223443 0.91525644 -0.15410085 0.014310298
-0.033631213 -0.052241646 0.31246811 0.5429247 0.82078189 -0.17762317 0.010049999
-0.015233203 -0.059436306 0.31245983 0.24052167 0.9591617 -0.14885592 0.015631825
0.025199329 -0.056617036 0.31717911 -0.43610898 0.88027954 -0.18686071 0.017027734
0.034155611 -0.052268356 0.31392479 -0.54409099 0.81711751 -0.19048354 0.016989414
-0.041925576 -0.043543428 0.31767774 0.68476653 0.69828916 -0.20853561 0.0116158
0.03615699 -0.048816189 0.31618059 -0.57160497 0.79118282 -0.21748009 0.015558717
0.045536608 -0.04502036 0.31618118 -0.71794778 0.66291559 -0.21235345 0.016077677
0.050310414 -0.04190452 0.31316632 -0.78881872 0.59089929 -0.1691242 0.015423456
-0.057702448 -0.030751236 0.31382155 0.8663168 0.4665198 -0.1784782 0.011606647
-0.049907401 -0.034446709 0.31639078 0.79847264 0.57541758 -0.17701966 0.010236835
0.047599997 -0.037016474 0.31863424 -0.78152746 0.59353054 -0.19218829 0.01730236
0.052277979 -0.035110354 0.31529406 -0.82291269 0.53987396 -0.17706154 0.013775018
-0.06060838 -0.021861568 0.31915858 0.91194618 0.37687641 -0.16222936 0.013969851
0.057223216 -0.0230064 0.31041569 -0.92819411 0.33386958 -0.16427658 0.0096750222
0.059051625 -0.014394407 0.31516427 -0.94820881 0.2440834 -0.20328136 0.014162018
0.06335222 -0.015277404 0.31465921 -0.94403434 0.26524773 -0.19606861 0.011550689
-0.063712187 -0.0054446887 0.31332147 0.99183935 0.035055619 -0.12257984 0.0096072918
0.062811345 -0.0057404125 0.31478673 -0.97887146 0.12048437 -0.1652095 0.01262032
-0.062717795 0.0024313212 0.31642127 0.98704982 -0.066630341 -0.14592105 0.011226535
0.06346453 0.00531063 0.31515905 -0.97919798 -0.066856772 -0.19157632 0.016797975
-0.060211077 0.013145394 0.31018919 0.9645099 -0.20528844 -0.16606393 0.010964091
0.064526223 0.011320475 0.31285307 -0.97075027 -0.15557311 -0.18286875 0.015154269
-0.06087295 0.023459541 0.31492817 0.90964508 -0.37215847 -0.18450981 0.014611593
-0.055971295 0.02606198 0.31808424 0.88186574 -0.42614725 -0.20177042 0.013431974
0.055120565 0.026075086 0.31436479 -0.89007521 -0.41773954 -0.18237267 0.015247586
0.060832217 0.022849035 0.31641865 -0.9182117 -0.34637162 -0.19213015 0.014813237
-0.052686047 0.035236169 0.31676757 0.83686423 -0.52009654 -0.17075652 0.012610802
0.053043414 0.039247055 0.31021905 -0.79522657 -0.58128053 -0.17241715 0.014543845
-0.050989266 0.040349387 0.3165018 0.79073125 -0.59609854 -0.1393223 0.012656629
-0.043238658 0.045279063 0.31527421 0.6785388 -0.71654212 -0.16171701 0.01062049
0.037984807 0.046753656 0.31851691 -0.62997252 -0.74911898 -0.20483008 0.015010435
0.04334731 0.044509973 0.31594536 -0.68456036 -0.70288855 -0.19319621 0.016772337
-0.040943243 0.050120626 0.31784865 0.6373558 -0.75572324 -0.15053219 0.01463484
-0.028742334 0.058392782 0.31557471 0.41516787 -0.89199114 -0.17885016 0.014348522
-0.015311008 0.05931849 0.31272948 0.19658361 -0.96513134 -0.17284776 0.012317493
0.016016584 0.057930026 0.31959808 -0.26342863 -0.95083696 -0.16283251 0.018509457
0.028757956 0.053814903 0.31427476 -0.44931838 -0.88301551 -0.13563421 0.017685108
0.035360854 0.053384829 0.3142955 -0.56361794 -0.8087433 -0.16813402 0.012856919
0.042342283 0.050013371 0.31273165 -0.64396405 -0.74742579 -0.16329415 0.016790984
-0.022943523 0.061365172 0.31298763 0.33499289 -0.92330641 -0.18784298 0.016373076
-0.011859596 0.062543318 0.31091434 0.11998889 -0.98139858 -0.14986491 0.011944807
-0.0064395913 0.06238104 0.31265178 0.082163014 -0.98317373 -0.16315266 0.010147426
0.0039880211 0.06189334 0.31411353 -0.069228821 -0.98806614 -0.13759616 0.010083767
0.010527411 0.064930521 0.3113429 -0.11547772 -0.98346037 -0.13953725 0.012371217
0.023186585 0.061606944 0.31073734 -0.33815634 -0.92478001 -0.17444853 0.017277664
