# .PCD v0.7 - Point Cloud Data file format
VERSION 0.7
FIELDS x y z normal_x normal_y normal_z curvature
SIZE 4 4 4 4 4 4 4
TYPE F F F F F F F
COUNT 1 1 1 1 1 1 1
WIDTH 581
HEIGHT 1
VIEWPOINT 0 0 0 1 0 0 0
POINTS 581
DATA ascii
-0.10210675 0.091719866 0.20530416 0.73651809 -0.67641765 -0.00048299719 0.0018667768
-0.095972918 0.097259514 0.20451625 0.70200837 -0.71216708 -0.0015315994 0.0011261168
0.096604489 0.096703507 0.20263176 -0.70250309 -0.71166253 -0.0050810603 0.0013917187
0.10257252 0.090078376 0.20810549 -0.75008869 -0.66133606 -0.0012364592 0.0016258626
-0.091739811 0.10107759 0.20601673 0.67007995 -0.74225873 -0.0067063523 0.0016727634
-0.086466379 0.10583827 0.20612901 0.63587451 -0.77177823 0.0046904068 0.0016199198
0.085992359 0.10691284 0.20704374 -0.63131696 -0.77546644 -0.0095158638 0.002314002
0.090739101 0.10319193 0.20574053 -0.65001673 -0.7598173 -0.012489372 0.0022318305
-0.081432931 0.11038692 0.20432927 0.59003979 -0.80737382 0.00069512549 0.0022581641
-0.077410497 0.11357311 0.20590095 0.56287932 -0.82651424 0.0064025954 0.0023560305
-0.067694299 0.11870165 0.20426795 0.48996755 -0.87171942 -0.0060889558 0.0014553228
0.067851409 0.11868397 0.20621672 -0.49758217 -0.86741686 -0.0001531561 0.0014108979
0.076193452 0.11328106 0.2068225 -0.55860794 -0.82942122 -0.0041890643 0.0012995915
0.081119403 0.11009762 0.20392641 -0.60751122 -0.79424781 -0.010029009 0.001650253
-0.06345351 0.12086715 0.20546108 0.47723928 -0.8787728 -0.0010465813 0.00089124771
-0.055694774 0.12482968 0.20732504 0.41969997 -0.9076606 0.0020555004 0.0012234272
-0.047937069 0.12873828 0.20565768 0.36159083 -0.93231577 0.0062846174 0.0022220328
0.047173616 0.12820821 0.20501629 -0.35049134 -0.93653393 -0.0077526919 0.0011229862
0.054336943 0.12588762 0.20693931 -0.40657374 -0.91356981 -0.0093812691 0.0018721654
0.06330017 0.12163419 0.20471193 -0.46669212 -0.8843714 -0.0092616053 0.0019268686
-0.042638499 0.13046853 0.20601524 0.32086492 -0.94705057 0.011870334 0.0028917654
-0.034896988 0.13212857 0.20397282 0.24017794 -0.97072786 0.0014002987 0.0011833706
-0.024584165 0.13433321 0.20493819 0.18123288 -0.98342746 -0.0050090631 0.00096055103
-0.015277658 0.13631976 0.20742548 0.13765624 -0.99047899 -0.0014904437 0.0015489751
-0.0057965703 0.13697931 0.20404696 0.047217626 -0.99888396 -0.0011993013 0.0017887994
0.0028141397 0.1365329 0.20774125 -0.0071817483 -0.99996483 -0.0043318179 0.0010940229
0.014606696 0.13593648 0.20448756 -0.12508063 -0.99211311 -0.0081525873 0.0013209381
0.035109341 0.13210873 0.20589818 -0.25267029 -0.96755236 -0.00034173278 0.00090508064
0.040218543 0.13045552 0.20624375 -0.28978705 -0.95708889 0.0020817728 0.0011900546
-0.040350929 -0.13040033 0.21280085 0.29596409 0.95519203 -0.0036800369 0.0015119519
-0.033536196 -0.13259947 0.2155015 0.24578251 0.96902984 -0.023918737 0.0033229154
-0.02743201 -0.13457428 0.21527626 0.20620142 0.97739589 -0.046672445 0.0089680925
-0.014866603 -0.13590105 0.21681361 0.098030463 0.99122727 -0.088647969 0.015795942
-0.0065029007 -0.13633245 0.21445097 0.05224378 0.99861991 -0.0053775203 0.00064161903
0.0053610676 -0.13694024 0.21341313 -0.030107869 0.99950904 -0.0086740032 0.0016034323
0.015018829 -0.13635932 0.21488428 -0.10963169 0.99395937 -0.0050595994 0.0023311048
0.027837239 -0.13362002 0.21430011 -0.2158833 0.97610825 -0.024639308 0.0032998298
0.035001103 -0.13208625 0.21488184 -0.25410154 0.96656471 -0.034427091 0.0054671625
0.04261991 -0.13045302 0.21663195 -0.31947356 0.94682705 -0.038145743 0.0085467678
-0.063166894 -0.12169566 0.21632464 0.45354778 0.89044124 -0.037536532 0.0078342296
-0.05649823 -0.12517343 0.21496281 0.40434146 0.914608 -0.00041242395 0.0017304108
-0.044856437 -0.12893677 0.21612132 0.33640844 0.94052899 -0.047272738 0.0090591069
0.053140085 -0.12611811 0.21603104 -0.37659723 0.92574894 -0.03410947 0.0071024681
0.06144245 -0.12187359 0.21619102 -0.45737714 0.88880521 -0.028835976 0.0064853001
-0.077112049 -0.11266874 0.21502006 0.56541151 0.82396525 -0.03729571 0.0047996044
-0.066390082 -0.11961263 0.21443266 0.47344628 0.88066149 -0.016853528 0.0024297014
0.067178428 -0.11894162 0.21605025 -0.48174074 0.87400323 -0.063593954 0.010357693
0.076303475 -0.114273 0.21506715 -0.56193745 0.82638049 -0.036353402 0.0065684943
0.080640204 -0.11107369 0.21628571 -0.59229243 0.80507475 -0.032316819 0.0058059762
-0.091189876 -0.10266595 0.21569802 0.6685856 0.74286467 -0.033844717 0.0077039357
-0.08275108 -0.109014 0.21658808 0.60716343 0.79394782 -0.031613879 0.0053361864
0.086010657 -0.10623163 0.21360445 -0.62052828 0.78418386 -0.00053538132 0.0014770128
0.091913402 -0.10089914 0.2150127 -0.67919356 0.73314846 -0.034490656 0.0047897794
-0.10082059 -0.092002705 0.21415235 0.73281783 0.68042284 0.001682561 0.00095126318
-0.094052255 -0.09949255 0.21678682 0.68239248 0.73024696 -0.03286247 0.0072149867
0.096685283 -0.096590303 0.21530212 -0.71069664 0.701621 -0.051365431 0.0060863625
0.10167283 -0.092081785 0.21764453 -0.73834682 0.67397183 -0.02461639 0.0039378335
-0.10610044 -0.086152412 0.21493417 0.77467477 0.63169068 -0.029084412 0.0052848388
0.10775208 -0.084710829 0.21329087 -0.79305524 0.60910696 -0.0072160149 0.0017801487
0.11062165 -0.08026509 0.2175622 -0.7982989 0.6006881 -0.043505073 0.0070793908
-0.11397775 -0.076563962 0.21442887 0.82463914 0.56522286 -0.022211641 0.0045569371
0.11456816 -0.07417275 0.21680522 -0.83690357 0.54565591 -0.043037008 0.0063110846
0.11873636 -0.067733556 0.21740624 -0.86645365 0.4979254 -0.036445986 0.0068097482
0.12356496 -0.060292341 0.21259597 -0.90047771 0.43484932 -0.0067753773 0.0023445268
-0.12431504 -0.056667525 0.21594447 0.90651995 0.42117935 -0.028801039 0.0063435044
0.12586917 -0.054284565 0.21545084 -0.91377079 0.40405783 -0.041954413 0.0081407325
-0.13050634 -0.042365439 0.21724172 0.94813854 0.31552139 -0.038465198 0.01040582
-0.12922415 -0.046986189 0.21649849 0.93930757 0.34088215 -0.038737636 0.0099340398
0.12921461 -0.044017602 0.21266241 -0.94001454 0.34112552 0.0024642651 0.00081433641
0.13022773 -0.040868092 0.21562703 -0.95551109 0.29433018 -0.019191273 0.0030076294
-0.13210635 -0.034903847 0.21527645 0.96524626 0.26081705 -0.016559837 0.0025320551
0.13242686 -0.03406512 0.21630011 -0.96901619 0.24361159 -0.040754903 0.0078541376
-0.13413052 -0.025430003 0.21676934 0.98236674 0.17988202 -0.050971799 0.0078351162
0.13517912 -0.024715757 0.21696213 -0.9824447 0.17736284 -0.057833705 0.010326667
-0.1364018 -0.014828767 0.21504737 0.99020696 0.13477531 -0.036411289 0.0058959415
0.13603657 -0.012332686 0.2134151 -0.99582309 0.091304056 0.00025820834 0.0017658268
-0.13691041 -0.0048988303 0.21688707 0.99724358 0.030537646 -0.067621648 0.012311862
0.13637044 -0.0057575284 0.21450298 -0.99879152 0.048300441 -0.0090843234 0.00090882048
-0.1363959 0.005206483 0.21599287 0.99957919 -0.027123421 -0.010279041 0.00067454891
0.1368807 0.0041789073 0.21296099 -0.99977189 -0.020791858 -0.0048792241 0.001667541
-0.13589135 0.01515196 0.21409872 0.99331504 -0.11540531 -0.0026138322 0.001188818
0.13603599 0.016535427 0.21542266 -0.99243975 -0.1175893 -0.035157856 0.0054193134
-0.1349878 0.025100971 0.2143521 0.98194706 -0.18781371 -0.022494989 0.0040408662
0.13413291 0.025434697 0.21491878 -0.98167402 -0.18665731 -0.038407534 0.0050496445
-0.131983 0.035443753 0.21522641 0.96140796 -0.27193579 -0.041780248 0.0049895081
0.13220674 0.034451835 0.21326633 -0.96948475 -0.2451081 -0.00463587 0.00085594039
-0.12853967 0.046090655 0.21500921 0.9416976 -0.33469677 -0.034405567 0.0034535388
0.12938283 0.046667777 0.2143517 -0.93238384 -0.3613216 -0.010343149 0.0024361778
0.1300773 0.044395298 0.21438 -0.94078267 -0.33892247 -0.0077173961 0.0026913909
-0.12562028 0.055072732 0.21535671 0.91620058 -0.39989886 -0.025639692 0.0041204295
0.12511201 0.055111226 0.21525162 -0.90659261 -0.42032084 -0.037686806 0.0072828867
-0.12205745 0.062610678 0.2155565 0.89147383 -0.45229357 -0.026550915 0.004459525
-0.11886045 0.067536995 0.21889907 0.86783808 -0.49317414 -0.060301624 0.011517338
0.11888324 0.067301489 0.21379745 -0.8646 -0.50244135 -0.0044196914 0.0017852064
0.12088518 0.063380241 0.21509933 -0.88292062 -0.46951646 -0.0023630005 0.0014257983
-0.11449276 0.074295878 0.21477748 0.83823007 -0.54529697 -0.0046494477 0.00076679204
0.11483989 0.074979737 0.21538389 -0.82889998 -0.55877697 -0.026326306 0.0034464472
-0.11009572 0.081075057 0.218243 0.78818786 -0.61209536 -0.064023778 0.015933894
-0.10743224 0.085164323 0.21449886 0.78771907 -0.61603373 -0.0010766992 0.0019676269
0.10506887 0.087296039 0.21455635 -0.77250695 -0.63469529 -0.01987505 0.0033781484
0.11117452 0.080534086 0.21420312 -0.80924332 -0.58700436 -0.02347414 0.0033966438
-0.10334121 0.090585411 0.21356139 0.75372261 -0.65709096 -0.011560525 0.0025641781
-0.095610976 0.097566135 0.21283998 0.69638205 -0.71764642 -0.0059764939 0.0013294896
0.097275771 0.095922992 0.21643429 -0.71672982 -0.69715273 -0.016624581 0.0036765791
0.10090371 0.091910005 0.21439123 -0.73267472 -0.68023419 -0.02166163 0.0032331424
-0.09188769 0.1009156 0.21780109 0.6871112 -0.72302079 -0.071549229 0.014569899
-0.084642977 0.10745857 0.2168449 0.61350334 -0.78834969 -0.046027187 0.0071088895
0.083720013 0.1083886 0.21565942 -0.61330932 -0.78826231 -0.049941301 0.0096803065
0.092119023 0.10164398 0.21301517 -0.67361063 -0.73902661 -0.0094036721 0.0019921686
-0.08135777 0.11042409 0.21701831 0.60039145 -0.79921395 -0.028057886 0.0044070524
-0.072639585 0.11615392 0.21403566 0.53053379 -0.84756738 -0.012784642 0.0021316225
-0.068083882 0.1184891 0.21091536 0.493705 -0.86962903 -0.00087151653 0.0014446783
0.068004504 0.11856409 0.21592033 -0.50014681 -0.86589807 -0.0085927388 0.0025469249
0.075994797 0.1133875 0.21719922 -0.56260645 -0.82171386 -0.090885751 0.016221618
-0.061215922 0.12198892 0.21642038 0.45134947 -0.89125139 -0.044211645 0.0070849098
-0.053784579 0.1257876 0.21653537 0.40727499 -0.91150296 -0.057353474 0.013664287
-0.048405897 0.12849449 0.21378207 0.36541939 -0.93084204 -0.0013611416 0.0024093557
0.044785555 0.12896585 0.21285529 -0.34021318 -0.94033253 -0.0054435283 0.0015842037
0.055655658 0.12544712 0.21434624 -0.4031139 -0.91507047 -0.012053374 0.0016934137
0.064303137 0.12096348 0.21465647 -0.46795455 -0.88373423 -0.00568244 0.0025537317
-0.042820752 0.13041395 0.2145004 0.31284678 -0.94972885 -0.011915809 0.0036604712
-0.035468202 0.13198514 0.21552432 0.25969547 -0.96481448 -0.041126005 0.0060766093
-0.027227806 0.13374734 0.21597974 0.20341036 -0.97815251 -0.042915989 0.0048572747
-0.014878605 0.1363938 0.21360087 0.12844838 -0.9917044 -0.0048404839 0.0016380382
-0.0048630699 0.13690813 0.21713068 0.023064878 -0.99920899 -0.032395571 0.0041954294
0.0057349205 0.13637272 0.21387665 -0.048668545 -0.99880522 -0.0044207615 0.00080802356
0.017495824 0.13576612 0.21716996 -0.14053226 -0.98643881 -0.084788464 0.016237846
0.023982551 0.13518241 0.21411031 -0.17160703 -0.98513132 -0.0082021067 0.0020075862
0.035548087 0.13194901 0.21534745 -0.24748799 -0.96811646 -0.038733725 0.006321412
0.041365653 0.13006547 0.21632349 -0.32027966 -0.94623101 -0.045474458 0.0081777619
-0.040628396 -0.13027942 0.22932062 0.27467465 0.94161218 -0.19473179 0.084130667
-0.037140351 -0.13141713 0.22428091 0.23608787 0.95779318 -0.1639958 0.045960464
-0.023343073 -0.1354344 0.22474536 0.15868074 0.97075504 -0.18015321 0.055556588
-0.016420692 -0.13580135 0.2281314 0.10136116 0.97964585 -0.17326269 0.065172464
-0.0030233494 -0.13649175 0.22469766 0.01327094 0.97406095 -0.22589654 0.063872673
0.0045891157 -0.13688 0.22499955 -0.03029854 0.96685648 -0.25351635 0.055396128
0.014729146 -0.13639446 0.22624421 -0.049398631 0.97663563 -0.20914745 0.070529163
0.023775237 -0.1344724 0.22338615 -0.14793363 0.97311735 -0.1765172 0.049002733
0.033270564 -0.13243607 0.22601795 -0.1987832 0.9712109 -0.13128023 0.048313268
0.042906553 -0.13037297 0.2268271 -0.29576227 0.94811386 -0.11663961 0.03896929
-0.062533081 -0.12208825 0.22465216 0.44825187 0.87412709 -0.18700847 0.053211961
-0.054685757 -0.12571102 0.22250158 0.39208546 0.91704476 -0.0727873 0.0148648
-0.046050832 -0.12853387 0.22491279 0.37085438 0.91857618 -0.13669266 0.048706371
0.046625622 -0.12940878 0.22484444 -0.33544484 0.9372589 -0.094986804 0.023413859
0.055057779 -0.12512442 0.22264764 -0.40223452 0.89898628 -0.17329508 0.04143716
0.06253209 -0.12129544 0.2266649 -0.46258494 0.87553293 -0.1394894 0.044008035
-0.073827803 -0.1147759 0.22410595 0.5656001 0.80743277 -0.16777627 0.04337256
0.068919457 -0.11802567 0.22890753 -0.50359935 0.85100847 -0.14890336 0.064052373
0.076092377 -0.11422413 0.22393362 -0.53984755 0.83076108 -0.13564835 0.029362848
0.08175993 -0.11004402 0.22404853 -0.59586936 0.79738158 -0.095511064 0.01975953
-0.092172205 -0.10155148 0.22555508 0.64899045 0.74908167 -0.13299619 0.05398275
-0.085297912 -0.1073405 0.22389141 0.61668873 0.77614045 -0.1315337 0.031335045
0.086222343 -0.10601366 0.2247085 -0.62962842 0.7625851 -0.14843182 0.031525388
0.091805294 -0.10097959 0.22209957 -0.66044855 0.73958755 -0.12968448 0.025943719
-0.10205289 -0.090608142 0.22520806 0.73573393 0.66299468 -0.13832396 0.0426029
-0.097383931 -0.095777974 0.22584952 0.70902795 0.68322706 -0.17458588 0.046097543
0.096669972 -0.096577153 0.22645319 -0.69393289 0.69945699 -0.17092979 0.050481182
0.10084583 -0.092808992 0.22567451 -0.73443484 0.65799314 -0.16628471 0.047844924
-0.11139688 -0.080246188 0.22974071 0.79347044 0.5832665 -0.17379525 0.060590431
-0.10485508 -0.087506212 0.22449808 0.74191171 0.63798738 -0.20625037 0.045949139
0.10639282 -0.086734973 0.2239183 -0.74644917 0.65032685 -0.14102741 0.030429492
0.11027125 -0.080783971 0.2243018 -0.80404454 0.58758456 -0.09086743 0.026585214
-0.11505809 -0.074516155 0.22532175 0.82974434 0.53998953 -0.14119349 0.039270315
0.1138966 -0.075186618 0.22384948 -0.82711166 0.53434461 -0.17424724 0.05154926
-0.12101576 -0.063088477 0.22431077 0.87259853 0.47192767 -0.12592094 0.02920023
-0.11857746 -0.067849852 0.22643282 0.87593001 0.46101961 -0.14215286 0.035836652
0.11816657 -0.068580166 0.22750455 -0.85163319 0.49965444 -0.15832339 0.066786647
0.12096235 -0.0642692 0.22546533 -0.88314742 0.45253572 -0.12353996 0.039214864
-0.12582786 -0.053668972 0.22588813 0.88971615 0.43209279 -0.14731231 0.052295789
0.12572122 -0.054516003 0.22607255 -0.91442746 0.3780548 -0.14455801 0.055313013
-0.13044725 -0.042579267 0.22450717 0.93996143 0.30560315 -0.15191849 0.042316876
-0.12809251 -0.049237221 0.22632149 0.90835536 0.3971338 -0.1310544 0.04870823
0.1287269 -0.045437291 0.22777981 -0.91848737 0.34196329 -0.19860046 0.074669734
-0.13193581 -0.035609946 0.22588615 0.96391463 0.23959152 -0.11603668 0.030717017
0.13262071 -0.033408094 0.22619367 -0.95833272 0.24080266 -0.15366367 0.044114105
-0.13465543 -0.022909526 0.22458526 0.98213279 0.12133606 -0.14384985 0.04022745
0.13492978 -0.026282445 0.22392435 -0.96589369 0.18056385 -0.18559684 0.047882967
-0.1364878 -0.014331005 0.22622053 0.98448098 0.075144261 -0.15858926 0.064030364
0.13593993 -0.013745291 0.227053 -0.97184986 0.11601747 -0.20505573 0.065017641
-0.13690944 -0.0051256213 0.22386724 0.97609687 0.067024484 -0.20674291 0.054026384
0.13639005 -0.0050100321 0.22483616 -0.98422503 0.044281386 -0.17128971 0.051267318
-0.13641357 0.0045083789 0.22599567 0.97517186 -0.044196054 -0.21699443 0.07254681
0.13686799 0.0043609147 0.2252011 -0.98098356 -0.0072658421 -0.19395502 0.059753649
-0.13570683 0.018298345 0.22735748 0.97181356 -0.12095039 -0.20235948 0.076535463
0.13605817 0.016331714 0.22708912 -0.97648793 -0.084341399 -0.19838819 0.064493604
-0.13499086 0.024838403 0.22481996 0.9635939 -0.19861925 -0.17898947 0.06778428
0.13391948 0.026341828 0.22546169 -0.97426021 -0.16512607 -0.15346135 0.049776644
-0.13234496 0.034269772 0.22463214 0.95766222 -0.24537896 -0.15057294 0.039983664
0.13141713 0.038051259 0.22390299 -0.94912183 -0.26788029 -0.16555358 0.038595613
-0.12936842 0.043462783 0.2262582 0.94209838 -0.30908811 -0.13005832 0.052472644
0.12839665 0.048652064 0.22384362 -0.92997575 -0.35112691 -0.10888076 0.026495084
0.13069794 0.04139407 0.22608468 -0.95091558 -0.28301141 -0.12515633 0.037833136
-0.12507451 0.05651921 0.22746995 0.89454883 -0.39977527 -0.19990508 0.065719076
0.12544073 0.0544306 0.22478388 -0.89502436 -0.40600109 -0.18464731 0.056778073
-0.12372778 0.060005166 0.22341144 0.88460362 -0.44414908 -0.14215514 0.033360958
-0.11821572 0.068509385 0.22594348 0.8404454 -0.50049388 -0.20774354 0.053418603
0.11885538 0.067312896 0.2247283 -0.86254245 -0.46607906 -0.19695392 0.045599312
0.12128681 0.062554859 0.22517577 -0.87919819 -0.44400728 -0.17282359 0.052172646
-0.11531653 0.07298559 0.22632122 0.82570803 -0.52805358 -0.19840762 0.054897018
0.11552124 0.073835164 0.22469342 -0.83352929 -0.52588511 -0.16933334 0.04172549
-0.11041847 0.080540448 0.22919574 0.79893267 -0.58864188 -0.12331814 0.04635093
-0.1072339 0.085447803 0.22455779 0.7694183 -0.62160832 -0.14696445 0.03433029
0.10839233 0.083588243 0.2244817 -0.81039816 -0.57439142 -0.11545248 0.036920544
0.111332 0.080321521 0.22844213 -0.81533122 -0.57120192 -0.094674468 0.038905922
-0.10236926 0.09143924 0.22334903 0.72575063 -0.66801333 -0.16445138 0.037414145
-0.097819343 0.095551834 0.22134089 0.72644186 -0.67882925 -0.10711262 0.024657069
0.097147845 0.096042082 0.22486809 -0.68078089 -0.7162087 -0.15356609 0.047873482
0.10210135 0.090565525 0.22108054 -0.75309581 -0.6516118 -0.090823092 0.025889127
-0.090762913 0.10190997 0.22652872 0.67704278 -0.71919847 -0.15609846 0.061356947
-0.08531981 0.10683062 0.22383219 0.59178936 -0.79031414 -0.1587097 0.037687991
0.083651215 0.10841443 0.22440605 -0.61081374 -0.78468108 -0.10574578 0.021075705
0.090950534 0.10290949 0.22375135 -0.64808977 -0.74924171 -0.13644272 0.040036015
-0.081405312 0.1103577 0.22671892 0.59297013 -0.78065205 -0.19740526 0.056233283
-0.077345379 0.11341514 0.22555807 0.53587568 -0.82289505 -0.18889397 0.04452895
0.067725331 0.11872268 0.22629543 -0.484907 -0.86044317 -0.15653357 0.044348162
0.073695526 0.11486135 0.22420162 -0.54949683 -0.82889652 -0.10480359 0.024123535
-0.063965961 0.12055631 0.22970456 0.4776476 -0.85985398 -0.18028837 0.060600877
-0.056779016 0.12423377 0.22798604 0.41195998 -0.89827108 -0.15296426 0.063064888
-0.047891948 0.12879057 0.22118846 0.35326654 -0.93256617 -0.074317105 0.016589174
0.046394002 0.12842084 0.22598138 -0.34096539 -0.92748255 -0.15335792 0.041322
0.053154238 0.12624095 0.22242849 -0.36600053 -0.92574149 -0.095111802 0.018787932
0.065643676 0.12006819 0.22741333 -0.44633615 -0.87336218 -0.19499384 0.056993321
-0.04284592 0.13038659 0.22647697 0.27556413 -0.95355511 -0.12164288 0.043978419
-0.03676156 0.13168924 0.22597948 0.25297788 -0.95892775 -0.12829565 0.041538741
-0.023249742 0.1345869 0.22227247 0.14692715 -0.97638655 -0.15837178 0.036313355
-0.016261216 0.13607739 0.22482571 0.12224432 -0.96698105 -0.22361575 0.04957955
-0.0051168548 0.13690442 0.2264096 0.027557621 -0.98601401 -0.16436842 0.041539125
0.0040583676 0.13643494 0.2268852 -0.020833623 -0.98095012 -0.19313924 0.066043705
0.013223207 0.13597001 0.22514243 -0.10683987 -0.98170996 -0.15757798 0.032655228
0.0228687 0.13532028 0.22570875 -0.16411288 -0.9681282 -0.18919462 0.055984773
0.033698734 0.13253158 0.223611 -0.22961038 -0.96100754 -0.15408969 0.03405967
-0.040814564 -0.13020021 0.23939323 0.21218468 0.96682686 -0.14220987 0.13185146
-0.035555176 -0.13191313 0.2331541 0.19685577 0.9498263 -0.24305937 0.11033016
-0.024982756 -0.13490988 0.23800586 0.16947038 0.98093611 -0.095100842 0.11808675
-0.016737532 -0.13577303 0.23487052 0.09565299 0.97309482 -0.20961162 0.097331822
-0.0060194018 -0.13631742 0.2365616 0.018674325 0.98074108 -0.1944176 0.1371378
0.0050688898 -0.13688721 0.23462494 -0.024369676 0.98452538 -0.17353953 0.079295196
0.012118302 -0.13691816 0.23259395 -0.078078687 0.97578162 -0.20433789 0.079186805
0.025337756 -0.13411774 0.23449428 -0.18006505 0.96929139 -0.16748381 0.095231131
0.033956949 -0.13226758 0.23780867 -0.18438281 0.97560924 -0.11911973 0.11632206
-0.06172967 -0.12258784 0.23430097 0.46536595 0.86714274 -0.17747676 0.077261023
-0.055357475 -0.12550841 0.2329839 0.40928859 0.89519519 -0.17637627 0.077123828
-0.048012678 -0.12787813 0.2361353 0.35376027 0.91717297 -0.1834325 0.11916799
0.04683961 -0.12921393 0.23730105 -0.36838448 0.92692262 -0.071465686 0.10605449
0.056202825 -0.12451385 0.2351675 -0.42036858 0.89838886 -0.12723082 0.069831379
0.062273838 -0.12141328 0.23370491 -0.44437051 0.87669462 -0.18423173 0.084480196
-0.080800124 -0.11023618 0.23581123 0.58974487 0.79502946 -0.14187714 0.084167384
-0.078930631 -0.11143985 0.23901856 0.57694572 0.81307828 -0.077699773 0.096723884
-0.067891747 -0.11860506 0.23090068 0.47474259 0.8620531 -0.17743695 0.079333618
0.067476995 -0.11874547 0.2376401 -0.51209223 0.85013664 -0.12259374 0.11422932
0.075962074 -0.11441223 0.23416445 -0.55924827 0.82052511 -0.11823635 0.057532962
0.081463292 -0.11027796 0.23805085 -0.6014539 0.78476954 -0.14963236 0.11360966
-0.092155069 -0.10154957 0.2333625 0.62574732 0.75455844 -0.19769128 0.0896722
-0.085107356 -0.10741717 0.23536152 0.62973499 0.76165974 -0.15267015 0.084184393
0.086790249 -0.10547785 0.23426822 -0.61631471 0.76950192 -0.16740063 0.068877414
-0.0982548 -0.094789714 0.23467289 0.67201811 0.72689217 -0.1414904 0.079090893
0.095449425 -0.097657181 0.23550184 -0.70463502 0.69700605 -0.13293631 0.083595484
0.10231816 -0.091457576 0.23484564 -0.74605262 0.65862083 -0.098101929 0.07087978
-0.10657307 -0.085577197 0.23423824 0.76114017 0.64480263 -0.069965035 0.055466399
0.10666768 -0.086264014 0.23239337 -0.77385843 0.60759068 -0.17882016 0.07780195
0.11022177 -0.080826685 0.23450926 -0.77778178 0.59065253 -0.21490714 0.12004015
-0.11405651 -0.076142803 0.23539951 0.83301824 0.54027587 -0.11909068 0.091896556
0.11308768 -0.076392464 0.23699617 -0.79796475 0.58041251 -0.16239944 0.12057398
-0.12233944 -0.060448214 0.23722257 0.88670295 0.45987964 -0.047628876 0.079618283
-0.1188468 -0.067301452 0.23188871 0.8576327 0.49176782 -0.15043458 0.074658737
0.1186798 -0.067766212 0.23396969 -0.86109412 0.46537635 -0.20479718 0.10957303
0.12135047 -0.063634835 0.23605411 -0.85079741 0.49801764 -0.16769655 0.12058049
-0.12512147 -0.055017211 0.23440468 0.88207775 0.45926017 -0.10497086 0.0657124
0.12564972 -0.054911472 0.23454194 -0.89519429 0.41545036 -0.16133288 0.078130826
-0.13065697 -0.041494545 0.23668897 0.95029324 0.28879115 -0.11637215 0.083440825
-0.12854318 -0.048309632 0.23799153 0.92653596 0.3671385 -0.082099967 0.10824961
0.12908415 -0.044302039 0.23304813 -0.91147703 0.30844378 -0.27216172 0.095502719
0.1301406 -0.041050345 0.23056515 -0.94209296 0.27940682 -0.18545246 0.067159086
-0.13209096 -0.034817606 0.23371947 0.95260525 0.24037074 -0.18645419 0.10892764
0.13246809 -0.033833172 0.2342263 -0.94905537 0.2558516 -0.18393941 0.082075045
-0.13404368 -0.025668517 0.23628199 0.97061861 0.17469804 -0.16546929 0.097528316
0.13505295 -0.024625869 0.23481691 -0.980542 0.12997234 -0.14712086 0.09898077
-0.13588229 -0.017081769 0.23547001 0.98239565 0.049129643 -0.18023628 0.081328332
0.13576829 -0.016857568 0.23410502 -0.97234684 0.10451999 -0.20884739 0.087741941
-0.13695969 -0.0064816214 0.23444654 0.98070973 -0.025429029 -0.19380908 0.090285257
0.13643298 -0.0038472903 0.23398425 -0.97463197 0.031352546 -0.22160694 0.098244078
-0.13630532 0.0062501444 0.23672801 0.99107283 -0.025249137 -0.13090849 0.11920365
0.13671924 0.0018770797 0.23737994 -0.98664325 -0.0076387906 -0.16271652 0.10816119
-0.13581963 0.015768511 0.2364853 0.98705238 -0.089209877 -0.13330162 0.1188511
0.13658369 0.013827275 0.23269244 -0.97874999 -0.11334313 -0.17088543 0.064503893
-0.13476177 0.026106248 0.2355141 0.97885811 -0.12196577 -0.16419843 0.095587105
0.13456087 0.023255041 0.2358233 -0.97582042 -0.098535866 -0.19510309 0.11245564
-0.13235885 0.034165222 0.23519027 0.94420654 -0.29791474 -0.14043097 0.1021898
0.13205667 0.034960505 0.23574203 -0.95623446 -0.26490033 -0.12427142 0.1111825
-0.12808409 0.047386456 0.23433053 0.92092746 -0.32600418 -0.21357384 0.10076938
0.12927112 0.046654455 0.2346389 -0.93421358 -0.31815064 -0.16132382 0.11493987
0.13055427 0.041981593 0.23587123 -0.9485119 -0.29541421 -0.11426126 0.093895882
-0.12598899 0.053872891 0.23276591 0.910133 -0.38063961 -0.16361956 0.087780729
0.12523039 0.054803096 0.23467101 -0.86491269 -0.45136777 -0.21952936 0.11327047
-0.12220478 0.062313963 0.23651023 0.90470392 -0.40946436 -0.11768493 0.10395227
-0.1172392 0.069988474 0.23473886 0.87777138 -0.44860351 -0.16814403 0.10078173
0.11882204 0.067354627 0.2306861 -0.8552916 -0.48578873 -0.18023781 0.087057486
0.12117511 0.062736563 0.23450099 -0.88188255 -0.44807747 -0.14666218 0.094209075
-0.11485241 0.073669694 0.23620029 0.86691743 -0.47833574 -0.14017463 0.094216652
0.11457454 0.075566299 0.23681363 -0.84974611 -0.52034414 -0.08469715 0.087524951
-0.10605935 0.087125026 0.23495913 0.77025366 -0.62257385 -0.13824269 0.068813525
0.10523524 0.087055258 0.23564856 -0.77184999 -0.62772882 -0.10101485 0.078702256
-0.1012196 0.092449971 0.23460089 0.70666528 -0.69170851 -0.1488744 0.078942813
-0.097248852 0.096034907 0.23456828 0.67812121 -0.71961123 -0.14937003 0.070233956
0.098227791 0.094821133 0.23411421 -0.70662063 -0.6972003 -0.12082665 0.082984596
0.10064676 0.092149079 0.2313849 -0.70622343 -0.68731707 -0.16983438 0.076008424
-0.09229143 0.10052091 0.23028153 0.65420568 -0.73378766 -0.18322282 0.075980745
-0.084827833 0.1072462 0.23564754 0.59842128 -0.78979868 -0.13457294 0.098731644
0.085288092 0.10731472 0.23501536 -0.61604565 -0.78199273 -0.094736844 0.077883355
0.091887854 0.10183822 0.2360938 -0.68877149 -0.71814835 -0.09928152 0.086698167
-0.081765838 0.11001588 0.23347664 0.57221925 -0.80687922 -0.14666617 0.071872316
-0.075926349 0.11441056 0.23506463 0.54213637 -0.83109319 -0.12398545 0.10712054
-0.065819107 0.11960179 0.23327348 0.51801658 -0.82899565 -0.21077269 0.089881137
0.067562602 0.11880776 0.23578072 -0.50160205 -0.85688746 -0.1189089 0.11667305
0.073712677 0.11482827 0.23447712 -0.49834508 -0.84454805 -0.19593546 0.1238352
-0.063780174 0.12064534 0.23265332 0.50514817 -0.83898872 -0.2022949 0.080323488
-0.054492615 0.12538908 0.23467489 0.40273914 -0.9050889 -0.13643804 0.075632818
-0.045702219 0.12974629 0.23496509 0.34385356 -0.92100853 -0.18305208 0.10559338
0.045474134 0.12869586 0.23791347 -0.31211883 -0.94538909 -0.093921274 0.1418408
0.054660212 0.1257312 0.23443404 -0.39387354 -0.91069031 -0.12452561 0.10368107
0.064027444 0.12109341 0.23737988 -0.50525415 -0.85920966 -0.080479808 0.12785751
-0.042183377 0.13051818 0.23201016 0.28719372 -0.93438792 -0.21080564 0.089030087
-0.036137722 0.13180511 0.23557442 0.25618801 -0.95238745 -0.16530557 0.12753026
-0.025597582 0.13406156 0.23481078 0.14658453 -0.97313964 -0.17751639 0.081052862
-0.015525879 0.13621247 0.2369431 0.1398747 -0.98007071 -0.14105482 0.081658527
-0.0061158682 0.13694231 0.23372149 0.051620379 -0.97573018 -0.21280491 0.095316902
0.0043154405 0.13640933 0.23384188 -0.020308577 -0.97647381 -0.21467753 0.093779892
0.013961325 0.13591306 0.23585987 -0.12051422 -0.9751845 -0.18571922 0.1080792
0.024746696 0.13506848 0.23519368 -0.19448753 -0.96960634 -0.14845215 0.11883927
0.033993129 0.13241588 0.23447526 -0.23734549 -0.95333606 -0.1865942 0.11472746
0.040220588 0.13039987 0.23539278 -0.27239543 -0.95212322 -0.13878769 0.097666077
-0.040643454 -0.13024566 0.24463722 0.23626484 0.9704048 0.049934078 0.13531891
-0.034373622 -0.13162251 0.24410658 0.27142972 0.96222138 0.021349015 0.14320958
-0.023984399 -0.13498968 0.24415572 0.14358597 0.98921049 0.029080136 0.10944857
-0.014604385 -0.13501935 0.24630322 0.1082544 0.99149156 0.072287694 0.10872063
-0.0041832295 -0.13484566 0.24587475 0.061871935 0.99021661 0.12507188 0.14584126
0.0034015267 -0.1355397 0.24323532 -0.02558138 0.99950397 -0.018366529 0.12092535
0.015567608 -0.13450158 0.24352685 -0.12126093 0.99234533 0.023377545 0.16564466
0.02466657 -0.13389312 0.24374166 -0.10785595 0.99402565 0.016732756 0.14612393
0.034261622 -0.13215628 0.24347731 -0.23481618 0.97199476 -0.0093600573 0.12342816
0.040169518 -0.13172382 0.24276261 -0.24991868 0.96802986 -0.021420728 0.145419
-0.061892435 -0.12199986 0.24551837 0.49984062 0.86499143 0.044150274 0.093890809
-0.055138577 -0.12507676 0.24410269 0.39543694 0.91847217 0.006211678 0.11043711
-0.045749217 -0.12774381 0.24476661 0.35281006 0.93452245 0.046827734 0.1355795
-0.033871535 -0.12512764 0.24276261 0.21851398 0.97381407 -0.06275095 0.18398374
-0.022027163 -0.12470751 0.24276261 0.076318368 0.98081762 -0.17936623 0.25059217
-0.015144301 -0.12440699 0.24276261 0.16760784 0.98148817 -0.092674538 0.25660917
-0.0053747641 -0.12496114 0.2427626 0.020484893 0.21213867 -0.97702485 0.24328133
0.003246401 -0.12525058 0.2427626 -0.043317422 -0.051839039 -0.99771559 0.21175681
0.013583913 -0.12420966 0.2427626 0.098027073 -0.52084684 -0.84800303 0.23924558
0.025572885 -0.12745191 0.2427626 -0.11614025 0.99142635 -0.05987639 0.1712105
0.037471034 -0.12535731 0.24276261 -0.22145562 0.97378778 -0.051912542 0.19775146
0.046112262 -0.12780754 0.24287716 -0.31852505 0.94782627 -0.012925858 0.14484937
0.05396663 -0.125 0.24446495 -0.42157829 0.90582156 0.041940242 0.10760172
0.061246 -0.12192442 0.24079207 -0.45141843 0.89102292 -0.047953904 0.12061913
-0.073593833 -0.1141252 0.24481075 0.45441523 0.87788993 0.15104961 0.16998856
-0.063995376 -0.11630885 0.24309398 0.59281236 0.8049956 0.023569288 0.20108604
-0.053006805 -0.11337318 0.2427626 0.04568715 -0.0022952247 -0.99895322 0.23956051
-0.046649873 -0.11625396 0.24276261 -0.07502012 -0.17750292 -0.98125666 0.24459977
-0.03306099 -0.11407503 0.24276261 0.0091806538 0.060791951 -0.99810821 0.12324414
-0.024211092 -0.11334457 0.2427626 0.019953946 0.06416449 -0.99773979 0.08058995
-0.016785191 -0.11708887 0.24276261 -0.039891787 -0.045532558 -0.99816602 0.14847142
-0.0050728056 -0.11634766 0.24276261 -0.064465359 0.019695472 -0.99772555 0.11329748
0.002934423 -0.11463071 0.2427626 -0.0096524926 0.091888823 -0.99572247 0.08646071
0.015531641 -0.11666727 0.2427626 0.0018395705 0.078185067 -0.99693716 0.13178818
0.024870731 -0.1152605 0.24276261 0.047479443 0.0053862524 -0.99885768 0.15043554
0.035525814 -0.11725353 0.2427626 0.014216305 -0.016036486 -0.99977034 0.22623998
0.04404363 -0.11789572 0.24276261 -0.30047265 0.95036024 -0.080817826 0.26015872
0.056317601 -0.11249383 0.24276261 -0.38289309 0.58559763 -0.71447068 0.27472919
0.065803379 -0.11777015 0.24497181 -0.50010407 0.86458021 0.048959091 0.12894754
0.076776773 -0.11306306 0.24521092 -0.58204716 0.81143248 0.052900404 0.15390059
0.080346376 -0.11126011 0.24889651 -0.6030342 0.79311371 0.085559338 0.099054679
-0.091955572 -0.10096386 0.24429359 0.62085712 0.78392243 -0.0013879766 0.11194292
-0.083265588 -0.10682137 0.24460205 0.6295104 0.77657342 0.025501207 0.087981142
-0.073545046 -0.10445657 0.24276261 0.48141912 0.84127873 -0.24593836 0.24306716
-0.064758204 -0.10479168 0.24276261 -0.073463202 -0.14235798 -0.98708528 0.20208089
-0.051559072 -0.10093222 0.24276261 -0.01711183 0.022240419 -0.99960625 0.064109899
-0.046341904 -0.10453364 0.24276261 -0.0034561919 0.058734886 -0.99826759 0.082297333
-0.032849316 -0.10530557 0.24276261 0.00039055714 0.0054696142 -0.99998498 0.038251147
-0.025615061 -0.10529852 0.2427626 0.012041809 0.037459061 -0.99922562 0.0083497306
-0.014030017 -0.10471973 0.24276261 3.900154e-07 -4.7632479e-05 -1 6.4130734e-05
-0.0041829012 -0.1060703 0.2427626 0.0021350172 -0.014525766 -0.99989223 0.00068657013
0.0058889529 -0.1026719 0.24276263 -5.569246e-08 -1.6476306e-05 -1 6.0414382e-05
0.015801398 -0.10591154 0.2427626 0.0016454995 -0.0071110469 -0.99997336 0.00014367636
0.02594064 -0.10681709 0.24276263 0.0070847808 -0.02533837 -0.99965382 0.019872079
0.035210382 -0.10409377 0.24276261 0.0088198474 -0.0073785111 -0.99993384 0.012326403
0.046679746 -0.1047476 0.24276261 -0.074978337 -0.0057693589 -0.99716848 0.10108638
0.055741146 -0.1065374 0.24276261 0.041271169 -0.21017678 -0.97679192 0.2030631
0.065217383 -0.1077802 0.2427626 -0.56291956 0.82642871 -0.011707238 0.23401703
0.074722879 -0.10346498 0.24276258 -0.59659618 0.64925474 -0.47174278 0.24302088
0.084834732 -0.10620064 0.24304642 -0.57357305 0.81667376 -0.063701525 0.11519996
0.092035614 -0.10071299 0.2463599 -0.64559162 0.76018298 0.073029563 0.12121048
-0.10202215 -0.091217637 0.24308527 0.70467108 0.70807582 -0.045466889 0.097474448
-0.095405072 -0.09525317 0.24384293 0.69050252 0.72320092 -0.013663042 0.078925423
-0.083569109 -0.093822166 0.2427626 0.27092326 0.33649606 -0.90187085 0.25277016
-0.073564604 -0.096211299 0.24276261 0.055306889 -0.12247496 -0.99092942 0.16312777
-0.064789854 -0.094869323 0.2427626 -0.0012948845 0.0099711567 -0.99994946 0.080590606
-0.05375322 -0.092463709 0.2427626 -0.0065167542 -0.0076139583 -0.99994975 0.00031330439
-0.044600744 -0.095035121 0.24276261 -0.000998075 -0.0015254169 -0.99999827 6.8612448e-05
-0.034483656 -0.094478436 0.2427626 -5.546648e-06 -9.5922442e-06 -1 6.2937936e-05
-0.025161691 -0.096372761 0.24276261 -1.2844115e-05 -3.9194554e-05 -1 6.6972418e-05
-0.015658658 -0.094353534 0.2427626 -1.0187081e-06 -4.8656562e-05 -1 6.2796469e-05
-0.0046305545 -0.094305634 0.2427626 3.1928998e-06 -1.9158702e-05 -1 5.4017029e-05
0.0042371568 -0.095092304 0.2427626 -2.4734433e-08 1.6804926e-05 -1 4.9705493e-05
0.018380692 -0.091287322 0.24276261 -1.6253247e-07 -8.3550312e-06 -1 5.7937596e-05
0.025933629 -0.095447086 0.24276261 2.0984518e-07 -2.2847236e-05 -1 6.3805521e-05
0.03635177 -0.096833408 0.24276261 -5.6484595e-07 -8.3965815e-06 -1 6.9226386e-05
0.047682814 -0.095368169 0.24276261 0.0018868748 0.00071697816 -0.99999803 0.0007244242
0.053348083 -0.095483921 0.2427626 0.0044044796 -0.0028331773 -0.99998629 0.017493289
0.06469126 -0.091924399 0.24276263 0.0294536 0.020676512 -0.99935228 0.042943854
0.074118569 -0.096330881 0.2427626 -0.039108068 -0.012497762 -0.99915689 0.18314382
0.084821254 -0.095333435 0.2427626 -0.59031731 0.75928253 -0.27388933 0.24597447
0.095543116 -0.094969094 0.24432616 -0.7264024 0.6864149 -0.034263309 0.14210893
0.10230561 -0.09163408 0.24512768 -0.77851754 0.62762219 -0.00089807832 0.10567477
-0.11068592 -0.081966728 0.2420065 0.79054821 0.61216682 -0.01689079 0.076892823
-0.10531452 -0.085365169 0.24426396 0.79216659 0.61020803 0.01087432 0.11817408
-0.095732033 -0.084260896 0.2427626 0.75019014 0.6610322 -0.015845584 0.24420217
-0.085775696 -0.085403658 0.2427626 -0.04181511 0.14060046 -0.98918307 0.19929133
-0.073841892 -0.086152114 0.2427626 0.0245395 -0.01786105 -0.99953926 0.05952917
-0.064138897 -0.083590433 0.2427626 -5.2285477e-06 -9.4947836e-06 -1 7.3160569e-05
-0.055198733 -0.08782319 0.24276261 -0.00055180187 -0.0014347414 -0.99999887 7.150555e-05
-0.044844493 -0.084745519 0.2427626 -4.81498e-06 -9.2352093e-06 -1 6.7913963e-05
-0.035643805 -0.086299941 0.24276261 -1.2371715e-05 -1.0978953e-05 -1 6.2321975e-05
-0.023639087 -0.084567249 0.2427626 -4.4151138e-06 -2.3655835e-05 -1 6.1479543e-05
-0.014912772 -0.086267352 0.24276261 1.3929628e-06 -8.6408372e-06 -1 4.8103273e-05
-0.0032756473 -0.082683161 0.24276261 5.0599795e-07 -1.725242e-05 -1 6.2772262e-05
0.0033856463 -0.083751254 0.24276261 1.1947914e-06 -1.6611752e-05 -1 6.2115723e-05
0.013227861 -0.084315136 0.24276261 3.3429767e-06 8.8695206e-06 -1 6.9550842e-05
0.025702491 -0.086001717 0.2427626 4.1377035e-07 -1.7688451e-05 -1 5.7248912e-05
0.035622925 -0.083970085 0.24276261 6.4180153e-06 -3.1280633e-05 -1 5.31275e-05
0.045782607 -0.084802926 0.24276261 1.4265186e-05 -1.7400549e-05 -1 6.7075096e-05
0.056783359 -0.085345358 0.24276261 4.5244401e-06 -8.2551596e-06 -1 5.9641028e-05
0.064599901 -0.086199738 0.24276261 -0.006491865 0.004820697 -0.99996734 0.0021251433
0.072810292 -0.085107237 0.24276261 0.044320401 -0.046103809 -0.99795294 0.037080124
0.08510787 -0.083784312 0.2427626 -0.0077476026 -0.029457873 -0.99953604 0.1796775
0.0970705 -0.086354792 0.24276261 -0.75401849 0.63985157 -0.14847921 0.19074227
0.10560955 -0.084990405 0.24402648 -0.77758539 0.62852144 -0.017936559 0.11714745
-0.11380323 -0.075031996 0.24299555 0.8284533 0.55978727 0.017421028 0.10186657
-0.10578293 -0.073668033 0.24276263 0.79795206 0.60250366 0.01618566 0.17679305
-0.093350857 -0.076694034 0.24276263 0.033113353 -0.091368653 -0.99526644 0.20013534
-0.089167707 -0.076780342 0.24276261 -0.083110221 0.0016761342 -0.99653894 0.16894588
-0.072890237 -0.073611639 0.24276261 -2.0604082e-05 -9.1096908e-06 -1 6.3310727e-05
-0.065804414 -0.076658085 0.2427626 9.668247e-07 8.3073637e-06 -1 7.0009002e-05
-0.055362444 -0.075973608 0.24276261 -4.7127678e-06 -8.3993982e-06 -1 6.9305301e-05
-0.048686296 -0.076472834 0.24276261 7.8346568e-07 -9.1322354e-06 -1 7.3211137e-05
-0.034030914 -0.07265117 0.24276261 -9.2325918e-06 -6.4601054e-06 -1 5.9275135e-05
-0.026814943 -0.073881641 0.2427626 -7.9358779e-06 -7.2467551e-06 -1 5.7780991e-05
-0.0031719424 -0.075060263 0.2427626 -1.3331064e-06 -8.6585569e-06 -1 6.7449764e-05
0.0038003728 -0.075212292 0.24276261 1.472768e-06 -1.7613796e-05 -1 6.2059873e-05
0.016764589 -0.074224271 0.2427626 -9.5201244e-07 -1.8934677e-05 -1 6.9735666e-05
0.025788015 -0.074428461 0.24276261 7.9925403e-06 -2.5235788e-05 -1 5.5557499e-05
0.035621095 -0.075481378 0.24276261 2.1385867e-07 -9.2731434e-06 -1 6.751006e-05
0.043968044 -0.074389532 0.24276261 1.243021e-05 -1.0296932e-07 -1 7.2386742e-05
0.055590224 -0.072775826 0.24276261 1.2273736e-05 -9.7014336e-06 -1 6.1459599e-05
0.064435475 -0.075856514 0.24276261 7.7583554e-06 1.4575343e-07 -1 5.8507612e-05
0.076663852 -0.074785806 0.24276261 0.0046577277 -0.005881309 -0.99997193 0.00021822947
0.085465588 -0.076017648 0.24276263 -0.0091290539 -0.00030892575 -0.99995828 0.086089455
0.095224157 -0.073421523 0.2427626 0.014003152 0.010517781 -0.99984664 0.20567678
0.1050346 -0.070694201 0.24276261 -0.79954594 0.52439815 -0.29280174 0.2535181
0.11382028 -0.074840844 0.24584195 -0.86386049 0.50347692 -0.016006729 0.12015856
-0.12148932 -0.062087815 0.24315007 0.88897538 0.45736226 0.023290107 0.08262971
-0.11669046 -0.066962853 0.24382475 0.83286107 0.54756087 0.080743507 0.10522859
-0.10459099 -0.064581119 0.24276263 -0.15951771 -0.23265716 -0.95938772 0.23590522
-0.0837446 -0.065480061 0.24276261 -0.006129445 -0.0045725107 -0.99997073 0.00022450704
-0.078502171 -0.066783711 0.24276261 -1.5861485e-07 -8.4233634e-06 -1 6.6954351e-05
-0.063654125 -0.066866472 0.24276261 -9.1003367e-06 -8.6819e-06 -1 6.2073981e-05
-0.05552068 -0.065019295 0.2427626 -2.3810794e-06 -2.3835075e-05 -1 6.5767286e-05
-0.043519996 -0.064848453 0.24276261 -2.7128187e-06 -7.1432637e-06 -1 6.6698703e-05
-0.034174845 -0.064831778 0.2427626 -4.5411898e-06 8.862034e-08 -1 6.1152081e-05
-0.023849247 -0.063087478 0.24276261 -1.9598883e-06 -7.8535066e-08 -1 5.0794912e-05
-0.012628663 -0.06293238 0.24276261 -3.5624498e-06 -2.786961e-05 -1 6.4697888e-05
-0.0034580987 -0.064818718 0.24276261 1.4638269e-09 -1.8131672e-05 -1 6.8875852e-05
0.0049178312 -0.065645017 0.24276258 -1.2586629e-06 -1.7680552e-05 -1 6.9262016e-05
0.013884382 -0.068078175 0.24276261 0 0 -1 7.1206821e-05
0.02539471 -0.066279426 0.24276261 -3.0501881e-06 -1.7082137e-05 -1 7.6351746e-05
0.033919051 -0.063699454 0.24276263 5.2956466e-07 -1.2380067e-05 -1 6.4264736e-05
0.044267703 -0.064358711 0.2427626 3.918251e-06 -4.033237e-06 -1 6.3278516e-05
0.055422816 -0.06446553 0.24276258 4.1679227e-06 -8.1604576e-06 -1 5.9715599e-05
0.062497765 -0.065098725 0.24276261 0 0 -1 6.8517198e-05
0.075896561 -0.066507988 0.24276261 1.8139488e-05 -1.0414335e-05 -1 5.8872018e-05
0.084479712 -0.068335615 0.24276261 -0.016922101 -0.0029330347 -0.99985254 0.0049751154
0.095320866 -0.061983936 0.24276261 -0.013671256 0.015789378 -0.99978185 0.084449209
0.10196103 -0.063788459 0.24276263 0.071053803 0.059250098 -0.99571127 0.17033258
0.11513166 -0.064984545 0.24458382 -0.873685 0.48608115 0.019989287 0.15341975
0.12258414 -0.062345963 0.24436875 -0.87977654 0.47248143 0.052484531 0.12642553
-0.12422173 -0.056634936 0.24373423 0.89515197 0.44545957 0.016394328 0.10294419
-0.11368573 -0.054118879 0.24276261 0.94087279 0.32613555 0.091619268 0.23753883
-0.10492316 -0.055671304 0.24276261 0.013484824 0.0097877877 -0.99986118 0.18644141
-0.09487953 -0.055494528 0.24276261 0.049769212 0.02995122 -0.99831152 0.011837322
-0.082192354 -0.053664207 0.24276261 -2.7921289e-05 -2.0881052e-05 -1 6.1096034e-05
-0.074675515 -0.054476328 0.24276263 -3.1236541e-05 -6.1506948e-06 -1 6.2075873e-05
-0.064330362 -0.056607515 0.24276261 -8.8243096e-06 -1.5378939e-06 -1 6.1742008e-05
-0.054219332 -0.057759617 0.24276261 -1.3381927e-05 -4.63685e-06 -1 6.7606386e-05
-0.043842502 -0.05400959 0.2427626 -1.3928458e-05 -1.636719e-05 -1 7.7201781e-05
-0.035974834 -0.054754511 0.2427626 -1.4559729e-05 1.0301874e-05 -1 6.5480992e-05
-0.023466298 -0.054488596 0.24276261 -4.5689753e-06 -3.8465527e-07 -1 7.5986711e-05
-0.016402466 -0.055605471 0.24276261 -0 -0 -1 6.353917e-05
-0.0046990332 -0.057285935 0.2427626 -1.0643059e-06 -4.3277778e-06 -1 6.6259803e-05
0.0032629583 -0.054169189 0.24276261 -8.6485521e-08 -3.926074e-06 -1 6.5582186e-05
0.015895894 -0.056184899 0.24276261 4.3375412e-06 -5.0901167e-06 -1 6.7817928e-05
0.022297949 -0.053724863 0.24276263 9.6613612e-06 -9.2239052e-06 -1 7.0985043e-05
0.044871684 -0.05409069 0.2427626 -0 -0 -1 5.0672625e-05
0.055871256 -0.056999318 0.2427626 4.3998116e-06 7.7891e-06 -1 6.1156745e-05
0.066025548 -0.055231433 0.24276261 7.733538e-06 -4.1088247e-06 -1 3.2698408e-05
0.079304546 -0.054472089 0.24276261 1.6016416e-05 -5.0186732e-06 -1 5.6954021e-05
0.083929598 -0.05477922 0.2427626 9.6724643e-06 -7.5277484e-07 -1 5.2907373e-05
0.094739392 -0.056293286 0.24276261 0.034720775 -0.02481178 -0.99908906 0.030819526
0.10492431 -0.054788921 0.24276261 -0.046999611 -0.026668668 -0.99853885 0.14699219
0.11424507 -0.051015366 0.24276261 0.063799962 -0.11307618 -0.99153584 0.24853945
0.12423403 -0.054288235 0.24320327 -0.91330397 0.40690237 0.017499641 0.16405883
-0.13067241 -0.043719381 0.24478915 0.93809193 0.34600285 0.016294438 0.084062323
-0.12800378 -0.046261765 0.2456882 0.92477071 0.37965968 0.025645263 0.10153168
-0.1164396 -0.04553853 0.24276261 0.91171032 0.40790755 -0.04894593 0.23102106
-0.10740218 -0.043729797 0.24276261 0.023935381 -0.019246915 -0.99952823 0.11709531
-0.091783851 -0.044536073 0.24276261 -1.2169505e-06 -1.4361844e-05 -1 5.9289847e-05
-0.085120022 -0.045437571 0.24276261 -2.5925181e-05 2.6746916e-06 -1 5.5775003e-05
-0.076094389 -0.04631424 0.2427626 -2.6343108e-05 -1.7324048e-05 -1 5.8210419e-05
-0.066081591 -0.045014273 0.24276261 -2.8006104e-07 4.003216e-06 -1 6.1829145e-05
-0.053080644 -0.043764882 0.2427626 8.8122288e-06 -4.3672985e-06 -1 6.9664733e-05
-0.043890789 -0.041764811 0.24276263 -1.3005987e-05 -1.4112272e-05 -1 6.5613902e-05
-0.031952519 -0.045001108 0.24276263 -4.9825221e-06 -5.0351478e-06 -1 7.6897733e-05
-0.02317474 -0.046920203 0.24276263 2.4814663e-06 -4.6722016e-06 -1 6.9466783e-05
-0.014529667 -0.045059208 0.24276261 -2.9761864e-06 -5.0114322e-06 -1 5.7375579e-05
-0.004593485 -0.046179593 0.24276263 -2.2805973e-06 -5.0186441e-06 -1 7.1681403e-05
0.0066673718 -0.045279462 0.24276261 7.9103091e-07 -8.793173e-06 -1 6.4407366e-05
0.014812585 -0.045409098 0.2427626 4.3376672e-06 -1.1247384e-05 -1 6.7672219e-05
0.025325479 -0.042914938 0.24276263 1.115785e-05 -3.1936245e-06 -1 6.8762332e-05
0.034728009 -0.044204663 0.24276261 4.2396587e-06 -1.1645528e-05 -1 4.3902004e-05
0.047995009 -0.042478241 0.24276261 1.1921394e-05 -3.934832e-06 -1 4.368573e-05
0.053338584 -0.045121174 0.24276261 4.1597059e-06 4.7504523e-06 -1 5.1787585e-05
0.064662077 -0.042487275 0.24276261 4.3730684e-06 -9.82243e-06 -1 4.3575139e-05
0.073559739 -0.044197634 0.2427626 8.3511759e-06 9.5738642e-06 -1 5.7852027e-05
0.085160255 -0.043653283 0.24276258 -1.6049817e-06 -1.3601683e-05 -1 6.3170322e-05
0.094146825 -0.04654951 0.24276258 0.0060691205 -0.0050400835 -0.99996883 0.00028718996
0.1034039 -0.045455981 0.24276263 -0.068942666 -0.0060879448 -0.99760205 0.055002589
0.11459554 -0.045977883 0.2427626 0.080986142 -0.068918318 -0.99432975 0.2107815
0.12699163 -0.044646215 0.24416928 -0.96654081 0.25651214 0.00072024146 0.15622875
0.13041651 -0.040947042 0.2427626 -0.93463701 0.35558286 -0.0038087203 0.14954163
-0.13229026 -0.034885488 0.24511699 0.97647053 0.21510164 0.015376337 0.11446737
-0.12681726 -0.034310129 0.24276261 0.98869693 0.14532955 -0.036845934 0.14637598
-0.10500263 -0.033971179 0.24276261 -0.0092218481 -0.0057644858 -0.99994087 0.024030462
-0.09480314 -0.034244191 0.2427626 -8.2320021e-06 -3.4006428e-06 -1 6.7307308e-05
-0.084558442 -0.035367284 0.24276261 -1.7839853e-05 4.9970106e-07 -1 6.0077604e-05
-0.072311074 -0.036265936 0.24276261 7.2155011e-08 -4.6035502e-06 -1 4.3704851e-05
-0.065479308 -0.034306988 0.24276263 -7.4733202e-06 2.6250899e-07 -1 5.5390199e-05
-0.056189448 -0.035572786 0.24276261 -1.3644036e-07 -3.9102943e-06 -1 6.3140695e-05
-0.042685449 -0.03558189 0.24276261 -4.3431878e-06 -8.9063215e-06 -1 7.2555762e-05
-0.035364006 -0.034398805 0.2427626 -1.0293324e-05 -1.2829121e-06 -1 7.5306998e-05
-0.025207518 -0.035480056 0.24276261 -4.4436415e-06 -1.3396722e-08 -1 7.0435701e-05
-0.014925582 -0.033014014 0.2427626 -4.5942156e-06 -4.0600185e-07 -1 6.3882871e-05
-0.0040738313 -0.033768542 0.2427626 1.0941981e-07 -4.1021945e-06 -1 6.9891226e-05
0.0055033076 -0.035616018 0.24276261 9.9846989e-07 -5.1884263e-06 -1 6.2982988e-05
0.015373653 -0.035345536 0.2427626 1.2070263e-06 -1.0355503e-05 -1 6.2617444e-05
0.025717385 -0.035818998 0.24276261 5.5339165e-06 -5.2867158e-06 -1 5.0056446e-05
0.033154026 -0.03581696 0.2427626 1.2004026e-07 -5.2611617e-06 -1 7.6229924e-05
0.044718482 -0.035465803 0.24276263 4.3571822e-06 4.6680298e-06 -1 6.0654686e-05
0.055449832 -0.033442076 0.24276258 1.6721522e-05 -7.466298e-06 -1 6.9308007e-05
0.061695188 -0.034384686 0.2427626 -3.6163296e-06 -4.155429e-06 -1 5.7541947e-05
0.07574638 -0.034086786 0.24276258 -7.6216088e-06 -1.3180111e-06 -1 6.6181048e-05
0.084079184 -0.036369696 0.24276261 -8.130279e-07 -4.7067529e-06 -1 5.4040549e-05
0.096748255 -0.036038585 0.2427626 -8.6097734e-06 7.7208995e-07 -1 6.7965397e-05
0.10331839 -0.034499533 0.24276261 -0.02338969 0.0076155295 -0.99969745 0.0061450889
0.11481482 -0.03500377 0.24276261 -0.079511173 -0.026723795 -0.9964757 0.16702567
0.12623376 -0.036202397 0.24276263 -0.92736876 0.37006849 -0.05510582 0.18919086
0.13150313 -0.037583467 0.2427623 -0.96261048 0.26618534 -0.05026326 0.15422983
-0.13346912 -0.025635902 0.24563779 0.98757064 0.13277873 0.084107839 0.13648745
-0.12673476 -0.022652138 0.2427626 0.98927504 0.10453693 0.10201474 0.21701002
-0.11504196 -0.026628543 0.24276261 0.027262468 -0.065684073 -0.99746799 0.16055702
-0.1055459 -0.025070896 0.24276261 0.032353807 0.01497336 -0.99936432 0.0091708479
-0.093861327 -0.024270374 0.24276261 9.6730873e-06 1.4339153e-06 -1 5.7050758e-05
-0.08426062 -0.026865626 0.24276261 8.6138334e-06 -5.3345802e-06 -1 6.1168917e-05
-0.074255191 -0.02326769 0.2427626 -1.0645847e-05 -3.8021215e-06 -1 6.0624061e-05
-0.066475183 -0.024945414 0.2427626 1.2041821e-07 -2.4538124e-06 -1 6.6525914e-05
-0.054068506 -0.025727492 0.2427626 -1.080222e-05 -1.1884039e-05 -1 6.0250433e-05
-0.044006031 -0.02402696 0.24276261 -1.1199006e-05 -3.7976099e-06 -1 4.8483591e-05
-0.037050702 -0.025678346 0.24276263 3.6302724e-06 1.0463531e-07 -1 5.479611e-05
-0.023393271 -0.026852995 0.2427626 -1.4442563e-05 6.8250387e-07 -1 7.033717e-05
-0.013405239 -0.025847457 0.2427626 3.2172429e-06 -1.2901811e-05 -1 6.6438181e-05
-0.0056259646 -0.024975114 0.2427626 -1.2424429e-06 -4.2078068e-06 -1 6.4523359e-05
0.0068948218 -0.026377421 0.2427626 9.5318313e-07 -2.0797993e-06 -1 6.4439089e-05
0.013690241 -0.022384133 0.2427626 -3.4971149e-06 -2.2030151e-06 -1 6.825773e-05
