# .PCD v0.7 - Point Cloud Data file format
VERSION 0.7
FIELDS x y z normal_x normal_y normal_z curvature
SIZE 4 4 4 4 4 4 4
TYPE F F F F F F F
COUNT 1 1 1 1 1 1 1
WIDTH 558
HEIGHT 1
VIEWPOINT 0 0 0 1 0 0 0
POINTS 558
DATA ascii
-0.098493487 0.046569541 -0.25707898 0.90402544 -0.42747679 0.0012258467 0.0022485955
0.098198995 0.047280625 -0.25642499 -0.89649004 -0.44306269 -0.00098215207 0.0020031249
0.10053888 0.041631635 -0.25742874 -0.9233287 -0.38399026 -0.0039645261 0.0033167789
-0.093780689 0.056091603 -0.25422475 0.85206544 -0.52336937 -0.0083036171 0.0023075386
0.094587587 0.054799464 -0.25491053 -0.8599236 -0.51041865 0.0020332877 0.0021912812
-0.090397552 0.060943916 -0.25871849 0.83276665 -0.55362213 -0.001509027 0.0028559302
-0.086900756 0.065501027 -0.25617284 0.80723643 -0.59021974 0.0031734945 0.0031104269
0.08680959 0.065619946 -0.25487599 -0.81542611 -0.578861 -0.00054045091 0.0024440507
0.090471409 0.060847774 -0.25831077 -0.83167273 -0.55520439 -0.0082768602 0.0023840354
-0.081264555 0.072846271 -0.25662991 0.72686386 -0.68678147 -0.00040130058 0.002524202
-0.076939031 0.07788647 -0.25482428 0.69485229 -0.71909672 0.008954349 0.0027692611
0.076659128 0.078201301 -0.25397032 -0.69666606 -0.7173906 0.0026917215 0.0027390772
0.080493003 0.073851883 -0.25348222 -0.72873122 -0.68479931 0.00081302435 0.002432988
-0.071907781 0.081984721 -0.25449151 0.68240458 -0.73097467 -0.00014080667 0.0025557149
-0.066217341 0.086351171 -0.25339043 0.60507447 -0.79616094 0.0035536874 0.0033818893
0.065406024 0.086973749 -0.25408918 -0.59368491 -0.8046577 0.0080081373 0.0027370045
0.072205804 0.081756085 -0.25218835 -0.68092585 -0.73235041 0.0016888831 0.0022973677
-0.060083389 0.091057934 -0.2548207 0.54775429 -0.83663458 -0.0028001531 0.0027863944
-0.054752383 0.094711751 -0.25507566 0.50981808 -0.86028022 -0.0018908867 0.0019852358
-0.045916684 0.098763958 -0.25468197 0.42945999 -0.903054 -0.0075897155 0.0019363487
0.045901746 0.098770149 -0.25638673 -0.43079862 -0.90242803 0.0060172235 0.0017929493
0.055121075 0.094450764 -0.25564054 -0.51536357 -0.85693645 -0.0077603594 0.0020575626
0.060353685 0.090850532 -0.25554875 -0.54389066 -0.83915484 -0.0014505833 0.0023328813
-0.0423292 0.10024994 -0.25870898 0.38705215 -0.92205781 -0.00033612186 0.0027737189
-0.035194125 0.10320538 -0.25439134 0.34170353 -0.93980229 -0.0032017098 0.0027519811
-0.023208708 0.10670102 -0.25665131 0.21344779 -0.97693557 -0.0060735894 0.0026059134
-0.015075451 0.10777178 -0.2562556 0.15526262 -0.98787171 -0.0017279756 0.0026375689
-0.0033645916 0.10931353 -0.25473818 0.014454395 -0.99988741 -0.0040210146 0.0022063504
0.0049721301 0.1091019 -0.25597498 -0.033451214 -0.9994399 -0.0009131332 0.0030802626
0.016009636 0.10764878 -0.25588953 -0.16922913 -0.9855296 -0.0096407486 0.0020852317
0.027378079 0.10609344 -0.25573915 -0.24890932 -0.9685114 -0.0054604439 0.0018496908
0.034388028 0.10353926 -0.25482613 -0.30983236 -0.95078671 -0.0029096226 0.002952443
0.042166859 0.10031718 -0.25517446 -0.40993723 -0.91211337 -0.00078999379 0.0024218354
-0.042451318 -0.10019931 -0.24288443 0.39793798 0.91741186 0.00099392165 0.0031549099
-0.036096331 -0.10283165 -0.24406929 0.33769789 0.9412545 -0.0004383382 0.0023377982
-0.025765186 -0.10629619 -0.24400802 0.24976024 0.96830642 -0.0015734909 0.0017870609
-0.014719412 -0.10781865 -0.24548714 0.14416209 0.98954695 0.0037678429 0.0038568072
-0.0036053187 -0.10928184 -0.24550863 0.028962882 0.99957192 -0.0041314596 0.0018474774
0.0056314818 -0.1090151 -0.24624504 -0.059384931 0.99823451 -0.0011508928 0.002297763
0.013524457 -0.10797597 -0.24543852 -0.13164152 0.99120843 0.013281441 0.0034954434
0.023962695 -0.10660176 -0.24594188 -0.22204904 0.97503442 -0.0014680936 0.0023317775
0.033609249 -0.10386182 -0.24453638 -0.28941464 0.95717883 -0.00692091 0.0025357385
0.041416176 -0.10062809 -0.24437453 -0.38708171 0.92200714 -0.0084023289 0.002986348
-0.061350293 -0.090085745 -0.2404556 0.56072432 0.82800019 -0.0019576964 0.0022741302
-0.054803938 -0.094641805 -0.24468461 0.50829941 0.86117744 -0.0022537434 0.0018648377
-0.046702337 -0.098438479 -0.24478629 0.42955214 0.90303409 0.0037893811 0.0018295819
0.04632958 -0.098592885 -0.24373816 -0.44994843 0.89304638 -0.0038193325 0.0023140842
0.055356991 -0.094317876 -0.24502563 -0.52057159 0.85380435 0.0048304219 0.0022449021
0.060957372 -0.090387255 -0.24413253 -0.55954355 0.82880098 0.00026039939 0.003060719
-0.071861029 -0.082020573 -0.24472766 0.67972344 0.73341972 -0.0084587215 0.0028045685
-0.065064006 -0.087236114 -0.24594903 0.58261329 0.81274146 0.0036174098 0.0024598558
0.063946471 -0.088093646 -0.24379981 -0.57119113 0.82078958 0.0067196358 0.0024768934
0.071447499 -0.082337946 -0.24284045 -0.66753232 0.74458015 0.00099816185 0.0027437392
-0.081668034 -0.072320461 -0.24584362 0.73291236 0.68031067 -0.0041135401 0.0022581385
-0.07707797 -0.077866606 -0.24457821 0.71402615 0.70009875 0.0053259521 0.0027989093
0.078333855 -0.0765386 -0.24477452 -0.7120685 0.70201313 -0.011659861 0.0028225556
0.081082143 -0.073084109 -0.24457428 -0.72789437 0.68563056 -0.0089726448 0.0024334795
-0.090762176 -0.060468733 -0.24479088 0.84100449 0.54102612 -0.0014559315 0.0028055967
-0.08640828 -0.066142827 -0.24510418 0.80757642 0.5897339 -0.0058551403 0.0021398989
0.086386286 -0.066171616 -0.24457614 -0.80477041 0.5935725 -0.0040434739 0.0025620353
0.090700462 -0.060549267 -0.24423997 -0.8370617 0.54704165 0.0085535813 0.0024511125
-0.095135659 -0.054065954 -0.24528411 0.86213404 0.50667489 -0.0023554713 0.0020787085
0.094146185 -0.05542215 -0.24657547 -0.85604674 0.51688814 0.003248062 0.0022590184
-0.10085366 -0.040871583 -0.24584246 0.9215948 0.38814905 -0.0018152809 0.003509877
-0.098430037 -0.046722706 -0.24468687 0.90570641 0.42389387 0.0031442463 0.0018413572
0.098031044 -0.047686096 -0.2445541 -0.89537579 0.4452962 -0.0036679967 0.0026320147
0.10112722 -0.040211245 -0.24214876 -0.92209917 0.38694745 -0.002215246 0.0026309376
-0.10373974 -0.033903997 -0.24659008 0.94963974 0.31332833 -0.003107124 0.0028882367
0.10372981 -0.033928033 -0.24483228 -0.95387959 0.29992437 0.012612638 0.0028470219
-0.10646778 -0.024569796 -0.24590456 0.97084624 0.23970221 -0.00066515699 0.001601696
0.10662887 -0.023668204 -0.24395482 -0.97310001 0.23022108 0.0086431652 0.0024060935
-0.10763647 -0.016103249 -0.24659362 0.98608536 0.16621163 -0.0030548142 0.0025725178
0.10762524 -0.016188463 -0.24445909 -0.98624909 0.16512939 0.0067113303 0.0022760571
-0.10914234 -0.00466491 -0.24461982 0.99890667 0.046094034 0.0077977292 0.0023942324
0.10884518 -0.0069221077 -0.24476436 -0.99658674 0.081710219 0.011756181 0.0025387418
-0.10899736 0.005766267 -0.24830519 0.99971437 -0.02370978 0.0030026194 0.0017707584
0.10914677 0.0046313335 -0.24592316 -0.99961567 -0.026885858 -0.0067577199 0.0019196913
-0.10785599 0.014435793 -0.24536093 0.98825878 -0.15277316 -0.0022076061 0.0018826261
0.1076669 0.015872069 -0.24559042 -0.98643291 -0.1641292 -0.003431367 0.0023813096
-0.10683207 0.022213195 -0.24665619 0.9785012 -0.20620357 -0.0039441371 0.0027402111
0.10637707 0.0252723 -0.24568896 -0.9706952 -0.24030778 -0.0017309649 0.0016893519
-0.10288994 0.035955578 -0.24455494 0.94426668 -0.32894546 0.012465027 0.0021410643
0.10339284 0.034741562 -0.24301434 -0.94447029 -0.32848093 -0.0087314099 0.0028839014
-0.10027048 0.042279501 -0.24731134 0.91914451 -0.39391097 0.0027566792 0.0026030224
-0.098127857 0.047452256 -0.24720824 0.90570873 -0.42386189 -0.0057313978 0.0020439099
0.098477878 0.046607357 -0.24543887 -0.89633679 -0.44337085 -0.0016267452 0.0025186315
0.10062504 0.041423608 -0.2449858 -0.92338938 -0.38384092 0.0042639398 0.0025855463
-0.094985366 0.05409278 -0.24287684 0.85757786 -0.51435006 0.0020616362 0.0020737869
0.095075749 0.054400586 -0.24541694 -0.86269748 -0.50571096 -0.0030792502 0.0022100476
-0.090438537 0.060890514 -0.24711795 0.8283456 -0.56018162 0.0063361549 0.0024512641
-0.087647498 0.064527869 -0.24436073 0.81196141 -0.58362919 0.0097816186 0.0022289981
0.085277885 0.067616105 -0.24580079 -0.77721518 -0.62919348 -0.0072199712 0.0028355895
0.090464354 0.060856976 -0.24491857 -0.83060956 -0.55684984 -0.0024612213 0.0029370703
-0.080855325 0.073379606 -0.2459466 0.73376399 -0.67935801 -0.0079510659 0.0026435244
-0.077366948 0.077579707 -0.24573238 0.70659167 -0.70762056 0.0011203248 0.0030571271
0.077190496 0.077532813 -0.24474141 -0.70660704 -0.7075057 0.01192638 0.0025618111
0.082376823 0.071396858 -0.24398875 -0.75017637 -0.66121757 0.0051628803 0.0030275241
-0.072038054 0.081884757 -0.24735108 0.66056263 -0.75076151 -0.0037608545 0.0027962376
-0.066175796 0.086383037 -0.24482335 0.58668578 -0.80975676 -0.009689386 0.0023863737
0.066088513 0.086450055 -0.24510765 -0.59255528 -0.80548811 -0.0082012424 0.0026705533
0.072774246 0.081319906 -0.24606574 -0.6815834 -0.73173988 0.00091685326 0.0025613683
-0.06068477 0.090596467 -0.24490935 0.5427168 -0.83987904 0.0078499084 0.0027902853
-0.056725003 0.093343511 -0.24626818 0.51822406 -0.85524315 0.0017030881 0.0022286554
-0.047091756 0.098277241 -0.24511239 0.45053542 -0.89275229 0.0033485882 0.0021440175
0.047099207 0.098274149 -0.24419238 -0.44576597 -0.89514351 0.0033046517 0.0015354045
0.056319561 0.093889147 -0.24420054 -0.51928556 -0.85459715 0.0024678092 0.0021484785
0.060522739 0.09072081 -0.24394374 -0.5493769 -0.83556932 0.0030023679 0.0030552098
-0.042487279 0.10018446 -0.24325986 0.40677324 -0.91352504 0.0027619987 0.0028076908
-0.035097338 0.10324546 -0.24498126 0.33538353 -0.94204211 0.0086390171 0.0022381057
-0.026395928 0.10619277 -0.24407569 0.23441786 -0.97211909 0.0057173651 0.0021162089
-0.013419452 0.10798979 -0.24439235 0.13429222 -0.99094146 0.00080808665 0.001837523
-0.0055511808 0.10902566 -0.24543354 0.030904856 -0.99951923 -0.0024720032 0.002126591
0.0030497543 0.10935499 -0.24246493 -0.0082733687 -0.99995363 0.0049277674 0.002547686
0.012865382 0.10806274 -0.24352694 -0.12248451 -0.99242818 -0.0091554932 0.0030842905
0.024062481 0.10658862 -0.24498454 -0.21509048 -0.97659379 -0.00076082116 0.0026863955
0.035816319 0.10294765 -0.24510105 -0.34256893 -0.93934047 0.016911365 0.0022588808
0.040371742 0.10106074 -0.24319276 -0.37040398 -0.92882365 0.0093594948 0.0028534257
-0.042196184 -0.10030501 -0.23846354 0.3894771 0.92103106 -0.0030618575 0.0032250031
-0.034591116 -0.10345512 -0.23480654 0.313811 0.94948071 -0.0029985574 0.0024363904
-0.023819834 -0.10662056 -0.23613954 0.22738352 0.9737891 -0.0056166719 0.0024454189
-0.015269993 -0.10774617 -0.23483393 0.15210131 0.9883222 0.0091862036 0.0035791791
-0.0058798944 -0.10898238 -0.23497741 0.04558913 0.99894726 -0.0050991145 0.0026866284
0.0058643883 -0.10898443 -0.23675802 -0.041240059 0.99913758 -0.0048377421 0.0024082456
0.014319548 -0.10787129 -0.23510948 -0.15603498 0.98774439 -0.0037510446 0.003167354
0.023923155 -0.10660695 -0.23308051 -0.22886349 0.97344857 0.0043924227 0.0024685534
0.036137074 -0.10281477 -0.23580906 -0.35644323 0.93429178 -0.0068642721 0.0023579055
0.04125635 -0.10069428 -0.23594423 -0.39111435 0.9203105 -0.0076257875 0.0027820766
-0.061242219 -0.09016867 -0.23359124 0.56728864 0.82350951 -0.0039679352 0.0025874793
-0.053853013 -0.095155895 -0.23586379 0.49511117 0.86880904 -0.0059831534 0.0016860011
-0.048334796 -0.097762302 -0.23311563 0.45737433 0.88927346 -0.001224074 0.0029280998
0.046691373 -0.098443024 -0.23738347 -0.44328856 0.89636928 0.004173778 0.0021193703
0.05645331 -0.093713522 -0.23463741 -0.52206409 0.85287005 0.0078589842 0.0021831824
0.060804874 -0.090504266 -0.23379098 -0.56262565 0.82661521 0.012631479 0.0027367666
-0.072535418 -0.081503101 -0.2327837 0.66737032 0.74472564 0.0007566681 0.0028539975
-0.065634124 -0.086798646 -0.23451917 0.57844168 0.81570667 -0.0052848561 0.002136959
0.065619729 -0.086809717 -0.23343427 -0.57903129 0.81530458 -0.0011087587 0.0026689745
0.070953697 -0.082716845 -0.23779517 -0.65352172 0.7569049 -0.0020896245 0.0032153672
-0.081947729 -0.071955949 -0.23328468 0.73398495 0.67915177 0.0043480517 0.0023509101
-0.078378372 -0.076432601 -0.23606828 0.72381747 0.68997455 -0.0048254305 0.002372429
0.077725351 -0.077132411 -0.23573251 -0.70663142 0.70755005 -0.0067123407 0.0028645061
0.081824347 -0.072116844 -0.2387417 -0.74247748 0.66986835 0.0019099587 0.0030026981
-0.090733372 -0.060506273 -0.23936953 0.83252442 0.5539884 7.7480305e-05 0.0025387704
-0.087592259 -0.064599849 -0.23439279 0.81867081 0.57424957 -0.003937501 0.0026879888
0.088607989 -0.063276231 -0.23170583 -0.81295514 0.58232188 0.002282199 0.002710378
0.090372659 -0.060976457 -0.23567355 -0.82557017 0.56429273 -0.0027599621 0.0032567719
-0.093807012 -0.056144278 -0.23417218 0.85431176 0.51974368 0.0042399406 0.0020354888
0.094546825 -0.055007339 -0.23531228 -0.85459477 0.51926184 -0.0059004584 0.002338059
-0.10076722 -0.041080281 -0.23557988 0.92431062 0.38162103 0.0038926713 0.002478532
-0.098939657 -0.045492403 -0.23431849 0.90206277 0.43160349 0.0010898379 0.0015426627
0.098890111 -0.04561213 -0.23376076 -0.90703923 0.42102852 0.0038569018 0.0018204002
0.10065653 -0.041347589 -0.2340351 -0.9249683 0.38002232 -0.0040703481 0.0032523563
-0.10270707 -0.036397107 -0.23606111 0.93450648 0.35584024 -0.0086774882 0.0023831665
0.10364238 -0.034139056 -0.23498517 -0.95108062 0.30892074 0.0036949024 0.0029821941
-0.10635392 -0.025688868 -0.23508914 0.96943653 0.24527623 -0.0056945095 0.0016597448
0.10657033 -0.024201453 -0.23327689 -0.97316849 0.23008384 0.0021068759 0.0022546488
-0.10791553 -0.013983476 -0.23557848 0.98855007 0.15071709 -0.0072886087 0.0027510272
0.10793194 -0.013858845 -0.23435879 -0.98977911 0.14249602 0.0056807403 0.0027159832
-0.10901964 -0.0055969688 -0.23648728 0.99973845 0.022199268 -0.005498494 0.0018442555
0.1089184 -0.0063659176 -0.23624668 -0.99744856 0.071331881 0.0028561286 0.0025222998
-0.10905916 0.0052968115 -0.23564212 0.99903661 -0.043855172 0.0016143807 0.001252664
0.10876758 0.0075115734 -0.23180857 -0.99828482 -0.057717294 0.009807107 0.0020794147
-0.10801201 0.013250706 -0.2356513 0.99213761 -0.12464753 -0.011219661 0.0028495067
0.10819136 0.011888434 -0.2329677 -0.99396461 -0.10969198 0.0014415537 0.0027951759
-0.10658173 0.024114864 -0.23563755 0.97336692 -0.22919478 -0.0051513193 0.002771351
0.10639428 0.025538672 -0.23673579 -0.9704349 -0.24123012 -0.0080015128 0.0016835331
-0.10312897 0.035378523 -0.23551103 0.94830924 -0.3173008 -0.0054647592 0.0014161489
0.10223996 0.037524857 -0.23449118 -0.93924749 -0.34320921 0.0046556015 0.0024361457
-0.10037311 0.042031728 -0.23516546 0.91783422 -0.39696336 0.00073225924 0.0028470338
-0.097075701 0.049992383 -0.23530652 0.88553447 -0.4645673 -0.0024524843 0.0021527021
0.098822325 0.045775805 -0.23462212 -0.90033823 -0.43517604 -0.0035888923 0.0019194782
-0.095266074 0.05379774 -0.23561271 0.86526269 -0.50131714 -0.0013050381 0.0019893087
0.093944214 0.056308057 -0.2355464 -0.84918034 -0.52810258 0.00063510495 0.0021185537
-0.086595908 0.065898307 -0.23454593 0.79684019 -0.60417062 -0.0048564645 0.0024442722
0.086275607 0.066315837 -0.23515432 -0.78873521 -0.61472356 0.003412442 0.0021528052
0.091029525 0.060120419 -0.23565497 -0.83600157 -0.54871356 -0.0038525653 0.0028139376
-0.082093976 0.071765363 -0.2347988 0.74827397 -0.66338569 -0.0023563085 0.0022036585
-0.077556819 0.077405699 -0.23635948 0.71105683 -0.70313442 -0.00031498892 0.0030848694
0.075348496 0.079344615 -0.23486547 -0.6950736 -0.71893162 -0.0031716221 0.0028906842
0.081111655 0.073045649 -0.23557191 -0.73062867 -0.68275601 0.0051138741 0.002141272
-0.072220646 0.081744656 -0.23370306 0.67434138 -0.73839355 -0.0062293233 0.002195721
-0.065296039 0.087058105 -0.23609251 0.58232272 -0.8129186 -0.0079772277 0.0021245016
0.067330539 0.085497014 -0.23598066 -0.62378377 -0.7815963 -0.00099038694 0.0023569688
0.072334968 0.081656978 -0.23358324 -0.67467862 -0.73808026 0.0068017133 0.00221333
-0.054533757 0.094841041 -0.23404384 0.5117628 -0.85911697 -0.0041108318 0.0019216463
-0.045469992 0.098948993 -0.2357126 0.43133485 -0.90218061 -0.0045194481 0.0018498779
0.045628127 0.09888348 -0.23295939 -0.43849519 -0.89873117 -0.0020474484 0.0018159705
0.054646946 0.094709471 -0.23411366 -0.50583744 -0.86257178 -0.0099227307 0.0018971356
-0.041835491 0.10045444 -0.23469669 0.39989546 -0.91655558 0.0030831043 0.0029825494
-0.035771906 0.10296605 -0.23553583 0.34114882 -0.94000018 0.0041364818 0.0023781627
-0.024908673 0.10639728 -0.23632377 0.2266257 -0.9739778 -0.0028510566 0.0023104171
-0.0147718 0.10781176 -0.23570371 0.15983869 -0.9871431 0.00024023021 0.0028194964
-0.0051967832 0.10907231 -0.23569405 0.04839449 -0.99882716 -0.0014844687 0.001697252
0.0044592228 0.10916943 -0.23356874 -0.014150741 -0.99989307 -0.0036898735 0.0024533507
0.016129732 0.10763298 -0.23421863 -0.16942723 -0.98553687 -0.0033884714 0.002101914
0.026702452 0.1062125 -0.23411845 -0.24354298 -0.96985316 -0.0084637208 0.0021023727
0.035932008 0.10289973 -0.23560941 -0.34322608 -0.93925196 0.0012341012 0.0025369111
0.040972464 0.10081192 -0.23346914 -0.39253172 -0.91973829 0.00053214049 0.0020280092
-0.042547397 -0.10015952 -0.22265363 0.40546784 0.91407698 0.0076898504 0.0026243676
-0.03550582 -0.10307623 -0.22345009 0.33574954 0.94195122 0.00041271586 0.0017852607
-0.024314806 -0.10651904 -0.22530665 0.23026168 0.97311109 0.0058618942 0.0021807698
-0.016129272 -0.10763304 -0.22501476 0.15785553 0.98745555 -0.0036297273 0.0020868075
-0.0049639354 -0.10910298 -0.22414705 0.027540235 0.9996202 -0.00100601 0.0016557426
0.0043385373 -0.10918532 -0.22578621 -0.027500164 0.99961019 -0.0048181997 0.0020696749
0.015761131 -0.10768151 -0.22455096 -0.16763952 0.98584461 0.0027198745 0.0022679309
0.027327662 -0.10598785 -0.2261261 -0.25202778 0.96771938 -0.0011320903 0.001540398
0.034904871 -0.10332517 -0.22291572 -0.32951543 0.94413757 -0.004880941 0.0027812452
0.040968385 -0.10081357 -0.22760092 -0.39322704 0.91944128 -0.00052471436 0.0029171668
-0.060807813 -0.090501994 -0.22513153 0.56180584 0.82726824 -0.0012163481 0.0026000701
-0.054734424 -0.094588779 -0.22616774 0.50321198 0.86416239 0.0010394149 0.0019297742
-0.045724496 -0.098843515 -0.22465865 0.42693093 0.90428191 0.0020551023 0.0022162667
0.04629416 -0.098607555 -0.22408827 -0.43995735 0.89801687 0.001772473 0.0016718151
0.055897586 -0.093922205 -0.22562978 -0.52068019 0.85374385 -0.0036914067 0.0023713517
0.060549308 -0.090700366 -0.22531646 -0.54235411 0.84014851 0.0015738464 0.0027250138
-0.072102621 -0.081835195 -0.22607023 0.66042358 0.75089324 -0.00023495038 0.0027140605
-0.065882519 -0.086608052 -0.22469521 0.60640347 0.79513574 -0.0058332575 0.0024198052
0.065996841 -0.086520344 -0.22647302 -0.60176045 0.79865217 0.0062575405 0.002840525
0.07151632 -0.082285114 -0.22629067 -0.67882109 0.73429513 0.0035532573 0.0022777929
-0.081464604 -0.072585568 -0.22195913 0.73605335 0.67690277 0.0053036707 0.0020384719
-0.078642853 -0.076079108 -0.22879168 0.72227323 0.69160789 5.3369218e-05 0.0020467383
0.078172944 -0.076723181 -0.22346769 -0.71025217 0.70379263 0.014755269 0.0025473004
0.082234859 -0.071581863 -0.22559506 -0.74129808 0.67114234 -0.006722847 0.0029685474
-0.090589345 -0.060693968 -0.22339225 0.83042842 0.55702055 0.010805382 0.0028780445
-0.086674891 -0.065795392 -0.22413959 0.79407692 0.60779756 -0.0048968215 0.0033446734
0.08653485 -0.065978013 -0.22511919 -0.8004868 0.59930283 0.0075513492 0.0029641718
0.090729184 -0.060511839 -0.22355568 -0.83244526 0.55408174 0.0053183818 0.0024734302
-0.094036169 -0.05562824 -0.22571644 0.85313851 0.52164197 -0.0066605574 0.0020240054
0.094242088 -0.055551391 -0.22623684 -0.85447884 0.51947904 -0.002749694 0.0021858204
-0.10077981 -0.041049883 -0.22522001 0.92513305 0.37963516 0.0024443362 0.0030326289
-0.098453678 -0.046665654 -0.22607733 0.89690548 0.44222209 0.00045240411 0.0015518346
0.098095454 -0.047530591 -0.22526127 -0.89552701 0.4449845 0.0044967313 0.0021279468
0.10018823 -0.042478159 -0.22709429 -0.91445053 0.40469643 -0.001080391 0.0023831606
-0.10342888 -0.034654465 -0.22419029 0.94733852 0.32023367 -0.00011251951 0.0024391392
0.10315048 -0.03532666 -0.22528431 -0.9482193 0.3175838 -0.0045502586 0.0028351732
-0.10604639 -0.026947372 -0.2263283 0.96888226 0.24751154 -0.0022786846 0.00170644
0.10629138 -0.0257503 -0.22388697 -0.96902853 0.24694881 -0.00016734496 0.0018823101
-0.10805986 -0.012887212 -0.22298327 0.99353713 0.11337529 0.0054818145 0.0035534736
0.10769109 -0.015688328 -0.22482711 -0.98822689 0.15298362 -0.0018884756 0.0030352648
-0.10878111 -0.0074087153 -0.22509548 0.99703395 0.076621316 0.007245943 0.0023618555
0.10893457 -0.0062431241 -0.22487894 -0.9968918 0.07813742 -0.010062041 0.0023669107
-0.1091926 0.0042832387 -0.22299114 0.99827093 -0.058654606 -0.0038514524 0.0017978714
0.10918647 0.0043298765 -0.22505264 -0.99964106 -0.026745036 0.0015379245 0.0020009833
-0.10786041 0.014402296 -0.22335623 0.99091852 -0.13439645 -0.0042410488 0.0027676863
0.10779326 0.014912308 -0.22377045 -0.98578572 -0.16797152 0.0034939207 0.0022852039
-0.10628957 0.026034249 -0.22361979 0.96772325 -0.251968 0.0048974128 0.0016101667
0.1065139 0.024140652 -0.22502278 -0.97375268 -0.22760795 0.00065338879 0.0022405705
-0.10394437 0.033409968 -0.22624087 0.95434153 -0.29871762 0.00016304974 0.0019355363
0.1027863 0.03620588 -0.22473942 -0.94149828 -0.33701557 -0.0012175416 0.0026978878
-0.10068621 0.041275851 -0.22461113 0.92498899 -0.37999296 -0.0008021486 0.0029430769
-0.098389521 0.046820551 -0.22626287 0.89547038 -0.44511604 0.0021307855 0.0023172805
0.098640397 0.046214994 -0.22458395 -0.90101177 -0.43377733 -0.0038780384 0.0018193106
0.10077959 0.041050509 -0.22538808 -0.91659409 -0.39981624 -0.0014466654 0.0026207017
-0.094683468 0.054759707 -0.2225564 0.85646248 -0.51620692 0.001569699 0.0019974052
0.092649609 0.058009088 -0.22444224 -0.85029787 -0.52624637 0.0076326099 0.0020534554
-0.090447873 0.06087834 -0.2235561 0.82989281 -0.55791557 0.0028458596 0.0023574114
-0.087507553 0.064710245 -0.22602102 0.81741923 -0.57604325 -0.000191725 0.0022224935
0.086526662 0.065988675 -0.22356769 -0.80250221 -0.59664398 -0.0024781995 0.0032053764
-0.082105808 0.071749941 -0.22696117 0.7590515 -0.65103048 0.00035834705 0.0027795001
-0.076872498 0.078029908 -0.22586691 0.69461906 -0.71937096 -0.0031461217 0.0029061073
0.079349279 0.075342417 -0.22293788 -0.72756588 -0.68603247 0.0026997158 0.001983962
0.081543379 0.072483025 -0.22507589 -0.73499346 -0.67797887 -0.011368749 0.0018534354
-0.073124386 0.081051186 -0.22167903 0.67942703 -0.73373657 0.0030962676 0.0022556798
-0.066370741 0.086233452 -0.22601774 0.58816844 -0.80873686 -0.0015583893 0.0029359406
0.06585525 0.086629041 -0.22659601 -0.59059441 -0.80696845 0.00038565585 0.0029699455
0.071538582 0.082268059 -0.22445485 -0.66274309 -0.74884659 0.00062582066 0.0022760141
-0.061193511 0.090206102 -0.22663476 0.55913198 -0.82905197 -0.006652745 0.002417915
-0.054522175 0.094787441 -0.22488487 0.50104636 -0.86541963 0.0011998918 0.001872918
-0.046171378 0.098658472 -0.22650358 0.43680122 -0.89954561 0.0047320444 0.0019081996
0.047846884 0.097964458 -0.22520126 -0.45629302 -0.88981062 0.0058149165 0.002164488
0.053857759 0.095183991 -0.22508462 -0.49648681 -0.86797583 0.010896801 0.0018955113
0.060196631 0.090971053 -0.22681572 -0.55221391 -0.83370173 0.00109803 0.0023667978
-0.041030589 0.10078784 -0.22429746 0.37206706 -0.92819965 0.0034064052 0.0029218853
-0.03427783 0.10358491 -0.22371332 0.29869521 -0.95432138 0.0071984064 0.0020994465
-0.024232449 0.10656624 -0.22551946 0.2220794 -0.97500908 0.0061610057 0.0024002993
-0.016947282 0.10752535 -0.22495979 0.18103273 -0.98347092 0.0034835434 0.0020769287
-0.005684264 0.10900815 -0.22519788 0.060541745 -0.99814838 -0.0058676475 0.0022372135
0.0019874391 0.10949485 -0.22312105 -0.0084758038 -0.99996239 0.0018248415 0.0024712826
0.01314679 0.10802568 -0.22193593 -0.14023851 -0.99010962 -0.0040207142 0.0032250609
0.025518967 0.10637473 -0.22490576 -0.23954372 -0.97088146 -0.0028295775 0.0020057024
0.03285715 0.10417337 -0.22394466 -0.29618099 -0.95513099 0.0011946985 0.0021773796
0.040299181 0.1010908 -0.22465232 -0.37001795 -0.92901331 0.0045750509 0.0031836478
-0.035248227 -0.10318293 -0.21468332 0.30849758 0.95121104 -0.0051813163 0.0015595159
-0.024293799 -0.10647563 -0.21360579 0.24130729 0.97042513 0.0067700697 0.001831625
-0.01412057 -0.10789749 -0.21524401 0.12236523 0.99248374 0.0016719748 0.0022828311
-0.007172063 -0.10881228 -0.21363825 0.078551576 0.99690181 0.0040531759 0.0025370494
0.0077852835 -0.10873155 -0.214075 -0.073964186 0.99725181 -0.0042711268 0.0029347024
0.013808859 -0.10793853 -0.21556018 -0.12687056 0.99189883 -0.0063739279 0.0028445965
0.023273926 -0.10666527 -0.21440089 -0.21646518 0.97628748 0.0023259532 0.0024685892
0.033115149 -0.10406649 -0.21424387 -0.29841509 0.95440435 0.0077965539 0.0018409162
0.04185899 -0.10044466 -0.21181898 -0.38139582 0.92439348 0.005822768 0.0030450046
-0.054074232 -0.095026337 -0.21338624 0.51423383 0.85764909 -0.0012949089 0.0019095427
-0.047442608 -0.09813185 -0.21615028 0.44744983 0.89428109 -0.0070662373 0.0024803651
0.04604153 -0.098712198 -0.21580867 -0.43202537 0.90185875 0.0022290405 0.0018753825
0.053986125 -0.09518896 -0.21487112 -0.50213265 0.86478877 -0.0018140579 0.0020293253
0.061060064 -0.090308458 -0.21907684 -0.55622345 0.83103269 -0.0004750067 0.0027066923
-0.072074741 -0.081856593 -0.21307194 0.66478294 0.74702424 0.0043031718 0.0032680591
-0.066523463 -0.086116225 -0.21547584 0.61233193 0.79058015 0.0057107643 0.0028540145
0.065372258 -0.086999603 -0.21460265 -0.58728445 0.80933177 -0.008889121 0.002231132
0.07230866 -0.081677154 -0.21532583 -0.67716503 0.7358309 0.00063011976 0.0021732012
-0.08149872 -0.07254111 -0.21288788 0.7496565 0.66182458 0.0018579883 0.0016417019
-0.077305324 -0.077490143 -0.21470249 0.72151554 0.69238359 0.0045163459 0.002868142
0.077687755 -0.077096358 -0.21576381 -0.70756364 0.70661074 -0.007413249 0.0026911176
0.081655554 -0.072336815 -0.21385442 -0.73506355 0.67797452 0.005671598 0.002199386
-0.090567023 -0.060723059 -0.21103406 0.83582324 0.54899865 0.00019968941 0.0027800256
-0.086589746 -0.065906338 -0.21458101 0.79680949 0.60422987 -0.00096790656 0.0026493433
0.086832941 -0.06558951 -0.21489005 -0.81095958 0.58510095 -0.0012387192 0.0021665092
-0.094735987 -0.054448761 -0.2154837 0.86031884 0.50975603 -0.00047349004 0.0020480081
0.09333773 -0.057077441 -0.2151376 -0.85568476 0.51746625 -0.005681545 0.0021408738
-0.099179015 -0.044914532 -0.21414325 0.90327382 0.42904988 0.0035551488 0.0016001188
0.098182991 -0.047319289 -0.21582693 -0.89795899 0.44003099 -0.0065055788 0.0016366615
0.10071034 -0.041217688 -0.21383305 -0.92467707 0.38074061 0.0029681807 0.0023303088
-0.10338013 -0.034772158 -0.21470849 0.95238 0.30491322 0.00046875555 0.003001441
0.10379501 -0.033770617 -0.21503903 -0.95189393 0.30640259 -0.0039151576 0.0021354249
-0.10630606 -0.025904581 -0.21644294 0.96834451 0.24957876 -0.0043945452 0.0016918724
0.10634889 -0.025395643 -0.21677445 -0.9683513 0.24953192 -0.00545112 0.0015736609
-0.10766283 -0.015902877 -0.21310481 0.9860788 0.16627863 7.9070443e-05 0.0022163845
0.10767157 -0.015836591 -0.21491797 -0.99006206 0.14036034 -0.0087295594 0.0029284509
-0.1090408 -0.0054361774 -0.21516824 0.9989593 0.045521416 -0.0028396044 0.0026918438
0.10923475 -0.0039630025 -0.21511211 -0.99981493 0.019087335 -0.0023984788 0.0022236418
-0.10910899 0.0049183471 -0.21569282 0.99917829 -0.040308498 -0.0042509036 0.0013771387
0.10886899 0.0067413351 -0.21582253 -0.9971863 -0.074788466 0.005103515 0.0028082617
-0.10763425 0.016120115 -0.21622655 0.98744279 -0.15788938 0.0052595129 0.00320128
0.10790703 0.014048082 -0.21418099 -0.99225265 -0.12420303 -0.0028922376 0.0037090043
-0.1066236 0.023796756 -0.21453813 0.97296154 -0.23096608 0.00074883079 0.0023066306
0.10636518 0.025412515 -0.21592391 -0.9731887 -0.22996393 -0.0045056753 0.002274761
-0.10290187 0.035926796 -0.21560216 0.93847382 -0.34530941 -0.0053183874 0.0021543582
0.10314659 0.035336051 -0.21521387 -0.94865894 -0.31629989 0.00074308208 0.0029645697
-0.10011559 0.042653453 -0.21200745 0.91479194 -0.40388116 -0.0059826891 0.0032001934
-0.09887284 0.045653712 -0.2161386 0.89805382 -0.43985307 -0.0053537474 0.0019732572
0.09851674 0.046513531 -0.2147931 -0.90167838 -0.43236321 0.006179898 0.0016343577
0.1003401 0.042111531 -0.21393265 -0.91834939 -0.3955754 0.012424895 0.0030813089
-0.094459698 0.055048011 -0.21531729 0.86295605 -0.50526756 0.003384335 0.0021069963
0.094065003 0.055804115 -0.21408476 -0.85733515 -0.51473969 0.0044093858 0.0020415869
-0.090979964 0.0601849 -0.2192376 0.83819592 -0.54533607 -0.0060161552 0.0022348058
-0.087049015 0.065307826 -0.21568851 0.80805522 -0.58909816 -0.0031913423 0.0030599954
0.087746657 0.064398728 -0.21399617 -0.81604111 -0.57799208 0.0014106383 0.0025033157
0.090263158 0.061119176 -0.21498491 -0.82989669 -0.55790502 -0.0036802553 0.0032811752
-0.080972128 0.073227383 -0.21567793 0.73113155 -0.68223417 -0.0017857759 0.0025147106
-0.077534959 0.077375405 -0.2155683 0.71598059 -0.69807148 -0.0082489047 0.0030163706
0.078351192 0.076445915 -0.21572392 -0.71574396 -0.6982668 -0.011580466 0.0024375916
0.08134117 0.072746538 -0.21558951 -0.7361778 -0.67678398 -0.0024201761 0.0018315237
-0.071342587 0.082418405 -0.21344237 0.66934526 -0.74295062 -0.0011367036 0.0024303086
-0.066104189 0.086438 -0.21462952 0.60215938 -0.79836917 -0.0032855377 0.0034767312
0.066105202 0.08643724 -0.21502963 -0.58255845 -0.81276435 0.0062989164 0.0022472995
0.071554087 0.082256168 -0.21360311 -0.66883355 -0.7434122 2.1825348e-05 0.0022924901
-0.055878632 0.094090447 -0.21683364 0.51882768 -0.85486662 -0.0045684599 0.0018945275
-0.045473844 0.098947383 -0.21789056 0.43487343 -0.90048766 0.0026443722 0.0018773102
0.045881171 0.09877868 -0.21445043 -0.43567437 -0.90009433 -0.0042392053 0.0016216739
0.056390196 0.093721353 -0.21610747 -0.51390451 -0.8578313 -0.0052650943 0.0021739453
0.060840819 0.090476744 -0.21231627 -0.55639529 -0.83091247 0.0029537822 0.0024608709
-0.042005632 0.10038397 -0.21619505 0.39253923 -0.91971487 -0.0061206413 0.0031318152
-0.035791162 0.10295807 -0.2121577 0.33808279 -0.94111508 -0.0015648653 0.001810748
-0.026380852 0.10624599 -0.21465436 0.24024619 -0.9707092 0.0023045195 0.0019456079
-0.015499038 0.10771601 -0.21608698 0.15045069 -0.98861748 -0.00032088719 0.0028623939
-0.0060063279 0.10896573 -0.21429045 0.042570673 -0.99909347 0.00023127858 0.0015230414
0.00566734 0.10901037 -0.21387245 -0.064427279 -0.99789542 0.0073379055 0.0023591265
0.014866476 0.10779929 -0.21322635 -0.1664419 -0.98605102 -0.00073061697 0.0025972417
0.026375933 0.106223 -0.21337046 -0.24081126 -0.97051394 0.010613891 0.0018665856
0.033523418 0.10389739 -0.21605889 -0.30591574 -0.95205355 -0.0030914224 0.0020853898
0.040965058 0.10081498 -0.21888477 -0.38173494 -0.92426676 0.0030546079 0.0034409661
-0.034770187 -0.10338095 -0.20481314 0.30069745 0.9537127 0.0036296768 0.0016828732
-0.022635506 -0.10677649 -0.20338336 0.21315219 0.97699028 0.0074905227 0.0030388108
-0.018234348 -0.1073559 -0.20344405 0.17500471 0.98451215 0.01045441 0.0027617884
-0.0039832611 -0.10923209 -0.20467447 0.015695363 0.99982876 0.0097979577 0.0020245267
0.0048326743 -0.10912026 -0.20486911 -0.012714941 0.99991792 -0.0015825354 0.0019496208
0.015769791 -0.10768037 -0.20330448 -0.16639897 0.986049 0.0043286546 0.0023031882
0.024493825 -0.10648175 -0.2046192 -0.2265387 0.97399169 -0.0045113387 0.0019827532
0.034784306 -0.10337511 -0.20454748 -0.32612333 0.9453252 0.0019562736 0.0033187608
0.041957207 -0.10040399 -0.20593108 -0.39918736 0.91686887 0.0010018812 0.0028322439
-0.053613603 -0.095241241 -0.20478745 0.50031632 0.86584139 -0.0015195268 0.0018718673
-0.046223119 -0.098636977 -0.20533301 0.4047924 0.91440129 0.0036668878 0.0029222306
0.044707015 -0.099264964 -0.20363025 -0.42792702 0.9038133 -0.00032817156 0.0018040402
0.053776432 -0.09523271 -0.20542483 -0.48970455 0.87187868 -0.0041268887 0.0015791337
0.061344728 -0.090090021 -0.20838755 -0.55348343 0.83283633 -0.0062946277 0.0026493841
-0.072570555 -0.08147613 -0.20466976 0.68724447 0.72642541 -0.0010713371 0.0027184004
-0.065772936 -0.086692132 -0.20518184 0.60342777 0.79736686 -0.0090058735 0.002295261
0.064520903 -0.087652877 -0.20710579 -0.57889789 0.81536382 -0.0076915356 0.0022291695
0.072389767 -0.081614912 -0.2036792 -0.67721444 0.73578209 -0.0023230005 0.0023027332
-0.081680596 -0.072304085 -0.20462932 0.75766158 0.65261924 0.0060850368 0.0022683924
-0.078386463 -0.076343857 -0.20394506 0.74139977 0.67106318 -0.00069936155 0.0016912167
0.078089535 -0.076730505 -0.20485075 -0.71669197 0.69736516 -0.0058590616 0.0027344122
0.080940761 -0.073268354 -0.20273799 -0.73379004 0.67937374 0.0018302359 0.0023702662
-0.090583749 -0.060701262 -0.20239323 0.8345691 0.55089724 -0.0025784692 0.0028524743
-0.086815134 -0.065612622 -0.20349953 0.80376679 0.59494442 -0.00023034308 0.003158191
0.086620688 -0.065866135 -0.20403431 -0.80451334 0.59390712 -0.0057090749 0.0021257345
0.090248972 -0.061137654 -0.20534123 -0.82074851 0.57128477 -0.0023694462 0.0023141161
-0.094342828 -0.055443529 -0.20463805 0.85653961 0.51607996 0.0012413413 0.0022917159
0.09437824 -0.055136688 -0.20470108 -0.85706598 0.5152061 0.00073387334 0.0021046654
-0.10021746 -0.042407501 -0.20466971 0.91627413 0.40055057 -0.0009107528 0.0031758088
-0.097960725 -0.047855727 -0.20789135 0.89435828 0.44735113 -0.00050285849 0.0021098163
0.098316662 -0.046996552 -0.20453359 -0.90585917 0.42357647 0.0014762536 0.0015979765
0.10061953 -0.041436922 -0.20362252 -0.92415947 0.38195133 0.0065191588 0.0029918076
-0.10351139 -0.03445527 -0.20471163 0.94899976 0.31522354 -0.0057866438 0.0033867767
0.10370048 -0.033998813 -0.20335102 -0.9487263 0.3160964 -0.0012039091 0.0024711862
-0.10633728 -0.025541006 -0.20319204 0.96872854 0.24812102 0.0009722418 0.0017744954
0.10641003 -0.02487329 -0.20459774 -0.97003782 0.24295036 0.001325976 0.0018035632
-0.10778594 -0.014967931 -0.20530112 0.98681951 0.1617997 -0.0028306523 0.0022602319
0.10804943 -0.012966471 -0.20616622 -0.99385333 0.11064444 -0.0036573661 0.0030913772
-0.10885314 -0.006861601 -0.20449412 0.99853069 0.05389218 0.0056735678 0.0022493501
0.10919432 -0.0042700414 -0.20627517 -0.99899209 0.044877831 -0.00082514319 0.0013221013
-0.10907698 0.005161494 -0.2067742 0.999259 -0.038343772 -0.0033632882 0.0014552223
0.10904085 0.0054358435 -0.20560649 -0.99863523 -0.052217435 -0.00099185924 0.0021205063
-0.10772672 0.015417787 -0.20440991 0.9879775 -0.15439336 -0.0079562599 0.0036026563
0.10793613 0.013827175 -0.20644923 -0.99010992 -0.14028621 0.0014655449 0.0027418844
-0.10642448 0.025208356 -0.20342873 0.96950567 -0.24490972 0.0088327676 0.0018089773
0.10629631 0.025947114 -0.20660056 -0.96909529 -0.24648252 0.010035136 0.001635028
-0.10245015 0.037017316 -0.20466352 0.93675572 -0.34997526 0.0024465325 0.0025259762
0.10375628 0.033864133 -0.20424265 -0.95623118 -0.29260933 0.0013098406 0.0023622471
-0.10040518 0.041954316 -0.20366283 0.92078632 -0.38999414 0.0075556948 0.0031956444
-0.098440856 0.046696607 -0.20578419 0.90251893 -0.43064958 -0.00077975425 0.0018827434
0.098722935 0.04601571 -0.20488295 -0.89955252 -0.43681189 -0.00081519247 0.0017447107
0.10060422 0.041473877 -0.20436767 -0.92308426 -0.38449425 0.0089239804 0.0030849515
-0.094312936 0.05536104 -0.20525946 0.85067892 -0.52568352 0.0014929964 0.0021418985
0.094360188 0.055176973 -0.20568362 -0.85808516 -0.51350445 -0.0017133442 0.0021948651
-0.090165831 0.061245896 -0.20472799 0.82857591 -0.55987662 -0.00032438152 0.0027075938
-0.085947305 0.066743605 -0.20659375 0.79473042 -0.60696137 0.0012010661 0.003485085
0.086944632 0.065443955 -0.20593554 -0.80347037 -0.59534097 -0.0021149323 0.0031631801
0.090287283 0.061087728 -0.20263323 -0.82739979 -0.56161195 0.0012727873 0.0022770741
-0.080977239 0.073220715 -0.20368724 0.73603606 -0.67691749 0.0057954416 0.0020979899
-0.077176072 0.077639692 -0.20508982 0.70449054 -0.70969719 0.0047909282 0.0024369394
0.077112526 0.07769952 -0.2048087 -0.70331132 -0.71084017 0.0077116848 0.0029708045
0.081657216 0.072334647 -0.20587718 -0.73141223 -0.68192017 -0.0045849946 0.0025958398
-0.072994828 0.081150606 -0.20160681 0.67747188 -0.7355473 -0.0014003392 0.0021509312
-0.065801874 0.086669967 -0.20505464 0.58980346 -0.80750823 0.0078996923 0.0027270468
0.065911718 0.086585723 -0.20546006 -0.6064049 -0.795151 0.0028232755 0.0026487622
0.072000466 0.081913643 -0.20454848 -0.67701399 -0.73594159 0.0064904056 0.002153808
-0.060869306 0.090454869 -0.20442984 0.54601413 -0.83771652 0.0099862758 0.0026472227
-0.056520496 0.093630143 -0.2047289 0.52445149 -0.8514334 0.0034258096 0.0020898669
-0.04552253 0.098927222 -0.20484206 0.42935213 -0.90312165 -0.0052887797 0.0019573746
0.046239622 0.098630205 -0.20555934 -0.43199635 -0.90187413 0.0015062453 0.0014523622
0.054932017 0.094611809 -0.20346951 -0.51391768 -0.85783929 0.00065439835 0.0018956633
0.060661186 0.090614572 -0.20309551 -0.55171692 -0.83402914 0.0019661686 0.0028816329
-0.042586792 0.10014324 -0.20532282 0.41152209 -0.91139585 -0.0026750844 0.0025656957
-0.034531843 0.1034797 -0.2061543 0.31788936 -0.9481163 -0.0046680272 0.002496734
-0.02463703 0.10643923 -0.20555165 0.24076702 -0.97058165 -0.0015901705 0.0018466848
-0.016639613 0.10756584 -0.20604098 0.17144105 -0.98515683 -0.0085990056 0.0023926573
-0.0064952192 0.10890137 -0.20392205 0.058573905 -0.99826586 0.005873532 0.0022259708
0.005534953 0.1090278 -0.2050622 -0.047646772 -0.99885648 -0.0039411187 0.0018330246
0.015118943 0.10776604 -0.20483132 -0.16119574 -0.98692089 -0.0017513545 0.0022881115
0.025541646 0.10636053 -0.20401001 -0.24446146 -0.96965849 0.00097160111 0.0018339106
0.035736501 0.10298071 -0.20381889 -0.34531501 -0.93846291 0.006705937 0.0027356928
0.042129081 0.10033283 -0.20631827 -0.40114328 -0.91600835 0.0035733385 0.0031868485
-0.041556001 -0.10057017 -0.19769967 0.37676266 0.92630351 0.0034168672 0.0026146467
-0.034381878 -0.10354179 -0.19674923 0.30593434 0.95205116 -0.0016840325 0.0017646626
-0.022589959 -0.10678248 -0.19471192 0.20789479 0.9781366 0.0053316429 0.0032269848
-0.016539097 -0.10757909 -0.19658585 0.15243885 0.98831284 0.00010124445 0.00186826
-0.0058793281 -0.10898247 -0.1950563 0.053755719 0.99855047 -0.0026901639 0.0022423763
0.0053688539 -0.10904968 -0.19469073 -0.018977309 0.99981511 0.0031020807 0.002121723
0.016600328 -0.10757101 -0.1951104 -0.18371207 0.98290533 -0.012123434 0.0026991868
0.025392739 -0.10633796 -0.19400296 -0.2448189 0.96956819 0.0011101889 0.0017111427
0.036836736 -0.10252496 -0.19551581 -0.34287184 0.93934381 -0.0084923282 0.002333733
0.040025517 -0.10120411 -0.19531111 -0.36934337 0.92929065 -0.0020613603 0.0028706933
-0.054443549 -0.094809867 -0.19586059 0.51348609 0.85805809 0.0082667861 0.0020146533
-0.047182728 -0.098239496 -0.19354013 0.44020092 0.89789248 -0.0035009342 0.0031197907
0.044868626 -0.099198028 -0.19472829 -0.41641083 0.90917116 -0.0031365138 0.0026502551
0.05653736 -0.093678549 -0.19563733 -0.52341545 0.85207713 0.00090762565 0.0023310615
0.060888905 -0.090439789 -0.1988806 -0.54946154 0.83551568 -0.0023683449 0.0028441928
-0.071962252 -0.081942901 -0.19580224 0.66115737 0.75021988 0.0063987328 0.0033326875
-0.064448968 -0.087708049 -0.19533914 0.58476382 0.81119752 0.0031511763 0.0020838252
0.06485711 -0.087394886 -0.19364248 -0.57312006 0.81946433 0.0033873317 0.0023727862
0.072494082 -0.081534863 -0.19666778 -0.6825254 0.73084211 -0.0053687249 0.0023898955
-0.081875362 -0.072050259 -0.19473973 0.7518788 0.65929371 -0.003169891 0.0021950915
-0.077795081 -0.077080213 -0.19573766 0.72231942 0.69152451 0.0069662947 0.0028707474
0.078712016 -0.076172926 -0.19546805 -0.71854371 0.69545603 -0.0059771948 0.0031913088
0.081947081 -0.071956895 -0.19493121 -0.73270911 0.68053705 -0.0025959206 0.0025094259
-0.090692826 -0.060559116 -0.19434136 0.8298865 0.55792904 0.001885561 0.0029104562
-0.086596109 -0.065898061 -0.19568092 0.81016415 0.58620262 0.00075092854 0.0023338778
0.087564483 -0.064636156 -0.19544141 -0.82092899 0.5709886 -0.0069003305 0.0022538274
0.091062084 -0.060077988 -0.19581378 -0.83853519 0.54484701 -0.0006538509 0.0028087515
-0.09486261 -0.054518338 -0.19531153 0.85663182 0.51590198 0.0052087088 0.0019933048
0.094850764 -0.054265413 -0.19675851 -0.86141568 0.50784838 -0.0072803381 0.0020495488
-0.10085826 -0.0408605 -0.19579177 0.92139411 0.38852528 0.0090008741 0.0030852859
-0.098633483 -0.046231546 -0.19584429 0.89926064 0.4372977 0.01005338 0.0020167173
0.098636806 -0.046223659 -0.19766395 -0.90218472 0.43133223 0.0039023494 0.0018912676
0.10081312 -0.040969551 -0.19222204 -0.92192417 0.3873423 0.0046563162 0.0025413954
-0.10297319 -0.035754617 -0.19476253 0.94248867 0.33419785 0.0051766732 0.0027879467
0.1036482 -0.034125026 -0.19441071 -0.95065498 0.31024948 0.0005116993 0.0027496165
-0.10624088 -0.025601989 -0.19488446 0.96890348 0.2474366 0.0010836395 0.0018672332
0.10643295 -0.024655245 -0.19530512 -0.97276765 0.23176551 -0.0027990541 0.0024440684
-0.10802979 -0.013115588 -0.19692333 0.99307257 0.11745277 -0.0034205737 0.0033576265
0.10752045 -0.016984463 -0.1938815 -0.98523748 0.17119324 4.9870021e-05 0.002178597
-0.10866834 -0.0082653295 -0.19610193 0.99686134 0.078792721 -0.0076961769 0.0025571813
0.10897116 -0.0059650899 -0.19569851 -0.99753422 0.070174702 -0.0010011395 0.0023765489
-0.1090916 0.0050503616 -0.19439012 0.99868375 -0.051068876 -0.0047650463 0.001927766
0.10913274 0.004737874 -0.19458757 -0.99914449 -0.040615592 0.007788917 0.00278754
-0.10763664 0.016102029 -0.19544314 0.98977417 -0.14263971 0.0010557584 0.0029546968
0.1078674 0.014349039 -0.19456795 -0.9881416 -0.15340818 0.0064940313 0.0027205965
-0.1064996 0.024738582 -0.19367535 0.96895295 -0.24721281 0.0039908085 0.0019583479
0.10654859 0.024318704 -0.1960877 -0.97054118 -0.24093422 -0.00073247764 0.0016533645
-0.10312267 0.03539373 -0.19589195 0.94053209 -0.33969218 -0.0029318142 0.0019076446
0.10368391 0.034038804 -0.19442691 -0.95109677 -0.30876133 0.0090216938 0.002792211
-0.1009945 0.040531568 -0.19388993 0.92876548 -0.37064067 0.0044825473 0.0025085821
-0.09858495 0.046348732 -0.19671957 0.90342593 -0.42873642 -0.0026005942 0.0018881243
0.098657496 0.046173695 -0.19483609 -0.90040648 -0.43500751 0.0060566464 0.0015611395
0.10115658 0.040140331 -0.190083 -0.93007487 -0.3673296 -0.0054451777 0.0025971001
-0.094287187 0.05517827 -0.19441789 0.86010504 -0.51004344 -0.008663686 0.0021910542
0.095095739 0.053828117 -0.19565719 -0.87252718 -0.488565 -0.00074989878 0.0017315223
-0.090604804 0.060673825 -0.19634375 0.83151144 -0.5555017 0.002562664 0.0027306278
-0.088267729 0.063719563 -0.19728187 0.81503516 -0.57940894 -0.0017032565 0.0024493346
0.086247958 0.066351876 -0.19443579 -0.78552777 -0.61881948 0.0029221151 0.0021660987
0.0908949 0.06029588 -0.19507135 -0.83947277 -0.54339385 0.0029267399 0.0021603282
-0.080690183 0.073594816 -0.19510436 0.72624457 -0.6874122 0.0057649636 0.0024421124
-0.078069545 0.076746799 -0.19607008 0.71466529 -0.69944566 -0.0054155062 0.0026860712
0.07689935 0.078043193 -0.19539478 -0.68791562 -0.72578996 -0.0010121968 0.0024778498
0.081323676 0.072769336 -0.19278967 -0.73318708 -0.67998862 0.007225811 0.0022460539
-0.07100796 0.082675181 -0.19397351 0.658494 -0.75258583 -0.00051796273 0.0025201817
-0.065487765 0.086910985 -0.19522047 0.58155912 -0.81350142 0.0021195791 0.0024683778
0.065787554 0.086680979 -0.1968803 -0.59419852 -0.80431658 0.0017117421 0.0029651336
0.072301649 0.081682548 -0.19501142 -0.66781467 -0.7443276 -4.8811329e-05 0.0029077153
-0.060620427 0.090645842 -0.19596371 0.55314505 -0.83302659 0.0098611591 0.0023825008
-0.052850246 0.095868967 -0.1941458 0.4940542 -0.86936605 0.010636406 0.0016567144
-0.046626642 0.098469883 -0.19572805 0.44626075 -0.89489132 0.0045764144 0.002181553
0.047704503 0.09802343 -0.19324288 -0.46186969 -0.88692999 0.0056210048 0.0022377309
0.054114681 0.095095932 -0.19694668 -0.50231206 -0.86468136 -0.0029695171 0.002470514
0.061119817 0.090262666 -0.19886759 -0.55358016 -0.83277279 -0.0062048826 0.0026042375
-0.041330751 0.10066351 -0.19364144 0.37384912 -0.92748415 0.0031611915 0.0029327266
-0.035149649 0.10322379 -0.19603676 0.3260259 -0.94536066 0.00055049674 0.0028350754
-0.024329795 0.1065463 -0.19452189 0.24076039 -0.97055739 0.0072680693 0.0018986685
-0.013359593 0.10799768 -0.19371127 0.13193062 -0.99125844 -0.0010011111 0.0035584276
-0.0060039638 0.10896605 -0.19764365 0.060406946 -0.99814415 -0.0077007017 0.0021551801
0.0057360269 0.10900133 -0.19548732 -0.046102665 -0.9989363 0.0009434619 0.0017748959
0.015003209 0.10778129 -0.19551241 -0.14108902 -0.98999178 -0.0031850103 0.0027982781
0.026937289 0.10611314 -0.19428921 -0.25670737 -0.96648431 -0.0030629395 0.0021028556
0.036799029 0.10254059 -0.19435588 -0.35179654 -0.93606877 0.0038016478 0.002561437
0.041198984 0.10071809 -0.19542 -0.37628061 -0.92649388 -0.0046995804 0.003062061
-0.042110275 -0.10034058 -0.18135212 0.39032498 0.92066872 0.0039382619 0.0031677329
-0.033897635 -0.10374238 -0.18399353 0.30180532 0.95332056 0.009667052 0.0018990634
-0.025035067 -0.10646058 -0.18376759 0.23093942 0.97296631 -0.0018636574 0.002236045
-0.014208855 -0.10788587 -0.18475614 0.13408329 0.99094635 -0.0068565337 0.0032412552
-0.0057632835 -0.10899774 -0.18462372 0.054832503 0.99848175 0.0052575185 0.0019814416
0.0045779394 -0.1091538 -0.18368448 -0.02281978 0.99967039 0.011763993 0.0023096765
0.013883735 -0.10792867 -0.1852656 -0.14864451 0.98889053 0.00049280596 0.0028334192
0.024725728 -0.1065013 -0.18433648 -0.24487226 0.96955532 0.00012450237 0.0017174197
0.03472811 -0.10339838 -0.18467388 -0.32727778 0.94492614 0.0019382362 0.0020068798
0.041490454 -0.10059732 -0.18371367 -0.38857424 0.92139584 0.0062983041 0.0031658553
-0.055147823 -0.094612874 -0.18376838 0.50784034 0.86143899 -0.0045780325 0.0022817256
-0.048368193 -0.097748458 -0.18728366 0.45242554 0.89180213 0.00025987832 0.0029274027
0.046036925 -0.098714106 -0.18493636 -0.43152761 0.90209949 -0.00052889326 0.0014864152
0.055294137 -0.094329394 -0.18276563 -0.51424557 0.85764271 -0.00067809434 0.0020039296
0.060272105 -0.090913072 -0.18843745 -0.5512206 0.8343519 0.0035809719 0.0029826525
-0.072535269 -0.081503212 -0.18758075 0.6692583 0.74302197 -0.0034262196 0.0027520217
-0.065021373 -0.087268822 -0.18338029 0.59475964 0.80384934 0.0093374299 0.0028938116
0.06593328 -0.086569123 -0.18747233 -0.58908933 0.80806684 0.0013151336 0.0021240027
0.071764216 -0.082094908 -0.18383187 -0.67377996 0.738931 0.0013011093 0.0019885991
-0.083062746 -0.070502818 -0.18363094 0.75772375 0.65257537 -0.0002717991 0.0020728949
-0.077992454 -0.076894321 -0.18480889 0.7271384 0.68646157 -0.0063465945 0.0025512038
0.077279858 -0.077544868 -0.18532558 -0.69861877 0.71544987 0.0079555213 0.0025665392
0.081972018 -0.071924403 -0.1860301 -0.73987877 0.67273986 -0.00070629356 0.0023234668
-0.090770796 -0.060457505 -0.18973437 0.83754629 0.54635417 -0.0036439712 0.0028576739
-0.08498963 -0.067991659 -0.18517767 0.77821767 0.62790293 -0.010729622 0.0024221833
0.086988777 -0.065386429 -0.18356834 -0.8176747 0.57564873 0.0060487981 0.0022907734
0.090522736 -0.060780883 -0.18904066 -0.8324092 0.55415237 -0.0031697301 0.0026809121
-0.094862968 -0.054629326 -0.18472104 0.86467838 0.5022949 0.0055655283 0.0018056601
0.094957873 -0.054481387 -0.18465987 -0.8575868 0.51433617 0.0017586809 0.0020435248
-0.10042652 -0.041902781 -0.18592192 0.91892523 0.39434958 -0.0080548553 0.0028188059
-0.097753048 -0.04835711 -0.18643728 0.8907795 0.45442638 -0.0029323597 0.0024460482
0.098672092 -0.046138495 -0.18451123 -0.90454549 0.42636228 -0.0035654039 0.0018914641
0.10052563 -0.041663624 -0.18438888 -0.91933399 0.3933906 0.0082985442 0.0029834963
-0.10303551 -0.035604119 -0.18464768 0.94201207 0.3353222 0.013127177 0.0022355015
