# .PCD v0.7 - Point Cloud Data file format
VERSION 0.7
FIELDS x y z normal_x normal_y normal_z curvature
SIZE 4 4 4 4 4 4 4
TYPE F F F F F F F
COUNT 1 1 1 1 1 1 1
WIDTH 559
HEIGHT 1
VIEWPOINT 0 0 0 1 0 0 0
POINTS 559
DATA ascii
-0.036032718 -0.11480153 -0.4461596 0.29385078 0.95584834 0.0023756193 0.001984864
-0.024726652 -0.11763034 -0.44768977 0.20728561 0.97827661 -0.0027394791 0.0019149252
-0.015098738 -0.11889835 -0.44604406 0.12259088 0.9924444 -0.0050576879 0.0023885875
-0.0074703195 -0.11990251 -0.44649476 0.08095789 0.9967128 -0.0030631893 0.0020710335
0.008476384 -0.11976975 -0.44754913 -0.069493845 0.9975813 0.0014708586 0.0014339638
0.014488908 -0.11897916 -0.44415578 -0.098839946 0.99507093 0.0080299154 0.0022381961
0.023934796 -0.11773513 -0.44578716 -0.20161808 0.97944629 0.0059168241 0.0020643843
0.033389661 -0.1158808 -0.44273102 -0.26555043 0.96405298 0.0092115048 0.0020215153
0.04144204 -0.11256077 -0.44665551 -0.33022681 0.94390053 -0.0014310098 0.0019368429
-0.063199893 -0.10257594 -0.44360957 0.51884925 0.85484427 0.0060518445 0.0022832542
-0.056609597 -0.10627865 -0.44500369 0.47520441 0.87986684 0.00390707 0.001640419
-0.049104817 -0.1093868 -0.44642594 0.41681042 0.90899318 -0.00072045549 0.0019364562
0.055303037 -0.10682006 -0.44431061 -0.47048587 0.88239515 0.0046865013 0.0022152292
0.064383559 -0.10166709 -0.44523937 -0.53748697 0.84327209 -0.00018544937 0.0024851214
-0.072805151 -0.095204376 -0.44694632 0.61119229 0.79146504 0.0052001472 0.0026353544
-0.068915725 -0.098189868 -0.44403455 0.56431484 0.8255353 0.0063410397 0.0025279419
0.068642132 -0.098399796 -0.44407153 -0.55756366 0.83012098 -0.0046717389 0.0020463192
0.073772803 -0.094462089 -0.44629982 -0.62972617 0.77681726 -7.0038855e-05 0.0019547811
-0.086937591 -0.083552137 -0.44573304 0.71972167 0.69424027 -0.0055766976 0.0021610232
0.079682924 -0.08992748 -0.44517702 -0.67373991 0.73896784 0.0010060039 0.0022640722
0.084029555 -0.086152568 -0.44541228 -0.70263147 0.71148777 0.0097026154 0.0022693984
-0.093400627 -0.075156704 -0.44503689 0.7677027 0.64077789 0.0060243448 0.0021995101
0.094159208 -0.074167743 -0.44583336 -0.77824378 0.62790728 0.0083121154 0.0020228724
-0.10259727 -0.063171238 -0.44541499 0.85653836 0.51608342 3.7402369e-05 0.0018211048
-0.098239183 -0.068850495 -0.44612753 0.83426124 0.55136871 0.00075934833 0.0020443283
0.099033199 -0.067815728 -0.44606411 -0.82988006 0.55793446 0.0028851586 0.0029887413
0.10254438 -0.063225523 -0.44459 -0.84703815 0.53148842 0.0068161017 0.0022820381
-0.10705025 -0.054748066 -0.44323182 0.88242078 0.4704524 -0.0028496676 0.0017862272
0.10707721 -0.054682132 -0.44439721 -0.88653857 0.46264458 0.0030664324 0.0015090567
-0.11154004 -0.043906678 -0.44611788 0.92193824 0.38732931 0.0024027722 0.0022510097
-0.1096347 -0.048508324 -0.44371253 0.91297424 0.40801707 -0.00043703496 0.0018064374
0.11107951 -0.045017943 -0.44685629 -0.91995299 0.39200264 0.0045227595 0.0018592384
-0.11568165 -0.033865154 -0.44330269 0.96432441 0.26468888 0.0042768056 0.0022466462
0.11563059 -0.033922687 -0.44607767 -0.96500856 0.26221845 5.6954585e-05 0.0018842338
-0.11760455 -0.024928574 -0.44492596 0.97896677 0.2039777 0.0041456837 0.0021376237
0.11757039 -0.02518584 -0.44594404 -0.97831726 0.20710707 -0.0014242565 0.0020005396
-0.11854315 -0.017797614 -0.44564742 0.98854554 0.15091655 -0.0013862409 0.0022081193
0.11880177 -0.015837263 -0.44374332 -0.99287307 0.11916593 0.0015966229 0.0020054313
-0.12026898 -0.0046935333 -0.44329801 0.99957991 0.028980097 -6.148604e-05 0.0024452268
-0.11990756 -0.0074392669 -0.44308054 0.9980889 0.06176791 0.0018172824 0.001887528
0.11959086 -0.0098468075 -0.44221404 -0.99751925 0.070010759 0.0073339557 0.0018206772
0.12037591 -0.0038759464 -0.44580254 -0.99957156 0.029268792 0.00016124455 0.001678937
-0.12033832 0.0041666627 -0.44340447 0.99990666 -0.01225254 0.0060400018 0.0021486301
-0.11965174 0.0093744453 -0.44679326 0.99698263 -0.077618912 -0.00098271423 0.0022624107
0.11986256 0.0077805328 -0.44335237 -0.99747151 -0.070858508 0.0054481151 0.0021149346
0.12048739 0.0030293858 -0.44571164 -0.99997872 -0.0061149332 0.0022727614 0.0018001624
-0.11893161 0.014850408 -0.44405752 0.9929508 -0.11852717 -0.00012424096 0.0012144102
0.11910301 0.013551304 -0.44271567 -0.99645871 -0.083867446 0.0060265851 0.0020108253
-0.11780439 0.023409477 -0.44547248 0.98092932 -0.19435412 0.0020319773 0.0023213059
0.1179565 0.022256438 -0.44432825 -0.97998673 -0.19896618 0.0061984961 0.0019790975
-0.11445691 0.036866542 -0.44373399 0.95384926 -0.30028301 0.0013029058 0.0020808389
0.11481822 0.035905343 -0.44739336 -0.95870697 -0.28436947 0.0038646422 0.0021649019
-0.11141946 0.044197619 -0.44630858 0.92128152 -0.38888654 -0.0027476819 0.001690108
-0.10977162 0.048178043 -0.44332814 0.91344488 -0.40696052 0.0012750427 0.0025326789
0.10957891 0.048641384 -0.44593033 -0.91367477 -0.4064039 0.0058583496 0.0023040485
0.11109632 0.044977501 -0.44665912 -0.92130816 -0.38881966 0.003262803 0.0017964792
-0.10675191 0.055468488 -0.44304445 0.87932652 -0.47621769 -0.0012670873 0.002138302
0.10688393 0.055149093 -0.44396141 -0.88693333 -0.46189728 -0.00032466702 0.0015713504
-0.10240256 0.063426673 -0.44179451 0.85062242 -0.52573889 0.0063352026 0.0025947986
-0.098466218 0.06855417 -0.44708169 0.83469772 -0.55068827 0.0047087064 0.0019099122
0.099174395 0.067632318 -0.4447906 -0.82840914 -0.56011051 0.0037939411 0.0024627075
0.10210706 0.063810892 -0.44370443 -0.84716946 -0.53126997 0.0074902619 0.0022036321
-0.094658211 0.073518232 -0.44410354 0.78159523 -0.62378567 0.00064622692 0.0026187049
-0.08996769 0.079632796 -0.44030565 0.74492514 -0.66714305 -0.0025924949 0.0024560385
0.08984182 0.079794079 -0.4462449 -0.7405557 -0.67198497 -0.0036554763 0.0016926669
0.09402892 0.074337967 -0.44493002 -0.77443057 -0.63264793 0.0037249257 0.0020187267
-0.08495447 0.085233785 -0.44553703 0.70817029 -0.70600784 -0.0069080633 0.0025009031
0.079860754 0.089791127 -0.44491836 -0.68275988 -0.73064041 0.00187879 0.001952827
0.084204845 0.086079545 -0.44514042 -0.69613796 -0.71787333 -0.0070508951 0.0024138791
-0.07397905 0.094304211 -0.44524446 0.63092136 -0.77584624 -0.00096428767 0.0021297527
-0.068619333 0.098416477 -0.44631386 0.57660335 -0.81702387 0.00062409299 0.0025362791
0.068912342 0.098192319 -0.44442767 -0.56893206 -0.82231724 0.010514991 0.002067473
0.075817399 0.092894025 -0.44401982 -0.63746661 -0.7704373 0.007916999 0.0025057306
-0.063092589 0.10265497 -0.44556481 0.51391459 -0.85784107 -0.00075593655 0.00252133
-0.055563919 0.10671132 -0.44655785 0.467536 -0.88396943 0.002868436 0.0017537617
-0.047827084 0.10991794 -0.44025472 0.40496603 -0.91432756 0.0027641822 0.0014728347
0.048834547 0.10949944 -0.44417784 -0.40199396 -0.9156422 0.00054776255 0.0016634403
0.054408114 0.10719073 -0.44437075 -0.46766981 -0.88389736 0.0032176371 0.0016490843
0.063839622 0.1020842 -0.44598174 -0.52482635 -0.85119206 0.0054151542 0.0018681539
-0.043801751 0.11158363 -0.445719 0.39477712 -0.91876006 0.0055551035 0.0016157513
-0.037364271 0.11425047 -0.44460046 0.31420782 -0.94934869 0.0032469167 0.0022716965
-0.025992224 0.11746473 -0.4441832 0.21127158 -0.97742444 0.0023981684 0.002072979
-0.014212105 0.11901527 -0.44529045 0.10295756 -0.99468303 -0.0023351011 0.0018312471
-0.0073728831 0.11991549 -0.44594726 0.068074293 -0.99767244 0.0039629326 0.0017871378
0.0080254674 0.11982974 -0.44533929 -0.077205703 -0.99701428 -0.0013506354 0.0021634202
0.013055068 0.11916813 -0.44349006 -0.091763809 -0.99578011 -0.0012012093 0.0018104452
0.024672059 0.11763842 -0.44458535 -0.20697723 -0.97833925 0.0035792002 0.0021473186
0.035248112 0.11512683 -0.44516072 -0.27034697 -0.9627611 -0.0018913167 0.0019533318
0.045616008 0.11083205 -0.4460147 -0.39808112 -0.9173227 -0.0071113631 0.0016847027
-0.0037057179 0.12039874 -0.44433391 0.019121751 -0.99981654 -0.0010548048 0.0022360797
0.0031536683 0.12047152 -0.44393468 -0.015271209 -0.99988264 -0.0012437878 0.0022760045
-0.0042025479 -0.12033606 -0.434681 0.027925091 0.99960947 -0.0010064049 0.0020641373
0.001906149 -0.12063824 -0.43519711 -0.001213828 0.99999905 0.00070093822 0.0023239816
-0.044177514 -0.11143059 -0.43711671 0.38726267 0.92196912 -0.00075010001 0.001609174
-0.033860821 -0.1156607 -0.43465886 0.2688641 0.96312505 0.010109339 0.0020941973
-0.025576264 -0.11752248 -0.43360919 0.21932714 0.97561198 0.0087737441 0.0018901097
-0.014027522 -0.11904236 -0.43552473 0.10001433 0.99498421 0.0018689235 0.0020994465
-0.0073143486 -0.11992577 -0.43685231 0.055505879 0.99845147 -0.003686832 0.0019420543
0.0088722203 -0.11972125 -0.43481624 -0.076684184 0.99703014 0.007102719 0.0020696931
0.015499344 -0.11884878 -0.43479532 -0.13671617 0.99059373 0.0057197097 0.0025354992
0.024086822 -0.11771819 -0.43491668 -0.191119 0.98156625 0.0010888588 0.0022744904
0.036397964 -0.11465332 -0.43609309 -0.29584572 0.95520657 0.0074617779 0.0021267296
0.043363839 -0.11176769 -0.43692112 -0.37130612 0.92850751 -0.0023889344 0.0020910457
-0.064758398 -0.10138237 -0.4370687 0.53656214 0.84386039 0.00085449405 0.0020886392
-0.054381803 -0.10720462 -0.43455154 0.46339521 0.88614202 0.0041549378 0.0017986135
-0.048806962 -0.1095142 -0.43323863 0.4011375 0.91601539 -0.0021194902 0.0019256035
0.048494808 -0.1096431 -0.43452233 -0.39981699 0.91659224 -0.0022698189 0.0018793109
0.055812992 -0.10661165 -0.43497258 -0.46075636 0.88752568 -0.0013363307 0.0018917857
0.06146054 -0.10391275 -0.43749404 -0.50702661 0.86193043 -5.0812465e-05 0.0023541076
-0.076329805 -0.092504211 -0.43452635 0.64229167 0.76640475 -0.009228874 0.0019115554
-0.068650328 -0.09839654 -0.43547416 0.55846131 0.82952678 -0.0025214343 0.0024710251
0.068313599 -0.098654874 -0.43558878 -0.56498426 0.82510096 -0.0011145318 0.0017373619
0.074251592 -0.094098568 -0.43539196 -0.63075578 0.77597511 -0.0031111296 0.0016764263
-0.083659142 -0.086468697 -0.43530762 0.69874811 0.71531618 -0.0085832709 0.0021991262
-0.07997942 -0.089705236 -0.43028408 0.67994285 0.73326147 -0.0023269958 0.0018609742
0.085440576 -0.084907137 -0.43501547 -0.71604383 0.6980496 0.002812943 0.0020331098
-0.093543112 -0.07497634 -0.43348989 0.77930772 0.62660879 -0.0063968762 0.0017307115
-0.089954197 -0.079651177 -0.43855155 0.738787 0.67393118 -0.0032586388 0.0023421051
0.094019733 -0.074354738 -0.43450117 -0.77607596 0.63063937 -0.00026358815 0.0018238625
-0.10198067 -0.063979477 -0.43531552 0.8438952 0.5365029 0.0023568466 0.0023991459
-0.098851435 -0.068058044 -0.43430385 0.83284122 0.55350459 0.0028486066 0.0025581783
0.098747164 -0.068193987 -0.43415904 -0.83842659 0.54499304 0.004845208 0.0021047201
0.10173763 -0.06429597 -0.43584824 -0.84427333 0.53589815 0.0039784042 0.0021406328
-0.10635225 -0.056438841 -0.43552575 0.87840068 0.47792315 -0.00131621 0.0020840536
0.10677874 -0.055409074 -0.43572569 -0.88187343 0.47148606 0.00033967412 0.0017899812
-0.11145196 -0.044128209 -0.43400589 0.93164021 0.36337128 -0.00278952 0.0026879942
-0.10965391 -0.04846653 -0.43744841 0.9160496 0.40104502 -0.0040097819 0.0018804572
0.10975431 -0.048229124 -0.4306792 -0.91690803 0.39909834 0.00047371452 0.0015371175
0.1119499 -0.042924136 -0.4366335 -0.93373191 0.35797289 -0.00024673852 0.0026697498
-0.11559822 -0.034116488 -0.43641573 0.96304888 0.26926199 -0.0059026033 0.0021509437
0.1161169 -0.032608997 -0.43664491 -0.96506727 0.26191193 -0.0068732854 0.0020263554
-0.11767285 -0.024429765 -0.43565506 0.97841805 0.20660743 0.0033913583 0.002111793
0.11764827 -0.024620032 -0.433983 -0.97949076 0.20148911 -0.00013106906 0.0018063477
-0.11877561 -0.016052179 -0.43622509 0.98982567 0.14215337 -0.0061238152 0.0019765641
0.11896668 -0.014601897 -0.43570286 -0.99430388 0.10650205 -0.0041339207 0.0023486735
-0.12025835 -0.00478925 -0.43636122 0.99948406 0.031729754 -0.0049781664 0.0023774498
-0.11981724 -0.0081463819 -0.43329671 0.99751937 0.070392832 0.00013196377 0.0021801237
0.11979551 -0.008311322 -0.43334097 -0.99744195 0.071481742 -5.6700377e-05 0.0017677296
0.1205852 -0.0023088672 -0.43525529 -0.99980497 0.019456511 0.0033844446 0.0019352244
-0.12054193 0.0026401386 -0.43402573 0.99995291 -0.0095621115 -0.0016362921 0.0022515035
-0.11989576 0.0075434055 -0.43637532 0.99847853 -0.055049773 -0.0031756563 0.0018384613
0.11972039 0.0088804262 -0.4340553 -0.99773145 -0.067255899 0.0029321318 0.002027561
0.12048475 0.0030724886 -0.434982 -0.99991977 -0.012252646 -0.0032280083 0.0021181875
-0.11897527 0.014538561 -0.43484125 0.99285603 -0.11924853 -0.0040888381 0.002128053
0.11894194 0.014791749 -0.43478569 -0.99318099 -0.11656528 0.0020291698 0.0021527349
-0.11780633 0.02341564 -0.43573505 0.97961074 -0.20090471 0.00026949239 0.0020031931
0.11772454 0.024040628 -0.43399414 -0.97587681 -0.21825826 0.0052761263 0.0018280527
-0.11538997 0.034569602 -0.43458185 0.96407366 -0.26563129 -0.0014212349 0.0021298686
0.11527313 0.034645673 -0.43470752 -0.96412879 -0.26543242 0.0011063056 0.0019220784
-0.11186712 0.043126415 -0.43332168 0.93606603 -0.35182342 -0.00084972329 0.0026322117
-0.10981601 0.048079673 -0.43136278 0.9151727 -0.40305665 0.0020562015 0.0018504936
0.10962123 0.048547383 -0.43483734 -0.91884732 -0.39460829 -0.0019719966 0.0015302371
0.11229733 0.042086553 -0.43506086 -0.93722165 -0.34869879 -0.0049686432 0.0021437842
-0.10607339 0.057110801 -0.43728414 0.87937325 -0.47612396 -0.002925606 0.002007283
0.10741439 0.053874254 -0.43600497 -0.88707983 -0.46159133 -0.0047761332 0.0016006331
-0.10174269 0.064289436 -0.43571582 0.84701562 -0.53156704 0.001024825 0.0022360976
-0.098796323 0.068129428 -0.43527773 0.83267945 -0.55370742 0.0072909016 0.0023097666
0.099182107 0.067626752 -0.43501189 -0.84088671 -0.54116023 0.007426233 0.0023586967
0.10255226 0.06322822 -0.43457985 -0.85140347 -0.52450013 -0.0034406281 0.0022221173
-0.093226127 0.075388156 -0.43631029 0.77064639 -0.63726127 -0.0014709836 0.0017953827
0.093625471 0.074868381 -0.4348906 -0.77380192 -0.63341415 -0.004148399 0.002015675
-0.08652091 0.083636604 -0.43753684 0.71784401 -0.69609243 -0.012461541 0.0022264109
0.085682541 0.084967472 -0.43255147 -0.71530342 -0.69880217 0.0040719085 0.0022437549
-0.07555607 0.093098015 -0.43425557 0.64182305 -0.76685274 9.2874259e-05 0.0018022747
-0.068111636 0.098809771 -0.43582973 0.55988008 -0.82857209 0.0016184362 0.0027070367
0.068621986 0.098419584 -0.43179718 -0.54335171 -0.83947664 0.0069214483 0.0020742854
0.075948052 0.09279675 -0.43558982 -0.63594228 -0.77172852 0.0035376037 0.0024011685
-0.064429499 0.10163587 -0.43383798 0.53510928 -0.84476721 0.0051376484 0.0024487083
-0.054944366 0.10697169 -0.43422401 0.4642905 -0.88567913 -0.0026185161 0.0018483555
-0.049345616 0.10929161 -0.43147361 0.39883646 -0.91700345 0.005835711 0.0014330869
0.049016941 0.10942703 -0.43381575 -0.40348589 -0.91498578 -0.00035543574 0.001759308
0.054638363 0.10709832 -0.43461552 -0.46733671 -0.88406771 0.0045497906 0.0016798096
0.063373432 0.10242868 -0.43545407 -0.53001481 -0.84798712 0.0014742342 0.0021150394
-0.041953731 0.11235248 -0.43464667 0.35650611 -0.93429255 -0.00088476122 0.0024983475
-0.033743534 0.11569149 -0.43345574 0.27202487 -0.9622823 0.0039021138 0.0022090694
-0.02416507 0.11770814 -0.43407157 0.1996187 -0.97986341 0.0044680312 0.001804454
-0.012884182 0.11919333 -0.43386659 0.11145613 -0.99373949 0.0077037546 0.0022710857
-0.0087532178 0.11973746 -0.43286982 0.072621174 -0.99735558 0.0028352733 0.0019164695
0.0085830577 0.11975931 -0.43485937 -0.082431003 -0.99657094 0.0071736267 0.0021752797
0.013933706 0.11905428 -0.43700513 -0.096744128 -0.99530345 0.0034196901 0.0018635984
0.023776012 0.11775943 -0.43382141 -0.20498314 -0.97870684 0.010716122 0.0019988501
0.035086863 0.11513495 -0.43551502 -0.27188826 -0.9623065 0.0065486282 0.0018278151
0.04347473 0.11172208 -0.4358356 -0.38124898 -0.92447054 -0.0018291314 0.0015259406
-0.0015185965 0.12068937 -0.43476161 -0.00234324 -0.99998546 0.0048452532 0.0024268518
0.0010552539 0.12075038 -0.43479156 -0.0023413878 -0.99998534 0.0048823799 0.0024222392
-0.0027203187 -0.12053433 -0.42360118 0.007865686 0.99996859 0.0010386819 0.0024248876
0.0037557231 -0.12039752 -0.4253625 -0.040304236 0.99918151 -0.0034548123 0.0020170489
-0.044900697 -0.11113418 -0.42675483 0.39357629 0.91927242 -0.0060013593 0.0018166814
-0.035196222 -0.11511093 -0.42402676 0.28361383 0.95893854 0.00035551877 0.0023522347
-0.022909332 -0.11787586 -0.42561823 0.2004873 0.97968805 0.0040183133 0.002025933
-0.014655611 -0.11896306 -0.423547 0.11337615 0.99355161 -0.0010483635 0.00096404442
-0.0079742763 -0.11984199 -0.42591676 0.073181592 0.99731749 -0.0015236994 0.0022348152
0.0077559752 -0.11987065 -0.42614397 -0.070911236 0.99747449 -0.0040261559 0.0016831094
0.016055636 -0.11877811 -0.42576298 -0.12950219 0.99157912 -0.0002355043 0.0013368399
0.024062973 -0.11772434 -0.4242838 -0.20271285 0.97922212 -0.0056197634 0.0018403442
0.032668866 -0.1160823 -0.42860934 -0.2650629 0.96420664 -0.0068728854 0.00273946
0.042291168 -0.1122159 -0.4241372 -0.33873454 0.94086742 0.0052384124 0.002423635
-0.06355647 -0.10230968 -0.42281452 0.53192002 0.84678978 0.0028444538 0.0021062861
-0.055575948 -0.10671306 -0.42437169 0.46438217 0.88561058 -0.0065727737 0.0017115382
-0.049730819 -0.10913524 -0.42096269 0.42011595 0.90747017 -0.00073626888 0.002321193
0.04876598 -0.10953368 -0.42495546 -0.40640956 0.91367549 0.005324176 0.0018823723
0.056540456 -0.10631332 -0.42520463 -0.47311774 0.88099819 -0.0013313281 0.0020206249
0.062975101 -0.10275493 -0.42521179 -0.52700543 0.84981722 -0.0087186266 0.002287891
-0.074728087 -0.093736663 -0.42485815 0.62211043 0.78292495 0.0026568603 0.0022877601
-0.069343716 -0.097868569 -0.42392316 0.56028521 0.82829589 -0.0025268702 0.0015351446
0.068256721 -0.098702595 -0.4240616 -0.55291933 0.83323449 0.0007220789 0.0021544297
0.076257758 -0.092562653 -0.42558435 -0.64002758 0.76831567 -0.0074610929 0.0019085709
-0.084659576 -0.085790023 -0.42653611 0.71004486 0.7041378 -0.0051172278 0.0023471974
0.085149601 -0.085223749 -0.42523465 -0.71074402 0.70342141 0.0064190724 0.0021807272
-0.09376698 -0.074688375 -0.42530811 0.77267587 0.63479877 -0.0015797623 0.0019383284
0.093001828 -0.075686157 -0.42396486 -0.77034974 0.63755995 0.0088608731 0.0016713727
-0.10195611 -0.06400995 -0.42566594 0.84624767 0.53278798 -0.0013737066 0.0019223551
-0.098197959 -0.068913139 -0.42675662 0.82830483 0.56025296 0.0052766288 0.0022934282
0.098866113 -0.068044335 -0.42253768 -0.83684355 0.547418 -0.00514638 0.0020195113
0.10170905 -0.064338312 -0.42476887 -0.85052174 0.52592558 -0.0038682623 0.0019476099
-0.10689029 -0.055147845 -0.42469853 0.8858484 0.46397325 0.0011835435 0.0015475651
0.10697563 -0.054941434 -0.42522508 -0.88591176 0.46383548 -0.0041289427 0.0016419255
-0.11173201 -0.043457616 -0.42648026 0.92574263 0.37815067 0.0016310809 0.0023595556
-0.10945214 -0.048961535 -0.42672631 0.91425449 0.40513933 -0.0009495152 0.0016627935
0.10965023 -0.048484627 -0.42493129 -0.91485649 0.4037756 -0.00169284 0.0016542458
0.11117394 -0.044805564 -0.42561728 -0.92052227 0.39068773 0.0013354298 0.0016560337
-0.11536904 -0.034623269 -0.42462468 0.96166188 0.27422586 -0.0025806264 0.0020270054
0.11502261 -0.035514817 -0.42456421 -0.96164304 0.27429172 0.0025830164 0.0020617305
-0.11788347 -0.022854486 -0.42421988 0.98045975 0.19668724 0.0035819025 0.002279043
0.11766919 -0.024478843 -0.42573389 -0.97907305 0.20350638 0.0010379445 0.0022297814
-0.11910752 -0.013554086 -0.4254702 0.99583882 0.091112591 0.001880101 0.0020399392
0.11897232 -0.014581728 -0.42521423 -0.99491149 0.10072047 -0.0025545796 0.0015941992
-0.12033046 -0.0042675198 -0.42422882 0.9992891 0.037671026 0.0014643141 0.0015758733
-0.1198428 -0.0079772072 -0.42165184 0.99734342 0.072775997 0.0031319226 0.001969177
0.11977282 -0.0085083824 -0.42184305 -0.9974966 0.070695423 0.0016404632 0.0021167193
0.12013701 -0.0057337508 -0.4257265 -0.99874002 0.04986126 -0.0056723999 0.001703157
-0.120287 0.0045942506 -0.42581102 0.99966484 -0.025415797 -0.0049264473 0.0019405743
-0.11986989 0.0077616898 -0.4262138 0.99723506 -0.07428848 -0.0018305473 0.0021060482
0.11978346 0.0084221344 -0.42437974 -0.99709326 -0.076090939 -0.0039065699 0.0020846459
0.12046097 0.0032745025 -0.42505038 -0.99997193 -0.0036801076 -0.0065201032 0.0023567402
-0.11880845 0.015827214 -0.42480755 0.99027377 -0.13906513 0.0043281293 0.0026712583
0.11893472 0.014864039 -0.42666781 -0.99361092 -0.1128355 0.0023200742 0.0022429214
-0.11741272 0.026431721 -0.42349792 0.97694916 -0.213118 0.012288621 0.0012517211
0.11742668 0.026325841 -0.42341611 -0.97649521 -0.21552157 0.0027355286 0.001734007
-0.1147881 0.036080271 -0.42555982 0.95992982 -0.28021839 0.0035296171 0.0020234194
0.11584532 0.033339787 -0.42503724 -0.96342468 -0.26795465 -0.0036428168 0.0020865551
-0.1118441 0.043189567 -0.42299351 0.92898339 -0.37011066 0.0028296369 0.0019604347
0.1090719 0.049878612 -0.42794603 -0.91009057 -0.41433907 -0.0076334337 0.002154683
0.11148532 0.044054307 -0.42491832 -0.92176735 -0.38772771 0.0034999331 0.0017746753
-0.10670742 0.05558873 -0.42553705 0.8825382 -0.47024056 0.00034887868 0.0019262624
0.10661473 0.055813476 -0.42421436 -0.88462079 -0.46630296 -0.0027500696 0.0018009387
-0.10192949 0.064050511 -0.42591211 0.84003365 -0.542494 -0.0066147912 0.0025522087
-0.098718651 0.06823764 -0.42007452 0.8301512 -0.55753464 0.0020055287 0.0022436029
0.099073291 0.067773968 -0.42333397 -0.83388722 -0.55193132 0.0019891376 0.0021733993
0.10193765 0.06403929 -0.42718253 -0.84914011 -0.52816767 0.00019405442 0.0019423792
-0.093250565 0.075360999 -0.42611456 0.77393389 -0.63321793 -0.0078271814 0.0014811052
0.093621753 0.074878708 -0.42298448 -0.77915227 -0.62676305 0.0094777718 0.002196752
-0.083216481 0.08700455 -0.42524484 0.69881713 -0.71529728 -0.0020892587 0.0020891367
0.08511778 0.085495852 -0.42735332 -0.70442361 -0.70977068 -0.0036048745 0.0024918993
-0.075295739 0.093300939 -0.42527544 0.63850927 -0.76960832 0.002998112 0.0017842351
-0.068312749 0.098659545 -0.42427081 0.55072886 -0.83467913 -0.0029116652 0.0020526012
0.066727474 0.099874109 -0.42952228 -0.53747261 -0.84327805 0.0023025093 0.002014471
0.07575009 0.092952013 -0.4260923 -0.63755119 -0.77036959 -0.0076896669 0.0021777286
-0.062608421 0.10303627 -0.42529127 0.51307809 -0.85833919 -0.0021844057 0.001976805
-0.057089739 0.10608649 -0.42286149 0.47504526 -0.87995976 0.0016766863 0.0019478553
0.04874444 0.10954282 -0.42424557 -0.40332302 -0.91505611 0.0016673135 0.001714764
0.055061173 0.10692615 -0.42484728 -0.46421495 -0.88571304 0.004107798 0.0017662399
0.061982758 0.10351708 -0.42323026 -0.51293182 -0.8584227 0.0033660894 0.0021686347
-0.043187488 0.11184496 -0.42306209 0.37533736 -0.92687482 0.0049904208 0.0012671588
-0.034281723 0.11552559 -0.42556629 0.26918691 -0.9630174 -0.01165429 0.0019663386
-0.024105083 0.11771903 -0.42347446 0.19922857 -0.97994041 0.0049658599 0.0019298056
-0.013599291 0.11910168 -0.42507237 0.096800096 -0.99530208 -0.0018881893 0.0015795114
-0.0091637187 0.11968531 -0.42617616 0.071966 -0.99740326 -0.0027725154 0.0019879546
0.0090726903 0.11969748 -0.42552325 -0.082684405 -0.99655193 -0.0068987566 0.0019253093
0.016168406 0.11876343 -0.42515153 -0.13371162 -0.99101692 -0.0026089128 0.0025749707
0.025935186 0.11747726 -0.42643988 -0.21185747 -0.97729981 -0.0012232172 0.0019174916
0.035115618 0.11516267 -0.4244318 -0.28125688 -0.95958883 0.0091552855 0.0021727134
0.044185638 0.11143057 -0.42612603 -0.37751031 -0.92600524 -0.0004543098 0.0021491372
-0.0023176607 0.12058748 -0.4231151 0.0039647021 -0.99999052 -0.0018303447 0.002214371
0.0038089808 0.12039077 -0.42446032 -0.021315476 -0.99977142 -0.0016569764 0.0021332756
-0.0023187308 -0.12059028 -0.41275573 0.0064362381 0.99997663 0.0023252377 0.0025525775
0.0028012425 -0.12052596 -0.41556033 -0.015421295 0.99986589 0.0055099772 0.0022767272
-0.043984145 -0.11151794 -0.41323882 0.38614395 0.92243522 0.002443416 0.0012591355
-0.035193689 -0.11515857 -0.41489717 0.27810493 0.96052641 0.0068325046 0.0021245023
-0.02667862 -0.11738244 -0.41562381 0.22049139 0.97525346 0.016256202 0.0021016041
-0.01445484 -0.11899193 -0.41489989 0.10670254 0.99428785 -0.0025055788 0.0017308953
-0.0080685653 -0.11983261 -0.41514054 0.080968335 0.99671644 -0.00068771461 0.0022684808
0.0087651545 -0.11974097 -0.41494501 -0.078345127 0.99691194 0.0053534787 0.0018781608
0.015072902 -0.11891074 -0.4142426 -0.1287154 0.99167222 0.0043017548 0.0024167185
0.025513111 -0.11753612 -0.41476029 -0.20413063 0.97893375 0.0044003786 0.0018722462
0.034987692 -0.11524379 -0.41526517 -0.28252938 0.95925438 0.0028553554 0.0025163246
0.043697674 -0.11163596 -0.41535965 -0.36910328 0.92938745 0.0012995476 0.0019922229
-0.061589953 -0.10382074 -0.41686532 0.50602925 0.8625083 -0.0037283467 0.0023564682
-0.053424031 -0.10760728 -0.41497087 0.44599947 0.89500254 0.0074078846 0.0015837898
0.055368256 -0.10680235 -0.41367754 -0.46639428 0.8845762 -0.0011809617 0.0018653474
0.062217891 -0.10333993 -0.41396612 -0.50066662 0.86561847 0.0061282348 0.0021168618
-0.074036822 -0.094270378 -0.41555381 0.62013572 0.78449452 0.00020212488 0.0028525793
-0.068441913 -0.098563991 -0.41417462 0.5506435 0.83472478 0.0051239999 0.0017882335
0.067959383 -0.09893392 -0.41511458 -0.5603416 0.82825786 -0.0025009334 0.0024299545
0.074910998 -0.093600348 -0.41349813 -0.63899356 0.76921195 0.00041230844 0.0017315793
-0.084967077 -0.08532054 -0.41453376 0.70607358 0.70809329 0.0080053387 0.0022401011
0.083835222 -0.086634047 -0.41544154 -0.69534355 0.71865612 -0.005540662 0.0023028457
-0.09189561 -0.077131487 -0.41597158 0.76795912 0.64049643 0.0017926116 0.0018658685
0.089866072 -0.079778753 -0.41095209 -0.73093349 0.68244171 0.0030774842 0.0020347149
0.093853362 -0.074580386 -0.41533273 -0.77222914 0.63534135 0.0018769328 0.0024347745
-0.10123024 -0.064967319 -0.4139297 0.84185123 0.53968549 0.0050986432 0.0020265493
-0.0990173 -0.067850925 -0.41470528 0.83772171 0.54609746 3.5978239e-05 0.0021421602
0.098985612 -0.067892201 -0.41472551 -0.83976555 0.54293841 0.003431241 0.0022846798
0.10255582 -0.063239269 -0.41504565 -0.84745795 0.53079289 -0.0086012194 0.0022075879
-0.10657958 -0.055903956 -0.41654253 0.87867749 0.47741479 0.0010170339 0.0016392791
0.10690437 -0.055120986 -0.41499817 -0.88245797 0.47030976 -0.0087559437 0.0016975575
-0.11125048 -0.044629771 -0.41336098 0.92138362 0.38865435 0.00026628698 0.001617405
0.10950331 -0.048846476 -0.41512111 -0.91331589 0.40724653 -0.0020702712 0.001785528
0.11203497 -0.042734083 -0.41575363 -0.9334144 0.35879999 -0.00012702039 0.0029546339
-0.11503188 -0.03546096 -0.41551647 0.96218765 0.27237436 0.0026807792 0.002037236
0.11565448 -0.033883668 -0.41546887 -0.96323484 0.26860061 0.0056811706 0.0020592406
-0.11749979 -0.0257861 -0.41616932 0.97789735 0.20891 -0.0085683521 0.0017333418
0.11765147 -0.024634795 -0.41582367 -0.97657573 0.21513243 0.0042218319 0.0019739843
-0.11886665 -0.01540515 -0.41543779 0.99137038 0.13096491 -0.0057480386 0.0014633306
0.11899967 -0.014397603 -0.41419312 -0.99281418 0.11966606 2.6621694e-05 0.0019793566
-0.12049534 -0.0030317868 -0.41651633 0.99963915 0.02570343 -0.0078070685 0.0017783557
-0.1198256 -0.0081239762 -0.41420305 0.99692154 0.078372747 -0.002287854 0.0019032207
0.1196558 -0.0094089992 -0.41639414 -0.99682349 0.079640567 -0.00058600807 0.002067839
0.12066024 -0.0017822658 -0.41510734 -0.99999595 0.0025575443 0.0013104388 0.0023561607
-0.12039522 0.00379381 -0.41578227 0.99986428 -0.016207548 0.002956026 0.0020842704
-0.11973421 0.0088134659 -0.41639236 0.99624974 -0.086516358 0.00121446 0.0021755486
0.11968993 0.0091461958 -0.41803211 -0.99793977 -0.064101301 -0.0027092251 0.0020729394
0.12061787 0.0020998917 -0.41707712 -0.99993849 -0.0098316772 -0.0051416159 0.0023689084
-0.11891602 0.015030882 -0.41514996 0.99106485 -0.13310245 0.0086136265 0.0014780005
0.11899068 0.014465549 -0.414318 -0.99328071 -0.11566033 -0.00401913 0.0020829677
-0.11767889 0.024430523 -0.41395536 0.98220807 -0.18773071 0.0049485941 0.0013594631
0.1177058 0.024222469 -0.41563508 -0.97829992 -0.20715638 0.0039444105 0.0018582888
-0.11448041 0.036831245 -0.41441137 0.95338255 -0.30176115 0.0013991594 0.002270401
0.11523238 0.034950003 -0.41418687 -0.96124589 -0.27568114 0.0024791784 0.00202142
-0.1117675 0.043380093 -0.41537705 0.92953026 -0.36874494 0.0008091451 0.0028784897
0.10990566 0.047872648 -0.41851905 -0.91684848 -0.3992354 -0.00022436626 0.0016320407
0.11173309 0.043463368 -0.41509151 -0.92867178 -0.37087911 0.0041713119 0.0023185676
-0.10636398 0.056426 -0.41444889 0.88126558 -0.47255829 -0.0077282079 0.0017205453
0.10570386 0.058020681 -0.41306427 -0.87717026 -0.48017612 0.0018132 0.0019008692
-0.10248163 0.063335694 -0.41560706 0.86201799 -0.506841 -0.0060991817 0.002423475
-0.098495126 0.068531774 -0.41392264 0.825836 -0.56391007 0.00056411017 0.0018009723
0.098488629 0.068539903 -0.4146947 -0.83271289 -0.55370104 0.002080699 0.0022801552
0.10281131 0.062906243 -0.41521534 -0.86728412 -0.4977777 -0.0059621409 0.0017195529
-0.09333317 0.075258255 -0.41551417 0.76857114 -0.63972467 -0.0071183713 0.0017287602
0.094378874 0.073895603 -0.41518757 -0.77371722 -0.63353097 -0.00053153391 0.0017907233
-0.085004069 0.085380599 -0.41450265 0.71764982 -0.69639045 -0.0043727988 0.0021982449
0.084000349 0.086346403 -0.41495341 -0.68898809 -0.72460532 0.015571342 0.0020026451
-0.076721907 0.092211053 -0.41271889 0.64320761 -0.76568347 0.0035800033 0.0019893874
0.068199299 0.098749772 -0.41526937 -0.54359496 -0.83932596 -0.0060356651 0.0019637949
0.074931949 0.093583964 -0.41432092 -0.62935901 -0.7770949 0.0055499081 0.0019765154
-0.063244618 0.10255159 -0.41540489 0.53407741 -0.84543562 0.00010821415 0.0022312552
-0.055816434 0.10661606 -0.41582695 0.4666155 -0.88445789 0.0020524915 0.0018853468
-0.048732623 0.10955031 -0.41569564 0.39929134 -0.9168148 0.0041451617 0.0018373902
0.048366316 0.10970353 -0.41079441 -0.40261206 -0.91536677 -0.0026717747 0.001555918
0.05433891 0.10722806 -0.41587186 -0.46345097 -0.88608497 -0.0081682038 0.0016377489
0.064744152 0.10140032 -0.41721597 -0.53432447 -0.84522754 -0.0093681691 0.0019083134
-0.04534436 0.11095369 -0.41599375 0.37543184 -0.92684609 0.0026791983 0.0012826871
-0.035233676 0.11514216 -0.414408 0.27451748 -0.96158051 0.0017211573 0.0019875087
-0.025472378 0.11754138 -0.41514683 0.21215136 -0.97723019 -0.0035947326 0.001968764
-0.014032535 0.11904755 -0.41482782 0.099649772 -0.99501604 0.0036042456 0.0017071113
-0.0081494451 0.11982267 -0.41264203 0.071250744 -0.99745071 0.0039228811 0.0022211662
0.0083384914 0.1197965 -0.41725695 -0.074451908 -0.99719816 -0.0072621 0.001898566
0.015465308 0.11885905 -0.41440743 -0.1206772 -0.99269152 0.00084365392 0.0020918208
0.025145385 0.11758409 -0.41636166 -0.21073674 -0.97752726 -0.0055261981 0.0019414234
0.03422856 0.11555739 -0.41288778 -0.27166089 -0.96239293 0.00043085637 0.0019444295
0.043677412 0.11164428 -0.41555136 -0.36558673 -0.93075269 0.0067537134 0.002686409
-0.0033821224 0.1204494 -0.41583815 0.019475861 -0.99980253 -0.0039480189 0.0020534494
0.0031267526 0.12048332 -0.41483161 -0.013154117 -0.99991101 -0.0022293217 0.002560897
-0.0027673671 -0.12053383 -0.40345937 0.016456218 0.99986458 0.00022808838 0.0023754584
0.0031228717 -0.12048583 -0.40772852 -0.025853187 0.9996627 -0.0024679911 0.0020967626
-0.045066122 -0.11107242 -0.40447912 0.40019879 0.91642833 0.00014904591 0.0013435115
-0.034348484 -0.1154879 -0.4054831 0.2784715 0.96043181 -0.0049218144 0.0019349738
-0.026215926 -0.11744604 -0.40613902 0.21741392 0.97606409 -0.0054890723 0.0021190727
-0.014687063 -0.1189645 -0.4037689 0.11451039 0.99340671 -0.0055280509 0.0019793939
-0.0099957809 -0.11958217 -0.40360817 0.080489412 0.99674928 0.0035106014 0.0021441237
0.0079492209 -0.11985172 -0.40315542 -0.080346242 0.99674928 0.0059341094 0.0019513954
0.014402595 -0.11900172 -0.40459386 -0.10638259 0.99432486 0.00090556586 0.0016164497
0.02575976 -0.1175063 -0.40540349 -0.20493273 0.97875011 -0.0071259453 0.0019975319
0.033949412 -0.1156469 -0.40684715 -0.26860636 0.96320939 -0.0088556325 0.0022031728
0.04354012 -0.11170358 -0.4076114 -0.38514972 0.92284864 -0.0031749634 0.001471955
-0.064242505 -0.10178962 -0.40485227 0.53454733 0.84513849 -0.00040619046 0.0022602349
-0.053869009 -0.10742576 -0.40575653 0.45583075 0.89006048 -0.0032640125 0.0021672018
0.049515218 -0.10923061 -0.40105686 -0.41619214 0.90927523 0.0016456812 0.0024706686
0.055343457 -0.10681513 -0.40542832 -0.46123353 0.88726175 -0.0054810061 0.0017219232
0.063336678 -0.10248461 -0.40506399 -0.52963364 0.84822369 -0.0021984559 0.002388115
-0.077421017 -0.091677956 -0.40324455 0.64298636 0.76583731 -0.0078580575 0.0019835718
-0.067241669 -0.099489234 -0.40215126 0.55055559 0.83479351 0.0028606132 0.0018138754
0.069004141 -0.098135479 -0.40598765 -0.5775615 0.81634688 0.00071707979 0.0023752942
0.073626302 -0.094588809 -0.40586746 -0.61157733 0.79118037 -0.002592979 0.00244341
-0.084516123 -0.085881367 -0.40486565 0.70864266 0.70554888 -0.005134542 0.0022746227
0.084744744 -0.085648783 -0.40419257 -0.7062971 0.70787704 0.0073762247 0.0022765358
-0.093559802 -0.074967399 -0.40573189 0.77370477 0.63354629 -0.00018339053 0.001814695
0.092327677 -0.076573849 -0.40417308 -0.77026904 0.63767916 0.007133205 0.0022336184
-0.10214643 -0.063777775 -0.40426099 0.84452248 0.53551668 -0.0018988526 0.0023106365
-0.098614953 -0.068379879 -0.40470523 0.83854455 0.54469967 -0.012055659 0.0019932969
0.098940246 -0.067955874 -0.40484318 -0.83429736 0.55131274 0.0014250779 0.0021100936
0.10228026 -0.063602075 -0.40626478 -0.85296685 0.52196181 0.0018285493 0.0017977577
-0.10733989 -0.054076921 -0.40492752 0.88464379 0.46626419 0.0017455769 0.0017142131
0.10718483 -0.054451119 -0.40512779 -0.88489854 0.46576208 0.0044979472 0.0013904748
-0.1119649 -0.042910237 -0.40622675 0.93346566 0.35863617 0.0046837358 0.0030072127
-0.10969851 -0.048384052 -0.40307674 0.91276467 0.40847784 0.0025559368 0.0017753604
0.10983431 -0.048056208 -0.40310985 -0.91008621 0.41440076 0.0038813658 0.0018641031
0.1114505 -0.044152752 -0.40536198 -0.92593122 0.37766469 0.0045595164 0.0022041795
-0.11497595 -0.035500266 -0.40455827 0.96002269 0.27990049 -0.0034912084 0.001852724
0.11510569 -0.035327002 -0.40717745 -0.9596864 0.28107166 0.00082767406 0.001938145
-0.11767893 -0.024447793 -0.40576118 0.97751051 0.21079084 -0.0063565308 0.0017920679
0.11767694 -0.024463978 -0.40525991 -0.9783324 0.20701252 -0.0033922887 0.0019539504
-0.11890379 -0.015147724 -0.4040097 0.99203098 0.12599376 -0.00036391534 0.0018478333
0.118687 -0.016790941 -0.40563941 -0.9890424 0.14748421 0.0065957117 0.0017801834
-0.12041267 -0.0036856271 -0.40445444 0.9998852 0.014366433 0.0048196539 0.0020000914
0.1197348 -0.0088338396 -0.4047766 -0.99715793 0.075299047 0.0024700337 0.0023223644
0.12044945 -0.0034034532 -0.40573207 -0.99987203 0.015985589 0.00070810225 0.0021770732
-0.12040768 0.0037284507 -0.4021782 0.99988627 -0.014806177 0.002870287 0.0019944622
-0.11980649 0.0082896696 -0.40463886 0.99785274 -0.06442032 -0.011827696 0.0019642564
0.11971939 0.0089533413 -0.4036451 -0.9970625 -0.076578379 0.0014439116 0.0023260335
0.12030079 0.0045312466 -0.4063879 -0.99955034 -0.02923934 -0.0066487538 0.0018358434
-0.11884934 0.015564334 -0.40261644 0.98942143 -0.1450652 -0.0011700821 0.0019111108
0.11885144 0.015541384 -0.4058767 -0.99225062 -0.12413808 -0.0053430879 0.0019076369
-0.11763683 0.024770755 -0.40427515 0.98050535 -0.19648848 0.0012622309 0.0018083858
0.11748161 0.025947878 -0.40513974 -0.97827339 -0.20730932 0.002018946 0.0019447327
-0.11546211 0.034345761 -0.40387329 0.96287501 -0.26994613 -0.0009368381 0.0021488369
0.11407006 0.037828658 -0.40521798 -0.94834119 -0.31721327 -0.0049627298 0.0024169642
-0.11184621 0.043198314 -0.40413865 0.92749339 -0.37383932 -0.00048731503 0.0020355363
0.1113546 0.044384308 -0.40523088 -0.92569637 -0.37825626 -0.0029020198 0.002263143
-0.10641011 0.056320798 -0.4060643 0.88540554 -0.46480852 0.0031753017 0.0017244869
0.10700509 0.054885704 -0.40425721 -0.88521808 -0.4651323 -0.0063941614 0.0017608659
-0.10177407 0.064262465 -0.40553781 0.84864676 -0.52895558 -0.0021473924 0.002612595
-0.098525539 0.068494618 -0.40856767 0.82299644 -0.56803149 -0.0041262852 0.0026452648
0.098025911 0.069147669 -0.40440142 -0.8217994 -0.56969517 -0.0096528884 0.0024514771
0.10282975 0.06288591 -0.40715903 -0.85790557 -0.51368761 -0.011094814 0.002230501
-0.094337441 0.073954336 -0.40495804 0.77787608 -0.62840456 -0.004057263 0.0019755953
0.089776255 0.079898544 -0.40502548 -0.73986953 -0.67274505 -0.0026903285 0.0020659098
0.095144354 0.072903283 -0.4037559 -0.78495312 -0.619555 -0.00045465477 0.0014622641
-0.084872536 0.085634924 -0.40576854 0.70959866 -0.70460606 0.00041569254 0.002319268
-0.079757988 0.089884564 -0.40369231 0.67814964 -0.7349152 0.0035651941 0.0017333559
0.084764726 0.085486136 -0.40413707 -0.70424998 -0.70990509 0.0081689628 0.0025061774
-0.074284054 0.094084471 -0.40483406 0.62156212 -0.78336471 0.00049967261 0.0026735223
-0.069854312 0.097485043 -0.400547 0.56316191 -0.82634038 0.0032243154 0.0015512611
0.068388939 0.098607883 -0.40504456 -0.55865389 -0.82939708 0.0024963215 0.0023907106
0.075204775 0.093377516 -0.40616828 -0.63396883 -0.77333319 -0.0062606256 0.0023452961
-0.062127691 0.10339755 -0.40528476 0.51766038 -0.85558212 0.0026265655 0.0020371606
-0.054922201 0.10698932 -0.40644202 0.46352854 -0.88606507 -0.0054721008 0.0018265151
-0.049003817 0.10944168 -0.40352449 0.41938278 -0.90780544 -0.0027029167 0.0025536118
0.048964821 0.1094583 -0.40193635 -0.40805104 -0.91295695 0.0019670695 0.001529482
0.054773241 0.10705156 -0.40463057 -0.46511424 -0.88525069 -2.8535984e-05 0.0015435843
0.061698843 0.10372461 -0.40634587 -0.52480942 -0.85115927 -0.010155242 0.0017763514
-0.043066148 0.11190091 -0.40430111 0.34985954 -0.93678987 -0.004795739 0.0015993482
-0.034336805 0.11543694 -0.40389693 0.27067959 -0.96266621 0.0025333434 0.0022492507
-0.024134841 0.11772009 -0.40586036 0.20831271 -0.97805864 0.0026809243 0.0022097267
-0.014872998 0.11894019 -0.40317202 0.12019058 -0.99275088 -3.3774155e-05 0.0020969545
-0.0095051983 0.11964545 -0.40819475 0.073573008 -0.99727911 -0.0046201092 0.0019687812
0.008541123 0.11977365 -0.40371072 -0.073701747 -0.99727309 0.0037883618 0.0020379799
0.016067691 0.11878236 -0.40515244 -0.13734999 -0.99051052 -0.0048793941 0.0020952185
0.026370134 0.11742584 -0.40578192 -0.22652182 -0.97400051 -0.0032918411 0.0019444862
0.03373836 0.11574146 -0.40632787 -0.27103058 -0.96256316 -0.0038234803 0.0020141162
0.044274606 0.11140052 -0.40374857 -0.38064513 -0.9247179 0.0024692675 0.0023572166
-0.0040855887 0.12035942 -0.40653875 0.033660512 -0.99942243 -0.004664314 0.0016377225
0.0033434641 0.120457 -0.40697402 -0.03106918 -0.99950087 -0.0057167448 0.0018276009
-0.0019811939 -0.12064021 -0.3933368 0.010723175 0.99993783 0.0030716532 0.0023672665
0.0023550352 -0.12059062 -0.39465353 -0.0062927594 0.99996156 -0.0061027207 0.0025908705
-0.040655598 -0.11290363 -0.39029986 0.33251992 0.9430961 0.00057391636 0.0022546381
-0.035761919 -0.1149286 -0.39708605 0.28513014 0.9584825 -0.0034791841 0.0017301495
-0.025645362 -0.11752392 -0.39640394 0.21035823 0.97757578 -0.009754004 0.0017137121
-0.015327338 -0.11888292 -0.39423418 0.12347718 0.99230021 -0.0096765384 0.0015809075
0.0087420531 -0.11974878 -0.39806578 -0.073950663 0.99724305 -0.0061349911 0.0022156045
0.015610958 -0.11884612 -0.39226022 -0.14213079 0.98984742 0.00097924995 0.0018605621
0.024873381 -0.1176265 -0.39304614 -0.20646839 0.97845167 0.0017779942 0.0022850721
0.035140399 -0.11518589 -0.39447325 -0.27486151 0.96147031 0.0051034437 0.002050278
0.042597171 -0.11209822 -0.39424884 -0.37121055 0.92854524 -0.0025455644 0.0020457546
-0.063679047 -0.10222439 -0.39802393 0.52711791 0.84976828 -0.00637116 0.0020560217
-0.054507762 -0.10716488 -0.39357722 0.46979967 0.88277268 -0.00082389329 0.0018115388
-0.048422657 -0.10968595 -0.39184672 0.40845519 0.91277474 0.0025843463 0.0012753165
0.049973 -0.10904261 -0.39569509 -0.42510781 0.90513974 0.0023211343 0.0022262279
0.055727992 -0.10665963 -0.39301187 -0.47049475 0.8823939 0.0039690151 0.0019032679
0.062811822 -0.10287351 -0.39470729 -0.52389377 0.85178196 0.0016728045 0.0022696094
-0.076314576 -0.092529871 -0.39498034 0.63518018 0.7723636 0.00081480748 0.0022870323
-0.068823032 -0.098277867 -0.39636695 0.56357765 0.82599533 -0.010581532 0.0023375694
0.067880191 -0.09900216 -0.39402294 -0.56079012 0.82794279 -0.0050190673 0.0026386355
0.073763445 -0.094487339 -0.39525634 -0.61157227 0.79115891 0.0068508498 0.0023811364
-0.085127614 -0.085061625 -0.3955099 0.70423251 0.70989144 0.010523627 0.0023153252
-0.079971053 -0.089724272 -0.39466435 0.68141317 0.73189247 -0.0030842235 0.001804733
0.084193975 -0.086163133 -0.39343357 -0.69674516 0.71725947 0.0092261406 0.0022097833
-0.093731239 -0.07474944 -0.39391941 0.77527249 0.6315878 0.0070353611 0.0020510161
-0.089769207 -0.079914279 -0.39080748 0.73430955 0.67879421 0.0052800369 0.0017927606
0.089727707 -0.079965785 -0.39637145 -0.72837418 0.68517679 -0.0019717906 0.0018976508
0.095332362 -0.072660983 -0.39788753 -0.81655902 0.57726085 -0.0011292226 0.0013233087
-0.10151747 -0.064600758 -0.39708793 0.84485358 0.53497487 -0.0049241562 0.0021814764
-0.097824648 -0.069412798 -0.39824563 0.82329154 0.56757873 -0.006740286 0.0022489084
0.098488219 -0.068548955 -0.39619362 -0.83911294 0.54392999 -0.0054505672 0.0019530178
0.10219057 -0.063725144 -0.39364085 -0.84369248 0.53680998 0.0042669158 0.0020637342
-0.10713691 -0.054575369 -0.39348713 0.88287473 0.46956646 0.0062983679 0.0015605353
0.10688268 -0.055189319 -0.39315188 -0.88222635 0.47082269 -0.0016659475 0.0018418023
-0.11152391 -0.04398334 -0.39469245 0.925282 0.37921479 0.0070382114 0.0026537387
-0.1094901 -0.048891202 -0.39765394 0.91441506 0.40477765 -0.00041418089 0.0018438965
0.1096006 -0.048624579 -0.39742339 -0.91074991 0.41294634 -0.0031553719 0.0019928052
0.11151134 -0.04401394 -0.39432436 -0.92840064 0.37157503 0.0020622534 0.0022723905
-0.11511116 -0.035310045 -0.39442044 0.96226394 0.27211639 0.00082840765 0.0017853741
0.11490807 -0.035739854 -0.39620134 -0.96237284 0.27168968 -0.004816365 0.0020143592
-0.11778197 -0.023685712 -0.3961696 0.97922999 0.20274273 -0.0020166505 0.0023069379
0.11752427 -0.025643915 -0.39582881 -0.97636455 0.21580328 -0.011886092 0.0017930859
-0.11886504 -0.015466524 -0.39264116 0.99000669 0.14100546 -0.0020669282 0.0022677158
0.11879491 -0.015999965 -0.3923071 -0.99036807 0.13841587 0.0034872543 0.001513344
-0.12043729 -0.0035157457 -0.39648351 0.99991959 0.011468315 0.0054142801 0.0021398703
-0.11973754 -0.0088408552 -0.39187226 0.99668515 0.081107982 0.006340446 0.0020436589
0.11989161 -0.0076657035 -0.39414325 -0.99808687 0.061827179 4.3215859e-05 0.0021166415
0.12042201 -0.0036410841 -0.39216542 -0.99969339 0.024410672 0.0041642888 0.0019839164
-0.12041391 0.0037001087 -0.39331388 0.99989361 -0.012839089 0.0069251368 0.002177678
-0.1196626 0.0094029233 -0.39522648 0.99687237 -0.079005495 0.0018972137 0.0022797263
0.12072731 0.0013160482 -0.3949987 -0.99999797 -0.0017851617 -0.00098814454 0.0025219314
-0.11892079 0.015041371 -0.39341018 0.99135852 -0.13111651 -0.0041011232 0.0016591244
0.11875604 0.016287336 -0.39598164 -0.9915669 -0.12955076 -0.0034204738 0.0017060526
-0.11762857 0.024854612 -0.39442027 0.97716594 -0.21228118 -0.0091333622 0.001900594
0.11742985 0.026368067 -0.39260203 -0.9752894 -0.22093099 -0.00030041998 0.0014782434
-0.11563263 0.033974968 -0.39646539 0.96384287 -0.26625177 -0.010812929 0.0018629852
0.11520603 0.03509374 -0.39494127 -0.95829016 -0.28573713 0.0058545559 0.0016930627
-0.11213946 0.042497538 -0.39429855 0.93952656 -0.34242883 0.0056768004 0.0025349823
-0.10949042 0.048892047 -0.39544582 0.91335285 -0.40705565 0.0096072825 0.0016320907
0.10970575 0.048374027 -0.39295405 -0.91555309 -0.40214843 -0.0062590395 0.0017642045
0.11175741 0.043418784 -0.39582914 -0.92812753 -0.37226143 -0.00079658895 0.002050031
-0.1072896 0.054206178 -0.39424762 0.88724929 -0.46118733 0.0097404961 0.0015279091
0.10680398 0.055377558 -0.39563891 -0.8842181 -0.46706387 -0.0031222221 0.0017389699
-0.10190112 0.064101987 -0.3944816 0.84386319 -0.53655261 0.002470779 0.0022936941
-0.099207319 0.067612015 -0.39576316 0.83942014 -0.54341978 0.0082872901 0.0023602666
0.098803565 0.068138167 -0.39583811 -0.82427961 -0.56595945 -0.015902525 0.0031221907
0.10271669 0.063038819 -0.39507294 -0.85356724 -0.52096581 -0.0042059501 0.0025841638
-0.093303427 0.075306259 -0.39544255 0.76638871 -0.64233315 0.0075163976 0.0020098835
0.089835487 0.079827905 -0.39078707 -0.74063271 -0.67190069 0.0035753285 0.0016603123
0.092779361 0.07599026 -0.39319569 -0.7682386 -0.64016277 -0.0010129608 0.0019921067
-0.086010583 0.084459148 -0.39557263 0.71509588 -0.69894671 -0.010551196 0.0022688201
0.079862803 0.089807823 -0.39328659 -0.68555611 -0.72799337 0.0061987466 0.0022037989
0.084769592 0.08550372 -0.39510456 -0.71045917 -0.70373648 0.0016391613 0.0024215984
-0.073263116 0.094871312 -0.39509159 0.59370124 -0.80467343 0.0044119526 0.002191219
-0.068542562 0.098493978 -0.39379913 0.55938077 -0.82889563 0.0050178966 0.0020477648
0.068982683 0.098156095 -0.39426613 -0.56737709 -0.82341319 0.0086033465 0.0025149169
0.074309178 0.094068386 -0.39582473 -0.62474012 -0.78082585 -0.0032771071 0.0024451793
-0.062984057 0.10275957 -0.39267945 0.5245012 -0.85140967 0.00015596869 0.0025771104
-0.055395927 0.10679659 -0.39489409 0.46300158 -0.88634568 -0.0045674797 0.0018304434
-0.049621034 0.10918861 -0.3950159 0.4128432 -0.91078204 -0.0060486621 0.0021041152
0.052000206 0.10820291 -0.3956525 -0.44157577 -0.89720976 -0.0050417292 0.002251979
0.065418676 0.10089046 -0.39538509 -0.53852624 -0.84257215 -0.0078534652 0.0021374982
-0.044853009 0.11116364 -0.3948676 0.39549768 -0.91846699 3.2432214e-05 0.00160556
-0.036414552 0.11464017 -0.39457527 0.29040027 -0.95690101 0.0028428833 0.0021881103
-0.026313623 0.1174366 -0.39405781 0.21681331 -0.97621256 0.0010159001 0.0019163918
-0.014956402 0.11893118 -0.39620858 0.1091238 -0.99402487 -0.0025526243 0.0014641152
-0.0089797303 0.11971781 -0.39695433 0.080289222 -0.99676216 -0.004358795 0.0020357356
0.0088929646 0.11972978 -0.39503652 -0.075079784 -0.99717528 0.0020776377 0.0017170087
0.014118292 0.11904125 -0.39718997 -0.096960567 -0.9952873 -0.0013341043 0.0024867654
0.024743484 0.11764292 -0.39546108 -0.22190829 -0.9750675 0.00013088342 0.0020401999
0.035591044 0.11499992 -0.39532804 -0.27898204 -0.96029574 -0.0010685305 0.0019179072
0.04244519 0.11216104 -0.39463907 -0.33410221 -0.94253629 0.00096792309 0.0023130288
-0.0029043562 0.12051816 -0.39514175 0.015488561 -0.99986023 -0.006284893 0.0022417866
0.0052304366 0.12021212 -0.39445406 -0.047431383 -0.99887449 -0.00030000613 0.0015257912
-0.0039963438 -0.12037663 -0.38725978 0.017280927 0.99984819 -0.0022313411 0.0022343392
0.0034665714 -0.12044686 -0.38553199 -0.012935923 0.99987137 -0.0094752172 0.0022233238
-0.044563659 -0.11128618 -0.38596633 0.3830609 0.92370206 0.0062319143 0.0024448456
-0.035156872 -0.11518282 -0.38528511 0.28854549 0.95746064 0.0032627599 0.0016430643
-0.025592171 -0.11753394 -0.38572952 0.20813583 0.97809982 0.00050513848 0.0020136293
-0.0163262 -0.11875415 -0.38454252 0.13773447 0.99044657 0.0066870791 0.0020628721
-0.0087982016 -0.11974563 -0.38311151 0.073965974 0.99725491 0.0034066904 0.0019679735
0.009588954 -0.11964028 -0.3874875 -0.072051458 0.9973827 -0.0060229776 0.0021785642
0.013982236 -0.11906271 -0.3846187 -0.12424335 0.99225169 0.00044609982 0.00063435733
0.02518104 -0.11758801 -0.38590261 -0.21032634 0.97760934 0.0065420745 0.0021458098
0.03477139 -0.11531852 -0.3864359 -0.27348152 0.96187037 -0.0036405276 0.0020521109
0.043258302 -0.111827 -0.38559449 -0.37078694 0.92867494 0.008946253 0.0018459635
