# .PCD v0.7 - Point Cloud Data file format
VERSION 0.7
FIELDS x y z normal_x normal_y normal_z curvature
SIZE 4 4 4 4 4 4 4
TYPE F F F F F F F
COUNT 1 1 1 1 1 1 1
WIDTH 562
HEIGHT 1
VIEWPOINT 0 0 0 1 0 0 0
POINTS 562
DATA ascii
-0.13682307 -0.10793811 -0.078080237 0.023377247 0.97743213 -0.20995218 0.06041012
-0.12495331 -0.10734235 -0.07474564 -0.012660206 0.96467835 -0.26312652 0.050598212
-0.11516728 -0.10787976 -0.07672812 0.0046832166 0.98281449 -0.1845365 0.05359973
-0.10697373 -0.10734234 -0.074674428 0.017663484 0.97917891 -0.20222908 0.059530485
-0.09463992 -0.10770319 -0.075341985 -0.0099246316 0.97310638 -0.23014231 0.055618271
-0.085530318 -0.10734233 -0.077040702 -0.026675843 0.97428566 -0.22373177 0.06331408
-0.07614059 -0.10754798 -0.075613119 -0.0078780921 0.97544229 -0.2201141 0.056222342
-0.065208517 -0.10734234 -0.074388839 -0.025559058 0.98001891 -0.19725537 0.051275861
-0.056106586 -0.10750543 -0.076686107 0.029244808 0.98217136 -0.18569915 0.058050521
-0.045299318 -0.10734234 -0.074313827 0.0063498556 0.97058249 -0.24068494 0.047999032
-0.03622042 -0.10735975 -0.075490728 -0.017875424 0.97094101 -0.23865028 0.048898511
-0.023487605 -0.10734233 -0.073634796 -0.055664353 0.97331262 -0.22262993 0.046023358
-0.015337435 -0.10870004 -0.077791251 -0.038761579 0.97739798 -0.20782357 0.062543713
-0.0049419133 -0.10734233 -0.073263004 -0.0072173858 0.97453851 -0.22410397 0.04312823
0.0039199786 -0.10748252 -0.078877658 0.037580922 0.97391391 -0.22378431 0.056751691
0.012792513 -0.10825909 -0.078149587 0.0017647179 0.97903126 -0.20370205 0.054036926
0.024276286 -0.10738812 -0.076473087 0.024872128 0.96983141 -0.24250437 0.054735694
0.033051707 -0.10755587 -0.074657619 0.0095215179 0.96279377 -0.27006963 0.047322154
0.045341615 -0.1076722 -0.075696528 0.0023388064 0.97385168 -0.22717245 0.057976153
0.054902617 -0.10734233 -0.072656065 0.0051188376 0.97502148 -0.22205161 0.046678059
0.06447842 -0.10734235 -0.076481409 -0.0054348544 0.97875983 -0.20493805 0.061245859
0.075686149 -0.107627 -0.076594554 0.0075376597 0.9707334 -0.24004121 0.057929441
0.085006498 -0.10828011 -0.078774907 -0.0035746626 0.98211479 -0.18824948 0.063939027
0.094176061 -0.10792883 -0.076672092 0.010612546 0.9756785 -0.21894932 0.051264185
0.10306273 -0.1076332 -0.075313225 0.023691136 0.95997465 -0.27908319 0.04964878
0.11635796 -0.10734234 -0.076386593 0.0099288924 0.97096997 -0.23899537 0.056673408
0.12397017 -0.10768182 -0.074942283 0.021958264 0.9663614 -0.25624874 0.052555367
0.13644791 -0.10763236 -0.075987801 -0.022160115 0.97360438 -0.22716384 0.058280263
0.14406408 -0.10734234 -0.072036639 -0.0087140547 0.97721791 -0.21205971 0.046824954
0.15468444 -0.10772681 -0.077403829 -0.070547298 0.98187554 -0.17590785 0.05172446
0.1633511 -0.10783835 -0.076163337 -0.11011033 0.97996002 -0.16599384 0.041863855
0.17566228 -0.10734234 -0.077134557 -0.11705071 0.98832631 -0.097520933 0.024318127
0.18691686 -0.10742874 -0.074626744 -0.32597718 0.94250274 -0.073671259 0.024186753
0.19496413 -0.10602965 -0.075821735 -0.54077339 0.84114105 -0.0067696795 0.028586712
0.20227493 -0.10057541 -0.073015168 -0.68320245 0.73013997 0.0114108 0.03047194
-0.20624883 -0.094314523 -0.074626744 0.79165518 0.6107223 -0.017327817 0.020216499
0.20671153 -0.093875505 -0.073742777 -0.80300933 0.59578747 0.014602243 0.018683182
-0.21174932 -0.081011072 -0.075165078 0.9370082 0.34925526 0.0060412744 0.0049703228
-0.20921655 -0.087976485 -0.075322263 0.90020257 0.43535641 0.010000356 0.0073467433
0.20880874 -0.089097947 -0.070306107 -0.88103598 0.47297129 0.0085875783 0.012807058
0.2114355 -0.08187408 -0.074503705 -0.93821299 0.34603554 0.0039654705 0.0055993819
-0.21353577 -0.075431116 -0.073237918 0.95770937 0.28765029 0.0070700189 0.0020387273
0.21437165 -0.07233046 -0.073919021 -0.96607548 0.25816563 0.0069782203 0.0011879291
-0.21589367 -0.06522169 -0.07458216 0.97660118 0.2149709 -0.0061496096 0.00063998037
0.21602421 -0.064611733 -0.073884413 -0.97659063 0.2150743 0.0037225678 0.00081236876
-0.21802458 -0.05520691 -0.07340955 0.98364323 0.18008782 -0.0037860826 0.00041854821
0.21831593 -0.053541683 -0.073007978 -0.9861297 0.16596624 0.001854209 0.00059631135
-0.21918023 -0.046617273 -0.072831184 0.9895044 0.14445351 -0.0037788565 0.0004858941
0.21943225 -0.044450454 -0.075628221 -0.9910602 0.13339593 -0.0022854095 0.00037000224
-0.22051868 -0.035016887 -0.074451759 0.99584764 0.091035068 0.00024053284 0.00021096323
0.220296 -0.036976784 -0.075519934 -0.99414968 0.1080074 -0.0008924405 0.00033891611
-0.22147362 -0.024158303 -0.073545083 0.99781674 0.066017613 0.0018190721 0.00021000985
0.22139573 -0.025515594 -0.073017836 -0.99737096 0.072450392 0.0014358251 0.0002012637
-0.22181374 -0.015392481 -0.074538626 0.99882996 0.048349362 0.0010179606 0.00026520682
0.22185935 -0.01415172 -0.074318215 -0.99928135 0.037896071 0.00083372305 0.00022312894
-0.22221504 -0.0044682678 -0.074257277 0.9999904 0.0042351349 -0.0011493955 0.00018015171
0.22214113 -0.0064807772 -0.074386299 -0.99983877 0.017580733 0.0036556111 0.00016946949
-0.22214353 0.0064149331 -0.073487908 0.99974805 -0.022399686 -0.0014399944 0.00022387094
0.22218186 0.0053719492 -0.077942692 -0.99990553 -0.013535449 -0.0024095736 0.00015168794
-0.22179312 0.015954634 -0.075354479 0.99892408 -0.046365555 -0.00092565216 0.00013714076
0.22184801 0.014460207 -0.071111232 -0.99928886 -0.037628431 0.0024149173 0.00017387414
-0.22148184 0.023807973 -0.076928467 0.99803168 -0.062711455 -3.0080349e-05 0.00017626629
0.22145545 0.02443295 -0.074800216 -0.99761343 -0.069045939 0.00024623401 0.00026290241
-0.2203784 0.036263801 -0.075592861 0.99488127 -0.10100508 -0.0030496253 0.00027413262
0.2204513 0.035600025 -0.076099299 -0.99460429 -0.10374045 -0.00044672142 0.00026073414
-0.21969903 0.042142197 -0.078508645 0.99278027 -0.11993653 -0.0016115285 0.00034313838
0.21890481 0.048847042 -0.075170249 -0.98857236 -0.15074693 0.00016796897 0.00041379486
-0.21782541 0.055834938 -0.075380236 0.98337018 -0.18160926 0.0010636018 0.00055004889
0.21789466 0.055822041 -0.075746752 -0.98367029 -0.17992713 -0.0043677115 0.00049030589
-0.21585989 0.065379418 -0.077239782 0.9748565 -0.22283314 -0.00037727712 0.00074537547
0.21603568 0.064558275 -0.073689319 -0.97577912 -0.21872519 0.0038040869 0.00084619486
-0.21437532 0.072313637 -0.074855097 0.96357518 -0.2674343 0.0013596035 0.0012670472
0.21312502 0.07673616 -0.075391419 -0.9540022 -0.29979372 0.0018864422 0.0020849409
-0.21058136 0.084223084 -0.076196536 0.91722804 -0.39835784 -0.0019484935 0.0064292522
-0.20879947 0.089123495 -0.074580945 0.90164608 -0.43243584 0.0057987329 0.0062385802
0.20927663 0.087811224 -0.076679155 -0.90827489 -0.41831741 -0.0068772701 0.0061093736
0.2109365 0.08324638 -0.078107826 -0.92246652 -0.38607705 0.00027313305 0.0057232948
-0.20535254 0.096006677 -0.078133516 0.752406 -0.6583038 0.022833785 0.023513958
0.2051969 0.096237712 -0.076949246 -0.77300519 -0.63436294 0.0068244957 0.017316615
-0.20182687 0.10124074 -0.0707146 0.61515141 -0.7884087 0.00068970979 0.029187374
-0.19651359 0.10540287 -0.075142063 0.53018588 -0.84767765 -0.018587202 0.026620591
-0.18450935 0.10762829 -0.076306693 0.30642861 -0.95075589 -0.046526182 0.024365315
-0.17395969 0.10734233 -0.075449705 0.15827362 -0.98384058 -0.083709568 0.041073907
-0.16606055 0.10734233 -0.074440449 0.13358362 -0.98086196 -0.1416516 0.05296078
-0.1535392 0.10734235 -0.075061098 0.031845096 -0.99158138 -0.12550768 0.069274239
-0.14276648 0.10734233 -0.073982224 0.030503094 -0.98547369 -0.1670662 0.076343559
-0.13673504 0.10734233 -0.072594903 0.024400942 -0.97417819 -0.22445826 0.067137502
-0.12397464 0.10734233 -0.073675424 -0.010082211 -0.98149246 -0.19123535 0.070730105
-0.11295584 0.10734233 -0.074256681 -0.018324153 -0.98769039 -0.15534501 0.071798995
-0.10619708 0.10734234 -0.074478686 0.015899422 -0.9877007 -0.15554601 0.08356411
-0.094065145 0.10734235 -0.07519687 0.031141544 -0.98837024 -0.14884368 0.078992046
-0.085869074 0.10734233 -0.073769309 0.015773276 -0.98433471 -0.17560312 0.074186794
-0.07705906 0.10734233 -0.076638691 0.036766659 -0.99158168 -0.12415338 0.08748465
-0.065411419 0.10734235 -0.076503992 0.011537133 -0.99580693 -0.090748921 0.08726
-0.054297645 0.10734235 -0.074544802 -0.058465838 -0.97998911 -0.19027109 0.077262327
-0.043547623 0.10734233 -0.074828684 -0.03367215 -0.98715109 -0.15620182 0.081937201
-0.03639346 0.10734233 -0.073779404 0.037616897 -0.97443026 -0.22151899 0.067239426
-0.025722548 0.10734234 -0.07292942 -0.012102324 -0.97316611 -0.22978531 0.072788849
-0.015531096 0.10734233 -0.073554166 0.0055606118 -0.9796474 -0.2006488 0.074438632
-0.0038036474 0.10734234 -0.075571373 0.0072740405 -0.98893356 -0.14818057 0.080219358
0.0035801851 0.10734233 -0.074653082 0.023824224 -0.98229688 -0.18580984 0.076617382
0.014646862 0.10734234 -0.077242218 -0.022080779 -0.99718791 -0.071614996 0.090395622
0.023230338 0.10734235 -0.076043211 -0.0063209203 -0.99378461 -0.11114039 0.083175585
0.034814905 0.10734233 -0.07436052 -0.02423281 -0.98350084 -0.17927331 0.074874707
0.044135969 0.10734234 -0.074288055 0.036981862 -0.9743824 -0.22183618 0.072311327
0.051584024 0.10734233 -0.075398661 0.0078849914 -0.98423445 -0.17669271 0.080884181
0.06578324 0.10734234 -0.074778691 0.015648799 -0.98744959 -0.1571576 0.08226192
0.076086387 0.10734233 -0.074950002 -0.031906128 -0.98398459 -0.17537503 0.076609932
0.085191302 0.10734234 -0.075653866 -0.044228096 -0.99460095 -0.093877338 0.091110937
0.091316767 0.10734233 -0.076055773 -0.019025978 -0.99380314 -0.10951418 0.084334008
0.10583248 0.10734233 -0.072396226 -0.026825935 -0.97758681 -0.20881666 0.076705903
0.11484857 0.10734234 -0.0745022 -0.0003442585 -0.9875527 -0.15728813 0.080259971
0.12196256 0.10734233 -0.072293863 0.022090338 -0.97467655 -0.22252582 0.073999241
0.13417038 0.10734234 -0.076704942 0.025962835 -0.99773151 -0.062110692 0.088790886
0.14373539 0.10734233 -0.073444031 -0.035976086 -0.98499817 -0.16877337 0.073305994
0.15448403 0.10734234 -0.073273458 -0.10359615 -0.98890042 -0.10650773 0.06860093
0.16451518 0.10734233 -0.075550839 -0.11558191 -0.99162251 -0.057667878 0.053068224
0.17328252 0.10734234 -0.074678533 -0.18657842 -0.97919059 -0.079839498 0.037087161
0.18543619 0.10770054 -0.074947223 -0.26367077 -0.96356422 -0.044961907 0.028597612
0.19515382 0.1060278 -0.07432045 -0.54720545 -0.83658975 0.026150728 0.027918911
0.20201546 0.10096064 -0.074921787 -0.66036701 -0.75025648 0.032103248 0.029981613
-0.18230033 0.11129174 -0.077514388 0.30478543 -0.95128894 -0.046424881 0.02647757
-0.17368172 0.11465239 -0.07587444 0.16485229 -0.98233545 -0.088548474 0.045002442
-0.16620582 0.11756353 -0.073050767 0.1590527 -0.97853094 -0.13107045 0.055261079
-0.15394296 0.11916029 -0.073030621 0.0893154 -0.98750937 -0.12980032 0.077118427
-0.14580959 0.11898254 -0.073034182 0.036733437 -0.98699129 -0.15652131 0.082209043
-0.13480492 0.11898166 -0.072839268 0.019258356 -0.97209877 -0.23377982 0.08032494
-0.12178564 0.11983185 -0.074841782 0.026172053 -0.97893691 -0.20247851 0.081739239
-0.11298443 0.11871699 -0.072486028 0.040562786 -0.97286803 -0.22777721 0.066725649
-0.10509138 0.11894779 -0.072885305 -0.0035168927 -0.98113465 -0.19329366 0.085688032
-0.095164768 0.11928857 -0.073734492 0.016117601 -0.9792285 -0.20211826 0.085185647
-0.084386073 0.1191348 -0.073144913 -0.020079946 -0.97945517 -0.20066006 0.086370371
-0.076507792 0.11943884 -0.073788568 -0.016381251 -0.9777953 -0.20892087 0.081285357
-0.065003298 0.11971637 -0.074423045 0.0058783251 -0.98629463 -0.16488887 0.085222512
-0.055793982 0.11916205 -0.07326854 -0.044439096 -0.97963434 -0.19581015 0.082080856
-0.042683598 0.11803541 -0.070923433 0.015929881 -0.96442866 -0.26386276 0.069607288
-0.032204345 0.11963183 -0.074489333 0.050847948 -0.97096658 -0.23374851 0.074963324
-0.023449657 0.11971884 -0.074333861 0.029519495 -0.97068506 -0.23853505 0.079895981
-0.012967446 0.11925229 -0.073526613 0.006799872 -0.97256649 -0.2325259 0.083378091
-0.002845468 0.11901049 -0.072734632 -0.022928752 -0.97868353 -0.20409016 0.076802738
0.0060985954 0.1188061 -0.072807699 -0.014738362 -0.97487587 -0.22226046 0.076664977
0.017305896 0.11965047 -0.074205332 0.029111793 -0.97205406 -0.23294522 0.074537665
0.028086333 0.11942431 -0.073585778 -0.0030066632 -0.97996873 -0.19912885 0.078356259
0.036933102 0.11967953 -0.074394397 0.0076208417 -0.98340178 -0.18128152 0.0880422
0.045448367 0.1192738 -0.07360623 0.012668483 -0.97850293 -0.20584357 0.082845345
0.052990034 0.11790064 -0.070713542 0.015665995 -0.96925956 -0.24554124 0.06548284
0.068988539 0.11973048 -0.074655905 -0.0087390598 -0.98708075 -0.15998547 0.086848743
0.079508759 0.11914879 -0.073006421 0.0012166896 -0.98113531 -0.19331871 0.081086345
0.084245808 0.11871661 -0.072174281 -0.023680508 -0.97332406 -0.22820932 0.077040434
0.090942472 0.11844474 -0.071623713 0.013572451 -0.97359812 -0.22786501 0.076310247
0.1044232 0.1191487 -0.073274344 -0.0085885972 -0.97268957 -0.23195115 0.089144245
0.11654353 0.11909422 -0.073323622 0.0013064564 -0.96895617 -0.24722876 0.076029293
0.12605363 0.11908325 -0.073244229 0.018309465 -0.96943837 -0.24465047 0.084153146
0.14070979 0.11744463 -0.070003279 -0.0087456862 -0.97587639 -0.21814862 0.070175901
0.15614896 0.11921879 -0.073332727 -0.085148767 -0.98431122 -0.15453517 0.073023818
0.16422419 0.11833642 -0.072937988 -0.17381886 -0.97599351 -0.13123932 0.047453713
0.177095 0.11332142 -0.073781423 -0.20756638 -0.97410023 -0.089693457 0.031658657
0.18356636 0.11079803 -0.074154854 -0.27549303 -0.95870697 -0.070600979 0.033638313
-0.15544447 0.12033395 -0.077243976 0.088295035 -0.98752367 -0.13038792 0.073323466
-0.14273877 0.12055527 -0.077804729 0.088582411 -0.98564488 -0.14372623 0.078486085
-0.13162372 0.12025726 -0.077008627 0.011089784 -0.98212451 -0.18790551 0.076469459
-0.12625414 0.12042996 -0.07700938 -0.03223183 -0.97779769 -0.20705761 0.082721263
-0.11280233 0.12046408 -0.078221641 0.026308015 -0.9914307 -0.12795708 0.081655957
-0.094708085 0.12033948 -0.076674655 0.055661671 -0.98467445 -0.16528152 0.085026294
-0.086516254 0.12035726 -0.077903919 0.005239978 -0.98049432 -0.19647789 0.085798934
-0.075446732 0.12062596 -0.077972665 0.010021782 -0.97787637 -0.20894331 0.085144162
-0.067040339 0.12049481 -0.077790752 -0.023325266 -0.98730844 -0.15709257 0.083780102
-0.054563519 0.12047369 -0.077295631 -0.0019487811 -0.97633839 -0.2162396 0.084439285
-0.049637236 0.12043954 -0.076834381 -0.0079907775 -0.98213035 -0.18803209 0.07941211
-0.036142025 0.12052041 -0.077826038 -0.027541077 -0.97476 -0.22155018 0.087530531
-0.023428442 0.12031221 -0.077667594 0.033425901 -0.99241185 -0.11832786 0.089844309
-0.014234118 0.12048064 -0.078140341 0.028546978 -0.98846877 -0.14870998 0.088794678
-0.0046224124 0.12066398 -0.078758426 0.027281119 -0.99284595 -0.11624417 0.086006604
0.0044210902 0.12019386 -0.076977469 -0.017438719 -0.98513734 -0.17088117 0.081047058
0.01535025 0.12075526 -0.078951836 0.013843985 -0.99882013 -0.046546608 0.085344523
0.022660574 0.12063852 -0.078430772 -0.010707173 -0.99650288 -0.082870565 0.092607312
0.033446275 0.12054862 -0.078084581 -0.035113454 -0.98509002 -0.16841862 0.08640638
0.046528116 0.12082026 -0.078943633 0.017839281 -0.99377126 -0.11000182 0.087449327
0.06601344 0.120638 -0.07780128 0.020288935 -0.99045873 -0.13630749 0.083935961
0.07407289 0.12072262 -0.078398995 -0.01731254 -0.99033934 -0.13757977 0.092401393
0.084389046 0.12070232 -0.078580752 -0.03882217 -0.99275994 -0.11366812 0.096726425
0.094062261 0.12061981 -0.07799229 -0.038472135 -0.99532539 -0.088585511 0.09219756
0.10466754 0.12059111 -0.07797312 -0.0048918165 -0.9889034 -0.14847912 0.091268666
0.11683499 0.12071376 -0.078382246 0.035177115 -0.99038303 -0.13380609 0.084743045
0.12499482 0.12047782 -0.077210695 0.036089662 -0.9837653 -0.17579319 0.091227762
0.13692412 0.12047231 -0.077129461 -0.0041042953 -0.98343366 -0.18122223 0.090417169
0.14667304 0.12059702 -0.077705957 -0.074064024 -0.99545419 -0.059879232 0.082984552
0.15847605 0.12050457 -0.079310298 -0.11394095 -0.99213046 -0.051910698 0.070904881
-0.20081121 -0.10274433 -0.064771727 0.61183894 0.78796434 -0.069030866 0.030204322
-0.19310263 -0.10702221 -0.067632928 0.38071707 0.92028499 -0.090166502 0.025296597
-0.18330197 -0.10734233 -0.068503641 0.25175416 0.96165425 -0.10881585 0.019848881
-0.17056471 -0.10734233 -0.069488749 0.05284787 0.99039888 -0.12773864 0.021871582
-0.16532008 -0.10734233 -0.065181777 0.039660856 0.98931962 -0.14026296 0.014721519
-0.15277283 -0.10734235 -0.065307409 0.02913201 0.98420739 -0.1746054 0.029601328
-0.14268094 -0.10734233 -0.063867852 0.03258846 0.98673129 -0.15905751 0.026785474
-0.13489139 -0.10734234 -0.066724442 -0.014863867 0.98119789 -0.19243112 0.038096957
-0.12517066 -0.10734233 -0.063911662 0.018676516 0.98805594 -0.15295963 0.027330359
-0.11522208 -0.10734233 -0.065846756 0.0060269646 0.97495407 -0.22232455 0.032456219
-0.10251629 -0.10734233 -0.064897016 -0.0073302677 0.9855119 -0.16944808 0.031408343
-0.097251743 -0.10734233 -0.065293364 0.010025886 0.98634255 -0.16440141 0.032995969
-0.085790753 -0.10734233 -0.065220997 -0.017699674 0.97932696 -0.20150799 0.034304559
-0.073375776 -0.10734234 -0.068460718 0.01169787 0.97948849 -0.20116024 0.038731758
-0.06672211 -0.10734233 -0.064938039 0.02030828 0.98696744 -0.15963332 0.036177136
-0.05574115 -0.10734233 -0.067000553 0.013266232 0.9833855 -0.18104416 0.037513617
-0.043484855 -0.10734234 -0.065490261 0.013614371 0.98447233 -0.17501117 0.036263123
-0.033336449 -0.10734234 -0.062647834 -0.0035652821 0.98126477 -0.19263113 0.025176374
-0.028055161 -0.10734233 -0.066563107 -0.022890639 0.98377061 -0.17796463 0.035639595
-0.012292174 -0.10734233 -0.066544577 0.012573896 0.99033463 -0.13812734 0.030079355
-0.004700298 -0.10734234 -0.067591414 0.013701528 0.98188919 -0.18896009 0.03873672
0.0056812651 -0.10734235 -0.065057553 -0.020355606 0.9851414 -0.17053498 0.031301077
0.014113789 -0.10734235 -0.063205771 0.010793763 0.98583388 -0.16737674 0.029245248
0.028589189 -0.10734233 -0.065382026 -0.0061660763 0.98836386 -0.15198269 0.028802563
0.035713203 -0.10734233 -0.064194918 -0.013250275 0.98930311 -0.14527139 0.027477404
0.047659729 -0.10734233 -0.069983102 -0.013913266 0.97801781 -0.20805657 0.044421613
0.052912317 -0.10734234 -0.065196432 0.0041804411 0.97754258 -0.21069647 0.032364979
0.065211602 -0.10734233 -0.064842477 0.0093336347 0.99037486 -0.13809571 0.026538748
0.0748768 -0.10734233 -0.062870175 0.0031066816 0.99025685 -0.1392179 0.019764049
0.085082807 -0.10734233 -0.064021207 -0.017085848 0.98811758 -0.15274686 0.026314937
0.092552483 -0.10734233 -0.064740375 0.00044051648 0.98450655 -0.17534739 0.032208577
0.1045097 -0.10734235 -0.064971589 -0.00040891999 0.98648244 -0.16386619 0.031406879
0.11390537 -0.10734233 -0.064613134 0.0095968936 0.98228556 -0.18714422 0.028793564
0.12379181 -0.10734233 -0.063417107 -0.016597958 0.98500562 -0.1717218 0.023607031
0.13583684 -0.10734234 -0.064032279 -0.0072702612 0.98775905 -0.15581764 0.028296942
0.14354374 -0.10734234 -0.065670453 0.02665277 0.9858017 -0.16578481 0.035969436
0.15342252 -0.10734234 -0.064191557 -0.032735731 0.98132241 -0.18956466 0.026252789
0.16484305 -0.10734235 -0.065750942 -0.073665857 0.98911905 -0.12734568 0.023519157
0.17522599 -0.10734233 -0.066417255 -0.12009043 0.98653024 -0.1110697 0.015649993
0.18412924 -0.10723744 -0.065929778 -0.25909415 0.96339488 -0.068850897 0.018347818
0.1955142 -0.10572638 -0.063680306 -0.47551125 0.87848014 -0.04649324 0.026450988
0.20080106 -0.10270411 -0.063688181 -0.6545825 0.75581264 0.01640572 0.030948732
-0.20589095 -0.095009223 -0.064480141 0.78702432 0.61652201 -0.022211095 0.023225397
0.20743464 -0.092508182 -0.066272676 -0.83003145 0.55771625 0.00057193375 0.020025076
-0.21203411 -0.080227882 -0.069922417 0.94461483 0.32811651 0.0065031522 0.0023556503
-0.20929027 -0.087773763 -0.068613596 0.89192092 0.45217595 0.0037371349 0.0087526627
0.20928386 -0.087791294 -0.064203277 -0.90095168 0.43389741 -0.004371237 0.0077614607
0.21101578 -0.083028316 -0.065870591 -0.92176598 0.3877368 -0.002755003 0.0059547224
-0.21387157 -0.074443161 -0.063569933 0.96204084 0.27288133 0.0036369006 0.001148819
0.21352658 -0.075996071 -0.062719695 -0.95292395 0.30318549 0.0037999768 0.0023269658
-0.21603638 -0.064555153 -0.06410598 0.9770174 0.21314816 0.0022147789 0.00079166557
0.21630359 -0.063306905 -0.06452091 -0.97737044 0.21152225 0.0023147911 0.0008977555
-0.21820235 -0.054075375 -0.066216238 0.98402166 0.17804663 -0.00089086103 0.00045552829
0.21779716 -0.05633067 -0.065216541 -0.98243076 0.18662368 0.0012342449 0.00065251411
-0.21958131 -0.043139596 -0.063876145 0.99299288 0.11811708 0.0036664233 0.00034415684
0.21960974 -0.042914506 -0.064895183 -0.99222398 0.12445059 -0.0018963249 0.0002802574
-0.220424 -0.035833552 -0.063994981 0.99520922 0.097743444 0.0021765712 0.00029338754
-0.21994704 -0.039968625 -0.063970312 0.9936921 0.11212943 0.001720245 0.00040448722
0.22043937 -0.035736375 -0.06556683 -0.9949044 0.10081714 0.0010360954 0.00027458605
-0.22150646 -0.023451366 -0.062780656 0.9979611 0.06378939 0.0021479514 0.00020223114
0.22151652 -0.023485249 -0.069237806 -0.99798721 0.063413262 0.00051614735 0.00022473549
-0.22178783 -0.016098432 -0.0649928 0.99859005 0.053077381 -0.00086687447 0.00024954867
0.2217267 -0.017763324 -0.064784385 -0.99867201 0.051463213 0.0024001051 0.00023016344
-0.22212344 -0.0069615697 -0.063991055 0.99973899 0.022843448 0.00031650136 0.00027224846
0.22220755 -0.0046725953 -0.065073393 -0.99991053 0.013371655 0.00045083955 0.00015527665
-0.2222334 0.0039687823 -0.066086493 0.99999779 -0.0021031771 0.00020505888 0.00023577581
0.22221088 0.0045820135 -0.065743268 -0.99994016 -0.010935649 -0.00023818306 0.0001892912
-0.22170994 0.01821854 -0.062001225 0.99869615 -0.050996732 0.0022900517 0.00020079403
0.22178283 0.016234521 -0.066420004 -0.99869567 -0.051003247 -0.00234861 0.00021246429
-0.22151257 0.023591585 -0.063523225 0.99788761 -0.064958148 -0.00083843525 0.00019843102
0.22145922 0.025044436 -0.062776946 -0.9975853 -0.069386087 0.003032479 0.00025988155
-0.22051162 0.035111282 -0.06519866 0.99479753 -0.10185767 -0.0017000748 0.0003094105
0.22098312 0.031030826 -0.066903487 -0.99638379 -0.084966041 -0.00048721521 0.00029552754
-0.21914037 0.046976004 -0.064720884 0.99008679 -0.14043365 0.0025527822 0.00039140359
0.2192523 0.045864653 -0.063053727 -0.99165052 -0.12895347 -0.00054988766 0.00035630274
-0.21784456 0.055960845 -0.064589702 0.98402256 -0.17802623 0.0025034016 0.00041813627
0.21810791 0.054200601 -0.065620817 -0.98473042 -0.17407411 -0.0020145681 0.00060737203
-0.21610568 0.064231396 -0.062833413 0.97467411 -0.22362559 0.0014011806 0.00095220993
0.21593738 0.06501729 -0.065403342 -0.97579736 -0.21866688 -0.0020837493 0.00071842899
-0.21389952 0.074379168 -0.064857192 0.95966977 -0.28103507 -0.0072934106 0.0018196688
0.21321958 0.076555938 -0.064265981 -0.95164996 -0.30716836 0.0031650593 0.00213087
-0.21114294 0.082678676 -0.063031361 0.92620826 -0.37696907 0.0057118484 0.0058798194
-0.20928231 0.087795615 -0.061374642 0.90841943 -0.41802597 -0.005330353 0.006370876
0.20924924 0.087886542 -0.066067062 -0.90395695 -0.42761114 -0.0032592185 0.0056927074
0.21127775 0.082307875 -0.066267595 -0.92937618 -0.36911792 -0.0034415729 0.0053722044
-0.20528112 0.096112713 -0.068842866 0.76627749 -0.64236033 0.013857218 0.023421045
0.20561622 0.095474236 -0.065046489 -0.78372198 -0.62047088 -0.028208787 0.022244761
-0.20184799 0.10120938 -0.062003616 0.64923269 -0.75941879 -0.042190284 0.032987311
-0.19560254 0.10548446 -0.064987622 0.55317318 -0.83112812 -0.056791913 0.028878322
-0.18367113 0.10743258 -0.067139141 0.3008804 -0.94887823 -0.0953997 0.019404927
-0.17416394 0.10734235 -0.064529233 0.16203713 -0.97467715 -0.15410502 0.026644891
-0.1637672 0.10773974 -0.065709606 0.095130086 -0.97724402 -0.18959004 0.04679038
-0.15344308 0.10759336 -0.06646423 0.054715943 -0.97638804 -0.20897989 0.062825747
-0.14800286 0.10734233 -0.065872729 0.02653387 -0.97951871 -0.1995973 0.062775388
-0.1325826 0.10734233 -0.068719424 -0.012518021 -0.97746396 -0.21073066 0.067415297
-0.12662284 0.10734234 -0.066239327 0.013687308 -0.96947569 -0.2448049 0.061485603
-0.11269623 0.10734234 -0.064330019 -0.018913694 -0.9646011 -0.26303422 0.053998634
-0.10654262 0.10734233 -0.068116084 0.019570097 -0.97435617 -0.22415867 0.065850131
-0.095305085 0.10734235 -0.066461414 0.031114945 -0.96368742 -0.26521379 0.056390643
-0.085568376 0.10734233 -0.063955978 0.0075562135 -0.95861036 -0.284621 0.05747693
-0.075548835 0.10734234 -0.065341808 -0.02857054 -0.96141517 -0.2736139 0.06032018
-0.064749978 0.10734234 -0.065999098 -0.045255132 -0.95748073 -0.28492573 0.051284764
-0.055672105 0.10734234 -0.062610537 0.0048427559 -0.96941125 -0.24539454 0.050110377
-0.047528591 0.10734233 -0.064223908 -0.0052531529 -0.96891862 -0.2473242 0.051758397
-0.034392554 0.10734235 -0.066657104 -0.018030202 -0.96609396 -0.25756025 0.055130407
-0.026564321 0.10734234 -0.064867184 0.030778391 -0.96877152 -0.2460375 0.054351971
-0.01277503 0.10734233 -0.063359514 -0.00068021717 -0.9647873 -0.26303017 0.055028446
-0.0053558499 0.10734233 -0.066076152 0.0087492513 -0.97542584 -0.22015435 0.063515507
0.0080708489 0.10734233 -0.065019168 -0.017512126 -0.97282302 -0.23088682 0.062737778
0.016198864 0.10734235 -0.065471143 -0.020526199 -0.96494353 -0.26165372 0.055867419
0.025521263 0.10734233 -0.066666 0.010600346 -0.96650964 -0.25641143 0.069386162
0.036874685 0.10734233 -0.06678693 -0.015977068 -0.96749616 -0.25238034 0.062691748
0.04252382 0.10734234 -0.067400768 -0.021626033 -0.97040975 -0.24049392 0.065285988
0.054355867 0.10734233 -0.067214549 -0.0019474459 -0.97216207 -0.23430127 0.063546903
0.061606355 0.10734233 -0.061209586 0.052751984 -0.97580904 -0.21216489 0.052601364
0.074774697 0.10734235 -0.06483645 0.015811861 -0.97618324 -0.21637061 0.069766305
0.083090611 0.10734235 -0.065195262 -0.0056847804 -0.96979409 -0.24385898 0.06951949
0.095923394 0.10734233 -0.066636436 -0.013688076 -0.96775132 -0.25153536 0.064779945
0.10510366 0.10734233 -0.068223976 -0.0012236284 -0.97734195 -0.21166269 0.07299611
0.11672441 0.10734233 -0.064783342 -0.012560966 -0.97824436 -0.20707504 0.058015838
0.12487906 0.10734233 -0.064516209 0.010754784 -0.97388929 -0.22676875 0.056146007
0.1354468 0.10734233 -0.065857641 0.0088509675 -0.96385998 -0.2662622 0.062007349
0.14507358 0.10734235 -0.064121671 0.0074689044 -0.95724213 -0.28919145 0.054100536
0.15591648 0.10781573 -0.066027291 -0.063673392 -0.97842467 -0.19654708 0.051482994
0.16407573 0.10770927 -0.066490062 -0.11944538 -0.98323697 -0.13776034 0.050731491
0.17328323 0.10765781 -0.066499718 -0.12922639 -0.98296547 -0.1306884 0.032096762
0.18542132 0.10734233 -0.068076685 -0.27049291 -0.95896822 -0.084933005 0.021730179
0.19584505 0.1051444 -0.063392937 -0.48646897 -0.87197971 -0.054765612 0.027824024
0.20046619 0.10326058 -0.060134985 -0.61424971 -0.78730547 -0.053359903 0.034315649
-0.17576414 0.11354349 -0.068558708 0.18773286 -0.97303259 -0.1340296 0.029779989
-0.16685294 0.11430075 -0.068265952 0.12637152 -0.97832716 -0.16403082 0.048976421
-0.15705301 0.11668569 -0.068991281 0.088483118 -0.97544211 -0.20170161 0.055174656
-0.13861141 0.11680092 -0.069128752 0.021602685 -0.97249913 -0.23190258 0.060121641
-0.11546666 0.11648907 -0.068762042 -0.0060862172 -0.97219676 -0.2340866 0.070208058
-0.10317593 0.11681302 -0.069151916 0.013453927 -0.96574754 -0.25913447 0.062902354
-0.085179955 0.11728284 -0.069751292 0.00044663399 -0.96055311 -0.27809608 0.061022997
-0.074921951 0.11577898 -0.067909509 0.010091275 -0.96194428 -0.27305904 0.064555071
-0.064917907 0.11671352 -0.069024473 -0.00027651899 -0.96805239 -0.25074777 0.070518039
-0.052952234 0.11652996 -0.068838574 -0.030100269 -0.96567494 -0.25800362 0.060579173
-0.04285787 0.11660315 -0.068892807 -0.028658494 -0.96930677 -0.24417828 0.068976708
-0.023593726 0.11561581 -0.06771484 -0.019392444 -0.96937037 -0.24483639 0.062427115
-0.0054046381 0.11619958 -0.068411306 -0.0031134996 -0.9704513 -0.24127683 0.068671897
0.0067955009 0.11612695 -0.068324678 -0.00027895789 -0.96362758 -0.26724836 0.067638271
0.018981554 0.11578274 -0.067913987 -0.024913052 -0.96093732 -0.27564251 0.060937699
0.031187657 0.11676279 -0.069094874 -0.026191784 -0.96884876 -0.24626417 0.067021675
0.042394787 0.11690253 -0.069249988 -0.015833717 -0.9631418 -0.26852781 0.054383483
0.056044485 0.11735848 -0.069869101 0.02227951 -0.96812564 -0.2494721 0.062924027
0.065087132 0.11671418 -0.069045879 0.0053488333 -0.97846448 -0.20634608 0.068614915
0.071662053 0.11671468 -0.069025874 -0.018519325 -0.97391367 -0.22616197 0.067397974
0.082915187 0.11704943 -0.069425255 -0.032515582 -0.97568798 -0.2167386 0.070011832
0.091693684 0.11736344 -0.069876835 -0.003392726 -0.97369593 -0.22782609 0.072772808
0.10578398 0.11635233 -0.068593562 -0.0021493677 -0.96769923 -0.25209847 0.0677763
0.11435739 0.11620848 -0.06842193 -0.0010593098 -0.96701735 -0.2547082 0.064656079
0.13544066 0.11662652 -0.068923883 0.028300112 -0.96928501 -0.24430616 0.063199736
0.14348577 0.11589221 -0.068044603 -0.037637267 -0.96360093 -0.26468244 0.060575273
0.15291326 0.11670592 -0.069047093 -0.10430314 -0.97448629 -0.19873905 0.053605802
0.1651731 0.11418662 -0.068140574 -0.15998651 -0.97795862 -0.13416898 0.046603229
0.17450188 0.11300224 -0.068154201 -0.18666545 -0.9766044 -0.10676941 0.032411039
-0.19293243 -0.10540003 -0.05353108 0.40489158 0.90957451 -0.093472056 0.026791194
-0.18506071 -0.10610078 -0.054816972 0.22327419 0.96898258 -0.10593054 0.011487004
-0.17534988 -0.10683797 -0.055089206 0.080878705 0.98989064 -0.11651214 0.003618703
-0.16432224 -0.10721076 -0.055523593 0.042055786 0.99186516 -0.12014513 0.0073894584
-0.15492797 -0.10734233 -0.053764082 0.032348659 0.99630314 -0.079584233 0.0028777367
-0.14345285 -0.10734235 -0.054649554 0.014067316 0.99742877 -0.070270643 0.0053730272
-0.13279954 -0.10734233 -0.055216014 0.025033792 0.99724787 -0.069785833 0.0069960621
-0.126313 -0.10734233 -0.054227598 -0.0010901806 0.99731916 -0.073165856 0.0066796122
-0.11412479 -0.10734234 -0.055792339 -0.0059852763 0.99780726 -0.065915085 0.0072270702
-0.1043129 -0.10734234 -0.05296658 -0.0014205402 0.99851906 -0.054383665 0.0040300647
-0.097529016 -0.10734233 -0.058769245 -0.014921703 0.99553365 -0.093221441 0.014787582
-0.083756879 -0.10734233 -0.054613404 -0.0087873125 0.9984929 -0.054174643 0.0048897318
-0.07563673 -0.10734233 -0.052909467 0.010299498 0.99837738 -0.05600531 0.0050498056
-0.0641113 -0.10734234 -0.054507699 -0.0052549881 0.99841338 -0.056063589 0.0055637206
-0.054844454 -0.10734233 -0.054927617 0.0041078818 0.99842674 -0.055921853 0.0071894485
-0.044291608 -0.10734235 -0.056099948 0.0053519546 0.99859959 -0.052632332 0.0075006424
-0.034580827 -0.10734235 -0.054661974 -0.0081049474 0.9984237 -0.055537511 0.0058873082
-0.021096079 -0.10734233 -0.056416206 -0.0043014539 0.99517125 -0.098058932 0.010054152
-0.015833281 -0.10734233 -0.054790176 0.0073058861 0.99869281 -0.050588533 0.0045069819
-0.0048816693 -0.10734234 -0.054971296 0.00068456359 0.99883789 -0.048192095 0.0034453087
0.004901377 -0.10734235 -0.053081714 -0.00071857614 0.9988485 -0.047970772 0.0034651731
0.012367356 -0.10734234 -0.055536874 -0.00068636803 0.99891156 -0.046638448 0.0042985124
0.024063582 -0.10734234 -0.054316696 0.0032803083 0.9989537 -0.04561647 0.0037085663
0.03253838 -0.10734233 -0.055929631 -0.0020859248 0.99855232 -0.053748626 0.0051144161
0.044751313 -0.10734235 -0.055437714 0.0062920954 0.99894583 -0.045470394 0.0060746023
0.056379404 -0.10734235 -0.05643636 0.0032804529 0.99692005 -0.078356497 0.010685882
0.063671254 -0.10734235 -0.054655559 0.0037688816 0.998707 -0.050697017 0.0051788841
0.076443709 -0.10734233 -0.05256629 0.012444411 0.99918211 -0.038474422 0.0030312822
0.085877828 -0.10734235 -0.053582154 0.0030291472 0.99859959 -0.052818757 0.0033417826
0.093876444 -0.10734233 -0.050638489 0.0031556864 0.99963397 -0.02687192 0.0017822804
0.10508841 -0.10734233 -0.056008793 -0.00091586408 0.99846154 -0.055442117 0.0047623306
0.11323488 -0.10734234 -0.054728314 0.0064128707 0.99761564 -0.068716191 0.0049021486
0.12579249 -0.10734234 -0.055547964 -0.020548549 0.99526203 -0.095033273 0.0092258053
0.13291369 -0.10734233 -0.054555766 0.0074715111 0.99690717 -0.07823246 0.0061335065
0.14684188 -0.10734234 -0.054986317 -0.024723124 0.99640799 -0.080994129 0.0061339387
0.15599638 -0.10734233 -0.053746931 -0.025696591 0.9945938 -0.10061251 0.0054043471
0.1659373 -0.10708407 -0.05201818 -0.033241499 0.99391609 -0.10500395 0.0032332914
0.17289956 -0.10672199 -0.052788068 -0.08922334 0.9860875 -0.14025214 0.003084077
0.18401688 -0.10583586 -0.052343145 -0.18165238 0.9749037 -0.12870595 0.007749897
0.19428977 -0.10526159 -0.053136818 -0.43141067 0.89752889 -0.091251314 0.030742057
0.20144096 -0.10181348 -0.052058619 -0.62702048 0.77241951 -0.10106168 0.034876611
-0.20662761 -0.093845285 -0.055747144 0.7898801 0.61115503 -0.050783537 0.024640555
0.20540302 -0.095931679 -0.055832438 -0.73949736 0.67054296 -0.059294183 0.027980693
-0.21070519 -0.083882526 -0.053515017 0.91754979 0.39728823 -0.016263399 0.0080324039
-0.20912486 -0.088228613 -0.05252663 0.87585706 0.48085767 -0.040624086 0.01290308
0.20886734 -0.088936791 -0.056410212 -0.88894159 0.45753711 -0.021038981 0.0088623883
0.21194191 -0.080481306 -0.055986889 -0.94540691 0.32581258 -0.0072047538 0.0027684798
-0.21391752 -0.074248254 -0.05509568 0.96051282 0.27821612 0.0032932009 0.00092322327
0.21357225 -0.07535091 -0.053144794 -0.95212138 0.30565098 -0.0065075727 0.0021128992
-0.21548705 -0.067120865 -0.053824868 0.97421271 0.22563091 0.00057911885 0.0010918883
0.21552324 -0.066951573 -0.056113761 -0.97188795 0.23544194 -0.00095143035 0.00088238128
-0.21793073 -0.055331118 -0.057884641 0.98374945 0.17954579 -0.00065351772 0.00050170725
0.21854796 -0.052101701 -0.054441359 -0.98626101 0.16517162 -0.0027454735 0.00045519727
-0.2194853 -0.043972075 -0.05504239 0.99226844 0.12406067 0.0035061704 0.0004010105
0.21964183 -0.042636968 -0.055545114 -0.99306005 0.11760267 0.0011665084 0.00036994822
-0.22057541 -0.034535866 -0.055294465 0.99582118 0.091303892 0.0019614247 0.00014443009
0.22075731 -0.032985494 -0.055787031 -0.99636579 0.085175157 0.00066274824 0.00018515751
-0.22151048 -0.02364842 -0.054756124 0.99807298 0.062048439 -0.00060008728 0.0002028232
0.22146115 -0.024026765 -0.054978054 -0.99786389 0.065302767 0.001820277 0.00023958564
-0.2219146 -0.012646583 -0.054912135 0.99941009 0.034318157 -0.0013473179 0.00022768772
0.22189328 -0.013228319 -0.056320347 -0.99922889 0.039082501 -0.0037675272 0.00023915354
-0.22221619 -0.0044366061 -0.05428898 0.99999213 0.0037945707 -0.0011798264 0.00020195516
0.22220774 -0.0046671811 -0.0533389 -0.99989706 0.013952112 0.003341804 0.00021218634
-0.22217502 0.0055580684 -0.051471822 0.99991822 -0.012784957 -0.00031595698 0.00031291301
0.22218998 0.0051505407 -0.055971026 -0.99988914 -0.014881581 -0.00043982008 0.00022031293
-0.22182655 0.015044347 -0.054919437 0.99931979 -0.036828294 0.0019004644 0.00011812293
-0.22142529 0.02509257 -0.054166548 0.9979502 -0.063973904 -0.0016918547 0.00021453065
0.22145303 0.025213771 -0.054206606 -0.99811214 -0.061416529 -0.00035131385 0.00022225769
-0.22052801 0.034969352 -0.052936755 0.99566889 -0.092969686 -0.00020168812 0.0002462469
0.22057135 0.034564611 -0.057434961 -0.99559391 -0.093768701 -0.00035657303 0.00019850991
-0.21898299 0.048337776 -0.054157175 0.98889875 -0.14854492 0.003697949 0.00035483076
0.21947734 0.043933515 -0.055656582 -0.99159449 -0.12938392 0.00054670067 0.00029506141
-0.21784429 0.055869725 -0.054301549 0.98356211 -0.18049926 0.0050671692 0.0005773803
0.21786943 0.055993158 -0.054083735 -0.98348027 -0.18101349 0.00087119424 0.0005141921
-0.21595544 0.064933285 -0.05464999 0.97136468 -0.23754115 -0.0049791159 0.00079029961
0.21497935 0.069492027 -0.059040707 -0.96886039 -0.24759865 -0.0021093369 0.0012646804
-0.21355215 0.075533122 -0.056142945 0.95409727 -0.29945824 -0.0048087128 0.0023400944
0.21318763 0.076797411 -0.057672054 -0.9474588 -0.31987321 -0.0017116715 0.0023485664
-0.21042758 0.084646001 -0.056329414 0.91970998 -0.39240298 -0.01238859 0.0063218134
-0.20879489 0.089136094 -0.052713014 0.8553763 -0.5148893 -0.056748789 0.025669916
0.2093932 0.087490641 -0.05183452 -0.8620519 -0.50593716 -0.029902644 0.015657067
0.21166666 0.081238329 -0.054404091 -0.93714225 -0.34894201 0.0019746129 0.0055038324
-0.20600481 0.094677128 -0.055793684 0.73932451 -0.67023265 -0.064709887 0.031012926
0.20524408 0.096008129 -0.055493053 -0.77967978 -0.62403011 -0.051826037 0.024860632
-0.2011296 0.10224345 -0.053996503 0.59245831 -0.80095416 -0.08640296 0.037261829
-0.19778723 0.10479775 -0.056068212 0.54755336 -0.83299649 -0.079386652 0.027057977
-0.18443471 0.10551144 -0.050215617 0.27100703 -0.94853961 -0.16379192 0.015554613
-0.17929903 0.10595435 -0.050646082 0.17058679 -0.96931261 -0.17701197 0.012374446
-0.16332093 0.10734234 -0.056951601 0.090356551 -0.97561258 -0.20003942 0.030178202
-0.15401697 0.10734234 -0.056228794 0.015265451 -0.97994751 -0.19867042 0.033022989
-0.1418107 0.10734233 -0.057308648 0.0067172726 -0.97496217 -0.22226912 0.044891499
-0.13247789 0.10734233 -0.055123463 -0.00016419597 -0.98229432 -0.18734437 0.035631016
-0.12210062 0.10734233 -0.054932795 0.014426555 -0.97963727 -0.20025633 0.041440435
-0.11616061 0.10734234 -0.05603081 -0.023967018 -0.98030645 -0.19602226 0.051149711
-0.10508778 0.10734234 -0.054267626 -0.0075600571 -0.97628325 -0.21636511 0.036673956
-0.093696125 0.10734233 -0.054006185 0.022265349 -0.97994083 -0.19804128 0.037026178
-0.081637435 0.10734233 -0.05554229 -0.00760403 -0.97443128 -0.22455707 0.041657481
-0.07575988 0.10734233 -0.053461224 0.045858521 -0.97747272 -0.20601965 0.036056869
-0.062261298 0.10734233 -0.055755489 -0.0010692788 -0.97845882 -0.20643926 0.047463372
-0.056129724 0.10734234 -0.054225188 -0.027710101 -0.98196399 -0.1870262 0.035371438
-0.042869102 0.10734234 -0.054546069 -0.035733953 -0.97754532 -0.20767348 0.033563085
-0.038072117 0.10734233 -0.05611201 -0.023955645 -0.97516912 -0.22016194 0.041288018
-0.026801839 0.10734233 -0.05741173 -0.0016260114 -0.97895414 -0.20407395 0.041249644
-0.0141547 0.10734234 -0.055279572 0.021588251 -0.97506917 -0.22084838 0.038622122
-0.0071186367 0.10734234 -0.055199414 0.01437607 -0.98134053 -0.19173998 0.035612665
0.0034042106 0.10734233 -0.055576593 -0.025050936 -0.9822762 -0.18575756 0.045268916
0.014533791 0.10734234 -0.054374285 -0.0035252839 -0.97846138 -0.20639987 0.037885614
0.022427071 0.10734233 -0.056401722 0.022609549 -0.97883487 -0.20339856 0.041421108
0.035046179 0.10734233 -0.054591101 -0.013451139 -0.9721604 -0.23392989 0.039190818
0.042058162 0.10734233 -0.054575656 0.032873966 -0.97019321 -0.24009284 0.039165612
0.053736094 0.10734233 -0.056054346 -0.023472797 -0.98204988 -0.18715522 0.04749193
0.064901225 0.10734234 -0.053101875 0.032784816 -0.98441547 -0.17277545 0.030274356
0.074170388 0.10734233 -0.057153147 0.013768777 -0.98075563 -0.19475359 0.051054623
0.08512678 0.10734234 -0.054768063 -0.034854006 -0.97707814 -0.21000823 0.043031625
0.094569869 0.10734234 -0.054604411 -0.018886661 -0.9811762 -0.19218917 0.040226024
0.10430501 0.10734235 -0.055798788 -0.010565106 -0.97907174 -0.20324105 0.049635269
0.11290063 0.10734234 -0.055574454 -0.012511834 -0.97929054 -0.20207284 0.041746322
0.12466602 0.10734234 -0.053739082 0.012630184 -0.98231572 -0.18680534 0.036136255
0.13437638 0.10734233 -0.058387667 -0.023264376 -0.97808087 -0.20692164 0.050346993
0.14577818 0.10734233 -0.059535973 0.0055425074 -0.97515285 -0.2214638 0.04619357
0.15696211 0.10734233 -0.05392392 -0.063151203 -0.97434634 -0.21601206 0.026121754
0.16578652 0.10727527 -0.055558205 -0.069861956 -0.98169279 -0.17719667 0.022943078
0.17439845 0.10673223 -0.054042853 -0.12373549 -0.97611076 -0.17859863 0.01456094
0.18377684 0.10619973 -0.054901019 -0.21622853 -0.96453947 -0.1513568 0.014758721
0.19489059 0.1052687 -0.054752402 -0.43010956 -0.89378065 -0.1271297 0.029785825
0.20176321 0.10133512 -0.051088072 -0.64016092 -0.76543581 -0.065590419 0.034130927
-0.20100738 -0.10205577 -0.045576293 0.52081072 0.84451467 -0.12470488 0.023855612
-0.19051582 -0.10400894 -0.042158581 0.33491459 0.92671543 -0.17038372 0.01782074
-0.18225408 -0.10474516 -0.043149024 0.18329059 0.97021574 -0.15838547 0.0079935985
-0.17567648 -0.10536776 -0.044083524 0.10475419 0.98285359 -0.15174168 0.0030734499
-0.16573998 -0.10635048 -0.045816198 0.06600035 0.99297565 -0.098200172 0.0021953946
-0.15511589 -0.10659683 -0.041118558 0.057012364 0.99385035 -0.094926365 0.0013262997
-0.14454991 -0.10734234 -0.045751292 0.033918262 0.99840575 -0.045115754 0.0007522768
-0.13790458 -0.10734234 -0.046186928 0.023803031 0.99913895 -0.033982571 0.00053627556
-0.12622797 -0.10734235 -0.04399455 0.01810503 0.99962151 -0.020710215 0.00029262877
-0.1151273 -0.10734233 -0.044749338 0.0038580231 0.99997801 -0.0054004081 9.0760914e-05
-0.10490123 -0.10734234 -0.045804679 0.0005361095 0.99999964 -0.00060032302 1.7834689e-05
-0.093599334 -0.10734235 -0.04379911 -9.763573e-06 1 -2.0705936e-06 1.3875519e-05
-0.086393505 -0.10734234 -0.043884587 -0 1 -0 1.5809725e-05
-0.07668905 -0.10734234 -0.046083212 1.294462e-05 0.99999952 -0.0010061794 1.6175936e-05
-0.063854486 -0.10734233 -0.044668838 -2.0877619e-06 1 -1.026667e-07 1.3852919e-05
-0.057159249 -0.10734233 -0.0469 -1.0036711e-05 0.99999982 -0.00064494583 1.5876734e-05
-0.045839865 -0.10734233 -0.044751618 -3.2352652e-06 1 -3.7599252e-06 2.1190479e-05
-0.035276413 -0.10734233 -0.045614302 1.2322431e-05 1 -0.00010250923 8.8514007e-06
-0.026658632 -0.10734234 -0.044345304 -2.2846771e-06 1 -1.977595e-06 8.3786372e-06
-0.012690134 -0.10734233 -0.046981286 -3.5838507e-08 1 -4.2849629e-06 1.6580494e-05
-0.0051844395 -0.10734234 -0.046732202 -3.375153e-07 1 -2.0177347e-06 9.702675e-06
0.0051721483 -0.10734234 -0.046937142 -0 1 -0 1.3779952e-05
0.012463193 -0.10734233 -0.044770885 6.0939709e-07 1 -2.6727648e-06 1.3739433e-05
0.026297862 -0.10734234 -0.046844389 0.00048406853 0.99999905 -0.0013178632 6.3816151e-06
0.036264841 -0.10734234 -0.044760559 2.5563945e-06 1 -9.7411394e-06 1.5645041e-05
0.046176072 -0.10734233 -0.045947909 -5.1771523e-05 0.99999905 -0.0014008485 2.2086257e-05
0.05687714 -0.10734235 -0.046901911 2.0222226e-06 1 -2.315134e-06 1.6464825e-05
0.064132884 -0.10734235 -0.044125803 6.2025142e-06 1 -8.1519383e-06 1.271394e-05
0.076492369 -0.10734235 -0.042441171 -0 1 -0 1.4406672e-05
0.086903267 -0.10734233 -0.044820901 8.3594168e-06 1 -8.4746816e-06 1.4002014e-05
0.094204232 -0.10734233 -0.045162775 4.945643e-06 1 -2.4279057e-06 9.940477e-06
0.10075227 -0.10734233 -0.04913358 -0.00023606613 0.99999267 -0.0038252845 3.8164824e-05
0.11327761 -0.10734234 -0.045072399 -0.002825832 0.99999034 -0.0033756567 5.1635612e-05
0.12552649 -0.10734233 -0.044553667 -0.012144484 0.99976575 -0.017919095 0.00029010206
0.13488027 -0.10734233 -0.047221228 -0.016950078 0.99966335 -0.01964226 0.00025414681
0.14697991 -0.10734233 -0.045433234 -0.03386113 0.99780464 -0.056916159 0.00097514945
0.15648954 -0.10683531 -0.043926034 -0.051036213 0.99443793 -0.092132829 0.001389853
0.16280214 -0.10615608 -0.042635944 -0.086417735 0.98756301 -0.13134407 0.0021783318
0.17545231 -0.10555402 -0.04537208 -0.10176196 0.98440784 -0.14347738 0.0022802488
0.18500936 -0.1046061 -0.043679506 -0.22530811 0.95573735 -0.18921539 0.012113947
0.1960894 -0.10430904 -0.046942007 -0.46355778 0.87712628 -0.12555389 0.027923059
0.20169818 -0.10143159 -0.047794025 -0.62666994 0.77302074 -0.098609418 0.035298411
-0.20608488 -0.094652824 -0.04548965 0.74995732 0.65603298 -0.084762238 0.025835821
0.20659578 -0.093750961 -0.043029837 -0.73714763 0.66894019 -0.095563203 0.023291504
-0.2112501 -0.082383983 -0.046044458 0.90724307 0.41857666 -0.041274339 0.0091010267
-0.20914972 -0.088160262 -0.043313779 0.82633966 0.55684918 -0.084153421 0.025444778
0.20892459 -0.088779315 -0.04818292 -0.85867816 0.50847757 -0.064205989 0.016521275
0.21043959 -0.084612891 -0.044634596 -0.89457178 0.44563085 -0.033977576 0.0094914986
-0.21393803 -0.074286647 -0.044464141 0.95596826 0.29343474 -0.0045509781 0.0016131043
0.21305171 -0.07718274 -0.040720575 -0.9300372 0.3659732 -0.033082828 0.0085957339
-0.21592525 -0.065074101 -0.043467354 0.97652483 0.21540344 -0.00080512831 0.00077157601
0.2160345 -0.064563587 -0.043482661 -0.97494787 0.22240628 0.003488319 0.00061189616
-0.21844988 -0.052499853 -0.043212317 0.98825979 0.15276374 0.0024080027 0.00037912847
0.2182463 -0.054186035 -0.04592948 -0.98556131 0.16931774 -0.00069904909 0.00042779525
-0.21939245 -0.044777129 -0.045454334 0.99126542 0.13188165 0.00017662701 0.00038692556
0.21942325 -0.044528212 -0.044429939 -0.99195331 0.12655869 0.0034100881 0.00027972803
-0.22065735 -0.033823833 -0.046082638 0.99595702 0.089813732 -0.0017780777 0.00014013627
0.22058509 -0.03447568 -0.044039119 -0.99603319 0.088981979 -0.00013881066 0.00015148103
-0.22151819 -0.022827055 -0.045234211 0.99793744 0.06419307 0.00031947054 0.00024866409
0.22133847 -0.026446396 -0.045789231 -0.99724746 0.0741423 -0.00069294841 0.00018622506
-0.22179042 -0.016027806 -0.047722425 0.99861419 0.052627057 -5.976071e-05 0.00021316866
0.22178987 -0.016043585 -0.04877856 -0.99898976 0.04490846 -0.0016333223 0.0002499219
-0.22228925 -0.0024480333 -0.04298177 0.99998814 0.0035062677 0.0033755293 0.00018574143
0.22228056 -0.0026846388 -0.044142768 -0.99999976 -0.00052536908 0.00048108617 0.00026203072
-0.22217852 0.0054624025 -0.043311425 0.99985868 -0.016682584 0.0020758887 0.00024984183
0.22220306 0.0047940174 -0.045571119 -0.99985152 -0.017200762 0.0010179291 0.00014949882
-0.22181067 0.015476407 -0.04569716 0.99908423 -0.04278414 0.00049455714 0.0002281005
0.22194237 0.011892224 -0.04450988 -0.99963832 -0.026894206 0.00011653619 0.00020082864
0.22136322 0.025286123 -0.044108644 -0.99749476 -0.070673421 0.0030871546 0.00026985921
-0.22070798 0.033411991 -0.04429663 0.99603772 -0.088929594 -0.00055123743 0.00021874324
0.22068433 0.033589814 -0.044543631 -0.99588269 -0.090611465 0.0027038204 0.00027640429
-0.21935609 0.045109421 -0.044356227 0.99103761 -0.1335253 0.003917167 0.0004037357
0.21954252 0.04337078 -0.04704766 -0.99121463 -0.13225469 -0.0015018296 0.00022424561
-0.21758029 0.057113685 -0.045243081 0.98323661 -0.18232265 -0.0020549148 0.00075341889
0.21803494 0.054492362 -0.045195691 -0.98484451 -0.17343938 0.00027629334 0.00073423958
-0.21616097 0.063973181 -0.044509102 0.97222126 -0.23403488 0.0036686207 0.00073163892
0.21592304 0.06508439 -0.044501651 -0.97449988 -0.22430921 -0.0059343544 0.00075267709
-0.21445456 0.071943507 -0.049864396 0.96609932 -0.25816524 -0.0016759523 0.0011887153
0.21335109 0.076093644 -0.045511678 -0.94848555 -0.31640303 -0.016258309 0.0024308304
-0.2102237 0.085206732 -0.049479563 0.90263778 -0.42903808 -0.03422584 0.010105978
-0.20965143 0.086780526 -0.043241948 0.88117123 -0.46571654 -0.081519432 0.014838255
0.20873658 0.089296415 -0.041664526 -0.8355245 -0.54436624 -0.074594215 0.022318067
0.21089375 0.083363928 -0.043643698 -0.8938241 -0.44668627 -0.039366402 0.016326325
-0.20780413 0.091860726 -0.045743935 0.82864434 -0.55477649 -0.074642941 0.025930962
0.20495802 0.096592307 -0.045521677 -0.7259481 -0.67900401 -0.10932945 0.031013068
-0.20126496 0.10207492 -0.046743482 0.5473637 -0.82335335 -0.14994086 0.031588495
-0.19577393 0.10365251 -0.04335526 0.50811654 -0.84408939 -0.17126204 0.029541593
-0.18544021 0.10474194 -0.04491435 0.26023477 -0.94897771 -0.17809862 0.018697022
-0.17565343 0.10554709 -0.04543544 0.12565345 -0.97279769 -0.19461742 0.005061314
-0.16457097 0.10640659 -0.045551285 0.057139818 -0.98278534 -0.17569257 0.011719219
