# .PCD v0.7 - Point Cloud Data file format
VERSION 0.7
FIELDS x y z normal_x normal_y normal_z curvature
SIZE 4 4 4 4 4 4 4
TYPE F F F F F F F
COUNT 1 1 1 1 1 1 1
WIDTH 576
HEIGHT 1
VIEWPOINT 0 0 0 1 0 0 0
POINTS 576
DATA ascii
-0.19803999 -0.058536436 -0.17587191 0.95856917 0.28469953 -0.0095588816 0.051120352
-0.18786949 -0.057285666 -0.17559648 0.94351828 0.33107519 -0.012743829 0.054320235
0.187227 -0.059008829 -0.17564917 -0.94529772 0.31131831 -0.097432666 0.053583398
0.19949859 -0.055187088 -0.17628026 -0.96031702 0.26240781 -0.094516665 0.058888607
0.20033427 -0.052203175 -0.17468417 -0.95878923 0.27523428 -0.070492715 0.05730436
-0.20079464 -0.048770364 -0.17137644 0.98012328 0.19836777 0.0029359541 0.050814647
-0.19087973 -0.047821015 -0.17250103 0.97479796 0.21894996 -0.042776667 0.059071202
0.19134544 -0.044825163 -0.17330973 -0.96856487 0.24849619 -0.011478375 0.064233877
0.20158756 -0.042683605 -0.17800689 -0.97120947 0.23807776 -0.0084307306 0.063588299
-0.20250691 -0.035310116 -0.17732775 0.99376911 0.11034551 0.015710231 0.047746886
-0.19280824 -0.033172496 -0.1749545 0.99757171 0.069535337 -0.0039399089 0.052760135
0.19274835 -0.034169007 -0.1751899 -0.98367542 0.17794693 0.026788076 0.059921492
0.20245868 -0.036066629 -0.17470792 -0.9847734 0.16069037 0.066332288 0.059127428
-0.2044283 -0.020766122 -0.17779474 0.99112225 0.12737286 0.03811644 0.05318841
-0.19365923 -0.026708625 -0.17395237 0.99398541 0.10109081 0.042115077 0.054147318
0.20351855 -0.028016133 -0.17188492 -0.99485904 0.10114155 0.0050972067 0.045983531
-0.20504864 -0.01645794 -0.1752913 0.9939453 0.10873265 0.015811747 0.058489896
-0.19564357 -0.01163609 -0.17946766 0.99448186 0.093726397 0.047128879 0.055304557
0.19547921 -0.013426272 -0.17411017 -0.99350792 0.11341919 0.0088303294 0.055590868
0.20529914 -0.014491487 -0.17356546 -0.98723465 0.14742395 0.060282063 0.049414303
-0.20669152 -0.0037770532 -0.17639123 0.99448168 0.087098777 0.058480311 0.051150981
0.19714516 -0.00077211729 -0.17741567 -0.99921274 -0.00069445651 0.039666176 0.05160429
0.20701295 -0.0014737984 -0.17752147 -0.99871385 -0.033663001 0.037914235 0.054022945
-0.20646638 0.0052348115 -0.17474347 0.99750316 -0.035645217 0.060966343 0.050442975
-0.19686359 0.0023689449 -0.17903763 0.99851483 0.049219806 0.023359125 0.055581685
0.20682901 0.00287079 -0.17593594 -0.99810195 -0.061491925 -0.0033467205 0.062912442
-0.20536518 0.01405333 -0.17200124 0.99525696 -0.094403341 0.02348762 0.051059578
-0.19535996 0.013790207 -0.17637387 0.99585438 -0.064492889 0.064146996 0.057448335
0.19521171 0.015458066 -0.17075825 -0.9977442 -0.06599652 0.012289989 0.051381398
0.20549579 0.012997647 -0.176717 -0.99647135 -0.083229207 -0.010847636 0.048474152
-0.20386074 0.025278928 -0.17683697 0.99026662 -0.13857889 0.012960344 0.051032402
0.1939761 0.024843171 -0.17757821 -0.99084276 -0.13305087 0.02297966 0.051965807
0.20425498 0.022422444 -0.17933328 -0.99285918 -0.11919986 -0.0046851547 0.053526238
-0.20214218 0.03813098 -0.17757295 0.98619503 -0.15908404 0.045954216 0.048593
-0.19249572 0.035546284 -0.17463247 0.99096054 -0.12301717 0.053515568 0.052880373
0.19262324 0.035119236 -0.17442478 -0.98469532 -0.17145936 0.031255122 0.057899252
0.20256212 0.035280868 -0.17358714 -0.98277467 -0.18181179 0.033140659 0.055364516
-0.20105037 0.04637365 -0.17268553 0.96457881 -0.24299473 0.10267121 0.053659718
-0.19085824 0.047984183 -0.171746 0.96069843 -0.26252797 0.090208024 0.058812127
0.19093077 0.047974706 -0.17628044 -0.95662743 -0.29131368 -0.00059897901 0.056611169
0.20187111 0.040529568 -0.1791096 -0.98547429 -0.16980763 0.0023941128 0.057787385
-0.20044921 0.051192302 -0.17206483 0.95891947 -0.26845294 0.09168686 0.051629506
-0.19726877 0.056093171 -0.17565151 0.94767267 -0.31733295 0.0348753 0.052967321
-0.18944222 0.053488672 -0.1731474 0.94573396 -0.3169868 0.071460418 0.055292882
0.18853588 0.055848837 -0.17275928 -0.92822295 -0.37195507 -0.0071832016 0.052724801
0.19839399 0.05785381 -0.17270589 -0.94131088 -0.33558837 0.036251962 0.055503711
0.200224 0.052837238 -0.17700458 -0.96117067 -0.27595341 0.00079499197 0.065450646
-0.19728382 0.060361896 -0.17422962 0.93312883 -0.35876235 0.023667401 0.051876858
-0.1828908 0.069305241 -0.17651291 0.91933167 -0.39223337 0.031341068 0.050607815
0.18556187 0.063028768 -0.17587243 -0.94205004 -0.33546913 0.0014652821 0.054326784
0.19532534 0.065262184 -0.17915332 -0.93302917 -0.35978109 -0.0037477105 0.055154532
-0.19169995 0.073986858 -0.17394121 0.92135298 -0.38862354 0.008969551 0.050877474
-0.18144439 0.072797127 -0.17678843 0.9281491 -0.37026823 0.037956484 0.052293655
-0.17919943 0.078216985 -0.1754701 0.94884431 -0.31531769 -0.016407734 0.047966786
0.17884538 0.079243779 -0.17446324 -0.94150347 -0.33471301 -0.039223377 0.050534237
0.18178904 0.072137155 -0.17228651 -0.93051368 -0.36258909 -0.051705338 0.048270971
0.19033754 0.077303745 -0.17680316 -0.94277525 -0.3333776 -0.0058523864 0.047218062
-0.18791725 0.083128713 -0.17617044 0.94665158 -0.3219679 -0.013695997 0.048030637
-0.17636396 0.0850624 -0.17151551 0.92832255 -0.36772084 -0.054759677 0.053298641
0.17723766 0.083125152 -0.17040247 -0.92637098 -0.37373951 -0.046427771 0.053067807
0.18616691 0.087372601 -0.17101489 -0.92796749 -0.37137952 -0.030882359 0.056156829
-0.18225944 0.09673012 -0.17716008 0.9223749 -0.38339615 -0.047244057 0.051239125
-0.1712805 0.097334966 -0.17787112 0.89486873 -0.44242856 -0.058880344 0.057055108
0.17304313 0.093251683 -0.17735898 -0.89740974 -0.44032395 -0.02775743 0.058552951
0.18272658 0.095678277 -0.17833734 -0.89790714 -0.43763611 -0.047300171 0.060214445
-0.18028235 0.10140711 -0.17688043 0.89518827 -0.44227356 -0.05506555 0.053495973
-0.17835304 0.10486498 -0.17810155 0.87844449 -0.47665182 -0.033740472 0.054979581
-0.1643668 0.10692981 -0.17622131 0.7844727 -0.61762166 -0.056089908 0.060535688
0.16520508 0.10593022 -0.17611295 -0.80159456 -0.59676057 -0.03637138 0.049297139
0.17738891 0.10627332 -0.17072426 -0.84877658 -0.5287506 -0.0010330348 0.054828014
-0.17328548 0.11152812 -0.17782108 0.76783246 -0.63765067 -0.061925825 0.047630418
-0.16805162 0.11841824 -0.17515726 0.781569 -0.62166929 -0.051741578 0.046714429
-0.156657 0.11697742 -0.17300403 0.77759546 -0.62750685 -0.039756097 0.050105523
0.16475719 0.1146246 -0.17429228 -0.79228324 -0.6083231 -0.047226459 0.046746124
-0.16414228 0.12348528 -0.17575762 0.77708614 -0.62507451 -0.073613785 0.046936668
-0.15318868 0.12474173 -0.17446312 0.76532352 -0.64096648 -0.058666714 0.052123047
-0.14923786 0.12664627 -0.17395656 0.79375201 -0.60781634 -0.022739349 0.054772854
0.15660807 0.12524477 -0.17773318 -0.7795403 -0.62625086 -0.01126448 0.053017531
0.16263559 0.12550023 -0.17283705 -0.7741062 -0.63302583 0.0061500026 0.051171176
-0.1548842 0.13561293 -0.17757776 0.7660405 -0.6427446 -0.0078354627 0.047473457
-0.14407152 0.13337916 -0.17244801 0.73189509 -0.68103993 -0.022677973 0.05562859
-0.13928147 0.13951567 -0.17471403 0.68811578 -0.72533715 -0.019562107 0.053486519
0.14575183 0.13128221 -0.17793934 -0.74661219 -0.6650188 0.017896721 0.054966625
0.15733749 0.13240485 -0.17353345 -0.80169272 -0.5968315 0.032877523 0.051851392
-0.15023418 0.14167297 -0.17943059 0.75522953 -0.65527374 0.015642658 0.052181594
-0.14786722 0.14475764 -0.17693691 0.71663833 -0.69715184 -0.020218303 0.055595405
-0.13376234 0.14378577 -0.17306206 0.64475662 -0.76433116 -0.0093155038 0.05320558
-0.12758116 0.14852875 -0.17363191 0.6517061 -0.75713968 -0.044930659 0.049241289
0.13421321 0.14349452 -0.17379148 -0.71682787 -0.69461727 0.060536381 0.05098141
0.1485326 0.14387962 -0.17804384 -0.73555446 -0.6773988 -0.0095146894 0.054540168
0.15116102 0.1404542 -0.17302938 -0.74905705 -0.66132689 0.039499577 0.052854154
-0.14147152 0.15031737 -0.17311087 0.64544314 -0.76374829 -0.0095680123 0.052365962
-0.13831356 0.15277112 -0.17106149 0.62851071 -0.77767956 -0.013740344 0.049249914
-0.12268633 0.1522847 -0.17270514 0.65214574 -0.75660276 -0.047519621 0.04986408
-0.11411811 0.15885931 -0.17768326 0.63103628 -0.77574933 -0.0024831523 0.049380329
0.11647236 0.15710753 -0.17401963 -0.62633216 -0.77947009 0.011588211 0.049162257
0.12278336 0.15226492 -0.17159238 -0.63320714 -0.77339196 0.0302263 0.047401775
0.13608366 0.15450634 -0.17432112 -0.65484637 -0.75502586 0.033347651 0.053372521
0.14003761 0.15147236 -0.17452952 -0.68299055 -0.72967333 0.033179011 0.049886998
-0.12488121 0.1630598 -0.17640138 0.63573176 -0.77053374 -0.046075504 0.041195586
-0.11311442 0.16585302 -0.17456606 0.59505862 -0.80321074 -0.027528992 0.049999129
0.10826828 0.16340272 -0.17750175 -0.5506593 -0.83254468 0.060363274 0.049639277
0.11451875 0.16483013 -0.17323905 -0.61799181 -0.78564477 0.029129077 0.04654913
0.12410279 0.16369958 -0.17627643 -0.61794055 -0.78404802 0.058465369 0.048926849
-0.11247239 0.1725692 -0.17093819 0.63077211 -0.77549565 -0.027073404 0.056726456
-0.1077076 0.17626202 -0.1763324 0.53863668 -0.84250289 0.0077039376 0.052331116
-0.094192475 0.17260301 -0.17477256 0.44459608 -0.89565569 -0.011622319 0.05203867
-0.089291602 0.17463303 -0.17940375 0.40746364 -0.91317248 0.0094503406 0.049045194
-0.078352675 0.17916407 -0.17299858 0.34737554 -0.9364121 -0.049624879 0.046640389
0.082098529 0.17764202 -0.17438285 -0.41607493 -0.90925181 0.011951169 0.052895881
0.099169664 0.17038432 -0.1772348 -0.43810236 -0.89845508 0.029065965 0.052076895
0.10363506 0.17924905 -0.17281887 -0.41978908 -0.90722913 0.02669071 0.051144335
0.11302163 0.17220244 -0.17325443 -0.57522994 -0.8179816 0.0040746485 0.051551025
-0.10111436 0.18045746 -0.17096947 0.43909252 -0.89734995 -0.044281937 0.047775995
-0.091231249 0.18451817 -0.17975122 0.38853309 -0.92140633 -0.0072450177 0.047341693
-0.084767945 0.18722835 -0.17559209 0.36784995 -0.92896485 -0.041360218 0.048313834
-0.079048209 0.18956453 -0.17727996 0.35311532 -0.93474066 -0.039615132 0.046120767
-0.065021001 0.18468623 -0.17236114 0.37824979 -0.92552119 -0.018372035 0.048590947
-0.052427374 0.18990268 -0.17407805 0.21707983 -0.97527707 -0.041362587 0.060234245
0.054933194 0.18889426 -0.17587157 -0.32712346 -0.94492805 0.010063221 0.057520922
0.066687711 0.18402538 -0.17248248 -0.37095541 -0.9286316 0.0059401616 0.049142964
0.073594324 0.18472743 -0.17772515 -0.38916528 -0.92100245 0.017457152 0.050317213
0.085556388 0.18689832 -0.17299548 -0.38999 -0.92080975 0.004151151 0.057869043
0.096002974 0.18257119 -0.17627023 -0.40316686 -0.91497761 -0.016507037 0.054754067
-0.07547994 0.19105907 -0.17607537 0.35250106 -0.93535292 -0.029292373 0.049704447
-0.066443242 0.19479981 -0.1763792 0.34223068 -0.93927699 -0.025237264 0.051218018
-0.056525394 0.19889377 -0.17135271 0.27334344 -0.96189415 0.0065634274 0.056182846
-0.046658896 0.19106361 -0.17366935 0.1827254 -0.98313874 0.0070488593 0.056210943
-0.031264119 0.19309038 -0.17203718 0.14866976 -0.98886049 0.007221275 0.053732529
-0.024255142 0.19401315 -0.17448992 0.16112532 -0.9869172 -0.0057531819 0.053804103
-0.019594252 0.19462675 -0.17473087 0.1153744 -0.99329776 0.0069434708 0.053124961
0.0057743653 0.19645555 -0.17753612 -0.04579429 -0.99854916 -0.028327642 0.054375712
0.015668383 0.19515298 -0.17581545 -0.08953248 -0.99570155 -0.023715459 0.058941182
0.026257742 0.19375888 -0.1772237 -0.16801211 -0.98486048 -0.042681899 0.050614432
0.034795258 0.19263488 -0.1743353 -0.12322063 -0.99231619 0.011192588 0.053186227
0.047614817 0.19094718 -0.17965624 -0.21603864 -0.97618037 0.019977076 0.059305206
0.057019133 0.1987188 -0.17604049 -0.32487014 -0.94575429 0.0028647063 0.05785238
0.067634426 0.19432181 -0.17877914 -0.36776316 -0.92808408 -0.058397353 0.0543436
0.07277976 0.19219056 -0.17723174 -0.31651127 -0.94695628 -0.055628061 0.049513571
-0.044621069 0.20129207 -0.17191039 0.19630446 -0.97984833 0.036902908 0.058143191
-0.033074483 0.20281219 -0.17414975 0.14819409 -0.98869449 0.022838729 0.055333097
-0.025049532 0.2038687 -0.17220014 0.10786783 -0.99414521 -0.0063177478 0.056752045
-0.016172312 0.20503742 -0.17836283 0.099729732 -0.99495578 0.010815578 0.053369675
0.0055756401 0.20644188 -0.17202927 -0.029612256 -0.99950498 -0.010626488 0.054878939
0.014537744 0.20526201 -0.17400035 -0.12962501 -0.9911927 -0.027099714 0.058423724
0.02801601 0.20348756 -0.17799033 -0.14630081 -0.98922276 -0.0058585522 0.050801534
0.039195247 0.20201579 -0.17858514 -0.14290442 -0.98972565 -0.0046332553 0.049471658
0.044008479 0.20138213 -0.17345552 -0.18074498 -0.9834587 0.01184559 0.053055651
-0.047584239 -0.20090204 -0.16584308 0.17328705 0.98439926 -0.030489964 0.050683927
-0.036321744 -0.20238478 -0.16573229 0.11704069 0.99303657 0.013406287 0.04868621
-0.022237543 -0.20423903 -0.16016254 0.075252019 0.99715543 0.0042601842 0.051766638
-0.010277969 -0.20581357 -0.16388935 0.10650059 0.99391836 -0.027996255 0.049783982
-0.0068246997 -0.20626819 -0.16891241 0.060322035 0.99817258 0.0035857272 0.05224805
0.0033478928 -0.2067353 -0.16159192 0.01857849 0.99952686 0.024513392 0.050874203
0.015713582 -0.20510733 -0.16338149 -0.096086964 0.99530542 0.011596338 0.050959986
0.024620268 -0.20393473 -0.16955243 -0.10411914 0.9945333 0.0079229735 0.049953789
0.034858346 -0.20258686 -0.16486406 -0.19987169 0.97896707 -0.040923834 0.058339417
0.04290764 -0.20152713 -0.16512781 -0.19841516 0.97846425 -0.056914683 0.062251244
0.050587408 -0.20051605 -0.16068891 -0.25602555 0.96532708 -0.050936446 0.052474085
-0.074361727 -0.19152643 -0.16540018 0.36012658 0.93270624 -0.019182807 0.047519282
-0.064500108 -0.19560163 -0.16498053 0.33448002 0.94216514 -0.021164238 0.043888085
-0.059697695 -0.19761284 -0.16215271 0.28426242 0.95866662 -0.012371005 0.052000169
-0.033913787 -0.19274165 -0.16699089 0.11477361 0.99338788 -0.0027429464 0.053966474
-0.023683546 -0.19408849 -0.16396271 0.1344192 0.99067211 -0.022363652 0.052709356
-0.007165174 -0.19626321 -0.16514081 0.11252511 0.99337238 -0.023442611 0.056632962
0.016749531 -0.19501078 -0.16338482 -0.13219331 0.99120402 0.0062920609 0.050255649
0.036024608 -0.19247314 -0.16511014 -0.20837505 0.97649932 -0.05503542 0.059632748
0.045979686 -0.19116253 -0.16162507 -0.21652631 0.97579741 -0.030590853 0.052468006
0.055368971 -0.19583957 -0.16288114 -0.24279296 0.96879184 -0.049939066 0.051296167
0.065858446 -0.19505753 -0.16476433 -0.33203271 0.94304705 -0.020412296 0.049984857
0.07507959 -0.19123802 -0.16364965 -0.35405478 0.93519896 -0.0069431667 0.053378634
-0.097782575 -0.18182661 -0.16322576 0.44505638 0.89535469 -0.01627139 0.049903851
-0.088275455 -0.18576457 -0.16379686 0.43526852 0.89998448 -0.023859849 0.046891414
-0.077941887 -0.18469508 -0.16522746 0.35370693 0.93524456 0.014453688 0.048231956
-0.058359526 -0.18744558 -0.16212347 0.26779488 0.96336144 -0.014855663 0.050557066
0.056525461 -0.18823479 -0.16512698 -0.27361369 0.96151936 -0.024819473 0.05170564
0.063664317 -0.1852778 -0.16467081 -0.33273888 0.94225937 -0.037843812 0.05247524
0.080060005 -0.18917505 -0.16535836 -0.39806485 0.91725308 -0.013822357 0.049323875
0.096267655 -0.18246165 -0.16457897 -0.47723591 0.87794065 0.038290944 0.048154496
-0.11262847 -0.17250045 -0.16681838 0.55224991 0.83233601 -0.047295578 0.048148643
-0.10666332 -0.17706747 -0.16576053 0.51310664 0.85825521 -0.010933506 0.055144127
-0.099142939 -0.17035021 -0.16970409 0.47360402 0.88059288 0.015984267 0.051411372
-0.082421005 -0.177479 -0.16073824 0.42882067 0.903054 -0.024624331 0.056150232
0.084708855 -0.17656085 -0.16884661 -0.45217794 0.8919155 -0.0046805157 0.054600906
0.097935706 -0.17108211 -0.16748987 -0.53536427 0.84332532 0.04677017 0.055920687
0.10708965 -0.17675431 -0.16629562 -0.51865822 0.85404438 0.040023454 0.053792529
-0.12326135 -0.16433136 -0.16683514 0.61798149 0.78615123 0.008069464 0.045071401
-0.11792555 -0.16841547 -0.16562779 0.61116368 0.79131478 -0.017317243 0.048935868
-0.10451061 -0.16623145 -0.16420715 0.54553157 0.83638167 -0.053488247 0.055594437
0.10472485 -0.16612175 -0.16825965 -0.55343425 0.83033526 0.065221362 0.050831135
0.11629167 -0.16969335 -0.16549245 -0.62892652 0.77607387 0.046485078 0.051971402
0.12559493 -0.1625547 -0.16403425 -0.60756081 0.79345459 0.036050856 0.051424854
-0.14125425 -0.15048417 -0.16807011 0.69285691 0.72096711 -0.012476342 0.053640105
-0.13519107 -0.15517737 -0.16450639 0.67324054 0.7394225 0.001266308 0.046541948
-0.124506 -0.15088849 -0.16277754 0.64097351 0.76725715 -0.021665649 0.051132314
-0.11484249 -0.15830356 -0.16198879 0.62355465 0.78152275 -0.020042701 0.049201332
0.11521092 -0.15807553 -0.16084325 -0.60558623 0.79577094 0.0037390541 0.052740261
0.13533939 -0.1550775 -0.16262841 -0.61207247 0.78993791 0.036953337 0.05563147
0.14087914 -0.15082669 -0.162112 -0.63226634 0.77474964 0.0014907127 0.058475219
-0.1444986 -0.1479011 -0.16498627 0.72027606 0.69368327 -0.0024184242 0.059333254
-0.13624591 -0.14188015 -0.16282707 0.70966709 0.70438683 -0.014553687 0.055095099
0.12855074 -0.14783956 -0.16737919 -0.61301804 0.79006612 0.0021099469 0.057471916
0.1344054 -0.14334711 -0.16569489 -0.64083624 0.76683372 -0.035985403 0.057209115
0.14404732 -0.14839567 -0.16422652 -0.6895889 0.72353154 -0.031130461 0.06236732
-0.15583341 -0.13432409 -0.16507639 0.78037453 0.62269944 -0.057105489 0.04682852
-0.14509729 -0.13204244 -0.16608666 0.75422484 0.65629077 -0.020670211 0.053906314
0.15819004 -0.13129386 -0.16887411 -0.76278585 0.64490455 -0.047495734 0.046856109
-0.16413346 -0.12349985 -0.16615258 0.75367332 0.65019506 -0.09603633 0.041994654
-0.15008797 -0.12553844 -0.167703 0.73248261 0.6755662 -0.084140122 0.048297241
-0.14738384 -0.12906253 -0.16536482 0.76341951 0.64404166 -0.048999891 0.048433229
0.15292606 -0.12193266 -0.16711804 -0.78445965 0.61605191 -0.071435608 0.052383151
0.16294762 -0.12509367 -0.16481361 -0.80340934 0.58866829 -0.089460097 0.052375905
-0.17239812 -0.11273654 -0.16774559 0.84166002 0.53986669 -0.012343653 0.052215256
-0.16644247 -0.11507368 -0.16435891 0.74264634 0.6623643 -0.098742336 0.043698579
-0.15745485 -0.11593772 -0.16087408 0.7353949 0.67589444 -0.048590597 0.045309909
0.15729333 -0.1162411 -0.16672271 -0.83524358 0.53988725 -0.10435458 0.051767379
0.16869706 -0.11760087 -0.16884933 -0.81161916 0.58182806 -0.052443922 0.052699931
0.17174068 -0.11363433 -0.16400887 -0.83607167 0.54839844 -0.015597585 0.057949837
-0.18037641 -0.10118011 -0.16374338 0.88491219 0.4653095 -0.020431209 0.052594479
-0.17721653 -0.10647438 -0.16245799 0.86291957 0.50526655 -0.008689817 0.048729256
-0.16203545 -0.10996817 -0.16458079 0.77376258 0.62786341 -0.084136628 0.048395768
0.16615599 -0.10469103 -0.16328956 -0.84268713 0.53836572 0.0063881702 0.058524463
-0.18126284 -0.099136248 -0.16483745 0.88585454 0.46396208 0.00092081953 0.052652296
0.17245097 -0.094681367 -0.16353682 -0.88027972 0.4731622 -0.035002984 0.052704558
-0.18693531 -0.085422419 -0.16435182 0.92682278 0.37519088 0.015211975 0.051949751
0.17794348 -0.081421234 -0.16588739 -0.9163788 0.400087 0.013429543 0.053084407
0.18635896 -0.086909026 -0.16483498 -0.92016035 0.390681 0.025949048 0.051433008
-0.1917171 -0.073883697 -0.16643222 0.91666198 0.39898837 -0.023216197 0.04734375
-0.18932837 -0.07966432 -0.1655066 0.92078376 0.38998297 -0.0084027462 0.051101275
0.18598002 -0.074921578 -0.16729479 -0.92630839 0.37665698 0.0090691317 0.047201831
0.19151282 -0.074466519 -0.16747424 -0.93188 0.36184204 0.025884405 0.047617909
-0.19536863 -0.065113932 -0.16477096 0.91688848 0.39912227 0.0041175811 0.052192263
-0.18369424 -0.067365602 -0.16433756 0.90595502 0.42046136 -0.04957724 0.054721698
0.18614432 -0.061622672 -0.16359906 -0.94697106 0.3209109 -0.01618759 0.052321136
0.19568375 -0.064396977 -0.16449648 -0.93837935 0.34559277 -0.0031222163 0.052434493
-0.20022269 -0.052591752 -0.16689475 0.96706003 0.25430623 -0.011102853 0.055492379
-0.19835053 -0.057902157 -0.16601083 0.93892539 0.34208089 0.037412979 0.052612856
-0.1876955 -0.057705723 -0.16826895 0.9329614 0.35941613 0.020076646 0.049631998
0.18703577 -0.059470467 -0.16998088 -0.93339479 0.34601626 -0.095115185 0.054632559
0.19005497 -0.052181538 -0.16300812 -0.95722234 0.28933412 -0.0033463403 0.054245126
0.20041983 -0.051553205 -0.16558293 -0.94921649 0.31453395 -0.0075205448 0.057613928
-0.20108555 -0.046056196 -0.16571213 0.9872756 0.1519188 0.046985392 0.05201726
0.19161391 -0.042785827 -0.16400267 -0.97037572 0.23784752 -0.042420156 0.062699497
0.20078918 -0.048747566 -0.16728485 -0.96590346 0.25868219 -0.010680834 0.063808396
-0.20273508 -0.033652671 -0.16428138 0.99526012 0.093838766 0.025526004 0.049584825
-0.19246101 -0.03580999 -0.16523694 0.99243462 0.10794331 0.058496647 0.049937297
0.19274077 -0.034226507 -0.16517618 -0.98432231 0.17378552 -0.030137613 0.06062587
0.20230524 -0.03723206 -0.16565627 -0.98673934 0.16173592 -0.013674962 0.059569385
-0.20362692 -0.02665161 -0.16446081 0.99574828 0.092078701 0.0026508775 0.057419248
-0.19428167 -0.021980753 -0.16503219 0.9950788 0.097299322 0.01873545 0.056654051
0.19352041 -0.028304668 -0.16701165 -0.99483734 0.098352678 0.025008922 0.053851962
-0.20523411 -0.014746364 -0.16422135 0.9925977 0.12143758 -0.0016853459 0.053784888
-0.19492577 -0.017088275 -0.16805544 0.99100167 0.13253118 0.018739684 0.054063525
-0.20640367 -0.0055599287 -0.16526265 0.99674684 0.075245753 0.028874567 0.052577104
-0.19653164 -0.0048904233 -0.16460827 0.99712682 0.073286749 0.019162461 0.059433699
0.19683093 -0.0031591502 -0.16515613 -0.99567097 0.015437546 -0.091656901 0.053680208
0.20598897 -0.0092516961 -0.16754952 -0.99677199 0.046024684 -0.065781645 0.04938041
-0.20659918 0.0040747602 -0.16580008 0.9993853 0.015740316 0.031323764 0.051784862
-0.19613154 0.0079293204 -0.16492447 0.99831396 -0.015175172 0.056025952 0.052422583
0.19675858 0.0037083793 -0.16366263 -0.99948579 0.015470685 -0.028085608 0.054195315
-0.20496473 0.016792471 -0.1658863 0.99252218 -0.11978756 0.023465088 0.047103684
0.19512643 0.016105764 -0.16448189 -0.99773133 -0.064753748 0.01841661 0.053438671
0.20584558 0.010340771 -0.16837412 -0.99772632 -0.067383341 -0.0013258602 0.055870019
-0.20373353 0.02608363 -0.16570318 0.99332094 -0.11294319 0.023606539 0.050459594
-0.19366892 0.026634989 -0.16443406 0.9900434 -0.14001195 0.01451335 0.050666567
0.19406736 0.024150224 -0.16369487 -0.99414355 -0.10510332 0.025138248 0.053455066
-0.20227769 0.036899738 -0.16298404 0.99519789 -0.094199404 0.026598943 0.048838682
0.19243634 0.036538787 -0.16489896 -0.98519593 -0.17138304 -0.0040996666 0.055912599
0.20293567 0.032443553 -0.16821387 -0.9883672 -0.14889517 -0.030991247 0.056629024
-0.20118871 0.04553473 -0.16316113 0.98052937 -0.19111831 0.045122527 0.048537031
-0.19128129 0.044770837 -0.16150433 0.9705162 -0.23838946 0.035618477 0.05287613
0.19118604 0.046035863 -0.16280082 -0.95851767 -0.28446832 0.017933644 0.060397711
0.2014337 0.043851972 -0.16435359 -0.98347443 -0.16695416 0.070030786 0.053931609
-0.2004751 0.051197365 -0.16461942 0.96104497 -0.26648557 0.07333485 0.046305455
-0.19911236 0.055947434 -0.16017278 0.93114161 -0.36453775 -0.0093547506 0.051879138
-0.18884631 0.054927323 -0.16363311 0.93539119 -0.35262004 0.026504084 0.057289086
0.18781513 0.057588905 -0.16428229 -0.93103218 -0.36330086 0.034520049 0.054038838
0.19497514 0.053091798 -0.16758864 -0.95781749 -0.28309745 0.04941158 0.059123289
0.20022742 0.05301448 -0.16091317 -0.94286078 -0.32815284 0.057700496 0.058621075
-0.19600666 0.063500203 -0.16405021 0.89859962 -0.4374572 0.03391045 0.04409191
-0.18341847 0.068031281 -0.16761766 0.91316283 -0.40633628 0.032007299 0.053915277
0.18461236 0.065321088 -0.16516167 -0.93074626 -0.36562672 0.0053246496 0.057170205
0.19594102 0.063775815 -0.16402031 -0.9239552 -0.38129124 0.030392829 0.052686851
-0.19204667 0.073005512 -0.16177511 0.90875238 -0.41721693 0.0099582272 0.044207178
-0.18405551 0.075158983 -0.16470651 0.92000788 -0.3914195 -0.01939695 0.047545586
-0.17938244 0.077775113 -0.16200399 0.93035108 -0.36485752 -0.036412738 0.05369981
0.18231934 0.070856929 -0.16219971 -0.91937226 -0.39338461 -0.001769098 0.05126005
-0.18598871 0.087823041 -0.16630141 0.93505359 -0.35226059 -0.039839983 0.053152949
-0.17705274 0.083399549 -0.16598107 0.91277266 -0.40827319 -0.012610978 0.059665322
0.17714936 0.08333838 -0.16363256 -0.92488652 -0.37172708 -0.080024391 0.054223243
0.18653241 0.086490206 -0.16587263 -0.9457261 -0.31585887 -0.076389357 0.05430812
-0.18332511 0.094176605 -0.16452377 0.92515635 -0.37883368 -0.023887506 0.052795872
-0.17159466 0.096576497 -0.16085537 0.89033329 -0.45464841 -0.024525631 0.058289386
0.17214333 0.095423989 -0.16564411 -0.88234127 -0.46925294 -0.035715159 0.054518554
0.18316574 0.09461806 -0.16447435 -0.91253835 -0.40565243 -0.052150853 0.054306999
-0.17870364 0.1044667 -0.16553307 0.88361442 -0.46446535 -0.059140291 0.050470427
-0.16613545 0.10462485 -0.16735089 0.80704516 -0.5838697 -0.088171639 0.054534037
0.16397342 0.10753535 -0.16455677 -0.8381564 -0.54542851 -0.001253793 0.052968502
0.17996649 0.10234176 -0.1681904 -0.87084776 -0.4898856 0.04045105 0.055345908
0.18012242 0.10196529 -0.16806531 -0.87084866 -0.48988375 0.04045596 0.055342518
-0.17333306 0.11150071 -0.16413383 0.82641166 -0.56265861 -0.021425059 0.052346632
-0.16868883 0.11762238 -0.16445273 0.77188295 -0.63425261 -0.043820102 0.048881698
-0.15632334 0.11741225 -0.16181427 0.8008309 -0.598831 -0.0084444601 0.052396335
0.15639129 0.1174166 -0.16649823 -0.79178852 -0.61076975 0.0055937748 0.05250543
0.16180632 0.11035958 -0.16789931 -0.78643358 -0.61766601 0.0033178539 0.047649052
-0.16186707 0.12649193 -0.16473654 0.79649931 -0.60429871 -0.020296216 0.050077375
0.14986302 0.12592441 -0.16631936 -0.80975682 -0.58669811 0.0089046741 0.055805054
0.15277231 0.12213296 -0.16467193 -0.78957689 -0.61246347 0.038170431 0.051331777
0.16538677 0.12191482 -0.16797662 -0.7880668 -0.61435777 0.038926717 0.050213065
-0.15474826 0.13574858 -0.16598122 0.78752893 -0.61554688 -0.030004459 0.061622102
-0.14253883 0.13537662 -0.1633468 0.72267497 -0.69117337 -0.0044950647 0.062516153
0.14111489 0.13732523 -0.1679858 -0.73330277 -0.67988759 -0.0044643641 0.059310917
0.15516984 0.13522978 -0.16440451 -0.79149026 -0.61113161 -0.0078268154 0.053104889
-0.15020986 0.14170466 -0.16134389 0.74337459 -0.66878939 0.010725139 0.064708449
-0.14543295 0.14689803 -0.16190858 0.65398723 -0.75640035 0.012620326 0.059486952
-0.13451995 0.14320445 -0.1644489 0.62841892 -0.77730191 0.029855559 0.060811896
0.12759644 0.14857174 -0.1656059 -0.68309021 -0.72826195 0.05497621 0.0490763
0.13446251 0.14330322 -0.16369504 -0.69781291 -0.71627647 0.0022516684 0.05713515
0.14433457 0.14817518 -0.1620733 -0.72673941 -0.68607861 0.033854201 0.057164375
-0.13595688 0.15458383 -0.1641265 0.61460823 -0.78860939 0.018761268 0.054631412
-0.12065502 0.15384337 -0.16400081 0.66282791 -0.74845701 -0.021709925 0.049961142
-0.11585432 0.15752707 -0.16310124 0.64899713 -0.76035661 -0.025700234 0.051986545
0.13300887 0.15686572 -0.16704756 -0.65029955 -0.75957 0.012800572 0.048500739
-0.12092046 0.16610715 -0.16808312 0.66348416 -0.74742728 -0.033784114 0.045805432
-0.10231571 0.1679156 -0.16642404 0.50886381 -0.85863274 -0.061704643 0.056598771
0.10266925 0.16769902 -0.16404556 -0.51678079 -0.85488605 -0.04590654 0.05751108
0.11824606 0.16819359 -0.16350955 -0.60939187 -0.79282689 -0.0081916582 0.049249381
0.1253249 0.16276182 -0.16448945 -0.6496464 -0.75990951 -0.022295386 0.049817048
-0.11452641 0.17101347 -0.16515642 0.61435163 -0.7887969 -0.019275634 0.054613285
-0.1068664 0.17688306 -0.16323265 0.53587437 -0.84409696 -0.018408874 0.055379339
-0.090774372 0.17401884 -0.16515401 0.36826769 -0.92910719 -0.03374524 0.055751916
-0.087964743 0.17518263 -0.16384768 0.37692913 -0.92573303 -0.030705439 0.04983395
0.077685982 0.17946975 -0.16111225 -0.34011099 -0.9401834 0.01948411 0.052149523
0.087662786 0.17533723 -0.16348061 -0.38471767 -0.92299986 0.0079725431 0.061041202
0.093446404 0.17294157 -0.16349448 -0.44398853 -0.89582282 0.019381024 0.055748053
0.10653975 0.17717619 -0.16547781 -0.47618413 -0.87872785 -0.032954011 0.057159569
0.11022481 0.17434856 -0.16871345 -0.50855577 -0.86076277 -0.02141506 0.047755804
-0.10115242 0.1804197 -0.16635688 0.45227966 -0.89069366 -0.045911986 0.050035808
-0.097467795 0.18193492 -0.16520259 0.41633093 -0.90911233 -0.013535761 0.048880156
-0.082870543 0.18800768 -0.16662979 0.35867971 -0.93274027 -0.036666702 0.049140327
-0.074441381 0.18078418 -0.16339922 0.36511096 -0.93001795 -0.041959062 0.050679777
-0.064402856 0.18494229 -0.1654001 0.39979869 -0.91657609 0.0070137521 0.059537519
-0.054837346 0.18890445 -0.16393022 0.28854749 -0.95746505 0.0010081213 0.054590236
0.054754101 0.18896843 -0.16706091 -0.30173069 -0.95286727 0.031663742 0.055119965
0.064837955 0.18479158 -0.16718131 -0.36031723 -0.93147677 0.050224394 0.048679184
0.074735694 0.18069181 -0.16714889 -0.37188327 -0.92826664 -0.0048879655 0.05444178
0.085148007 0.18706746 -0.16272484 -0.40338233 -0.91274065 0.064709388 0.05808574
0.09439785 0.18323605 -0.16384426 -0.39302406 -0.91951388 0.0051321466 0.051017206
-0.073104136 0.19204314 -0.16333658 0.35345787 -0.93491369 0.03168368 0.052516717
-0.061743177 0.1967655 -0.16568619 0.32029098 -0.94598436 -0.05027359 0.054219931
-0.051009171 0.19044442 -0.16844848 0.26221246 -0.96492386 -0.012905468 0.051537599
-0.044578265 0.19133756 -0.16995011 0.18252754 -0.98304552 -0.017469494 0.055884354
-0.034335397 0.19268605 -0.16545615 0.11089748 -0.99339491 0.029467579 0.052269209
-0.01676156 0.19499969 -0.16536883 0.090073995 -0.99593198 0.0024945622 0.052978888
-0.0049599796 0.19655338 -0.16930825 0.036244735 -0.99932843 -0.0053785089 0.052686337
0.001324308 0.19704141 -0.16470574 -0.0090083927 -0.99994457 0.005440027 0.055024534
0.014458477 0.19531226 -0.167143 -0.10797706 -0.993922 0.021451717 0.058677033
0.034432922 0.19268259 -0.16489899 -0.14316319 -0.98951471 -0.019104116 0.051432598
0.044801492 0.19131753 -0.16659501 -0.22178127 -0.9750579 0.0086771874 0.052625872
0.052625224 0.19505849 -0.16850922 -0.29783395 -0.95461524 -0.0021626209 0.051421937
0.063719697 0.19594334 -0.16529025 -0.33588135 -0.94138461 0.031284541 0.049599811
0.074043527 0.19166708 -0.16056144 -0.39883879 -0.91607702 0.041600585 0.048562109
-0.053803317 0.2000213 -0.16897997 0.26473835 -0.96429819 -0.006527103 0.051438093
-0.041831672 0.20165929 -0.16493267 0.19352636 -0.98102796 0.011477306 0.054957595
-0.033017095 0.20281976 -0.16758278 0.11192823 -0.99323255 0.031001613 0.05295692
-0.024949491 0.20388187 -0.16298185 0.11133514 -0.99361688 0.018163694 0.053878844
-0.016634272 0.20497659 -0.16442996 0.049899086 -0.99873227 0.0066307592 0.052361377
-0.0095486511 0.20590943 -0.16235128 0.10858916 -0.99346536 0.035141781 0.054692317
0.0085273068 0.20605329 -0.16080062 -0.040644448 -0.99908268 0.013488596 0.0579364
0.015738741 0.20510387 -0.1670745 -0.098067142 -0.99517828 -0.0017583026 0.060945202
0.028220283 0.20346066 -0.16991539 -0.10433866 -0.99436092 0.018967086 0.047924142
0.045839179 0.2011411 -0.16529104 -0.20432575 -0.97890264 -0.00081202562 0.052987456
-0.046119642 -0.20109487 -0.15302004 0.23062496 0.97161144 0.052757349 0.056102652
-0.037073117 -0.20228589 -0.15751141 0.14937019 0.98877853 -0.0023776672 0.055718318
-0.023640253 -0.20405436 -0.15775684 0.088136531 0.99610776 0.001173311 0.049808696
-0.019737137 -0.20456822 -0.15126549 0.12786382 0.99165809 0.016286299 0.052898273
-0.0058943182 -0.20639066 -0.15313672 0.073337726 0.99651676 0.039697889 0.056686655
0.0043024798 -0.20660964 -0.15069956 -0.061483935 0.99801272 -0.013799368 0.048595309
0.013892468 -0.20534709 -0.1546371 -0.090298958 0.99530858 -0.034739874 0.052886762
0.025495777 -0.20381945 -0.15689436 -0.15395314 0.98803246 -0.0094995722 0.05063637
0.033687983 -0.20274094 -0.15195012 -0.1768488 0.98415869 -0.012496207 0.053422932
0.047594056 -0.20091015 -0.15568711 -0.25691289 0.96610516 0.025232451 0.05639901
-0.074572064 -0.19142693 -0.15600137 0.37620556 0.92566144 0.040251676 0.05309597
-0.066451021 -0.19479902 -0.15473711 0.33366883 0.9422214 0.02973284 0.054728165
-0.057325181 -0.19857357 -0.15172686 0.25597632 0.9651795 0.053893488 0.047243062
-0.043260001 -0.19151118 -0.15348932 0.19104461 0.98061985 0.043435421 0.058355942
-0.033572648 -0.19278656 -0.15669471 0.10559332 0.99401128 0.028135089 0.055216171
-0.026355067 -0.19373679 -0.1555682 0.090936147 0.99542201 0.029419331 0.054753698
-0.014261635 -0.19532894 -0.15221222 0.15884882 0.98727059 0.0079880888 0.049015146
-0.0038958213 -0.19669363 -0.15944168 0.087513499 0.99602085 0.016851244 0.05955578
0.0041353111 -0.19667149 -0.15513423 -0.060725655 0.99815267 0.0018969594 0.053539418
0.029780928 -0.19329515 -0.15631287 -0.16748279 0.98583013 0.0094131641 0.057631329
0.030827533 -0.19315735 -0.15162231 -0.16813859 0.98576254 -0.0012353881 0.052472848
0.046290975 -0.19112153 -0.1554551 -0.24796817 0.96870333 -0.011214492 0.055037428
0.068989038 -0.1937608 -0.15928644 -0.32816321 0.94115102 -0.080892362 0.044535164
0.072799906 -0.19218229 -0.15221581 -0.31328902 0.94846344 -0.047614813 0.04753717
-0.100257 -0.18081266 -0.15827343 0.46834674 0.88268679 -0.038928125 0.049356107
-0.09579394 -0.18265471 -0.15433244 0.46318972 0.88533103 -0.040549215 0.050319899
-0.084342122 -0.1874048 -0.15442003 0.36882421 0.92938584 -0.014513445 0.05041882
-0.062942922 -0.18554707 -0.1567618 0.33917344 0.94046247 0.022174139 0.056249373
0.054507025 -0.18907085 -0.15410346 -0.25857237 0.96557182 -0.028485417 0.057308756
0.071029902 -0.18222685 -0.15873602 -0.32278818 0.94536084 -0.045834512 0.050469805
0.085687257 -0.18684417 -0.15626217 -0.43585527 0.89331824 -0.10960328 0.048421826
0.093671724 -0.18353692 -0.15559235 -0.44163528 0.89607435 -0.044823013 0.049081072
-0.11375573 -0.1716212 -0.15447612 0.58173066 0.81331557 0.010350158 0.050370105
-0.10523853 -0.17808139 -0.15562685 0.47971931 0.87704778 -0.025621554 0.05110272
-0.093300961 -0.17297238 -0.15296127 0.47828421 0.87585819 -0.064161167 0.053993527
-0.086285308 -0.17587835 -0.15620187 0.43016693 0.90257657 -0.017661434 0.0535708
0.084046714 -0.17683513 -0.15477474 -0.44672751 0.89125347 -0.078114711 0.047034346
0.098921537 -0.1705748 -0.15739711 -0.48198956 0.87530506 -0.039077982 0.053279255
0.10661969 -0.17711492 -0.1551173 -0.50646466 0.86225677 -0.0025835279 0.060297381
0.11296048 -0.17224947 -0.15531148 -0.58246249 0.81285745 0.00050838164 0.057913046
-0.12266314 -0.16479038 -0.15462996 0.60161513 0.7987715 -0.004828793 0.045403618
-0.11808661 -0.16826135 -0.15468286 0.60842699 0.79360771 0.0018390907 0.04431247
-0.10570782 -0.1653128 -0.15705565 0.53107798 0.84727085 0.0093920827 0.056190573
0.10348382 -0.16707404 -0.15142404 -0.5697211 0.82081443 -0.041005634 0.05237373
0.11791256 -0.1684496 -0.15740559 -0.62084782 0.78377545 0.015620241 0.051617082
-0.14135373 -0.15046898 -0.1502905 0.70187229 0.71220994 -0.011505978 0.05211588
-0.13291501 -0.15692385 -0.15425169 0.6495285 0.76033163 0.0029341402 0.050424017
-0.12498677 -0.15364662 -0.15733667 0.63314474 0.77399242 0.0079760263 0.051285226
0.11669572 -0.15693621 -0.1530382 -0.63033813 0.77580166 0.028384529 0.051500101
0.12401819 -0.15131749 -0.15566464 -0.58471167 0.81118143 -0.0098478766 0.05325155
0.13489114 -0.15542148 -0.15377732 -0.60818571 0.79363662 -0.015843203 0.054038815
0.14180608 -0.15011545 -0.15492596 -0.62247169 0.78259766 -0.0083651328 0.057459421
-0.15116744 -0.1404568 -0.15670422 0.75863189 0.65130293 -0.016798515 0.055309746
-0.14556992 -0.14720093 -0.15606472 0.71638185 0.69769025 0.0050348062 0.052256085
-0.12914722 -0.14732717 -0.1503554 0.68602395 0.72576141 -0.0513946 0.049544889
0.12708244 -0.14896622 -0.15312006 -0.61463588 0.78867084 -0.014873874 0.054114334
0.13408482 -0.14359312 -0.15384786 -0.6164481 0.78699279 0.025178775 0.058176957
0.1465956 -0.14607713 -0.15432213 -0.71795732 0.69368464 0.05778297 0.055973191
-0.15547189 -0.13481747 -0.15622832 0.78241855 0.62274206 -0.0036730161 0.049943417
-0.14102595 -0.13734832 -0.15475665 0.7495454 0.66193014 0.0055000568 0.058899943
-0.13960418 -0.13920119 -0.15579043 0.73154688 0.68145531 0.021398352 0.055364754
0.13939953 -0.139515 -0.15597396 -0.72220433 0.69147146 0.016977031 0.061722264
0.15504624 -0.13539094 -0.1559388 -0.78886157 0.61456752 0.0020565859 0.048283823
-0.16364747 -0.12413483 -0.15458739 0.74849945 0.66313505 0.00077464239 0.045017201
-0.15589741 -0.12613001 -0.15510845 0.76891106 0.63930166 -0.0083204508 0.046230212
-0.14719149 -0.12931322 -0.15245563 0.78323537 0.62112546 0.02730559 0.049805179
0.14694691 -0.12972486 -0.15054573 -0.79020059 0.61279458 -0.0081079034 0.051825665
0.15417597 -0.12030375 -0.15832652 -0.77898067 0.61108202 -0.14059842 0.052176304
0.16492069 -0.12252234 -0.15418783 -0.78393829 0.61944944 -0.041511532 0.053741146
-0.1727812 -0.1122373 -0.15460913 0.79470271 0.60605675 -0.033803258 0.047511909
-0.1667394 -0.11602982 -0.15449503 0.77327555 0.63367337 -0.022427056 0.046810653
-0.15803754 -0.11517834 -0.15529591 0.76132703 0.64626962 -0.052122299 0.049348768
0.1572765 -0.11626305 -0.15587047 -0.76977438 0.62664205 -0.12152039 0.05180493
0.1679002 -0.11863935 -0.15348765 -0.77017307 0.63620377 -0.045587223 0.056800518
0.17079148 -0.11487134 -0.15856114 -0.78794217 0.61259872 -0.062208157 0.053576883
-0.17717245 -0.10648058 -0.15411597 0.85087317 0.52524704 -0.01141676 0.051156368
-0.16872658 -0.10124809 -0.15115368 0.84171313 0.53974062 -0.014109598 0.051172927
0.16810653 -0.10214906 -0.15651502 -0.81833971 0.57473129 -0.002041331 0.056820337
0.17735219 -0.10632128 -0.15826935 -0.83318102 0.55269903 0.01825011 0.059460621
0.18027993 -0.10158512 -0.15357532 -0.87569028 0.48254937 0.017686468 0.056337923
-0.18213177 -0.096980795 -0.15481739 0.90505463 0.42519209 0.0093726031 0.047267873
-0.17165604 -0.096355692 -0.15565315 0.88803452 0.45966145 -0.010299079 0.053292371
0.17226672 -0.095126145 -0.15387127 -0.88098836 0.47302482 0.010343981 0.054744698
0.18204631 -0.097320698 -0.15346089 -0.91840947 0.39390013 0.036968544 0.046690021
-0.18615292 -0.087330565 -0.15616921 0.93422145 0.35655439 -0.0099621899 0.053804021
-0.17569114 -0.086686827 -0.15970452 0.92230433 0.38626805 0.012317605 0.049662627
0.18626933 -0.087125406 -0.15441945 -0.92073262 0.38894182 -0.031235794 0.053032715
-0.19139692 -0.074646369 -0.15362325 0.92012751 0.39124438 0.017118959 0.054452825
-0.18230322 -0.070723839 -0.15271555 0.91563874 0.40146983 0.02068066 0.060002629
-0.1794579 -0.077593036 -0.15521188 0.93468511 0.35543984 -0.0051241918 0.052335359
0.18238825 -0.070690632 -0.15189791 -0.93064761 0.36334637 0.043296255 0.047017436
-0.19568929 -0.064211518 -0.15445158 0.91985279 0.39182189 0.018611927 0.044361018
-0.18280289 -0.069517538 -0.15434343 0.91914743 0.39387742 0.0053370404 0.059863772
0.1850362 -0.064297915 -0.15559365 -0.95301682 0.30237719 0.018080592 0.053366005
0.19405742 -0.068323255 -0.15696956 -0.94028491 0.33945194 0.025236463 0.052927554
-0.19894078 -0.056400228 -0.15763697 0.93354768 0.35742456 -0.02713616 0.056055807
-0.1877383 -0.057602357 -0.15412997 0.93492573 0.35481346 0.0046030148 0.055880871
0.18874073 -0.055354387 -0.15555933 -0.95194858 0.30522615 0.025118444 0.051084306
0.19891553 -0.0565948 -0.15389533 -0.94926667 0.31292439 0.031162942 0.048816476
-0.20123181 -0.045071281 -0.15391862 0.99061918 0.13641903 0.007973724 0.053282209
0.19106841 -0.04692927 -0.15138495 -0.98032212 0.19649783 -0.01889956 0.060459804
0.2012088 -0.045560401 -0.15425138 -0.98151243 0.18956871 0.026402673 0.059133783
-0.20239632 -0.03630152 -0.15576421 0.99272895 0.1200819 -0.0083445664 0.051671579
0.19239388 -0.036861375 -0.15962788 -0.98161292 0.19065285 -0.0093563106 0.056406133
0.20266108 -0.034529272 -0.15364181 -0.98706311 0.15621094 -0.036119141 0.057211339
-0.20421572 -0.022542486 -0.1553015 0.98989165 0.13918555 -0.027235745 0.048412915
-0.19364133 -0.026844464 -0.15042216 0.99370956 0.10930075 -0.024387652 0.054890696
0.19409724 -0.023923287 -0.15496983 -0.99448019 0.10427902 -0.011623164 0.053779785
0.20335451 -0.029262308 -0.15299284 -0.99505317 0.098228537 -0.014846492 0.052449297
-0.20505573 -0.016000329 -0.15677442 0.99292201 0.11334218 -0.035489641 0.054259364
-0.19507432 -0.015959773 -0.15557024 0.99469662 0.10175724 -0.01496704 0.054410614
0.19555946 -0.012816862 -0.15699543 -0.9969362 0.077331267 0.011750203 0.052649692
0.20460463 -0.019766718 -0.15717776 -0.99596524 0.087895803 0.01809955 0.051051907
-0.2062294 -0.007186234 -0.15745178 0.99256384 0.1127082 -0.045976467 0.048259594
0.19650117 -0.0056638666 -0.15656039 -0.99989563 0.013181069 0.005925898 0.050595868
0.20653273 -0.0051213186 -0.15415873 -0.99977642 0.020910479 0.003129805 0.051807061
-0.20654197 0.0049127992 -0.15522756 0.99634665 -0.082645558 -0.021520648 0.051697019
0.19639145 0.006497086 -0.1527997 -0.99946845 -0.022621213 -0.023477059 0.056194693
0.20602974 0.0089418814 -0.15554023 -0.99818438 -0.059467241 -0.0095678987 0.052008644
-0.20525928 0.014656019 -0.15537995 0.99364287 -0.11257786 0.00038507843 0.048952062
-0.19521683 0.01487725 -0.1557216 0.99266464 -0.12028449 -0.012185563 0.05586566
0.19531883 0.014644438 -0.15527575 -0.99686813 -0.07626266 -0.020928962 0.052014053
0.20497048 0.016987789 -0.15523119 -0.99422956 -0.10721532 0.0035258047 0.05244641
-0.20406598 0.023619154 -0.15534744 0.99156994 -0.12771487 -0.021862872 0.048771601
0.19414136 0.023587976 -0.15450497 -0.99790639 -0.063971065 -0.009518981 0.055656336
0.2035777 0.027566811 -0.153742 -0.99553889 -0.093715057 -0.010947919 0.058781669
-0.20260537 0.034814443 -0.1565945 0.99349159 -0.11368027 -0.0071660546 0.051586729
-0.19303925 0.031417545 -0.15801986 0.99386531 -0.10877132 0.020012308 0.052182782
0.19251089 0.03597261 -0.15639593 -0.99421698 -0.10303007 0.030289253 0.053041723
0.20297317 0.032158706 -0.15413159 -0.98770744 -0.15628089 -0.0032147579 0.054881655
-0.20112891 0.045988921 -0.15339863 0.98613298 -0.16565326 0.010040641 0.050699811
-0.1911613 0.045682177 -0.15865913 0.97932899 -0.19934987 -0.034267489 0.052966114
0.19138469 0.044526845 -0.15353942 -0.96051717 -0.27780199 -0.015257851 0.058757637
0.2016744 0.042023785 -0.15298191 -0.99398422 -0.1090477 0.010192174 0.054635838
-0.20048626 0.050809871 -0.15591514 0.9706887 -0.24023086 -0.0072477087 0.052377515
-0.19879797 0.056802657 -0.15490952 0.93945992 -0.33959532 0.045718227 0.053507898
-0.18904689 0.054443114 -0.15349576 0.93175161 -0.36284894 -0.013399142 0.054874502
0.18803357 0.057061508 -0.15415017 -0.93167531 -0.36163822 0.034626514 0.054866392
0.1975933 0.059786838 -0.15144061 -0.94465089 -0.32783988 0.012480122 0.056433842
0.20041454 0.051593415 -0.15413126 -0.96160978 -0.27313328 -0.02655115 0.055150926
-0.19444816 0.067304038 -0.15734097 0.90079892 -0.43423232 0.0018846514 0.04608272
0.18372148 0.067471847 -0.15572765 -0.93720001 -0.34484687 0.052313924 0.054099761
-0.19154373 0.074335158 -0.15645616 0.91006029 -0.41427147 0.013015838 0.04980582
-0.18427366 0.074632324 -0.15417878 0.90781754 -0.41911036 0.014621559 0.050905146
-0.17846322 0.079994291 -0.15724479 0.92761463 -0.37348309 0.0064343875 0.051237892
0.17922859 0.078318633 -0.15597163 -0.93677276 -0.3467527 0.047109645 0.05264229
0.18220627 0.071129896 -0.15831897 -0.90988773 -0.41359803 0.032261636 0.049892534
0.19134411 0.074873671 -0.15486932 -0.91053045 -0.40766379 0.068880878 0.050391469
-0.18683833 0.085707784 -0.15475538 0.92445987 -0.38085642 -0.017953072 0.054975964
-0.17647918 0.084784247 -0.15653574 0.93152183 -0.36340147 -0.014370072 0.054867014
0.1768007 0.084180094 -0.15394303 -0.92763519 -0.37333909 0.010525049 0.060603902
0.18892187 0.08072152 -0.15632795 -0.9229784 -0.3826091 0.041487012 0.048699398
-0.1831813 0.094600715 -0.15174109 0.9336549 -0.35810986 0.0067692106 0.05218808
-0.17217562 0.09479297 -0.15669537 0.88399452 -0.46731281 -0.013132457 0.060602155
0.17175049 0.096372373 -0.15852708 -0.87486565 -0.48279536 0.038970206 0.056752317
0.18328179 0.094337888 -0.15487628 -0.92149717 -0.38804865 0.016164325 0.058141362
-0.1807093 0.10047248 -0.15604755 0.90732652 -0.42014012 -0.015518842 0.056556001
-0.17683862 0.10697545 -0.15446086 0.85181266 -0.52363688 0.014820818 0.05372794
-0.16615769 0.10459588 -0.15505724 0.84870344 -0.5287655 0.010466017 0.054623157
0.16621013 0.1046204 -0.15307879 -0.84538227 -0.52803916 0.080643691 0.05244505
-0.15748197 0.11590231 -0.15437473 0.77616525 -0.62931633 0.039095551 0.050568972
0.15642354 0.11737458 -0.15352833 -0.79768717 -0.59960449 0.064572446 0.048636131
0.16339369 0.11369801 -0.15661056 -0.78452206 -0.62001103 0.010555191 0.050459381
0.1711278 0.11443298 -0.15905781 -0.8143698 -0.57965058 0.028408896 0.04967121
-0.16339913 0.12447455 -0.1541045 0.78286815 -0.6219902 0.015672205 0.045534439
-0.15326472 0.1254537 -0.15529428 0.7865684 -0.61743098 0.0094344476 0.051211182
-0.14791474 0.1283706 -0.15385574 0.77762419 -0.62868667 -0.0073325052 0.058394864
0.14760378 0.1288687 -0.15734017 -0.765333 -0.64081103 0.060221929 0.05264752
0.15115646 0.1242388 -0.15937366 -0.7853384 -0.61861503 0.023644673 0.052782595
0.16146594 0.12702456 -0.15871529 -0.81193405 -0.58364749 0.010890672 0.0513721
-0.15711489 0.13270584 -0.15411879 0.776003 -0.63063157 0.011097275 0.051864788
-0.14495566 0.13222691 -0.15710121 0.75090718 -0.66024625 -0.014600771 0.059768707
0.13954535 0.13937069 -0.15963741 -0.74416399 -0.66794515 0.0083168205 0.056218859
0.14336543 0.13439228 -0.15457255 -0.76510084 -0.64301425 -0.033963099 0.054942578
0.15501364 0.13543336 -0.15617964 -0.77962333 -0.62616628 0.010157423 0.056358561
-0.15055107 0.14119081 -0.15543337 0.77358377 -0.63366908 -0.0056210975 0.062871121
-0.14556679 0.14708135 -0.15529156 0.65876305 -0.75210577 0.019186361 0.059787922
-0.13261977 0.14466251 -0.1544963 0.66264027 -0.7471686 0.051449347 0.057608806
-0.12893295 0.1474915 -0.15450829 0.66724163 -0.74405676 0.034177836 0.055865303
0.12910628 0.14741319 -0.15395068 -0.65024471 -0.75968403 -0.0078794127 0.048337005
0.1331147 0.14433743 -0.15440901 -0.68881691 -0.72491103 0.0059320624 0.053910252
0.14548826 0.14728993 -0.15358132 -0.71829742 -0.6948362 0.035374813 0.056658793
0.15048707 0.14133251 -0.15106539 -0.75545079 -0.65485394 0.021458637 0.053843006
-0.14068727 0.15091914 -0.15631667 0.64650339 -0.76281279 0.012249178 0.055931531
-0.13285878 0.15692618 -0.15182081 0.64886475 -0.76034766 0.029086305 0.057204675
-0.12451997 0.15087768 -0.15334937 0.62971711 -0.77665228 0.016357539 0.054988161
-0.1186742 0.15536331 -0.15497386 0.6183089 -0.78593159 -0.0023729515 0.051091041
0.11358066 0.1593264 -0.15251622 -0.62190694 -0.78309005 0.0012706987 0.054405272
0.13454069 0.15569028 -0.15627682 -0.66017091 -0.75105822 -0.0092640864 0.04582534
-0.12245385 0.16493461 -0.1550988 0.63211101 -0.7747125 0.016005795 0.047664803
-0.1190546 0.1675185 -0.15463707 0.63365358 -0.77327788 0.022900146 0.045182578
-0.1049672 0.16588104 -0.15433115 0.56112766 -0.82771754 0.0043963566 0.058732688
0.10418187 0.16653834 -0.15445201 -0.5433079 -0.8392024 -0.023575528 0.050909169
0.1144982 0.16484588 -0.15506169 -0.61290717 -0.78980887 0.02338453 0.057791471
0.12596314 0.1622721 -0.15732829 -0.62637031 -0.77929384 0.019005226 0.050217569
-0.11307944 0.17213395 -0.15298277 0.58292431 -0.81243277 0.012340593 0.059813999
-0.10400554 0.17906821 -0.15596877 0.48805749 -0.87168443 -0.044341199 0.056317344
-0.095125735 0.17221645 -0.15606166 0.43526664 -0.8984502 -0.057707805 0.056500044
-0.085108079 0.1763659 -0.15322259 0.36956105 -0.92871165 -0.03032144 0.055454649
-0.077520207 0.17950889 -0.15455866 0.39079404 -0.91953158 -0.041734051 0.054732945
0.085690759 0.17615408 -0.15252517 -0.36073411 -0.93216002 -0.030799508 0.049883276
0.092835627 0.17319457 -0.15626197 -0.44423795 -0.89516062 -0.036608722 0.054539666
0.10603745 0.17756161 -0.15275697 -0.45781752 -0.88903409 0.004630411 0.050982963
0.1154291 0.17035514 -0.15469392 -0.57841152 -0.81513184 0.031625733 0.057406079
