# .PCD v0.7 - Point Cloud Data file format
VERSION 0.7
FIELDS x y z normal_x normal_y normal_z curvature
SIZE 4 4 4 4 4 4 4
TYPE F F F F F F F
COUNT 1 1 1 1 1 1 1
WIDTH 559
HEIGHT 1
VIEWPOINT 0 0 0 1 0 0 0
POINTS 559
DATA ascii
-0.13433497 -0.11396104 -0.21606106 0.77128989 0.63646877 0.004407193 0.0009667984
-0.12989846 -0.11974284 -0.2188464 0.74333119 0.6689111 -0.0040877014 0.0018214221
0.13452058 -0.11371914 -0.2140979 -0.77059633 0.63732195 -0.0014228916 0.00093732617
-0.14211836 -0.1038175 -0.21534754 0.7982409 0.60233825 0.0003174677 0.00016771893
-0.13960828 -0.10708873 -0.21561617 0.79560333 0.60581481 -0.0019448855 0.00019986376
0.14022446 -0.10628568 -0.21393883 -0.79726177 0.60362762 0.0027201502 0.00019756521
-0.1519551 -0.090998016 -0.21434733 0.85491544 0.51867431 0.0098253861 0.0023579446
-0.14770007 -0.096543282 -0.21545771 0.83234346 0.55415928 0.010578627 0.0017573768
0.14704078 -0.097402476 -0.21512865 -0.81642902 0.57736528 0.0096423086 0.00080801622
0.15158755 -0.091477014 -0.21522544 -0.85586572 0.51718265 -0.0040049194 0.0024250736
-0.15306997 -0.089545071 -0.21235669 0.8584832 0.5127759 0.0082173999 0.0022332971
0.15598217 -0.083206646 -0.21569194 -0.88475937 0.46599734 -0.0068734284 0.0016584395
-0.1614051 -0.070114493 -0.21538746 0.91867524 0.39500833 -0.0020625198 0.00042300869
-0.15981457 -0.073954418 -0.21612413 0.90926659 0.41618839 -0.0046379156 0.0007405075
-0.16302752 -0.066197634 -0.21671364 0.92193878 0.3873342 -0.0010352468 0.00013577378
0.16314301 -0.065918818 -0.21366966 -0.92605948 0.37737733 0.00050183799 0.00030942718
-0.1673457 -0.055772606 -0.21500915 0.94093847 0.33857718 0.00043051527 0.0011142821
0.16830771 -0.053450175 -0.21767791 -0.95172381 0.30695325 -0.0012226707 0.0019341441
-0.17161991 -0.043481033 -0.21418504 0.9691363 0.24633664 0.0096462313 0.002470715
-0.169781 -0.049893267 -0.21185884 0.95543313 0.29519957 0.0021837747 0.0019872684
0.16975431 -0.049957756 -0.21853672 -0.95745933 0.2885243 -0.0050386065 0.0021368309
0.17135519 -0.044827387 -0.21314895 -0.96699274 0.25478703 0.0029221545 0.0021734622
-0.17294392 -0.034372915 -0.21138407 0.98401463 0.17783703 0.0094494848 0.00097519043
0.17338845 -0.030996319 -0.21540628 -0.98636448 0.16453953 0.0034521651 0.00084015133
0.17401144 -0.026264263 -0.21462122 -0.98903298 0.14769292 0.00072776759 0.0003211048
-0.17557497 -0.014387901 -0.21407324 0.99598503 0.089476265 -0.0027871383 0.001009556
0.17568755 -0.01353287 -0.21211958 -0.99638784 0.084871784 -0.0028538476 0.0011413023
-0.17629829 -0.0088940207 -0.21916169 0.99786431 0.065176994 -0.00433762 0.0015413312
0.17715105 -0.0024165804 -0.21290991 -0.99972117 0.02356755 0.0014621078 0.0024665629
-0.1766642 0.0061176708 -0.21515739 0.99870229 -0.050765753 0.0040573459 0.001783905
0.17698033 0.0037164141 -0.21322544 -0.9995997 -0.028030319 0.0038495939 0.0023773159
-0.17559397 0.014246913 -0.21391317 0.99599648 -0.089390218 0.00074584619 0.00099118077
0.17556378 0.014476203 -0.21377547 -0.99475849 -0.10217095 0.0040848292 0.000920074
-0.17430942 0.024004048 -0.21565448 0.98970157 -0.14313619 0.0016819643 0.00013379623
0.17390768 0.027055634 -0.21527205 -0.98937047 -0.14541663 -0.00028863156 0.00046776803
-0.17266518 0.036493264 -0.2148997 0.97956365 -0.20112683 0.0017303621 0.0017986402
0.17268385 0.036351554 -0.2111035 -0.98103833 -0.19381137 0.00096285896 0.001601048
-0.17081998 0.047375549 -0.21500738 0.95973241 -0.28084272 -0.006398032 0.0024071995
0.16998723 0.049398657 -0.21120459 -0.95576304 -0.29413775 -0.00017207721 0.0021628959
0.17149295 0.044285428 -0.21504772 -0.96658367 -0.25631273 0.0044463235 0.0024044949
-0.16753632 0.055315651 -0.21465704 0.93780237 -0.34716496 0.0017950084 0.0011075569
0.16755268 0.055276126 -0.21543449 -0.94555724 -0.32544672 -0.0024369957 0.001332926
-0.16388583 0.064128712 -0.21418135 0.92849642 -0.3713412 -0.00037357325 0.00038620151
0.16418976 0.063394904 -0.21790749 -0.93331063 -0.35906988 -0.00034212324 0.00052190234
-0.16047879 0.072354063 -0.21117768 0.91697276 -0.39894965 -0.00046317125 0.00038685341
-0.15789878 0.078582697 -0.21544415 0.89756548 -0.44082025 0.007329361 0.0015347477
0.15813497 0.078012504 -0.21456419 -0.89861566 -0.43872049 -0.0037728378 0.0013947095
0.16090186 0.071332589 -0.21526639 -0.9164021 -0.40025836 -0.00055710436 0.00057995715
-0.15573156 0.083731651 -0.21499096 0.88405693 -0.46729165 0.0090444135 0.0018331477
0.15449797 0.086766027 -0.21446431 -0.86902392 -0.49476817 -0.0013487883 0.0024768075
-0.14808111 0.096049912 -0.21312827 0.83602411 -0.54866308 0.005701412 0.0017915829
0.14684962 0.097654812 -0.21518135 -0.82954657 -0.55843663 0.0010147408 0.0016380058
0.15007806 0.093447387 -0.21657363 -0.84542716 -0.53408998 -0.00087115372 0.0020992348
-0.14310312 0.10253733 -0.21522342 0.80590552 -0.59203011 0.0040751616 0.00054991001
-0.13756707 0.10975207 -0.21177904 0.78938645 -0.61389577 -0.0010658649 5.5882654e-05
0.14346871 0.10206089 -0.21598732 -0.80822098 -0.58887869 0.00082212494 0.0005291726
-0.13155064 0.11759285 -0.21396241 0.75425798 -0.65656751 0.0037487617 0.0012792369
0.13478999 0.11337123 -0.21246642 -0.76708519 -0.64153206 0.0041120281 0.00073490269
-0.12498254 0.12542652 -0.21370053 0.70282632 -0.71136117 0.00057377841 0.0023918264
0.12395698 0.12651008 -0.21416377 -0.69326311 -0.72056365 -0.013203485 0.0019090023
-0.11647053 0.13241218 -0.21454324 0.64687932 -0.76258028 0.0042968839 0.0012629983
-0.10796065 0.13894199 -0.21815835 0.60642797 -0.79513818 0.00062800798 0.00015075103
0.10826091 0.13871162 -0.21577515 -0.61347479 -0.78971422 -0.00020429921 3.9395924e-05
0.11444692 0.13396493 -0.21478836 -0.64251018 -0.76627219 -0.0027603048 0.0010336393
-0.10201507 0.14350423 -0.2142383 0.59706736 -0.80219024 -0.0011606346 0.00030175305
-0.095888078 0.14820565 -0.21369688 0.5439052 -0.83913869 0.0036612835 0.0016732373
0.099334672 0.14556102 -0.21020034 -0.56733662 -0.82348132 -0.0027646548 0.0012779887
0.10321154 0.14258616 -0.21408945 -0.60080242 -0.79939437 -0.0022452071 0.00026041802
-0.085058667 0.15521397 -0.21432054 0.486552 -0.87364513 0.0033512802 0.0021116736
-0.075678319 0.15910274 -0.21460605 0.41807699 -0.90840936 0.0020312343 0.00083758315
0.077660479 0.1582817 -0.21549499 -0.43224037 -0.90175837 7.7528466e-06 0.000920486
0.083398044 0.15590513 -0.21476409 -0.46016824 -0.88783026 0.0015921101 0.0018904622
0.091676056 0.15143764 -0.21385995 -0.52359939 -0.85195303 0.0044450848 0.0022628738
-0.073298603 0.16008842 -0.21690582 0.40915278 -0.91246146 0.0028397366 0.00060807617
-0.065979622 0.16312011 -0.21257094 0.38000134 -0.92498583 0.00044217627 0.00011313312
-0.054901902 0.16770862 -0.21487044 0.32652968 -0.94515026 -0.0083313473 0.0015298575
-0.049477752 0.16995539 -0.21433198 0.28918612 -0.95721889 -0.010170249 0.0023275642
0.057033662 0.16682562 -0.21584502 -0.3319611 -0.94327825 0.0052945078 0.001374073
0.06561818 0.1632698 -0.21417405 -0.38236851 -0.92400956 0.00080114667 0.00010761484
-0.041816134 0.17196579 -0.21667643 0.2258018 -0.97414243 -0.0077432538 0.002006378
-0.031182773 0.17336574 -0.21365649 0.16409637 -0.98644435 9.6465374e-05 0.00063174294
-0.024317591 0.17426954 -0.21437462 0.1353915 -0.99079114 -0.001412343 0.00015613921
-0.014637014 0.17554399 -0.21658915 0.10920399 -0.99401695 -0.0021850036 0.00025546696
-0.0059413211 0.17668882 -0.21437213 0.053184569 -0.99858159 0.0024809344 0.0017437341
0.0056257695 0.17673038 -0.21302688 -0.04951648 -0.99876064 0.0050271326 0.0015613239
0.017169811 0.1752106 -0.21245827 -0.11317823 -0.99356961 0.0031833961 0.00029637618
0.028736264 0.17368782 -0.21403953 -0.16436839 -0.98639268 -0.0035160906 0.00084851915
0.032458846 0.17319773 -0.21499288 -0.17427804 -0.98468107 -0.0055179531 0.00092413306
0.044758178 0.17138349 -0.21569802 -0.23730552 -0.97143298 0.0019969051 0.0023700516
-0.043998718 -0.17154275 -0.20604362 0.24793337 0.96877694 0.00051380292 0.0021334756
-0.036253277 -0.17269489 -0.20629647 0.19336882 0.98110843 0.005906295 0.0014506519
-0.026149375 -0.1740251 -0.20616956 0.14100257 0.99000424 -0.003139121 0.0004460412
-0.013471267 -0.17569418 -0.20570922 0.096168451 0.99536163 -0.002627813 0.00070123712
-0.0040533333 -0.17693406 -0.20476599 0.026394755 0.99958134 -0.011848127 0.0019924701
0.0033894347 -0.17702146 -0.20430182 -0.0053371792 0.99998486 -0.0013129417 0.0023315663
0.018015327 -0.1750959 -0.20094182 -0.11191185 0.99371761 -0.00097676029 0.0003303015
0.025901232 -0.17405772 -0.20317702 -0.14995244 0.98868799 -0.0032070023 0.00031742622
0.036742322 -0.17263047 -0.20391892 -0.19675286 0.98044628 0.0036507098 0.0016046582
0.044619311 -0.17147347 -0.20653424 -0.25490621 0.96693361 -0.0078895818 0.0024257151
-0.072835252 -0.16027707 -0.20451333 0.41653877 0.9091149 0.0023496293 0.00071901112
-0.068085492 -0.1622445 -0.20462167 0.38694209 0.92209893 0.0030680469 0.00022159261
-0.054561276 -0.16784638 -0.20115373 0.32805604 0.94465733 0.0013659151 0.0014618775
0.049697928 -0.16986091 -0.20811155 -0.28964269 0.95712101 -0.0051519 0.0022701151
0.056903083 -0.16687641 -0.20544915 -0.34846461 0.93732154 -0.00086140755 0.00089828297
0.064667977 -0.16366008 -0.20614731 -0.37026259 0.92892712 0.00027465427 0.00027601296
0.072147965 -0.16056179 -0.20688495 -0.41059634 0.91181713 0.0003626199 0.00074397464
-0.092022158 -0.15116879 -0.20900857 0.51478237 0.85732079 -0.00027770043 0.0019318019
-0.083662309 -0.15579233 -0.20209622 0.47855881 0.87805468 0.0012138871 0.00184645
-0.075552478 -0.15915155 -0.20409296 0.41823053 0.90834004 0.0012645501 0.00074839464
0.079260312 -0.15761575 -0.20683238 -0.44510823 0.89545304 -0.0065138321 0.0012619216
0.085725725 -0.15488113 -0.2051944 -0.48523432 0.87428164 0.01338564 0.0021172038
-0.10155145 -0.14385669 -0.20491432 0.58822429 0.8086881 0.003971457 0.0005426525
-0.098230645 -0.14640477 -0.20175256 0.55435234 0.83226615 0.0051587387 0.0016066181
0.09803921 -0.1465517 -0.2036899 -0.55938554 0.82889754 0.0040834378 0.0016444441
0.10095708 -0.14431275 -0.20438799 -0.58718765 0.80945027 0.0010010706 0.00049557502
-0.1133499 -0.13480338 -0.20349792 0.63253915 0.77449614 0.0070663523 0.000828713
0.10758219 -0.13922907 -0.20072305 -0.60754353 0.79428613 -0.00059561722 0.00015291593
0.11598621 -0.13278051 -0.20339346 -0.64862627 0.76109487 -0.0043109879 0.0012330227
-0.12285864 -0.12750706 -0.20239131 0.69841558 0.71568155 0.0039422675 0.0025623559
0.12636381 -0.12434915 -0.20819974 -0.71479499 0.69931674 -0.0049231676 0.0022889224
-0.13422044 -0.11411015 -0.20635237 0.77062541 0.63727635 -0.0039083338 0.0010117264
0.1328088 -0.11594982 -0.20463923 -0.75998157 0.64993829 -0.0028840066 0.0014601789
-0.14161125 -0.10447828 -0.20617589 0.79525417 0.60627055 -0.0026030052 0.00021897885
-0.1373896 -0.10998003 -0.20427483 0.78907126 0.61429763 -0.0022369802 5.5414988e-05
0.13931465 -0.10747121 -0.20093261 -0.79197603 0.61055219 -8.5257328e-05 5.768699e-05
0.1424499 -0.1033853 -0.20326479 -0.79875672 0.60164905 0.0024890096 0.00018913941
-0.15187526 -0.091101967 -0.20745435 0.85361689 0.52088261 0.0044146641 0.0025533009
-0.14666411 -0.097893231 -0.20390122 0.82077897 0.57124406 0.001451307 0.0013159169
0.14749391 -0.096811816 -0.20373982 -0.83195317 0.55479091 -0.0077999262 0.0017815158
0.15176989 -0.091239281 -0.20695794 -0.85831541 0.51310009 -0.0047857086 0.0024090935
-0.15518978 -0.084805511 -0.20585531 0.88160408 0.47197723 -0.0034236377 0.0023203797
0.15436521 -0.087110132 -0.20232892 -0.87077266 0.49166384 -0.0046448824 0.0022194108
-0.16128612 -0.070401609 -0.20419888 0.92021787 0.39140603 0.00053403963 0.00017749509
-0.15866366 -0.076732792 -0.20291281 0.90474528 0.42594975 -0.0016504583 0.00096956134
0.1605507 -0.07217706 -0.20087761 -0.91459566 0.40436956 0.000122856 0.00042341228
0.16343769 -0.065207228 -0.20499185 -0.92436075 0.3815186 -0.00093452883 6.6236156e-05
-0.16674119 -0.057231944 -0.20581312 0.94089848 0.33865583 -0.0047161747 0.0011663464
0.16758981 -0.055183206 -0.20626786 -0.94431919 0.3290289 0.00109674 0.0012821677
-0.17131579 -0.045615043 -0.20302252 0.95980221 0.28065866 -0.0032419567 0.0019772493
0.17147666 -0.044490557 -0.2057427 -0.96687633 0.25520739 -0.0044090697 0.0023121047
-0.17282671 -0.035263192 -0.20555297 0.98298895 0.18359697 0.0049921805 0.0013726505
0.1728584 -0.035022449 -0.20655811 -0.98348051 0.18091398 -0.0060101324 0.00087000575
-0.17416123 -0.025126323 -0.20536706 0.99055034 0.13714468 0.0011205006 0.00019898507
0.17432901 -0.023851944 -0.20592348 -0.99112517 0.13292451 0.0014228594 0.00023970376
-0.17547639 -0.015136692 -0.20005395 0.99477005 0.102127 0.0016503058 0.00058513926
0.17564175 -0.013880686 -0.20334485 -0.99565923 0.093059227 0.0016252591 0.00080696103
-0.17699492 -0.0036023578 -0.20314172 0.99960983 0.027915584 0.00090360473 0.0014086671
0.17727727 -0.0014576843 -0.20368749 -0.99966538 0.02531008 0.0053415885 0.0022157601
-0.17705904 0.0031186743 -0.20399298 0.99974543 -0.022379987 -0.0028531339 0.0020965976
0.17702568 0.0033721693 -0.20440739 -0.99985087 -0.016782675 0.0040659634 0.0024946583
-0.17596748 0.011409925 -0.20625959 0.99680918 -0.079765946 0.0029781917 0.0012654128
0.17562349 0.014022822 -0.20510396 -0.99580503 -0.091370717 0.004874845 0.0012472956
-0.17392799 0.026901372 -0.20696385 0.98943681 -0.14487071 0.0052125244 0.00014658473
0.17459501 0.02183501 -0.20340073 -0.99130177 -0.13159259 0.0020300788 9.1359361e-05
-0.17271124 0.036143608 -0.20451947 0.97910911 -0.20326817 0.0052342536 0.0018068071
0.17282021 0.035315916 -0.20607391 -0.98330623 -0.18195783 0.00030139973 0.00098157837
-0.17102323 0.046000723 -0.2051743 0.96048594 -0.27796474 0.014222619 0.0023859849
0.17147553 0.043756392 -0.20657063 -0.96867281 -0.24834001 0.00043270289 0.0021141768
-0.16716023 0.056223679 -0.20363854 0.93861729 -0.34493139 -0.0044655744 0.0010167395
0.16740854 0.055624194 -0.20426454 -0.94494325 -0.32718027 -0.005950775 0.00118938
-0.16395162 0.06396997 -0.204041 0.92738736 -0.37410221 -0.0006043677 0.00038813992
0.16325012 0.065663584 -0.20184557 -0.92503464 -0.37988156 -0.00092072895 0.00021717795
-0.16123126 0.070537463 -0.2057351 0.91728681 -0.39822531 -0.0012443948 0.00038946248
-0.15834191 0.077513032 -0.20479535 0.90094227 -0.4338831 -0.0069691441 0.0012894883
0.15903293 0.075844795 -0.20236363 -0.90788907 -0.41917586 0.0053877286 0.00089887116
-0.15328693 0.089201406 -0.20229095 0.87136585 -0.49063143 -0.0015385392 0.002307601
0.15399688 0.088002846 -0.20220542 -0.87028003 -0.49254113 0.0039958647 0.002296563
-0.15208018 0.090838328 -0.20464009 0.85497612 -0.51866144 -0.0024632195 0.0026960045
-0.14994669 0.093618684 -0.20904054 0.84714007 -0.53136128 -0.0029920461 0.0021028207
0.14677322 0.097754501 -0.20405431 -0.81585568 -0.57825172 -0.0020837595 0.00098829798
0.15127347 0.091889627 -0.20675187 -0.85005808 -0.52666599 0.0049305391 0.0024229281
-0.14271879 0.10303833 -0.20354217 0.81071436 -0.58543992 -0.00153875 0.0009381093
0.13815521 0.10898569 -0.20430097 -0.78623271 -0.61792833 0.0016337276 0.00022285621
0.14238144 0.10347794 -0.20616579 -0.79676569 -0.60428631 0.0015606137 7.4521755e-05
-0.13503496 0.11305203 -0.2073513 0.77287388 -0.63455951 0.00052741636 0.00073824619
0.13309164 0.11558465 -0.20579378 -0.76142639 -0.6482265 0.0056744199 0.0009815325
-0.12408815 0.12616692 -0.20542663 0.69471616 -0.71927518 0.0035527183 0.0021335708
0.12611817 0.12409025 -0.20367448 -0.70968091 -0.70452327 -0.00015936434 0.0020008031
-0.11535721 0.13326658 -0.20479803 0.64504921 -0.76413906 0.0017502249 0.0011331388
-0.10822832 0.13873678 -0.20242929 0.61114174 -0.79152125 0.00011595926 3.8591421e-05
0.10843706 0.13857655 -0.20785721 -0.61326915 -0.78987396 0.00036385606 3.5241872e-05
0.11455019 0.13388583 -0.20394266 -0.64394397 -0.76503956 -0.0071203969 0.0011460085
-0.10186541 0.14361918 -0.20428048 0.5910939 -0.80660063 -0.0018647361 0.00042171226
-0.098150961 0.1464694 -0.20454295 0.5615769 -0.82741761 -0.003370807 0.0011008093
0.09572956 0.14832732 -0.2094246 -0.55268842 -0.83337277 -0.0050486512 0.0016494729
0.10594979 0.14048511 -0.20662996 -0.60361212 -0.79727799 0.00045479336 0.00023671736
-0.09166199 0.15144853 -0.20572262 0.51751882 -0.85566837 -0.0024290276 0.0020298976
-0.08751031 0.15401737 -0.20540974 0.49749839 -0.86738485 -0.011787997 0.0018577306
-0.07609719 0.15892933 -0.20677894 0.41657227 -0.90908897 -0.0049782977 0.00096565735
0.076804824 0.15863626 -0.20444594 -0.42069313 -0.90719604 0.0035572792 0.0010818602
0.083846152 0.15571962 -0.20647539 -0.46667624 -0.88442677 -0.0015751118 0.0020570892
0.090208255 0.15256399 -0.20864709 -0.50605488 -0.86249852 -0.0021894954 0.0023333137
-0.070659108 0.16118187 -0.20630927 0.39426968 -0.91899478 -5.9664115e-05 0.00034332651
-0.064246513 0.16383807 -0.20448449 0.37591285 -0.92665488 0.00057564507 0.00010939584
-0.053299367 0.16837254 -0.20293427 0.31535095 -0.94894928 0.0070057306 0.0020643859
0.049458575 0.16996343 -0.20518807 -0.28631759 -0.95808172 -0.010075369 0.0026510791
0.056920815 0.16687246 -0.2076412 -0.33651763 -0.94166064 0.0055709905 0.001395402
0.063196599 0.16427298 -0.20323066 -0.36411655 -0.93135303 0.00086185872 0.0006651422
0.071901679 0.16066724 -0.2012479 -0.4048906 -0.91436166 -0.0025382973 0.00062790391
-0.047959834 0.17058422 -0.20595993 0.28142834 -0.95958203 0.00060555001 0.0023922462
-0.03467682 0.17290585 -0.20279498 0.16919278 -0.98557991 0.0024677783 0.00060918694
-0.026438387 0.17399043 -0.20605488 0.15180814 -0.98840934 -0.0011272843 0.00036805542
-0.01656984 0.17528971 -0.20200618 0.11033592 -0.99389428 0.00038123821 0.00033506693
-0.005455072 0.17675292 -0.20710601 0.038143888 -0.99926567 -0.0036410014 0.002297858
0.0034581819 0.17701586 -0.20437294 -0.031422626 -0.99941373 0.013593345 0.0019121023
0.015073828 0.17548661 -0.20507069 -0.10562845 -0.99439895 0.0036642156 0.00034112085
0.023758736 0.17434323 -0.20565604 -0.12847921 -0.99171084 -0.0016375598 0.00025571254
0.037226398 0.17257014 -0.20667882 -0.19619122 -0.98056555 -0.00034805233 0.0015801559
0.046775311 0.17103525 -0.2062173 -0.27562478 -0.96123415 -0.0077417227 0.0024650642
-0.045525104 -0.1712807 -0.19433104 0.26203579 0.96485895 0.019605024 0.0024035301
-0.035670459 -0.17277147 -0.19421567 0.17804004 0.98401046 0.0050218594 0.00093637337
-0.024266141 -0.17427289 -0.19553876 0.13199501 0.99124992 0.00095099182 0.00017320761
-0.016339568 -0.17531645 -0.19482708 0.11167927 0.99373853 -0.0033813061 0.00035557986
-0.0053372127 -0.17676492 -0.19356218 0.017242521 0.99985075 0.0011095196 0.0020518592
0.014932734 -0.17550166 -0.19596899 -0.10396629 0.99458081 -0.00024149661 0.00034128217
0.024081452 -0.17429721 -0.19648568 -0.12784071 0.99179453 0.00049643632 0.00031011991
0.033826686 -0.17301424 -0.19485302 -0.17868055 0.98386014 -0.0096183429 0.0009949333
0.044640686 -0.17152557 -0.1943534 -0.25934294 0.96577907 0.0034586077 0.002531471
-0.071769319 -0.1607185 -0.1960011 0.40005893 0.91648906 -0.0007932834 0.00034250377
-0.064812705 -0.1636 -0.19383141 0.37579036 0.92670453 0.0006174806 0.00027061446
-0.054270234 -0.16796684 -0.19436926 0.33954099 0.94054639 0.0091830911 0.0010088361
-0.049638048 -0.16988556 -0.19572106 0.30144173 0.95340383 0.012410519 0.0022392818
0.053704128 -0.16820133 -0.19415195 -0.31990731 0.94744468 0.0027994481 0.0017686671
0.064740852 -0.1636298 -0.1976482 -0.38412559 0.92328066 0.00067910034 0.00011730132
0.070449702 -0.16126508 -0.19378498 -0.40285593 0.91526133 -0.0019266155 0.00052419858
-0.091505595 -0.151565 -0.19268417 0.51497078 0.85718811 0.0057895267 0.0022305821
-0.085907988 -0.15481563 -0.19562268 0.49028209 0.87155694 -0.0034580824 0.0021759737
-0.075637996 -0.15911603 -0.19395077 0.41605178 0.90933907 0.0018256397 0.00078853505
0.07655257 -0.1587372 -0.19416732 -0.42723274 0.90414143 0.00071882363 0.00090582203
0.085140355 -0.15514693 -0.19434209 -0.47950855 0.8774823 -0.0098222522 0.0021351783
0.091801405 -0.15133807 -0.19748724 -0.51107782 0.8595202 -0.004950962 0.0020879349
-0.10582612 -0.14057656 -0.19918278 0.60363501 0.79726052 -0.00068816473 0.00016831183
-0.095473468 -0.14852037 -0.19572395 0.53716493 0.84347194 0.0029820369 0.001861105
0.096793704 -0.14750732 -0.19681899 -0.54772794 0.8366518 -0.0028012104 0.001879539
0.1026108 -0.14304371 -0.19609646 -0.58810997 0.80877918 0.0016885729 0.00040362516
-0.11465976 -0.1337982 -0.19444671 0.64028066 0.7681306 -0.0040048892 0.0011437749
-0.10807493 -0.13885097 -0.19991294 0.60374796 0.79717422 -0.0012984081 0.00018243174
0.11461791 -0.13383032 -0.19591813 -0.63733828 0.77058411 -0.00027349466 0.00092661771
-0.12488727 -0.12554105 -0.19456616 0.71241748 0.70171386 -0.0076813279 0.0020368099
0.12725826 -0.12318334 -0.19463973 -0.72706413 0.6865446 0.0058518536 0.0021324826
-0.1341387 -0.11421654 -0.19382626 0.77051461 0.63741714 -0.002577232 0.00085448287
0.13345996 -0.11510112 -0.19427468 -0.76391947 0.64531147 0.00038865197 0.0011321631
-0.14264849 -0.10312641 -0.19492732 0.7971192 0.60382086 -0.0011052899 0.0001932624
-0.13826963 -0.10883306 -0.19819668 0.78988814 0.61324912 -0.0014834012 6.2402491e-05
0.13881694 -0.10811979 -0.19734298 -0.79212916 0.61035317 0.0005925622 3.3596658e-05
0.14130396 -0.10487865 -0.19581069 -0.79715014 0.60376841 -0.0039034456 0.00017760783
-0.15096352 -0.092290066 -0.19685823 0.84468079 0.53519744 -0.0088370387 0.0021148387
-0.14649564 -0.098112643 -0.19160296 0.82307535 0.56787598 -0.0079892585 0.0010696424
0.14562503 -0.099247321 -0.19662549 -0.81262046 0.5827772 -0.0043208338 0.00066101662
0.15055406 -0.092823654 -0.194884 -0.84448582 0.53553051 -0.0071260142 0.0021411199
-0.15553133 -0.084294796 -0.19592693 0.88395095 0.46740577 -0.012754453 0.0019616347
0.15335135 -0.08907555 -0.19551691 -0.86726207 0.49780333 -0.0069485055 0.0022254244
-0.16068901 -0.07184308 -0.19563447 0.92093319 0.38970459 0.003538117 0.00017801834
0.16083555 -0.071489356 -0.19902241 -0.91737789 0.39801601 0.0010332695 0.00045760965
-0.16382074 -0.064282358 -0.19306056 0.92504561 0.37985358 -0.0013611687 7.2512594e-05
0.16384113 -0.064233199 -0.1949241 -0.92953819 0.36872393 -0.0011865288 0.00034293463
-0.16582415 -0.059445716 -0.19617948 0.93834025 0.34566218 -0.0059285308 0.00099020649
0.16793236 -0.054356039 -0.19237344 -0.94248992 0.33407784 -0.010229004 0.0011457672
-0.17143643 -0.044085946 -0.19606797 0.96912271 0.24618693 -0.013900665 0.0027633952
-0.16989812 -0.049610306 -0.19631523 0.95637035 0.29199427 -0.0097501995 0.0019123695
0.1698142 -0.049812935 -0.19735101 -0.9604063 0.27858645 -0.003076501 0.0023686418
0.17163511 -0.044314135 -0.19711404 -0.96946037 0.24516948 -0.0062079388 0.002700184
-0.17302376 -0.033766195 -0.19424385 0.98322469 0.18239704 -0.00076223741 0.0013988079
0.17259297 -0.037038594 -0.19674531 -0.98058838 0.19604835 -0.003388105 0.0015420016
-0.17393613 -0.026836224 -0.19458562 0.99006903 0.14056566 0.0021598267 0.00013932845
0.17425576 -0.024408268 -0.19526739 -0.99141246 0.13076688 -0.001184599 0.00015907043
-0.17530166 -0.016463811 -0.19432858 0.99321014 0.11633147 0.00080821442 0.00030504662
0.17544866 -0.015347403 -0.19669652 -0.99418139 0.10769118 -0.0024703713 0.00043630163
-0.17679006 -0.0051584062 -0.19670327 0.99878716 0.048787691 -0.0066298065 0.0018146154
0.17739141 -0.00059065846 -0.19353743 -0.99997908 0.0043686032 0.0047766892 0.002890459
-0.1766773 0.0060184221 -0.19679706 0.99897981 -0.044291049 -0.0088145984 0.0014605079
0.17644985 0.0077461507 -0.1926782 -0.99815315 -0.060510851 0.0053578154 0.0019424873
-0.17547455 0.01515409 -0.19765522 0.9932906 -0.11562674 -0.0020631757 0.00019906333
0.17555708 0.014527495 -0.19262302 -0.99252719 -0.12202312 -0.00037467992 8.5795575e-05
-0.17410739 0.025538849 -0.19551522 0.9903245 -0.13876587 0.0012230303 5.7089219e-05
0.17375447 0.028219422 -0.19746144 -0.98794311 -0.15480255 -0.0021246893 0.0006062187
-0.17303149 0.033711303 -0.19238496 0.98533171 -0.17064784 0.00082809257 0.0010302915
0.17275937 0.035778064 -0.19661283 -0.98526585 -0.17101903 -0.0019104721 0.00089981785
-0.17135531 0.045178711 -0.1933578 0.96026272 -0.27909049 -0.0019904466 0.0021779712
-0.16988948 0.049634755 -0.19865231 0.95618904 -0.29254133 -0.011049553 0.0021495002
0.17146254 0.043912951 -0.19663389 -0.97037125 -0.24129273 -0.01254641 0.0023743887
-0.16685992 0.056948837 -0.19298284 0.94010115 -0.34089118 -0.0017311976 0.0011209148
0.16845994 0.053086035 -0.19512811 -0.94668436 -0.32209477 -0.0066024847 0.0012270404
-0.16414376 0.063506164 -0.19953407 0.92924184 -0.36947179 -0.00039155994 0.00034647548
0.16345471 0.065169767 -0.19468233 -0.92640424 -0.37652689 -0.0016443442 0.00016230323
-0.16060339 0.072053447 -0.19516219 0.91373384 -0.40631264 -0.00064647244 0.00067455147
-0.15814885 0.07797914 -0.19777721 0.89845479 -0.4390626 -0.0017310494 0.0015304245
0.1603789 0.07259538 -0.19341645 -0.91382688 -0.40608874 -0.0035179041 0.00053826405
-0.1550473 0.085459746 -0.19641839 0.87499845 -0.48410976 0.0039467849 0.0021307026
0.15409485 0.087537989 -0.19486058 -0.86536157 -0.50113851 -0.0030922845 0.0023285884
-0.1512953 0.091861293 -0.19467391 0.85207009 -0.52336133 0.0083410582 0.0021895643
-0.14650609 0.098102711 -0.19643325 0.83007294 -0.55764741 0.0028829016 0.0014526665
0.14602652 0.098727696 -0.19682643 -0.81523681 -0.57912761 0.00044937397 0.0010416416
0.15153491 0.091549069 -0.19354054 -0.85563576 -0.51753604 -0.0066240868 0.0026438199
-0.14280915 0.10292067 -0.19573374 0.80396163 -0.59467781 0.0019749806 0.00067527901
-0.137747 0.10951778 -0.19511469 0.78984463 -0.61330688 0.00027467008 0.00011697244
0.13808352 0.1090792 -0.19733363 -0.78515226 -0.61930251 -0.00062981754 0.00022017097
0.14207537 0.10387697 -0.19279969 -0.79626954 -0.60493469 -0.0029899192 0.00023447249
-0.1345036 0.11374468 -0.19546495 0.76678979 -0.64189416 0.0023119042 0.00088209484
0.12992135 0.11971638 -0.19550039 -0.7386983 -0.6739924 -0.0076849717 0.001953298
0.13457161 0.11365604 -0.19447906 -0.76565814 -0.64323479 0.0040647192 0.0010886502
-0.12499284 0.12544233 -0.19374789 0.71336097 -0.70077175 0.0059235934 0.0021965196
0.11978509 0.12986903 -0.19760071 -0.67612469 -0.73677343 0.0045179431 0.0017886494
0.12337936 0.12695834 -0.19487205 -0.69636238 -0.71768713 -0.0021737313 0.0022008216
-0.11589829 0.1328515 -0.19447923 0.64448202 -0.7645703 0.0086701959 0.0009972027
-0.10875048 0.13833618 -0.19622788 0.61187357 -0.79095489 0.0010333887 7.2347262e-05
0.10843838 0.13857567 -0.19578135 -0.61357927 -0.78963292 -0.00072528864 0.0002680223
0.11481603 0.13368197 -0.19407402 -0.65163004 -0.75853664 0.00068312458 0.0012219272
-0.10342914 0.14241944 -0.19387753 0.59836406 -0.80121839 0.0030729102 0.00051240431
-0.097217157 0.14718606 -0.19263572 0.55770624 -0.8300339 0.0027166866 0.0013975498
0.097236902 0.14717087 -0.19621769 -0.55318886 -0.83305579 0.00028473121 0.0016094818
0.10303972 0.14271823 -0.1939806 -0.59953451 -0.80034888 2.8245349e-05 0.00015030136
-0.084165856 0.15558729 -0.19619337 0.47219935 -0.88147402 0.0055991877 0.0014072127
-0.079593688 0.15748118 -0.19484454 0.45387223 -0.89105785 0.0039827554 0.0016393184
0.076575205 0.15873146 -0.19647779 -0.42353076 -0.90587938 0.0020573677 0.0010651367
0.085498571 0.15502629 -0.19389714 -0.48250917 -0.87588876 -0.0019384917 0.00204938
0.093146138 0.1503098 -0.19783601 -0.54049504 -0.84129214 -0.0096210521 0.0018847415
-0.072459958 0.16043606 -0.19486962 0.39746732 -0.91761601 0.00074055948 0.00045656049
-0.067686394 0.16241333 -0.19625339 0.38449144 -0.9231286 2.0248212e-05 8.464438e-05
-0.052611571 0.16865751 -0.19640635 0.30923998 -0.95096815 -0.0054982007 0.0020753699
0.053944528 0.16810536 -0.19857633 -0.32378775 -0.946123 -0.0035731799 0.0017751326
0.06525401 0.16342087 -0.1950888 -0.38132986 -0.92443901 7.0421956e-05 3.4998241e-06
0.070643127 0.16118863 -0.19363052 -0.3901231 -0.92076248 0.00058834231 0.00015918168
-0.046475459 0.1709386 -0.19336499 0.28843966 -0.95749557 0.0021799128 0.0020765222
-0.035298966 0.17282403 -0.1967252 0.17296636 -0.98491675 0.0046635042 0.00060696161
-0.026685085 0.17395806 -0.19699268 0.15526868 -0.98787177 0.00096755364 0.00044816939
-0.015476847 0.17543364 -0.1984185 0.094078958 -0.99556112 -0.0026972811 0.00075059873
-0.0027021274 0.1771155 -0.19614297 0.0074498723 -0.999955 0.0058744145 0.0025594493
0.0056100879 0.17673266 -0.19460563 -0.037217729 -0.9993071 0.00043959971 0.0020195406
0.01421407 0.17559993 -0.1947419 -0.090741746 -0.99583656 0.0086806584 0.0010164478
0.026686082 0.17395793 -0.19547953 -0.14681099 -0.98916435 -0.00059824018 0.0004982769
0.035429094 0.17280689 -0.19633639 -0.19094628 -0.98159552 0.0031142689 0.0014917303
0.045799419 0.17115378 -0.19405413 -0.27493089 -0.96146137 0.0022316021 0.0023730388
-0.042996645 -0.17180681 -0.18152751 0.23027894 0.97311574 0.0041733137 0.0023338879
-0.039294556 -0.17229429 -0.18728504 0.20725803 0.97828609 -0.00062718603 0.0021552162
-0.02514966 -0.17415647 -0.18640298 0.14557125 0.98934436 -0.0026052359 0.00024651393
-0.012640471 -0.1758033 -0.18247759 0.091690309 0.99578536 -0.0020980272 0.00093002961
-0.0047237123 -0.17684563 -0.18678232 0.022596119 0.99971056 0.0082608471 0.0022596703
0.0081274705 -0.17639747 -0.18578461 -0.055123374 0.99846441 0.0055080708 0.0015722133
0.02381083 -0.17433277 -0.18894956 -0.12635584 0.99198341 -0.0017519549 0.00035515858
0.033856574 -0.17301017 -0.18472117 -0.16585968 0.98614752 0.0018940977 0.00071473606
0.048355948 -0.17041647 -0.18218632 -0.28703246 0.95792049 0.00086288957 0.0023297381
-0.071137726 -0.16097996 -0.18186305 0.40567762 0.9140147 -0.0016400665 0.00048901798
-0.064490043 -0.16373357 -0.18685652 0.37215614 0.92816997 0.0005283177 0.00019402619
-0.052820858 -0.16856706 -0.18256098 0.32849875 0.94443536 0.011418362 0.0015814225
0.056443937 -0.16706631 -0.18037863 -0.33764461 0.94126779 -0.0033347874 0.0011584545
0.062680706 -0.164483 -0.18494757 -0.37053698 0.92881393 -0.0026426935 0.00027818483
0.070306696 -0.16132422 -0.18482573 -0.39703578 0.91780311 -0.00010606414 0.00036141483
-0.092809126 -0.15056461 -0.18085162 0.51872778 0.85493821 0.0014886291 0.0020985715
-0.086947031 -0.15433493 -0.18356574 0.4915193 0.87081981 0.0090299109 0.0020580778
-0.076269723 -0.15885425 -0.18503761 0.41499236 0.90982485 -0.00022700528 0.00069787196
0.075055458 -0.15935721 -0.18457642 -0.41316471 0.91065627 -0.00031117233 0.00066234049
0.085641757 -0.15497139 -0.18405281 -0.48045182 0.87702006 -0.0013749863 0.0019117669
0.093127891 -0.15032005 -0.18383643 -0.52211744 0.85287338 0.000615697 0.0021991548
-0.10221838 -0.1433447 -0.18623874 0.60003269 0.79997253 0.0021616316 0.00023538653
-0.097166121 -0.14722145 -0.18558009 0.55427939 0.83233058 0.00051761273 0.00173675
0.095771417 -0.14829162 -0.1847273 -0.53769904 0.84313655 -0.00071747822 0.0020920532
0.10302195 -0.14272811 -0.18656127 -0.59989423 0.80007768 0.0016401373 0.00015994112
-0.11738358 -0.13170801 -0.18364799 0.6536901 0.75676084 -0.0015633958 0.0013861514
-0.10872193 -0.13835436 -0.18583196 0.60758144 0.79425675 -0.0009809403 0.0001148283
0.1074551 -0.13932639 -0.18319458 -0.6098454 0.79251891 0.0015533267 0.00023344821
0.11597247 -0.13279082 -0.18472806 -0.64948773 0.76037198 -0.00042671044 0.0013157816
-0.12485252 -0.12547058 -0.1863731 0.70399672 0.7102021 0.0013239568 0.0023658769
0.12476988 -0.12560454 -0.18467849 -0.71061474 0.70356554 0.0047108 0.0024211372
-0.1332389 -0.11538914 -0.18656953 0.77024603 0.63774633 0.00082009047 0.0008435651
0.13620985 -0.11151729 -0.18483973 -0.77944976 0.62645674 -0.0031650134 0.00059604959
-0.14261217 -0.10317361 -0.18519984 0.80523872 0.59293979 -0.0036081949 0.00052922638
-0.13823642 -0.1088762 -0.18503025 0.78979409 0.6133604 0.0037900214 7.9655372e-05
0.14242674 -0.10341527 -0.185013 -0.7982704 0.6022979 -0.0013029086 0.00020265844
-0.15251428 -0.09026897 -0.18889441 0.86092651 0.50871539 -0.0037768031 0.0023775354
-0.14671347 -0.097828701 -0.18583214 0.82224649 0.56908113 -0.0075749164 0.0010412117
0.14738789 -0.096949816 -0.18759102 -0.8257702 0.56392479 -0.0096159801 0.0013297199
0.15106326 -0.092159927 -0.18438062 -0.85440576 0.51959687 0.0031340059 0.0020725685
-0.15417378 -0.087241434 -0.18635482 0.86645651 0.49916118 -0.0095513323 0.002340734
0.15589438 -0.08341819 -0.18304062 -0.88646013 0.46270925 0.0094125774 0.0018546187
-0.16082871 -0.071505673 -0.18181694 0.92205453 0.38704881 0.0029367146 0.00012684354
-0.15894836 -0.076045245 -0.18564585 0.90834892 0.41820577 0.002482007 0.0010596197
0.15833157 -0.077534333 -0.18484673 -0.90136677 0.43303755 0.0040314803 0.0011941217
0.16031621 -0.072743006 -0.18925539 -0.91543436 0.40246251 0.0019429878 0.00051848008
-0.1635288 -0.064987138 -0.18769476 0.92619187 0.37704957 -0.0015152011 9.0733047e-05
0.16267486 -0.067048654 -0.18367642 -0.92367697 0.38317016 0.001258768 0.00013372613
-0.16702077 -0.056556739 -0.18316819 0.94592452 0.32436821 -0.0034812996 0.00144038
0.16718748 -0.056154273 -0.18633817 -0.94013733 0.34079492 -0.00078284112 0.00099829934
-0.17159006 -0.043945462 -0.18490517 0.96868926 0.24789365 -0.013782371 0.0021331811
0.17075709 -0.04699504 -0.18378329 -0.96075648 0.2773436 -0.0052332594 0.0021898136
-0.17300564 -0.033903703 -0.183513 0.98306739 0.18319343 -0.0043214634 0.001114859
0.17340539 -0.030867334 -0.18117478 -0.9861806 0.16567159 0.00085854635 0.00087834388
-0.17380521 -0.027830502 -0.18560342 0.98703009 0.16044421 -0.0054122494 0.00086564664
0.17435692 -0.023639694 -0.18768115 -0.9910512 0.13348238 9.852519e-05 0.00013975881
-0.17527023 -0.016702386 -0.18583034 0.99391991 0.11010415 -0.00046394291 0.00050742476
0.17526647 -0.016731014 -0.18671486 -0.99363577 0.11262376 -0.0019468489 0.00040381195
-0.17711185 -0.0027139885 -0.1845507 0.99982077 0.016370455 -0.0095052728 0.0024190904
0.17703064 -0.003330766 -0.18193807 -0.99974132 0.022635851 0.0022189794 0.0025936118
-0.17684819 0.0047205682 -0.18599464 0.999107 -0.041460983 -0.0081388829 0.0016377745
0.17700131 0.0035573679 -0.18586846 -0.99994743 -0.0073547261 -0.0071541932 0.0030281628
-0.17521106 0.017155787 -0.18334416 0.99390161 -0.11026762 -0.00084766588 0.0003413877
0.17507903 0.01815873 -0.18284404 -0.99246007 -0.1225627 -0.0012261984 0.00010968344
-0.17442846 0.023100117 -0.18546471 0.99102324 -0.1336731 0.0020969338 0.00012694199
0.17423642 0.024558971 -0.18500631 -0.99096406 -0.13411705 -0.0017062271 0.00044994403
-0.17263053 0.036756862 -0.18625388 0.98281837 -0.18448848 -0.0056626843 0.0011672
0.17271529 0.036113001 -0.1881552 -0.98515487 -0.17166799 -0.00011724728 0.00088567386
-0.17169483 0.04365408 -0.18303423 0.97065675 -0.24043389 0.0041323029 0.0028166866
0.17185673 0.042634591 -0.1852538 -0.97239536 -0.23332055 0.0029631259 0.0022876938
-0.1669683 0.056687266 -0.18451686 0.94099063 -0.33837882 0.0060306601 0.0010738774
0.16812623 0.053891778 -0.18589011 -0.94818377 -0.31771913 0.0014350535 0.0017356077
-0.16190228 0.068917751 -0.18571594 0.92174608 -0.387793 -0.00082044152 0.00020129739
0.1618643 0.069009423 -0.18712002 -0.92351848 -0.38355398 -4.1002826e-05 0.00025359166
-0.16102667 0.071031652 -0.18382227 0.91717339 -0.39848414 -0.0018412033 0.00054548011
-0.15852137 0.077079982 -0.18546437 0.9067176 -0.42173424 0.0018323357 0.00081245165
0.15964378 0.074370265 -0.18222544 -0.9121877 -0.40977234 0.00043760255 0.00057968515
0.16055298 0.072175309 -0.18016984 -0.91163224 -0.41100585 -0.00096200558 0.00059651799
0.15586782 0.083486237 -0.18373808 -0.88579983 -0.46406177 0.0023019379 0.0020169648
-0.15142402 0.091693595 -0.189858 0.85138464 -0.52453882 0.0017789262 0.0023203702
-0.14804544 0.096096717 -0.18524879 0.83998907 -0.54260182 -0.0012467925 0.002199979
0.14695847 0.097513288 -0.18502262 -0.83063167 -0.55681616 -0.0025810224 0.0021053078
0.15194765 0.091011286 -0.18385236 -0.85662866 -0.5157758 -0.01276172 0.0025563049
-0.1411344 0.10510331 -0.18827756 0.79272968 -0.60957313 -0.00052094867 9.6289739e-05
-0.13835607 0.10872416 -0.18394536 0.78572184 -0.61857557 -0.0023348676 0.00023970386
0.13841681 0.10864501 -0.18361147 -0.78983194 -0.6133216 -0.0014324326 0.00014283055
-0.13121116 0.1180356 -0.18398553 0.75200117 -0.65916097 -0.0010084589 0.0013141814
0.13451648 0.11372803 -0.18390055 -0.77204657 -0.63555479 0.0037758744 0.00061487214
-0.12435611 0.12586878 -0.18520573 0.69803274 -0.71603006 0.0071617584 0.0023167271
0.12349522 0.1267581 -0.1841608 -0.6939292 -0.72004205 0.001318097 0.0022407228
-0.11654667 0.1323541 -0.18472746 0.6486581 -0.761078 0.0017097167 0.0015183463
-0.10939366 0.13784279 -0.18399946 0.62129581 -0.78357589 0.00056554639 0.00031105839
0.10913859 0.1380385 -0.18478927 -0.61527967 -0.78830665 0.0019060273 0.00029741379
0.11178188 0.13601024 -0.18515782 -0.62921834 -0.77722806 -0.00091803278 0.00053191208
-0.1026645 0.14300627 -0.18367881 0.58307338 -0.81241947 -1.3842649e-05 0.00098156568
-0.098105922 0.14650418 -0.1843897 0.57066989 -0.82117742 -0.0018965183 0.0010178949
0.097239204 0.14716925 -0.18322991 -0.54971617 -0.83535147 -0.00033178777 0.0014182905
0.10197648 0.14353418 -0.18601343 -0.59905046 -0.80071104 0.00068108027 0.00015930347
-0.088690422 0.15358479 -0.18571596 0.50634545 -0.86232942 0.0014718225 0.0020073853
-0.077803537 0.15822276 -0.18689348 0.43426591 -0.90078378 0.0013058686 0.0012823712
0.076003619 0.15896833 -0.18671961 -0.41803959 -0.90842056 -0.0038661761 0.00091896369
0.086221769 0.15472852 -0.18596229 -0.49673751 -0.86788487 -0.005252698 0.0021459616
0.091353439 0.15168554 -0.18320295 -0.52261674 -0.85256344 0.0027154072 0.0019148259
-0.071291991 0.16091996 -0.18388145 0.39157844 -0.92014319 -0.0016806177 0.00026434063
-0.068755127 0.16197081 -0.18059587 0.39197445 -0.9199757 -0.00091830594 0.00030900681
-0.052304842 0.16878471 -0.18450427 0.30945584 -0.95090687 -0.0036235319 0.0018718936
0.052509911 0.16869976 -0.18657985 -0.30322388 -0.95290357 -0.0054861996 0.0021957506
0.067450158 0.1625113 -0.1854226 -0.38351721 -0.92353296 -0.0011679037 6.4647895e-05
0.072799213 0.16029565 -0.18655914 -0.40943655 -0.9123385 0.00047023207 0.00074286869
-0.044917706 0.17133152 -0.18336509 0.2781204 -0.96054572 -0.00093969703 0.0022232381
-0.035115294 0.17284833 -0.18560554 0.17248008 -0.98501182 0.0015608361 0.00077829254
-0.027648803 0.17383131 -0.18470401 0.15051553 -0.98860669 0.0013835604 0.00034795544
-0.015086807 0.1754851 -0.18731228 0.096922599 -0.9952817 -0.0045105666 0.00072915677
-0.0050174738 0.17681079 -0.18572521 0.045957733 -0.99890614 -0.008630177 0.0015706317
0.0048566009 0.17683195 -0.18657614 -0.037318043 -0.99929303 -0.0045577525 0.0016645041
0.013444893 0.17570129 -0.18514881 -0.078165025 -0.99690861 -0.0079676919 0.0012155345
0.024899079 0.17419329 -0.18873966 -0.14072813 -0.99004543 0.0023758409 0.00027783585
0.03493356 0.17287228 -0.18426767 -0.18659675 -0.98241425 -0.0066225161 0.0013283972
0.047437601 0.17080078 -0.18495783 -0.28999993 -0.95699447 -0.0078471173 0.0023592759
-0.047639061 -0.17071329 -0.17099506 0.27801922 0.96057546 0.00024817136 0.0025957278
-0.036188316 -0.17270309 -0.17557725 0.17478167 0.98460722 2.249229e-05 0.00091988675
-0.022089103 -0.17455927 -0.17440151 0.12514947 0.99213481 -0.0024796408 0.0003862732
-0.015730215 -0.17539644 -0.17512853 0.10570046 0.99439794 0.00034703381 0.00050705421
-0.0038401005 -0.17696181 -0.17620657 0.026914751 0.99963439 -0.002620959 0.0019079755
0.005599435 -0.1767302 -0.17577916 -0.035719052 0.99936152 0.00088322273 0.0018504234
0.014324054 -0.17558159 -0.17644706 -0.0837363 0.99648798 -7.9486694e-05 0.00089352403
0.02416319 -0.17428622 -0.1749776 -0.1302848 0.99147618 -0.00092877576 0.00028142353
0.037162546 -0.17257482 -0.17434724 -0.1992958 0.97992909 0.0044908551 0.0014035284
0.046746552 -0.17088027 -0.17390466 -0.27595094 0.96116579 -0.0033794506 0.0028644702
-0.072262362 -0.16051403 -0.17542568 0.40601468 0.91385841 -0.0038628266 0.00048697001
-0.066794582 -0.16277887 -0.17524436 0.38757786 0.92183661 0.00077468017 0.00017622612
-0.054158304 -0.16801304 -0.17912453 0.3487626 0.93720394 0.003642312 0.00082699122
-0.049476177 -0.16995238 -0.17514452 0.30091241 0.95365083 0.0013707235 0.0027319787
0.049527328 -0.16993123 -0.17863242 -0.29789072 0.95457673 -0.0066687339 0.0022681891
0.054346178 -0.16793513 -0.1742364 -0.33108369 0.94359761 0.0026922165 0.0012812221
0.066719368 -0.16281006 -0.17902777 -0.38790193 0.9217006 0.00039027593 0.00018163797
0.070583671 -0.16120942 -0.17895558 -0.40601167 0.91386759 0.00069153059 0.00052763231
-0.091079988 -0.1518914 -0.17863274 0.516222 0.85644978 0.0029446343 0.0020677811
-0.086302511 -0.1546984 -0.17480859 0.49389607 0.86951768 0.0023635407 0.0024071231
-0.07566423 -0.15910494 -0.17633581 0.41554379 0.90957248 -0.0011101577 0.00068820873
0.076521561 -0.1587498 -0.17414594 -0.42126983 0.90692455 -0.0044390974 0.00086179888
0.086437672 -0.15446359 -0.17666256 -0.48787266 0.87290454 0.0042182156 0.0021780659
0.091082312 -0.15188959 -0.17657597 -0.50497007 0.86312765 -0.003996463 0.0020855304
-0.10320204 -0.14258979 -0.17618531 0.6024937 0.79812372 0.00011017296 0.00017114508
-0.095865712 -0.14821912 -0.17316765 0.54259664 0.83999074 0.0021211298 0.0019765834
0.096241221 -0.14793102 -0.17601624 -0.5446353 0.83867282 0.00053652812 0.0018715408
0.10368921 -0.14221598 -0.17388618 -0.60704201 0.79466945 -0.00066030625 0.00021477684
-0.11233375 -0.13558276 -0.17214596 0.63679111 0.77103472 -0.0016054099 0.00086456584
-0.10751165 -0.13928288 -0.17215723 0.60668725 0.79493982 -0.0011046778 0.00016412127
0.10930022 -0.1379105 -0.17517471 -0.61289185 0.7901659 -0.0012013494 0.00013020253
0.11658796 -0.13231841 -0.17335248 -0.64637381 0.7630204 -0.00087735901 0.00090330828
-0.1266911 -0.12392226 -0.17392471 0.71327221 0.70088691 0.00056725886 0.0024653596
0.12698831 -0.12344573 -0.17523842 -0.71291536 0.70119852 0.0085018249 0.0022685777
-0.13376106 -0.11470848 -0.17348747 0.7616393 0.64798731 0.0042408453 0.0012918329
0.13352621 -0.11501455 -0.17559516 -0.76580268 0.64307559 -5.9847767e-05 0.00096798403
-0.14367983 -0.10178213 -0.17655849 0.81010014 0.58627868 -0.0038872815 0.000538219
-0.138807 -0.10813256 -0.17856818 0.79364926 0.6083743 -0.0012824704 0.00014076798
0.13753986 -0.10978382 -0.17104921 -0.79334551 0.60877097 0.00092670205 9.2384733e-05
0.1419508 -0.10403541 -0.17564237 -0.79949242 0.60066873 -0.0030035519 0.00029145996
-0.14523804 -0.099751368 -0.17279544 0.8178665 0.5753361 -0.0090983445 0.00089307793
0.14549959 -0.099410564 -0.17661594 -0.82511371 0.56495047 -0.0042798263 0.0010726739
-0.15516286 -0.085042603 -0.17440818 0.87826097 0.47816986 0.003332196 0.0021042773
0.154844 -0.085763887 -0.17457263 -0.87199914 0.48947605 -0.0055403393 0.0023506631
-0.15779626 -0.078826562 -0.17649579 0.89454752 0.44696715 -0.0022672813 0.0016416848
0.15888789 -0.076191165 -0.17713124 -0.9068976 0.42134419 -0.0024202575 0.00089096563
0.16048762 -0.072329029 -0.17430004 -0.91500998 0.4034121 -0.0039188061 0.00042669391
-0.16350511 -0.065044165 -0.17501867 0.92824119 0.37197846 -0.00050003541 0.0001637402
0.16480137 -0.061914682 -0.17326225 -0.93332255 0.35903668 -0.0013241861 0.00051583437
-0.16754186 -0.055298578 -0.17573829 0.95056492 0.31052548 -0.00055077387 0.0019589791
0.16710503 -0.056353204 -0.17509344 -0.94168729 0.33648351 -0.0019655661 0.0010443891
-0.17181109 -0.042234313 -0.17430677 0.9737047 0.22774504 -0.005605916 0.0021412801
0.17158401 -0.043728553 -0.17586096 -0.97218728 0.23420191 0.0011846451 0.0024296634
-0.17305459 -0.033531923 -0.17731586 0.98543787 0.16999967 -0.0035015114 0.00076132733
0.17240705 -0.038450375 -0.1731661 -0.98025215 0.19774808 0.0012019188 0.0014794667
-0.17383079 -0.027636027 -0.17438544 0.98768407 0.15645832 -0.00094984501 0.00058421312
0.17416742 -0.025079012 -0.17832166 -0.99167758 0.12874323 0.00090816396 8.9817935e-05
-0.17576039 -0.012979206 -0.17517038 0.99676043 0.080322534 -0.0041154213 0.0011485994
0.17560412 -0.014166026 -0.17420821 -0.99427509 0.10674548 0.0047550271 0.0004628131
-0.17643309 -0.0078695184 -0.17557539 0.99801028 0.062924445 -0.0039878599 0.0016457187
0.17699781 -0.003580129 -0.17621973 -0.99967492 0.024997894 -0.005015777 0.0024990712
-0.17626581 0.0091442401 -0.17747661 0.99739552 -0.072016366 -0.0039832448 0.0013467796
0.17660619 0.0065587903 -0.17751482 -0.99858022 -0.053106315 -0.004146826 0.0019532768
-0.17532873 0.016262112 -0.17549445 0.994681 -0.10295113 0.0032820685 0.00078744721
0.17543009 0.015492138 -0.1788044 -0.99251437 -0.12212147 -0.0012420621 8.3654224e-05
-0.17438424 0.023436302 -0.17555952 0.99102932 -0.13364439 0.00014312296 0.00012034329
0.17425196 0.024441006 -0.17468713 -0.99204344 -0.12587854 -0.0020968833 0.00016328201
-0.17299557 0.033984195 -0.17704828 0.9841547 -0.17731018 0.00075205934 0.0010612304
0.17257538 0.037175801 -0.17653872 -0.97955757 -0.2011565 -0.0017261507 0.0017247873
-0.17130549 0.045043003 -0.17686801 0.96978813 -0.24392295 -0.0035418277 0.0027030285
0.17155798 0.043913502 -0.17690754 -0.96844441 -0.24908145 0.0085898563 0.0028196371
-0.16806443 0.054041106 -0.17661805 0.94237918 -0.33454216 -0.0017626884 0.001233231
0.16774288 0.05481736 -0.17379014 -0.94565499 -0.32511017 -0.0063366885 0.0014983522
-0.16396676 0.063933775 -0.17433831 0.92691278 -0.37527651 0.00026955179 7.6472534e-05
0.16324425 0.065678015 -0.17635316 -0.92694312 -0.37519759 0.0018056931 0.00048551269
-0.16002512 0.073449664 -0.17821409 0.91065985 -0.41314489 -0.0031746731 0.00064296828
-0.15878393 0.076446205 -0.17467386 0.90872741 -0.41738111 0.0027378714 0.00067792099
0.1581661 0.077937797 -0.17586394 -0.91124743 -0.41185784 0.0010529894 0.00059035193
0.16120449 0.070602491 -0.17724697 -0.91809767 -0.39635378 -0.00046331168 0.00032671593
-0.15458009 0.0865319 -0.17329077 0.86588043 -0.50024378 0.0026920855 0.0023731769
0.15452693 0.086370863 -0.1755823 -0.86822736 -0.49613759 -0.005369049 0.0023503513
-0.15128283 0.091877811 -0.17205234 0.85146236 -0.52440852 0.0027418435 0.002309731
-0.14799681 0.096160203 -0.17392412 0.8382712 -0.54523289 -0.0047355453 0.0019998634
0.15088564 0.092395358 -0.17993423 -0.85682988 -0.51558506 -0.0038212233 0.0023239178
-0.14318043 0.10243703 -0.17616391 0.80090237 -0.59879297 -0.0015534788 0.00025705248
-0.13876472 0.1081917 -0.17507656 0.78628415 -0.61786389 -0.0011615861 0.000213661
0.13772047 0.10955261 -0.17454797 -0.78607333 -0.61813211 -0.0011625086 0.00027823547
0.1412985 0.10488961 -0.1751447 -0.79696733 -0.6040225 1.6862943e-05 0.00031454873
-0.13475548 0.11341661 -0.17765808 0.76871938 -0.63958609 0.00045092151 0.00069960381
0.13227311 0.11665174 -0.17723525 -0.74826604 -0.66339761 -0.0011925407 0.0012524062
-0.12527974 0.12517831 -0.17576624 0.71088845 -0.70328087 0.0057981363 0.002341182
-0.11984965 0.12981971 -0.1771138 0.67833203 -0.73475486 0.00096778158 0.0020121122
0.11968728 0.12994438 -0.1714112 -0.66536808 -0.74651539 -0.00020404781 0.0016004713
0.12524082 0.12521844 -0.17522235 -0.70583117 -0.70836806 -0.004132885 0.0021847067
-0.11488944 0.13362581 -0.17805424 0.64358765 -0.76535934 -0.0044664624 0.0012300754
-0.10920647 0.13798654 -0.17547832 0.61384606 -0.78942561 -0.0001999267 2.0219102e-05
0.10868022 0.13839033 -0.17690147 -0.6077804 -0.79410517 2.4743344e-05 8.1582126e-05
0.11254332 0.1354261 -0.17251687 -0.62576979 -0.78000754 -0.00050817127 0.00041188524
-0.10416931 0.14185166 -0.17709711 0.60250306 -0.7981143 -0.0019284865 0.00026371668
-0.093836173 0.14978057 -0.17609777 0.53482503 -0.84496254 0.00069607387 0.0019835467
0.097204104 0.14719629 -0.1734087 -0.55634934 -0.83094323 0.0029522679 0.0015900328
0.10248465 0.14314435 -0.17592929 -0.59979087 -0.80015612 -0.0010582764 0.00018690999
-0.09344966 0.15007716 -0.17496632 0.53084892 -0.84741563 0.0092824465 0.0021428138
-0.083421774 0.15589577 -0.17380118 0.46524706 -0.8851732 0.003673705 0.0019546587
-0.077858426 0.15820016 -0.17635147 0.43900165 -0.8984803 0.0032725197 0.0015358158
0.076967537 0.15856923 -0.17153488 -0.42769369 -0.90390074 -0.0064484514 0.0010243476
0.086682811 0.15454498 -0.17542022 -0.49656904 -0.86799079 0.0033488523 0.0021011224
