# .PCD v0.7 - Point Cloud Data file format
VERSION 0.7
FIELDS x y z normal_x normal_y normal_z curvature
SIZE 4 4 4 4 4 4 4
TYPE F F F F F F F
COUNT 1 1 1 1 1 1 1
WIDTH 564
HEIGHT 1
VIEWPOINT 0 0 0 1 0 0 0
POINTS 564
DATA ascii
0.088336751 -0.12772191 -0.090244226 -0.54532927 0.80374289 -0.23793568 0.0040344135
0.094800606 -0.12476645 -0.093585975 -0.58703256 0.78724313 -0.18878846 0.0081626074
0.10097416 -0.12167196 -0.098502427 -0.64233232 0.75579065 -0.127239 0.01022638
-0.10240028 -0.11815327 -0.093920738 0.65762842 0.73484522 -0.1659136 0.0078230845
-0.099924758 -0.119735 -0.091936223 0.62714684 0.75358701 -0.1969607 0.0062618926
0.10609768 -0.11477338 -0.094599538 -0.6808784 0.72113383 -0.12794748 0.0090257218
-0.12064195 -0.10052423 -0.095248416 0.74043745 0.65914178 -0.13147028 0.0089610601
-0.11498775 -0.10650571 -0.095968008 0.72102654 0.67282748 -0.16560154 0.006998322
0.11749599 -0.10395051 -0.095873512 -0.74429649 0.65402734 -0.13516991 0.0092837922
-0.12432414 -0.096218787 -0.094565362 0.7681973 0.62013334 -0.15908299 0.0097403675
0.11982808 -0.099198103 -0.090543151 -0.74578553 0.62618423 -0.22737023 0.0044906666
0.12524338 -0.095252909 -0.09547285 -0.78996491 0.59603447 -0.14386915 0.0088893138
-0.13306156 -0.082447588 -0.095467113 0.85882723 0.49234366 -0.14146878 0.010129027
-0.1288653 -0.08797171 -0.092755713 0.8147856 0.54410487 -0.20018575 0.0064938492
0.12873124 -0.086825944 -0.090613313 -0.8145377 0.54009563 -0.21171966 0.0046707778
0.13241598 -0.085030794 -0.09780667 -0.83213323 0.53881246 -0.13128361 0.0075477143
-0.13741484 -0.073891245 -0.093887091 0.86518723 0.46552193 -0.1863879 0.0070031574
0.13660727 -0.075602412 -0.094409861 -0.86071575 0.48207241 -0.16362938 0.0070057726
-0.14314914 -0.06411162 -0.094189234 0.89926845 0.404403 -0.16665675 0.0076911687
0.143022 -0.064556293 -0.094473042 -0.89737493 0.40712059 -0.17020912 0.0071523269
-0.14736558 -0.053585291 -0.09471526 0.93041581 0.32664382 -0.16622353 0.0073721944
0.14895552 -0.051448122 -0.097872652 -0.93990022 0.31044641 -0.1421642 0.0079908203
-0.15001671 -0.040218413 -0.091909237 0.94142234 0.25211766 -0.22396587 0.0031910564
-0.14922385 -0.040836491 -0.090025291 0.93943608 0.2577436 -0.22589393 0.003369139
0.14889178 -0.0487753 -0.095416956 -0.93687147 0.31353074 -0.1548239 0.0089212013
0.15033849 -0.043360978 -0.095404796 -0.95176965 0.27467033 -0.13671374 0.011953581
-0.15218429 -0.035785448 -0.094852053 0.9506923 0.25047937 -0.18287753 0.007270792
0.14996696 -0.039490759 -0.0911742 -0.94562513 0.25333923 -0.20399125 0.0066892044
0.15179862 -0.037706971 -0.095301829 -0.9621225 0.24042401 -0.12851703 0.010726309
-0.15473284 -0.025056049 -0.093871675 0.96824872 0.16659373 -0.18638927 0.0056498102
0.15513293 -0.024008924 -0.094230689 -0.97825319 0.14090462 -0.15220575 0.0079596071
-0.1560389 -0.012776386 -0.094162375 0.97902143 0.083176814 -0.18600701 0.0050698486
0.15653385 -0.01533789 -0.095749043 -0.98123533 0.10444122 -0.16207813 0.0064549232
-0.15504295 -0.0054679238 -0.091065481 0.9735406 0.033218551 -0.22608677 0.0038233304
0.15685749 -0.0051872171 -0.096775398 -0.98680788 0.039911065 -0.15689875 0.0075719669
-0.15650888 0.0052122069 -0.095623828 0.98589444 -0.028799575 -0.16487201 0.007778089
0.15626742 0.003722474 -0.094872989 -0.98277944 -0.019038541 -0.18379913 0.005376582
-0.15707108 0.014523985 -0.097570829 0.98563123 -0.08411438 -0.14647809 0.0070999023
0.15722635 0.013362301 -0.097919896 -0.98290014 -0.080129698 -0.1657908 0.0058085108
-0.1547505 0.025554167 -0.094325617 0.9722985 -0.16521005 -0.16535212 0.0087370919
0.15485328 0.025708236 -0.094758324 -0.96383309 -0.16057512 -0.21270031 0.0046069897
-0.1524754 0.034988541 -0.095085025 0.95732087 -0.23592243 -0.16696534 0.0086268485
0.15365024 0.032972697 -0.097063787 -0.96449983 -0.2215842 -0.14366814 0.0079147322
-0.15137932 0.042689271 -0.097990349 0.95394695 -0.26323453 -0.14385003 0.0075529055
-0.14897783 0.046623968 -0.093944065 0.94912803 -0.26711255 -0.16675359 0.0094195958
0.1481007 0.04715899 -0.091740191 -0.93034792 -0.28585395 -0.22965267 0.004547731
0.15181047 0.041854803 -0.098613791 -0.95552814 -0.26179954 -0.13574566 0.0087240739
-0.14630936 0.054761041 -0.09247788 0.91413707 -0.33076146 -0.23441471 0.0049170968
0.14643148 0.056899305 -0.094565518 -0.91541123 -0.36853024 -0.16188827 0.0097207064
-0.14249736 0.065475248 -0.094488978 0.88199818 -0.42655447 -0.20032603 0.0072901305
0.14391711 0.061306134 -0.091830365 -0.89501482 -0.38405457 -0.22682716 0.0047922661
-0.13589813 0.076481186 -0.093851671 0.86264771 -0.47720012 -0.16768707 0.0092594372
0.13729613 0.075434692 -0.095967054 -0.8641091 -0.48246235 -0.14333695 0.0098418165
-0.13059211 0.087762885 -0.097081169 0.82695132 -0.54587394 -0.13480797 0.0090230312
-0.1299652 0.086316571 -0.093144298 0.82210898 -0.53229517 -0.20198706 0.0059379172
0.12871313 0.087899625 -0.092233866 -0.8200056 -0.54220396 -0.18331873 0.0075500468
0.13124581 0.083123028 -0.091627665 -0.82623869 -0.52301592 -0.20924628 0.0054094656
-0.12591086 0.095189564 -0.096815228 0.80107552 -0.5766626 -0.16043133 0.0086079957
0.12458445 0.095682144 -0.094907321 -0.79450339 -0.58586568 -0.15976824 0.0078248074
-0.12022083 0.10153851 -0.096552625 0.74907619 -0.64961338 -0.1299514 0.009839098
-0.11346954 0.10726527 -0.094299957 0.72118825 -0.67477798 -0.15672284 0.0083965259
0.11554962 0.10589977 -0.095871136 -0.72995055 -0.66976434 -0.13633735 0.0086797886
0.12201541 0.10104921 -0.099707104 -0.76784319 -0.63087428 -0.11142027 0.0096411873
-0.11028833 0.1115191 -0.096715167 0.69122642 -0.71271449 -0.1193483 0.010032209
-0.10566106 0.11570977 -0.095760755 0.66083342 -0.73713613 -0.14117177 0.0088215889
0.09989351 0.11918595 -0.090660304 -0.6216293 -0.74477845 -0.24265631 0.0046554157
0.10468079 0.11533223 -0.092712954 -0.66591233 -0.71941906 -0.19747663 0.0072407979
0.11020458 0.11096005 -0.095245078 -0.70328337 -0.69750327 -0.13741075 0.0088487538
-0.10164473 0.12012712 -0.096580133 0.63238192 -0.76509458 -0.12133981 0.01022271
-0.094176516 0.12574063 -0.094551235 0.57533985 -0.80540621 -0.14249516 0.0093604419
-0.087565854 0.12956113 -0.093998507 0.54283738 -0.82616663 -0.15091808 0.0092815254
0.088238858 0.1290599 -0.093695089 -0.55132419 -0.81614631 -0.17305139 0.0070350864
0.095911011 0.12426414 -0.094310872 -0.59998083 -0.78146988 -0.17125413 0.0086007407
0.10065689 0.12149948 -0.097425558 -0.6383146 -0.76020467 -0.12100967 0.011071079
-0.084037036 0.13172364 -0.094335489 0.53192115 -0.83020461 -0.16679375 0.0086854864
-0.075393245 0.13639157 -0.093466759 0.48162457 -0.86136979 -0.1614923 0.010131185
0.078716442 0.13350308 -0.090855144 -0.50224811 -0.83658814 -0.2187856 0.0057385713
0.088948354 0.13052733 -0.098749816 -0.53851181 -0.8337611 -0.12185017 0.01003103
-0.064483471 0.14361595 -0.096008338 0.42295122 -0.89040148 -0.16821836 0.0070512127
-0.055036206 0.14716667 -0.095407583 0.32400745 -0.93061459 -0.17022236 0.0083849914
-0.044999581 0.14891976 -0.092462339 0.2834841 -0.93100739 -0.22991759 0.0055833911
0.046862666 0.14838319 -0.092350163 -0.28756949 -0.92957181 -0.23065121 0.0030812037
0.055167615 0.14719824 -0.095474876 -0.3666667 -0.92011529 -0.13763489 0.010301518
0.064215086 0.14325741 -0.094576523 -0.42197075 -0.8940478 -0.15039697 0.0090703666
0.070427634 0.14079112 -0.097593941 -0.45795089 -0.88032234 -0.12374794 0.0095455963
-0.041788753 0.15115862 -0.096602775 0.25445175 -0.94985312 -0.1817507 0.0073101022
-0.037038364 0.15269426 -0.097392008 0.21883793 -0.9641248 -0.15024437 0.0066295965
-0.0260031 0.15522431 -0.096109957 0.14552499 -0.97769696 -0.15143041 0.0061738403
-0.014852568 0.15632883 -0.095063902 0.078663781 -0.98359805 -0.16231735 0.007138256
-0.007270738 0.15649612 -0.095584109 0.045109998 -0.98803198 -0.14750557 0.007756257
0.0032823919 0.15565574 -0.09297096 -0.013718896 -0.9760474 -0.21712495 0.0033290796
0.01511946 0.15601848 -0.094098896 -0.070274368 -0.98324728 -0.16818555 0.0046349987
0.024740644 0.1549332 -0.094279863 -0.16195852 -0.96878833 -0.18766622 0.0066327532
0.033377726 0.15258817 -0.094127342 -0.20287107 -0.96736008 -0.15184781 0.0081404382
0.043307707 0.15162392 -0.099291079 -0.25695631 -0.95938271 -0.11643937 0.0087616919
-0.031517211 -0.15061426 -0.086701356 0.19433926 0.94088948 -0.27741528 0.0020124807
-0.023602407 -0.15278509 -0.086851776 0.14063169 0.95432776 -0.26359278 0.002885076
-0.016328068 -0.15375283 -0.087053977 0.11067422 0.95574987 -0.27256802 0.0023746463
-0.0062765977 -0.15283416 -0.084197387 0.034794752 0.95490116 -0.29487798 0.0011007069
0.0049693128 -0.15326583 -0.085539632 -0.015034174 0.96308029 -0.26879427 0.001030084
0.01438344 -0.15287894 -0.084336601 -0.087817661 0.95190245 -0.29354694 0.0020530284
0.02579399 -0.15167862 -0.085297033 -0.16868167 0.94601017 -0.27678749 0.0023002559
-0.061011456 -0.14139248 -0.084573701 0.38879085 0.87757397 -0.28054529 0.0017731244
-0.057228427 -0.14243692 -0.082975805 0.36236206 0.88652152 -0.28770339 0.0020870036
-0.044509187 -0.1460079 -0.083321854 0.27149639 0.91850513 -0.28746834 0.00075495004
-0.036723074 -0.14825729 -0.083811805 0.2322219 0.92748117 -0.29300436 0.00042795044
0.035775784 -0.14879243 -0.084656745 -0.23539664 0.92860115 -0.28685954 0.00070330116
0.045297679 -0.14645144 -0.085288674 -0.28038195 0.9183197 -0.27941892 0.0010512568
0.056293361 -0.14373837 -0.085989095 -0.35374632 0.89356166 -0.27642578 0.0023396455
0.062078148 -0.14056975 -0.084016576 -0.38498613 0.87383682 -0.29697627 0.0020609079
-0.081502959 -0.13064156 -0.087481782 0.51470488 0.81164962 -0.27623132 0.0013515527
-0.073053934 -0.13436393 -0.084369607 0.46730286 0.83606488 -0.28744301 0.00091500912
-0.067254163 -0.1369514 -0.082320221 0.42704844 0.85659409 -0.28961375 0.0011666049
0.066807307 -0.13705246 -0.081897505 -0.41730022 0.85618347 -0.30464798 0.0014412341
0.074474365 -0.13331737 -0.083759658 -0.47876441 0.82750809 -0.2932829 0.0005752999
0.080868423 -0.13062844 -0.086459823 -0.50390691 0.81695205 -0.28047672 0.0016788542
-0.09295699 -0.12235103 -0.083415806 0.57899153 0.76095963 -0.29276142 0.0020471413
-0.083165415 -0.12770011 -0.082145497 0.51268613 0.80676866 -0.29372993 0.00082625134
0.07995861 -0.12965204 -0.082415968 -0.49230096 0.81887388 -0.29510221 0.00042537815
0.087525435 -0.12655495 -0.085840337 -0.53813767 0.78958994 -0.29488212 0.0016601246
0.094180159 -0.12202021 -0.084950455 -0.58128119 0.75783712 -0.29630223 0.0020908942
-0.10338043 -0.11294493 -0.084604762 0.64736348 0.70595247 -0.28731793 0.0011586235
-0.097331718 -0.11814813 -0.082745694 0.59491348 0.74595445 -0.29938236 0.0021151439
0.098074652 -0.11768287 -0.083356254 -0.6156373 0.73347044 -0.28811786 0.0020688372
0.10430326 -0.11221886 -0.085037351 -0.65414953 0.69863808 -0.28981575 0.00095554872
-0.11166965 -0.1048056 -0.084934354 0.69470328 0.6618914 -0.28157985 0.0010764005
-0.10789999 -0.10849621 -0.084760495 0.6772579 0.68043536 -0.27987391 0.0012260206
0.10872389 -0.10789375 -0.085247442 -0.67964649 0.67419839 -0.28902787 0.00094771013
0.11558626 -0.10171834 -0.086757861 -0.71385372 0.63667625 -0.2916443 0.0013425294
-0.12240128 -0.094017841 -0.085632659 0.75876343 0.59076679 -0.27435854 0.0024992551
-0.118516 -0.096625283 -0.082001306 0.7370103 0.60741913 -0.29640824 0.0019921316
0.11646362 -0.099135332 -0.083007589 -0.71833777 0.63269371 -0.28929144 0.001298962
0.12323119 -0.092577696 -0.084744841 -0.76008832 0.58484864 -0.28322735 0.0020837539
-0.12671359 -0.086203247 -0.084211908 0.79630828 0.53125018 -0.28925139 0.0015452332
0.12768929 -0.085569225 -0.085853569 -0.80225253 0.52539659 -0.28345942 0.001339703
0.13213965 -0.080236524 -0.089546934 -0.82982284 0.50008291 -0.24761103 0.0025065825
-0.13414754 -0.07381507 -0.084970184 0.8362456 0.4702011 -0.28214219 0.00054337148
0.13520497 -0.073200941 -0.086862929 -0.84977621 0.45779702 -0.26134714 0.0021956784
-0.14079362 -0.063649707 -0.087062828 0.88410985 0.38917902 -0.25862995 0.0023490111
-0.13765566 -0.06714455 -0.084046192 0.8626895 0.41550779 -0.2883057 0.0017762262
0.13848613 -0.065494999 -0.083717957 -0.86773968 0.40888351 -0.28256366 0.0016767896
0.14142652 -0.064167239 -0.089571714 -0.88573748 0.39920923 -0.23685688 0.0030687442
-0.14469473 -0.055231806 -0.088007212 0.9069733 0.34191227 -0.24595821 0.0026160008
0.14324813 -0.056561884 -0.084732793 -0.89109182 0.35553947 -0.28204098 0.0018226038
-0.14681539 -0.045128159 -0.086245388 0.92310268 0.27602801 -0.2677497 0.0015874141
0.14679226 -0.045321561 -0.086331539 -0.92081428 0.27668244 -0.27485991 0.0010770669
-0.15132853 -0.031371571 -0.088729545 0.94797254 0.19789355 -0.2493715 0.0031143338
-0.14828803 -0.035520494 -0.082936317 0.92614841 0.22455983 -0.30302155 0.00092307286
0.14840411 -0.036922496 -0.084413312 -0.930852 0.23241435 -0.28195411 0.0012141642
-0.15222499 -0.024318656 -0.085747562 0.94688326 0.14971779 -0.28459918 0.002346389
0.14978349 -0.02937822 -0.0824847 -0.93916804 0.18275245 -0.29080072 0.0014764295
0.15242665 -0.027574232 -0.08897163 -0.95462984 0.16710354 -0.246492 0.0032331152
-0.152935 -0.017845377 -0.08451093 0.94705588 0.12057713 -0.29756725 0.0022126925
0.15363717 -0.014275363 -0.08669433 -0.95915908 0.085779175 -0.26954746 0.0021290754
-0.15247083 -0.003568951 -0.083067603 0.95569217 0.025589418 -0.29325342 0.00068776368
0.15281147 -0.0073710619 -0.0841268 -0.95314503 0.052181657 -0.29797927 0.0012098171
-0.15290059 0.0058872988 -0.08440394 0.95413828 -0.033684261 -0.29746518 0.0007012657
0.15297309 0.0047168466 -0.084629342 -0.95663661 -0.03076853 -0.28965443 0.00061737857
-0.15341792 0.016251568 -0.08601255 0.95496023 -0.092805713 -0.28184772 0.0018233253
0.15355444 0.014026408 -0.086437061 -0.9607197 -0.072386667 -0.26791373 0.0020123224
-0.15253922 0.022722879 -0.085405424 0.94703066 -0.13805236 -0.289956 0.0020083631
-0.14953965 0.028114799 -0.080735579 0.93781394 -0.18310378 -0.2949203 0.0012992455
0.14893299 0.029500123 -0.080028348 -0.93419653 -0.1897257 -0.30212754 0.0012739353
0.15192015 0.024889782 -0.085289963 -0.95009351 -0.15103583 -0.27296618 0.002247578
-0.1505256 0.03147468 -0.086400867 0.94000965 -0.19862641 -0.27736151 0.0018078273
-0.14908229 0.035781059 -0.085531592 0.93078887 -0.23677906 -0.27850977 0.00091797806
0.14864673 0.03575157 -0.084199615 -0.92748624 -0.23555569 -0.290315 0.00041366578
-0.14479007 0.048196256 -0.082631476 0.90745139 -0.30131364 -0.29281762 0.0013215478
0.14638905 0.045642447 -0.085378751 -0.91923296 -0.27690908 -0.27987868 0.0014653034
-0.14360055 0.053801596 -0.083664507 0.89586669 -0.33536169 -0.29147086 0.0018490254
0.14348082 0.055177342 -0.084317394 -0.89117986 -0.3454484 -0.29404733 0.0020103161
-0.14172783 0.062246479 -0.08739686 0.88410699 -0.38426501 -0.26588556 0.0023137361
-0.13877769 0.064983167 -0.08370731 0.86597693 -0.4089821 -0.28778043 0.0013544416
0.1377428 0.065350868 -0.081492178 -0.85464138 -0.42764577 -0.29446101 0.0012355393
0.14132483 0.061877634 -0.085738182 -0.87321079 -0.39974838 -0.27875477 0.0019135677
-0.13290255 0.075296991 -0.083921574 0.83371341 -0.46569502 -0.29673234 0.00088524027
0.12958637 0.079525679 -0.081566043 -0.82131886 -0.48843354 -0.29473379 0.00046689608
0.13496946 0.072221957 -0.084706627 -0.84648156 -0.45204678 -0.28128746 0.0008944124
-0.1287445 0.083730981 -0.08583717 0.80848479 -0.52367014 -0.26855525 0.0021345131
0.12738945 0.085305229 -0.084635735 -0.79916257 -0.52729529 -0.28861532 0.0013516783
-0.12207804 0.094374701 -0.085288711 0.75182253 -0.5910542 -0.29226321 0.0019267724
-0.11832441 0.097969815 -0.084536329 0.73721272 -0.60900092 -0.29263505 0.0020657135
0.11786171 0.097773455 -0.083087213 -0.73015374 -0.61560667 -0.29648611 0.0017146603
0.12346381 0.092466146 -0.085518859 -0.768511 -0.57143646 -0.28783876 0.001711675
-0.1133892 0.10335758 -0.085531346 0.70750064 -0.64994347 -0.27751845 0.0015968983
0.10824453 0.10967535 -0.088110693 -0.67757177 -0.69003057 -0.25446862 0.0028420922
0.1118848 0.1053293 -0.086558819 -0.70055181 -0.65479553 -0.28367203 0.0010819791
-0.10401829 0.11281826 -0.085728735 0.65669155 -0.70324218 -0.27240881 0.0017786071
-0.097279467 0.11781452 -0.081897318 0.60952246 -0.73186427 -0.30472463 0.0018937476
0.098484434 0.11871801 -0.086533248 -0.6160621 -0.74063933 -0.26818061 0.0027267653
0.10222572 0.11408557 -0.084573783 -0.63673598 -0.71432471 -0.29035735 0.0017588257
-0.093950011 0.12305012 -0.086954199 0.58240372 -0.76966184 -0.26158464 0.0028832692
-0.08515726 0.12695716 -0.083241604 0.52037168 -0.804923 -0.28515324 0.00105543
0.079372302 0.12981603 -0.08194612 -0.49567884 -0.81555617 -0.29861444 0.0011047404
0.087473579 0.12650843 -0.0856345 -0.53336847 -0.80030167 -0.27392578 0.0022739493
0.094993368 0.12171695 -0.08593452 -0.5905081 -0.75789362 -0.27730384 0.0028113229
-0.074357301 0.13356145 -0.084234945 0.46908116 -0.83493894 -0.28781903 0.00049706642
-0.068827033 0.13549563 -0.080845341 0.43415305 -0.85237253 -0.29149988 0.0010041915
0.065924227 0.13919288 -0.086288527 -0.41908798 -0.86199957 -0.2851702 0.001274911
0.075332835 0.133641 -0.085965961 -0.47781828 -0.82725263 -0.29553837 0.0006192791
0.082982063 0.13061446 -0.089708403 -0.52557105 -0.8217054 -0.22039807 0.0058228979
-0.064053878 0.14045137 -0.086769529 0.40069941 -0.87570691 -0.269402 0.0023242855
-0.056286938 0.14335345 -0.084987059 0.33874729 -0.89611071 -0.28676823 0.0018206894
-0.044754714 0.14662986 -0.08538755 0.28001383 -0.91441047 -0.29231116 0.00094814936
-0.036448341 0.14856541 -0.084516175 0.23815092 -0.92912805 -0.28285193 0.00067602517
-0.029415946 0.14932431 -0.081135958 0.19155137 -0.93454689 -0.29988363 0.0011998956
0.045319077 0.14584681 -0.083489873 -0.27587989 -0.91641033 -0.28996956 0.0007122723
0.055509437 0.14426054 -0.08692652 -0.35264158 -0.89932412 -0.25857311 0.0027635025
0.062714204 0.14173454 -0.088142157 -0.39523768 -0.87901074 -0.26669708 0.0025871655
-0.033664629 0.1511146 -0.089932345 0.20866644 -0.94653279 -0.24603651 0.0024420086
-0.026193932 0.1512955 -0.084463358 0.15586552 -0.94455791 -0.28899208 0.0016620063
-0.013384536 0.15333486 -0.085754275 0.071082175 -0.9605996 -0.26869261 0.0019882631
-0.0067386581 0.15348913 -0.086233974 0.036994655 -0.96307522 -0.26667863 0.0021064132
0.0058776001 0.1530031 -0.084722698 -0.039943609 -0.9564926 -0.28900927 0.00087024202
0.016268304 0.15245612 -0.083021849 -0.09626583 -0.95230424 -0.28956777 0.0020771222
0.0233276 0.15243706 -0.085585274 -0.15017827 -0.94469041 -0.29155883 0.0018677721
0.032852359 0.15076162 -0.08821848 -0.21198478 -0.93993855 -0.26754045 0.0019864307
-0.013488184 -0.15062639 -0.0773324 0.073507547 0.95144999 -0.29889706 0.0016001137
-0.0060838484 -0.15035579 -0.076490916 0.030624397 0.95257992 -0.30274358 0.00081808411
0.0031668418 -0.15100771 -0.078518108 -0.009090431 0.95451015 -0.29803991 0.00062378985
0.014678412 -0.15113071 -0.078900523 -0.086680576 0.95005184 -0.29981333 0.0017075049
0.020568956 -0.15003052 -0.076137096 -0.12241425 0.94661987 -0.29820403 0.0023365712
-0.052699342 -0.14269187 -0.079953469 0.32198906 0.89844257 -0.29853645 0.0013698272
-0.047228105 -0.1438635 -0.079069324 0.29967076 0.905348 -0.30090266 0.0011698002
-0.030142169 -0.14714399 -0.075171776 0.19226089 0.93190026 -0.30756736 0.0012900971
-0.025953503 -0.14810939 -0.074700333 0.16367529 0.9370501 -0.30845979 0.00171369
-0.015775859 -0.14888287 -0.071910933 0.10241342 0.94580996 -0.30814758 0.0017935478
-0.0057771523 -0.14908276 -0.072532535 0.02931371 0.95234162 -0.30362177 0.00082785753
0.0050977566 -0.14896093 -0.072153673 -0.035971545 0.95154345 -0.30540347 0.00090211292
0.014385855 -0.14862832 -0.071119465 -0.09941873 0.94685662 -0.30590597 0.0022397672
0.022434676 -0.14982587 -0.077023908 -0.12241498 0.9466179 -0.29820976 0.0023446034
0.034555852 -0.14627506 -0.076114014 -0.22226158 0.92628628 -0.30429193 0.00097605563
0.041723046 -0.14471319 -0.077190958 -0.25408196 0.91952997 -0.29984489 0.00087792182
0.052857541 -0.14204928 -0.078150839 -0.32975152 0.89317673 -0.30577636 0.0014273814
-0.072379678 -0.13270472 -0.078853294 0.47124895 0.83024848 -0.29767779 0.00080324209
-0.06364198 -0.13628718 -0.074915588 0.41276753 0.85953027 -0.30138144 0.0014666078
-0.057193488 -0.1383478 -0.070522852 0.34995332 0.88465762 -0.30808049 0.0018430299
0.05986879 -0.13716047 -0.071400873 -0.37169799 0.87757903 -0.30281296 0.0018321647
0.065122463 -0.13548891 -0.075067624 -0.41624781 0.85668194 -0.30468652 0.0015677114
0.074658513 -0.13009396 -0.075365752 -0.48315167 0.82073879 -0.3048808 0.00046704989
-0.085525267 -0.12399551 -0.07583838 0.54461348 0.78026605 -0.3075403 0.0015647573
-0.078639254 -0.12805596 -0.076066777 0.49895915 0.81208116 -0.30259541 0.00053593051
0.072597601 -0.12951781 -0.070610024 -0.47053218 0.82680362 -0.30821311 0.00062953762
0.086290963 -0.1224708 -0.072922982 -0.54197377 0.78119648 -0.30983296 0.0015377107
0.091242418 -0.12212764 -0.079697102 -0.55259103 0.77660745 -0.30252934 0.0015467169
-0.10069757 -0.11179204 -0.076170973 0.64179051 0.70523363 -0.30124819 0.0012716408
-0.094776355 -0.11685307 -0.074531756 0.59730119 0.74217492 -0.30398622 0.002099989
0.096803091 -0.11581628 -0.076456293 -0.59985626 0.73767442 -0.30985299 0.0021777523
0.10253285 -0.11020171 -0.076709539 -0.65500838 0.69123071 -0.30522799 0.00055368064
-0.11168045 -0.10240939 -0.079689443 0.69423449 0.65575325 -0.29669192 0.00060974166
-0.1048218 -0.10753182 -0.075871997 0.66875547 0.67792904 -0.30525118 0.00033756913
-0.12074441 -0.093035191 -0.079007335 0.75132042 0.58778208 -0.30004972 0.0017966144
-0.11570705 -0.09614107 -0.074760534 0.72045296 0.61645705 -0.31769204 0.0019491835
0.11303393 -0.097994603 -0.072958454 -0.71388435 0.62678057 -0.31227455 0.0014327321
0.12053137 -0.091747925 -0.076454863 -0.75352246 0.58064717 -0.30830625 0.0019809387
-0.12231936 -0.088033393 -0.075224176 0.77567327 0.55477124 -0.3009316 0.002073403
0.12233827 -0.086863883 -0.073456794 -0.78266573 0.54148513 -0.30696627 0.0017756961
-0.13077304 -0.072611727 -0.07401219 0.82627952 0.47198334 -0.30739856 0.00061652099
0.12692444 -0.078594923 -0.072950721 -0.80592024 0.50364989 -0.31117401 0.00098612811
0.13152069 -0.071750827 -0.074687034 -0.82728511 0.46758729 -0.31138647 0.00029610714
-0.13561648 -0.064147964 -0.073896058 0.85198569 0.42121294 -0.31096619 0.0014423691
0.13533092 -0.065014131 -0.074473701 -0.85488045 0.42050835 -0.30389509 0.0015780329
-0.14167798 -0.05320356 -0.077314079 0.89524031 0.32928938 -0.30018881 0.0015850913
-0.13873309 -0.058449339 -0.073610745 0.88011718 0.36541829 -0.30308944 0.0022566763
0.13950759 -0.056510914 -0.073457018 -0.88334489 0.35922268 -0.30109939 0.0017766455
0.14116955 -0.051411126 -0.074344508 -0.89506292 0.32216638 -0.3083362 0.0016433846
-0.14419417 -0.042727396 -0.076440372 0.9154157 0.2673578 -0.30088854 0.00070536433
0.14377773 -0.041465811 -0.074174345 -0.91369402 0.2653347 -0.30783224 0.00086967507
-0.14549202 -0.035509925 -0.074529976 0.92654359 0.21254361 -0.31039023 0.00083207613
0.14613552 -0.034068268 -0.075302489 -0.92750609 0.21810062 -0.30358621 0.00061969529
-0.15068167 -0.021432111 -0.078787498 0.94436121 0.13297854 -0.30082995 0.0021864432
-0.14880246 -0.026528101 -0.077244416 0.93792236 0.16427742 -0.30547425 0.0017480176
0.14741102 -0.025714232 -0.072410248 -0.93593812 0.17251006 -0.30701813 0.0014074432
-0.15108266 -0.013615452 -0.078751169 0.95066333 0.091552459 -0.29640725 0.0018558144
-0.14908998 -0.014237108 -0.072554961 0.94909424 0.087739408 -0.30252594 0.001975853
0.14915484 -0.019796101 -0.072884992 -0.94427872 0.12346669 -0.30511263 0.0020739781
0.150318 -0.013939894 -0.076373436 -0.94992101 0.08929839 -0.29945928 0.0019849844
-0.15018141 -0.0076896888 -0.07594876 0.95309705 0.054694109 -0.29768193 0.0013235349
-0.14911932 -0.003869883 -0.072646178 0.95269829 0.0069397246 -0.30383846 0.00054054486
0.14931113 -0.0038453666 -0.07324262 -0.9523921 0.023988379 -0.30393058 0.00075331645
0.15037599 -0.0014332933 -0.076553762 -0.95295882 0.011820772 -0.30286926 0.00091659103
-0.15081486 0.0028199898 -0.077918425 0.95501369 -0.018474301 -0.29598588 0.00095576356
-0.14894107 0.0045794528 -0.07209193 0.95144892 -0.017941849 -0.30728343 0.00060366077
0.14910458 0.0056618792 -0.072600387 -0.95139617 -0.039290603 -0.30545324 0.0009359541
0.15071003 0.0042860815 -0.077592455 -0.95288455 -0.028720045 -0.30197048 0.0005121447
-0.15096769 0.01363636 -0.07839366 0.95062256 -0.07205601 -0.3018688 0.0012612134
0.14889282 0.01605493 -0.072002582 -0.94516212 -0.10756429 -0.30838051 0.0020084698
0.15093723 0.016205065 -0.078298956 -0.94588304 -0.10801194 -0.30600423 0.0016568557
-0.14764725 0.026058093 -0.073396459 0.93525571 -0.1749074 -0.30774033 0.0018055331
0.14833257 0.024700867 -0.074362583 -0.94026232 -0.15229316 -0.30448899 0.0017132894
-0.14573154 0.035876568 -0.075544454 0.92244756 -0.23757301 -0.30438408 0.00032209331
0.14565718 0.033801343 -0.073651023 -0.9258762 -0.21599212 -0.31000119 0.0011782805
-0.14388639 0.043286007 -0.075965524 0.91279727 -0.27150148 -0.30510342 0.00059755804
0.14340051 0.044294722 -0.075317986 -0.91051054 -0.26685461 -0.31584674 0.00090586132
-0.1416523 0.053479765 -0.077459238 0.89257902 -0.33534259 -0.30141023 0.0019437461
-0.13908581 0.054340612 -0.070443578 0.88480157 -0.34914705 -0.30858147 0.0021996943
0.13838165 0.057930183 -0.072000831 -0.87564611 -0.36047581 -0.32140496 0.0021374095
0.14121169 0.054142233 -0.076668985 -0.88392246 -0.3490369 -0.31121448 0.0020092255
-0.13487865 0.065973587 -0.07474754 0.85010725 -0.42554674 -0.31020585 0.0013198905
0.13679868 0.061796136 -0.073423117 -0.86322123 -0.39363697 -0.31606796 0.0023240128
-0.13242215 0.072702408 -0.078593999 0.83190572 -0.46921793 -0.29625547 0.00078831846
-0.12841658 0.077625066 -0.075460985 0.81957531 -0.48537159 -0.30448428 0.00089779851
0.12856218 0.076610789 -0.074276105 -0.82140052 -0.48190323 -0.30507457 0.00052385568
0.13148749 0.073510908 -0.077334099 -0.82622534 -0.47730219 -0.2992228 0.00040168455
-0.12443309 0.082933605 -0.072987318 0.78472573 -0.53161931 -0.31872624 0.0014517608
0.12338093 0.084789552 -0.073039517 -0.78534925 -0.53747195 -0.30716521 0.0017207592
-0.12250194 0.090298645 -0.079237737 0.76331931 -0.56841779 -0.30699307 0.0017886504
-0.11536216 0.096321389 -0.074398607 0.73007721 -0.60830009 -0.31138095 0.001787361
0.11590741 0.096388318 -0.075744696 -0.73205876 -0.6065805 -0.3100808 0.0016909621
0.12026177 0.090044364 -0.072809875 -0.75916189 -0.57274258 -0.30925587 0.0021093125
-0.11289554 0.10090193 -0.079046629 0.71360821 -0.63292128 -0.30028975 0.0010715962
-0.10554562 0.106209 -0.074554935 0.66193169 -0.68291134 -0.30899605 0.00051735324
0.10581204 0.10531678 -0.07317894 -0.66912949 -0.67309725 -0.31496948 0.00076341204
0.11045799 0.10352802 -0.079461128 -0.69574183 -0.65317994 -0.29882985 0.00062234187
-0.09742295 0.11492186 -0.07585258 0.61402589 -0.72443569 -0.31331307 0.0016572849
0.096176989 0.11551239 -0.074411452 -0.60190296 -0.73615462 -0.30949831 0.001995665
0.10135394 0.112004 -0.078080207 -0.63532722 -0.71006769 -0.30358398 0.0013582984
-0.090674579 0.12066652 -0.074879631 0.56165183 -0.76755196 -0.308887 0.0015804127
-0.083516926 0.1252452 -0.076081172 0.53076607 -0.78920221 -0.30894551 0.0015957057
-0.075936005 0.12921055 -0.074972965 0.48215011 -0.82013887 -0.30806428 0.00060089148
0.078891195 0.12675245 -0.072948292 -0.4975028 -0.81257117 -0.30367598 0.00094460358
0.083703935 0.1242791 -0.073770426 -0.53180408 -0.78799176 -0.31024733 0.0012550572
0.09112674 0.12057687 -0.07534124 -0.58070058 -0.75234234 -0.31107524 0.0017004933
-0.072990164 0.13108356 -0.075436726 0.475815 -0.82270873 -0.31104741 0.0007926973
-0.063663155 0.13617344 -0.074642129 0.40819445 -0.86113584 -0.30302218 0.0014624749
0.053915352 0.13974075 -0.072068408 -0.3562741 -0.88052714 -0.31263497 0.0020684681
0.064059049 0.13640553 -0.075882673 -0.40811428 -0.85939705 -0.30802494 0.0016123444
0.07119143 0.13202086 -0.075164318 -0.45824641 -0.83395338 -0.30746031 0.00091611489
-0.055169836 0.14073816 -0.076073743 0.34137183 -0.88936746 -0.30412295 0.0015663763
-0.044556201 0.14343615 -0.075635448 0.27466404 -0.91145933 -0.30627042 0.00075134728
-0.033966873 0.14633909 -0.075832307 0.20930061 -0.92861527 -0.30637717 0.00070445245
-0.022933386 0.14923537 -0.075651675 0.13913687 -0.94209862 -0.30510843 0.0017232562
-0.017017504 0.14894916 -0.072117127 0.10362604 -0.94480014 -0.31082845 0.0018226635
-0.0069108484 0.1489884 -0.072239101 0.042874694 -0.95109135 -0.30592009 0.0010718337
0.0029712319 0.14909615 -0.072574139 -0.0071973107 -0.95061332 -0.31029427 0.00043974601
0.01238879 0.14919704 -0.072887897 -0.058376819 -0.95032251 -0.30574378 0.001641024
0.024492808 0.1481168 -0.073547088 -0.16154617 -0.93935668 -0.3025094 0.0021263943
0.037530802 0.14571916 -0.076838516 -0.24263269 -0.92132497 -0.30379218 0.00064386701
0.045810744 0.14369729 -0.077429414 -0.28482759 -0.91027075 -0.30046687 0.00093804405
0.053270251 0.14156269 -0.077021457 -0.34235203 -0.88743335 -0.30863765 0.0021868707
-0.016979843 0.15089338 -0.078162611 0.11190389 -0.94643992 -0.3028678 0.0020763695
-0.0028964458 0.15056461 -0.077140309 0.013886129 -0.95377755 -0.30019239 0.00078708935
0.0027987948 0.15116291 -0.079000644 -0.0061732493 -0.95467281 -0.29759315 0.0005041603
0.020427298 0.15074156 -0.078158692 -0.12320803 -0.94580418 -0.30045658 0.0024402442
-0.044191759 -0.14120743 -0.06864816 0.28225294 0.90711665 -0.31220615 0.0010060617
-0.034729932 -0.14289479 -0.066101432 0.23307307 0.92325801 -0.3054038 0.00031123016
-0.023320502 -0.14501803 -0.06329643 0.14522485 0.94092417 -0.30589452 0.0019152329
-0.014723661 -0.14610624 -0.063277163 0.08482413 0.94720095 -0.30921692 0.0013746759
-0.0047531161 -0.14691646 -0.065796487 0.021867104 0.95391381 -0.29928294 0.00055895693
0.006026201 -0.14706302 -0.066252209 -0.036770109 0.94825387 -0.31537694 0.0011537162
0.015620368 -0.14772078 -0.06829752 -0.10728889 0.94381118 -0.31258532 0.0020680979
0.026462907 -0.14514461 -0.066205584 -0.17762713 0.93473053 -0.30777827 0.0013922069
0.033664558 -0.14283074 -0.06505169 -0.21289885 0.92638487 -0.31062064 0.0010138083
0.041736111 -0.14141709 -0.067301571 -0.26560041 0.91554087 -0.3020618 0.00088606752
-0.065690711 -0.13155967 -0.065370239 0.42914113 0.8489821 -0.30832985 0.0012903205
-0.057284076 -0.13604632 -0.06490732 0.36291915 0.87846261 -0.31079429 0.0019364526
-0.045764521 -0.13920172 -0.063889727 0.29254982 0.90528667 -0.30801097 0.00090802152
0.03904701 -0.13976565 -0.060177393 -0.25799444 0.91602629 -0.30713969 0.0010626299
0.047199041 -0.1387953 -0.063823551 -0.31890148 0.89536017 -0.31085688 0.0016042102
0.057169624 -0.13640009 -0.065497324 -0.36974293 0.87728411 -0.30604383 0.0021812438
0.066133678 -0.13126439 -0.065263659 -0.42440125 0.8494882 -0.31345397 0.0014317457
0.07016173 -0.13032416 -0.068994299 -0.46433148 0.83054161 -0.30756617 0.00049853377
-0.075801827 -0.12622696 -0.066730075 0.49789932 0.81012017 -0.3095184 0.00061866653
-0.067058943 -0.12941863 -0.061731949 0.44318217 0.84155244 -0.30883506 0.001168578
0.068888754 -0.12789141 -0.060464062 -0.45294458 0.83627492 -0.30900726 0.00087629096
0.073619224 -0.1257253 -0.061985649 -0.48296681 0.81900871 -0.30978677 0.00083625049
0.082725435 -0.1223764 -0.067125246 -0.53176773 0.7868064 -0.3133029 0.0016395815
-0.093224406 -0.11529209 -0.067435153 0.60466784 0.73423278 -0.30867285 0.0017004445
-0.086871386 -0.11841939 -0.062915422 0.56434345 0.76384819 -0.31313324 0.0020655009
0.089701913 -0.11731198 -0.064475007 -0.56559426 0.76410961 -0.31022519 0.0019204414
0.093638815 -0.11415702 -0.065850601 -0.59498447 0.73777395 -0.31887782 0.0021795225
-0.10434305 -0.10323192 -0.065365016 0.67778754 0.66896009 -0.30511698 0.00068441418
-0.098833546 -0.10798931 -0.0637113 0.63476962 0.70919579 -0.30677167 0.0013786077
0.098732047 -0.10863916 -0.064916976 -0.65899658 0.6888411 -0.30202898 0.00054311776
0.10274699 -0.10476661 -0.065230072 -0.672059 0.67415243 -0.30635774 0.00081287988
-0.11377218 -0.091795444 -0.060951378 0.73037791 0.61185813 -0.30360788 0.0017168904
-0.1076614 -0.098737814 -0.062779814 0.69797552 0.64326406 -0.31470853 0.0010908757
0.1089431 -0.097567737 -0.063025251 -0.70957005 0.63307977 -0.30938685 0.001383345
0.11430172 -0.092867464 -0.064472802 -0.73359823 0.60484892 -0.30982497 0.0021781044
-0.12336692 -0.082808807 -0.069922239 0.78902102 0.53139091 -0.30833358 0.0016735692
-0.11951465 -0.084311843 -0.061885372 0.77740717 0.54947752 -0.30612507 0.0018480081
0.11893344 -0.087136962 -0.064712562 -0.77071863 0.55390131 -0.31493816 0.0020404328
0.12113954 -0.082953043 -0.064148404 -0.78043985 0.5408228 -0.31372657 0.0015359555
-0.12652414 -0.074872755 -0.066085733 0.82299286 0.47738907 -0.30786759 0.00075243326
0.1262181 -0.075306445 -0.065935887 -0.81367755 0.4901242 -0.31258133 0.0010549767
-0.13220833 -0.065037027 -0.066100597 0.84807426 0.43085805 -0.30843359 0.0012082771
0.12916598 -0.069531277 -0.064895242 -0.83640897 0.44851291 -0.31504971 0.0012831194
0.13220268 -0.065322794 -0.066529691 -0.8481248 0.4245407 -0.31693786 0.0012798347
-0.13689931 -0.056065675 -0.065676413 0.88420564 0.35670358 -0.30156752 0.0020291496
0.13693438 -0.055677988 -0.06579262 -0.8807407 0.36035046 -0.30731639 0.0019057544
-0.14137164 -0.043266706 -0.068396956 0.9094274 0.28092927 -0.30662769 0.00067975919
-0.13909829 -0.048251048 -0.065580219 0.90075809 0.31127918 -0.30288619 0.0016866605
0.13889728 -0.0440896 -0.06162744 -0.9088881 0.28537601 -0.30411011 0.0011538671
0.14081991 -0.043648828 -0.067047328 -0.90744853 0.28556097 -0.3082079 0.0010222648
-0.14225887 -0.035131648 -0.064514734 0.92561072 0.22170061 -0.30674705 0.00056370278
0.14267087 -0.032942541 -0.063990422 -0.92700708 0.21139348 -0.30979121 0.00087922276
-0.14512269 -0.024094686 -0.064233847 0.94071937 0.15418579 -0.30211547 0.002057747
0.14434157 -0.02565684 -0.063144982 -0.9373731 0.17136261 -0.30325985 0.0014784373
-0.1462637 -0.013785149 -0.063817829 0.94732541 0.086885102 -0.30826208 0.0015326857
0.14580835 -0.017095935 -0.062350869 -0.94688749 0.11284979 -0.3011128 0.0020596408
-0.14668764 -0.0072589214 -0.065084971 0.94997877 0.051740516 -0.3079991 0.0013162119
0.14628516 -0.0041032415 -0.063833453 -0.95166618 0.026074536 -0.30602568 0.00099443155
-0.14689437 0.0071649263 -0.065727741 0.95116317 -0.040625807 -0.30600351 0.00075154315
0.14616646 0.0069211316 -0.063464358 -0.95157945 -0.048660148 -0.30352724 0.0011544321
-0.14674208 0.016372174 -0.065254249 0.94823128 -0.10450775 -0.29989263 0.0019411593
0.14752023 0.016583031 -0.067802064 -0.9454385 -0.11731742 -0.30394503 0.0021772718
-0.14488202 0.025259396 -0.064448349 0.93847996 -0.15839376 -0.30686608 0.0017124611
0.14510179 0.024777623 -0.06472066 -0.94191241 -0.14830048 -0.30134371 0.0018233636
-0.14169919 0.033308979 -0.061366897 0.92675924 -0.21461043 -0.30831742 0.00080362632
0.14199008 0.036795836 -0.065046735 -0.92003822 -0.24142376 -0.30861682 0.00044581635
-0.1410867 0.043902233 -0.068052553 0.91264176 -0.27203524 -0.30509314 0.00069398229
-0.13951445 0.046443343 -0.065375306 0.90734971 -0.28848472 -0.30576628 0.00089902169
0.13948677 0.043603405 -0.063006669 -0.90975553 -0.28213337 -0.30454174 0.00099245796
0.14106742 0.040087603 -0.064924709 -0.91312814 -0.26567748 -0.30921257 0.0011969125
-0.13580717 0.056173466 -0.063541964 0.87616503 -0.37385496 -0.30424857 0.0020071133
0.13783962 0.053981423 -0.066834547 -0.88337672 -0.34809306 -0.31381017 0.0019488477
-0.13390738 0.06339103 -0.068116851 0.85227019 -0.42228225 -0.30872828 0.0011359594
0.12971431 0.067397989 -0.063055217 -0.85140628 -0.42713559 -0.30440536 0.0013676647
0.1310665 0.064923733 -0.062849641 -0.85126919 -0.42595273 -0.30643931 0.0015093259
-0.12568352 0.075180285 -0.06430012 0.81776953 -0.48842576 -0.30445582 0.0010008414
0.12622333 0.075203881 -0.065790467 -0.81598675 -0.48863563 -0.30887032 0.00068572158
-0.12235576 0.082569331 -0.066826969 0.79143858 -0.52776003 -0.3083736 0.0015858384
-0.11872056 0.088122465 -0.065671518 0.76554191 -0.55930007 -0.31800771 0.0019821085
0.1190495 0.085648872 -0.0627115 -0.77593446 -0.54836833 -0.31179789 0.0017595878
0.12131566 0.081546903 -0.062436484 -0.79094642 -0.52872622 -0.3079811 0.0017705138
-0.11461756 0.0932744 -0.066085681 0.73181045 -0.60817701 -0.30752921 0.0018619754
-0.10756282 0.097999282 -0.060939241 0.7084949 -0.63376617 -0.31044394 0.0013519475
0.11274463 0.09476231 -0.065215439 -0.72339725 -0.62125069 -0.3012374 0.0013519506
-0.10413885 0.10324751 -0.064950317 0.68273932 -0.66167641 -0.30992162 0.00075658929
-0.099693455 0.10730875 -0.064105645 0.65092862 -0.69360435 -0.30855292 0.00090027071
0.10416052 0.10323392 -0.064968042 -0.67914873 -0.66750807 -0.30527028 0.0006624916
-0.094947696 0.11327562 -0.066790558 0.61043745 -0.73206127 -0.30241108 0.0018758131
-0.085467756 0.11921591 -0.062878028 0.54933274 -0.77673656 -0.30808103 0.0019648692
0.08439672 0.1192001 -0.061170332 -0.55118579 -0.7743665 -0.31072599 0.0017131993
0.093190186 0.11536388 -0.067517787 -0.59457046 -0.74167597 -0.31048808 0.0018114032
-0.081373848 0.12278862 -0.066133983 0.52100104 -0.79180092 -0.318762 0.0012415037
-0.073240377 0.12635183 -0.063083827 0.47611317 -0.82467061 -0.30534357 0.00076756318
0.069306612 0.12916815 -0.064551935 -0.4445737 -0.84061801 -0.30937919 0.0011082331
0.074053831 0.12720636 -0.066649772 -0.47239929 -0.82604504 -0.30738997 0.00062475563
0.085384727 0.12079112 -0.066990852 -0.54233515 -0.77926016 -0.31404793 0.0014506801
-0.063941374 0.13322419 -0.067132734 0.40729094 -0.86229241 -0.30094156 0.0017565804
-0.051934473 0.13815556 -0.065713108 0.33299929 -0.89245951 -0.30434757 0.0016934251
-0.048197847 0.13821959 -0.062898271 0.32105252 -0.89532268 -0.30874366 0.0015402032
0.047582634 0.13839471 -0.062929049 -0.3143926 -0.89513129 -0.3160654 0.0015845386
0.05505963 0.13714856 -0.065965608 -0.36187485 -0.87676477 -0.31674951 0.0017562546
0.063864879 0.13228834 -0.064493731 -0.42240015 -0.85136801 -0.31104764 0.0012831772
-0.041878112 0.14174773 -0.068408981 0.26576009 -0.91356635 -0.30784428 0.00080756366
-0.03548032 0.14205003 -0.064168066 0.236946 -0.91936255 -0.31405276 0.0010319743
-0.024238929 0.14511888 -0.064338453 0.15418607 -0.93936926 -0.30628753 0.0016753791
-0.013704007 0.14588375 -0.062585324 0.088509843 -0.94858694 -0.3038896 0.0017891492
-0.0098296348 0.14616293 -0.063453391 0.062469635 -0.94992876 -0.30615819 0.0011791773
0.0030411498 0.14745751 -0.067478836 -0.00915635 -0.95192361 -0.30619881 0.00044437725
0.013901621 0.14657621 -0.064738497 -0.085692279 -0.94761211 -0.30771449 0.0023057521
0.024396727 0.14546944 -0.065518424 -0.17154182 -0.93920654 -0.29742977 0.0016889094
0.034322653 0.14281319 -0.065528527 -0.21682839 -0.9262163 -0.30839735 0.00068682595
0.042397607 0.14114937 -0.067029841 -0.27145004 -0.91069579 -0.31136471 0.0011362655
-0.033319619 -0.14020656 -0.056892283 0.21372326 0.92728424 -0.30735391 0.00099325145
-0.024312958 -0.14233156 -0.056026295 0.15483643 0.93821692 -0.30947483 0.0018637108
-0.015405977 -0.14301738 -0.053672433 0.099369809 0.94626057 -0.30776051 0.0020320471
-0.0045739263 -0.14344096 -0.05498952 0.024376197 0.95058489 -0.30950642 0.0012293112
0.0056184889 -0.14365239 -0.055646949 -0.031010078 0.95057255 -0.30895033 0.0012534818
0.01509891 -0.14264074 -0.052501291 -0.10943535 0.94369358 -0.31219593 0.0020156256
0.025027895 -0.14225262 -0.056364577 -0.16487375 0.93472272 -0.31481758 0.0016722234
0.031224029 -0.14100203 -0.057595 -0.20340694 0.92832524 -0.31118768 0.0010970072
-0.061704569 -0.13011853 -0.05529204 0.40765068 0.86023128 -0.30630562 0.0016883415
-0.057211291 -0.13233779 -0.055010486 0.37096387 0.87567008 -0.30917269 0.0017658521
-0.043775741 -0.13697572 -0.055603389 0.2866618 0.90713751 -0.30810142 0.0011125666
-0.035539217 -0.13885741 -0.054626428 0.24599755 0.91954374 -0.30647108 0.00054113433
0.037253905 -0.13800451 -0.053444684 -0.25335741 0.91885257 -0.30252266 0.00079572835
0.043840606 -0.13652736 -0.054308966 -0.2942118 0.90639734 -0.30312249 0.0013928913
0.054776996 -0.13280149 -0.052847147 -0.36518043 0.8808226 -0.30132198 0.0018227843
-0.074339986 -0.12254597 -0.05454478 0.50582546 0.80664265 -0.30572563 0.00072384614
-0.065260775 -0.12814888 -0.055516992 0.43490338 0.84732938 -0.30478194 0.0011021309
0.065109447 -0.12775826 -0.054229774 -0.42267635 0.85131776 -0.31080979 0.0015144399
0.073478684 -0.12356542 -0.055950854 -0.48423642 0.81743217 -0.31196108 0.00053124508
-0.09091346 -0.1122743 -0.055718709 0.59489495 0.74175811 -0.30966905 0.0020987936
-0.084524266 -0.11674335 -0.054752875 0.55734271 0.77344811 -0.3019059 0.002055198
-0.078561246 -0.11868715 -0.050716382 0.52708799 0.79285616 -0.30587167 0.0016500062
0.084555201 -0.11727342 -0.056358788 -0.55303115 0.77482921 -0.30626175 0.0015776968
-0.1016254 -0.10102693 -0.054541416 0.67573714 0.67085016 -0.30551475 0.00090560957
-0.094498724 -0.10916401 -0.056763075 0.62812179 0.71430075 -0.30860561 0.001371015
0.094533473 -0.10771162 -0.053646002 -0.62284142 0.71794873 -0.31083468 0.0016333656
0.10177463 -0.10188248 -0.05675067 -0.67281818 0.67515671 -0.30245501 0.00070798578
-0.11061748 -0.09387356 -0.058584273 0.71376568 0.62758017 -0.31093687 0.0013282862
-0.10560697 -0.096934699 -0.054298103 0.69717491 0.65042895 -0.30147839 0.0010873203
0.10894459 -0.094976813 -0.057331793 -0.71979105 0.62360781 -0.30498236 0.0015587301
0.11173446 -0.092195295 -0.057350129 -0.72969377 0.61059642 -0.30776465 0.0018373396
-0.11604097 -0.085175142 -0.054404072 0.77240264 0.55420423 -0.31024462 0.0018369851
0.11592792 -0.084903389 -0.053736079 -0.77032262 0.55963075 -0.30564108 0.0021222897
-0.12295946 -0.075178303 -0.056961548 0.8068071 0.50461894 -0.3072817 0.0010130468
-0.11953667 -0.079570062 -0.054572381 0.78645009 0.53432131 -0.30983377 0.0018064457
0.12231958 -0.07567513 -0.05601085 -0.80650872 0.50502354 -0.30740026 0.0010005246
-0.12765652 -0.065056436 -0.053873345 0.84457064 0.44108596 -0.30355179 0.00098982162
0.1282331 -0.064064175 -0.053883303 -0.85460079 0.41672897 -0.30982959 0.0014522849
-0.13339134 -0.054857221 -0.054423526 0.87494713 0.37086627 -0.31132898 0.0021669243
0.134561 -0.053573545 -0.056362875 -0.88274813 0.35194543 -0.31127179 0.001870028
-0.13554841 -0.047187679 -0.054062393 0.9062885 0.29072505 -0.30678996 0.0013100181
0.13595037 -0.044093471 -0.052779462 -0.90402204 0.29817337 -0.30632797 0.0013893928
-0.13798948 -0.03560872 -0.052075524 0.92605472 0.22396743 -0.30374545 0.0005130404
0.13778399 -0.03760466 -0.053064633 -0.9186064 0.24709378 -0.30839416 0.00064665766
-0.14287399 -0.022395324 -0.056112222 0.93906945 0.1454863 -0.31141984 0.0021723057
-0.13895464 -0.02995629 -0.05042541 0.93230981 0.19878949 -0.30212787 0.0012626771
0.14232604 -0.024667298 -0.056294907 -0.9351095 0.16266367 -0.31481841 0.0021543505
-0.14338727 -0.014881666 -0.054911144 0.94967234 0.084591292 -0.30160704 0.0015414731
0.14346701 -0.014880809 -0.055070534 -0.94641942 0.080809705 -0.31266603 0.0019776409
-0.14322086 -0.0016550552 -0.054305114 0.9519757 0.0070468429 -0.30609241 0.00092955324
0.14375328 -0.0073879873 -0.055960663 -0.95096105 0.040030204 -0.30670941 0.00085871917
-0.14349976 0.0056972466 -0.055172384 0.95201135 -0.037593674 -0.303745 0.0013072401
0.14408487 0.0039328877 -0.056991749 -0.95118731 -0.016269524 -0.30818504 0.00057566928
-0.14351048 0.016671572 -0.055384677 0.94534892 -0.10494978 -0.30870849 0.0018137069
0.14357419 0.013250434 -0.055403795 -0.9466238 -0.091082312 -0.30920437 0.001865565
-0.14268588 0.024591722 -0.057314832 0.93627071 -0.164039 -0.31062579 0.0017425531
0.1421192 0.024543645 -0.05557413 -0.93604302 -0.16806331 -0.30915713 0.001333985
-0.13873649 0.03500396 -0.053832453 0.92209858 -0.2335895 -0.30849671 0.00095063489
0.13795778 0.036442824 -0.052651621 -0.92213744 -0.24060972 -0.30293465 0.00041429751
0.14043307 0.034396794 -0.058439545 -0.92536181 -0.22133352 -0.30776113 0.0008046393
-0.13704754 0.044795144 -0.056639556 0.90618002 -0.28790322 -0.30975717 0.0012060866
0.13678563 0.042719115 -0.05418209 -0.90897804 -0.28594282 -0.30330777 0.001198258
-0.13326649 0.05572354 -0.055059969 0.87335312 -0.3771522 -0.30823752 0.0019989456
0.13345163 0.055766027 -0.056360412 -0.87248325 -0.37810513 -0.30953103 0.0017791202
-0.13025944 0.062200356 -0.056442197 0.85139948 -0.42276987 -0.31045884 0.0014564943
-0.12665516 0.06687361 -0.054002054 0.84144735 -0.44458523 -0.30709988 0.00073653192
0.12854016 0.065444157 -0.056855667 -0.8486678 -0.4300077 -0.30798754 0.001253632
0.1324717 0.060302265 -0.059448533 -0.86582506 -0.39250433 -0.31030196 0.0019500753
-0.12326615 0.07368166 -0.055460513 0.8144697 -0.49105734 -0.30903384 0.0012490801
-0.11877708 0.078694306 -0.051165365 0.79461062 -0.52419263 -0.3062942 0.0015416606
0.12247054 0.075530596 -0.056192685 -0.81400537 -0.49203366 -0.30870411 0.00060701836
-0.11522255 0.086052559 -0.053954225 0.75457138 -0.57881021 -0.30919358 0.0018985891
0.11626 0.086121343 -0.056172192 -0.76533115 -0.5646522 -0.30892745 0.0017532322
-0.10618888 0.097099856 -0.055940714 0.70410162 -0.64008909 -0.30745223 0.0013463716
0.10739519 0.094225138 -0.05227232 -0.71653688 -0.62842828 -0.30274191 0.0015114344
-0.10099349 0.10306253 -0.057627767 0.65844816 -0.68738908 -0.30649996 0.00072582456
-0.096308447 0.10602424 -0.053838637 0.64190459 -0.7030074 -0.30616823 0.0014535139
0.095500968 0.10722551 -0.054704454 -0.63278157 -0.70803219 -0.31349319 0.0015247709
0.10097841 0.10165004 -0.054488923 -0.67398584 -0.67440444 -0.30153236 0.0008234366
-0.085874416 0.11569205 -0.05465728 0.57232326 -0.7588498 -0.31079409 0.0020088351
-0.078412339 0.11915229 -0.051737368 0.53038651 -0.78928059 -0.30939677 0.0018941469
0.079904355 0.11765414 -0.050022766 -0.53339785 -0.78581303 -0.31302488 0.0014314718
0.085700199 0.11555532 -0.054626029 -0.56117517 -0.76577318 -0.31412381 0.0020705147
0.091327943 0.11057697 -0.052898072 -0.61347508 -0.72800863 -0.30602574 0.0016862026
-0.072152033 0.12373183 -0.054336373 0.48828653 -0.81763303 -0.30504519 0.0011209957
-0.064641774 0.12881441 -0.056346714 0.42342785 -0.85189116 -0.30820501 0.0012780047
0.06532383 0.12716523 -0.052966129 -0.43696213 -0.84685415 -0.30315375 0.00098229805
0.075379118 0.12341613 -0.058503639 -0.49520606 -0.81222039 -0.30833259 0.00052345544
-0.06117247 0.13074461 -0.056150656 0.40056914 -0.86304939 -0.30771744 0.0017019177
-0.055665031 0.1336008 -0.056485433 0.3756882 -0.87359083 -0.30934998 0.0017731516
-0.045043781 0.13685451 -0.056259874 0.29462823 -0.90456158 -0.30815995 0.0008391093
-0.037649635 0.13790198 -0.053455189 0.25200671 -0.91891766 -0.30345172 0.0010035124
-0.028254312 0.13927242 -0.050010078 0.191249 -0.93327945 -0.30399534 0.0013159101
0.036119159 0.13885818 -0.055095486 -0.24329785 -0.91991246 -0.30751783 0.00045960263
0.044446155 0.13729332 -0.057096869 -0.29046872 -0.90540344 -0.30963296 0.0012033349
0.053828888 0.13473907 -0.056976244 -0.35808089 -0.88114387 -0.30880997 0.0016525282
0.061399389 0.13035738 -0.055460751 -0.41127217 -0.85708606 -0.31025565 0.0016815515
-0.026164895 0.14202182 -0.056586411 0.17872845 -0.93145806 -0.31692603 0.001163866
-0.010487906 0.14275222 -0.052847903 0.06878145 -0.94841206 -0.3094894 0.0017480577
-0.0037807978 0.14354362 -0.055308718 0.018606659 -0.95083797 -0.30912924 0.00078791822
0.0062795882 0.14456093 -0.05847203 -0.045642473 -0.95080078 -0.30642241 0.0010666773
0.016018638 0.14296266 -0.053502269 -0.10374551 -0.94718224 -0.30345139 0.0023469767
0.022631243 0.1424825 -0.055126239 -0.15075541 -0.9394418 -0.30776918 0.0022300335
0.032589473 0.14132154 -0.05965358 -0.21758299 -0.92756492 -0.30377781 0.00065338978
-0.017383531 -0.14032173 -0.045290411 0.12667817 0.94466561 -0.30258808 0.0022450229
-0.0048845052 -0.14105 -0.04755488 0.031826183 0.9530254 -0.30121368 0.0011370179
0.0066309571 -0.1406583 -0.046336971 -0.049036283 0.95057136 -0.30660972 0.0011791799
0.012796436 -0.14121568 -0.048070114 -0.090781853 0.94885588 -0.30237561 0.001903347
