# .PCD v0.7 - Point Cloud Data file format
VERSION 0.7
FIELDS x y z normal_x normal_y normal_z curvature
SIZE 4 4 4 4 4 4 4
TYPE F F F F F F F
COUNT 1 1 1 1 1 1 1
WIDTH 576
HEIGHT 1
VIEWPOINT 0 0 0 1 0 0 0
POINTS 576
DATA ascii
0.0041830125 -0.054770451 0.26263928 -0.073259912 0.97186726 -0.22384574 0.007716056
0.015201454 -0.052068934 0.2657764 -0.27382198 0.93443358 -0.22771782 0.011688295
0.022607481 -0.050882194 0.26056495 -0.42554185 0.87384528 -0.23517758 0.0096495962
-0.033595569 -0.04346659 0.26333401 0.59026933 0.7740736 -0.22889335 0.0095406985
-0.027629053 -0.046848319 0.26539066 0.51503158 0.82475311 -0.23350574 0.0097601172
0.027254015 -0.046839904 0.26616147 -0.46575117 0.85916048 -0.21194135 0.0085379397
0.032263327 -0.043883145 0.2652359 -0.62151605 0.75755727 -0.19956169 0.0090621961
-0.042390998 -0.034774862 0.26416758 0.73609155 0.63213503 -0.24202172 0.0081315134
-0.038903739 -0.038287077 0.2644622 0.6853894 0.69230819 -0.22572257 0.011395755
0.038774949 -0.037571158 0.26699081 -0.72101456 0.66252458 -0.20297581 0.011330805
0.043875519 -0.032933518 0.26371205 -0.76077259 0.61470902 -0.20822592 0.0088388491
-0.05014164 -0.022985764 0.26342541 0.88510841 0.4011434 -0.2359387 0.0093189692
-0.048011079 -0.025910407 0.26491812 0.84364682 0.47552043 -0.2492798 0.0085182786
0.048317961 -0.025204804 0.26452911 -0.85622853 0.46125641 -0.23262699 0.0074706799
0.050266512 -0.022026122 0.26330966 -0.89449966 0.3842876 -0.22845899 0.010816201
-0.052246418 -0.015918585 0.26397631 0.9314028 0.28151378 -0.23073538 0.0085861152
0.052217286 -0.013867474 0.26694202 -0.93883181 0.25523591 -0.23119162 0.010675418
-0.054524079 -0.0037133282 0.26388723 0.97229743 0.091513418 -0.2150885 0.0096990019
0.054422744 -0.0030180879 0.26541659 -0.97403026 0.031874936 -0.22416313 0.010603125
-0.054253381 0.0044508143 0.26568818 0.9747479 -0.075874582 -0.21002291 0.0087263929
0.054048371 0.0055692513 0.26570889 -0.97606152 -0.071646914 -0.20535479 0.0077005327
-0.05315125 0.012967756 0.26358825 0.94809401 -0.23217471 -0.21728453 0.012294226
0.052116822 0.014536313 0.26649871 -0.93914586 -0.28007635 -0.19890235 0.011587797
-0.050445165 0.021591729 0.26350752 0.89271528 -0.38996747 -0.22579838 0.010038886
-0.047206517 0.026348857 0.2666705 0.85638309 -0.47402132 -0.20472372 0.0063718343
0.048572723 0.024634073 0.26590988 -0.86834037 -0.44740424 -0.21404316 0.0093535725
-0.04166054 0.036465399 0.26053351 0.73049486 -0.64536119 -0.22335207 0.0087721134
-0.039102737 0.038140163 0.26406255 0.69845933 -0.68252712 -0.21520051 0.012030995
0.038514398 0.038416013 0.26524815 -0.69154626 -0.69057518 -0.21182483 0.01231144
0.042102534 0.035074823 0.26398388 -0.73429227 -0.64115107 -0.22302499 0.0085057616
-0.024859905 0.049191944 0.26289937 0.41838387 -0.88034463 -0.22349121 0.0094382353
0.025482789 0.047767039 0.26621518 -0.43505847 -0.87202239 -0.22427909 0.0094609223
0.033954605 0.042666465 0.2649993 -0.61783552 -0.75385141 -0.22357838 0.0072480394
-0.021572944 0.050480168 0.26390219 0.40654966 -0.88813245 -0.21433209 0.0091928979
-0.015836069 0.051394388 0.26789364 0.33132178 -0.9191221 -0.21316779 0.008817411
-0.0035859796 0.054339718 0.26477459 0.031156078 -0.98311442 -0.18032002 0.010031212
0.0044591269 0.053804398 0.26714522 -0.071811825 -0.97916627 -0.18993804 0.011999797
0.014536831 0.05247727 0.26507735 -0.25687766 -0.93962181 -0.22610772 0.01101534
0.020648338 0.050816357 0.26400477 -0.35932729 -0.90329438 -0.2343995 0.0093488917
-0.017798807 -0.050041541 0.27289838 0.3417415 0.91506118 -0.21418652 0.0088944454
-0.0053282911 -0.052181739 0.27500668 0.11729368 0.97567999 -0.18517774 0.0097937826
0.0039418163 -0.051999956 0.27599338 -0.080590472 0.98039091 -0.17983012 0.012012296
0.012467918 -0.051041018 0.27446342 -0.22885226 0.94689327 -0.22587578 0.012542844
-0.03393862 -0.040423516 0.27278522 0.62680537 0.74680001 -0.22227171 0.011247987
-0.024696002 -0.046127282 0.27499703 0.44602153 0.86949587 -0.21223035 0.012983739
-0.014419574 -0.049612992 0.27900699 0.29555434 0.93588609 -0.1917417 0.01019791
0.017757675 -0.048963327 0.27643606 -0.33376497 0.91747636 -0.21642096 0.013562237
0.026869861 -0.044952951 0.27470464 -0.51341116 0.82945526 -0.22002961 0.010974433
0.033155665 -0.041133169 0.27378118 -0.6490103 0.73177803 -0.20805436 0.0096386643
-0.040120684 -0.034756821 0.27287173 0.7425977 0.63597775 -0.20995486 0.0087415446
-0.037631612 -0.036382325 0.27539447 0.71044624 0.67305768 -0.20557155 0.010878033
0.03788491 -0.036528975 0.27355397 -0.69547695 0.68961972 -0.20183302 0.012625406
0.041991398 -0.032067493 0.27335745 -0.76116043 0.61284298 -0.2122696 0.011236127
-0.04391655 -0.028024588 0.27614927 0.83035851 0.52192366 -0.19519328 0.011042499
0.045912925 -0.024602963 0.27618837 -0.83820003 0.51122034 -0.18993293 0.01059326
-0.051181607 -0.01246192 0.27372575 0.95213503 0.21312645 -0.21912546 0.010517949
-0.049550761 -0.016490187 0.27549955 0.91956162 0.32993454 -0.21342368 0.0096812751
0.049400929 -0.017574519 0.27554032 -0.92411757 0.33505413 -0.18369943 0.010529936
0.051041022 -0.012015052 0.27443355 -0.95541221 0.21215284 -0.20537461 0.01329726
-0.052429985 -0.0029456264 0.2739884 0.98091578 0.067765094 -0.1822422 0.011251017
0.05182163 -0.0046746861 0.2779344 -0.97421426 0.12223134 -0.18964718 0.012397745
-0.052291352 0.0051391963 0.2742053 0.97492021 -0.1158771 -0.19000812 0.010352291
0.052217945 0.0049632639 0.27462021 -0.97401303 -0.11553567 -0.19480768 0.013318921
-0.04954543 0.017187033 0.27612135 0.93156397 -0.3086434 -0.19216594 0.010354483
0.048860557 0.017138494 0.27796108 -0.93039483 -0.3174704 -0.18324295 0.01004257
0.051065914 0.012740225 0.27391481 -0.93905401 -0.27811489 -0.20206361 0.013065639
-0.046880554 0.023835029 0.27357239 0.87959611 -0.42340514 -0.21688421 0.0088331513
0.04697223 0.023194904 0.27537233 -0.89057612 -0.40578523 -0.20545679 0.010972391
-0.04215664 0.031403195 0.2750417 0.7995379 -0.56455731 -0.20497379 0.0099873915
-0.037415288 0.036809433 0.27430719 0.66329384 -0.72145486 -0.19885696 0.009722
0.037199043 0.036500525 0.27641991 -0.70074141 -0.69269252 -0.17070016 0.014379251
0.04126754 0.032203883 0.27605566 -0.79030168 -0.58438307 -0.18417284 0.01309723
-0.03180556 0.04204566 0.27383858 0.57841671 -0.7913512 -0.19798349 0.010759662
-0.025029851 0.045987349 0.27535143 0.47444749 -0.85467505 -0.21078467 0.0070634973
-0.016877193 0.049235705 0.27646285 0.32235414 -0.9258759 -0.19708298 0.0094165066
0.018137434 0.048933491 0.27679157 -0.34823221 -0.91459948 -0.20552899 0.012868246
0.024574773 0.046007436 0.27586058 -0.48211202 -0.84873992 -0.21727532 0.0090600969
0.031388663 0.042538978 0.2736578 -0.56481177 -0.80017269 -0.20177037 0.011603681
-0.013335285 0.051428229 0.27126068 0.2670657 -0.93882108 -0.21746463 0.013445268
-0.0064162328 0.052523546 0.27274877 0.12155074 -0.97079241 -0.2068512 0.011414231
0.0066113821 0.05183398 0.27560031 -0.14179377 -0.97262508 -0.18410593 0.009343422
0.014249432 0.050563186 0.27425408 -0.26967859 -0.93768275 -0.21914497 0.01261881
-0.010498219 -0.050179977 0.28059182 0.18429302 0.96465099 -0.18837324 0.012746489
-0.0061853174 -0.050630875 0.28207842 0.13096562 0.9714762 -0.19769154 0.010335927
0.003611201 -0.05057589 0.2836495 -0.066899344 0.9795838 -0.18957874 0.013714019
-0.031011589 -0.040944606 0.28125736 0.55969393 0.80650896 -0.19048899 0.01227576
-0.025474565 -0.043918468 0.28350988 0.47678617 0.85546106 -0.20214179 0.011948458
-0.01540692 -0.048300635 0.28427202 0.29289401 0.93758744 -0.1874644 0.0092903981
-0.0093759475 -0.049474694 0.28559175 0.20110917 0.9593522 -0.19798592 0.013622639
0.0058122487 -0.049551457 0.28879681 -0.12954 0.97476733 -0.18179151 0.009902928
0.016423851 -0.047545794 0.28588134 -0.32530895 0.92941117 -0.17426684 0.014432371
0.025104653 -0.043896027 0.28464162 -0.51170248 0.8364495 -0.19624701 0.012110071
0.030992778 -0.041039404 0.28058097 -0.57492214 0.79503721 -0.19333997 0.013161058
-0.034055714 -0.036994126 0.28552139 0.64714509 0.74442846 -0.16440628 0.011866672
0.035431974 -0.035766128 0.2858755 -0.6787712 0.71232516 -0.17850101 0.0095607145
0.040224563 -0.03172987 0.28150207 -0.76039529 0.6242218 -0.17929387 0.012089559
-0.043970536 -0.025313864 0.28339335 0.83154988 0.52049905 -0.19392164 0.011215571
0.043759514 -0.024908531 0.28567538 -0.82490069 0.52753043 -0.20310223 0.010663119
-0.046823226 -0.017911389 0.28723472 0.91143924 0.3663103 -0.18733709 0.012410526
0.047608256 -0.017642697 0.28425395 -0.91223854 0.36234501 -0.19112039 0.011948779
-0.050825838 -0.0027123156 0.28256181 0.97843009 0.077995114 -0.19128837 0.0093958704
-0.049557135 -0.0080939066 0.28810507 0.97363383 0.12990554 -0.18751468 0.0077267936
0.050820887 -0.0035023908 0.28352895 -0.97587419 0.069110356 -0.2071069 0.011252596
-0.050532717 0.0056072194 0.28396451 0.97280604 -0.13471197 -0.18841745 0.010631938
-0.049227718 0.0082177678 0.28829911 0.97357863 -0.1521446 -0.17028384 0.010292527
0.0496272 0.0047020996 0.28857529 -0.97857249 -0.11651596 -0.16976427 0.010740009
0.050645929 0.0074273665 0.2818031 -0.97032726 -0.14462139 -0.19377737 0.011519311
-0.048216067 0.0148889 0.28513435 0.94274098 -0.28976884 -0.16514699 0.011045707
0.048102997 0.014146117 0.28672588 -0.93888605 -0.30696854 -0.15576686 0.0093849963
-0.04248957 0.027716428 0.28475913 0.82874668 -0.53009939 -0.17936979 0.0095040463
0.043622427 0.025358882 0.28489754 -0.85286617 -0.49891871 -0.15394622 0.012892438
-0.035090476 0.036239021 0.2849389 0.65398657 -0.73840708 -0.16448875 0.011923492
0.036825728 0.034984533 0.28366026 -0.69908851 -0.69102526 -0.18373728 0.012343525
0.040649064 0.031178854 0.28181177 -0.80570102 -0.56599361 -0.17463434 0.012637566
-0.030042883 0.040560644 0.28548908 0.56288636 -0.80835766 -0.17238566 0.0085673761
-0.025609115 0.04342192 0.28506887 0.5142538 -0.83465517 -0.1972151 0.0076693534
-0.013237261 0.048812132 0.2845273 0.24594502 -0.95040888 -0.19035245 0.01291681
-0.0086902892 0.049381819 0.28832024 0.19569606 -0.96646982 -0.16625032 0.013780923
0.0058861417 0.049496502 0.28829038 -0.1148046 -0.98098075 -0.15651387 0.0076445937
0.015887437 0.047876816 0.28535351 -0.27385229 -0.94609469 -0.17294435 0.011275382
0.025095707 0.043838177 0.2847845 -0.50053072 -0.84662908 -0.1807989 0.009563677
0.030348729 0.04168354 0.28073707 -0.56052202 -0.80540866 -0.19269645 0.010892997
-0.0080981618 0.050676137 0.28184608 0.13519539 -0.97140652 -0.1951707 0.010079184
0.0038500247 0.050560057 0.28441933 -0.11571726 -0.97388065 -0.19536151 0.0085574063
-0.023977779 -0.0424615 0.2951729 0.50457847 0.84998906 -0.15139066 0.010697301
-0.016015762 -0.045966096 0.29565746 0.34121937 0.92670316 -0.15745041 0.0097584622
-0.0058548329 -0.048935611 0.29226309 0.1033733 0.97709179 -0.1860255 0.013616125
0.0013625855 -0.049003597 0.29340732 -0.025555938 0.98319691 -0.18075052 0.013294735
0.014179156 -0.046744663 0.2944845 -0.28473684 0.94472367 -0.16254891 0.0098868031
0.023446538 -0.043048795 0.29393849 -0.48551169 0.85976857 -0.15835576 0.014489367
-0.033503786 -0.035776272 0.29343575 0.65305305 0.73837358 -0.1683042 0.010314302
-0.029094964 -0.039326284 0.29570648 0.597094 0.78930598 -0.14309008 0.013093092
0.027639607 -0.039396167 0.29931 -0.58495259 0.79430002 -0.16406694 0.015008531
0.034656696 -0.034530241 0.29357088 -0.69927335 0.69576859 -0.16408169 0.0079317773
-0.041757651 -0.024458334 0.29751015 0.84784383 0.50255775 -0.16910557 0.013720672
0.039966039 -0.029713137 0.29011631 -0.78416437 0.59758329 -0.16727364 0.010678293
0.042486556 -0.024351267 0.29394865 -0.83239144 0.53022552 -0.16120009 0.010685329
-0.046066046 -0.015925549 0.29525173 0.92198265 0.35102478 -0.16349195 0.011096845
0.045775 -0.016355608 0.29679656 -0.92856294 0.33929867 -0.15048985 0.011808427
-0.048552558 -0.004356774 0.29530016 0.98120564 0.056934912 -0.18437433 0.0132345
0.04861385 -0.0056930827 0.29504976 -0.97714418 0.12138883 -0.17451073 0.0080800066
-0.048410058 0.0042281169 0.29603305 0.98221445 -0.098734401 -0.15970691 0.01312795
0.048561022 0.0059512733 0.29427046 -0.96889991 -0.15141146 -0.19572312 0.011229042
-0.046298012 0.016218884 0.29440579 0.93428552 -0.32330552 -0.15027995 0.0092005832
0.046993714 0.013592889 0.29409912 -0.93690187 -0.311046 -0.15957867 0.0072527137
-0.042543542 0.02362743 0.29573277 0.85213399 -0.49949336 -0.15612145 0.013016294
-0.038828041 0.029508887 0.29625779 0.80603462 -0.57615024 -0.13549569 0.011362344
0.038979929 0.028209735 0.29959035 -0.81198913 -0.56457978 -0.14806549 0.012454437
0.042133901 0.024961459 0.2937617 -0.84305465 -0.51780045 -0.14540155 0.0091881212
-0.033699263 0.035761017 0.29320878 0.67039359 -0.72493088 -0.15826429 0.012045771
0.033834945 0.034899715 0.29599562 -0.70621449 -0.69154406 -0.15174918 0.0099325227
-0.025453549 0.041889939 0.29334745 0.5316844 -0.83267891 -0.15478256 0.0089268992
-0.018388463 0.045550801 0.29368624 0.37730476 -0.90725726 -0.18580996 0.01096888
-0.0063212956 0.048766721 0.29353461 0.12772156 -0.97573858 -0.17782405 0.009605852
0.004092589 0.048536818 0.29600555 -0.11704127 -0.9802891 -0.15916866 0.0087581063
0.014791231 0.046369467 0.29611892 -0.28796256 -0.94338632 -0.16462015 0.012166621
0.026913857 0.041435517 0.29237148 -0.52446657 -0.83244896 -0.17878346 0.0096149398
-0.022288129 -0.041652925 0.30499682 0.49380845 0.85838443 -0.13903029 0.013196493
-0.016585518 -0.044509415 0.30411068 0.36302677 0.92000985 -0.14762598 0.011364958
-0.0057405839 -0.04746113 0.30265084 0.10345955 0.97890669 -0.17617574 0.011716119
0.0047209696 -0.046960592 0.3052083 -0.087884203 0.98395455 -0.15527351 0.01203829
0.01663065 -0.044358358 0.30445403 -0.38409132 0.91129678 -0.14836411 0.012248396
0.022704188 -0.04140038 0.30583775 -0.48450175 0.8661499 -0.1226475 0.014747387
-0.034455594 -0.0324976 0.30496055 0.7091617 0.69100618 -0.14000076 0.0075844461
-0.026988016 -0.03861209 0.30696318 0.57886499 0.80598861 -0.12368388 0.012550212
0.027158916 -0.038458783 0.30650353 -0.6003952 0.78730619 -0.14026584 0.012639582
0.034596033 -0.032163538 0.30488616 -0.73098958 0.66668034 -0.14557308 0.011156326
-0.040906399 -0.023516707 0.30565172 0.84373927 0.51221877 -0.16042398 0.01461127
-0.037917726 -0.028319197 0.30527973 0.77756792 0.61510009 -0.13053752 0.014482923
0.038569797 -0.027283275 0.30707398 -0.78977275 0.59676307 -0.14189038 0.014919171
0.041568637 -0.022770474 0.30375221 -0.85336095 0.49718675 -0.15678123 0.014104202
-0.044518799 -0.015059215 0.30677441 0.92164624 0.36878514 -0.12068832 0.010289691
0.044648092 -0.016615614 0.30231988 -0.90716892 0.39045432 -0.15681164 0.012822487
-0.047319349 -0.0053914199 0.3027969 0.98099017 0.10262281 -0.16470242 0.012319205
0.047104266 -0.0039854515 0.30467412 -0.98386681 0.085052334 -0.15739185 0.011133081
-0.047185414 0.0046071527 0.30413774 0.98335141 -0.082269102 -0.16202407 0.015234021
0.046603568 0.0058935061 0.30756521 -0.98198014 -0.11860988 -0.14712828 0.016498189
-0.04483287 0.015095621 0.30498466 0.92374641 -0.35581592 -0.14173087 0.013656811
0.044833437 0.014516301 0.30587107 -0.9256773 -0.34478617 -0.15570502 0.0099262502
-0.041597147 0.022502204 0.30454406 0.86834335 -0.4761658 -0.13873047 0.015347145
-0.038889438 0.027725853 0.30269125 0.80997324 -0.56864375 -0.14348392 0.012306737
0.038631525 0.027024679 0.30595887 -0.80805016 -0.57385492 -0.13321248 0.013497087
0.041801341 0.021953652 0.30629936 -0.86562139 -0.47784263 -0.14955278 0.014980901
-0.032555535 0.034221523 0.30557764 0.69687521 -0.70163172 -0.14858593 0.0093899071
-0.026879029 0.038721148 0.30613133 0.57286149 -0.80875051 -0.13323787 0.013546229
0.027828181 0.038264472 0.30622032 -0.60649484 -0.78319496 -0.13700244 0.014739312
0.036364436 0.031268641 0.30225492 -0.7558533 -0.63537192 -0.15807694 0.014300106
-0.02420333 0.040278114 0.30686647 0.54648614 -0.82707584 -0.13152327 0.010292041
-0.01376052 0.045189463 0.30497769 0.25212789 -0.95372069 -0.163855 0.012901948
-0.0040673385 0.04726579 0.30381408 0.081953861 -0.98165333 -0.1721635 0.014070378
0.0052481941 0.047029343 0.30496436 -0.11010837 -0.98154736 -0.15633585 0.011196445
0.015947662 0.0443445 0.30560499 -0.34622264 -0.92390782 -0.16286242 0.019526955
0.023959257 0.041000172 0.30368745 -0.48738393 -0.85571671 -0.17379791 0.013467801
-0.021295903 -0.040386431 0.31683865 0.46919355 0.87621742 -0.11000179 0.018563133
-0.015118187 -0.043517455 0.31418529 0.38968429 0.91110206 -0.13431008 0.012552616
-0.0066703586 -0.045401908 0.31601226 0.13289811 0.98453188 -0.11417133 0.014393928
0.0057236208 -0.045526318 0.3155095 -0.10615099 0.98625779 -0.12659965 0.015558608
0.015512239 -0.043220907 0.31524515 -0.38939998 0.91504025 -0.10520887 0.013240507
0.020491375 -0.04079191 0.31891981 -0.48451835 0.86703384 -0.11616497 0.019440142
-0.032027107 -0.033078618 0.31404871 0.67315549 0.72763181 -0.13196048 0.0105517
-0.025972674 -0.038234655 0.31349063 0.57094538 0.81155723 -0.12408182 0.009199284
0.026764456 -0.037771542 0.31244904 -0.60380369 0.78365463 -0.1459669 0.013379716
0.03185809 -0.033571362 0.31296393 -0.66965395 0.73163503 -0.12756863 0.012164163
-0.041299708 -0.021013245 0.31331676 0.8653084 0.4896825 -0.1070163 0.01634166
-0.037646834 -0.02634404 0.3150613 0.78497267 0.61085212 -0.1033321 0.014025914
0.037373211 -0.026458742 0.31647271 -0.78237474 0.61129683 -0.11918881 0.016753286
0.040626649 -0.020485964 0.31805605 -0.88955235 0.4483529 -0.087614425 0.016273873
0.043530971 -0.015204264 0.31471822 -0.91851544 0.37947634 -0.11102767 0.014112051
-0.045489494 -0.0060372651 0.31547764 0.98114252 0.13868605 -0.13463104 0.014744502
0.045826178 -0.0057781721 0.3132886 -0.98581886 0.11869408 -0.11862945 0.016952185
-0.04574557 0.0048545925 0.3151837 0.98465729 -0.11264763 -0.13326883 0.011227307
0.045657482 0.0052686492 0.31508282 -0.98535025 -0.099279463 -0.13866711 0.013281651
-0.043384749 0.015162852 0.31472057 0.93036824 -0.34347138 -0.12822741 0.010527865
0.043345235 0.015558523 0.31413281 -0.91932493 -0.37712148 -0.11234348 0.011873136
-0.040201955 0.021472339 0.31746131 0.87483001 -0.4758468 -0.090786807 0.014976055
-0.038603306 0.025232213 0.31516373 0.83358371 -0.54326451 -0.10000926 0.0097532049
0.037437335 0.026580684 0.31524536 -0.77346861 -0.62318313 -0.11571146 0.01629805
0.041094683 0.020696433 0.3159129 -0.88662761 -0.45126587 -0.10124445 0.017623283
-0.033081256 0.032325838 0.31250784 0.69564456 -0.70712882 -0.12667918 0.0095280921
-0.027558558 0.036772069 0.31534585 0.61790955 -0.78152317 -0.086077347 0.015489752
0.026016176 0.037934106 0.31568998 -0.59666538 -0.79378909 -0.11785297 0.015906865
0.031910773 0.032889239 0.31582329 -0.6962139 -0.70979029 -0.10716328 0.0087271696
-0.022292424 0.040560611 0.31283268 0.46503043 -0.87228626 -0.15120594 0.014671079
-0.013070039 0.044325516 0.31273869 0.25938591 -0.95620579 -0.13560778 0.014433214
-0.0036031634 0.045920502 0.31414694 0.069002897 -0.98932767 -0.12833297 0.015249915
0.0040343483 0.045602698 0.31669077 -0.073090434 -0.99177158 -0.1051045 0.014544804
0.014914051 0.0433506 0.31600255 -0.35735422 -0.92888522 -0.097314835 0.014225358
0.020706158 0.041376878 0.31225181 -0.48616368 -0.86642361 -0.11382066 0.014701119
-0.02038903 -0.040276818 0.32199481 0.45027563 0.88508296 -0.11781347 0.016239133
-0.013821712 -0.042703405 0.32508546 0.30830383 0.94523871 -0.10710936 0.015023991
-0.0061741285 -0.04458316 0.32456586 0.10912024 0.99117261 -0.075297445 0.012408628
0.0043550031 -0.044758718 0.32463679 -0.073647693 0.99576598 -0.055009477 0.012677033
0.014091802 -0.042522632 0.32578984 -0.30721852 0.94664276 -0.097387232 0.019013967
-0.033055663 -0.030503899 0.3255856 0.75832647 0.64890426 -0.062162146 0.015115329
-0.024766231 -0.037220348 0.3256841 0.6154905 0.78163093 -0.10111651 0.012645639
-0.019966895 -0.039754763 0.32940894 0.44814932 0.89002204 -0.083802707 0.017389871
0.026428446 -0.036457364 0.32363522 -0.63699734 0.76381069 -0.10405533 0.015028812
0.032803085 -0.030867118 0.32314584 -0.74433792 0.66041517 -0.09906023 0.012110109
-0.035670593 -0.026958346 0.32679135 0.77665555 0.62698591 -0.060785454 0.015713345
0.03796 -0.023935111 0.32670036 -0.84110367 0.53404373 -0.085685059 0.015930152
0.0401439 -0.020229623 0.32415268 -0.89005333 0.44864455 -0.080765821 0.017024562
-0.042408749 -0.014438407 0.32597303 0.93965387 0.33440378 -0.072281614 0.015798338
0.042540967 -0.014258677 0.32542866 -0.93951625 0.33292475 -0.08043924 0.016101392
-0.044814777 -0.0045592003 0.32354257 0.98673338 0.12414746 -0.10461638 0.013910948
0.04460974 -0.0053311638 0.32587099 -0.99176526 0.11293405 -0.060394835 0.013663851
-0.044816416 0.0036873592 0.3260684 0.99506855 -0.061303325 -0.077977188 0.012070821
0.04464091 0.0058810082 0.32521421 -0.98805356 -0.13306573 -0.077740133 0.017015489
-0.042029291 0.016908433 0.32259068 0.90323132 -0.41261193 -0.11800267 0.013563629
0.042343482 0.015069387 0.32453659 -0.93276727 -0.35148579 -0.080018565 0.018277569
-0.03701641 0.025470421 0.32514247 0.78184038 -0.61385012 -0.10914978 0.012809269
0.035963442 0.026928537 0.32509255 -0.78079772 -0.61977345 -0.078966998 0.014715019
0.040379412 0.020562034 0.32241321 -0.89685071 -0.43074065 -0.10060389 0.013345438
-0.031195987 0.03230172 0.32557708 0.66541982 -0.73523468 -0.12902106 0.015372489
-0.023405762 0.038422819 0.32379049 0.49998516 -0.86210966 -0.082351975 0.017298177
0.024862658 0.037290316 0.32466584 -0.58584851 -0.80725324 -0.071580529 0.013594187
0.032064117 0.031478543 0.3250373 -0.71941084 -0.68814445 -0.094367616 0.010974594
-0.015037361 0.042214733 0.32557848 0.37887895 -0.91913205 -0.10792167 0.012192347
-0.0070652403 0.044593107 0.3251707 0.15758501 -0.98357511 -0.088017546 0.015076774
0.0044074613 0.044657789 0.32572016 -0.073977932 -0.99489421 -0.068650559 0.013127262
0.016174104 0.041913122 0.32412708 -0.39461717 -0.91491461 -0.084903233 0.014471694
-0.014319215 -0.041856062 0.33493361 0.33375004 0.93946505 -0.077565014 0.02005942
-0.0064092367 -0.043612409 0.33705655 0.17252032 0.98359519 -0.05270046 0.017421586
0.0064446935 -0.043764014 0.33341911 -0.12704378 0.99074876 -0.047714364 0.016152157
0.015773701 -0.041354381 0.33320662 -0.38748187 0.91722214 -0.09252771 0.014487218
-0.031585097 -0.030885886 0.333722 0.70098144 0.70905221 -0.076616086 0.014204598
-0.026104426 -0.035595585 0.33454257 0.62646508 0.77633828 -0.069572426 0.013498278
0.026077621 -0.035521466 0.33588508 -0.64180368 0.76561743 -0.043795116 0.01499387
0.030597359 -0.031904694 0.33356914 -0.66446298 0.7435928 -0.074556693 0.012239831
-0.036807857 -0.023972789 0.33621439 0.802773 0.59566742 -0.027125325 0.014476232
0.036028855 -0.025568306 0.3352775 -0.78219432 0.62081343 -0.05256119 0.015193261
-0.041494388 -0.014848599 0.33564562 0.93636316 0.34976813 -0.029769422 0.017140763
-0.039687626 -0.019627325 0.33584151 0.89299554 0.44837657 -0.038953863 0.017591413
0.039757375 -0.018753335 0.33904377 -0.89529037 0.443811 -0.038562212 0.017235557
0.041539174 -0.014729432 0.33488408 -0.92106992 0.38729268 -0.040430762 0.01483455
-0.043936208 -0.0049557858 0.33385104 0.98690808 0.15634039 -0.039624352 0.01426171
0.044194724 -0.0031937456 0.33249998 -0.99691671 0.047827493 -0.062206473 0.014143609
-0.043358967 0.0077606221 0.33609128 0.98551738 -0.16380528 -0.043856129 0.019570837
0.043832321 0.0041443072 0.33542576 -0.99617565 -0.076394893 -0.042402606 0.018492118
-0.041864514 0.014127231 0.33478811 0.95976424 -0.27464092 -0.058522686 0.018541092
0.04114547 0.015901191 0.33614847 -0.91687429 -0.39666751 -0.044680446 0.013509662
-0.036359366 0.025043167 0.33403572 0.79648292 -0.60370106 -0.034058105 0.015098715
0.03608489 0.025450004 0.33518484 -0.80664492 -0.58335632 -0.094970293 0.018641289
-0.031681843 0.030533254 0.33693635 0.7272743 -0.68423611 -0.05378535 0.016155114
-0.0264339 0.03533002 0.33349776 0.63453215 -0.76849872 -0.082332902 0.013061812
0.0192417 0.039527215 0.33831984 -0.40618515 -0.9131971 -0.032935597 0.014405385
0.026684295 0.035264309 0.33492464 -0.62277335 -0.77918386 -0.070893697 0.014547037
0.031417519 0.031057963 0.33345211 -0.72321671 -0.6866889 -0.07359308 0.018330095
-0.014639543 0.041595772 0.3352288 0.33541533 -0.94034696 -0.056958012 0.019000398
-0.0048741596 0.04394602 0.33384967 0.10116958 -0.99316263 -0.058246568 0.016754156
0.0049678488 0.043946575 0.33417556 -0.17553727 -0.98192835 -0.070734404 0.012914137
0.015148308 0.041527357 0.33454439 -0.35527647 -0.93181378 -0.074173614 0.018191809
-0.014761307 -0.041289162 0.34557602 0.34439075 0.93805033 -0.038163874 0.020964811
-0.0055764806 -0.043515362 0.34481677 0.16655307 0.98452979 -0.054416686 0.016673837
0.0058240066 -0.043461077 0.34550053 -0.2059809 0.97854799 0.0039579663 0.016397331
0.013792026 -0.041582182 0.34314215 -0.31849039 0.94718289 -0.037530325 0.019515866
-0.030697303 -0.031138135 0.34686425 0.69471735 0.71898448 0.020713847 0.015836824
-0.027433492 -0.033955302 0.34702033 0.63613462 0.77157789 -0.00054179091 0.014419947
0.01903045 -0.039773896 0.34433946 -0.47372517 0.87941915 -0.046971869 0.020859493
0.024382386 -0.0363217 0.34556851 -0.62380689 0.78125215 -0.022584055 0.014404587
0.031049222 -0.030779922 0.34719598 -0.72414297 0.68963826 -0.0040096547 0.015861649
-0.035640661 -0.025199685 0.34500861 0.79598427 0.60531658 -0.00095672952 0.016327841
0.036315657 -0.024425121 0.34450451 -0.78311616 0.62119514 -0.029079815 0.015541439
-0.040599525 -0.016808746 0.34416986 0.92308176 0.38452119 -0.007967025 0.015134435
-0.039533678 -0.019540414 0.34189111 0.91774195 0.39631411 -0.026171261 0.01543832
0.039433446 -0.018946694 0.34582663 -0.88936859 0.4567697 -0.019621642 0.017835999
0.04143953 -0.014697467 0.34561381 -0.9327122 0.35978371 -0.024570316 0.018406179
-0.043556213 -0.0047739903 0.34453368 0.98981363 0.1365367 -0.040331986 0.016187597
0.043364279 -0.0058060186 0.34579217 -0.98835349 0.15209992 0.0047982405 0.015073659
-0.043545015 0.004867394 0.34615806 0.99313837 -0.11488421 0.021859271 0.018243013
0.04351411 0.0050963862 0.34588489 -0.99092436 -0.13336311 -0.016826192 0.017868882
-0.041458074 0.014021235 0.34533021 0.93401897 -0.35716382 -0.0065270308 0.016316196
-0.039937444 0.018143341 0.3432256 0.90874779 -0.41485581 -0.045519911 0.012613344
0.03977377 0.018799081 0.34860027 -0.90035796 -0.43508074 -0.0077667767 0.016206361
0.041038256 0.015446788 0.34386531 -0.92307001 -0.38211206 -0.043955129 0.013076652
-0.035505399 0.02573421 0.34447199 0.77014804 -0.63706088 -0.032022167 0.014398826
0.036383498 0.024299523 0.34530798 -0.80407929 -0.59442306 -0.010844478 0.013353175
-0.030890558 0.031148149 0.34269047 0.71908975 -0.69379407 -0.039493438 0.015883468
-0.02405712 0.0365416 0.34454131 0.5572859 -0.83026481 -0.0096382312 0.018958718
0.01921767 0.039311178 0.34526172 -0.45497325 -0.8902964 -0.019279417 0.017185466
0.027901778 0.03382377 0.34358373 -0.62741172 -0.77750689 -0.04286842 0.01431928
0.030968677 0.030784912 0.34950441 -0.67971754 -0.73347306 0.0011618215 0.019881552
-0.014732641 0.041263837 0.34385195 0.37030372 -0.92889988 -0.0044802106 0.016175512
-0.0058188192 0.043450534 0.34466088 0.14656492 -0.98909742 -0.014319745 0.019000202
0.0045927381 0.043601029 0.34410009 -0.12755305 -0.99102223 -0.040064018 0.017176101
0.01169845 0.042268425 0.34336519 -0.24291021 -0.9697091 -0.025669774 0.016550593
-0.015871482 -0.041006073 0.35468683 0.36629429 0.93045813 0.008730256 0.01880295
-0.0043266024 -0.0435494 0.35505489 0.14934616 0.98816967 0.034876972 0.015426004
0.0051315613 -0.043557722 0.35654521 -0.18291529 0.98258829 0.032593574 0.014432442
0.013971317 -0.04140459 0.3527782 -0.29594857 0.95515501 0.0096640447 0.021588737
-0.030878268 -0.031049054 0.35488135 0.68590003 0.7276836 -0.0042076474 0.017378688
-0.024994817 -0.036019079 0.35519817 0.62727666 0.77796835 0.035906345 0.014367779
0.024875164 -0.036031563 0.35492474 -0.62192315 0.78230041 0.034896471 0.014392866
0.030902142 -0.030979218 0.35355011 -0.69031411 0.72309715 0.024431707 0.017961966
-0.036796153 -0.02346118 0.35359862 0.81905437 0.57369918 0.0043725409 0.013373204
0.036146328 -0.024902517 0.35510841 -0.79573667 0.60564256 0.00049604784 0.014513069
-0.04148563 -0.013753827 0.35317093 0.95259845 0.3039732 -0.012512722 0.021528423
-0.039582904 -0.019103065 0.35139927 0.90952849 0.41555947 -0.0082621342 0.013032862
0.039871 -0.018257629 0.35632563 -0.91052055 0.41256571 0.027237788 0.016264006
0.041979276 -0.012714377 0.35510027 -0.95888376 0.28339481 0.015143124 0.018768735
-0.043634683 -0.0043052686 0.35681999 0.9918527 0.11764371 0.04886958 0.013842741
0.043123972 -0.0066110203 0.35242289 -0.98677152 0.16153562 0.013719908 0.015906779
-0.043318454 0.0064285207 0.35428816 0.99326706 -0.11512007 0.012955473 0.017773146
0.043658048 0.0046013435 0.35701245 -0.99473834 -0.088785306 0.051114876 0.017882526
-0.041449368 0.014471409 0.35557231 0.9466539 -0.32002163 0.037848644 0.013947716
-0.039518256 0.018706318 0.35281676 0.89996356 -0.43550748 0.019971862 0.015160236
0.041721825 0.012792581 0.35105726 -0.94943023 -0.31392917 -0.0055465945 0.018208606
-0.035551909 0.025414709 0.35543358 0.78963417 -0.61320591 0.021364814 0.015615305
0.035612065 0.025489593 0.35523921 -0.76993465 -0.63761669 0.025408432 0.015366818
-0.030988917 0.03108534 0.35804492 0.68779403 -0.72480106 0.040035903 0.018707437
-0.026679313 0.034797933 0.3552393 0.63801026 -0.76952988 0.027690608 0.016223861
0.018153664 0.03972346 0.35039169 -0.4319104 -0.90178889 0.015174088 0.013172979
0.024756184 0.036187775 0.35496607 -0.61127293 -0.79127163 0.015312262 0.016448945
0.030626293 0.031178193 0.35239181 -0.73116726 -0.68188709 -0.020603037 0.019989496
-0.014019917 0.041518945 0.35687804 0.32204685 -0.94492751 0.058291096 0.018221809
-0.0044301534 0.043441471 0.35389456 0.086239547 -0.99624401 -0.0077840085 0.017035862
0.0051331054 0.043580711 0.35484108 -0.14029959 -0.990062 -0.0096566482 0.018393951
0.012726482 0.042051226 0.35673949 -0.28387377 -0.95837831 0.0304409 0.017293779
-0.013074769 -0.04231786 0.36570475 0.2778942 0.95713282 0.081679769 0.017683309
-0.0039442955 -0.043878444 0.36425287 0.056982569 0.99802452 0.026456296 0.015680557
0.0062869056 -0.043751992 0.36439905 -0.1647357 0.98435885 0.062447447 0.015608946
0.015715417 -0.041337844 0.36558813 -0.37318474 0.92499858 0.071488798 0.01937484
-0.031458326 -0.030878421 0.36370257 0.7345559 0.67718512 0.042987909 0.011411154
-0.026117941 -0.035595797 0.36623254 0.6224317 0.77617258 0.10067228 0.015648507
0.024281597 -0.036792751 0.364728 -0.58737195 0.80810404 0.044295259 0.019010464
0.030223295 -0.032146718 0.36310965 -0.67017704 0.74120724 0.038399685 0.011925316
-0.035674866 -0.026116557 0.36625832 0.7684015 0.63605881 0.070628099 0.015157067
0.037836995 -0.022341382 0.36351344 -0.85603654 0.51657695 0.01870016 0.017923491
-0.041794669 -0.014166617 0.36520436 0.9423089 0.3334778 0.029093882 0.018868392
-0.039783068 -0.019332055 0.36107486 0.90594 0.42130569 0.042121999 0.01449972
0.039953601 -0.018987752 0.3672632 -0.90310073 0.42437279 0.065701813 0.015135241
0.041899174 -0.013959225 0.36602053 -0.94010103 0.33450302 0.065709703 0.017337983
-0.043747295 -0.0050273831 0.36359346 0.99211687 0.11925972 0.038486052 0.013598564
0.04418762 -0.0038891463 0.36590308 -0.99637872 0.058687158 0.061524525 0.013946653
-0.043943647 0.004214548 0.36536047 0.99409956 -0.09261398 0.056469087 0.013342952
0.043599278 0.0081999525 0.36474895 -0.98476589 -0.16992985 0.036879215 0.017509798
-0.042533185 0.012212075 0.36624047 0.9601261 -0.27008247 0.07220307 0.01814278
-0.039408512 0.019934397 0.36641252 0.88679129 -0.45688197 0.069714077 0.018293463
0.039751068 0.01979911 0.36678296 -0.87522686 -0.47655535 0.082903363 0.01496252
0.041835856 0.013946116 0.36536542 -0.94207025 -0.32952395 0.062591322 0.019495416
-0.035740875 0.025849499 0.3638671 0.78767902 -0.61560595 0.024311582 0.015797693
0.036466733 0.024945648 0.36636961 -0.81306779 -0.57652122 0.080895081 0.01787146
-0.0311238 0.031427123 0.36641499 0.71164507 -0.70029229 0.056143064 0.014012578
-0.021287214 0.038557686 0.36163947 0.49730933 -0.86623561 0.048159689 0.01651215
-0.019581959 0.039866988 0.36595228 0.4522863 -0.88676101 0.095352478 0.016688991
0.019918147 0.039496191 0.36753035 -0.45259631 -0.88931429 0.06539689 0.017006788
0.024417482 0.036712013 0.36497331 -0.59599906 -0.80047917 0.063388921 0.012908751
0.030834373 0.0316053 0.36504886 -0.69874769 -0.71168524 0.072497055 0.01429532
-0.014472594 0.041644666 0.36430246 0.34217137 -0.93783599 0.058158532 0.020405814
-0.0059436024 0.044029441 0.36817339 0.18184109 -0.97986549 0.082446679 0.018260306
0.0045402469 0.043819413 0.36502752 -0.10643489 -0.99292046 0.05273068 0.015193425
0.013978798 0.041903567 0.36645079 -0.33011723 -0.94231218 0.055411793 0.020506861
-0.020219419 -0.040185079 0.37589073 0.45264223 0.88514525 0.10785616 0.018477082
-0.014059991 -0.042778697 0.37454292 0.33731648 0.93722785 0.088439383 0.016964912
-0.0042265104 -0.044692695 0.37574092 0.078381628 0.99413222 0.074549243 0.014133148
0.0052427589 -0.044666793 0.37473702 -0.088631891 0.99325341 0.074779719 0.013484702
0.014303506 -0.042567022 0.37496638 -0.31841043 0.94165015 0.10913163 0.018477878
0.021208016 -0.040161636 0.37907919 0.47381061 -0.87008631 -0.13584271 0.018258683
-0.032152411 -0.031324677 0.37406164 0.72937614 0.68057895 0.069445826 0.01200954
-0.025218079 -0.036951479 0.37343729 0.59750479 0.79714131 0.086913034 0.015453148
0.026948333 -0.035861325 0.37395006 -0.63494098 0.76809305 0.082964651 0.015896589
-0.037059512 -0.025473196 0.37546122 0.80205125 0.58986753 0.093648583 0.013167818
0.037325524 -0.024904072 0.37563989 -0.82038462 0.5680725 0.065289773 0.018295631
0.040379964 -0.020160992 0.37751579 -0.8655501 0.49170759 0.09511435 0.016100504
-0.042322546 -0.015613355 0.37675744 -0.92738295 -0.35409227 -0.12074552 0.018633764
0.042389043 -0.014903593 0.37414211 -0.93382716 0.35362008 0.05403322 0.019713541
-0.04471878 -0.0055132052 0.37517363 0.98542708 0.13894671 0.098118894 0.012822057
0.044659358 -0.0046221092 0.37459138 -0.99125975 0.087525725 0.098708868 0.0121712
-0.044404767 0.0074105407 0.37561315 0.9784084 -0.19346997 0.07270769 0.01872343
0.044638574 0.0040076938 0.37437624 -0.99562311 -0.019522037 0.091397732 0.016201615
-0.043181114 0.01266518 0.37497407 0.96138126 -0.26529774 0.07323385 0.015101504
0.042643636 0.014543282 0.37671095 -0.94713742 -0.30128816 0.11025492 0.019750806
-0.037035648 0.025087491 0.37255439 0.78673625 -0.60927927 0.099120162 0.013418462
0.03665768 0.025688283 0.37328085 -0.78521353 -0.61483455 0.073607557 0.014962573
-0.03135914 0.032510709 0.37704194 -0.68034965 0.7212534 -0.13006876 0.016589586
-0.025460929 0.036874373 0.37430334 0.58796042 -0.805834 0.070242792 0.013085157
0.024172707 0.037822045 0.37501529 -0.58288091 -0.80542892 0.10739716 0.012774489
0.03156637 0.031871106 0.37413907 -0.68754554 -0.71830922 0.10636198 0.012739205
-0.015384464 0.042175513 0.37491119 0.39207962 -0.9137392 0.10655542 0.01323238
-0.0051887711 0.044808295 0.37616873 0.11329898 -0.98786867 0.10620166 0.016672384
0.0053714705 0.044526786 0.37463638 0.11028054 0.98654616 -0.12068513 0.013996379
0.015453036 0.042415209 0.37589964 0.36359218 0.92374545 -0.12039542 0.017446205
-0.021264493 -0.040401351 0.38250685 0.49224636 0.86309588 0.11295641 0.01871521
-0.014601635 -0.043902609 0.38654634 -0.29253095 -0.94488615 -0.14702299 0.013869122
-0.0051253415 -0.045822784 0.38537279 -0.071513735 -0.98526579 -0.15536143 0.015145044
0.0042776233 -0.045788188 0.38500011 0.080516398 -0.98845404 -0.12835789 0.015113591
0.014456813 -0.043710247 0.38534757 0.30903915 -0.93807781 -0.15654029 0.014326316
0.021898262 -0.040657163 0.38524365 0.47355059 -0.86632651 -0.15883359 0.021880677
-0.033299472 -0.031907778 0.38519675 -0.72228742 -0.67560691 -0.14783843 0.014129518
-0.026430348 -0.037552964 0.38385645 0.6062665 0.78813869 0.10619924 0.015744328
0.026117302 -0.037621859 0.38343376 0.61713988 -0.77368808 -0.14333557 0.015049848
0.033991236 -0.031149423 0.38557053 0.73274916 -0.6683498 -0.12801318 0.011427255
-0.040751569 -0.021245373 0.3835322 -0.8722418 -0.47029424 -0.13422936 0.02013989
-0.039704826 -0.022546407 0.38239178 0.84561074 0.52261484 0.10870203 0.015061832
0.036839642 -0.027224494 0.38266376 -0.79080367 0.60306084 0.10462862 0.016506065
0.041002829 -0.02135171 0.38658094 0.86436015 -0.47898117 -0.15316185 0.018169869
-0.043414917 -0.016028721 0.38655376 -0.91556996 -0.37937808 -0.13343123 0.012762527
0.04362946 -0.013966521 0.38353679 0.93667477 -0.32733503 -0.12446716 0.018720808
-0.0459539 -0.0052548321 0.38609651 -0.97970933 -0.15857862 -0.12256666 0.012087842
0.046272896 -0.0026158106 0.38599494 0.98528063 -0.068499878 -0.15662001 0.012868973
-0.045668021 0.0045299008 0.38423207 -0.98983264 0.064832263 -0.12660192 0.014979723
0.045895915 0.0042590033 0.38528189 0.98737323 0.072056383 -0.14107424 0.014264855
-0.043198638 0.015334653 0.38358346 -0.90685827 0.3935658 -0.150712 0.013378636
0.043440029 0.016144505 0.38701048 0.91204697 0.382245 -0.14852276 0.014142891
-0.037739668 0.025783135 0.38157836 0.80257112 -0.58521825 0.11575492 0.012294684
0.037718687 0.026277542 0.3845897 0.77989715 0.61249053 -0.12890202 0.014972622
0.040461324 0.022046873 0.38485712 0.86689711 0.47796819 -0.14154772 0.015594897
-0.032380912 0.03280532 0.38512799 -0.71460396 0.68352264 -0.14878848 0.012039764
-0.025587637 0.038396437 0.3859033 0.54907954 -0.82811385 0.11286787 0.013404778
0.024515519 0.039045412 0.38522136 0.54100931 0.83239609 -0.12010713 0.019130252
0.03167643 0.033191666 0.38419724 -0.68051857 -0.72317177 0.11797036 0.011702602
-0.021413162 0.041006882 0.38565394 0.44725052 -0.88766801 0.10960127 0.015355917
-0.012699339 0.044294316 0.38547266 -0.2429056 0.95876938 -0.1475063 0.014878624
-0.0042727427 0.045972146 0.38595417 -0.049723126 0.98637533 -0.15681665 0.015637212
0.0055835955 0.045995802 0.38665578 0.096103542 0.98027819 -0.17268144 0.01685646
0.01698968 0.043084066 0.38593182 0.36536494 0.918203 -0.153009 0.01709057
0.022196073 0.040326785 0.38491011 0.4790639 0.8682971 -0.12867737 0.018049959
-0.023676582 -0.040969893 0.39354402 -0.51234543 -0.84191746 -0.1693432 0.014425372
-0.01528877 -0.045136597 0.39523438 -0.3487615 -0.9238326 -0.1577937 0.012231938
-0.0048798053 -0.047396079 0.3951962 -0.078096941 -0.97395486 -0.21286802 0.011969782
0.0075321593 -0.04698588 0.39433262 0.15024742 -0.97138911 -0.18392633 0.011439746
0.016039694 -0.04486401 0.3957963 0.30071917 -0.93672299 -0.17921509 0.0081201401
0.021492366 -0.042280376 0.39312774 0.46070537 -0.87035573 -0.17387204 0.01723526
-0.032940716 -0.034274951 0.39521912 -0.69520944 -0.6982646 -0.17061749 0.010429943
-0.029399414 -0.036834404 0.39184827 -0.63215154 -0.75856304 -0.1580078 0.01466169
0.028110337 -0.038591005 0.39597058 0.59436136 -0.78147459 -0.18982108 0.01231204
0.031850424 -0.035855107 0.39603713 0.66158366 -0.72202349 -0.20245761 0.011215683
-0.041500393 -0.022392236 0.39193821 -0.85804915 -0.48373401 -0.17249066 0.016235884
-0.038763538 -0.026955361 0.39289483 -0.79543722 -0.58197272 -0.16907819 0.0135388
0.041815657 -0.022478679 0.39485908 0.86583978 -0.46990237 -0.171794 0.017338242
-0.045621708 -0.013753439 0.39585981 -0.93271708 -0.30223486 -0.19670546 0.014918431
0.044771265 -0.015745796 0.39468461 0.93584388 -0.31832525 -0.15121284 0.01551818
-0.047618132 -0.004217715 0.39639711 -0.98132634 -0.05171911 -0.18526673 0.012507603
0.046567466 -0.0068802517 0.39235535 0.97636992 -0.12731509 -0.17462099 0.013080575
-0.047172308 0.005189477 0.39433566 -0.98157811 0.089607641 -0.16874507 0.01391481
0.047201019 0.0055337125 0.39463678 0.97764719 0.066816106 -0.19935274 0.012400704
-0.045210563 0.014673434 0.39506394 -0.95120579 0.26517093 -0.15777171 0.012765951
0.045469463 0.013837855 0.3951492 0.94772196 0.26629275 -0.17581612 0.012810539
-0.041381896 0.02319964 0.39450032 -0.84115994 0.51552266 -0.16335963 0.014165088
-0.038435411 0.028592624 0.39582705 -0.7808882 0.59441203 -0.19206257 0.014614621
0.038890436 0.027300853 0.39478904 0.79648703 0.58849686 -0.13885172 0.01634592
0.042844959 0.02110981 0.3947975 0.89150727 0.41347948 -0.18506642 0.015590894
-0.034222305 0.032998245 0.39521956 -0.69308519 0.70300132 -0.15944327 0.010634529
-0.025869107 0.03961226 0.39377555 -0.51774651 0.84128803 -0.15547679 0.011146905
0.027617229 0.039081711 0.39534488 0.59709102 0.78504807 -0.16486907 0.012630353
0.034075294 0.032897491 0.39373854 0.70555323 0.69324434 -0.14699265 0.0091239046
-0.022953369 0.041387409 0.39331248 -0.46695867 0.86891389 -0.16412854 0.01486068
-0.015845856 0.044817645 0.39489773 -0.37195101 0.91469687 -0.15805735 0.012061616
-0.0033575885 0.0474004 0.39476869 -0.051853556 0.98330748 -0.17440611 0.013604622
0.0034441121 0.047378376 0.39507589 0.059139244 0.97845763 -0.19779593 0.011319223
0.018428033 0.044181414 0.39641437 0.37946635 0.90624321 -0.18635574 0.013159194
0.02073909 0.043330349 0.39819503 0.39400879 0.89499116 -0.20915984 0.012739974
-0.0050378228 -0.050163377 0.40791661 -0.11779193 -0.96651727 -0.22796813 0.0099189514
-0.023784155 -0.043059945 0.40371445 -0.49621552 -0.8430953 -0.20726913 0.010870744
-0.01586579 -0.047093704 0.40599307 -0.3153204 -0.92592388 -0.20793752 0.008884633
-0.0031926502 -0.049608994 0.40641829 -0.01313747 -0.9738428 -0.22684276 0.012862882
0.0060401298 -0.049027722 0.40449673 0.13515358 -0.96709847 -0.21553205 0.0098107513
0.015504831 -0.046927527 0.40485552 0.29740587 -0.93241709 -0.20530011 0.0083974171
0.025278388 -0.042702459 0.40571436 0.49460614 -0.84351748 -0.20938724 0.013503794
-0.034659091 -0.03526558 0.40509963 -0.68745995 -0.69220841 -0.21965052 0.01027415
0.034522261 -0.035384811 0.4048878 0.69056034 -0.69210887 -0.21002811 0.012392014
-0.04261148 -0.02494213 0.40448362 -0.83446741 -0.51300186 -0.20122932 0.009627983
0.041729391 -0.027458658 0.40621582 0.81658447 -0.53788394 -0.2094533 0.010703755
-0.048135612 -0.012337867 0.40580043 -0.9499684 -0.21784809 -0.22383536 0.015730888
0.047035288 -0.015511096 0.40527186 0.92637032 -0.31282339 -0.20971331 0.0088618407
-0.050351657 -0.0044593653 0.40996757 -0.96906346 -0.083735682 -0.23217291 0.011690622
-0.049088668 -0.0083381617 0.40504435 -0.9685744 -0.12773463 -0.21341862 0.0081994338
0.048885159 -0.0060624508 0.4036566 0.97821909 -0.074717321 -0.1936616 0.012799236
0.050312169 -0.006128185 0.4097209 0.96867138 -0.096032381 -0.22902733 0.011069093
-0.048843626 0.0078332424 0.4046813 -0.96442801 0.17287864 -0.19997883 0.012795648
0.04892087 0.0032707255 0.40295768 0.97985166 0.045285318 -0.19452457 0.01150557
0.050152082 0.0039706398 0.40892363 0.96789032 0.094183035 -0.23306222 0.012808116
-0.047244199 0.015240799 0.4053008 -0.94206482 0.2529301 -0.22031862 0.011296466
0.047313277 0.014787715 0.4055759 0.94270194 0.27257347 -0.1923971 0.010841591
-0.043013375 0.023809228 0.40357298 -0.85402489 0.45631155 -0.24984229 0.013689892
-0.039640136 0.028929818 0.40179005 -0.7599116 0.61770737 -0.20241547 0.012814273
0.044329572 0.02190844 0.4037759 0.90241718 0.3835794 -0.1962398 0.012582676
-0.035710957 0.034176994 0.40485749 -0.73325104 0.65124696 -0.19550027 0.011479883
0.034375526 0.034966305 0.40289438 0.69116241 0.69715196 -0.19045645 0.0094781332
-0.025896655 0.042238515 0.40542227 -0.49568853 0.83904713 -0.22426049 0.013935957
-0.016839419 0.046572205 0.40515012 -0.35706297 0.90521413 -0.23042023 0.011263165
-0.0033228463 0.048539568 0.40116507 -0.052654356 0.97765142 -0.20353177 0.011819764
0.0064696171 0.04836379 0.40127563 0.12024722 0.97333807 -0.19532928 0.0089752404
0.015773566 0.046988487 0.40480521 0.30793431 0.92910737 -0.20478247 0.00901304
0.020625686 0.04499311 0.40492788 0.37946749 0.90331584 -0.20006227 0.012731318
-0.0044816062 0.050059132 0.40858871 -0.073141426 0.96694499 -0.24426976 0.012395559
0.0019578158 0.050281685 0.4083122 0.015215859 0.97687387 -0.21327434 0.011637829
-0.013680294 -0.050563496 0.41735879 -0.25032395 -0.93079525 -0.26637974 0.01587759
-0.0052909642 -0.051572137 0.41529617 -0.099844292 -0.96312064 -0.24985966 0.010883938
0.0052604936 -0.051604915 0.41537616 0.12374342 -0.95809066 -0.25836015 0.0084068291
0.012759336 -0.05104987 0.41808107 0.2440457 -0.92839885 -0.2802093 0.013864239
-0.03171438 -0.042101145 0.41800994 -0.58966726 -0.75791502 -0.2790294 0.0153876
-0.025018632 -0.045858879 0.41700768 -0.47876698 -0.83579969 -0.26874003 0.0099045243
-0.014889113 -0.049028765 0.41266808 -0.30363673 -0.92288774 -0.2368183 0.011432738
0.015530017 -0.049109418 0.41432425 0.29277569 -0.92410779 -0.24557525 0.011841754
0.024830297 -0.044860274 0.41296247 0.48469856 -0.84266514 -0.23448381 0.013329056
0.031915095 -0.041749276 0.41747943 0.56120288 -0.78311837 -0.26791212 0.011610107
-0.042765163 -0.030376034 0.41758832 -0.80895197 -0.52923012 -0.25595328 0.012109635
-0.036634963 -0.036030892 0.41342312 -0.70482242 -0.66468209 -0.24783681 0.012765393
0.036789145 -0.036868606 0.4162865 0.67837441 -0.68771553 -0.25856441 0.013784224
0.042598918 -0.030826883 0.41702211 0.79740357 -0.52977288 -0.28894323 0.009934349
-0.045473047 -0.024703985 0.41530436 -0.85245991 -0.45990884 -0.24858771 0.013480507
0.045469418 -0.023787141 0.41344786 0.84350854 -0.46210524 -0.27377367 0.012264145
-0.050638385 -0.012455573 0.4163166 -0.94444716 -0.20040032 -0.26049811 0.014763175
-0.048996072 -0.017784288 0.41633049 -0.89813781 -0.35147133 -0.26422799 0.012406325
0.048695415 -0.016558703 0.41367322 0.92612743 -0.2916626 -0.23920889 0.010999402
0.050118625 -0.012650514 0.41496196 0.93486178 -0.2270216 -0.27293706 0.012499285
-0.051871169 -0.0038232643 0.41612852 -0.96494853 -0.083420999 -0.24882795 0.010664687
0.051602364 -0.0044876128 0.41462189 0.96671796 -0.08830487 -0.2401222 0.011321536
-0.051627263 0.0046201018 0.41536856 -0.96546745 0.062973805 -0.25279847 0.0099350009
0.051543739 0.0057676495 0.41521439 0.96075213 0.11666856 -0.2516818 0.0088542728
-0.051159952 0.01415363 0.4198558 -0.92405576 0.25918731 -0.28096771 0.011286145
-0.048632026 0.01668085 0.41267166 -0.92865455 0.26944453 -0.25495178 0.012396771
0.048729282 0.017399324 0.4149985 0.91704911 0.31050375 -0.25021663 0.010201989
0.051623601 0.01180728 0.41903257 0.93811077 0.21908818 -0.26823229 0.014067496
-0.04489224 0.025528539 0.41462106 -0.8181088 0.50999051 -0.26572093 0.010374022
0.04519099 0.025182068 0.41480207 0.85679358 0.46046749 -0.23210859 0.0073792939
-0.035911348 0.036932003 0.41395214 -0.68157655 0.69745111 -0.22139409 0.012222702
0.036964994 0.036554668 0.41576251 0.69678819 0.6699667 -0.25618541 0.011100265
0.040774953 0.031636182 0.41361389 0.78114253 0.57161736 -0.2511372 0.013285222
-0.031359967 0.041856308 0.416711 -0.56214166 0.78624094 -0.25655794 0.013067876
-0.024201103 0.046059716 0.41587746 -0.41422787 0.86841637 -0.27252203 0.014212974
-0.016808612 0.048626751 0.41385785 -0.3244482 0.91156226 -0.25256217 0.0085965842
0.015093579 0.048948932 0.41257882 0.28500459 0.9338519 -0.21608588 0.01213664
0.021633562 0.047026254 0.4150832 0.36903334 0.89355338 -0.25568873 0.013073289
0.030800214 0.04228596 0.41620561 0.5526315 0.7874561 -0.27296758 0.0092814928
-0.013571858 0.05066349 0.41762644 -0.25240788 0.930013 -0.26714444 0.010404632
-0.0047868015 0.051487673 0.41478345 -0.070933416 0.96258342 -0.26153705 0.01208508
0.0049803206 0.051720161 0.41578907 0.057927191 0.96660334 -0.24964462 0.011422649
0.017530832 0.050434761 0.41993958 0.3141489 0.90862352 -0.27516153 0.0080487682
-0.015228571 -0.052791096 0.42657119 -0.26642129 -0.9194802 -0.28909487 0.012480713
-0.0061393245 -0.053935401 0.42390731 -0.12175886 -0.94876355 -0.29158634 0.01090422
0.0044047339 -0.053960491 0.42381409 0.084341221 -0.95130336 -0.29649356 0.008088043
0.014037595 -0.052897736 0.42588416 0.23024802 -0.9218213 -0.31181934 0.013564172
0.020877898 -0.051185884 0.42745155 0.35566926 -0.88557422 -0.29876012 0.012120109
-0.032626286 -0.043843433 0.42520165 -0.58719128 -0.7460922 -0.31393096 0.011025392
-0.025919482 -0.047624368 0.42421281 -0.44987231 -0.84393543 -0.29221222 0.0075257765
