# .PCD v0.7 - Point Cloud Data file format
VERSION 0.7
FIELDS x y z normal_x normal_y normal_z curvature
SIZE 4 4 4 4 4 4 4
TYPE F F F F F F F
COUNT 1 1 1 1 1 1 1
WIDTH 572
HEIGHT 1
VIEWPOINT 0 0 0 1 0 0 0
POINTS 572
DATA ascii
0.089028433 0.015421184 0.26655751 -0.88508797 -0.13560626 -0.44523054 0.0031831642
0.091324352 0.014558591 0.26223511 -0.88999259 -0.11386608 -0.44152883 0.0037643807
-0.086759292 0.026680045 0.26658341 0.85614431 -0.27836975 -0.43534711 0.0034816018
0.086943649 0.026555268 0.26621616 -0.85769433 -0.27504969 -0.4344056 0.0032233824
0.091140583 0.022894001 0.26054513 -0.87161547 -0.20601846 -0.44479516 0.0037080026
-0.084379129 0.035253279 0.26422143 0.83109617 -0.33703828 -0.44236225 0.0022234581
0.084324196 0.034533955 0.26492453 -0.81660557 -0.37305564 -0.44043708 0.0039535495
-0.081101567 0.044807978 0.26292133 0.76778549 -0.45978233 -0.44621253 0.0025667285
-0.079198644 0.042891711 0.26817125 0.78882259 -0.43606773 -0.43313247 0.0037689556
0.078562684 0.044425439 0.26779005 -0.78074032 -0.4433659 -0.44030821 0.0035668917
0.08113151 0.044326466 0.26328158 -0.77885801 -0.4475604 -0.43939716 0.0030879879
-0.074365288 0.053672954 0.26380241 0.71650863 -0.52851361 -0.45528981 0.0041502882
0.068387136 0.059455786 0.26616314 -0.69296545 -0.5737235 -0.43662378 0.0037300861
0.073103055 0.054806814 0.26440409 -0.70703042 -0.55412477 -0.43937856 0.0032692435
-0.065539561 0.064639784 0.26394531 0.63337666 -0.62972969 -0.44974941 0.0030399601
-0.056634407 0.069004439 0.26901165 0.56088161 -0.70035207 -0.44149616 0.0036817449
0.06334196 0.064802624 0.26689374 -0.63521826 -0.63672137 -0.43713123 0.0033175994
0.070906326 0.060392812 0.26116171 -0.69781584 -0.56068277 -0.44574425 0.0029784075
-0.053207792 0.072835371 0.26691541 0.53340262 -0.70692432 -0.46447769 0.0036414496
-0.043622792 0.078610793 0.26810175 0.45463574 -0.77670968 -0.43592256 0.0024294714
0.044708047 0.078548603 0.26738963 -0.43263382 -0.79414785 -0.42679864 0.00374448
0.054041769 0.072720267 0.2660915 -0.5416581 -0.71654522 -0.43951043 0.0037066678
-0.045210022 0.081271313 0.26234162 0.44505405 -0.77499235 -0.44868001 0.0026398196
-0.034662608 0.084093496 0.2652148 0.35600954 -0.82178539 -0.44488871 0.0032681653
-0.02660008 0.087492719 0.26508433 0.25624719 -0.86027807 -0.44074813 0.0020428756
-0.014690128 0.088725582 0.26747519 0.15089275 -0.88057321 -0.44924629 0.0022318964
-0.0047891848 0.089209698 0.26936001 0.033597004 -0.89828515 -0.43812674 0.0041649216
0.0078610992 0.089005508 0.26889941 -0.085305788 -0.89858991 -0.43041739 0.0038867577
0.017468788 0.088686019 0.26672471 -0.19398136 -0.87419909 -0.44513726 0.0034954443
0.024867533 0.087894045 0.26550099 -0.224108 -0.86526334 -0.44843605 0.0033526893
0.035921514 0.083348803 0.26553777 -0.3352344 -0.83012629 -0.44554266 0.0033680676
0.042945005 0.081559338 0.26350808 -0.42987895 -0.79172701 -0.43401885 0.0033151214
-0.013511745 0.091104552 0.2628963 0.11239491 -0.89019096 -0.44150579 0.0035375331
-0.0044396138 0.09230344 0.26290548 0.010070126 -0.89530092 -0.44534805 0.002927423
0.0053892923 0.092337266 0.26263377 -0.050229948 -0.89398313 -0.44527641 0.0021962642
0.014719252 0.091644466 0.2616035 -0.13010338 -0.88781041 -0.44143599 0.0033081714
0.021533677 0.090510517 0.26204163 -0.20245002 -0.87064391 -0.44832259 0.0033494413
-0.034311086 -0.08124347 0.27140701 0.35928366 0.83562338 -0.41551036 0.003895561
-0.025402175 -0.082158156 0.27735659 0.25446779 0.87178403 -0.41861528 0.0030642138
-0.012718412 -0.0866853 0.27276596 0.12514275 0.89907831 -0.41952059 0.0047447085
-0.0037182323 -0.086678207 0.27550811 0.016075516 0.90640986 -0.42209324 0.0031648849
0.0029966631 -0.086699158 0.27567846 -0.022284379 0.90901721 -0.41616222 0.0039803041
0.01663767 -0.084768243 0.27598903 -0.17934078 0.89550096 -0.40732667 0.0046101823
0.025025249 -0.08352562 0.27444711 -0.2635726 0.87364036 -0.40900126 0.0036293056
0.032207254 -0.081828691 0.27202061 -0.32738525 0.84953886 -0.41364542 0.0050013671
-0.045897689 -0.074043401 0.27437076 0.49954018 0.75296533 -0.42837229 0.0040369309
-0.037920248 -0.078486793 0.27411166 0.39090928 0.82082301 -0.41646063 0.0039062817
0.036748752 -0.077899531 0.27641085 -0.39869016 0.81476414 -0.42095783 0.0036251168
0.0430816 -0.075271927 0.27539483 -0.45065966 0.78542274 -0.42428413 0.0046145027
0.051221751 -0.072013661 0.27111807 -0.53010768 0.7312817 -0.42920035 0.0035224219
-0.061102659 -0.062328979 0.2747885 0.62877828 0.65913862 -0.41252163 0.0031984106
-0.055082906 -0.066546366 0.27572814 0.59258956 0.69087207 -0.41416577 0.0039616502
0.055519123 -0.065664075 0.27673632 -0.57144493 0.71054602 -0.41057894 0.0038701019
0.061650813 -0.062296584 0.27407557 -0.63584363 0.65339959 -0.41081837 0.0035196873
-0.072451375 -0.050243843 0.27169332 0.7465207 0.51590699 -0.42017481 0.0034153773
-0.06675607 -0.055245113 0.27511296 0.71029907 0.5577969 -0.42934576 0.0045253392
0.065496922 -0.057208642 0.27465761 -0.68479258 0.59821016 -0.41617748 0.0048248153
-0.074779041 -0.045484826 0.27347085 0.75897378 0.49279484 -0.42557263 0.0033647756
0.07399036 -0.045299362 0.27543923 -0.76454622 0.49715459 -0.41025162 0.003200111
-0.082265176 -0.031248262 0.27193639 0.83774447 0.33939829 -0.42777675 0.0037802181
-0.078368269 -0.035217583 0.27676544 0.82109159 0.38080075 -0.4252052 0.0032310849
0.078837208 -0.033549398 0.27724183 -0.83948553 0.35111281 -0.41470945 0.004404604
0.081116401 -0.034512043 0.27150127 -0.83477962 0.34983444 -0.42515743 0.0043512313
-0.082838215 -0.027866317 0.27371091 0.85506797 0.28909498 -0.43044502 0.0027069806
-0.0796955 -0.028983044 0.2794562 0.85345 0.3220613 -0.40975544 0.0043178829
0.083510801 -0.023979768 0.27517185 -0.87005299 0.24127783 -0.42987543 0.0032032619
-0.086050428 -0.017097998 0.2728999 0.88753939 0.17987981 -0.42416623 0.002358983
0.085275754 -0.01404471 0.27560696 -0.89464694 0.14706382 -0.42187575 0.0028752824
-0.086261339 -0.0056492067 0.27588192 0.89735681 0.076254778 -0.43466756 0.0032261228
0.08700572 -0.0044887727 0.27452135 -0.90982288 0.019945811 -0.41451702 0.0023627984
-0.087064326 0.0037422115 0.27461231 0.90153611 -0.035219185 -0.43126822 0.0032145157
0.086554453 0.0039229495 0.27573085 -0.90589756 -0.041595146 -0.42144921 0.0034036965
-0.084147573 0.014734909 0.27799281 0.89948124 -0.13390695 -0.41593555 0.0038498798
0.084851317 0.016519148 0.27583399 -0.89138573 -0.18941437 -0.41176891 0.0041538188
-0.082958758 0.024825603 0.27611175 0.87165713 -0.26569852 -0.41184723 0.0034578971
0.083535753 0.024542438 0.27502331 -0.87363005 -0.25934571 -0.41171622 0.0036907832
-0.080150276 0.030537384 0.27710104 0.8479175 -0.32727283 -0.41704711 0.0037769661
-0.077746838 0.038135029 0.27550697 0.81990176 -0.38349825 -0.42507672 0.0027768521
0.077250876 0.036979038 0.27759692 -0.81487548 -0.40338081 -0.41624728 0.0031118826
0.081724584 0.031419199 0.27294365 -0.84518063 -0.33351606 -0.4176563 0.0038759466
-0.075382628 0.043804225 0.27455702 0.78559428 -0.45988417 -0.41394237 0.0021616933
0.07491488 0.044254851 0.27474856 -0.78753442 -0.4546819 -0.41599742 0.0028604174
-0.071575016 0.051358867 0.27173135 0.73451596 -0.52731514 -0.42711246 0.0048704357
-0.065041617 0.0578865 0.27453777 0.67641473 -0.60741556 -0.41654468 0.0026156188
0.066621184 0.055929419 0.27439478 -0.69581008 -0.58577436 -0.4155919 0.0043219267
0.071799137 0.051739495 0.27078149 -0.73653215 -0.52694231 -0.42408982 0.0045791841
-0.061801054 0.063522793 0.27129722 0.64272469 -0.63075507 -0.43480217 0.0030509005
-0.055231411 0.067134365 0.2744357 0.56628346 -0.70199573 -0.43188536 0.0039786012
0.054540209 0.067371525 0.27497578 -0.57620662 -0.70058155 -0.4209173 0.003584377
0.061749481 0.062786601 0.27309209 -0.63566339 -0.65454817 -0.40926597 0.0035937179
-0.050936807 0.070747122 0.27385142 0.52472663 -0.73096049 -0.43630117 0.0034125538
-0.045171529 0.074898966 0.2740044 0.47523671 -0.77242726 -0.42131487 0.0025684137
-0.034875274 0.077865884 0.27814621 0.3675198 -0.83545536 -0.40858728 0.0036900709
0.03772448 0.077925816 0.27548787 -0.38668585 -0.81715393 -0.4274734 0.0032453677
0.045391694 0.07460624 0.27458024 -0.49513775 -0.76180768 -0.41771713 0.003518607
0.05315933 0.07110253 0.27005821 -0.54695344 -0.72203475 -0.42368358 0.0038669228
-0.033633783 0.081457354 0.2715497 0.3380748 -0.84405845 -0.41625807 0.0047950386
-0.0264566 0.08223331 0.27625912 0.29518655 -0.86278838 -0.41044018 0.0037321129
-0.012751725 0.086170815 0.27393916 0.14006366 -0.89098024 -0.43189856 0.0032945545
-0.004901648 0.086638018 0.27524176 0.05290984 -0.90746903 -0.41677389 0.0037076694
0.0055195466 0.087035216 0.27414101 -0.058092661 -0.90209115 -0.42761761 0.0033409467
0.014537356 0.085299641 0.27540252 -0.15008728 -0.89435643 -0.42142674 0.0040038167
0.027749339 0.081932068 0.27575707 -0.30015668 -0.86094379 -0.41070873 0.0036938777
0.033348683 0.081352405 0.27202791 -0.33963338 -0.84170157 -0.41974714 0.003968074
-0.022477066 -0.080818683 0.28277934 0.24882746 0.88441199 -0.39484212 0.0032990871
-0.013607076 -0.081591889 0.28421372 0.14855216 0.90157515 -0.40631825 0.0039334553
-0.0039053874 -0.082217045 0.28571388 0.027587775 0.91717917 -0.39751887 0.0027560752
0.0043223957 -0.083052263 0.28366628 -0.037353691 0.91421932 -0.4034943 0.0023838601
0.015650431 -0.08112406 0.2846711 -0.17515098 0.89212358 -0.41645855 0.0041460046
0.021045648 -0.08132872 0.28256631 -0.23443547 0.88307607 -0.40646848 0.0031968264
-0.042903002 -0.070348486 0.28587928 0.49323827 0.76883084 -0.4069584 0.0025904111
-0.035209779 -0.074357308 0.28537044 0.38214335 0.83391947 -0.39817676 0.0035058425
-0.02631541 -0.076228082 0.28925765 0.29809833 0.87204534 -0.38816786 0.0032456012
-0.011280711 -0.07958483 0.28953534 0.13218273 0.90654981 -0.40086788 0.0041388366
0.014479084 -0.079563439 0.28861591 -0.15131976 0.89973813 -0.40935764 0.0042693941
0.025706982 -0.078073472 0.28584212 -0.27559462 0.8680582 -0.41294369 0.0036847759
0.034826938 -0.074150577 0.28615358 -0.38602045 0.82634914 -0.410043 0.0034296054
0.046554342 -0.070523292 0.28045407 -0.49966821 0.76526004 -0.40584323 0.0033842945
-0.052941866 -0.064018048 0.28340641 0.58062178 0.70389301 -0.40916127 0.0038363228
-0.046033025 -0.067778699 0.2862424 0.50734776 0.76323563 -0.40008706 0.0030152726
0.047633067 -0.066309378 0.28668731 -0.5441038 0.73244292 -0.40924132 0.0037721393
0.052959874 -0.062717363 0.28577542 -0.6042124 0.68894732 -0.40034845 0.0031367922
-0.064743668 -0.052433599 0.28278854 0.71204454 0.57297045 -0.40582922 0.0047010807
-0.059519321 -0.055649132 0.28786355 0.66117632 0.62544811 -0.41431949 0.0037982699
0.057844147 -0.059134047 0.28547263 -0.62072343 0.67433906 -0.39996159 0.0036550285
0.062161826 -0.054632887 0.28443497 -0.68438697 0.61283296 -0.39503202 0.0038272105
-0.072266698 -0.043063674 0.28170323 0.7838583 0.47863871 -0.39556426 0.0038990784
-0.067299061 -0.046171531 0.2869297 0.76011306 0.5135262 -0.39814436 0.0034601532
0.068525515 -0.046249382 0.28456235 -0.75666523 0.51772577 -0.39927158 0.0034106751
0.071046054 -0.040650915 0.28763759 -0.80200624 0.44814655 -0.39490604 0.0042581996
-0.073074229 -0.036882017 0.28663611 0.81938636 0.40891027 -0.40174413 0.0028763358
0.075368427 -0.034388117 0.28393289 -0.83837533 0.37028757 -0.40001744 0.0044293269
-0.080427252 -0.022499597 0.28364426 0.88001335 0.25488779 -0.40076017 0.0043347767
-0.077742733 -0.028826894 0.28378081 0.85532874 0.33039114 -0.39906704 0.0037051996
0.078017078 -0.02509672 0.2864275 -0.87597787 0.26697856 -0.40172777 0.0027996858
-0.082642131 -0.014979186 0.28138191 0.89559996 0.17029129 -0.4109765 0.0041455426
-0.079858914 -0.011793096 0.28874934 0.90960181 0.12518717 -0.39617252 0.0041248766
0.079964161 -0.013763582 0.28791079 -0.89733732 0.15980108 -0.41139922 0.0040639532
0.081457488 -0.013938676 0.28442255 -0.89728159 0.16522679 -0.40937263 0.0030887357
-0.082853153 -0.0032965757 0.28443462 0.91851485 0.023505753 -0.39468715 0.0040632691
0.082348287 -0.0055766171 0.28490585 -0.91056591 0.078991711 -0.40574634 0.0038258999
-0.082165867 0.0059152865 0.28522253 0.91425085 -0.066359989 -0.39967701 0.0035401618
0.08236035 0.0041382429 0.28531376 -0.91724581 -0.042820569 -0.39601338 0.0035409303
-0.081572771 0.015630189 0.28364471 0.89449501 -0.18392545 -0.40749237 0.0036684985
-0.079376861 0.01528438 0.2888009 0.90074909 -0.17537034 -0.39736173 0.0033147465
0.079278499 0.016680691 0.28860468 -0.89327246 -0.20061119 -0.40226793 0.0032863165
0.080937967 0.013743709 0.28567675 -0.90168488 -0.1335521 -0.4112519 0.0040795002
-0.080307439 0.024890795 0.28177777 0.87405813 -0.27833974 -0.39818269 0.0034990511
-0.078843147 0.025542315 0.28433818 0.87699318 -0.28005055 -0.3904542 0.0037749952
0.077689596 0.025309186 0.28701824 -0.86075985 -0.29498601 -0.4148201 0.0027905747
0.080302261 0.024693333 0.28196454 -0.87042391 -0.28632143 -0.40047771 0.0028466543
-0.074052855 0.036074571 0.2852551 0.81591731 -0.40396577 -0.41363072 0.0030664613
0.074762411 0.035982929 0.28381577 -0.81435382 -0.41069454 -0.41007066 0.0029869089
-0.071407475 0.043660954 0.28274053 0.77972513 -0.4777995 -0.40464354 0.0038454353
-0.067876332 0.04558577 0.28669426 0.75707579 -0.51507384 -0.40191439 0.0036247759
0.066991344 0.047376107 0.28579476 -0.74838811 -0.51978624 -0.41199207 0.0033145503
0.071134262 0.044125199 0.28249988 -0.77906704 -0.48239997 -0.40043059 0.0033343798
-0.063812964 0.053148445 0.28349182 0.69966704 -0.59359592 -0.3976303 0.0030482016
0.058179077 0.05790244 0.2867527 -0.65631688 -0.63624966 -0.4055053 0.003950879
0.062675975 0.052603304 0.28635508 -0.68612587 -0.6086877 -0.39841008 0.0026851234
-0.052979596 0.062404089 0.28632373 0.58354926 -0.70067072 -0.4105249 0.0035355573
-0.049207762 0.067188159 0.28284493 0.54312241 -0.7309432 -0.4132072 0.0038964702
0.044371635 0.068217792 0.28778085 -0.51715112 -0.75422829 -0.40459153 0.0029181009
0.052574068 0.063869201 0.28419989 -0.58210272 -0.70853716 -0.39891306 0.0034231329
-0.043417264 0.071520984 0.28298673 0.49569306 -0.76700717 -0.40741667 0.0032512043
-0.034117628 0.07533031 0.28425428 0.37698203 -0.83686942 -0.39690563 0.0039508725
-0.029657852 0.075656027 0.28751594 0.33865538 -0.85509318 -0.39259163 0.0040227231
-0.013461418 0.079413146 0.28926951 0.13671416 -0.90650749 -0.39944148 0.0042759147
0.014721204 0.079602316 0.28845286 -0.16202506 -0.89697874 -0.41131136 0.0044127111
0.026923327 0.077378929 0.28625074 -0.2999115 -0.86189604 -0.40888658 0.0030561259
0.035529584 0.074756332 0.28423101 -0.39096388 -0.83165669 -0.39432782 0.0033909013
0.043110631 0.071141616 0.28400195 -0.46714959 -0.78013211 -0.41613108 0.0054529309
-0.021397326 0.081195369 0.28276628 0.22294731 -0.89471477 -0.38701409 0.0028927105
-0.014209083 0.081882879 0.28336173 0.14236446 -0.90644532 -0.39760444 0.0035932106
-0.0056354464 0.083247788 0.28281844 0.082543157 -0.91085118 -0.40439698 0.0036450548
0.0032002453 0.082313322 0.28570566 -0.043600511 -0.9155376 -0.39986241 0.0022653209
0.014918212 0.081277661 0.28453931 -0.16248342 -0.89757901 -0.40981829 0.0046742526
-0.00012656068 -0.080835342 0.29003686 0.0085360128 0.91899121 -0.3941856 0.0036346617
-0.035213269 -0.071584649 0.29131088 0.40955877 0.81965178 -0.40054044 0.0045273625
-0.025812127 -0.072862908 0.29691818 0.30211237 0.86505753 -0.4005042 0.0040289825
-0.01447576 -0.07742247 0.293542 0.15718339 0.90350252 -0.39871871 0.0039040977
-0.0057249749 -0.077673286 0.29561529 0.053657703 0.91499102 -0.39989039 0.003837174
0.0064317868 -0.078139417 0.29432896 -0.10690621 0.91053665 -0.399367 0.0036649243
0.014221603 -0.076609857 0.2954883 -0.15980224 0.90384859 -0.39688915 0.0047198818
0.023753142 -0.074419834 0.29537249 -0.26890084 0.87467372 -0.40328431 0.00465594
0.032913398 -0.071476482 0.29358494 -0.39055339 0.82921827 -0.3998313 0.0045753038
0.040117882 -0.070098601 0.29014164 -0.44289991 0.80184865 -0.4010964 0.00375222
-0.045196362 -0.063510619 0.29528078 0.55054635 0.7322706 -0.40084732 0.0045341472
-0.036667854 -0.068578027 0.29646438 0.419983 0.82267559 -0.38316992 0.0050820834
0.035000797 -0.068618611 0.29785767 -0.4292956 0.81660646 -0.38582262 0.0035919333
0.044707291 -0.063663766 0.29568985 -0.53340197 0.74046296 -0.40889737 0.0034707864
-0.056450188 -0.053553659 0.29622024 0.66457945 0.64884132 -0.37059283 0.0040732562
0.049505144 -0.057923064 0.29948038 -0.59129959 0.70447809 -0.39252442 0.0051417239
0.056297928 -0.054537289 0.2948693 -0.65860403 0.63417113 -0.40505281 0.0046233092
-0.065287225 -0.044142321 0.29349923 0.76751542 0.50880826 -0.38991565 0.0040326244
0.059187271 -0.048244167 0.29893446 -0.72014284 0.5762217 -0.38647491 0.0045471396
0.064053178 -0.04410943 0.29581761 -0.73885053 0.54342753 -0.39848006 0.0038864992
-0.070722647 -0.034228418 0.29403323 0.83089864 0.39269102 -0.39420947 0.0036631562
-0.06933251 -0.036967233 0.29458132 0.81657493 0.4189131 -0.39713615 0.003637867
0.067612253 -0.036744893 0.29846671 -0.80905205 0.45828721 -0.36797768 0.0061449204
0.070138842 -0.032671038 0.29666784 -0.83789188 0.37869686 -0.39309788 0.0052056997
-0.073096573 -0.023891067 0.29812294 0.86770838 0.28646147 -0.40622899 0.0037027234
0.074017182 -0.025327003 0.29487491 -0.86048096 0.31362706 -0.40151048 0.0033904258
-0.076732516 -0.014473379 0.29512954 0.90190297 0.17060389 -0.39681908 0.003575291
0.07613162 -0.015388583 0.29623502 -0.90111434 0.20377778 -0.3827107 0.0030716986
-0.078074038 -0.0063323947 0.29450908 0.91505247 0.082573436 -0.39479187 0.0031529553
0.078254484 -0.0064551048 0.29405716 -0.91390562 0.09767779 -0.39399946 0.0040994384
-0.076604143 0.0077301431 0.29746708 0.92075336 -0.070410848 -0.38373893 0.0040719425
0.077854641 0.0045424737 0.29555622 -0.91989136 -0.055615094 -0.38820985 0.0032003331
-0.076546535 0.014211165 0.29563674 0.90936017 -0.15153535 -0.38742891 0.0040382212
0.076883242 0.015204214 0.2945618 -0.90793669 -0.16842699 -0.38377491 0.0036877207
-0.073890261 0.024940092 0.29549 0.85690677 -0.31662121 -0.40676984 0.0046942807
0.074459821 0.025893627 0.29342279 -0.85638678 -0.32396215 -0.40205747 0.0038295744
-0.071984857 0.032341912 0.29300243 0.8416068 -0.37531829 -0.38837382 0.0045397272
-0.068739638 0.037183017 0.29566053 0.82013041 -0.41756475 -0.39118519 0.0037103044
0.067963168 0.037225805 0.29728729 -0.81175697 -0.44766805 -0.37502533 0.0043368456
0.07165008 0.03444916 0.29184932 -0.81878376 -0.42167258 -0.38959637 0.0033683777
-0.063519277 0.044503231 0.29624373 0.75012797 -0.54536611 -0.37401059 0.0048518446
-0.05910001 0.048656747 0.29851183 0.73066556 -0.57042783 -0.37515324 0.0046824301
0.059482459 0.047393672 0.2995922 -0.73116696 -0.57467431 -0.36761978 0.0051810821
0.063811392 0.044802777 0.29528317 -0.74671549 -0.53495944 -0.39526501 0.0044882777
-0.060796358 0.05063089 0.29260075 0.70996463 -0.59040445 -0.38389173 0.0037388667
-0.054412454 0.056131888 0.29497328 0.6447264 -0.659325 -0.38680553 0.0047227824
0.055913098 0.054746233 0.29501116 -0.66776538 -0.63323712 -0.39128006 0.0031622995
0.060989682 0.05042221 0.29253995 -0.70295614 -0.58697963 -0.40163112 0.0049820906
-0.044237226 0.064151481 0.29545566 0.54120559 -0.73810953 -0.40285334 0.0039546909
-0.03632636 0.068484783 0.29695567 0.40583143 -0.83201009 -0.37823284 0.0036569696
0.038111087 0.069527559 0.29314753 -0.43654293 -0.80348635 -0.40477142 0.0047753467
0.045162424 0.064014472 0.29440132 -0.5474472 -0.72792727 -0.41282362 0.0043359343
-0.030396001 0.072536334 0.29354796 0.35231951 -0.84993458 -0.39176792 0.0041187303
-0.02505891 0.072587222 0.29817772 0.29278013 -0.87462914 -0.38639843 0.0045526968
-0.014336561 0.076414019 0.29590359 0.1556441 -0.90525091 -0.39534244 0.0043700142
-0.0058392421 0.077066906 0.29697523 0.079863355 -0.92260349 -0.37739202 0.0046099727
0.0045431498 0.078098699 0.29499432 -0.032755017 -0.9200756 -0.39036909 0.0031410861
0.015178322 0.077883005 0.29226953 -0.16565773 -0.90781242 -0.38527146 0.0044870577
0.025047194 0.07410951 0.29486209 -0.28974703 -0.87451744 -0.38892925 0.0024371122
-0.021112174 -0.07116513 0.3047308 0.25894448 0.88840324 -0.37906125 0.0052795797
-0.012629929 -0.072240129 0.3060225 0.14292452 0.92395705 -0.35479006 0.0065481365
-0.0029040414 -0.074134596 0.30461007 0.053356782 0.93249822 -0.35721156 0.0051162955
0.0056485799 -0.073422238 0.30541751 -0.068832375 0.92761415 -0.36714315 0.0049042888
0.016128862 -0.072415397 0.3044998 -0.18962266 0.90715021 -0.37566188 0.0066618379
-0.041917801 -0.061942682 0.30279788 0.52809584 0.76683831 -0.36479282 0.0062222639
-0.035666481 -0.064698607 0.3051945 0.44975409 0.81592649 -0.36329764 0.0065396652
-0.026542844 -0.068517685 0.30558395 0.32704395 0.87259924 -0.36278474 0.0049906839
0.026680252 -0.067936182 0.30670866 -0.34622192 0.87095642 -0.34866226 0.0062175887
0.035532441 -0.065056473 0.30494544 -0.48139715 0.79203528 -0.37541556 0.0063824537
0.043557834 -0.060863003 0.30246902 -0.52678275 0.76609719 -0.36823243 0.005711501
-0.054378454 -0.051423829 0.302982 0.67045516 0.65551764 -0.3475436 0.004143429
-0.049986929 -0.056256302 0.30186784 0.60985106 0.70037895 -0.37087873 0.0060366024
0.047070995 -0.055168539 0.30798912 -0.62786853 0.69939101 -0.34151623 0.0077405628
0.052956685 -0.052013058 0.30505019 -0.68559802 0.63348615 -0.35867909 0.0059159128
-0.060863853 -0.041113943 0.30591923 0.77312088 0.50947064 -0.37778786 0.0075892112
-0.056979589 -0.04535611 0.30707735 0.74053228 0.57860398 -0.34180319 0.0080233682
0.05765589 -0.045336764 0.30586004 -0.74631667 0.57097602 -0.34204942 0.0067969612
-0.063264415 -0.036273308 0.30726507 0.81125325 0.45806769 -0.36337611 0.0055227228
0.066297576 -0.032555807 0.3049612 -0.83863491 0.42224419 -0.34409478 0.0073764925
-0.071883768 -0.020563874 0.30367699 0.88534427 0.26113746 -0.38467214 0.0063684131
-0.06847173 -0.024695907 0.30732226 0.8807503 0.29794815 -0.36811119 0.0061990889
0.067866102 -0.026725447 0.30681878 -0.86838651 0.34682158 -0.35442874 0.0063337996
0.071810327 -0.021084666 0.30337235 -0.89481741 0.24374433 -0.37401935 0.0053313919
-0.071530327 -0.014489568 0.30709171 0.9164232 0.17326291 -0.36076099 0.008944883
0.072538003 -0.013843922 0.30496958 -0.90993005 0.17949596 -0.37390968 0.0051225969
-0.073717147 -0.0028121809 0.30559778 0.92925286 0.0081282957 -0.36935487 0.0056310026
0.073649012 -0.0050600041 0.30507413 -0.93043733 0.077546284 -0.35815191 0.0065669827
-0.073672988 0.0034163184 0.30551645 0.92911798 -0.0082324492 -0.36969164 0.0064048241
0.074168406 0.0048880838 0.30393139 -0.93198007 -0.058421958 -0.35777083 0.0042813974
-0.073157094 0.014722885 0.30327883 0.90635169 -0.18775438 -0.3785167 0.0060820067
0.072370872 0.015703466 0.30479082 -0.90307063 -0.19944848 -0.38037321 0.0059912959
-0.071286358 0.023049198 0.30275068 0.87201047 -0.29937115 -0.38726559 0.0059156199
-0.068284832 0.027556567 0.30518273 0.8657738 -0.34581918 -0.36172488 0.0052762819
0.068308949 0.027725369 0.30498147 -0.8634758 -0.3476727 -0.3654221 0.0054818522
0.071549132 0.024282936 0.3010923 -0.87103558 -0.30542353 -0.38472536 0.0063072788
-0.064949043 0.035645243 0.30478886 0.81420642 -0.45078048 -0.36587539 0.0064143953
0.065420434 0.035033889 0.30419821 -0.80623287 -0.46790326 -0.36201534 0.0051350356
-0.060996085 0.041788224 0.30472326 0.75697935 -0.54405445 -0.36192134 0.0070980601
-0.056472361 0.046422523 0.30650461 0.72422534 -0.59391212 -0.35037979 0.0072481367
0.056309599 0.046863873 0.30618104 -0.71205837 -0.60346115 -0.35889766 0.0067189513
0.061204605 0.042227253 0.30371961 -0.77198559 -0.52375799 -0.36016071 0.0070225918
-0.051568657 0.052935731 0.30567306 0.6487363 -0.67108989 -0.3588587 0.005073003
-0.047329303 0.05846031 0.30156437 0.57964361 -0.73203719 -0.35795921 0.005903265
0.046826109 0.056504101 0.30587626 -0.60402316 -0.70578623 -0.37016481 0.0070257862
0.052849337 0.053443197 0.3029438 -0.66955781 -0.65583163 -0.34867907 0.0039775171
-0.042123303 0.062397186 0.30167085 0.53364635 -0.76577097 -0.35890999 0.0066761319
-0.033800483 0.065274566 0.30586395 0.42121622 -0.83615255 -0.35132 0.0067396979
-0.025159536 0.068142943 0.30761525 0.30390418 -0.88612372 -0.34989583 0.0074780965
0.024768105 0.067814425 0.30866718 -0.31605503 -0.88528311 -0.34114975 0.0066035707
0.035005704 0.065759733 0.30384722 -0.45815128 -0.81382006 -0.35748342 0.0063351011
0.041175533 0.062949806 0.30199254 -0.54145294 -0.76137471 -0.35656324 0.006076477
-0.021074198 0.071464367 0.30412275 0.26697028 -0.894759 -0.35795692 0.0063109985
-0.015498913 0.071623571 0.30651245 0.2006727 -0.91156083 -0.35886946 0.0061852145
-0.0069218613 0.073139399 0.30568218 0.08976125 -0.92674506 -0.36481041 0.0066992259
0.0035316939 0.07433866 0.30395016 -0.014404974 -0.93421561 -0.35641789 0.0056840451
0.012619153 0.072450906 0.30554053 -0.13752557 -0.92151821 -0.36316788 0.0063140923
0.02211828 0.071707562 0.30267453 -0.25953785 -0.89533627 -0.36195737 0.006352019
-0.012760733 -0.070442624 0.31011784 0.17685074 0.92291164 -0.34199107 0.0072622602
-0.0034187348 -0.070494607 0.3132683 0.065480374 0.93964612 -0.33582354 0.0086287428
0.0039149169 -0.0710124 0.31148621 -0.080743693 0.93990874 -0.33174095 0.0067952429
-0.030672658 -0.063382782 0.31394684 0.40686512 0.85998702 -0.30803108 0.0076212492
-0.025537936 -0.065312698 0.31413454 0.33487245 0.8898946 -0.30975473 0.007803543
-0.015822988 -0.068247318 0.31495658 0.20670706 0.92792326 -0.31021068 0.0074513815
-0.0070406916 -0.068855867 0.31762925 0.11133279 0.95005256 -0.29155636 0.005773718
0.0035362088 -0.069347396 0.3175019 -0.042338684 0.95558733 -0.29165092 0.010689453
0.01377773 -0.068605788 0.31505972 -0.1435774 0.94083285 -0.30695134 0.0073648482
0.025373882 -0.065457039 0.31379774 -0.34238034 0.88804364 -0.30684561 0.0087202573
0.032344524 -0.062308732 0.3148841 -0.42350909 0.85330462 -0.3041566 0.0099271415
-0.043452676 -0.054832939 0.31486303 0.61552781 0.7361868 -0.28134426 0.0075091822
-0.038635507 -0.05759142 0.31752533 0.53661007 0.79340416 -0.28733161 0.0085068624
0.045405347 -0.052951902 0.31567076 -0.63058269 0.71319294 -0.30613935 0.0072878553
-0.055275738 -0.042060714 0.31646866 0.76110929 0.57085097 -0.30796412 0.0077516139
-0.048986103 -0.04930995 0.31830317 0.65365362 0.70513105 -0.27482221 0.0082041807
0.054493576 -0.044230599 0.31403962 -0.72698843 0.61562377 -0.30413011 0.0063728802
-0.061842021 -0.034706291 0.31263238 0.806979 0.48691097 -0.33421943 0.006621765
-0.05920862 -0.037486129 0.31523252 0.80201018 0.50806355 -0.31408772 0.007760311
0.059915613 -0.03664301 0.31483737 -0.81231087 0.49307451 -0.31149399 0.0064109843
0.062445901 -0.033462409 0.31216684 -0.83669376 0.4413358 -0.32429358 0.0089282962
-0.065948009 -0.024295244 0.31372255 0.90220833 0.30446064 -0.30548957 0.0067008859
0.064435273 -0.026481599 0.31589925 -0.88354135 0.35755557 -0.30250385 0.0064892154
-0.068720788 -0.015574758 0.31350309 0.92400146 0.21414991 -0.31679803 0.0094214454
0.068691537 -0.014086598 0.31469628 -0.92756939 0.19980939 -0.31573918 0.0054373755
-0.071036689 -0.0054782694 0.31095648 0.94458789 0.029271496 -0.32695103 0.0071832337
-0.06957975 -0.0037945763 0.31637609 0.9563781 0.033003062 -0.29026163 0.0067352853
0.069215842 -0.005211147 0.31712618 -0.94842911 0.12110192 -0.29294455 0.0075256489
0.070490688 -0.0024041438 0.31344506 -0.94767475 0.032926772 -0.31753501 0.0070828712
-0.0705688 0.0022925655 0.31335083 0.94956994 -0.022356225 -0.3127571 0.006384613
-0.069013499 0.0068328618 0.31707832 0.94624668 -0.11016907 -0.3041051 0.0065255235
0.069327794 0.004662998 0.31695804 -0.95468426 -0.089074567 -0.28397828 0.0058668735
0.070624791 0.0035435613 0.31290329 -0.94528902 -0.062330715 -0.32022411 0.005319403
-0.07003431 0.011894302 0.31131914 0.92919707 -0.16700418 -0.32970065 0.0082647149
-0.068835966 0.011983666 0.31496355 0.93479127 -0.16114438 -0.31654051 0.008517012
0.068277605 0.016055867 0.31534579 -0.9190076 -0.22851127 -0.3212595 0.0056229206
-0.066048175 0.022681663 0.31558797 0.91420442 -0.28221676 -0.29083309 0.0083933147
0.06450963 0.025323341 0.31728017 -0.89485943 -0.33154854 -0.29883438 0.0072426586
-0.06141958 0.033202074 0.31669199 0.84999865 -0.43568122 -0.29611501 0.0080858273
-0.057756461 0.038182333 0.31814241 0.799299 -0.52139091 -0.29878509 0.0090261847
0.059396394 0.036947403 0.31608006 -0.8135789 -0.49314272 -0.30805799 0.0055066687
0.060567454 0.035474464 0.3156645 -0.8135758 -0.49314877 -0.30805624 0.0055075465
-0.054822359 0.043596767 0.31456295 0.74439996 -0.59683526 -0.29942676 0.0067572501
0.053186774 0.046163499 0.31347978 -0.69789296 -0.63026285 -0.34016803 0.0071291276
-0.044741057 0.053734105 0.31485212 0.63055009 -0.71401721 -0.30427948 0.0065683424
-0.038695548 0.057761092 0.31679562 0.53740263 -0.79254305 -0.28822553 0.0077966605
0.045476895 0.053397864 0.31450042 -0.61926597 -0.71396607 -0.32674482 0.0063530141
-0.03354856 0.061917014 0.31403428 0.45936024 -0.83119845 -0.31320509 0.0095203547
-0.027473265 0.064962454 0.31278548 0.36059409 -0.87509757 -0.32276335 0.0069218772
-0.015997194 0.068451509 0.3144545 0.22870094 -0.92007339 -0.31805789 0.0059558409
-0.0048343013 0.069357023 0.31673867 0.099098295 -0.94699037 -0.30559576 0.0090038339
0.007458413 0.06876716 0.31777108 -0.10817102 -0.94888747 -0.29649904 0.0065508592
0.015728004 0.06797234 0.31620249 -0.19546309 -0.93647659 -0.29121435 0.0067667039
0.022850573 0.065922573 0.31612781 -0.29195765 -0.90328246 -0.31439063 0.0087763853
0.03335451 0.061908811 0.31450194 -0.46349639 -0.8222605 -0.33024037 0.0083348304
-0.011078878 0.070440955 0.31063068 0.15406623 -0.92947417 -0.33517361 0.0070537911
-0.0032873338 0.070794433 0.31237766 0.034644369 -0.94581121 -0.32286364 0.0083897524
0.0033214078 0.070643708 0.31296015 -0.031046022 -0.94597268 -0.32275656 0.0062592477
-0.03146784 -0.060050812 0.32471871 0.43007585 0.85683417 -0.28437638 0.0080086635
-0.023886459 -0.062883124 0.3259311 0.33570167 0.90246159 -0.26993978 0.0090223607
-0.013471752 -0.066459626 0.32417527 0.17836963 0.94892246 -0.26025072 0.0077224402
-0.0026472155 -0.067559488 0.3255493 0.061949875 0.96380073 -0.25932688 0.0077358535
0.0044503673 -0.0674164 0.32515094 -0.046769906 0.9657135 -0.25536248 0.006985208
0.016401185 -0.065803237 0.3248207 -0.20369357 0.94363976 -0.2608695 0.0054458263
0.025051339 -0.062740788 0.32459211 -0.35503203 0.8967573 -0.26415616 0.007321958
-0.041989189 -0.052547928 0.32587528 0.61571914 0.74363023 -0.26058406 0.0054496843
-0.034439482 -0.058268789 0.32547617 0.49706492 0.82790691 -0.25980121 0.006401347
0.036194868 -0.056812219 0.32648021 -0.5263496 0.8087092 -0.262575 0.0064795846
0.045802444 -0.05054608 0.32275182 -0.64362925 0.71289396 -0.27843073 0.0070909918
-0.052542049 -0.042855036 0.32364929 0.74590337 0.60530448 -0.27791116 0.0065524508
-0.047998596 -0.048066366 0.32436633 0.67006189 0.68883461 -0.27662984 0.0071452484
0.0480351 -0.048530471 0.32353488 -0.68638343 0.67341101 -0.27458236 0.0093156779
0.05186417 -0.042245738 0.32752174 -0.74010986 0.62327707 -0.25251368 0.005942422
-0.056371875 -0.036962006 0.3258546 0.80638307 0.53152752 -0.25927743 0.0068136794
0.057903312 -0.034523129 0.32598367 -0.8318634 0.48877755 -0.26286831 0.0054389364
0.061219413 -0.03061345 0.32151175 -0.85618228 0.42395577 -0.29531914 0.0074498383
-0.063077569 -0.025926743 0.32183832 0.88308948 0.39167553 -0.25834709 0.0066939965
0.062498342 -0.025079064 0.32550126 -0.8976202 0.33901221 -0.28168896 0.0070385081
-0.065871224 -0.014584874 0.32582644 0.94373327 0.21870942 -0.24805988 0.0062915618
0.066244163 -0.014455175 0.32426828 -0.93690884 0.20531048 -0.28292996 0.0055837068
-0.067224666 -0.0052307672 0.32552624 0.96487558 0.034642603 -0.26041299 0.0068191225
0.067833222 -0.0064251018 0.32229185 -0.95405775 0.12273262 -0.27333233 0.0063493955
-0.067877702 0.0049856082 0.32290384 0.9546501 -0.11090991 -0.27630103 0.0055782609
0.067717187 0.0042740582 0.32397828 -0.96519721 -0.054271284 -0.25582981 0.0086601106
-0.065212026 0.016177934 0.32728237 0.93627363 -0.24821368 -0.24855906 0.0058548492
0.066100515 0.012259185 0.32636657 -0.95421696 -0.16918582 -0.24667013 0.0069232709
-0.063402362 0.023754226 0.32410187 0.90751922 -0.33687228 -0.25085044 0.0082729971
0.062998332 0.024761258 0.32405099 -0.88285923 -0.38158342 -0.27377671 0.0064151883
-0.061605249 0.030036787 0.32093233 0.85032874 -0.43905327 -0.29012632 0.0076609501
-0.057571929 0.035122819 0.32584476 0.83089882 -0.49819788 -0.24780244 0.0049485485
0.058153331 0.034209102 0.3261897 -0.8298744 -0.49083897 -0.2653029 0.0049987189
0.06067656 0.031257272 0.3225987 -0.85785687 -0.42893699 -0.28300989 0.0089930221
-0.051985066 0.043627504 0.32352802 0.72208107 -0.63426709 -0.27623191 0.0080291172
-0.047628731 0.048120659 0.325941 0.67401922 -0.68462628 -0.27746168 0.0081782639
0.045973815 0.049264409 0.32663929 -0.66612083 -0.69374365 -0.27386621 0.0073711295
0.051648408 0.043461945 0.32509604 -0.72178942 -0.63426602 -0.27699569 0.0066164318
-0.044716276 0.05172053 0.3215982 0.63164884 -0.72341436 -0.27873188 0.0066140215
-0.03637943 0.056850605 0.32588106 0.54448992 -0.79973614 -0.25288889 0.0080502145
0.035764921 0.057555653 0.32505411 -0.5075599 -0.82196373 -0.25837687 0.0048205005
0.042863227 0.051759519 0.3262732 -0.62602055 -0.73783922 -0.25237173 0.006543213
-0.030215515 0.06048179 0.32506344 0.41468939 -0.86263335 -0.28964877 0.0070697758
-0.028927905 0.061395198 0.3235673 0.39268696 -0.8736493 -0.28728688 0.008122284
-0.012869699 0.066242337 0.32542744 0.19728994 -0.9463616 -0.25588343 0.007075238
-0.0029104296 0.067608915 0.32519346 0.04409419 -0.9628889 -0.26627186 0.0092025958
0.0047944109 0.068049021 0.3222864 -0.099962421 -0.95432383 -0.28155577 0.0054644714
0.014820735 0.065282442 0.3275674 -0.18310866 -0.9497236 -0.25396127 0.0064447387
0.025362534 0.062631831 0.3245132 -0.34474796 -0.9024266 -0.25840887 0.0065597389
0.030301407 0.060958967 0.32304546 -0.44636098 -0.8580786 -0.25389558 0.0080149826
-0.022087842 -0.061087608 0.33593208 0.3280246 0.91313803 -0.24203067 0.0071742744
-0.013129455 -0.064297259 0.33350047 0.20176588 0.94889724 -0.24266134 0.0054828199
-0.0058059986 -0.064608529 0.33625862 0.078220375 0.97199482 -0.22160263 0.006772263
0.0034140663 -0.065126717 0.3353999 -0.033362959 0.97056788 -0.23850551 0.0082489382
0.013000037 -0.063804843 0.3356528 -0.20176528 0.95453936 -0.21942055 0.0055488185
0.02264359 -0.061262835 0.3343361 -0.32154742 0.91234607 -0.25344035 0.0077877264
-0.036205109 -0.054005906 0.33545235 0.56116331 0.80034012 -0.21107219 0.0064929784
-0.02716512 -0.058898181 0.33627191 0.39214543 0.89428294 -0.21559216 0.0054923072
0.028016955 -0.059092261 0.33411899 -0.43755585 0.87160474 -0.22102058 0.0083252983
0.033874996 -0.055923413 0.33446807 -0.53385592 0.81235743 -0.23467705 0.0070326631
-0.051083732 -0.040517401 0.33464241 0.75580978 0.60894281 -0.24070758 0.006777714
-0.044338495 -0.047225978 0.33726636 0.65621233 0.72355437 -0.21413675 0.007574759
0.04396531 -0.047555983 0.3368223 -0.66908723 0.71338791 -0.20832647 0.0063641728
0.050769188 -0.041279647 0.33372909 -0.73094571 0.64222425 -0.2307951 0.0058494695
-0.053815007 -0.036601931 0.33529007 0.80431288 0.54123813 -0.2452389 0.0056858282
0.054296356 -0.035380784 0.3369565 -0.80547631 0.55158758 -0.21670039 0.008005945
-0.061468475 -0.022360094 0.33398822 0.9045909 0.34557331 -0.24958839 0.0057408586
-0.059100516 -0.026914686 0.33588317 0.87891096 0.41880137 -0.22830003 0.0047171498
0.058246359 -0.027885959 0.33766255 -0.88352686 0.41562524 -0.21595353 0.0058293883
0.061437532 -0.023616189 0.33206245 -0.91506326 0.32609224 -0.23732492 0.0069454568
-0.063390762 -0.014962238 0.33564219 0.94870633 0.22730775 -0.21974395 0.0074099437
0.064290293 -0.012651531 0.33379579 -0.95370567 0.17557639 -0.24416901 0.0063959206
-0.06488286 -0.0055398499 0.33524716 0.97312808 0.041274913 -0.22653504 0.0057383864
0.064755104 -0.004773811 0.33621353 -0.97124797 0.068315186 -0.22805798 0.0068396544
-0.065283686 0.0028020793 0.33507648 0.97114307 -0.034711778 -0.23595802 0.005839136
0.06498041 0.0045311586 0.33539656 -0.96853477 -0.088573746 -0.23258349 0.0063536973
-0.063625082 0.013762854 0.33574113 0.94913328 -0.21384554 -0.23111907 0.007777615
0.06331449 0.015560762 0.33545226 -0.94678348 -0.23779367 -0.21692213 0.0071864477
-0.061474655 0.022960113 0.33298522 0.91114497 -0.34500304 -0.22536118 0.0079488074
-0.058598794 0.02758247 0.3367691 0.88251203 -0.41534898 -0.22058485 0.0068328879
0.058547113 0.027725475 0.33674002 -0.88722378 -0.40619346 -0.21872526 0.0056281546
0.060732335 0.023511438 0.33500904 -0.91113716 -0.34365708 -0.22743979 0.0074204048
-0.054246295 0.03627187 0.3349635 0.79815251 -0.55403537 -0.2366377 0.006296902
0.055344976 0.034542784 0.33498353 -0.82977396 -0.51648873 -0.21145812 0.006215401
-0.050949231 0.04078706 0.33439726 0.76987213 -0.59389031 -0.23364772 0.0082715182
-0.047367495 0.044648752 0.33590066 0.71454698 -0.66971052 -0.20226298 0.0074951481
0.047444604 0.044790953 0.33481997 -0.69781071 -0.68147737 -0.2205648 0.0075488524
0.050839227 0.041434351 0.33309063 -0.75345939 -0.61112779 -0.24253201 0.0075087165
-0.04144787 0.051266853 0.33160952 0.63649678 -0.73499131 -0.23379396 0.0047124969
-0.035520807 0.054733496 0.33476543 0.53604984 -0.80933994 -0.24004067 0.0069191656
-0.027301582 0.058902007 0.33603355 0.42692271 -0.87195677 -0.2396422 0.006218811
0.02722696 0.059879035 0.33230972 -0.42337558 -0.87685776 -0.22775793 0.0074078254
0.035332993 0.054668825 0.33557552 -0.53871822 -0.81116819 -0.22757167 0.0064709331
-0.024629109 0.061146516 0.33155558 0.37251252 -0.89379889 -0.24971601 0.0063188709
-0.013606225 0.063776791 0.33492419 0.19509716 -0.95244569 -0.23406042 0.0058029979
-0.0064366916 0.064739004 0.33535606 0.09934251 -0.96960491 -0.22360106 0.0057433406
0.0041879569 0.064367726 0.33817512 -0.070326962 -0.97445142 -0.21330415 0.005671625
0.013692407 0.063775577 0.33503547 -0.18086977 -0.95857161 -0.22006029 0.0057304297
0.024006713 0.061284747 0.33202684 -0.36244297 -0.90681779 -0.21521282 0.0069347168
-0.020519586 -0.060314409 0.34153301 0.32782662 0.91785538 -0.22376573 0.0067951917
-0.016082676 -0.061095178 0.34478495 0.25742087 0.94563502 -0.19876859 0.0064218743
-0.0025430568 -0.063368358 0.34331232 0.037799008 0.97539198 -0.2172136 0.008033039
0.003040561 -0.062556386 0.34646583 -0.05088586 0.98118877 -0.18622357 0.0089431312
0.010221124 -0.062305335 0.34353289 -0.16900991 0.95923656 -0.2264968 0.007308966
-0.03571748 -0.051686265 0.34505489 0.56301194 0.80133355 -0.20219323 0.0057991748
-0.024351878 -0.058133848 0.34386796 0.32897121 0.92365998 -0.19654597 0.0075018778
0.018553482 -0.059137542 0.34937182 -0.28855783 0.93834639 -0.19036891 0.0083886366
0.027822426 -0.057073016 0.34238499 -0.44445962 0.86913323 -0.21694046 0.0083258357
0.035618909 -0.052648894 0.34174675 -0.55013508 0.80742311 -0.21311806 0.0067518284
-0.044908818 -0.044434767 0.34367746 0.69111162 0.68957466 -0.21645167 0.010399958
-0.039438918 -0.049380526 0.34319735 0.58621192 0.78333008 -0.20675956 0.00528285
0.038442709 -0.048964053 0.34718961 -0.59494901 0.77689672 -0.20607556 0.0052365609
0.044085607 -0.044595558 0.34590307 -0.66814744 0.7171396 -0.19821669 0.0081586661
-0.053681329 -0.032986224 0.34507519 0.8261379 0.52566642 -0.20290616 0.0086854799
-0.048474338 -0.039403025 0.34635365 0.79314721 0.57467824 -0.20164926 0.0067843078
0.049398813 -0.038511407 0.34554181 -0.75079244 0.6307863 -0.1960085 0.0064066839
0.052140586 -0.035103709 0.34492365 -0.80395919 0.56003439 -0.20002784 0.0082836375
-0.058373298 -0.023709541 0.34397218 0.91639668 0.3571057 -0.18081108 0.008644307
0.058344945 -0.023892742 0.34378567 -0.90142483 0.37270674 -0.22027941 0.007698704
-0.061639693 -0.013726713 0.3440325 0.95750409 0.2164948 -0.19056728 0.010611406
-0.059390105 -0.019373238 0.34704024 0.92165107 0.33881488 -0.18911277 0.0084115462
0.062496126 -0.01025054 0.34271049 -0.96080089 0.16155459 -0.22530381 0.0085493131
-0.06261199 -0.00506968 0.34510171 0.97803694 0.05774894 -0.20027164 0.0091982745
0.063132636 -0.0029984934 0.34405488 -0.97361708 0.054282486 -0.22163753 0.006357837
-0.063265309 0.0035594804 0.34318173 0.97437656 -0.040189661 -0.22130343 0.0066950251
0.06236469 0.0054519093 0.34593442 -0.97616118 -0.073007159 -0.20440008 0.0071743773
-0.061196759 0.013947491 0.34614274 0.95134324 -0.23144589 -0.20341775 0.0083202971
-0.059200715 0.01837139 0.34941915 0.93888992 -0.29090357 -0.18401287 0.0094143488
0.059732646 0.018738307 0.34672749 -0.93116134 -0.29574195 -0.2132493 0.0096941162
0.061187968 0.012754393 0.34684405 -0.96139067 -0.21049729 -0.17725381 0.0099362126
-0.060018215 0.020575918 0.34260628 0.92128587 -0.31941196 -0.22182934 0.0078829024
-0.058301535 0.024396082 0.34313497 0.90493923 -0.36348948 -0.22126989 0.0065218434
0.056791775 0.026418816 0.34578061 -0.88220435 -0.427623 -0.19711423 0.0072997632
-0.052913893 0.034425404 0.34425688 0.80770105 -0.54461801 -0.22585453 0.0069573047
-0.048732787 0.038719039 0.34725371 0.78007805 -0.59560245 -0.19166636 0.0090076188
0.049042463 0.039142262 0.34510967 -0.79854453 -0.56875849 -0.19707966 0.0079119327
0.051478621 0.036371086 0.34406245 -0.79718298 -0.56377375 -0.21600571 0.007651215
-0.046432406 0.043401849 0.34288347 0.72429138 -0.65389889 -0.21867383 0.0074750702
-0.039218981 0.048486914 0.34678814 0.59575069 -0.77549517 -0.20901775 0.0092531629
0.03871182 0.049695835 0.3440173 -0.60988468 -0.76670188 -0.20052142 0.0076008835
0.044975061 0.043856781 0.34513125 -0.71648645 -0.66993761 -0.19450141 0.0082317321
-0.034336332 0.052562408 0.34567606 0.54063845 -0.81272733 -0.21721973 0.0091548134
-0.02766845 0.05601421 0.34680328 0.44661283 -0.87045163 -0.20700464 0.0076815458
0.019046694 0.059405074 0.34751391 -0.25000882 -0.94693726 -0.20200364 0.0068190312
0.024920017 0.057564735 0.34518149 -0.38698679 -0.89801711 -0.2093001 0.0065965098
0.033519402 0.053631455 0.34418163 -0.52489501 -0.82967591 -0.19006065 0.0060791438
-0.013311744 0.061283439 0.34613019 0.21531349 -0.95827347 -0.18802159 0.010170053
-0.0073338882 0.06217251 0.34569907 0.11781761 -0.97478014 -0.18953271 0.0097310506
0.004389524 0.062746249 0.34491286 -0.083710387 -0.97812283 -0.19044226 0.0049411128
0.014723347 0.061132051 0.34463513 -0.21793032 -0.94942248 -0.22606026 0.0072968476
-0.0037097433 -0.060852565 0.35415086 0.05510525 0.9812783 -0.18454336 0.0084992023
0.0037995311 -0.060949549 0.35340434 -0.023357229 0.98242331 -0.18519945 0.0097672092
-0.032671925 -0.05152373 0.35470182 0.54855347 0.8235237 -0.1445609 0.0075504803
-0.024931142 -0.054872926 0.35795677 0.41191533 0.900823 -0.13727257 0.01271454
-0.015910447 -0.05840756 0.35692585 0.2700882 0.95264691 -0.13970038 0.0080540627
-0.0072020115 -0.059787534 0.35809749 0.12484806 0.9803583 -0.15267782 0.011096708
0.017508434 -0.058393147 0.35431427 -0.27547505 0.94392866 -0.18196768 0.0068033906
0.024219545 -0.055774335 0.35439065 -0.38001618 0.90960824 -0.16793033 0.011052812
0.03277931 -0.051790133 0.3528991 -0.55365694 0.81645107 -0.16392584 0.0071504908
-0.044757299 -0.040623304 0.3579461 0.74999249 0.64791101 -0.13312644 0.010438773
-0.036635697 -0.048621766 0.35398901 0.59986317 0.78416169 -0.15891699 0.0080487691
0.037004851 -0.047989126 0.35559532 -0.63660735 0.75600487 -0.15227546 0.0090617901
0.043889154 -0.042169888 0.35654831 -0.7084769 0.69179344 -0.1395794 0.0075783473
-0.047763668 -0.0375457 0.35456833 0.77135271 0.61365038 -0.16866593 0.01002402
0.047383286 -0.03778246 0.35555559 -0.75719231 0.62517542 -0.18924947 0.010265416
0.050550006 -0.034799881 0.35127732 -0.79821163 0.57338083 -0.18464178 0.0086662257
-0.054974042 -0.02584075 0.35505515 0.88606018 0.43600971 -0.1574575 0.0085886763
0.054815013 -0.025202867 0.35761374 -0.88860023 0.44130296 -0.12506522 0.0083372034
-0.058382913 -0.016500564 0.35638258 0.94888848 0.27636993 -0.15241501 0.010928775
0.058670186 -0.015427582 0.35566074 -0.95915073 0.24707966 -0.13777353 0.010976715
-0.060497683 -0.0042723143 0.35590813 0.98683524 0.056350086 -0.15159442 0.0068585682
-0.05948475 -0.0087777805 0.35873982 0.98390609 0.10378331 -0.14545743 0.0083351741
0.060581047 -0.0055886153 0.35429135 -0.98182589 0.0915576 -0.16623813 0.0068173595
-0.061052639 0.0040290295 0.35253 0.9820739 -0.07328102 -0.17366837 0.0090507809
0.060830276 0.0063756495 0.35228422 -0.97008044 -0.14146726 -0.19730952 0.0079240082
-0.060223006 0.010675714 0.3520759 0.96643662 -0.17153712 -0.19124667 0.010988626
-0.058813989 0.015272992 0.35583296 0.9500829 -0.26596603 -0.16310906 0.0093147559
0.058561936 0.016909286 0.35516235 -0.94493341 -0.29460058 -0.14251767 0.008229766
0.060276166 0.013107616 0.35049951 -0.95113957 -0.24255061 -0.19105679 0.01086715
-0.055062722 0.025917308 0.35419527 0.86819541 -0.45704168 -0.19326043 0.0085904291
0.055317909 0.025229236 0.35452458 -0.8941927 -0.41048419 -0.17866789 0.0050727408
-0.052487157 0.031997927 0.35204554 0.83328241 -0.51695263 -0.19595996 0.011523513
-0.047505621 0.037619621 0.35555142 0.78504068 -0.59751606 -0.16335753 0.011704559
0.04724025 0.038014811 0.3553479 -0.76626265 -0.61689383 -0.17967595 0.010477667
0.051568191 0.032238435 0.35611677 -0.8365531 -0.52154982 -0.16782334 0.01113327
-0.043114189 0.042880371 0.3557874 0.70956314 -0.68654704 -0.1586605 0.0061035613
-0.036379859 0.048529938 0.35536134 0.59036231 -0.79109186 -0.16014397 0.010295494
0.035853818 0.048602384 0.3569459 -0.56317741 -0.81264526 -0.14979653 0.0085191261
0.042976968 0.043059468 0.35598978 -0.70488232 -0.69415325 -0.14591889 0.007325355
-0.031880632 0.052237738 0.35390478 0.49898827 -0.85008645 -0.16841547 0.011837492
-0.02465035 0.055330761 0.35594136 0.40470102 -0.90276432 -0.14571784 0.0094220284
-0.01498232 0.058881704 0.35600635 0.25035849 -0.95685363 -0.14748488 0.0094964793
-0.0071851467 0.059901059 0.35734594 0.11371103 -0.98607385 -0.12135977 0.010427319
0.0076802755 0.059700556 0.35825884 -0.13180506 -0.98119467 -0.14101174 0.010270619
0.016351258 0.058626898 0.3549833 -0.26063004 -0.94497174 -0.19773804 0.0074729691
0.024285574 0.055599999 0.35525945 -0.39574823 -0.8972646 -0.19570296 0.0084363148
0.032093879 0.052270342 0.35304067 -0.5108853 -0.83548594 -0.20238452 0.010348357
-0.013672855 0.060175356 0.35061041 0.23846176 -0.95334929 -0.18509793 0.010199666
-0.0063609933 0.060631197 0.35317993 0.11476547 -0.97615576 -0.18425235 0.010240403
0.005114825 0.06052136 0.35500029 -0.12600777 -0.97729075 -0.17036699 0.0085806791
0.011483578 0.060174011 0.35202444 -0.17488489 -0.96725416 -0.18394215 0.0095628351
-9.6002928e-05 -0.060184792 0.36172822 0.014530738 0.9943378 -0.10526764 0.014216018
-0.031794466 -0.050416309 0.36396793 0.50572115 0.86020315 -0.065549128 0.015118374
-0.02571105 -0.053228196 0.36630121 0.4509151 0.89251661 -0.0094705448 0.023192892
-0.017917952 -0.056350082 0.36716193 0.33187303 0.94328845 -0.0082001258 0.025085649
-0.005076047 -0.058769196 0.36699212 0.089916214 0.99580717 -0.016823743 0.023441682
0.004511795 -0.059152242 0.36488885 -0.11079955 0.99376529 -0.012415629 0.019368207
0.018463004 -0.056535233 0.36445338 -0.30551156 0.9517386 -0.029263558 0.015035866
0.024027115 -0.054049078 0.36547941 -0.38592094 0.92213964 -0.026897626 0.017225172
0.032202013 -0.050560411 0.36150235 -0.5546279 0.82457256 -0.11166029 0.012795412
-0.041269846 -0.042773135 0.36597809 0.6949535 0.71763402 -0.045177508 0.019621786
-0.035523053 -0.047506679 0.3643043 0.60046619 0.79763848 -0.056686006 0.017051838
0.034124997 -0.048640717 0.36405429 -0.59288299 0.80420887 -0.041686565 0.011726936
0.041939333 -0.042390645 0.36394334 -0.68160743 0.72749895 -0.078463547 0.012742843
-0.047046255 -0.036100674 0.36432236 0.76689947 0.63744766 -0.074335985 0.014731498
0.046805203 -0.037066326 0.36162493 -0.77356815 0.61956418 -0.13316385 0.0097913127
0.050983436 -0.030659478 0.36574176 -0.85179961 0.52116889 -0.053107083 0.019814443
-0.054652233 -0.02243574 0.36584067 0.92549384 0.37853172 -0.013228028 0.020490069
0.053650282 -0.025106244 0.36517739 -0.87151808 0.48971248 -0.025257293 0.018315952
-0.057534225 -0.016377967 0.36349794 0.96036816 0.27254933 -0.058393899 0.019588258
