# .PCD v0.7 - Point Cloud Data file format
VERSION 0.7
FIELDS x y z normal_x normal_y normal_z curvature
SIZE 4 4 4 4 4 4 4
TYPE F F F F F F F
COUNT 1 1 1 1 1 1 1
WIDTH 558
HEIGHT 1
VIEWPOINT 0 0 0 1 0 0 0
POINTS 558
DATA ascii
0.054992195 -0.1036659 -0.1449998 -0.48448217 0.8748011 0.000171291 0.0024122396
-0.072960213 -0.0912752 -0.14311603 0.64107466 0.76746529 -0.0045174188 0.0017373468
-0.066429801 -0.09628614 -0.14539561 0.5597254 0.82867819 -4.277084e-05 0.0016800001
0.064201713 -0.097995818 -0.14606488 -0.54665774 0.83734441 0.0044310014 0.0021370987
0.072603174 -0.091549158 -0.14581436 -0.64029205 0.76812816 -0.002286931 0.001836624
-0.082227156 -0.084044814 -0.14814271 0.70915562 0.70505184 -0.00045315613 0.0021926523
-0.077721335 -0.08762186 -0.14533785 0.66462302 0.74717247 0.0030860924 0.0023309442
0.077787809 -0.087570861 -0.14584561 -0.67323989 0.73941743 -0.003136585 0.0022476385
0.084234588 -0.082135722 -0.14832532 -0.71963143 0.69433975 -0.0047934856 0.0020828557
-0.092793696 -0.070981212 -0.14371003 0.78972816 0.61344194 -0.0042766626 0.0019825969
-0.089247361 -0.075602919 -0.14851764 0.76530284 0.6436699 -0.00078846124 0.0019397547
0.087132618 -0.078358911 -0.14769015 -0.74359417 0.66863078 -0.00083670748 0.0017952807
0.092397116 -0.071498059 -0.14285623 -0.77623439 0.63044435 -0.00022256948 0.0018114705
-0.10017879 -0.061356746 -0.14316511 0.8497327 0.52709311 0.011280888 0.0022439866
-0.098064624 -0.064111985 -0.1462923 0.83300185 0.55326372 0.0026831825 0.0014740975
0.095933422 -0.066889428 -0.14410219 -0.82071656 0.57130313 0.0060857087 0.0018821665
0.10103245 -0.06024421 -0.14038698 -0.85073072 0.52555352 0.0071225045 0.0024321191
-0.10397188 -0.05427805 -0.1434885 0.87413174 0.48565531 0.0057030534 0.0018980283
0.10309754 -0.056265622 -0.14277343 -0.87345582 0.48685652 0.0067595216 0.0025240523
-0.10827141 -0.043898076 -0.1452029 0.92185491 0.38752836 0.0023077487 0.0015252498
0.10789455 -0.044807907 -0.14684492 -0.92151946 0.38827366 -0.0067485487 0.0014360768
-0.1112143 -0.036793333 -0.14776568 0.95099205 0.30919307 -0.0037202262 0.0019799483
0.11248482 -0.033726055 -0.14314345 -0.95725256 0.28919682 0.0057236995 0.0023195359
-0.11448934 -0.025427477 -0.1464182 0.97452372 0.22398984 -0.011494166 0.0016492141
0.1144597 -0.025652573 -0.14453058 -0.97446436 0.22445071 0.0064116446 0.0018889961
-0.1159945 -0.013994694 -0.1424116 0.9905495 0.1371554 0.00020089325 0.001027542
0.1157782 -0.015637603 -0.14485657 -0.99085325 0.13477108 0.006827584 0.0011792959
-0.11720908 -0.0047688796 -0.14471568 0.99935007 0.036028199 -0.0012192209 0.0017161772
0.11723246 -0.0045913067 -0.14417946 -0.9993825 0.034412265 0.0071013118 0.0026476991
-0.11709867 0.0056076576 -0.14591952 0.999134 -0.041608974 -0.00024675092 0.0015175395
0.11705581 0.0059332419 -0.14655143 -0.9976458 -0.068370573 0.0053244992 0.002149049
-0.11560007 0.016990637 -0.14463584 0.98753947 -0.15734881 -0.0026606296 0.002059869
0.11587371 0.014912134 -0.14421079 -0.99023575 -0.13938597 0.002150699 0.001141959
-0.11451108 0.025262332 -0.14633906 0.97493887 -0.22247244 0.00045446161 0.0016256139
0.11455581 0.024922617 -0.14432786 -0.97757792 -0.21053401 -0.0041040946 0.0021323953
-0.11165325 0.035733644 -0.14549953 0.94648522 -0.3225728 0.010602614 0.0017852166
-0.10996228 0.039815962 -0.14836627 0.93830401 -0.34580287 0.002455258 0.0020258171
0.11185054 0.035257336 -0.14617018 -0.95260268 -0.30409709 -0.0085513806 0.0022139044
-0.1079811 0.044598952 -0.1461312 0.92289996 -0.38503 0.0027682404 0.0020057689
0.10746973 0.045833495 -0.14485864 -0.9190405 -0.39416307 0.00027900495 0.0013035524
-0.10306223 0.05629839 -0.14455861 0.8718493 -0.48977152 0.0016121473 0.0025117726
0.10338252 0.055596642 -0.14568944 -0.87681508 -0.48076203 -0.0079557113 0.0023885581
-0.10046282 0.060986571 -0.14771891 0.85879272 -0.51230949 -0.0037361574 0.0025775279
-0.0956738 0.067227729 -0.14306761 0.81282568 -0.58249366 0.0039414661 0.0027654544
0.097663015 0.064635336 -0.14404669 -0.83632135 -0.54823953 -0.00026103092 0.0022516984
0.10068372 0.060698684 -0.14850307 -0.85085285 -0.52539068 -0.0037495757 0.0026912715
-0.091739945 0.072354436 -0.14606357 0.77023882 -0.6377458 0.0035162051 0.0017104502
-0.088300921 0.076836243 -0.14650227 0.75619513 -0.65430564 -0.0072814217 0.0020710949
0.089281373 0.075558506 -0.14562266 -0.76430035 -0.64486039 0.00013134394 0.0014394278
0.092142925 0.071829259 -0.14542732 -0.76974726 -0.63834864 -0.0004185726 0.0015265738
-0.083281823 0.082944959 -0.14493778 0.71296018 -0.70116395 0.0075445054 0.0023578771
-0.075798333 0.089097343 -0.14455543 0.65398449 -0.75650352 0.0026011453 0.0024568674
0.078068264 0.087355576 -0.14729951 -0.6572262 -0.75367498 -0.0052752467 0.0022367134
0.082750134 0.083543979 -0.14391385 -0.70463532 -0.70956331 -0.0029880223 0.0025750131
-0.072074905 0.091954455 -0.145033 0.63919806 -0.76903939 -0.0020363245 0.0019830344
-0.065848686 0.096732013 -0.14541973 0.55623561 -0.83100975 -0.0049826321 0.001715482
0.064606667 0.097685054 -0.14481147 -0.54687363 -0.83721197 -0.0023071114 0.0019059655
0.073011607 0.09123569 -0.14538117 -0.6463452 -0.7630375 0.0034060061 0.001727254
-0.055705477 0.10333496 -0.14504063 0.49135417 -0.87084287 0.014276385 0.0021468131
-0.044234104 0.10813224 -0.14470555 0.39611331 -0.91819173 0.0042538131 0.0015589211
0.042934388 0.1086706 -0.14559671 -0.37661359 -0.92635244 0.0057754959 0.0019297755
0.054836519 0.10374057 -0.14503859 -0.47369915 -0.88067216 -0.0050684265 0.0027606369
0.0600347 0.10119326 -0.14856447 -0.52413517 -0.85160214 -0.0074845189 0.0025777312
-0.033032473 0.11277211 -0.1459115 0.26867136 -0.96321076 -0.0063868682 0.0022347942
-0.025765797 0.1144448 -0.14692831 0.21311559 -0.97702372 -0.0025330074 0.0019962038
-0.01394689 0.11600079 -0.14464466 0.12441453 -0.9922213 0.0042231162 0.0021618479
-0.005380495 0.11712858 -0.1454026 0.050157722 -0.99874067 -0.0010965393 0.0019361266
0.0039448221 0.11731756 -0.14533739 -0.02001055 -0.99976724 0.0080632772 0.0023859108
0.016912775 0.11561032 -0.14319101 -0.1609842 -0.98695606 0.0013588993 0.0020631542
0.027132165 0.11426492 -0.14501086 -0.23761833 -0.97134644 0.0048631718 0.0020080381
0.036659382 0.11126979 -0.14470799 -0.32825276 -0.94457334 0.0055987891 0.0018903601
-0.034123551 -0.11232017 -0.13500124 0.2882196 0.95753771 -0.00713892 0.0025613743
-0.026809026 -0.11430745 -0.13550022 0.20780334 0.9781664 0.0028572336 0.0022926675
-0.015831511 -0.11575267 -0.13424747 0.1280964 0.99176157 -0.00068478897 0.00069218932
-0.0053678909 -0.11713023 -0.13435476 0.044526719 0.99898791 0.0063659507 0.002536728
0.0029108396 -0.11745372 -0.13507794 -0.009387577 0.99995053 -0.003298888 0.0022588111
0.015368122 -0.11581368 -0.13475169 -0.15368648 0.98807818 0.009058754 0.0014239551
0.024439456 -0.11461942 -0.13415551 -0.20723087 0.97825283 0.008756741 0.0021143998
0.036338687 -0.11140263 -0.13580573 -0.31371382 0.9494276 -0.013071063 0.0018637514
-0.060290206 -0.10099721 -0.13578719 0.52742052 0.84960288 -0.0015871676 0.002227295
-0.055117778 -0.10362406 -0.13603956 0.48447442 0.87480551 -3.7183709e-05 0.0025513684
-0.045810275 -0.10747936 -0.13440417 0.40012109 0.91646188 0.00089678634 0.0014271711
0.047111407 -0.10694041 -0.13552272 -0.40962839 0.91221291 -0.0085008526 0.0022385065
0.053344615 -0.10435853 -0.13546899 -0.47148913 0.88187093 0.0012764651 0.0021276099
0.061282124 -0.10023608 -0.13246931 -0.5274567 0.84954756 0.0076307235 0.0021221843
-0.072350129 -0.09174332 -0.13188577 0.6371513 0.77073866 0.0002043674 0.0017476913
-0.065572172 -0.09694422 -0.13607556 0.56525749 0.82491279 -0.0016939892 0.0014459398
0.066410698 -0.096300803 -0.13493858 -0.57874316 0.81550366 -0.0031794615 0.002157321
0.072612718 -0.091541834 -0.13617824 -0.62620354 0.77965933 0.00059023226 0.0020722745
-0.083385289 -0.083013579 -0.13464794 0.71394902 0.70009232 0.01214592 0.002421709
-0.077400282 -0.087868214 -0.13379012 0.65839022 0.75265437 0.0058138771 0.0023314969
0.076378077 -0.088652581 -0.1336897 -0.6507315 0.75929493 0.0044506448 0.0017925919
0.083116695 -0.083275877 -0.13370499 -0.71138269 0.70280117 -0.002267627 0.002599024
-0.091619179 -0.072511882 -0.13446802 0.76942754 0.63873237 -0.0014723352 0.0017643481
-0.088788934 -0.076200336 -0.13535132 0.76259416 0.64687449 0.0018635184 0.0017645258
0.087441951 -0.077955782 -0.13807936 -0.75340486 0.65751177 -0.0077072112 0.0021257866
0.091816388 -0.072254881 -0.13534057 -0.77381724 0.63338691 -0.0052851327 0.0020380719
-0.100584 -0.060828652 -0.13178618 0.85421133 0.51992548 0.00077486847 0.0022290563
-0.096569546 -0.066060409 -0.13570245 0.82706326 0.56206799 0.0067841019 0.0021924789
0.096643306 -0.065964296 -0.13343683 -0.82642823 0.56302637 -0.0042099971 0.0021382337
0.10060415 -0.0608024 -0.13546509 -0.84267449 0.53832185 -0.010455938 0.0022337057
-0.10352058 -0.055367541 -0.13774677 0.87139803 0.49057633 0.00056148163 0.0020220957
0.10427577 -0.053475749 -0.1355903 -0.88053286 0.4739655 -0.004313692 0.002041321
-0.10714458 -0.046618462 -0.13386185 0.91182941 0.41049004 0.008063741 0.0018278281
0.10812098 -0.044261247 -0.13447788 -0.92513466 0.37944409 -0.01216725 0.0021119744
-0.11154117 -0.036004193 -0.13599978 0.94917464 0.31469235 -0.00601826 0.0022217282
0.11279564 -0.032975648 -0.13545416 -0.9612956 0.27546188 -0.0056156735 0.0020493823
-0.11466379 -0.024102328 -0.13551518 0.98102504 0.19370595 -0.0082422718 0.0021866667
0.11479008 -0.023143133 -0.13665275 -0.98040187 0.19685912 -0.0076611377 0.0019414573
-0.11592504 -0.014522278 -0.13505325 0.99060458 0.13663331 0.0058208429 0.0009917987
0.11588585 -0.014819897 -0.13570291 -0.99171382 0.12843928 -0.0026764988 0.00096684945
-0.11709832 -0.0056102523 -0.13399166 0.99924827 0.038573079 0.0038795436 0.0017855181
0.11713207 -0.0053538992 -0.13377777 -0.99841523 0.056134719 -0.0039897938 0.0018078489
-0.11711382 0.0054926113 -0.13410597 0.9994387 -0.033500321 9.2521528e-05 0.001939386
0.11712192 0.0054310653 -0.13446811 -0.99927384 -0.037341788 -0.0075778542 0.0025851338
-0.11578159 0.015611837 -0.13580221 0.9886182 -0.15042022 -0.0027880499 0.002420211
0.11570626 0.016184043 -0.13565402 -0.98822987 -0.15289579 -0.0049540638 0.0016881442
-0.11444081 0.025796073 -0.13452989 0.97508693 -0.22182283 -0.00011592317 0.0015566779
0.11450867 0.025280735 -0.1341731 -0.97442192 -0.22472349 0.0011174966 0.0015059975
-0.11143102 0.036270145 -0.13523796 0.94691163 -0.3214792 0.0030708178 0.0020304862
-0.10999382 0.039739817 -0.1353897 0.9424082 -0.33446479 -0.00033677745 0.001926849
0.11214204 0.034553576 -0.13559058 -0.95451319 -0.29816815 0.00056348136 0.0025866316
-0.10801505 0.044516981 -0.13518928 0.92325354 -0.38413388 0.0066415463 0.002222199
0.10804778 0.044437997 -0.13378187 -0.92677081 -0.37561306 -0.0032952181 0.0020702642
-0.10301026 0.056536019 -0.13375641 0.87387162 -0.48615605 0.00081635162 0.0024245712
0.10306523 0.056422908 -0.13557677 -0.86989808 -0.49318075 0.0070795473 0.0023781802
-0.10021225 0.061313123 -0.13477224 0.85280895 -0.52220869 0.0038648078 0.0026065623
-0.096088439 0.066687375 -0.13493152 0.82103038 -0.57088 0.0022539359 0.0021883026
0.096300311 0.066411234 -0.13423185 -0.8134262 -0.58166355 0.002290671 0.0022391127
0.10040608 0.061060507 -0.1342876 -0.85445803 -0.51947957 0.006508396 0.0027680034
-0.091433026 0.072754405 -0.13552935 0.76034766 -0.64950073 -0.004494132 0.0017294274
-0.087454446 0.077939391 -0.13441712 0.74986106 -0.66158342 -0.003966243 0.0020614502
0.088473216 0.076611713 -0.13695037 -0.75581175 -0.65477568 -0.0041655954 0.0018197311
0.091664225 0.072453104 -0.1364572 -0.76764417 -0.64087397 0.0017317137 0.0014553794
-0.084092855 0.08224728 -0.13286923 0.71411031 -0.70003062 0.0019112471 0.0024079601
-0.077246234 0.087986328 -0.13586286 0.66336167 -0.74827796 -0.0056067389 0.002678937
0.077697165 0.087640315 -0.13391508 -0.67004806 -0.7423178 -7.9544647e-05 0.0023439713
0.082262136 0.083965287 -0.13466878 -0.6996094 -0.71452343 0.0016949751 0.0023958648
-0.071325697 0.092529342 -0.13412608 0.62287384 -0.78231031 0.004319889 0.0014996649
-0.068272986 0.094871774 -0.1373855 0.58183324 -0.81330627 -0.0017461384 0.0025434799
0.065851353 0.096729964 -0.13316229 -0.55558491 -0.83145839 -0.0015293657 0.0016784745
0.073459707 0.09089186 -0.13314053 -0.64262533 -0.76617628 0.0025617389 0.0019562519
-0.061564039 0.10001975 -0.13015027 0.52155197 -0.85320085 -0.0056435703 0.0025496504
-0.05402448 0.10405624 -0.13464762 0.48510498 -0.87443686 0.0057863765 0.0020233854
-0.044488702 0.10802679 -0.13525613 0.4004969 -0.9162963 0.0017992723 0.0015071268
0.044556763 0.10799859 -0.13479282 -0.38511509 -0.9228676 0.0013227756 0.001998926
0.05600835 0.10320285 -0.13546892 -0.49250165 -0.87030298 -0.0038529807 0.00248292
0.061327502 0.10020125 -0.13594621 -0.52057248 -0.85379666 -0.0059680911 0.002512957
-0.035381522 0.1117991 -0.13618498 0.31038484 -0.95060098 -0.0043667294 0.0019437195
-0.024101151 0.11466396 -0.13661015 0.20151182 -0.97948289 0.0025017692 0.0021174599
-0.014251526 0.11596068 -0.13394332 0.11842734 -0.99295229 -0.0045490405 0.0017749418
-0.0052994252 0.11713926 -0.1343344 0.04168839 -0.99912852 0.0020977829 0.0018238479
0.0027451464 0.11747552 -0.13641661 -0.025071578 -0.99966711 0.0060923081 0.0022898838
0.013993627 0.11599464 -0.13424926 -0.11220982 -0.99368215 0.0021700179 0.0024196869
0.024763461 0.11457676 -0.13566752 -0.21306521 -0.97703594 0.0020201292 0.0016107375
0.03308915 0.11274863 -0.1341234 -0.29088536 -0.95674115 0.0056645297 0.0018931535
-0.033460081 -0.11258924 -0.12479528 0.28139257 0.95957816 -0.0052889585 0.0028426163
-0.025037548 -0.11454068 -0.12428178 0.20772575 0.97818661 0.00097715331 0.0022018724
-0.013957431 -0.1159994 -0.12378022 0.10882019 0.99404943 -0.0048916284 0.0015387845
-0.004577477 -0.1172343 -0.12492131 0.027921081 0.99953777 -0.012026221 0.0025494136
0.0038280084 -0.11733297 -0.12533469 -0.024483707 0.99968046 -0.0062888018 0.0018719004
0.014584402 -0.11591686 -0.12144372 -0.1123385 0.99366641 0.0026703405 0.002776481
0.023821799 -0.11470074 -0.12600368 -0.19843419 0.98011023 -0.0028024151 0.0019108241
0.033766616 -0.11246802 -0.12634614 -0.30781358 0.95141262 -0.0080522588 0.0016657353
-0.060645252 -0.10072477 -0.12318327 0.52223808 0.85279763 0.001870857 0.0028739248
-0.054474443 -0.10388722 -0.1251929 0.49146554 0.87087828 0.0057235099 0.0027452374
-0.045882702 -0.10744936 -0.1243545 0.39984712 0.91657573 -0.0033358077 0.00145082
0.042423476 -0.10888223 -0.12550513 -0.35572067 0.93450314 -0.012908609 0.002774833
0.055464633 -0.10343663 -0.1242336 -0.48670819 0.87355924 0.00308061 0.0026832914
0.060860902 -0.10055929 -0.12450229 -0.52063942 0.85365164 0.014607894 0.0028002209
-0.073287375 -0.09102416 -0.12772496 0.64015651 0.76821965 -0.006180461 0.0020322881
-0.065421343 -0.097059958 -0.12420278 0.56486905 0.82517487 0.0030867443 0.0014990772
0.065780722 -0.096784197 -0.1247258 -0.56717467 0.82346517 0.014761677 0.0021978356
0.071944609 -0.092054486 -0.12441149 -0.6312778 0.77555621 0.00095652096 0.0018236567
-0.083986901 -0.082180463 -0.12490369 0.71111751 0.70301056 -0.0093845855 0.0024522953
-0.077937424 -0.087456055 -0.12390876 0.67143923 0.74099046 0.010129578 0.0021888085
0.07780093 -0.087560788 -0.12471595 -0.67238474 0.74019039 -0.0041026063 0.0024658104
0.083206974 -0.083020553 -0.12545887 -0.70936412 0.70483953 -0.0019509294 0.0026068399
-0.092181005 -0.071779706 -0.12646931 0.77580804 0.63096762 0.0013500917 0.0016721966
-0.089026436 -0.075890824 -0.1245769 0.76146013 0.64817649 0.0067637102 0.0019933085
0.0877975 -0.077492416 -0.12787096 -0.73907208 0.67359793 -0.006184007 0.00205814
0.092109308 -0.071873136 -0.12251154 -0.7831797 0.62179428 0.0011394982 0.0023591735
-0.096897848 -0.065632552 -0.12413635 0.82653123 0.56281245 -0.0093993507 0.0021439383
0.096086472 -0.066689961 -0.12507883 -0.82104331 0.57085842 -0.002938471 0.0019441261
0.10023327 -0.061285727 -0.12402219 -0.8482874 0.52953488 -0.0011360043 0.0023733093
-0.10360418 -0.055076282 -0.12485532 0.87310904 0.48752511 4.6994755e-05 0.0021177162
0.104886 -0.05207118 -0.12660143 -0.89274299 0.45056444 0.0012828833 0.0023554058
-0.10833316 -0.043748997 -0.12611485 0.92193359 0.38734782 0.00035854577 0.001451662
0.10719675 -0.046492539 -0.12491339 -0.91562271 0.40191445 0.0099952333 0.0021388356
-0.11139667 -0.03635307 -0.12351523 0.95098227 0.30897948 0.012819116 0.0019293631
0.11146406 -0.036190353 -0.12512015 -0.9474082 0.3200269 0.00069820759 0.0018934861
-0.11453412 -0.025087405 -0.1262556 0.97780663 0.20948239 0.0033720338 0.0020155422
0.11455441 -0.024933266 -0.12635469 -0.97635388 0.21598166 -0.009221009 0.0024756149
-0.11640936 -0.010843374 -0.12623665 0.99626011 0.086306743 0.0041131582 0.0023744667
0.11563314 -0.016739417 -0.12582649 -0.98748875 0.15758726 -0.005672012 0.0021366212
-0.11702184 -0.006191201 -0.12713714 0.99941677 0.033125054 0.0082902452 0.0015937975
0.11722849 -0.0046214638 -0.1245236 -0.99958026 0.028843457 -0.002702333 0.0017415257
-0.11742893 0.0030990685 -0.12682864 0.99991673 -0.012068443 0.0045693289 0.0023101887
0.11720818 0.0047759423 -0.12519367 -0.99989146 -0.014636983 -0.0016794082 0.0021650104
-0.1159369 0.014432251 -0.12445057 0.99028796 -0.13902673 -0.0011484093 0.0020732451
0.11597211 0.014164743 -0.12606844 -0.99151522 -0.12998228 -0.0014843926 0.00094905595
-0.11429121 0.026932456 -0.12396495 0.97382039 -0.22728792 -0.003759173 0.0014978009
0.11476612 0.023325145 -0.12441367 -0.9825713 -0.18587711 0.0018336703 0.0023823057
-0.1122022 0.034402236 -0.12617834 0.95061976 -0.31013596 -0.011741056 0.0018011099
-0.10999985 0.039725263 -0.12317698 0.93984181 -0.34155324 0.0062252469 0.0020661207
0.11180745 0.035361372 -0.12595925 -0.94962102 -0.31330907 -0.007570453 0.0018883824
-0.10771406 0.045243617 -0.12702714 0.91546357 -0.40239948 0.0010157872 0.0013709156
0.10728844 0.046271171 -0.1258091 -0.92059761 -0.3905001 -0.0031143234 0.0013869228
-0.10355778 0.055277754 -0.12426688 0.87577045 -0.48271137 -0.0039783618 0.0023931211
0.10273961 0.056939773 -0.12555079 -0.86760682 -0.4972482 -0.0016002435 0.0024741704
-0.10099727 0.060290053 -0.12611485 0.86206865 -0.50671721 -0.0086764004 0.0027984462
-0.097055838 0.065426618 -0.12340879 0.8360185 -0.54869366 -0.0028897275 0.0021404242
0.096058421 0.066726483 -0.12388069 -0.81034607 -0.58595037 0.0012317615 0.0025444122
0.10054363 0.060881253 -0.12664396 -0.85150528 -0.52429563 -0.0072757346 0.0023333486
-0.091875985 0.072177142 -0.12370948 0.77771115 -0.62862104 0.00096745254 0.0013294159
-0.087759793 0.077541456 -0.12627004 0.74210697 -0.67026496 0.0047033327 0.0022525382
0.088310599 0.076823637 -0.12421055 -0.75473726 -0.65602595 -0.0012979631 0.0019876636
0.091786146 0.072294213 -0.12729265 -0.7684871 -0.63985842 -0.0029662573 0.0014878341
-0.08314807 0.083019502 -0.12523668 0.71023345 -0.70396429 -0.0016450792 0.0023068802
-0.076460622 0.088589154 -0.12584837 0.64426321 -0.76480299 -0.0011277364 0.0018323516
0.077992059 0.087414034 -0.12570751 -0.67075753 -0.74165905 0.0051152823 0.0024739516
0.083647065 0.082702376 -0.12515374 -0.71181053 -0.70236623 -0.0027244985 0.0025415092
-0.072215453 0.0918466 -0.12579121 0.63663578 -0.77115858 -0.0030509394 0.0018014386
-0.065541372 0.096967824 -0.12476194 0.5640229 -0.82575649 0.0020832373 0.0020516959
0.068758443 0.094499275 -0.12537596 -0.58666193 -0.80981952 -0.0044924049 0.0024231542
0.073225878 0.09107127 -0.12518384 -0.63824624 -0.76982886 -0.002305344 0.0019571704
-0.060224958 0.10104727 -0.12462746 0.51264054 -0.85858804 0.0051283925 0.0024643554
-0.054361861 0.10393718 -0.12605022 0.48499757 -0.87449992 -0.0052264831 0.0022110997
-0.045532431 0.10759445 -0.12722179 0.38525119 -0.92281145 0.00061582326 0.0019998313
0.039821655 0.10995993 -0.12192959 -0.33020678 -0.94389701 0.0046812845 0.0021114422
0.04421331 0.10814085 -0.12560517 -0.39851665 -0.91715801 -0.0023905537 0.0014482971
0.054946139 0.10365926 -0.12363566 -0.48692754 -0.87344068 -0.0017108676 0.0024215085
0.061219595 0.10028405 -0.12187635 -0.53273612 -0.84627712 0.0026970541 0.0023367943
-0.03663988 0.11127787 -0.12247396 0.31792754 -0.94811475 0.00066494185 0.0018813808
-0.02615059 0.11439414 -0.12539256 0.21929047 -0.9756577 -0.0019109395 0.0016457052
-0.017321579 0.1155565 -0.12315495 0.1741122 -0.98468482 -0.0089856209 0.0018892194
-0.0037835177 0.11733882 -0.12485503 0.020044418 -0.99976325 -0.0084651439 0.0022853711
0.0042876154 0.11727246 -0.124882 -0.034969352 -0.99937987 -0.0041204127 0.0018075735
0.01448852 0.11592948 -0.12413757 -0.1364004 -0.99064744 0.0035533523 0.0011103323
0.02594143 0.11442168 -0.12603875 -0.20814109 -0.97807479 -0.0068617249 0.0020250117
0.036577608 0.11130366 -0.12481016 -0.32065114 -0.94719243 -0.0030477284 0.0022509894
-0.035362262 -0.11180189 -0.1145503 0.30412856 0.9526273 0.0026391766 0.0025495992
-0.024481414 -0.11461389 -0.11209365 0.2192916 0.97565341 0.003395264 0.0015643535
-0.01488525 -0.11587726 -0.1161238 0.1104741 0.99387246 -0.0036211989 0.001411756
-0.0072429795 -0.11688337 -0.11499228 0.068463646 0.9976356 -0.0060036676 0.0024186207
0.0053166156 -0.11713699 -0.11468183 -0.04894083 0.99880075 -0.0013465519 0.0019238831
0.015381309 -0.11581194 -0.11579005 -0.14215231 0.98982579 0.0061314409 0.0016654541
0.023234775 -0.11477802 -0.11557841 -0.19172394 0.98144442 -0.0029632682 0.0017858412
0.033409003 -0.11261614 -0.11399394 -0.27065295 0.96263593 0.0088872295 0.0022794739
-0.06091021 -0.10052146 -0.11460085 0.53239256 0.84649163 -0.003164226 0.0024482429
-0.054657854 -0.10381457 -0.11401518 0.48900592 0.87228024 -0.00066244684 0.0024413129
-0.046733893 -0.10709679 -0.11419196 0.40517354 0.9142108 -0.0072818655 0.0020941843
0.045126647 -0.10776252 -0.11540452 -0.38831529 0.92151564 0.004480321 0.0014372792
0.056542248 -0.10299701 -0.11447925 -0.49244693 0.87030554 0.0080233244 0.0026750227
0.061158821 -0.1003307 -0.11553387 -0.54574388 0.83791083 0.0083096437 0.0022636219
-0.071160771 -0.092655957 -0.11474542 0.61785561 0.78629082 -0.0010938342 0.0021662719
-0.06523253 -0.097204834 -0.11503989 0.56630284 0.82418644 0.004200411 0.0022594181
0.06595242 -0.096652441 -0.11614476 -0.5653528 0.82477623 0.010969223 0.0026086012
0.072103798 -0.091932341 -0.11419732 -0.64489537 0.7642706 -0.00072314969 0.0017526486
-0.082559161 -0.083805762 -0.11503613 0.70183438 0.71232849 0.0040816176 0.0026289267
-0.07773079 -0.087614611 -0.11566554 0.65989465 0.75132912 0.0066094166 0.0023076443
0.076928571 -0.088230178 -0.11546005 -0.65412736 0.75638378 -0.0009637234 0.0018902402
0.083414108 -0.082719728 -0.11593803 -0.71146017 0.70266128 0.0095716016 0.0024791933
-0.091748968 -0.072342753 -0.11627118 0.76769257 0.64080524 0.0041115079 0.0020681769
-0.087642521 -0.077694394 -0.11274582 0.74092251 0.67157847 0.0040261573 0.0027825464
0.087974779 -0.077261381 -0.11611984 -0.74674845 0.66509551 -0.0038284131 0.0022135982
0.091435723 -0.072750963 -0.11660287 -0.77220267 0.63536417 0.003914685 0.0018412508
-0.10004201 -0.061534978 -0.1178699 0.85427529 0.51974845 -0.0086726714 0.002361774
-0.096954681 -0.065558508 -0.11421273 0.83196831 0.55481535 -0.0029601881 0.0024237121
0.097717643 -0.064564176 -0.11622676 -0.83721638 0.5468629 -0.0031237775 0.0020000425
0.10070102 -0.06067615 -0.11791372 -0.85776305 0.51404518 -0.00015314591 0.0026735882
-0.10412518 -0.053899761 -0.11570946 0.8785193 0.47763398 -0.0083420249 0.0020941012
0.10333845 -0.055777192 -0.11464991 -0.87184542 0.48969534 -0.0091679376 0.0023355719
-0.10764586 -0.045408271 -0.11613865 0.92217344 0.38677651 -0.00031365786 0.0013291043
0.10767098 -0.045347638 -0.11511146 -0.91511095 0.40315565 0.0061202119 0.0015376365
-0.11221588 -0.034375306 -0.11591931 0.95771617 0.28767928 0.0045118066 0.0027941552
0.10991122 -0.03993924 -0.11162691 -0.94033736 0.34011361 0.0094006713 0.0021843079
0.1118482 -0.035260215 -0.11415303 -0.95226872 0.30525535 0.0018635357 0.0016332699
-0.11473353 -0.023572693 -0.11596785 0.98023576 0.19779652 -0.0037865597 0.0019137246
0.11479805 -0.023082623 -0.11771747 -0.97850108 0.20616491 -0.0056304098 0.0018089176
-0.11575039 -0.015848804 -0.11519746 0.98921669 0.14611824 -0.0099914921 0.001391709
0.11586104 -0.015008288 -0.11474991 -0.99213076 0.12518176 -0.0024508683 0.0020104793
-0.11707612 -0.0057788803 -0.11233696 0.99795252 0.063947253 -0.0012376104 0.0020756132
0.11710462 -0.0055623986 -0.11678651 -0.99956965 0.029271908 0.0019173734 0.0017683037
-0.11734284 0.0037530265 -0.11450769 0.99943489 -0.033432815 0.0034823883 0.0019631318
0.11690695 0.0070639346 -0.11479107 -0.9982971 -0.058245536 0.0032097704 0.0022869168
-0.11560822 0.01692882 -0.11496867 0.98909903 -0.14704284 0.0078477012 0.002229702
0.11604966 0.013575622 -0.11389535 -0.9938634 -0.11053297 0.0042304317 0.001703161
-0.11452721 0.025139859 -0.1143542 0.9750005 -0.22215866 0.0044120396 0.0014710856
0.11463033 0.024356583 -0.11625402 -0.9758985 -0.21822488 5.3402957e-05 0.0015733949
-0.11203541 0.034811005 -0.11594921 0.9489184 -0.31550449 0.0032970756 0.0019099512
-0.10990876 0.0399452 -0.11286084 0.93696618 -0.34941584 0.0017242366 0.0024134736
0.11150181 0.036099233 -0.11369283 -0.95357078 -0.30115676 0.0027138935 0.0025307711
-0.1076702 0.045349516 -0.11488415 0.92439801 -0.38140455 -0.0043366691 0.0019089052
0.10816193 0.044162389 -0.11496896 -0.92018396 -0.3914454 -0.005664581 0.0015465751
-0.10404947 0.054065589 -0.11369596 0.88257134 -0.47017786 0.00081319787 0.0019218681
0.10379008 0.054716945 -0.11359106 -0.87188405 -0.48970532 -0.0026226763 0.0026477855
-0.10106914 0.060196385 -0.1187208 0.86243552 -0.50616688 4.6155455e-05 0.0026678436
-0.096795209 0.06576629 -0.11409193 0.82726443 -0.56180865 -0.0021589736 0.0025103427
0.097124226 0.065337509 -0.11447123 -0.8240422 -0.56647092 -0.0080698188 0.0020832669
0.10079329 0.060555883 -0.11248838 -0.85725701 -0.51486772 -0.0046540899 0.002356221
-0.091567025 0.072579771 -0.11571697 0.7679863 -0.64046615 -0.00042998302 0.0017361111
-0.088232182 0.076925844 -0.11429423 0.7616843 -0.64792663 0.0052951374 0.0018408389
0.088134237 0.077053472 -0.11382605 -0.7449398 -0.66712016 0.003915193 0.0025072531
0.091505945 0.072659388 -0.11612312 -0.76891339 -0.63933808 -0.0043576239 0.0015470795
-0.081295766 0.084879003 -0.11474364 0.68879706 -0.72489321 0.009408948 0.0022695081
-0.078154288 0.087289549 -0.1148174 0.66280031 -0.74879593 0.0007822077 0.0021353895
0.077400669 0.087867834 -0.11403215 -0.66810113 -0.74404275 0.0064239157 0.0028962081
0.082127504 0.084240787 -0.11361812 -0.6933313 -0.72056812 0.0085589457 0.0020689957
-0.071567349 0.092343919 -0.11383343 0.62293851 -0.78227049 0.00075539283 0.0021387564
-0.064595565 0.097693563 -0.115376 0.54494965 -0.83846408 0.0028021079 0.0019168825
0.065743499 0.096812725 -0.11365629 -0.56796974 -0.82304382 -0.0030336266 0.0022318379
0.072424993 0.091685817 -0.1165233 -0.62809074 -0.77812642 -0.0046118274 0.0025751975
-0.05559814 0.10338773 -0.11412851 0.4917326 -0.87073874 0.0036181067 0.0023387379
-0.044072043 0.10819936 -0.11482942 0.36568311 -0.93073905 0.00079855061 0.0023616408
0.04698243 0.10699384 -0.11338264 -0.41600764 -0.90936017 -0.0012884636 0.0022503983
0.054566991 0.1038107 -0.11516993 -0.48597363 -0.87389612 -0.011629079 0.0021679041
0.061519049 0.10005428 -0.11606525 -0.52779657 -0.84937054 0.00066058448 0.0022557874
-0.037424397 0.11095291 -0.11619456 0.31974503 -0.94750136 0.002058869 0.0018280987
-0.024010435 0.1146759 -0.11406846 0.19479889 -0.98083049 0.004991807 0.0021214217
-0.015450074 0.11580289 -0.11610803 0.15857479 -0.9873364 -0.0045674695 0.0016150475
-0.0045329668 0.11724016 -0.11285174 0.027164079 -0.99962902 -0.0019737943 0.0020275123
0.0045558061 0.11723715 -0.11608461 -0.037102044 -0.99930888 -0.0022513107 0.0024157194
0.01486536 0.11587987 -0.11499418 -0.14012484 -0.99013215 -0.0018437844 0.0011509219
0.025353663 0.11449906 -0.11485434 -0.22564533 -0.97418928 -0.0062808115 0.0015878888
0.033737574 0.11248004 -0.11482802 -0.27508649 -0.9614194 -0.00033147796 0.0023303116
-0.035105374 -0.11191348 -0.10300639 0.28592676 0.9582364 0.0053789779 0.0021505714
-0.023068151 -0.11479995 -0.10349551 0.19214948 0.98136324 0.0021949543 0.0024471548
-0.015042119 -0.1158566 -0.10760117 0.13560522 0.99073929 -0.006848176 0.0010978489
-0.0059218626 -0.1170573 -0.10574661 0.053370576 0.99854779 -0.0073361667 0.0021123402
0.0065136356 -0.1169794 -0.1066585 -0.05355867 0.99854922 -0.0055649895 0.0026375689
0.016154295 -0.11571018 -0.10546744 -0.14341593 0.98963505 -0.0073690107 0.0018397321
0.025087224 -0.11453413 -0.10536586 -0.21669818 0.97621298 -0.0070820665 0.0015650388
0.035556801 -0.1117265 -0.10432865 -0.30228832 0.9531976 0.0060124113 0.0025782587
-0.057388961 -0.1025893 -0.10276669 0.49041802 0.87147552 0.0045296983 0.0023453713
-0.044027831 -0.10821767 -0.10570974 0.38561043 0.92265612 -0.0032108796 0.0015380129
0.044297032 -0.10810617 -0.10221706 -0.38158399 0.92432052 0.0050216871 0.001899712
0.054876488 -0.10372403 -0.10534469 -0.47960377 0.87748522 -0.00017371924 0.0026548358
0.060830086 -0.10058294 -0.10223287 -0.52342725 0.85207027 0.00032335302 0.0031114446
-0.072400205 -0.091704905 -0.10512212 0.63364583 0.77362174 0.001509049 0.0017134505
-0.065783896 -0.09678176 -0.10714097 0.57378376 0.81900674 -0.0005007736 0.0024015217
0.066046357 -0.096580349 -0.10462438 -0.57204229 0.82017994 -0.0085097114 0.0023253025
0.07047566 -0.093181647 -0.10665127 -0.62110627 0.78372455 -0.0017168648 0.00071322569
-0.08323317 -0.083069958 -0.1054285 0.70183563 0.71230632 0.0068082865 0.0020553544
-0.07707458 -0.088118143 -0.10463389 0.65963948 0.75158101 -0.0013359048 0.0019594219
0.077232264 -0.087997153 -0.10410781 -0.66217589 0.74934763 0.0010819403 0.0020224494
0.082384363 -0.083817735 -0.10490183 -0.69969916 0.71443719 0.00072514196 0.0024420922
-0.092371151 -0.071531884 -0.10509334 0.78408778 0.62063807 -0.0038568832 0.0023954974
-0.087553896 -0.077809885 -0.10568386 0.74010241 0.67248058 -0.004273749 0.0019270894
0.088909335 -0.076043442 -0.10473779 -0.76286834 0.64652747 0.0058315722 0.0017391514
0.091940537 -0.072093084 -0.10447267 -0.77177793 0.63589203 -8.5403219e-05 0.0014586524
-0.097055994 -0.065426469 -0.10571024 0.84017837 0.54224914 -0.0081404345 0.0022434709
0.096260749 -0.066462852 -0.10419548 -0.81535101 0.57895392 -0.0038811453 0.0021233284
0.10003535 -0.061543681 -0.10120401 -0.85555816 0.51769763 0.0030594829 0.0025430904
-0.10351744 -0.05537514 -0.10567851 0.87366408 0.48651984 -0.0031004937 0.0022024005
0.10378105 -0.054675356 -0.10514347 -0.8774035 0.47974527 0.0027515178 0.0022875189
-0.10753417 -0.045677941 -0.10482136 0.90997356 0.41466457 -0.0011774822 0.0019165141
0.10786602 -0.044876773 -0.10345464 -0.92673278 0.37571764 -0.0016047445 0.0020711713
-0.11352248 -0.031081844 -0.10822704 0.96707189 0.25444576 -0.0054062451 0.0024181998
-0.1099309 -0.03989172 -0.10617182 0.93475747 0.35516235 0.0093856268 0.0025876856
0.11131328 -0.036554392 -0.10496571 -0.94866753 0.31626886 -0.0020104707 0.0019054468
-0.11449841 -0.025358601 -0.10362093 0.97408551 0.22601672 0.0085938256 0.0017847321
0.11441998 -0.025954334 -0.1041621 -0.97540504 0.22040692 0.0024074742 0.0014669679
-0.11599217 -0.014012375 -0.10518111 0.99240428 0.12274834 -0.0081568584 0.0023018706
0.11561147 -0.016903998 -0.10550544 -0.98755562 0.15726905 0.00064978952 0.0020740258
-0.11725704 -0.0044047041 -0.10461956 0.99961644 0.027680669 -0.00089313689 0.0023119624
0.11730848 -0.0040139835 -0.10540675 -0.99913198 0.041500647 -0.0035955054 0.0013854663
-0.11708564 0.0057066744 -0.10361774 0.99884409 -0.047696996 0.0059527038 0.001367777
0.11710825 0.0055348696 -0.10439813 -0.99860841 -0.052612286 -0.0036338193 0.0018924358
-0.11585861 0.0150268 -0.10381604 0.99183553 -0.12751316 0.0016266089 0.0023803893
0.11590711 0.014658343 -0.10513437 -0.99164021 -0.12903385 0.00018956623 0.0010993483
-0.11465021 0.024205549 -0.10445652 0.97986001 -0.19962612 -0.0048701502 0.0022624657
0.11432322 0.026689261 -0.10502715 -0.97480381 -0.22306193 0.0009371459 0.0016288252
-0.11172719 0.035555128 -0.10453348 0.9525013 -0.3045336 -0.00071251643 0.0018957187
0.11180176 0.035351284 -0.10471679 -0.9500072 -0.31221807 0.0024902625 0.0022376752
-0.10757005 0.045591298 -0.10397439 0.91953862 -0.39297697 0.0042253463 0.0013857291
0.10766242 0.045368277 -0.10431789 -0.91772735 -0.39720815 0.0014733949 0.0011880054
-0.10337186 0.055696543 -0.10473289 0.87559271 -0.48302037 -0.0053721378 0.0021340991
0.10370721 0.054827027 -0.10596661 -0.87415075 -0.48550206 -0.01217728 0.0024541493
-0.096864671 0.065675765 -0.1052928 0.82569724 -0.56409025 -0.00512113 0.0023966711
0.096089743 0.066685662 -0.10404465 -0.81102812 -0.58500612 -0.0011282422 0.0026595031
0.10052609 0.060904104 -0.10622944 -0.85240376 -0.52276093 -0.011352052 0.0022950892
-0.091569133 0.072577037 -0.10534853 0.76801366 -0.64043176 0.0014586725 0.0019209984
-0.087367475 0.078052737 -0.10392209 0.73917747 -0.67343849 -0.0098645873 0.0025681024
0.087496504 0.077884577 -0.10467488 -0.75008857 -0.66133404 0.0021343194 0.0028623168
0.091744319 0.072348736 -0.10542729 -0.77278459 -0.63466454 0.0022000854 0.0015919855
-0.08368288 0.082663707 -0.10499889 0.70450479 -0.70957309 -0.013379949 0.0025224602
-0.077578023 0.087731734 -0.10320181 0.66062677 -0.75070518 0.0037435517 0.00261646
0.077001892 0.088173814 -0.10622584 -0.65488327 -0.75565952 -0.010320293 0.0022777894
0.084495381 0.081795722 -0.10411963 -0.72010744 -0.69384593 0.0048116632 0.0022737673
-0.073158868 0.091122687 -0.10513297 0.63180327 -0.77510327 -0.0062816949 0.0024098486
-0.066499107 0.096232913 -0.10629977 0.57742608 -0.81639218 -0.0091070682 0.0019231475
0.067710735 0.095303208 -0.10353371 -0.5871855 -0.80944842 0.0025217123 0.0022449328
0.072661117 0.091504626 -0.1057182 -0.63925195 -0.76899362 -0.0023746006 0.0016978233
-0.061460409 0.10009927 -0.10451952 0.52449322 -0.85141218 -0.0020561288 0.0025967814
-0.054940492 0.10366824 -0.10675732 0.48680475 -0.87349063 -0.0059368573 0.0024026718
-0.047852099 0.1066336 -0.1046213 0.42942214 -0.90309685 0.0035661659 0.0024955578
-0.039725881 0.1099996 -0.10964641 0.33496332 -0.94223082 0.00083402725 0.0020633016
0.0446552 0.10795782 -0.10412811 -0.39464429 -0.91883326 0.0011431348 0.0016152235
0.055468403 0.10345848 -0.10467471 -0.48546523 -0.87418067 0.011475104 0.0022129233
-0.034984447 0.11196358 -0.10509741 0.31596673 -0.94877023 3.5996683e-05 0.0018558442
-0.024358895 0.11463003 -0.10531025 0.20798668 -0.97812289 -0.0041475021 0.0020631358
-0.015752764 0.11576305 -0.10573654 0.12738597 -0.99184757 0.0033305199 0.0021852592
-0.0049996199 0.11717872 -0.10398353 0.023687009 -0.9997192 0.00066805724 0.0021997802
0.0037463319 0.11734372 -0.10546186 -0.0049660159 -0.99997997 0.0039259014 0.0025855154
0.014195711 0.11596803 -0.10556031 -0.11157675 -0.99375278 0.0024459655 0.0018389663
0.024218867 0.11464846 -0.10502068 -0.20071605 -0.97961318 0.0084361117 0.0022585592
0.034604914 0.11212078 -0.10648347 -0.29926059 -0.95417142 0.00020951168 0.0018182764
-0.033338547 -0.11263383 -0.093537495 0.27823445 0.96049511 0.0058910358 0.0023464297
-0.025955288 -0.11441985 -0.09578108 0.22642204 0.97402602 -0.0025383199 0.0016326898
-0.015902115 -0.11574337 -0.09671697 0.13659611 0.99062389 -0.0024108302 0.002431856
-0.0058200341 -0.1170707 -0.094531059 0.062554948 0.99799186 0.0099591501 0.0015051359
0.0040252381 -0.117307 -0.094623588 -0.017399237 0.9998405 0.0040265182 0.0018599459
0.013614526 -0.11604455 -0.097400412 -0.10600144 0.99436116 -0.0031015906 0.0020133636
0.025011895 -0.11454405 -0.093937531 -0.21300158 0.97705066 -0.0015129594 0.0014252149
0.034381635 -0.11219221 -0.094498612 -0.31454703 0.94920176 0.0087297503 0.0020683729
-0.056368064 -0.10309895 -0.096134253 0.48742467 0.87314355 -0.0061295107 0.0025273548
-0.044649892 -0.10796002 -0.094996162 0.37030736 0.92890644 0.0022930631 0.0019712776
-0.039748173 -0.10999037 -0.094923809 0.34161046 0.93984127 0.00086524209 0.0027708665
0.044162497 -0.10816189 -0.094918899 -0.39177188 0.9200592 -0.002438307 0.0013668442
0.057761442 -0.10243209 -0.091548838 -0.49484217 0.86897546 0.0035855009 0.002587406
0.060910635 -0.10052113 -0.096714482 -0.51701528 0.85593587 -0.0083022118 0.0028999192
-0.072395511 -0.091708504 -0.09634354 0.64502591 0.7641592 -0.001568609 0.0018624543
-0.066150725 -0.096500278 -0.094385855 0.55416638 0.83240402 -0.0018132454 0.0024218524
0.066172682 -0.096483439 -0.095199168 -0.57677561 0.81689519 -0.0035190317 0.0024489874
0.073344804 -0.090980083 -0.094701469 -0.64392871 0.76508546 7.0337526e-05 0.0016452416
-0.083273008 -0.083286971 -0.094814017 0.70978683 0.70441085 -0.0028251845 0.0024214529
-0.077350065 -0.087906748 -0.094469704 0.65956491 0.75164306 -0.0025909373 0.0020718672
0.078226626 -0.087234147 -0.094402812 -0.66817898 0.743994 0.0031331265 0.00205713
0.083711863 -0.08244101 -0.095742531 -0.70848352 0.70572412 -0.0021411311 0.0027161613
-0.092236467 -0.071707413 -0.093306199 0.77343673 0.63386005 -0.0041271495 0.0016494035
-0.088154577 -0.07702706 -0.09699323 0.75157005 0.65958273 -0.0096502947 0.0025422892
0.087252073 -0.078203246 -0.094657667 -0.73495567 0.67810869 0.0029512346 0.0022953884
0.092119955 -0.071859263 -0.097462572 -0.78703403 0.61690915 -0.00068205409 0.0018889196
-0.10095223 -0.060348764 -0.092157945 0.85854596 0.51262814 0.010549019 0.0024788938
-0.095395386 -0.067590624 -0.096209191 0.8124398 0.58304292 -0.0015761541 0.0025644815
0.098145172 -0.064006999 -0.094271608 -0.83974671 0.54297495 -0.0018991281 0.0020797274
-0.10434713 -0.053316779 -0.095276073 0.88905066 0.45780614 0.0015788518 0.0022350717
0.10328402 -0.055899739 -0.094494358 -0.87203848 0.48937541 0.0077808117 0.002544509
-0.10854975 -0.043226108 -0.094656624 0.91943121 0.3932308 0.0039654789 0.0013738298
0.10729573 -0.046253588 -0.095306516 -0.9150452 0.40334833 -0.0015751413 0.0019376774
-0.11167504 -0.035680998 -0.093934901 0.9530071 0.30294758 -0.00044430079 0.0019857157
-0.10997939 -0.03977466 -0.098242208 0.94641382 0.32294697 0.0025043332 0.0027298389
0.10999955 -0.039725997 -0.097254656 -0.94045639 0.33971816 -0.011546497 0.0022939011
0.11149071 -0.036113534 -0.095063552 -0.94861054 0.31640071 0.0053462167 0.0019650559
-0.11427394 -0.02706361 -0.095255874 0.97296274 0.23092555 -0.0041220407 0.002077911
0.11477093 -0.023288617 -0.094415665 -0.98030359 0.19746836 0.0033363355 0.0021566974
-0.11627742 -0.011845644 -0.09666007 0.99515712 0.098175555 -0.0048823454 0.0025543086
0.11600874 -0.013886551 -0.095491119 -0.99363524 0.11259613 0.0033351593 0.0023713224
-0.11723051 -0.0046061589 -0.099086113 0.9996863 0.024977017 -0.0018593535 0.0024146424
0.11707839 -0.0057616029 -0.095768079 -0.9991951 0.039542194 -0.0067594554 0.0013400416
-0.11705896 0.0059094029 -0.09532354 0.99798644 -0.062874533 0.008356343 0.002064887
0.11715918 0.0051480718 -0.095661849 -0.99923551 -0.038860835 -0.0042507285 0.0022620093
-0.11617663 0.012611276 -0.093458489 0.9931795 -0.11656528 0.0026508952 0.002830168
0.11585138 0.015081776 -0.094879493 -0.99364209 -0.1125505 -0.0027856277 0.0018693118
-0.11460029 0.02458478 -0.095309496 0.97819161 -0.20770435 -0.00012925534 0.0020170619
0.11450875 0.025280073 -0.095076576 -0.97489786 -0.22265179 0.0006789685 0.0016591443
-0.1120492 0.034753203 -0.094271928 0.95712453 -0.28966555 0.0025508807 0.002137793
-0.10992669 0.039901886 -0.093668863 0.9427827 -0.333406 -0.0010607587 0.0023716833
0.11273847 0.03308434 -0.095315166 -0.96084684 -0.27687895 0.010555054 0.0023496784
-0.10792557 0.044733014 -0.095448218 0.92142141 -0.38856438 -0.000533104 0.0014450233
0.10745179 0.045876816 -0.094257295 -0.91345137 -0.4068976 -0.006400859 0.0019148896
-0.10299796 0.056552529 -0.094154678 0.86961246 -0.49362457 0.01043922 0.0021929017
0.10384607 0.054581761 -0.095904514 -0.87436515 -0.48522559 -0.00644864 0.0025342044
-0.10066799 0.060719181 -0.094012678 0.85703039 -0.51516342 0.010273339 0.002507681
-0.09702003 0.065473288 -0.095588423 0.83366632 -0.55226743 -0.0010372644 0.0024008697
0.09773466 0.064541973 -0.096906766 -0.83575034 -0.54910958 0.00011269817 0.0018081778
-0.091692142 0.07241673 -0.095173396 0.77512378 -0.63178748 0.0052596587 0.0014471457
-0.086008549 0.079823717 -0.097987995 0.7259146 -0.68774939 -0.0069902893 0.002414848
0.088198163 0.076970167 -0.093705527 -0.74819535 -0.66342497 0.0084298914 0.002581775
0.091700263 0.072406143 -0.092954442 -0.77328706 -0.63400567 0.0080031129 0.0016366311
-0.082195207 0.083962426 -0.094621807 0.70297414 -0.71120399 0.0040545063 0.0024141704
-0.07888779 0.086726718 -0.092878588 0.67020738 -0.7421698 0.0024739916 0.0023849006
0.077387847 0.087877668 -0.095599473 -0.66357195 -0.74810815 0.0025369001 0.0022723349
0.083277293 0.083091326 -0.097321682 -0.71102703 -0.70313817 -0.0060999091 0.0022663549
-0.072093055 0.091940522 -0.099482909 0.62488306 -0.7807163 0.0017758576 0.0020317452
-0.066028468 0.096594058 -0.094983421 0.57061636 -0.82118767 -0.0069139558 0.0022139156
0.066679411 0.096094556 -0.096015431 -0.57366014 -0.81908834 0.0028897841 0.0024269111
0.071229123 0.092603445 -0.095261939 -0.61700809 -0.78695369 0.0022122283 0.0022459312
-0.061084222 0.10038793 -0.096966773 0.51468962 -0.85737193 -0.002849547 0.0027269074
-0.054955613 0.10369124 -0.095613293 0.48331255 -0.87542748 0.0059735044 0.0023238922
-0.046218935 0.10731009 -0.09481246 0.40447727 -0.91454673 -0.0015571148 0.0018768144
0.039919958 0.10991922 -0.090184197 -0.34513336 -0.93855339 0.00070844154 0.00187452
0.045622502 0.10755714 -0.096016727 -0.4053289 -0.91416973 -0.0014765834 0.0020604888
0.056028306 0.10321394 -0.09440174 -0.49095556 -0.87113285 -0.0094949491 0.0021893689
0.060742959 0.10064979 -0.094331883 -0.52017564 -0.85402524 -0.0076295724 0.0025179696
-0.03479353 0.11202123 -0.095132411 0.30890954 -0.95108801 0.0025699681 0.0016729583
-0.026345938 0.11436842 -0.093185596 0.22388355 -0.97458559 0.007683042 0.0015931557
-0.016535236 0.11566003 -0.095629647 0.14773336 -0.98902524 0.0019781298 0.0013283342
-0.0042735729 0.11727431 -0.094455153 0.023867464 -0.99970549 0.0043898844 0.0021449483
0.0057686898 0.11707747 -0.095589757 -0.052491684 -0.99860543 -0.0056476304 0.0021886954
0.015974315 0.11573388 -0.094213441 -0.14238875 -0.98981041 -0.00088423473 0.0010588043
0.023954807 0.11468323 -0.095891036 -0.19952469 -0.97988766 0.003183146 0.0020592036
0.035100285 0.11190908 -0.095684096 -0.29666695 -0.95497888 -0.0020399538 0.0022661742
-0.034016866 -0.11236435 -0.085382596 0.28496629 0.95843452 -0.014057028 0.0026060741
-0.024231033 -0.11464686 -0.084968269 0.18758282 0.98222983 0.0060941116 0.002272106
-0.014645495 -0.11590882 -0.084154502 0.13808973 0.99041969 0.00032206211 0.0024370295
-0.0063109933 -0.11700606 -0.084828682 0.071705095 0.99741417 0.0048359898 0.0020899039
0.0047679311 -0.11720921 -0.086109608 -0.027043309 0.99962598 -0.004062952 0.0019368751
0.014534608 -0.11592342 -0.085547261 -0.11428645 0.99344707 -0.0012638044 0.0019246109
0.026438715 -0.11435621 -0.085536018 -0.21662673 0.97625434 0.00056501012 0.0013817508
0.036715813 -0.11124641 -0.084729634 -0.32174665 0.94681776 0.0039094058 0.0019822149
-0.061344769 -0.10018802 -0.086083353 0.52793002 0.84928787 7.0193608e-05 0.0025358533
-0.055458412 -0.10346212 -0.084633857 0.48604822 0.87389302 0.0082588438 0.0023479087
-0.043361545 -0.10849366 -0.084669061 0.35897461 0.93333626 -0.0045452798 0.0025173605
0.044302259 -0.10810401 -0.08617641 -0.39112103 0.92033005 0.0041252109 0.0011971603
0.057171147 -0.1026536 -0.083641447 -0.4899137 0.87177092 -0.00039139608 0.0026158895
0.061371949 -0.10016716 -0.086016148 -0.53140271 0.84708148 -0.0080093779 0.0025858604
-0.072831243 -0.091374151 -0.086330168 0.64338785 0.76553851 -0.0016961951 0.0017439919
-0.063428126 -0.098589398 -0.084062494 0.5422594 0.84017611 0.0076732142 0.0021063378
0.064819269 -0.097521946 -0.083741397 -0.5561288 0.8310867 0.0039744503 0.0025994233
0.073639162 -0.090754218 -0.08318644 -0.63618171 0.77153218 -0.0033023146 0.0013861066
-0.08315713 -0.083055958 -0.086593069 0.7096929 0.70448726 -0.0057962551 0.0023765871
-0.0778106 -0.087553374 -0.084722415 0.66510737 0.74667567 0.010369726 0.002089594
0.0779365 -0.087456763 -0.08533106 -0.6557613 0.75496781 0.00087466853 0.0017646935
0.083153084 -0.083154239 -0.085415997 -0.70877558 0.70534384 0.01127946 0.0025327681
-0.091532372 -0.072625004 -0.084803671 0.77080035 0.63707674 -5.4474513e-05 0.0019426093
-0.088478766 -0.076604582 -0.082644269 0.75901359 0.65107459 0.00054827263 0.0018883051
0.086870022 -0.078701131 -0.084567524 -0.74391526 0.66816634 0.011997817 0.0024822182
0.092269644 -0.071664184 -0.085131586 -0.77721781 0.6291911 0.0071409149 0.0015527376
-0.097592741 -0.064726971 -0.085465685 0.83638823 0.54812801 0.0032200629 0.0017821149
0.098024048 -0.064164855 -0.085504286 -0.83772278 0.54585534 0.016201578 0.002166766
0.10120653 -0.06001734 -0.089611486 -0.85727453 0.5148381 0.004699544 0.0028886404
-0.10328571 -0.055896588 -0.083226472 0.87501383 0.4838773 0.014613281 0.0019760393
0.10397333 -0.054211676 -0.084457755 -0.87940526 0.47595179 0.010785204 0.0021965164
-0.10790999 -0.044770606 -0.085641742 0.9187488 0.39483872 -0.0017581012 0.0014562249
0.10865886 -0.042962711 -0.087066762 -0.92953199 0.36860773 -0.0099242711 0.0018529751
-0.11211257 -0.034624729 -0.08454179 0.9547686 0.29732645 0.0037270626 0.0022112008
0.11213139 -0.034562949 -0.086417347 -0.9578135 0.28719613 -0.01057054 0.0022454716
-0.11438654 -0.0262083 -0.083813772 0.97189796 0.23537543 -0.0035641992 0.0020784209
0.11462923 -0.024364883 -0.084744096 -0.97782421 0.20917183 0.010343682 0.0018890528
-0.11586431 -0.014983561 -0.083065473 0.99257839 0.12143296 0.0064909998 0.0017012837
0.11583206 -0.015228451 -0.085520081 -0.99072397 0.13571993 0.0067910044 0.0021947722
-0.117378 -0.0034858342 -0.082844473 0.99988204 0.015023191 -0.0032036686 0.0022430148
0.11700945 -0.0062852553 -0.083707906 -0.9990375 0.043479115 0.0057897125 0.0021218255
-0.11711989 0.0054465053 -0.083051369 0.99905735 -0.043205705 0.0042023589 0.0013498355
0.11723819 0.0045479098 -0.085708663 -0.99985659 -0.016666019 0.0030053684 0.0019649565
-0.11581875 0.015329566 -0.086008132 0.98981172 -0.14218645 0.0074641188 0.001967774
0.1161053 0.013153066 -0.08552213 -0.99547374 -0.095036983 8.1564449e-06 0.0019539527
-0.11442671 0.025903301 -0.085746959 0.97443068 -0.22459786 -0.0063787308 0.0023212445
0.11474292 0.02350137 -0.084616795 -0.98138034 -0.19203994 0.0036602558 0.002426177
-0.11106086 0.037163787 -0.084605299 0.95034122 -0.31120282 0.0021146294 0.0020491183
-0.10996822 0.039801627 -0.0838705 0.9456259 -0.32525593 0.00038543041 0.0018489577
0.11192715 0.035072379 -0.086193569 -0.95446241 -0.29829413 0.0047076172 0.0019558959
-0.10768996 0.045301799 -0.085479073 0.92088002 -0.38981354 -0.0050496338 0.0014787472
0.10812765 0.044245142 -0.084452443 -0.91779917 -0.39701843 0.004596395 0.0017854751
-0.10422663 0.053663027 -0.083862476 0.88330555 -0.46879476 -0.0016595209 0.002771307
0.10327656 0.055878133 -0.086270422 -0.87309039 -0.48755115 -0.002669283 0.0024065066
-0.095984623 0.066822663 -0.082815558 0.82088083 -0.57102144 0.0094492547 0.0021818879
0.099004894 0.062886573 -0.08523526 -0.83562267 -0.54927784 -0.0053472887 0.0016844044
-0.091835819 0.07222949 -0.085555553 0.77718425 -0.62924647 -0.0057988889 0.0011968525
-0.088586263 0.076464392 -0.085216053 0.7589013 -0.65119702 0.0033616445 0.0018275023
0.088572539 0.076482259 -0.083557159 -0.75813675 -0.65209347 0.0016852814 0.0020911589
0.093482062 0.070084058 -0.087036774 -0.80608469 -0.59178984 -0.0035072574 0.0019311127
-0.083538733 0.082606718 -0.086831883 0.71264046 -0.70152915 -0.00061290507 0.0020676248
-0.078114882 0.087319791 -0.084577635 0.66848814 -0.743716 0.0031745527 0.0022913669
0.078319073 0.087163113 -0.085315183 -0.66121829 -0.7501213 -0.01041042 0.0023829534
0.082746424 0.083596542 -0.085828148 -0.69940335 -0.71471697 -0.0038308071 0.0022496711
