# .PCD v0.7 - Point Cloud Data file format
VERSION 0.7
FIELDS x y z normal_x normal_y normal_z curvature
SIZE 4 4 4 4 4 4 4
TYPE F F F F F F F
COUNT 1 1 1 1 1 1 1
WIDTH 565
HEIGHT 1
VIEWPOINT 0 0 0 1 0 0 0
POINTS 565
DATA ascii
-0.092445478 -0.083361089 -0.016888695 0.72241193 0.66290838 -0.19665577 0.0020104509
-0.087868154 -0.088805117 -0.016187077 0.69975883 0.68810242 -0.1919709 0.0016339736
0.087865353 -0.087520622 -0.011827989 -0.68698919 0.69285214 -0.21909291 0.0021083974
0.092342243 -0.082772583 -0.014749406 -0.72166967 0.66027671 -0.20791216 0.0021745558
-0.10087004 -0.072291449 -0.016620865 0.79073447 0.57418585 -0.21224894 0.0021183915
-0.097531155 -0.07596454 -0.014614135 0.77659059 0.59401399 -0.20989126 0.0021484385
0.097173288 -0.076800525 -0.015707733 -0.76404065 0.61144382 -0.20585999 0.0018055908
0.10069372 -0.071523659 -0.013669337 -0.79389822 0.56789434 -0.2173055 0.0019502857
-0.1044271 -0.067162357 -0.01516093 0.82075793 0.53277946 -0.20616123 0.0017269283
0.10552758 -0.065637462 -0.014892567 -0.82715136 0.52161753 -0.20913094 0.0017612689
-0.11168687 -0.052052241 -0.012105351 0.88124812 0.42286798 -0.2111503 0.0015933056
-0.10845389 -0.059737664 -0.011882771 0.8507511 0.47987634 -0.21433927 0.0019301913
0.10872133 -0.059232902 -0.012144867 -0.85729498 0.47063947 -0.20867172 0.0021266749
0.11147807 -0.054282822 -0.015316525 -0.87380731 0.44073871 -0.20545118 0.0016648754
-0.11436079 -0.046740837 -0.01423305 0.90605086 0.36837029 -0.20826703 0.0016414821
0.11551908 -0.044330187 -0.01495053 -0.9158507 0.34496561 -0.20546567 0.001661004
-0.11804593 -0.037741907 -0.014042901 0.93459785 0.28459018 -0.2133899 0.0013972364
0.11947952 -0.034035698 -0.013586823 -0.94096369 0.26288339 -0.21325941 0.0023678276
0.12087216 -0.033043094 -0.017993979 -0.94175285 0.26308492 -0.20949422 0.0022662268
-0.12171654 -0.023829795 -0.015414572 0.95865953 0.19954787 -0.20286086 0.0012249958
0.12193658 -0.024979645 -0.017204372 -0.96119905 0.19189329 -0.19817491 0.0018143841
-0.12269627 -0.013034701 -0.013287308 0.97378534 0.093414858 -0.20740218 0.0017130903
0.1224858 -0.015258677 -0.01368401 -0.96908969 0.13586964 -0.20592363 0.0011352565
-0.12406335 -0.0042623985 -0.014309716 0.97831225 0.016100705 -0.20650868 0.0020530489
0.12401289 -0.0054354146 -0.014810748 -0.97797173 0.048561282 -0.20301011 0.0020686558
-0.12365297 0.0074951723 -0.014383085 0.97675091 -0.058155745 -0.20633861 0.0020639733
0.12375985 0.003647801 -0.012457332 -0.97836602 -0.025315894 -0.20532648 0.0021173393
-0.12260539 0.015494222 -0.014409665 0.97055453 -0.12352099 -0.20680051 0.0016685482
0.12334174 0.014677617 -0.017439814 -0.9722262 -0.12332495 -0.19891497 0.0005885858
-0.12123543 0.0255668 -0.014198245 0.96024472 -0.18886572 -0.20557196 0.0019587541
0.12171523 0.025060061 -0.016188735 -0.95694017 -0.21502233 -0.19501522 0.0021864213
-0.12089172 0.031785902 -0.017154463 0.94327188 -0.25496033 -0.21268141 0.0022492837
-0.118055 0.036936935 -0.012586433 0.93143243 -0.29586124 -0.21189591 0.0017585269
0.11893323 0.033891242 -0.011521532 -0.93464249 -0.28192699 -0.21670383 0.0017770904
0.12060933 0.03334289 -0.017371405 -0.93851608 -0.27538717 -0.20820527 0.0022025527
-0.11573357 0.043376286 -0.014139338 0.91892117 -0.33220002 -0.2126665 0.0014252528
0.11532364 0.044948481 -0.015222887 -0.91085339 -0.35649502 -0.2079843 0.00090637524
-0.1115984 0.054339562 -0.015962344 0.87086129 -0.44632134 -0.20590743 0.0017914666
-0.10902833 0.058482796 -0.012128157 0.86380529 -0.45959517 -0.20642878 0.0024100151
0.10878548 0.059362672 -0.012674234 -0.86031854 -0.46426314 -0.21050347 0.0022976783
0.11205563 0.052894115 -0.01532703 -0.8848393 -0.41725272 -0.207267 0.0025623483
-0.10749728 0.063269548 -0.015859202 0.84720129 -0.49005115 -0.20518242 0.0021849724
0.10628954 0.064790547 -0.015951652 -0.83370304 -0.5115754 -0.20791812 0.0017450199
-0.10261852 0.071054175 -0.019702058 0.80430388 -0.55914354 -0.20113117 0.0015234319
-0.09749496 0.075960495 -0.014462559 0.78045839 -0.58830208 -0.21162553 0.0014179278
0.097077422 0.076576464 -0.014675175 -0.77587253 -0.59432358 -0.21166301 0.0018026714
-0.09202417 0.082629465 -0.013099407 0.72331029 -0.65687793 -0.2129166 0.0018961397
-0.086391434 0.088716626 -0.011669625 0.67889804 -0.70053405 -0.21988541 0.0019572088
0.087364018 0.088250123 -0.012868382 -0.67929405 -0.70124352 -0.21637282 0.001860431
0.091880448 0.083337091 -0.01463895 -0.72459149 -0.65998703 -0.19845463 0.0023835811
-0.081777766 0.093337372 -0.015643116 0.63779324 -0.74157238 -0.20806317 0.0016524056
-0.075906888 0.09707281 -0.012676294 0.59047878 -0.77676773 -0.21901327 0.0017855762
0.076661631 0.09720996 -0.015438157 -0.60042256 -0.77255934 -0.20650615 0.0016145561
0.084376112 0.091694891 -0.016997676 -0.66275823 -0.7211262 -0.20181324 0.0016735606
-0.071757197 0.1011841 -0.016251195 0.56178761 -0.7999804 -0.21077512 0.0021087117
-0.063447215 0.10662425 -0.013217805 0.51911402 -0.82772148 -0.21306756 0.0018640261
-0.059948806 0.10804531 -0.010440813 0.4749319 -0.85232365 -0.21905281 0.0022284056
0.058540508 0.1092981 -0.013446849 -0.4514744 -0.86744708 -0.20906079 0.001649108
0.065028995 0.10577115 -0.014454301 -0.51828015 -0.82909054 -0.20974919 0.0017650973
0.071417943 0.10101874 -0.014609789 -0.55220848 -0.80606121 -0.21291108 0.0016603559
-0.053441368 0.11187126 -0.015516977 0.42228273 -0.88194221 -0.20941631 0.0021991113
-0.045818038 0.11450744 -0.013175222 0.37526014 -0.90168452 -0.21481359 0.0011777121
-0.035611145 0.11852217 -0.012218276 0.28791797 -0.93223095 -0.21919987 0.0020705573
0.035633415 0.1189546 -0.014201447 -0.28920504 -0.9327178 -0.21540178 0.0017198179
0.04565277 0.11525311 -0.016216116 -0.36974216 -0.90551937 -0.20814785 0.0013957546
0.052657623 0.11247409 -0.016766194 -0.43406588 -0.87793374 -0.2020376 0.0015901916
-0.032339856 0.12045038 -0.01535654 0.24531615 -0.9453305 -0.21487269 0.0025979572
-0.027330639 0.12062834 -0.012391834 0.22071409 -0.95091671 -0.21689335 0.0019851425
-0.016095523 0.12296961 -0.01654621 0.13301174 -0.97016865 -0.20268367 0.0011059754
-0.0044663521 0.1238003 -0.013171582 0.041140642 -0.97733074 -0.20768252 0.0017236562
0.0058916025 0.1245139 -0.017514376 -0.056117423 -0.97878331 -0.1970636 0.001368598
0.015549719 0.12285321 -0.015639117 -0.12507702 -0.97132123 -0.20221488 0.00064392807
0.023743251 0.12131391 -0.013419606 -0.18623666 -0.959503 -0.21135299 0.0015918895
0.031382162 0.12096047 -0.01685356 -0.2493729 -0.94651407 -0.20475422 0.0023141555
-0.02233487 -0.12048742 -0.0085435193 0.16829349 0.95929104 -0.22679967 0.0016480382
-0.013994824 -0.12106462 -0.0060340427 0.11784717 0.96652383 -0.22791195 0.0020222857
-0.0049073985 -0.12173351 -0.0034921884 0.028980335 0.97212553 -0.23266311 0.0024327133
0.0059876652 -0.12160504 -0.0035584467 -0.044240594 0.97087228 -0.23547791 0.002376812
0.014784791 -0.12093272 -0.0058996291 -0.11972648 0.96594518 -0.22938077 0.0017846341
0.022810113 -0.12035663 -0.0082148062 -0.17461385 0.95797986 -0.22756247 0.0018376964
-0.052336048 -0.11063638 -0.0079162149 0.41691321 0.88230371 -0.21845697 0.0021220369
-0.042406328 -0.1144193 -0.0064339116 0.32707831 0.91407686 -0.23975657 0.0018842375
-0.03527496 -0.11699373 -0.0049997885 0.28145486 0.93136472 -0.23096102 0.0020106053
-0.025721427 -0.11933831 -0.0051547051 0.21106213 0.94799656 -0.23823363 0.0021447998
-0.014653705 -0.11976525 -0.00019077759 0.12137557 0.9583751 -0.25842804 0.0017268731
0.018734541 -0.11942395 -0.0011349719 -0.15130666 0.95466226 -0.25637135 0.001787909
0.023175787 -0.11878717 -0.0008840682 -0.18046477 0.9497987 -0.25556776 0.0018352101
0.03503206 -0.11725572 -0.0060831606 -0.2676844 0.93424857 -0.23563649 0.001961021
0.045039017 -0.11312031 -0.0054976586 -0.36083859 0.9015252 -0.23884676 0.0016824084
0.05199033 -0.11062431 -0.0072189751 -0.43733609 0.87144029 -0.22210115 0.0014676084
-0.064173803 -0.10407282 -0.0049922871 0.52517015 0.81808817 -0.23436737 0.0018262374
-0.055935524 -0.10834368 -0.0043161386 0.44960579 0.86128908 -0.23671868 0.0020853467
0.053249363 -0.10880128 -0.0013748066 -0.43837172 0.86551291 -0.24231732 0.0017821203
0.064475343 -0.10356738 -0.0039465176 -0.52213097 0.8183437 -0.24019352 0.0020170496
-0.081080198 -0.091148473 -0.0051390035 0.65735734 0.71818221 -0.22824486 0.0019289004
-0.075407743 -0.095721297 -0.0059881206 0.60222709 0.76405501 -0.23139247 0.0019087296
0.069744796 -0.098713681 -0.00077140285 -0.55719674 0.79037058 -0.25464922 0.0021148133
0.07442788 -0.095888875 -0.0037351963 -0.59798348 0.7640062 -0.24230199 0.0021242308
0.08126694 -0.090822138 -0.0044332934 -0.65605563 0.7193265 -0.22838651 0.0018007528
-0.091384135 -0.081267774 -0.0066026608 0.72915405 0.64575297 -0.22657767 0.0020577179
-0.086946741 -0.085662797 -0.0035121909 0.69511485 0.6826843 -0.22529423 0.0022623027
0.085782804 -0.087669492 -0.0060095652 -0.68890768 0.68866497 -0.22615635 0.001816143
0.091579095 -0.081548765 -0.0081857853 -0.71934021 0.6578694 -0.22306369 0.0020473937
-0.094723701 -0.075801134 -0.0033053716 0.75402939 0.61027133 -0.24291684 0.0020740379
0.09448991 -0.076200545 -0.0035856944 -0.75589746 0.60706323 -0.24513941 0.00214339
-0.10364608 -0.064526483 -0.0045307339 0.81687719 0.52415282 -0.24078088 0.0015058391
0.10371879 -0.064545646 -0.0046876837 -0.81837678 0.52237326 -0.23955302 0.0019037588
-0.11045194 -0.052644651 -0.0076620071 0.87606323 0.42947361 -0.21923862 0.0018134778
-0.10841542 -0.056681469 -0.006025705 0.85080183 0.47124055 -0.23252659 0.0019770088
0.10922776 -0.054952975 -0.0064584175 -0.86624128 0.4471949 -0.22280663 0.0017295326
0.11062814 -0.05130481 -0.0059611462 -0.88117415 0.40892068 -0.23730998 0.0018868472
-0.11275832 -0.045054335 -0.0039006595 0.90530503 0.3525897 -0.23686112 0.0017402903
0.11260525 -0.046251912 -0.0054408521 -0.8948788 0.38008511 -0.23393868 0.0015483209
-0.11669119 -0.035759136 -0.0043755132 0.92799598 0.29068875 -0.23307405 0.0015659918
0.11724171 -0.034134731 -0.0038925484 -0.93491596 0.26233628 -0.23898064 0.0022621811
-0.12088604 -0.021417944 -0.0098825898 0.95894408 0.17559043 -0.22269771 0.0020247062
-0.11903612 -0.025708836 -0.0036905594 0.9471705 0.21869531 -0.23460715 0.0018728105
0.119072 -0.025566589 -0.0037732145 -0.94713742 0.20715883 -0.24498166 0.0021867217
0.12018398 -0.023507677 -0.0078253746 -0.95439887 0.1924708 -0.22820567 0.0021538553
-0.12085479 -0.014345451 -0.0052453564 0.96680176 0.11672883 -0.22730751 0.0016810818
-0.11966766 -0.017641649 -0.0016160111 0.95544481 0.15228781 -0.25285089 0.0017783375
0.12080917 -0.012092291 -0.0035960991 -0.96627545 0.083932526 -0.24344841 0.0021680412
-0.12209725 -0.0041533974 -0.0047666137 0.97344387 0.019239647 -0.22811596 0.0026401058
0.12202219 -0.0054293699 -0.0052143331 -0.97249639 0.052795891 -0.22685529 0.0025770781
-0.12170653 0.0055362158 -0.0037610289 0.97140247 -0.047354348 -0.23266873 0.0025334533
0.12209083 0.0040776613 -0.0046875915 -0.97350162 -0.024724618 -0.22733946 0.0029201021
-0.12131843 0.013277936 -0.0068021943 0.96983749 -0.098846056 -0.22281115 0.0015312923
-0.11968773 0.017573636 -0.0016695161 0.95496237 -0.15794298 -0.25119883 0.0018504901
0.11956466 0.017701253 -0.0011574511 -0.95599413 -0.14043801 -0.25758958 0.0023228775
0.12089054 0.016042966 -0.0064944015 -0.96630305 -0.11801751 -0.22875816 0.0014263386
-0.12032682 0.023409225 -0.0084511628 0.95836121 -0.1754376 -0.22531195 0.00188208
-0.11896793 0.024326196 -0.0024848229 0.9489522 -0.19531286 -0.24767449 0.0022145303
0.11855095 0.027893847 -0.0027388115 -0.94116873 -0.22877802 -0.24872071 0.0019475232
0.12018508 0.025938397 -0.0093725855 -0.94819498 -0.22030161 -0.22889635 0.0019939407
-0.11735845 0.034459535 -0.0051776222 0.93725383 -0.26789686 -0.22312909 0.0023865816
0.1176924 0.032569766 -0.0035578615 -0.93317735 -0.26113433 -0.24695913 0.0022124136
-0.11275744 0.04584435 -0.005366148 0.90191972 -0.36114269 -0.23688976 0.0019887644
0.11239845 0.046047706 -0.0041323882 -0.899275 -0.36311555 -0.24382666 0.0015166788
-0.11014245 0.05175459 -0.00461679 0.87693089 -0.4186821 -0.2360034 0.0023067419
-0.10871816 0.05493613 -0.0041387789 0.86263716 -0.44077742 -0.24813785 0.0022142767
0.10789655 0.057246942 -0.0047476091 -0.86349267 -0.44573408 -0.23601176 0.0018228608
0.11051693 0.051462535 -0.0057551363 -0.88158381 -0.40887469 -0.23586309 0.0018353426
-0.10440397 0.06321881 -0.0036682738 0.822034 -0.51322865 -0.24669109 0.0020244149
-0.099519521 0.069934875 -0.004440926 0.7990256 -0.55182374 -0.23884881 0.0019090014
0.10320017 0.065408356 -0.005393547 -0.81496012 -0.53038049 -0.23353067 0.0016568603
-0.095050059 0.076128595 -0.0055326181 0.75765586 -0.61136937 -0.22844049 0.0024501991
0.0954272 0.07544551 -0.0049658441 -0.77125394 -0.59411162 -0.22847059 0.0019065579
-0.086597368 0.086488858 -0.0047452189 0.68795651 -0.68655479 -0.23528378 0.0020470913
0.086368464 0.086391404 -0.0039603282 -0.68090832 -0.69606465 -0.22772332 0.0021775174
0.090074927 0.08111202 -0.0010935902 -0.71455723 -0.65485811 -0.24610762 0.0020799881
-0.081696786 0.091119818 -0.0068528061 0.65297884 -0.71947145 -0.2366 0.0018190906
-0.074877076 0.095939688 -0.0052600377 0.59089458 -0.77305782 -0.23070587 0.0018151561
0.075696029 0.095157169 -0.0046658623 -0.61237234 -0.75212711 -0.243526 0.0016334879
0.082082279 0.090860881 -0.0069949604 -0.65262508 -0.72264987 -0.22772272 0.0016265496
-0.065045893 0.10316483 -0.0040843706 0.53047407 -0.81311607 -0.23966515 0.0020770568
-0.0551547 0.10878454 -0.0048433733 0.43808922 -0.86780304 -0.23451158 0.002324787
0.05625052 0.10812362 -0.0039138636 -0.4519006 -0.86127061 -0.23237637 0.0019340909
0.064638026 0.10366438 -0.0047832355 -0.52193117 -0.81902915 -0.2382836 0.0018938709
-0.051478609 0.11138082 -0.009664176 0.41346833 -0.88439161 -0.21655336 0.0020571076
-0.047194336 0.11217481 -0.0052609062 0.37411615 -0.89617169 -0.23856516 0.0013749154
-0.035850111 0.11683641 -0.0050932062 0.27618933 -0.93233609 -0.23338562 0.0023458574
-0.028463453 0.1188188 -0.0043908888 0.23440537 -0.94126618 -0.2430476 0.0022413009
0.025559541 0.11898067 -0.0033287196 -0.20937052 -0.9451617 -0.25066584 0.0015989698
0.03518983 0.11712458 -0.0055400706 -0.27619088 -0.93118626 -0.23793049 0.001895244
0.045726698 0.11313973 -0.0068639568 -0.38183054 -0.89638299 -0.22517332 0.0012931387
-0.025613237 0.12026285 -0.0095411418 0.21874388 -0.95030493 -0.22152117 0.0020544485
-0.013005879 0.1209811 -0.0050041927 0.09441337 -0.96972865 -0.22519408 0.0016265096
-0.0063662692 0.12202919 -0.0058424403 0.066794559 -0.97394592 -0.21672098 0.0019976625
0.0047120354 0.12182894 -0.0038280457 -0.036749769 -0.97399503 -0.22356902 0.0022979709
0.015680237 0.12063272 -0.0050220247 -0.11535939 -0.96550179 -0.23344903 0.0015662557
-0.004440641 -0.12051841 0.0026591159 0.020673882 0.96576941 -0.25857678 0.0024872534
0.0035073699 -0.12053639 0.0031645482 -0.015379831 0.96413296 -0.26497358 0.0022962871
-0.043893348 -0.11184847 0.0023278659 0.34810513 0.89821082 -0.26840287 0.0013241977
-0.035435539 -0.11444869 0.005471583 0.29339418 0.91145951 -0.28837731 0.0020041757
-0.025042465 -0.11753775 0.0034665335 0.19915774 0.94118196 -0.27297014 0.0017037393
-0.016298238 -0.11755516 0.007942359 0.14503582 0.94481319 -0.29375619 0.0019573576
-0.0051472802 -0.11910891 0.0077230334 0.030095194 0.95440274 -0.29700133 0.0023648725
0.0066289152 -0.11887767 0.0078156227 -0.062868282 0.95256931 -0.2977573 0.002088995
0.013940084 -0.11838613 0.0062145153 -0.10507252 0.9537921 -0.28149647 0.0023447869
0.024030823 -0.11724841 0.005106058 -0.18527982 0.93918365 -0.28914607 0.0018192501
0.034352351 -0.11509622 0.0049270843 -0.27409917 0.9195931 -0.28145716 0.0020646423
0.041670699 -0.11294129 0.0015710387 -0.32493597 0.90666646 -0.26902145 0.0018269171
-0.064326033 -0.10126199 0.0046200086 0.52391928 0.80616969 -0.27495298 0.0021440443
-0.05534615 -0.1063439 0.0050547947 0.45079875 0.84842753 -0.27740103 0.0024919242
-0.048779584 -0.10782259 0.0089609455 0.38449124 0.87505138 -0.29402658 0.0018072124
0.042938352 -0.10994612 0.0096669234 -0.33740538 0.89314717 -0.29739836 0.0016196556
0.054420713 -0.10719341 0.0035992824 -0.43713456 0.85821313 -0.26904202 0.0018375526
0.061435323 -0.10343355 0.0045942664 -0.48796034 0.83044243 -0.26881257 0.0022470411
-0.075753897 -0.092892945 0.003665891 0.61162198 0.74613011 -0.26307482 0.0017324311
-0.067588359 -0.098409146 0.0063687097 0.54541886 0.78957582 -0.28122622 0.0022467603
0.067352518 -0.098713964 0.0055362852 -0.536569 0.80171436 -0.26333979 0.0024695557
0.073519893 -0.094757147 0.0032844872 -0.59826583 0.75747621 -0.26135743 0.0020569013
-0.090374075 -0.080067918 0.000842056 0.72213471 0.63811588 -0.26707599 0.0019428072
-0.084633484 -0.085131578 0.0049658502 0.68274999 0.67525476 -0.27907598 0.0027047023
-0.078341544 -0.089918494 0.0070345947 0.62080544 0.73032051 -0.28501332 0.001753761
0.084145017 -0.085169412 0.0064539094 -0.6737023 0.68255818 -0.28326574 0.002050054
-0.092902191 -0.075284973 0.0047906628 0.74180502 0.6131041 -0.27171436 0.001923363
-0.089833364 -0.07820148 0.0069911024 0.72701454 0.62303072 -0.28858715 0.0020805099
0.089381523 -0.079151385 0.006104494 -0.7156437 0.64042687 -0.27876055 0.0020081019
0.094081789 -0.074859746 0.0019550624 -0.75107545 0.60674965 -0.26027003 0.0023528298
-0.10264993 -0.063264534 0.0032242322 0.8161763 0.5133937 -0.26510963 0.0021687294
-0.098304369 -0.066075876 0.0091356961 0.79664254 0.52610427 -0.29761556 0.0019774956
0.09835998 -0.067967609 0.0054135513 -0.80127919 0.53323215 -0.27132109 0.0017777956
0.10202748 -0.064183973 0.0028291622 -0.80856371 0.52417147 -0.26733682 0.0020584159
-0.10605419 -0.055910371 0.0052833678 0.84201682 0.46258205 -0.27753496 0.0026895881
0.10717779 -0.054130286 0.0042767101 -0.85982639 0.42903858 -0.27681145 0.0021416168
-0.11080604 -0.04417596 0.005797497 0.892923 0.34384477 -0.2906189 0.002070369
-0.10919378 -0.046911981 0.0074797818 0.87996298 0.36743981 -0.30108663 0.0013458728
0.10947015 -0.049131345 0.003094774 -0.88577664 0.38024896 -0.26610249 0.001767628
0.11107522 -0.043995921 0.0055678566 -0.89345074 0.34578025 -0.28667384 0.0016468005
-0.11434326 -0.036210842 0.0046925656 0.91521716 0.29882297 -0.27033773 0.0019645209
0.1152906 -0.033695899 0.00544697 -0.91978526 0.27375937 -0.28116015 0.0023099678
-0.11699928 -0.025487941 0.0056540826 0.94075429 0.19651477 -0.27633905 0.0018152689
0.11685618 -0.025981583 0.0059784814 -0.93462819 0.21856117 -0.28053728 0.0021696179
-0.11828172 -0.016358471 0.0050595924 0.94514614 0.14848468 -0.29094854 0.0016203687
0.11823577 -0.016716491 0.0049523143 -0.95192254 0.13712755 -0.27393341 0.0014811011
-0.12103625 -0.0023469334 0.0014919885 0.96730262 0.018412525 -0.25295568 0.0025315424
-0.11941227 -0.0047674882 0.0067604822 0.95853829 0.038231321 -0.28238755 0.0027200743
0.11895144 -0.0069093206 0.0075244368 -0.95323932 0.062331151 -0.29571864 0.002501905
0.12059465 -0.0023483769 0.0036189917 -0.96203691 0.015789868 -0.27246216 0.0025355837
-0.12076084 0.0023973072 0.0027872024 0.96323258 -0.010293198 -0.26847175 0.002522791
-0.11922981 0.0035064709 0.0079665082 0.95567876 -0.025030123 -0.29334569 0.002469108
0.1193136 0.0054221028 0.0067375302 -0.95556694 -0.058346998 -0.28894207 0.0025439397
0.12074631 0.00095339137 0.0037731919 -0.96244347 -0.0055174138 -0.27142623 0.0027472496
-0.11810479 0.016494336 0.0051123942 0.94957411 -0.1465801 -0.27717027 0.0015907217
0.11848734 0.013417799 0.0059642289 -0.95179766 -0.11218624 -0.28547403 0.0016867296
-0.11702418 0.027735405 0.004718733 0.93506193 -0.23008405 -0.26966757 0.0020941838
0.11697555 0.025421171 0.0053142193 -0.93777627 -0.20953289 -0.27689639 0.002026994
-0.11534436 0.034124311 0.0043540178 0.91899955 -0.27522218 -0.28229892 0.0020996975
0.1148589 0.034938525 0.0047998596 -0.91667277 -0.27634099 -0.28869817 0.0020718828
-0.1112603 0.044639125 0.0032083625 0.89633816 -0.35346901 -0.2676518 0.0021108892
-0.10919472 0.046151634 0.0082846116 0.87526703 -0.38205749 -0.29654625 0.001674905
0.10942449 0.047533564 0.005805111 -0.88497382 -0.37149546 -0.28073555 0.0014314489
0.11083323 0.044721644 0.004666328 -0.89150012 -0.3579323 -0.27769047 0.0016657733
-0.10681466 0.055450194 0.0033519156 0.85469621 -0.44406784 -0.26888311 0.002077094
0.10649566 0.055377878 0.0044829822 -0.85376722 -0.4418211 -0.27545512 0.0023492577
-0.1026665 0.063608631 0.0020675084 0.81480277 -0.51518679 -0.26585531 0.0020453238
-0.098536745 0.068030037 0.0046836156 0.79909199 -0.53427994 -0.27567548 0.0016760884
0.097076386 0.069422781 0.0063908626 -0.78393871 -0.55669016 -0.27483851 0.0024774673
0.10297259 0.062244806 0.0045491424 -0.82308912 -0.49366465 -0.28074819 0.002563183
-0.091999076 0.0756317 0.0067589879 0.73425502 -0.61434585 -0.28887507 0.0021519342
0.088903055 0.078552678 0.0087825246 -0.71562272 -0.63233113 -0.29671764 0.0024146668
0.093446441 0.074332528 0.0053477432 -0.74136162 -0.60834414 -0.28337312 0.0021298793
-0.085289694 0.084421605 0.0057084439 0.67083609 -0.68015862 -0.29557252 0.0019326534
0.079832166 0.089320406 0.0053669298 -0.64054555 -0.71780151 -0.27287811 0.0020569663
0.086252436 0.084787495 0.0027707506 -0.68470693 -0.67837548 -0.26642662 0.0022733093
-0.07401748 0.093995571 0.0041523012 0.61119843 -0.74172896 -0.27617863 0.0019352
-0.066889353 0.09911149 0.0061432566 0.53062826 -0.80168515 -0.27519932 0.0022747833
0.067952394 0.09800759 0.006122455 -0.55081612 -0.7867713 -0.27855447 0.0023164486
0.072677448 0.09440352 0.0062220604 -0.58054942 -0.7642284 -0.28092217 0.0018103833
-0.063447915 0.10265515 0.0026615679 0.52097315 -0.80957288 -0.2705158 0.0022388247
-0.054999612 0.10673602 0.0043686912 0.44362319 -0.851201 -0.28045562 0.0023500556
0.048064377 0.1091335 0.005855944 -0.39261103 -0.87321687 -0.28870222 0.0022306659
0.054488834 0.10674767 0.0048124236 -0.43884209 -0.85754997 -0.26837611 0.0020428321
0.06252975 0.10225016 0.0066272374 -0.50359929 -0.81561637 -0.28488174 0.002352155
-0.043246988 0.11133019 0.0056546852 0.34380266 -0.89405853 -0.28715715 0.0016025387
-0.035105638 0.11495722 0.0044984873 0.27990335 -0.92024475 -0.27350253 0.0022064315
-0.024928547 0.11713033 0.0053530862 0.19438091 -0.94039685 -0.27905145 0.0020784545
-0.015137427 0.11857941 0.004434166 0.12273873 -0.95254385 -0.2785596 0.0017471322
-0.0075130388 0.11905246 0.006656873 0.059626054 -0.95435929 -0.29264855 0.0024591105
0.0067576556 0.11950427 0.0056994995 -0.062881485 -0.95371437 -0.29406571 0.0023443883
0.013880583 0.11875258 0.0046686372 -0.11379828 -0.95403701 -0.27724257 0.0022453726
0.024344647 0.11730337 0.0046988726 -0.20141649 -0.94106531 -0.27171203 0.0018781719
0.033009455 0.11572935 0.0042647403 -0.25827622 -0.92815799 -0.26798519 0.0019406654
0.043865521 0.11171692 0.0029865727 -0.34858605 -0.89741594 -0.27042994 0.0017638397
-0.0024477495 0.12064925 0.0032928966 0.027279705 -0.96310937 -0.26772398 0.0026740716
0.0050082896 0.12072134 0.0013211906 -0.049375527 -0.96485615 -0.25809804 0.0021298802
0.010108729 0.12029775 0.00012659654 -0.086484738 -0.96109843 -0.26231685 0.0020521188
-0.03423037 -0.11256039 0.011988292 0.28234878 0.9085058 -0.30805266 0.0018162244
-0.025556671 -0.11339837 0.015461874 0.21764073 0.92101949 -0.32304117 0.0017104069
-0.013215433 -0.11478547 0.016070148 0.085173361 0.93989551 -0.33066902 0.001952091
-0.0053685918 -0.11612394 0.015288492 0.033065438 0.945485 -0.32398263 0.0025228837
0.0067958012 -0.11593214 0.015298459 -0.05725484 0.94072551 -0.33430141 0.0019896843
0.015355883 -0.11534293 0.013922102 -0.12740754 0.94150674 -0.31198138 0.0019964541
0.024476416 -0.11340847 0.015800061 -0.19984882 0.92524749 -0.32245556 0.0019627658
0.033792939 -0.11171136 0.01449176 -0.27126712 0.90654391 -0.32340741 0.0018893786
-0.061233863 -0.10061446 0.012013899 0.49358743 0.8127352 -0.30956906 0.0022901434
-0.055401497 -0.10172775 0.016895244 0.4493314 0.8303256 -0.3296372 0.0019528373
-0.046260133 -0.10701853 0.01336775 0.38523519 0.86523414 -0.32087961 0.0017132598
0.046320729 -0.10626038 0.015116104 -0.37571526 0.86945736 -0.32075188 0.0015186749
0.054772433 -0.10271379 0.015225291 -0.45442471 0.82811248 -0.32821918 0.0022602037
0.061820783 -0.10089311 0.010520793 -0.49295846 0.81486911 -0.30492666 0.0024427038
-0.071740679 -0.092117287 0.012904912 0.58596367 0.74969172 -0.30758569 0.0020541188
-0.065466739 -0.095279329 0.01628859 0.54602033 0.7681458 -0.33438575 0.0019063178
-0.0588587 -0.099806219 0.017402006 0.49041605 0.80645531 -0.33033624 0.0021714964
0.05921435 -0.099357545 0.017761994 -0.47552958 0.81169313 -0.33915454 0.0022355102
0.063943118 -0.097053275 0.01504981 -0.51726365 0.78817737 -0.33348876 0.0021930186
0.072654724 -0.092021793 0.011663988 -0.60452604 0.73888373 -0.29765585 0.0017675778
-0.082776628 -0.082688317 0.014489092 0.66659361 0.66834378 -0.3301053 0.0023713473
-0.076022722 -0.087295756 0.016050454 0.61419922 0.7179091 -0.32766739 0.0019506746
0.075801834 -0.086931042 0.017144511 -0.62103844 0.71050423 -0.33090019 0.0017381076
0.082884885 -0.08265049 0.014296185 -0.67134511 0.66628939 -0.32458293 0.0019687691
-0.091749668 -0.072246112 0.012863535 0.74661994 0.58686477 -0.31328648 0.0023082085
-0.087263905 -0.077247582 0.014190705 0.7082063 0.63168842 -0.3152993 0.00245853
0.086609378 -0.077043205 0.01585242 -0.71424878 0.62136638 -0.32210651 0.0021364526
0.091518462 -0.072053358 0.013639984 -0.74409527 0.58420002 -0.32408729 0.0020192296
-0.10088671 -0.060656469 0.012363729 0.816082 0.4842796 -0.31541008 0.0024980649
-0.096005909 -0.064417683 0.016449159 0.77825004 0.52661425 -0.34205896 0.0021597843
0.097628377 -0.063143939 0.015127897 -0.79653662 0.51054239 -0.32384545 0.0017076258
0.10000664 -0.061347447 0.013080279 -0.81139082 0.49234775 -0.31502157 0.0021088875
-0.10362033 -0.054451626 0.01338008 0.83727992 0.44857892 -0.31263277 0.0023226154
-0.099423394 -0.058801554 0.018275898 0.80687714 0.48354548 -0.33931267 0.0024325848
0.09902744 -0.059715737 0.017650129 -0.81257176 0.47877976 -0.33241093 0.0023404546
0.10290049 -0.054436747 0.015081068 -0.82812798 0.4555634 -0.32659763 0.0021971313
-0.10623462 -0.046616007 0.014885851 0.86270177 0.38900587 -0.3231411 0.0020410011
0.10702186 -0.043915424 0.015676234 -0.87470138 0.35589239 -0.32899559 0.0019238379
-0.1117739 -0.035241589 0.012911464 0.90633732 0.28736779 -0.30979428 0.0018891576
-0.10986385 -0.033020407 0.01966143 0.89990908 0.2780602 -0.33592603 0.0017607188
0.10976169 -0.033980384 0.018956715 -0.89177996 0.30106705 -0.33776781 0.0015066285
0.11258224 -0.034791332 0.011428338 -0.90420884 0.2935333 -0.31023282 0.002079061
-0.11418007 -0.023754533 0.014068415 0.9281624 0.18853654 -0.32088712 0.0017788702
0.11392024 -0.023807751 0.014715482 -0.92401087 0.19910377 -0.32643771 0.0020206773
-0.11446574 -0.01286964 0.017005062 0.93580168 0.10453973 -0.33666977 0.0019116026
0.1151535 -0.016275434 0.014097095 -0.93823308 0.14452036 -0.31437638 0.0018272211
-0.11754747 -0.0051250602 0.011727048 0.95016009 0.036329012 -0.30963856 0.0022781587
0.11639189 -0.0043799873 0.014935781 -0.9434858 0.022308638 -0.3306613 0.0024797085
-0.11672546 0.0044171801 0.014069512 0.94722772 -0.039939087 -0.31806371 0.0025328305
0.11618274 0.0073394338 0.014473873 -0.94372392 -0.077052161 -0.32163352 0.0021666486
-0.11463193 0.013373647 0.01640988 0.93664402 -0.10015728 -0.33565843 0.0016037016
0.11478298 0.01416023 0.015758218 -0.93838638 -0.11108353 -0.32724822 0.0016562438
-0.11311616 0.025186071 0.016309103 0.92147744 -0.21236025 -0.32524225 0.0019899474
0.11338329 0.024705896 0.015787186 -0.92154711 -0.20844848 -0.32756698 0.0018054562
-0.11190792 0.03387408 0.013942814 0.9066779 -0.27800685 -0.31724995 0.0018288523
0.10972115 0.034950096 0.018095367 -0.89921278 -0.2873584 -0.32991141 0.0018723111
0.111148 0.036452539 0.013207959 -0.90389431 -0.29018503 -0.31427348 0.0018696883
-0.10659103 0.045542877 0.015095984 0.86342293 -0.37877786 -0.33320883 0.0011207163
0.10603093 0.047020759 0.014971829 -0.86325526 -0.38244277 -0.32943562 0.0018612799
-0.10255499 0.055000782 0.015350029 0.82538295 -0.4562434 -0.33254299 0.0017361116
0.099543288 0.058188278 0.018994143 -0.81394345 -0.47425771 -0.33552298 0.0019695153
0.10329831 0.054025833 0.014522857 -0.82714325 -0.45077947 -0.33560672 0.0020701119
-0.096590176 0.063820377 0.016191239 0.79024976 -0.51629311 -0.33007076 0.0019700441
0.096410833 0.064350955 0.015724717 -0.78351694 -0.52520007 -0.33206332 0.0019436531
0.10059107 0.062412769 0.01020911 -0.80984467 -0.50148654 -0.30440563 0.0023034373
-0.091663942 0.072089516 0.013285211 0.73799086 -0.6001063 -0.30861306 0.0018922883
-0.086904652 0.076696858 0.015792033 0.70324588 -0.63151455 -0.32654959 0.0022898281
0.086642526 0.077671967 0.014796419 -0.70434654 -0.63136637 -0.32445705 0.0024475108
0.091707461 0.071348637 0.014360418 -0.75231504 -0.57350713 -0.32420921 0.0020723238
-0.082037657 0.082980029 0.015174394 0.66780227 -0.67155015 -0.32103041 0.0017711361
-0.077252783 0.086099803 0.016566766 0.63181466 -0.69695914 -0.33920226 0.0018993443
0.075761877 0.087425046 0.016195584 -0.61594433 -0.71252102 -0.33604512 0.0022199836
0.082510568 0.082416654 0.014690544 -0.66683888 -0.66891497 -0.32844904 0.0020809735
-0.070511736 0.092356414 0.014346547 0.58721513 -0.74371308 -0.31948283 0.0020876375
-0.064731523 0.096842289 0.01424295 0.53917903 -0.78198671 -0.31270236 0.0020784209
0.058186367 0.099601865 0.018877154 -0.47336328 -0.81081355 -0.34425089 0.0022175729
0.066594578 0.095103256 0.014876752 -0.54758674 -0.77200323 -0.3227379 0.0020428651
0.071601748 0.092873 0.011575473 -0.57860446 -0.75535727 -0.30765614 0.0023401247
-0.061451904 0.10088174 0.011123827 0.50118822 -0.81117487 -0.30133989 0.002360068
-0.056056272 0.10278748 0.013624916 0.45372158 -0.82852572 -0.32814905 0.0018435885
-0.046125367 0.10636415 0.015061677 0.38445628 -0.86536342 -0.32146484 0.0015812608
-0.03653565 0.10954178 0.016956734 0.30420357 -0.89239758 -0.33329684 0.0018233723
0.039052702 0.10857697 0.016771231 -0.32157788 -0.88672751 -0.33211747 0.0018368431
0.04547295 0.10726079 0.013567616 -0.37326348 -0.86882848 -0.32528675 0.0025094582
0.052925657 0.10436767 0.013105154 -0.42435986 -0.84611911 -0.32249227 0.0022302268
0.060809348 0.10150157 0.010864136 -0.49804887 -0.81246132 -0.30307421 0.0024996959
-0.031753484 0.11101243 0.018173607 0.25744534 -0.90812612 -0.33019498 0.0021646367
-0.025785785 0.1134578 0.015232581 0.20321678 -0.92705023 -0.31508848 0.0019633011
-0.015963577 0.11564183 0.012952311 0.13011466 -0.94354051 -0.30463344 0.0015134995
-0.0053933784 0.11643864 0.014474646 0.048060384 -0.9452107 -0.32290378 0.0019845925
0.0037594566 0.11702013 0.013536926 -0.014580777 -0.9454298 -0.3254993 0.0022775289
0.017646046 0.11500093 0.014025754 -0.15990973 -0.93398118 -0.31954336 0.0016508135
0.025912862 0.11305317 0.016225403 -0.22405683 -0.91441703 -0.33710548 0.0019510577
0.034212694 0.11186638 0.013707314 -0.27638212 -0.90654546 -0.31904262 0.0021242613
0.040207203 0.11058753 0.010835303 -0.31832689 -0.89628732 -0.30876687 0.0017783825
-0.027973862 -0.11092471 0.02097871 0.24347547 0.90803033 -0.340882 0.0018230323
-0.01393752 -0.1112836 0.024789881 0.11585261 0.92601436 -0.35927093 0.0018683531
-0.0048622899 -0.11225789 0.025354186 0.025143668 0.93045825 -0.36553404 0.0015954439
0.006529673 -0.11220169 0.024936214 -0.063948944 0.93291503 -0.35437292 0.0019206285
0.013652079 -0.11157513 0.024139903 -0.095117688 0.92851818 -0.35889643 0.0018267191
0.024742503 -0.11045888 0.023259863 -0.20773502 0.91263533 -0.35205543 0.0019344576
-0.051714838 -0.10101977 0.022286359 0.41922978 0.83652014 -0.35281789 0.0024794373
-0.045122277 -0.10251066 0.025243461 0.38059533 0.8518514 -0.35985574 0.0020009279
-0.035494123 -0.10578158 0.026954072 0.29377535 0.88813007 -0.35344172 0.0013551497
-0.023497067 -0.10873716 0.02808629 0.22442354 0.90748 -0.35512537 0.001776839
-0.016395478 -0.10946191 0.02862424 0.14911383 0.9205578 -0.36102414 0.0020818901
0.018264087 -0.10885876 0.029538343 -0.16167077 0.91808575 -0.36191335 0.0019970122
0.027116939 -0.10934136 0.025234863 -0.23830505 0.90624315 -0.34919053 0.0016766766
0.035784282 -0.10710227 0.023517411 -0.29266319 0.89149773 -0.34580338 0.0018514463
0.04433069 -0.10268345 0.025613355 -0.36410597 0.86091602 -0.35531744 0.0014628125
0.053682357 -0.100372 0.021887548 -0.44820681 0.82414788 -0.34625286 0.0021017203
-0.063718893 -0.091910593 0.025935024 0.53492725 0.76468897 -0.35930991 0.0017957308
-0.054244217 -0.098494828 0.025498666 0.44185585 0.82065701 -0.36233339 0.002123706
0.047688425 -0.099568754 0.029724916 -0.38818088 0.84721971 -0.36267665 0.0012660467
0.056721643 -0.097206965 0.025342524 -0.47272578 0.80548215 -0.3573918 0.0021521598
0.065100111 -0.092351831 0.022860615 -0.54729486 0.75666028 -0.35767803 0.0019401573
-0.080970459 -0.081318617 0.020516574 0.66216236 0.6668117 -0.34191105 0.0021358763
-0.075219028 -0.083830655 0.024410412 0.62386179 0.69802392 -0.35150993 0.0021870728
-0.068620205 -0.088590145 0.025032919 0.57463002 0.73726994 -0.35529339 0.0019993442
0.074897811 -0.084159322 0.02424206 -0.62133402 0.7002387 -0.35158184 0.0022772411
-0.083598785 -0.074206308 0.026476849 0.6903069 0.62803406 -0.35923481 0.0024135609
-0.079746135 -0.078261301 0.027994826 0.6670261 0.65065253 -0.36294281 0.0019930594
0.079960041 -0.077365845 0.028963968 -0.6839447 0.63591236 -0.35754031 0.0020311035
0.085088536 -0.073703356 0.024216106 -0.71124983 0.606309 -0.35568675 0.0022568195
-0.094764635 -0.062618233 0.02181939 0.77736348 0.52481824 -0.34680232 0.0017707275
-0.08880759 -0.067265064 0.026717279 0.75231051 0.55130649 -0.36067989 0.0023483948
0.087592237 -0.06916628 0.026218547 -0.74782032 0.56105536 -0.35493892 0.0012168724
0.093417451 -0.062303513 0.025073159 -0.76963609 0.52284968 -0.36645404 0.0022669188
-0.098075055 -0.055988144 0.024601612 0.80775231 0.46648753 -0.36045188 0.0021643271
0.09789224 -0.054741077 0.026211139 -0.81434828 0.45345521 -0.36223656 0.0021330751
0.10117282 -0.05169424 0.021941669 -0.82971048 0.43553928 -0.34912163 0.0021253941
-0.10295399 -0.042967696 0.026314711 0.86213285 0.35554519 -0.36099112 0.0020151408
-0.099718042 -0.04998878 0.02709632 0.82962745 0.41964561 -0.36826071 0.0026860752
0.098884389 -0.049083743 0.029978739 -0.83087158 0.42151523 -0.3632867 0.0021749297
0.10227367 -0.047350872 0.023607012 -0.84788823 0.39096326 -0.35809672 0.0023148309
-0.10684516 -0.034828667 0.025074793 0.89283675 0.28330463 -0.35011557 0.0017723931
0.10615508 -0.034623545 0.02692334 -0.88217771 0.3054989 -0.3583754 0.0015359398
-0.11095122 -0.02473579 0.022001997 0.91155946 0.21980147 -0.34748608 0.0015070523
-0.10816547 -0.024140038 0.029332861 0.90709633 0.22221476 -0.35748684 0.0016818451
0.10864904 -0.027666867 0.026833609 -0.89925289 0.24622323 -0.36154994 0.0022817645
0.11070284 -0.025129646 0.022505019 -0.90929282 0.21785761 -0.35457653 0.002241608
-0.11152085 -0.012386993 0.024705136 0.92925465 0.10128634 -0.35528415 0.0015455667
-0.10869904 -0.019300509 0.029597936 0.91893238 0.16247115 -0.35939738 0.0020108272
0.1090894 -0.019154122 0.028648153 -0.91205454 0.1787907 -0.36903986 0.0022713353
0.11159974 -0.013942591 0.023979034 -0.92622447 0.10979267 -0.36062971 0.0019678038
-0.11229575 -0.0059859636 0.024878707 0.93018651 0.066212632 -0.36106643 0.0020117245
0.11232434 -0.0043858001 0.025344692 -0.93138075 0.02656726 -0.36307591 0.0017852295
-0.11262679 0.0052507841 0.024279157 0.93358225 -0.034428161 -0.35670564 0.0016806747
0.11161094 0.0040030698 0.027299622 -0.93082064 -0.017193124 -0.36507156 0.0018838225
-0.11113767 0.014754227 0.024888201 0.9300043 -0.1018781 -0.353147 0.0013244399
-0.10979681 0.017824283 0.027285656 0.91806561 -0.15300678 -0.36571088 0.0019378435
0.10935048 0.019474618 0.027871892 -0.91740334 -0.17812848 -0.35586703 0.002031592
0.11121277 0.014011539 0.024946274 -0.92747468 -0.1204066 -0.35396761 0.0014829197
-0.11084278 0.025593359 0.021990582 0.91165775 -0.22025251 -0.34694228 0.0016999954
-0.10858868 0.02637637 0.027496096 0.90405232 -0.22349587 -0.36433372 0.0019411453
0.1086646 0.028010257 0.026644602 -0.90377349 -0.24586073 -0.35035121 0.0016555585
0.11070595 0.023079723 0.023187792 -0.91750866 -0.18790078 -0.35052985 0.0019446348
-0.10706476 0.03496195 0.024419382 0.88865721 -0.29374841 -0.35213673 0.0015686105
0.1070903 0.035494521 0.023832301 -0.88722682 -0.30131924 -0.34933558 0.0012065605
-0.10276856 0.044424139 0.025318116 0.85369945 -0.37872794 -0.35743874 0.0020982071
0.10230353 0.045853142 0.025015468 -0.84658456 -0.38930809 -0.36295146 0.0021953876
-0.10092026 0.051663339 0.022574591 0.83327222 -0.42770281 -0.35032517 0.0021954898
-0.097243659 0.056136895 0.026401639 0.81485707 -0.46067441 -0.35183382 0.0015055937
0.096584707 0.056530382 0.027029991 -0.8055681 -0.4738583 -0.35569417 0.0019638333
0.10055353 0.052858215 0.022268778 -0.82487243 -0.44869053 -0.34389269 0.0019134363
-0.09280102 0.063474 0.024496207 0.7645098 -0.53922009 -0.35322282 0.002028398
-0.087999284 0.068050265 0.02713877 0.75198054 -0.55139464 -0.36123303 0.0018117934
0.086732037 0.069486238 0.027477523 -0.73179698 -0.57451159 -0.36661911 0.0025637355
0.09173426 0.066027604 0.02266787 -0.75559944 -0.55189395 -0.35282081 0.0017740516
-0.083675258 0.07521157 0.024740428 0.69627869 -0.6249004 -0.35312238 0.002208377
0.078132443 0.079355374 0.028997673 -0.66167772 -0.65750945 -0.36036643 0.0023113384
0.085341707 0.07251174 0.025570294 -0.71067858 -0.60534561 -0.35845873 0.0015839763
-0.073506303 0.08531484 0.024062311 0.62121129 -0.70008498 -0.35210451 0.0015845712
-0.066248558 0.089839339 0.026201643 0.54091364 -0.76086038 -0.3584744 0.0020330006
0.065030232 0.089864612 0.028064549 -0.55493647 -0.75100863 -0.357815 0.0023383892
0.075453877 0.082939357 0.025866812 -0.63848734 -0.68073785 -0.35906821 0.0019776709
0.080369607 0.081819057 0.020435918 -0.65177667 -0.67466283 -0.34643495 0.0018250265
-0.063558593 0.092645884 0.024680996 0.54092169 -0.76085365 -0.35847646 0.0020314264
-0.055820163 0.09659978 0.027742557 0.46504727 -0.80893266 -0.35966501 0.0018077982
0.048278529 0.099783838 0.028628996 -0.40590876 -0.83926332 -0.36176708 0.0019474892
0.055268671 0.097202353 0.027283685 -0.46057928 -0.81186122 -0.35881478 0.0019012224
0.062859118 0.093172342 0.024702027 -0.51367486 -0.77808118 -0.36156309 0.0022434855
-0.044410396 0.10310429 0.02453094 0.38912404 -0.84988719 -0.35535112 0.0011504274
-0.035569888 0.10616814 0.025957245 0.29904646 -0.8841939 -0.3588486 0.0015669647
-0.026595041 0.10788651 0.028831016 0.21835729 -0.90693706 -0.36025721 0.0014127751
0.0093442667 0.10997836 0.029678417 -0.08914952 -0.92927408 -0.3584719 0.0015605782
0.024786534 0.10858931 0.028030165 -0.21466623 -0.90919757 -0.35676047 0.0021021341
0.032992873 0.10704384 0.026414525 -0.27017111 -0.89206666 -0.36224949 0.0021397742
0.04338536 0.10333046 0.02500415 -0.36223114 -0.86061144 -0.3579616 0.0018337168
0.050858293 0.10071623 0.023856524 -0.41764665 -0.83529204 -0.35757297 0.0023740649
-0.023542415 0.11115079 0.021893298 0.18766597 -0.91813964 -0.34900025 0.0017563871
-0.0144139 0.11139867 0.024334835 0.13075866 -0.92379868 -0.3598586 0.0015375513
-0.0041466099 0.11269445 0.024478013 0.024538787 -0.93426311 -0.35573912 0.0019565374
0.0035771821 0.11245503 0.025282709 -0.037264973 -0.93301839 -0.35789368 0.0019046754
0.015928857 0.11150447 0.023553586 -0.14527237 -0.92801028 -0.34306395 0.0013911293
0.024443014 0.1109016 0.022227628 -0.21441966 -0.91299045 -0.34709162 0.0021074887
-0.040931232 -0.10118322 0.032549977 0.34132513 0.86717194 -0.36264297 0.0026151256
-0.034032572 -0.10258157 0.03603024 0.31578514 0.8765828 -0.3631562 0.0019815124
-0.027255135 -0.10542481 0.035243858 0.2413817 0.90220129 -0.35744607 0.0020126286
-0.014125237 -0.10744445 0.034552898 0.10884319 0.92718655 -0.35843867 0.0025410629
-0.0043054861 -0.1088611 0.034235921 0.04366092 0.93237597 -0.3588438 0.0015493714
0.0063234959 -0.10846554 0.034568358 -0.046284448 0.92967075 -0.36547235 0.0015916056
0.015004584 -0.10705758 0.035246786 -0.13324632 0.9224757 -0.36233142 0.0024787446
0.025722416 -0.10626215 0.033536956 -0.24390765 0.89999896 -0.36126301 0.0018407361
0.036246758 -0.10211514 0.034955211 -0.30045867 0.88182408 -0.36347082 0.0012702366
0.041455716 -0.10164183 0.030938009 -0.35260424 0.86651123 -0.3533107 0.0019732576
-0.061525185 -0.090775751 0.031706855 0.53621954 0.76195526 -0.36317033 0.0016589959
-0.055395454 -0.093795419 0.034678295 0.48482302 0.79185748 -0.37136012 0.0023530738
-0.045185864 -0.09824767 0.035348192 0.40071571 0.83851779 -0.36920851 0.0016106366
0.039987624 -0.098545641 0.039773002 -0.34231237 0.86060297 -0.37707397 0.0027773941
0.049043436 -0.096758828 0.035088152 -0.41339052 0.83325118 -0.36715233 0.0020326709
0.052920662 -0.094773374 0.035417479 -0.44206625 0.81758142 -0.36896899 0.0022149088
-0.072310202 -0.080813296 0.035161704 0.61389881 0.69827461 -0.3681587 0.0014171856
-0.064021714 -0.086531036 0.036477048 0.54496866 0.75444502 -0.36581668 0.0018531122
-0.059460551 -0.089196175 0.038186699 0.51366508 0.77635539 -0.36526772 0.0021860502
0.064296275 -0.086886115 0.035318278 -0.55140412 0.74899936 -0.36736012 0.0025255771
0.07277602 -0.081896849 0.032210395 -0.6196754 0.69682747 -0.36115623 0.0021222816
-0.081792586 -0.072206549 0.033318892 0.68864077 0.62683964 -0.36448041 0.0023023644
-0.077118278 -0.075727895 0.036817998 0.65655655 0.65636677 -0.37163985 0.0021595373
0.077467084 -0.077340126 0.033427984 -0.65846229 0.65543902 -0.3699016 0.0020967408
0.082088381 -0.071219914 0.034263644 -0.71170217 0.60345662 -0.35961092 0.0027009689
-0.085578099 -0.06558948 0.035964929 0.74200755 0.55786079 -0.37177429 0.0021191079
0.085599184 -0.066216178 0.034936827 -0.73482108 0.57270682 -0.36338001 0.002533423
0.091287874 -0.061581127 0.030570056 -0.77341372 0.51887745 -0.36413929 0.0022152124
-0.094391041 -0.053755432 0.035536133 0.79444146 0.47937885 -0.37290576 0.0018596186
0.092866853 -0.057623062 0.033421926 -0.79405761 0.48369533 -0.36811876 0.0021247645
-0.10105711 -0.041497342 0.032291502 0.8615976 0.35378376 -0.36398718 0.0023329565
-0.098534212 -0.044587534 0.035255887 0.84887177 0.37874922 -0.36873546 0.0019997044
0.098195948 -0.046557318 0.034116667 -0.84155887 0.39961666 -0.36343521 0.0026139715
0.10161512 -0.040219799 0.032222748 -0.87205273 0.3350471 -0.35674572 0.002037358
-0.10328491 -0.035661966 0.032743014 0.88301402 0.29903832 -0.36174878 0.0014524318
0.1025179 -0.03560498 0.034628697 -0.87290996 0.32912019 -0.36015013 0.002123887
-0.1062652 -0.023549799 0.034379702 0.90514451 0.22076225 -0.36328691 0.0019370832
0.10601516 -0.024096843 0.034667067 -0.90736401 0.21423043 -0.36165726 0.0022089519
-0.10716054 -0.015663985 0.034761112 0.92021292 0.15418139 -0.35977265 0.0018629743
0.1069318 -0.015520412 0.035394929 -0.91678238 0.14763041 -0.3711004 0.0014919421
-0.10824394 -0.0052198721 0.035507433 0.93057132 0.047265388 -0.36304668 0.0017148079
0.10872911 -0.0044114357 0.034538031 -0.9325881 0.027187992 -0.35991701 0.0021616835
-0.11074782 2.8328084e-05 0.030848134 0.93308997 0.0012593695 -0.3596409 0.0019995824
-0.1080215 0.0065619787 0.035624556 0.92930084 -0.053912729 -0.36536744 0.0020928679
0.10761011 0.0059087127 0.036897615 -0.9307034 -0.068068221 -0.35938537 0.0020948027
-0.1064033 0.015328919 0.03681219 0.91850823 -0.14568809 -0.36758342 0.001548112
0.10823037 0.015374772 0.032120317 -0.92126727 -0.1497681 -0.35893747 0.0012815603
-0.1060041 0.024890611 0.03461194 0.90553403 -0.22377424 -0.36046246 0.0020115955
0.1056373 0.025282875 0.035141028 -0.90818077 -0.21273568 -0.36048743 0.0021507791
-0.10345398 0.032840434 0.035127275 0.88760054 -0.27800846 -0.36725533 0.0021331769
0.099893726 0.037106585 0.039404061 -0.87168622 -0.33228824 -0.3602052 0.0021007718
0.10272886 0.035100251 0.034624204 -0.87658763 -0.31062028 -0.3675721 0.0024263666
-0.10049877 0.041972987 0.033153314 0.85515696 -0.3746624 -0.35823834 0.0026244188
-0.097553313 0.044055182 0.038121365 0.84217924 -0.40325823 -0.35793427 0.0016496744
0.098057203 0.044945199 0.036040269 -0.84681171 -0.38735357 -0.36450952 0.0021993166
0.10025631 0.043365825 0.032355551 -0.85456848 -0.37251979 -0.36185881 0.0023547055
-0.093849212 0.05471538 0.035697512 0.7978996 -0.47682086 -0.36877933 0.0022838416
0.089044563 0.058715332 0.039668411 -0.78118747 -0.50272465 -0.37015408 0.0023841853
0.093881212 0.054742508 0.035312392 -0.79538029 -0.48279327 -0.3664436 0.0022551147
-0.091175191 0.061062142 0.031616472 0.77336371 -0.51981956 -0.3628996 0.0017815987
-0.085905045 0.06534709 0.035676248 0.7460404 -0.55946338 -0.36114326 0.0026417102
0.086870857 0.064017549 0.035787605 -0.74426895 -0.55928838 -0.3650482 0.0020338455
0.090033807 0.060775518 0.034404609 -0.77176338 -0.52256989 -0.36235607 0.0025282393
-0.082223304 0.072614789 0.031795196 0.69583887 -0.62272203 -0.35780674 0.0019716804
-0.075473316 0.076783657 0.03756173 0.65053219 -0.66746157 -0.36235753 0.0022104464
0.075711764 0.076365031 0.038137477 -0.65293562 -0.66400439 -0.36438066 0.0021706708
0.08220388 0.072003201 0.032796111 -0.69227254 -0.62488353 -0.36094218 0.0022376769
-0.071399838 0.081496932 0.035192259 0.63589197 -0.68323505 -0.35893068 0.0019204965
-0.064903364 0.086600758 0.034948714 0.5466305 -0.75180495 -0.36876059 0.0029345138
-0.058456831 0.089596316 0.038944621 0.49790066 -0.78406721 -0.37058535 0.0024362861
0.066220753 0.085213713 0.035719141 -0.57742101 -0.73110288 -0.36341941 0.0024142324
0.071060643 0.082170524 0.034345727 -0.61689246 -0.70147949 -0.35688955 0.0025621729
-0.054737549 0.094695188 0.03345998 0.46960187 -0.80591828 -0.36051348 0.0019733817
-0.044357415 0.098092638 0.036536414 0.40111482 -0.84248954 -0.3596085 0.0015435169
0.038448311 0.099292897 0.039511506 -0.33989409 -0.86536843 -0.36825186 0.0019673735
0.044328418 0.098288558 0.036097787 -0.38838962 -0.84593976 -0.36543053 0.0016063063
0.056509633 0.093490772 0.033731464 -0.47971609 -0.79803848 -0.36470145 0.0020405077
0.060082063 0.090574197 0.034387615 -0.51132965 -0.77638131 -0.36847556 0.0022942303
-0.040899236 0.10110396 0.032770637 0.35313669 -0.86420292 -0.35839626 0.0028126761
-0.035351779 0.10238867 0.035187006 0.30880907 -0.8758558 -0.37082824 0.0020906213
-0.025998909 0.10605988 0.034095712 0.22696497 -0.90199667 -0.36727244 0.0017139016
-0.014309675 0.10667414 0.03646237 0.11725049 -0.92297369 -0.36656782 0.0026051523
-0.0048934054 0.10779481 0.036766995 0.045511845 -0.92910576 -0.3670029 0.0023467189
0.0067884442 0.10833284 0.034751389 -0.074306965 -0.92838091 -0.36412552 0.0017886161
0.014259933 0.10665286 0.036533639 -0.11867642 -0.9206267 -0.37197092 0.0023365188
0.023949001 0.10572989 0.035559069 -0.21860921 -0.9052366 -0.36435786 0.002309358
0.034316834 0.1033169 0.033995576 -0.29097891 -0.88528043 -0.36278069 0.0020528813
-0.031319298 -0.10129507 0.04177916 0.27306831 0.89052808 -0.36385912 0.0024563384
-0.02382932 -0.10220464 0.044686601 0.20200048 0.90836817 -0.36614633 0.0021401646
-0.017241161 -0.10278934 0.045417707 0.17262954 0.91292351 -0.36982375 0.0024329345
-0.0046914089 -0.10464002 0.044909731 0.034585182 0.93467689 -0.35381216 0.0020554331
0.0047554602 -0.10426125 0.045857593 -0.045333836 0.93422747 -0.35378492 0.0027111233
0.014289271 -0.10358278 0.044381604 -0.13817625 0.92065907 -0.36509463 0.0020289321
0.024689149 -0.10257113 0.043410897 -0.23011936 0.89997643 -0.37025324 0.0022655998
0.032352053 -0.10053962 0.042560633 -0.27449429 0.89188433 -0.35943711 0.0017709319
-0.05340495 -0.090635486 0.044478938 0.47830203 0.79681689 -0.3692019 0.0022427298
-0.044210315 -0.095076256 0.043876026 0.39938995 0.83954096 -0.36831859 0.0025010912
-0.034933336 -0.097640887 0.046924211 0.31601974 0.87647957 -0.36320123 0.0020501565
0.034046706 -0.09890274 0.044790532 -0.29630077 0.88175064 -0.36704439 0.002021566
0.045192786 -0.094174594 0.045055922 -0.40334451 0.83491331 -0.37447712 0.0024180568
0.051525202 -0.09130884 0.045500707 -0.45766702 0.80593497 -0.37551263 0.002530938
