# .PCD v0.7 - Point Cloud Data file format
VERSION 0.7
FIELDS x y z normal_x normal_y normal_z curvature
SIZE 4 4 4 4 4 4 4
TYPE F F F F F F F
COUNT 1 1 1 1 1 1 1
WIDTH 586
HEIGHT 1
VIEWPOINT 0 0 0 1 0 0 0
POINTS 586
DATA ascii
0.008147723 0.087094285 0.105187 -0.44810221 -0.49445021 -0.74479747 0.23846346
0.014289378 0.087363444 0.10339906 -0.40737796 -0.69960153 -0.58702719 0.23913172
0.026832562 0.082988329 0.10597854 0.090847537 -0.76604646 -0.63633293 0.24995132
0.034284733 0.08230187 0.10226783 -0.24798612 -0.75607795 -0.6056807 0.22807236
0.077866003 0.084268838 0.10580625 -0.66385818 -0.7405442 -0.10433926 0.19945633
0.082902774 0.082454003 0.10154907 -0.63472533 -0.75768554 -0.15177782 0.17234227
-0.071774647 0.090698779 0.10239799 0.51797557 -0.83037257 -0.20538431 0.18438524
-0.066242397 0.094397821 0.10348349 0.61989564 -0.72748989 -0.29408813 0.21001695
-0.058053017 0.099575117 0.10538314 0.48575336 -0.81280488 -0.32154602 0.19255047
0.0074915322 0.090187624 0.10019855 -0.079104148 -0.85991508 -0.50427032 0.23831928
0.058851261 0.097100206 0.10899963 -0.47419462 -0.85255271 -0.21975726 0.18897414
0.066170581 0.093049385 0.10622787 -0.53151476 -0.80246079 -0.27119848 0.20781219
0.070502847 0.091290615 0.10317929 -0.6790325 -0.71754587 -0.15505762 0.20502286
-0.053011741 0.10127681 0.10675076 0.40219396 -0.85348111 -0.33137578 0.18580516
-0.04497505 0.10505446 0.10576049 0.26357421 -0.90082836 -0.34501731 0.18956445
-0.037502732 0.10889931 0.10421216 0.25654256 -0.91584826 -0.30888164 0.21144864
0.039142683 0.10800391 0.10458967 -0.43272063 -0.89956832 -0.059411041 0.18238373
0.04474489 0.10451046 0.1072095 -0.34787235 -0.91429436 -0.20748658 0.19187053
0.052589756 0.10240389 0.10474005 -0.43846127 -0.88225633 -0.17139252 0.19761805
-0.035148136 0.11012756 0.10361845 0.27255577 -0.91476172 -0.29820186 0.1903618
-0.026366508 0.11308223 0.1026418 0.2619437 -0.92256629 -0.28329638 0.1610186
-0.013193118 0.11480168 0.10268861 0.22629124 -0.94248098 -0.24601202 0.1514921
-0.0057913135 0.11607954 0.10188109 0.11836032 -0.96372789 -0.2392056 0.17305662
0.003635797 0.11414967 0.10712488 -0.24219032 -0.92796534 -0.28323868 0.19204088
0.013401026 0.11457783 0.10314538 -0.20248781 -0.95946163 -0.19604087 0.19213617
0.027813749 0.11229935 0.10422567 -0.34403035 -0.93581313 -0.0767911 0.20119613
0.034536388 0.11112139 0.10178191 -0.42690733 -0.90256315 -0.055944517 0.1677117
-0.021457791 -0.11011206 0.11091059 0.21425252 0.90469593 -0.36826792 0.20357829
-0.014547 -0.11058559 0.11183918 0.35378954 0.8664425 -0.35229313 0.22085425
-0.0044677504 -0.1120863 0.11146943 -0.0038517357 0.91989446 -0.39214721 0.19468156
0.0030925169 -0.11070145 0.11452564 -0.18061893 0.8887248 -0.421361 0.18640015
-0.043956261 -0.10158313 0.11346987 0.21412469 0.87913883 -0.42575309 0.20643708
-0.03685322 -0.10508559 0.11246448 0.22805101 0.88236886 -0.41160414 0.22631945
-0.026397228 -0.10770264 0.11418083 0.50155288 0.79634118 -0.33806142 0.24085562
-0.014899628 -0.10792286 0.116668 0.2583892 0.85609341 -0.44759253 0.21954852
-0.0090667289 -0.10683659 0.11991304 0.10697845 0.81798249 -0.56520808 0.21061657
0.0024153122 -0.10845544 0.11861242 -0.17876258 0.87921834 -0.44160965 0.17691202
0.016274679 -0.10753667 0.1170271 -0.22325915 0.88545185 -0.40759099 0.18716086
0.035762366 -0.10346723 0.11604405 -0.15382256 0.89963263 -0.40865615 0.22482315
0.045745153 -0.10158491 0.11222574 -0.40331554 0.8520028 -0.33380821 0.21608648
-0.061936311 -0.090624861 0.11550729 0.62613571 0.5795188 -0.5216437 0.23265807
-0.055078521 -0.095832475 0.11472848 0.41217595 0.76038301 -0.50192499 0.22688371
-0.044834536 -0.098083451 0.11873271 0.12262258 0.88860512 -0.44197819 0.24344081
0.043706991 -0.098773517 0.11836879 -0.36148012 0.82293129 -0.43831065 0.24203797
0.052479543 -0.097646981 0.11417129 -0.49522457 0.81286234 -0.30660638 0.19422612
0.061890319 -0.090426236 0.11583469 -0.48203281 0.74934214 -0.45401615 0.20016706
-0.074213065 -0.082475975 0.11354583 0.61268044 0.67950559 -0.40360245 0.18477325
-0.067057662 -0.084132642 0.11909576 0.54377007 0.69566017 -0.46943703 0.21885404
-0.020871218 -0.081485488 0.11171268 0.16593225 0.95690495 -0.23832633 0.27674776
-0.015572512 -0.08131922 0.11314578 0.49740535 0.80118436 -0.33270329 0.28208604
-0.0049647423 -0.082148477 0.11408687 0.035804097 0.96877009 -0.24536204 0.25823134
0.0045296974 -0.083847798 0.11136278 0.076011427 0.92443389 -0.37368995 0.27303487
0.022883873 -0.081852406 0.11026298 -0.13397416 0.974392 -0.1805855 0.22366206
0.064697161 -0.087420136 0.11702839 -0.54662526 0.66018081 -0.51513308 0.17217039
0.072694324 -0.083990119 0.1131563 -0.56179208 0.68680423 -0.46118277 0.19605002
-0.082316406 -0.072885849 0.11525927 0.71837384 0.55200195 -0.42335898 0.2027476
-0.074849248 -0.07965678 0.11699112 0.62235266 0.60998189 -0.49050924 0.18809651
-0.040986829 -0.070217088 0.11648902 0.27956021 0.91777235 -0.28202823 0.24746032
-0.034146812 -0.073851235 0.11541998 0.36756662 0.88614672 -0.28220329 0.24800262
-0.027511928 -0.077691175 0.11373232 0.23473476 0.90372407 -0.35802576 0.24329552
-0.016594499 -0.077154599 0.11983156 0.25633809 0.93325198 -0.25165749 0.21979468
-0.0082712434 -0.078153357 0.1199925 0.28874964 0.88314873 -0.3696917 0.24831139
0.0053778058 -0.079380438 0.11858878 -0.12658516 0.99157405 -0.027516432 0.22477035
0.017133214 -0.07852032 0.11744826 -0.095075808 0.98102289 -0.16898184 0.23102024
0.023126833 -0.076473445 0.11837095 -0.35533306 0.85921717 -0.36808172 0.25112745
0.034464017 -0.073562279 0.11566355 -0.64228672 0.68701118 -0.33982846 0.23478971
0.040882189 -0.073581219 0.11152445 -0.28466082 0.89416015 -0.34560925 0.24072064
0.078441873 -0.076712064 0.1164014 -0.6315009 0.601291 -0.48954645 0.19794421
0.081816584 -0.074946657 0.11363301 -0.68753153 0.52567858 -0.50096166 0.18859278
-0.092130691 -0.063791595 0.11100692 0.84337395 0.47483513 -0.25149941 0.18955292
-0.083717503 -0.068019338 0.11864371 0.76461816 0.46221036 -0.44913301 0.23012337
-0.054892287 -0.063015185 0.11188505 0.55173457 0.74229276 -0.38025036 0.25171563
-0.044885144 -0.067690924 0.11587156 0.40941817 0.81581265 -0.40844405 0.23924705
0.046597958 -0.066666372 0.11548692 -0.56755239 0.6611557 -0.4906705 0.22634983
0.053709261 -0.063739821 0.11212809 -0.646604 0.638574 -0.41728455 0.24442518
0.087334074 -0.063291013 0.11866006 -0.69444752 0.35304177 -0.62698025 0.20306344
0.090567455 -0.060071744 0.11759126 -0.79302025 0.28787965 -0.53688377 0.22915046
-0.09420491 -0.057032499 0.11543402 0.81161678 0.41011587 -0.41603267 0.21899924
-0.061462451 -0.053536642 0.11532728 0.71972799 0.53031653 -0.4480581 0.24429922
-0.056711692 -0.05618735 0.11869508 0.65801251 0.58669877 -0.47202119 0.24251604
0.06645254 -0.050807081 0.11148316 -0.78768414 0.33593267 -0.51643288 0.23697725
0.096016638 -0.050361052 0.11837013 -0.66497004 0.54322892 -0.51255941 0.21898533
-0.10283587 -0.040357698 0.11400646 0.79838854 0.40624443 -0.44445613 0.2428226
-0.099189408 -0.041378453 0.11926373 0.70739102 0.35710725 -0.60997736 0.20566441
-0.072170205 -0.043288916 0.11154908 0.83448571 0.48198816 -0.26706004 0.25652733
-0.067748897 -0.045180082 0.11549427 0.68465453 0.55827761 -0.46858755 0.21844263
0.067632951 -0.04371503 0.11712675 -0.79044205 0.39169851 -0.47092861 0.23325954
0.07046701 -0.041586347 0.11554652 -0.79590851 0.27940476 -0.53708726 0.24554096
0.097954437 -0.048091829 0.11674273 -0.70862371 0.52547002 -0.47088614 0.2018567
0.10142019 -0.044383675 0.11345309 -0.85899383 0.43881637 -0.26376089 0.20127097
-0.10415515 -0.034067448 0.1160097 0.83282626 0.14510807 -0.53417599 0.23281515
-0.074606076 -0.034703553 0.11389657 0.74499887 0.5491305 -0.37872469 0.25011191
0.073174998 -0.035243277 0.11576325 -0.83512682 0.39633861 -0.38141683 0.25021064
0.10301761 -0.034599055 0.11760006 -0.80153048 0.37582269 -0.46508721 0.20311245
-0.10729542 -0.025443221 0.11511177 0.89696497 0.18465897 -0.40169001 0.1901204
-0.081338331 -0.02391983 0.11039428 0.88990325 0.17143258 -0.42270935 0.26398063
-0.077154055 -0.025055002 0.11613594 0.9068867 0.066866718 -0.41603529 0.24636734
0.076390125 -0.026291266 0.1164758 -0.79671746 0.52672672 -0.29631102 0.22329493
0.1069992 -0.025114939 0.11587596 -0.90877092 0.120759 -0.3994405 0.17233548
0.11028408 -0.0223577 0.11029236 -0.93971735 0.18156855 -0.28976575 0.18006486
-0.1101897 -0.019032804 0.11142498 0.89738971 0.10889092 -0.42759153 0.2142057
-0.10797578 -0.016106201 0.11629743 0.87941515 0.17239508 -0.44374409 0.2039109
-0.082698569 -0.012693214 0.11148655 0.84477133 0.22864601 -0.48382059 0.2380093
0.078912191 -0.015470989 0.11716136 -0.82767141 0.1223188 -0.54772085 0.2446693
0.081753671 -0.014263987 0.11271103 -0.8310464 0.16566132 -0.53095961 0.25782633
0.10874863 -0.014856819 0.11523274 -0.85421962 0.18860734 -0.48449576 0.2450206
0.11066124 -0.016333379 0.11117765 -0.93380481 0.098927967 -0.3438341 0.22204611
-0.11154637 -0.0047660028 0.11253512 0.87001979 0.076382995 -0.48706371 0.25904232
-0.10869192 -0.0043517253 0.11775246 0.80091023 -0.069776602 -0.59470499 0.24487364
-0.083288185 -0.0060995156 0.11194848 0.7829777 0.27155909 -0.55964416 0.23627312
-0.079349324 -0.0052982257 0.11865793 0.93955117 0.065595329 -0.33606678 0.23791121
0.07951092 -0.0095486697 0.11746159 -0.79823107 0.15111145 -0.58308876 0.25335515
0.082383335 -0.0071154246 0.11322774 -0.78036201 0.14080331 -0.60926968 0.27211541
0.10856143 -0.0053376905 0.11775365 -0.83433819 0.038009796 -0.54994088 0.20383756
-0.11121612 0.0070372103 0.1125209 0.94458526 -0.034648225 -0.32643253 0.19204035
-0.10945649 0.0050807828 0.11624643 0.89242101 -0.024092833 -0.45055988 0.21992177
-0.084080182 0.0038529541 0.11112517 0.80721551 -0.034261581 -0.58926171 0.24838004
-0.079742596 0.0015063443 0.11883363 0.92147839 -0.096375868 -0.37628368 0.23406516
0.07911396 0.0010884184 0.11996781 -0.76101589 0.050574906 -0.64675885 0.25824052
0.081528775 0.0041206181 0.11529952 -0.65784109 0.081922486 -0.74868798 0.23138648
0.10786963 0.0093268976 0.11804529 -0.87569082 -0.037476148 -0.48141575 0.18679725
0.11185238 0.0035092682 0.11219922 -0.9253493 -0.11454479 -0.36139753 0.15675047
-0.11107811 0.015734483 0.11045846 0.92097628 -0.15780824 -0.35622919 0.22422642
-0.10856598 0.014083214 0.11573068 0.8997643 -0.168908 -0.40236107 0.23791756
-0.082429431 0.015787533 0.1112571 0.77240235 0.26389137 -0.57771623 0.23160034
-0.078572832 0.014992998 0.11782866 0.91856498 0.12232479 -0.37586576 0.22152115
0.081816182 0.016693013 0.11207683 -0.88940513 -0.19084544 -0.41537511 0.25263628
0.10818912 0.014433583 0.11630043 -0.87655896 -0.046117797 -0.4790799 0.17257851
-0.10627707 0.025997629 0.11678059 0.86629772 -0.19651979 -0.45924735 0.16871004
-0.081377454 0.021661162 0.1114893 0.94435203 0.0028996 -0.32892391 0.22414815
-0.075260505 0.029761307 0.11604965 0.83843327 -0.38178441 -0.38893491 0.23121943
0.078061119 0.025304511 0.11457406 -0.75716895 -0.54326707 -0.36270669 0.25434408
0.10657438 0.026732296 0.1163017 -0.9031781 -0.20714132 -0.375981 0.17768684
-0.10387469 0.035542902 0.11550058 0.89056009 -0.11649431 -0.43969524 0.19499663
-0.073293276 0.034852367 0.11583088 0.86755621 -0.46617305 -0.17328849 0.23256488
0.074561387 0.032996587 0.11505876 -0.9197455 0.37300202 0.12222003 0.29620463
0.10648661 0.035061181 0.11128141 -0.86478263 -0.34272817 -0.36699906 0.16159508
-0.10319202 0.043007649 0.1112877 0.84261066 -0.41302136 -0.34557298 0.1893176
-0.096310601 0.049280182 0.11862104 0.77846503 -0.39655536 -0.48655528 0.14909466
-0.066214114 0.044955187 0.1177609 0.52690959 -0.67110127 -0.52152604 0.23659904
0.066212371 0.044780925 0.1179406 -0.81952912 -0.45284656 -0.3511439 0.23028129
0.097952187 0.048207425 0.1166684 -0.84010601 -0.39099774 -0.37595564 0.17922685
0.10231145 0.042828918 0.11311989 -0.82207441 -0.3525669 -0.44709089 0.20070474
-0.097699635 0.053850066 0.11302625 0.838844 -0.4639267 -0.28480288 0.20011997
-0.06161074 0.055995271 0.11262614 0.75770438 -0.49245211 -0.42822295 0.23326427
-0.056962892 0.055789907 0.11898714 0.65566272 -0.64884138 -0.38614935 0.24733327
0.057583317 0.057814568 0.11580616 -0.70034605 -0.46251407 -0.54368758 0.24410959
0.0641734 0.051700778 0.11359852 -0.69879436 -0.60039622 -0.38885841 0.23931603
0.096462473 0.056200247 0.11318572 -0.79487878 -0.5062052 -0.33455041 0.18998836
-0.093317427 0.060002834 0.11381442 0.77586019 -0.52690965 -0.34699726 0.16520292
-0.087083332 0.065618537 0.11651019 0.71413994 -0.6049996 -0.35210744 0.22478245
-0.052956648 0.061959594 0.11525831 0.30815962 -0.88022017 -0.3609018 0.24169952
-0.04451013 0.06659618 0.11770707 0.60579681 -0.73089266 -0.31433433 0.25089532
0.044383775 0.068025507 0.11593828 -0.49975607 -0.77244389 -0.39188543 0.22251585
0.088097297 0.065231405 0.11535316 -0.77041864 -0.56191146 -0.30118197 0.21679418
0.09389545 0.060906839 0.11177119 -0.85709751 -0.47364458 -0.2025947 0.18661688
-0.085633144 0.070949517 0.11271881 0.69390452 -0.60593981 -0.38901606 0.2131557
-0.076656647 0.0777281 0.11748756 0.58995157 -0.61660141 -0.52130592 0.18373226
-0.042853918 0.07074704 0.11388383 0.41115427 -0.81431562 -0.40968543 0.2674841
-0.033932664 0.074605405 0.11439134 0.51784587 -0.79849535 -0.30698657 0.26023492
-0.026756447 0.076481968 0.11608551 0.42626575 -0.78995913 -0.44075179 0.24441567
-0.011031458 0.078209795 0.1192962 -0.11679634 -0.8808127 -0.4588328 0.23270272
0.0068710633 0.078656681 0.11946357 -0.23323742 -0.78592455 -0.57264543 0.2534464
0.016564468 0.078429945 0.11772258 -0.014016447 -0.93991911 -0.3411094 0.219041
0.025505736 0.07498993 0.11919305 -0.28038406 -0.8440578 -0.45711178 0.2656236
0.03898441 0.073629498 0.11266524 -0.34777802 -0.8438912 -0.40853173 0.23169735
0.043738749 0.070997111 0.11265051 -0.46396786 -0.77445334 -0.43006486 0.21015367
0.077780902 0.079036668 0.1147095 -0.61698437 -0.70115429 -0.35736942 0.20373906
0.08196649 0.073348366 0.11525687 -0.60611838 -0.67590302 -0.41925612 0.21601979
-0.065283209 0.08780928 0.11576501 0.65941757 -0.52564132 -0.53746587 0.20443289
-0.023534562 0.080984592 0.11080733 0.35034347 -0.70355076 -0.61828464 0.26572949
-0.012646672 0.081774078 0.11303037 -0.050987761 -0.7122305 -0.7000913 0.24242
-0.00041539635 0.08280167 0.1139971 -0.082005024 -0.69493616 -0.71437997 0.24259885
0.0053646909 0.081848823 0.11449691 -0.27688131 -0.61462837 -0.73862624 0.22550438
0.012089929 0.081405595 0.11376335 -0.025325317 -0.74371183 -0.66802043 0.24495727
0.066752166 0.085916691 0.11688564 -0.48153508 -0.73114049 -0.48327795 0.22336788
0.073910698 0.081036732 0.11606739 -0.63179958 -0.66486382 -0.39847875 0.19118543
-0.063634403 0.091990806 0.11142582 0.54771113 -0.6769672 -0.49165833 0.22503
-0.055138625 0.095827684 0.11512409 0.44667405 -0.73395586 -0.51165521 0.16410768
-0.047402419 0.097881809 0.11732706 0.23576704 -0.80689955 -0.54159677 0.18338822
0.05563879 0.09604267 0.11401507 -0.36305687 -0.82217854 -0.43842018 0.15950584
-0.045944635 0.10135383 0.11246848 0.2162165 -0.86685079 -0.44924405 0.18573201
-0.031911701 0.10591576 0.11453577 0.21780851 -0.87942445 -0.42328706 0.22029661
-0.020588219 0.10745719 0.11617248 0.16742817 -0.87668109 -0.45099682 0.17386395
-0.015200001 0.10805292 0.11637136 0.22128133 -0.83879703 -0.4974477 0.19727825
-0.0088515021 0.10801511 0.1179003 -0.095014475 -0.7482807 -0.6565426 0.17958142
0.0071092616 0.10851771 0.11742207 -0.1664914 -0.73973775 -0.65197283 0.21900046
0.016332617 0.10926191 0.11395401 -0.079953574 -0.90528297 -0.41721722 0.20390466
0.025892828 0.10761174 0.11449252 -0.040333129 -0.92334062 -0.38185778 0.22843997
0.034832072 0.1032092 0.1171304 -0.28739405 -0.86505872 -0.41119114 0.15843043
0.040722802 0.10252076 0.11421542 -0.41657734 -0.86249614 -0.28733912 0.18154073
-0.01402163 0.11070881 0.11172432 0.2445609 -0.9071964 -0.34232247 0.1794665
0.0069327774 0.1114876 0.11205299 -0.077109687 -0.90756148 -0.41277868 0.18338539
0.013607592 0.11149102 0.11017556 -0.11336552 -0.90834588 -0.40256169 0.16276531
-0.032253534 -0.10152402 0.1214715 0.28024638 0.82742482 -0.48665199 0.24478677
-0.022649096 -0.10204006 0.12444931 0.29813185 0.67847955 -0.67140365 0.22862168
-0.013822211 -0.10324945 0.12438001 0.1145788 0.82855719 -0.54805535 0.21418962
-0.0050200885 -0.10621184 0.12170432 0.053033441 0.75270742 -0.65621555 0.21128309
0.0033040519 -0.10489614 0.12399627 -0.04628668 0.83566701 -0.54728264 0.16867012
0.01333071 -0.10359788 0.12396435 -0.23285747 0.82752365 -0.51086396 0.1824706
0.026131947 -0.10177891 0.12389179 -0.14529757 0.85997683 -0.4892121 0.20346084
-0.052860081 -0.09261103 0.12179868 0.345254 0.84329832 -0.41188306 0.20005672
-0.043661058 -0.093417853 0.12605487 0.20478815 0.7940163 -0.57236356 0.21708751
-0.038452882 -0.097354852 0.12365732 0.29154402 0.74003881 -0.60608959 0.21756898
-0.016452994 -0.098870046 0.12990573 0.26157212 0.72133088 -0.64129698 0.19517933
0.018275466 -0.098577276 0.12997124 -0.12953328 0.81403869 -0.5661822 0.21258089
0.025927063 -0.099450372 0.1274493 -0.33929712 0.66175514 -0.66854882 0.17440549
0.039913461 -0.094740137 0.12640063 -0.3222447 0.73791575 -0.59299135 0.22004624
0.042333134 -0.09423545 0.12572145 -0.44740471 0.65798444 -0.60571063 0.22279483
0.05464562 -0.091276318 0.12194832 -0.36118844 0.59229225 -0.72023106 0.22300453
-0.063124172 -0.083496951 0.12362959 0.56560713 0.69309586 -0.44688541 0.21634743
-0.056527197 -0.085655175 0.12704529 0.44650847 0.61112469 -0.65357226 0.17200907
-0.049241655 -0.087963149 0.12998137 0.22825131 0.75197953 -0.61840779 0.17843239
0.053886138 -0.087280571 0.12751552 -0.51284772 0.64451981 -0.56708151 0.22079979
-0.074154437 -0.074164085 0.12416767 0.56186259 0.63508987 -0.53006721 0.19633934
-0.069511563 -0.076703578 0.12585944 0.56482905 0.62122017 -0.54318833 0.17794308
-0.025262021 -0.072455391 0.12326708 0.2583997 0.89546734 -0.36244705 0.23905183
-0.013494864 -0.073154978 0.12714379 0.20020139 0.90646154 -0.37181571 0.19967973
-0.0057507977 -0.07542818 0.12506397 -0.0333228 0.98868752 -0.14624132 0.21412241
0.0022804879 -0.074817069 0.12683576 0.1395293 0.95637655 -0.25666207 0.20449087
0.01429264 -0.074711859 0.12437933 -0.15398067 0.91251957 -0.37894326 0.22854486
0.022561699 -0.072792962 0.12447442 -0.32190931 0.77321357 -0.54636544 0.2337465
0.032772534 -0.071128689 0.1205088 -0.49501511 0.60356039 -0.62503988 0.24704504
0.06900584 -0.077219933 0.12570903 -0.40449017 0.65902007 -0.63409799 0.15785979
0.073234431 -0.075410463 0.12367904 -0.49739957 0.65435845 -0.56956893 0.19835165
-0.08374095 -0.062965766 0.12349804 0.62379724 0.38694429 -0.67908102 0.21305689
-0.078347355 -0.066244081 0.12678298 0.68302643 0.30514109 -0.66359919 0.21300724
-0.042465013 -0.063452952 0.12396273 0.56160313 0.76443177 -0.31661642 0.21378243
-0.034224503 -0.067032367 0.12591162 0.34149307 0.89392447 -0.29031262 0.20114544
0.03834876 -0.065202564 0.12545164 -0.50252855 0.67451042 -0.54083329 0.22465427
0.044526033 -0.061514355 0.12443679 -0.59040254 0.70249373 -0.3974008 0.22059897
0.07837864 -0.066086277 0.12689349 -0.63720244 0.42385209 -0.6436789 0.19689889
0.083699539 -0.063362658 0.12317854 -0.70161003 0.43571699 -0.56382096 0.21463065
-0.092192665 -0.05550595 0.12022173 0.72760177 0.35735515 -0.58557063 0.20195691
-0.086258255 -0.057939183 0.12505677 0.55928141 0.3166869 -0.76610291 0.1950001
-0.05420671 -0.053493995 0.12485675 0.71521723 0.58485681 -0.38263133 0.23468518
-0.044820476 -0.058581911 0.12802972 0.77696174 0.55855727 -0.29042092 0.19247843
0.047966368 -0.057255622 0.12658584 -0.63269681 0.6749025 -0.3797386 0.18819006
0.052664116 -0.055747036 0.1235347 -0.65344572 0.63454473 -0.41274881 0.21383938
0.085744411 -0.056896448 0.12652558 -0.64820218 0.29957959 -0.7000615 0.21440119
-0.092370853 -0.041868031 0.12841806 0.69767541 0.29070264 -0.65478319 0.19474547
-0.061076626 -0.045342945 0.12418583 0.82754511 0.33443359 -0.45091382 0.22074217
-0.058922518 -0.04706683 0.1252894 0.74410081 0.42281744 -0.51724225 0.2254166
0.057505831 -0.049494985 0.12469656 -0.66765571 0.62148148 -0.40987387 0.21320963
0.062188245 -0.044314954 0.12375718 -0.69312942 0.58797538 -0.41696113 0.21464598
0.094429746 -0.044613723 0.12406847 -0.67774999 0.47694743 -0.55962133 0.22896886
-0.09663415 -0.034771495 0.12659055 0.73285586 0.38161853 -0.56328464 0.18580456
-0.071651816 -0.031116556 0.12076047 0.73735464 0.59760588 -0.31492129 0.19952056
-0.066623442 -0.036877178 0.12484527 0.70544577 0.5704928 -0.42057618 0.21098991
0.06454739 -0.038088158 0.12655801 -0.79530185 0.49973536 -0.34316111 0.19176282
0.070746735 -0.033002526 0.120952 -0.87265074 0.40368924 -0.27480105 0.20325486
0.097758077 -0.032202117 0.12655915 -0.655963 0.31468982 -0.68606329 0.19797598
-0.10452215 -0.023378186 0.12066607 0.73939997 0.19090322 -0.64563429 0.19023652
-0.098437123 -0.029946275 0.12698975 0.74223465 0.32378572 -0.58672869 0.1970446
-0.07480064 -0.022328373 0.12152016 0.84235752 0.19435498 -0.50265306 0.22150764
-0.06793379 -0.026387602 0.12953642 0.79410458 0.38139206 -0.47322085 0.20772566
0.072916582 -0.022594718 0.12426221 -0.91975272 0.26400813 -0.29043862 0.21793
0.098756142 -0.025024628 0.12850045 -0.70351505 0.049564019 -0.70894998 0.18824987
0.1030058 -0.025452392 0.12245128 -0.77869743 0.052197892 -0.62522447 0.16461901
-0.10181731 -0.016115757 0.12601276 0.75560969 0.14827923 -0.63801831 0.19055226
-0.073445037 -0.015279277 0.12627314 0.92990333 -0.043844316 -0.36518145 0.19411656
0.074610114 -0.014499241 0.12451064 -0.89964628 -0.097722463 -0.42554307 0.23228507
0.099290319 -0.016893689 0.12931286 -0.58685702 0.046371691 -0.80836171 0.20742674
0.10185394 -0.015695997 0.12606288 -0.65123963 -0.0535229 -0.75698233 0.23261088
-0.1040868 -0.0023927516 0.12535778 0.85942942 0.10206211 -0.50096345 0.1961486
-0.073548771 -0.0013945899 0.1291334 0.88591081 0.035283688 -0.46251172 0.20143259
0.075691111 -0.0043423241 0.12493557 -0.84752762 0.075879917 -0.52529919 0.22502531
0.10393644 -0.0044568121 0.12517802 -0.69805783 0.062534519 -0.71330547 0.21954519
-0.10753694 0.001182735 0.12050401 0.87294734 0.098045558 -0.47785977 0.22827974
-0.077395543 0.0046332716 0.12204436 0.9105829 -0.22595517 -0.34609696 0.22104804
0.075725138 0.0043416535 0.1248793 -0.74300414 -0.069401175 -0.66567892 0.24647279
0.10407895 0.0028669245 0.12523168 -0.75981593 -0.063458979 -0.64703387 0.19406712
-0.104246 0.014352477 0.12281801 0.78554004 -0.07536976 -0.61420381 0.21468377
-0.073823646 0.013332015 0.12607023 0.92740327 -0.24876198 -0.27935752 0.21514484
0.073457547 0.014760441 0.12636571 -0.74816674 0.20439968 -0.63124275 0.225713
0.099827513 0.01463899 0.12901497 -0.59453058 0.043293178 -0.80290663 0.20715749
0.1017676 0.015751209 0.12615444 -0.71906239 0.035099864 -0.6940586 0.19274592
-0.10202599 0.025064496 0.12400414 0.82219142 -0.25428984 -0.50925243 0.16075063
-0.098241419 0.025698967 0.12917615 0.65963918 -0.30712533 -0.68596661 0.15650944
-0.071366876 0.025396125 0.12486415 0.91060919 -0.14006345 -0.3888098 0.21502538
-0.068937853 0.028632347 0.1265469 0.86197352 -0.29050538 -0.41546133 0.23727567
0.068234675 0.026732406 0.12885059 -0.9263109 -0.14810896 -0.34642726 0.21042736
0.072348446 0.023736576 0.12440944 -0.76623023 -0.11707187 -0.6318112 0.24928503
0.098870076 0.025522159 0.1283247 -0.72356123 -0.20164916 -0.66014904 0.17947054
0.10263711 0.023215441 0.12345493 -0.83493453 -0.12112453 -0.53685474 0.15686204
-0.10128351 0.032571964 0.12161977 0.79201639 -0.2005427 -0.57662189 0.19022019
-0.094189078 0.036683042 0.12879868 0.79622442 -0.10469279 -0.59587425 0.19655904
-0.071189381 0.030951004 0.12158149 0.87359309 -0.31271976 -0.37288249 0.24692282
-0.065992378 0.036497828 0.12558328 0.77924174 -0.44729769 -0.43898407 0.23201576
0.067403056 0.035346709 0.12462007 -0.74226153 -0.44538069 -0.50068337 0.24136871
0.070257843 0.032299571 0.12215802 -0.84482926 -0.3670119 -0.38931444 0.24505332
0.096690066 0.036966238 0.12540546 -0.75063771 -0.25903967 -0.60781699 0.18176462
0.1006583 0.034039393 0.12164349 -0.84034282 -0.26378691 -0.47354025 0.17386545
-0.095574304 0.043939434 0.12298581 0.78057182 -0.2240361 -0.58353692 0.18560255
-0.062319744 0.041775029 0.12617011 0.49510109 -0.7011379 -0.51310861 0.22461852
-0.059062194 0.047350898 0.12481476 0.71075594 -0.46382403 -0.52886039 0.23651154
0.059230573 0.044213042 0.12778749 -0.74100393 -0.56061298 -0.36963001 0.22378005
0.064724438 0.043269359 0.12145559 -0.64397138 -0.67628241 -0.35769123 0.24320261
0.089210942 0.048324853 0.12897888 -0.63422477 -0.40960038 -0.65573359 0.16849904
0.092411488 0.044796582 0.1267321 -0.66741091 -0.39079967 -0.63390714 0.20280488
-0.091554336 0.05368245 0.12260218 0.80270016 -0.36811501 -0.46921623 0.17018038
-0.086063571 0.057242014 0.1258591 0.54476362 -0.48239368 -0.68595117 0.19997518
-0.052614894 0.057175569 0.12195721 0.55601645 -0.61592567 -0.55810505 0.24122234
-0.043072999 0.059197314 0.12899303 0.65782666 -0.64105678 -0.39536083 0.20365545
0.047638852 0.058219176 0.12564053 -0.51631224 -0.77327555 -0.36805782 0.21518123
0.051586747 0.055390477 0.12518427 -0.49190009 -0.692119 -0.52820987 0.24311328
0.08558768 0.055531397 0.12790751 -0.67597175 -0.40054083 -0.61857039 0.17542118
0.092317522 0.051888913 0.12267373 -0.66824883 -0.45449713 -0.5889616 0.19851623
-0.081700161 0.062849924 0.1259463 0.55446482 -0.57626802 -0.60040313 0.18648282
-0.077715628 0.066158973 0.12762499 0.55415708 -0.62052405 -0.55485123 0.17842527
-0.044198811 0.062506624 0.12345312 0.67590541 -0.61253715 -0.40981731 0.21238397
-0.034807436 0.066754013 0.12584484 0.40165907 -0.79748791 -0.45020324 0.20911138
-0.028561432 0.067685589 0.12852821 0.40255499 -0.81524694 -0.41631946 0.18737476
0.025319856 0.069343284 0.12804134 -0.44911236 -0.7574262 -0.47392368 0.2163474
0.037526071 0.067375161 0.12310114 -0.29249543 -0.64918554 -0.70214283 0.24857131
0.043918431 0.061685305 0.12482896 -0.53779942 -0.66219497 -0.52179462 0.23816219
0.077596597 0.06895598 0.12527899 -0.54334372 -0.55833918 -0.62692487 0.18656573
0.083518125 0.064233385 0.12261924 -0.63693136 -0.49541149 -0.59066558 0.20243163
-0.074746974 0.072319932 0.12556277 0.59683585 -0.53720653 -0.59598333 0.17034705
-0.065914258 0.079155266 0.12621205 0.51932853 -0.68914199 -0.50535256 0.20029849
-0.026483191 0.07241872 0.12254194 0.26578045 -0.86796409 -0.41952273 0.23482387
-0.013736662 0.073678717 0.12622231 -0.071216501 -0.88351965 -0.46294844 0.20627187
-0.0046348786 0.075208485 0.12567239 -0.10758535 -0.89184421 -0.43936244 0.24093248
0.0019253812 0.076132618 0.12473109 -0.20290069 -0.89123595 -0.4056229 0.20821109
0.014329506 0.076131277 0.12202416 0.10428862 -0.82904404 -0.5493722 0.21864481
0.024954587 0.071965881 0.12422091 -0.19807999 -0.86683702 -0.45755637 0.2122502
0.030847516 0.071522295 0.12113316 0.049501311 -0.69882971 -0.71357316 0.23710054
0.073883861 0.074802488 0.12336943 -0.59027559 -0.58020335 -0.56119412 0.1717684
-0.064481474 0.08308576 0.12290281 0.53806573 -0.57424957 -0.61702716 0.20493926
-0.055294853 0.08809752 0.12513785 0.47723195 -0.62830222 -0.6143989 0.20712873
0.055525176 0.087287843 0.12588772 -0.38448009 -0.6394943 -0.66574931 0.1539793
0.063559711 0.081378184 0.12573354 -0.28795344 -0.71721292 -0.63457745 0.20879471
-0.052312054 0.091578454 0.1237063 0.42775282 -0.73840034 -0.52133721 0.16395906
-0.043338563 0.09304589 0.12664939 0.26282707 -0.68704408 -0.67741597 0.18604621
-0.035270717 0.098220862 0.12417407 0.30985644 -0.74663293 -0.58866638 0.17090811
-0.028174965 0.09808787 0.12836616 0.19027305 -0.76624858 -0.61372566 0.19713172
-0.013029623 0.099598847 0.12956126 -0.097564764 -0.65167195 -0.75219995 0.21318337
0.028614009 0.098664604 0.12739564 -0.11092169 -0.65510952 -0.74734724 0.15054132
0.037622996 0.095163062 0.12693009 -0.36669794 -0.64207816 -0.67325205 0.19682087
0.043715425 0.095508292 0.12320028 -0.44029146 -0.63708901 -0.63266188 0.19574815
0.056369014 0.090989046 0.12093532 -0.49441794 -0.72480214 -0.47980502 0.15050647
-0.032433007 0.10158931 0.1212473 0.23718506 -0.78638512 -0.57038736 0.21539751
-0.026931476 0.10072115 0.12529573 0.26943004 -0.81929481 -0.50612593 0.22929005
-0.015876362 0.10232822 0.12532617 0.20427972 -0.77559888 -0.59725726 0.21387331
-0.0038761175 0.10322124 0.12623747 -0.16922709 -0.70352697 -0.69022608 0.18719614
0.0047085457 0.10419454 0.12473998 -0.27704334 -0.72079444 -0.63537568 0.21004686
0.013868496 0.10391112 0.12340205 0.046698015 -0.73999542 -0.67098892 0.21905383
0.022528639 0.10348175 0.12234563 0.042694554 -0.79089069 -0.61046624 0.2198862
0.032096617 0.10166092 0.12136535 -0.15727045 -0.81996089 -0.55039084 0.14685361
-0.0021724461 -0.10010737 0.13070242 0.1565764 0.71677887 -0.67949384 0.18104786
-0.03135518 -0.093130067 0.13257095 0.29847419 0.71393329 -0.63341326 0.18302974
-0.028673248 -0.091573715 0.13541447 0.23183323 0.70539111 -0.66983336 0.200029
-0.012958619 -0.096160315 0.13375482 0.082813434 0.66674083 -0.74067438 0.18939279
-0.0067062308 -0.09870448 0.13170151 0.15574253 0.70846069 -0.68835151 0.20895301
0.0043830932 -0.092209652 0.13929094 0.034287129 0.7129913 -0.70033401 0.19718735
0.014365903 -0.095918484 0.13371623 -0.11797514 0.74994236 -0.6508981 0.19134603
0.023543552 -0.094428085 0.13400842 -0.20429932 0.5100975 -0.83550119 0.21024503
0.033366017 -0.09411855 0.130467 -0.30185285 0.79296649 -0.52923441 0.22651957
0.042597145 -0.090262294 0.13050468 -0.45235604 0.60606468 -0.65426266 0.20835096
-0.047369022 -0.085634723 0.13334231 0.24979568 0.6076175 -0.75392514 0.17462295
-0.03405837 -0.087636933 0.13714525 0.29495195 0.64179188 -0.70788878 0.22854492
-0.028958507 -0.089016408 0.13787647 0.13644573 0.76940185 -0.62402189 0.19979374
0.019507764 -0.089778453 0.13975511 -0.2200001 0.69920993 -0.68022454 0.18641363
0.020921061 -0.08959429 0.13975312 -0.18988824 0.71309525 -0.67486107 0.18771331
0.035434231 -0.088466555 0.13578035 -0.26511854 0.60806865 -0.74830782 0.20608737
0.047009535 -0.080869555 0.1384581 -0.38282952 0.55805159 -0.73622006 0.19373384
0.053977963 -0.082451895 0.13227949 -0.32378325 0.55798441 -0.76407987 0.18642849
-0.064439125 -0.074804105 0.13190325 0.36520743 0.57297862 -0.7337023 0.2052696
-0.05496572 -0.077127993 0.13642821 0.39854297 0.5508939 -0.73326629 0.16457017
-0.0048762681 -0.071157888 0.13233927 0.12341858 0.91178459 -0.39168438 0.20300533
0.0093343696 -0.07043723 0.13256116 -0.052526873 0.87501818 -0.48123184 0.21044856
0.054062702 -0.075835317 0.13813919 -0.43636689 0.5477618 -0.71382135 0.21814156
0.06320522 -0.073893085 0.1336402 -0.34862152 0.56938815 -0.74448651 0.19103409
-0.074692823 -0.062598392 0.13329282 0.56316292 0.25684479 -0.78541601 0.19658452
-0.066123419 -0.068717957 0.13633528 0.38987699 0.47104478 -0.79127288 0.18948887
-0.059474993 -0.069855765 0.13968095 0.485333 0.50268745 -0.71537215 0.20815882
-0.032093693 -0.06233396 0.13453533 0.47779259 0.66196728 -0.57750642 0.19017078
-0.025668269 -0.064068057 0.13597305 0.44418278 0.75248373 -0.48628172 0.19342087
-0.016291775 -0.066593282 0.1374186 0.20326759 0.88433862 -0.42027086 0.19916235
-0.0031805162 -0.06805779 0.13785262 0.014945202 0.93988192 -0.34117258 0.18691638
0.011991314 -0.067936294 0.13612984 -0.22367968 0.89387792 -0.38852251 0.2082248
0.026885232 -0.064750031 0.13413957 -0.4839125 0.75676161 -0.43947765 0.17867631
0.033344146 -0.06210658 0.13409021 -0.52131003 0.74220914 -0.42114308 0.19266739
0.040161923 -0.060446359 0.13030002 -0.55509096 0.68600541 -0.47039407 0.20451708
0.066340797 -0.067172945 0.13735925 -0.35212746 0.59782416 -0.72014761 0.18345846
0.070474103 -0.063468367 0.13657263 -0.52408439 0.29887879 -0.79750043 0.20018479
-0.082140289 -0.054357033 0.13223621 0.59065312 0.43562832 -0.6792326 0.21400213
-0.073712781 -0.057067581 0.13798456 0.51361191 0.41811082 -0.74925709 0.19465922
-0.044085357 -0.053500891 0.13552362 0.56456524 0.68377674 -0.4622938 0.19058307
-0.03614182 -0.059038095 0.13617122 0.58515453 0.66967899 -0.45730102 0.19008993
0.035354674 -0.057363767 0.13928902 -0.47448093 0.84267879 -0.25448045 0.18112707
0.045005575 -0.053400107 0.13472003 -0.59677315 0.68172514 -0.42321691 0.20778309
0.076768063 -0.054032601 0.13737145 -0.63900632 0.43186459 -0.63652486 0.20782426
0.081046022 -0.056427367 0.13180971 -0.54651147 0.40967101 -0.73040736 0.19820566
-0.085093163 -0.047174722 0.13413262 0.67273408 0.25436464 -0.69478589 0.18144393
-0.053692304 -0.045159422 0.13417548 0.67491913 0.54842871 -0.49367002 0.20267721
-0.048671536 -0.048417144 0.13733396 0.67532086 0.54729718 -0.49437603 0.18612224
0.049403962 -0.046539254 0.13846269 -0.60370839 0.65923101 -0.44827506 0.18230885
0.054572079 -0.046854999 0.13128032 -0.73389226 0.56762409 -0.37310177 0.1879404
0.085356928 -0.0428936 0.13566513 -0.65423238 0.31039652 -0.68966216 0.19156867
-0.090871118 -0.037907429 0.13204527 0.65023267 0.29214022 -0.70132124 0.21409823
-0.06153354 -0.037396468 0.13167383 0.73037654 0.52949226 -0.43149519 0.21489789
-0.056140039 -0.038703971 0.13750187 0.76602155 0.59311974 -0.24783048 0.16180749
0.05785697 -0.037623275 0.13632341 -0.75186294 0.55917722 -0.34931776 0.15954109
0.063385174 -0.031199085 0.13348719 -0.7604773 0.46648487 -0.45173687 0.20478708
0.088405505 -0.03746267 0.13499656 -0.5838728 0.33044457 -0.7415517 0.2060826
0.09328445 -0.032650352 0.13177288 -0.6040113 0.27606723 -0.74763441 0.21262953
-0.093897246 -0.02662009 0.13385428 0.70624459 0.26065874 -0.65823674 0.1943893
-0.088903628 -0.028588012 0.13813812 0.60371131 0.43044457 -0.67100686 0.20627634
-0.062335774 -0.026930874 0.13784266 0.91545367 0.35369065 -0.19195701 0.16880479
0.065656446 -0.023125485 0.13514592 -0.82912797 0.41153863 -0.37839484 0.18576112
0.089096911 -0.028774712 0.13787211 -0.6628831 0.14854519 -0.73383951 0.20485559
0.094627671 -0.024349889 0.13348289 -0.58822066 0.098242573 -0.80271095 0.20874326
-0.09381327 -0.013617178 0.13631698 0.57481682 0.0061820997 -0.8182587 0.20146036
-0.07033135 -0.01866477 0.13069923 0.89073366 0.18408848 -0.41557792 0.19553627
-0.067823187 -0.015042653 0.13555565 0.91292894 0.113924 -0.39189541 0.18355592
0.067452192 -0.01403631 0.13640754 -0.91972774 0.15667476 -0.35993576 0.19130854
0.070103943 -0.017556565 0.13131852 -0.8648333 0.19515391 -0.46257785 0.20733382
0.094900906 -0.016354788 0.13449882 -0.63362908 -0.066365816 -0.77078509 0.18973616
-0.1006794 -0.00199236 0.13002294 0.7178002 0.069557749 -0.69276589 0.19300146
-0.094515644 -0.0040560951 0.1368634 0.60343444 -0.083620429 -0.79301614 0.20695867
-0.071283847 -0.0026928522 0.13260733 0.79204428 0.040821012 -0.6090973 0.20012844
-0.067083366 -0.0044127307 0.1392002 0.88566583 0.024342785 -0.46368462 0.18574633
0.068221539 -0.0045519215 0.13728161 -0.92045349 -0.014475277 -0.39058402 0.1551073
0.071479753 -0.0011449825 0.13262038 -0.85529268 -0.023034444 -0.51763308 0.18945765
0.095049515 -0.0051706461 0.13617669 -0.62141776 0.10095892 -0.7769475 0.20414147
-0.10004107 0.00048631223 0.13105994 0.60685736 0.015326345 -0.79466295 0.21989071
-0.098148741 0.0056354422 0.13251424 0.52183288 0.0090537705 -0.85299975 0.18485391
-0.070983112 0.0044721286 0.13271761 0.88094711 -0.23828559 -0.40884238 0.20043081
-0.069180198 0.0076949685 0.13500473 0.87974024 -0.18244815 -0.43905547 0.19606999
0.067538381 0.0088412445 0.13747823 -0.93817627 -0.098956913 -0.33171195 0.16733778
0.070558399 0.0076503018 0.13272819 -0.91547191 -0.17725801 -0.36123505 0.18060111
0.09626174 0.0067152805 0.13452102 -0.56240261 0.075643376 -0.82339621 0.18684426
0.10003444 0.0042199586 0.13045871 -0.69863093 -0.056521907 -0.71324617 0.22341803
-0.095727302 0.015539067 0.13384743 0.628959 0.0078234859 -0.77739912 0.15914275
-0.071065903 0.012927491 0.13073364 0.8943004 -0.091447406 -0.43802315 0.1960768
-0.067864798 0.012288019 0.13618387 0.9235236 -0.095215201 -0.37153491 0.1713641
0.069148503 0.014774233 0.13351133 -0.87320691 -0.20643169 -0.44146988 0.19376694
0.070341848 0.018634416 0.13059376 -0.75286412 -0.17668283 -0.63401794 0.21999174
0.095271684 0.013156183 0.13462228 -0.57640886 -0.051612303 -0.81552988 0.18822344
-0.092767097 0.022992253 0.13584052 0.63346845 -0.11681595 -0.76489979 0.20138572
-0.088989019 0.029086549 0.13785127 0.64847654 -0.11333648 -0.75275028 0.19408403
-0.064202718 0.025589356 0.13581564 0.86334908 -0.20593123 -0.4606742 0.21495423
0.065249562 0.026167674 0.13382699 -0.77392656 -0.28355214 -0.56624717 0.20619595
0.089963578 0.022380248 0.13916087 -0.56125426 -0.11624216 -0.81943971 0.19202842
0.096078217 0.025614671 0.13148746 -0.59691817 -0.14389277 -0.78929311 0.1762652
-0.090808712 0.032027412 0.13485883 0.74515539 -0.18516575 -0.64066935 0.20325229
-0.087297462 0.035559863 0.13687839 0.74331665 -0.17266721 -0.64627117 0.23013416
-0.061200991 0.035744708 0.13343504 0.66011059 -0.45087311 -0.60080564 0.20334873
-0.057695955 0.034887712 0.13908142 0.77710289 -0.43687314 -0.4530485 0.18463458
0.057325646 0.038525775 0.13610956 -0.76637775 -0.54700732 -0.33682057 0.19516608
0.06235718 0.034809813 0.13213828 -0.78255498 -0.46591246 -0.41295674 0.20841418
0.088573404 0.034998823 0.13585262 -0.54699397 -0.27239063 -0.79158121 0.18226235
0.093644291 0.033724375 0.13084349 -0.58385044 -0.14251639 -0.79925448 0.16091931
-0.086742423 0.040727496 0.13532001 0.58005571 -0.36701781 -0.72720927 0.18257213
-0.078843683 0.04953986 0.13852932 0.5468238 -0.37985292 -0.74612027 0.20203537
-0.0537108 0.044069648 0.13526116 0.65552747 -0.56364256 -0.5025841 0.18588148
-0.049905024 0.045948036 0.13839993 0.64215559 -0.59965032 -0.47755176 0.17940924
0.048258133 0.049282379 0.13687336 -0.62789994 -0.65231621 -0.42452946 0.1947128
0.051756173 0.048074588 0.13377629 -0.76158112 -0.52881265 -0.37463501 0.21284728
0.079077415 0.048113003 0.13925633 -0.64808649 -0.33386365 -0.68448448 0.19089721
0.084361255 0.044086248 0.13628876 -0.63852364 -0.20831315 -0.74087328 0.17964944
0.090040997 0.041651689 0.13121283 -0.47656029 -0.33440918 -0.81305647 0.16832159
-0.081827968 0.056039196 0.13132973 0.54745698 -0.4542473 -0.70281595 0.19108889
-0.076596856 0.05579811 0.13637246 0.53567201 -0.40008456 -0.74363148 0.16898452
-0.052102208 0.050372951 0.13097583 0.64375442 -0.62771702 -0.43766624 0.18896139
-0.045703106 0.052622717 0.13504171 0.66851449 -0.59612221 -0.44466466 0.17504652
0.035517767 0.058671948 0.13726711 -0.55178672 -0.74537283 -0.3741 0.19287613
0.043030117 0.054133855 0.13575844 -0.59135067 -0.70207959 -0.39672223 0.18447714
0.077509269 0.056707628 0.13490352 -0.53786391 -0.34618476 -0.7686733 0.15363665
0.082439348 0.052113723 0.13371101 -0.56141382 -0.21730991 -0.79849291 0.15918915
-0.074071646 0.064298727 0.13270202 0.54810011 -0.42319512 -0.7214514 0.21245252
-0.06428048 0.066204123 0.13942419 0.46892005 -0.59800893 -0.64999944 0.21186346
-0.034626201 0.060301542 0.1360599 0.51488304 -0.72447538 -0.45829123 0.17248788
-0.025080642 0.065235235 0.13454513 0.26991615 -0.80976224 -0.52098989 0.18391228
-0.015748499 0.06848868 0.13405438 0.17941061 -0.88766849 -0.42409486 0.18648951
-0.0045429105 0.068809323 0.13630851 -0.044400733 -0.9239037 -0.38004026 0.16080298
0.001226092 0.067868955 0.13859299 -0.10509989 -0.90679979 -0.40825009 0.15084335
0.015529174 0.067243844 0.13650617 -0.063782595 -0.94885635 -0.30919772 0.17951664
0.024830217 0.065803573 0.13382697 -0.31685615 -0.85859406 -0.40301171 0.18653674
0.035963971 0.061334237 0.13309674 -0.44227293 -0.81256038 -0.37965801 0.20562129
0.066069171 0.066826545 0.1377012 -0.4863053 -0.39795697 -0.7779057 0.17249297
0.072067454 0.064770959 0.13435644 -0.45509037 -0.51425576 -0.72693461 0.17474724
-0.061372906 0.074669734 0.13422041 0.51023328 -0.54679292 -0.6638369 0.21124236
-0.056898337 0.074613743 0.1373338 0.33354816 -0.43986791 -0.83382362 0.20830782
-0.049030729 0.078121573 0.13946867 0.39871982 -0.5414933 -0.7401402 0.19836687
-0.006847003 0.070867084 0.13239151 0.18661693 -0.91853136 -0.34853154 0.18004176
0.0046492582 0.071464404 0.13188061 -0.19890945 -0.90042955 -0.38686118 0.18293297
0.012856097 0.070806056 0.13118038 -0.12031019 -0.90274364 -0.41301256 0.19162472
0.056252372 0.076468378 0.13598055 -0.33121395 -0.54418623 -0.77081674 0.18330562
0.062609419 0.073418356 0.13454346 -0.2382782 -0.64630133 -0.72492629 0.15831976
0.071710967 0.070668891 0.13022992 -0.56783628 -0.48976701 -0.66158158 0.20866093
-0.056091625 0.081062309 0.1320492 0.49506328 -0.64690399 -0.58002371 0.21269299
-0.045834702 0.084745802 0.13501064 0.22663389 -0.56427729 -0.79386908 0.18922442
-0.036705837 0.084967442 0.13870223 0.37412262 -0.62732702 -0.68300295 0.20900695
-0.025249083 0.088488974 0.13990533 0.098472044 -0.52409941 -0.84594506 0.2042812
0.028976291 0.088028006 0.13884097 -0.19063465 -0.6731047 -0.71455467 0.19402114
0.035601966 0.087347813 0.13681188 -0.17554115 -0.60094988 -0.7797721 0.22954531
0.043550882 0.084052712 0.13681437 -0.45693815 -0.54026031 -0.70663017 0.20765533
0.051716927 0.083524525 0.13283879 -0.41648674 -0.58954263 -0.69208252 0.1693126
-0.03159726 0.093479976 0.13204315 0.15598914 -0.55575901 -0.81657779 0.19620511
-0.026081175 0.093955539 0.13373525 0.17305739 -0.62310213 -0.76275474 0.2017092
-0.014556679 0.09473861 0.13502268 0.11141475 -0.67905414 -0.72558409 0.19817071
-0.005046858 0.099438503 0.1310627 -0.083508298 -0.64650542 -0.75832522 0.18938668
0.0046571302 0.096891366 0.13424949 0.037441183 -0.60832858 -0.79280168 0.21119799
0.014033114 0.095275126 0.13455313 -0.059841495 -0.63871998 -0.76710874 0.18616162
0.024810022 0.091614217 0.13692604 0.11048201 -0.67490476 -0.72958702 0.19462655
0.03449215 0.093407959 0.13074923 -0.080327511 -0.54771066 -0.83280283 0.2046753
-0.013865254 -0.090247735 0.14004366 0.13474499 0.73741603 -0.66186202 0.18629479
-0.0036882944 -0.090439066 0.14117713 0.015372363 0.71398842 -0.69998872 0.17280042
0.0065784012 -0.090884484 0.14038394 0.042939316 0.75158834 -0.6582334 0.1844278
-0.034154944 -0.08089523 0.14329766 0.36643255 0.70800579 -0.60370106 0.19772907
-0.023426887 -0.085301012 0.14303963 0.21571882 0.62702245 -0.74853748 0.17264552
-0.016710555 -0.085402958 0.14416312 0.21376014 0.67014265 -0.71078509 0.20384172
-0.0034698616 -0.085513711 0.14577341 0.0039201416 0.72494251 -0.68879819 0.18506753
0.0056375288 -0.086606316 0.14454734 0.032504782 0.72403955 -0.6889922 0.18444
0.017480334 -0.085461274 0.14406389 -0.084423095 0.65773672 -0.74850184 0.19498354
0.023642296 -0.086482473 0.14203691 -0.18805972 0.67853129 -0.7100907 0.19533068
0.033625457 -0.082367159 0.14224845 -0.3823421 0.66357404 -0.64302719 0.19457231
-0.055333655 -0.071308114 0.14104621 0.45070386 0.4932099 -0.74404979 0.18931226
-0.047102116 -0.075174436 0.14283906 0.39872494 0.57752997 -0.71237469 0.18938017
-0.03526286 -0.077274002 0.14603131 0.35054272 0.64551723 -0.67854792 0.20421945
-0.028153202 -0.077787206 0.14839347 0.23731475 0.79467332 -0.55872715 0.18412581
-0.017007725 -0.079907134 0.14972936 0.14830108 0.74653947 -0.64860278 0.18212552
0.037478402 -0.077037796 0.14537573 -0.45355666 0.63949317 -0.62075347 0.19824201
0.04458677 -0.073533095 0.14539185 -0.47499231 0.59498888 -0.64835984 0.18509044
-0.062147707 -0.064133905 0.14243141 0.54730886 0.34258217 -0.76360357 0.20172521
-0.054406762 -0.065844998 0.14568387 0.61699104 0.44420192 -0.64962035 0.19237506
-0.043146864 -0.069356233 0.14990367 0.3093819 0.77089345 -0.55678207 0.18964852
-0.01556528 -0.062278569 0.14501582 0.23933898 0.90236074 -0.35841587 0.16314594
-0.0015134951 -0.064186335 0.14463934 -0.013627034 0.87225741 -0.48885724 0.19662833
0.0038639598 -0.064290121 0.1446604 -0.068383865 0.85150462 -0.51986873 0.19938333
0.018604035 -0.062322214 0.14337333 -0.28523481 0.91541415 -0.28400356 0.17815638
0.025310123 -0.060944274 0.14103153 -0.4541398 0.80535728 -0.38099447 0.18611017
0.049348492 -0.067885399 0.14693658 -0.73010558 0.53543842 -0.42456046 0.21568872
0.056308955 -0.064996883 0.14524877 -0.47558561 0.61441046 -0.629538 0.20308842
0.063030377 -0.061572887 0.14358734 -0.52375501 0.52343446 -0.67208415 0.19100018
-0.064392127 -0.055291969 0.14619131 0.65579993 0.43886438 -0.61426741 0.19374692
-0.037755709 -0.05204007 0.14442892 0.52401727 0.68015558 -0.51263463 0.18739028
-0.0243627 -0.057557732 0.14775054 0.39503777 0.85607451 -0.33328912 0.16064216
0.026455333 -0.058239978 0.14485985 -0.40308663 0.89602596 -0.18616836 0.17126724
0.035184529 -0.054069493 0.14414124 -0.59332412 0.73208946 -0.33468115 0.16617996
0.05663947 -0.059925262 0.14907146 -0.65741712 0.63819546 -0.40063614 0.19738325
0.066665955 -0.054539416 0.14495373 -0.61878026 0.51759619 -0.59093583 0.18240327
-0.0758688 -0.04486363 0.14353956 0.54727411 0.50648463 -0.6663065 0.19928916
-0.068642072 -0.04567688 0.14879625 0.59692967 0.6347369 -0.49069744 0.18802999
-0.051865652 -0.041584704 0.14024171 0.72340012 0.6193791 -0.30506045 0.16079295
-0.047410466 -0.042983893 0.14526834 0.66978574 0.65158081 -0.3561314 0.16642413
0.04537046 -0.044777751 0.14499471 -0.69681031 0.68415892 -0.21536472 0.14937642
0.052164573 -0.040581282 0.14086698 -0.72352916 0.5956248 -0.34890777 0.16623513
0.069743469 -0.044254251 0.14878741 -0.77118737 0.46510622 -0.43467939 0.20389597
0.074836701 -0.044753607 0.14437443 -0.75052547 0.39065403 -0.53301132 0.20077337
-0.083941974 -0.034691975 0.14052586 0.77038133 0.2600545 -0.58213776 0.2098777
-0.076444276 -0.033882767 0.14742547 0.76736188 0.44601756 -0.46067804 0.22209489
-0.053302053 -0.035543684 0.14477262 0.76985365 0.59887141 -0.22063199 0.15334851
0.053906191 -0.035559505 0.14367035 -0.77442724 0.58413351 -0.24300313 0.16201182
0.074981034 -0.035357133 0.14818168 -0.75704712 0.43627182 -0.48636055 0.2069051
0.08262644 -0.033427998 0.14209981 -0.74303234 0.40032697 -0.536322 0.20546436
-0.08237613 -0.024702527 0.14531037 0.78556103 0.19457047 -0.58739787 0.20820805
-0.079142712 -0.028268784 0.14689371 0.77973706 0.33527806 -0.52877104 0.22791462
-0.060230751 -0.022162614 0.14415021 0.88662237 0.34765065 -0.30502433 0.17780057
-0.058251783 -0.024242559 0.14617676 0.86854357 0.36945558 -0.33035541 0.1626216
0.058487207 -0.022160714 0.14757262 -0.90450025 0.33170101 -0.26805529 0.15890996
0.062824227 -0.021679735 0.14045011 -0.8809827 0.36673692 -0.29895428 0.16413437
0.077469364 -0.029444668 0.1481404 -0.75710577 0.20579255 -0.62003249 0.20285359
0.083357371 -0.024321724 0.14460401 -0.77910912 0.16152941 -0.60572046 0.21339741
-0.090239964 -0.010575244 0.14050883 0.69716734 0.016176397 -0.71672589 0.1839579
-0.084726892 -0.012992059 0.14527594 0.64329177 0.092723921 -0.75998557 0.18746956
-0.062318515 -0.013778716 0.14508143 0.96050042 0.17579474 -0.21571995 0.16396061
0.061927587 -0.016996151 0.14521532 -0.94537598 0.2134795 -0.2463548 0.15691745
0.088374168 -0.011596899 0.14209741 -0.78505516 -0.012873516 -0.61929208 0.20549387
-0.085754439 -0.0043984884 0.14547279 0.74737668 -0.13135876 -0.65128565 0.20580642
-0.062508702 -0.0080732545 0.14719656 0.94226259 0.0017161611 -0.33487067 0.16172531
0.065617204 -0.0062790439 0.14122494 -0.95839691 0.0099541554 -0.28526533 0.15860888
0.085306413 -0.0070760562 0.14549243 -0.73247153 -0.022937838 -0.68041116 0.20621412
-0.090800844 0.0035806501 0.14086482 0.58842885 -0.018887082 -0.80832839 0.20238885
-0.085983217 0.0054969788 0.14504121 0.76224142 -0.0041370024 -0.64727956 0.21254613
-0.064364448 0.0084605552 0.1428268 0.92993158 -0.18207438 -0.31949368 0.16440704
0.062026814 0.0068092775 0.14903352 -0.97421676 0.019169705 -0.22479841 0.14458241
0.086038634 0.0069307745 0.14487603 -0.66869807 -0.015222284 -0.74337828 0.1833625
-0.086345263 0.01642918 0.1434121 0.66327035 0.0055571194 -0.74835926 0.19009297
-0.063335203 0.014759652 0.14304416 0.89978355 -0.25400919 -0.35478017 0.17710114
-0.059793424 0.019072857 0.14729272 0.91836667 -0.28693113 -0.27253109 0.16025193
0.059804603 0.018921209 0.14782593 -0.93305784 -0.2010498 -0.29829848 0.15685022
0.061968762 0.014302666 0.14596246 -0.91752595 -0.24598262 -0.31247181 0.17132191
0.084197409 0.014771554 0.14560729 -0.78934783 -0.054016307 -0.61156541 0.21772763
