# .PCD v0.7 - Point Cloud Data file format
VERSION 0.7
FIELDS x y z normal_x normal_y normal_z curvature
SIZE 4 4 4 4 4 4 4
TYPE F F F F F F F
COUNT 1 1 1 1 1 1 1
WIDTH 570
HEIGHT 1
VIEWPOINT 0 0 0 1 0 0 0
POINTS 570
DATA ascii
0.075036213 0.098237887 0.01504759 -0.59402221 -0.78867751 -0.15850981 0.0014497932
0.08473371 0.091211177 0.012986931 -0.67681158 -0.72019273 -0.15247487 0.001930615
-0.072056815 0.10132685 0.011055782 0.58669281 -0.79539466 -0.15211475 0.0013904477
-0.064852454 0.10612561 0.014450669 0.51524591 -0.8419649 -0.16005242 0.00210222
-0.058912896 0.10884792 0.018238552 0.47300738 -0.86602789 -0.16204862 0.0020642409
0.057080723 0.10980545 0.017088465 -0.45323318 -0.87852526 -0.15090741 0.0017760402
0.065378979 0.10531709 0.016612547 -0.52642578 -0.83496302 -0.16035199 0.0017343591
0.071709931 0.10110538 0.013480533 -0.58415413 -0.79656643 -0.15571102 0.0013029272
-0.05449719 0.1112481 0.01493151 0.43983784 -0.88522506 -0.15139103 0.0020573693
-0.045369193 0.11486605 0.015875274 0.35900196 -0.91926557 -0.16145733 0.00095149508
-0.036257204 0.11869206 0.015575953 0.29890782 -0.94089615 -0.15927492 0.0017300713
0.036844987 0.11841515 0.015769605 -0.29583591 -0.9423213 -0.15656173 0.0019714553
0.045059338 0.11492181 0.016295644 -0.37262037 -0.91435033 -0.1584852 0.0011756232
0.053408038 0.11162969 0.015334196 -0.43496671 -0.8868264 -0.15602179 0.0021384771
-0.026829533 0.12064701 0.018179338 0.23165455 -0.95915514 -0.16235024 0.0018145947
-0.013953122 0.12274456 0.015679264 0.1092365 -0.98217165 -0.15299077 0.0013043421
-0.0040982957 0.12376157 0.01742175 0.01511909 -0.98751032 -0.15682705 0.0019741377
0.0060793925 0.12379881 0.015569691 -0.051586438 -0.98699671 -0.15223724 0.001513188
0.015266316 0.12273166 0.014685258 -0.10906505 -0.9823938 -0.15168133 0.0012869751
0.025258515 0.12145269 0.014458249 -0.20814717 -0.96548188 -0.15658705 0.0024087683
0.031353358 0.12054836 0.015091565 -0.25576863 -0.95435971 -0.15420787 0.0027803115
-0.022547713 -0.12042829 0.023041328 0.18432173 0.96841681 -0.16791189 0.0019375304
-0.014679755 -0.12122246 0.024543151 0.093505561 0.98152745 -0.16691457 0.0014155972
-0.004582135 -0.12213677 0.027122386 0.032011922 0.98445857 -0.17267461 0.0015810484
0.0051292679 -0.12227107 0.025837393 -0.040189926 0.98580629 -0.16300485 0.0018779922
0.013962745 -0.12105767 0.026153613 -0.10441788 0.98042637 -0.16691642 0.0016291529
0.025242973 -0.12025675 0.021902317 -0.22572364 0.96003699 -0.16546242 0.0018508753
-0.05159232 -0.1105901 0.02570886 0.41877866 0.89152062 -0.17267142 0.0021042929
-0.045400441 -0.1135359 0.023502434 0.37751561 0.91196561 -0.16062586 0.001547028
-0.035003535 -0.11747899 0.024795841 0.28209585 0.94369143 -0.17282477 0.0017398539
-0.027500719 -0.11914182 0.026978582 0.23890333 0.9552778 -0.17426841 0.0019947228
0.019413209 -0.11989497 0.028919723 -0.16889368 0.96970683 -0.1764755 0.0020592248
0.027593043 -0.11935534 0.025581032 -0.23512989 0.95730013 -0.16819738 0.0018559232
0.035939313 -0.11718097 0.025088085 -0.29311234 0.93999326 -0.17463601 0.0016865291
0.047414381 -0.11237308 0.025405271 -0.37503648 0.91228205 -0.16458769 0.0018594997
0.052769143 -0.11033943 0.024337765 -0.42518479 0.88959807 -0.16683309 0.0025087933
-0.070046611 -0.10041855 0.023242023 0.55168635 0.8161881 -0.1716949 0.001769421
-0.065786391 -0.1031002 0.026162276 0.53719127 0.82632762 -0.16913961 0.001549011
-0.05730135 -0.10807275 0.02659191 0.46937191 0.86572844 -0.17379364 0.0019656969
0.059192352 -0.10735416 0.026217807 -0.4753353 0.86287719 -0.17175359 0.0021568681
0.066401176 -0.10324638 0.023033064 -0.54513633 0.82134885 -0.16796589 0.0018521678
-0.082288317 -0.090828627 0.024219107 0.67187327 0.72119516 -0.16871227 0.0020046986
-0.074786581 -0.096785083 0.023223819 0.59457773 0.78716093 -0.16387507 0.0018958081
0.07437139 -0.096392177 0.026761547 -0.58855951 0.79107571 -0.16672444 0.00094305805
0.081827253 -0.091474548 0.022766486 -0.65523726 0.73736489 -0.16418602 0.001908755
-0.091673702 -0.080881976 0.025382772 0.7360912 0.65532255 -0.16947612 0.001876691
-0.087372318 -0.085730322 0.026836835 0.70507848 0.68764395 -0.17323412 0.0022467801
0.087998897 -0.085397549 0.026000641 -0.70810401 0.6839968 -0.1753197 0.0024206457
0.090464085 -0.082690328 0.024497787 -0.72793245 0.66480958 -0.16775753 0.0018767405
-0.094964154 -0.076979682 0.023910401 0.76952875 0.61606234 -0.16820472 0.0023529474
0.095875427 -0.075311735 0.025743138 -0.77610707 0.60648125 -0.17273749 0.0019969642
-0.10419349 -0.064991526 0.023453826 0.83384985 0.52660328 -0.16547899 0.0017986883
-0.099493161 -0.069514163 0.029855805 0.80266976 0.5701198 -0.17517018 0.0020890676
0.10450763 -0.063987143 0.025696555 -0.8367101 0.52289557 -0.16277719 0.0017605799
-0.11059046 -0.052204877 0.024237534 0.8909716 0.42124325 -0.16948064 0.0021612556
-0.10843255 -0.056728274 0.025883473 0.86845249 0.46648899 -0.16786388 0.0019038236
0.10883651 -0.055315293 0.026927862 -0.87972528 0.4450565 -0.16735651 0.0016722111
0.11036292 -0.051824614 0.026467107 -0.89666921 0.409693 -0.16773786 0.0019713093
-0.11339869 -0.044685967 0.026006673 0.91436553 0.36635715 -0.17238913 0.0017904183
0.11330213 -0.045561131 0.024470635 -0.91079885 0.376636 -0.16908821 0.001163447
-0.1176121 -0.034404527 0.025472639 0.94508886 0.27942437 -0.16949679 0.0020052809
0.1177268 -0.034173757 0.025523933 -0.94342113 0.2831381 -0.17259632 0.0019445264
-0.12031554 -0.022420391 0.023846015 0.97026098 0.17470808 -0.16754317 0.0020247449
-0.11942991 -0.025061851 0.027188392 0.96115357 0.21618365 -0.17160571 0.0016200364
0.11931968 -0.028001761 0.025468219 -0.95505428 0.23667973 -0.17847688 0.0021039124
0.12048349 -0.024289537 0.021273365 -0.96290368 0.21243471 -0.16639733 0.0016432267
-0.12104746 -0.01493025 0.025425589 0.98113865 0.10020489 -0.16530593 0.0011233846
-0.11991259 -0.01946955 0.028764045 0.97199494 0.15849009 -0.17351297 0.0021714058
0.12147041 -0.01324032 0.024179956 -0.98212284 0.093896747 -0.16315025 0.0016045558
-0.12242033 -0.0062274495 0.024014307 0.98529679 0.051439736 -0.16292375 0.0015535301
0.12265969 -0.0040002107 0.024346685 -0.98686445 0.012618604 -0.16105703 0.0022933506
-0.12228009 0.0051953704 0.025727529 0.98468924 -0.030754153 -0.1715849 0.001703187
0.12254965 0.005819649 0.023544412 -0.98594326 -0.050350789 -0.15931323 0.0014791937
-0.12074518 0.014650072 0.027533084 0.98086101 -0.091550343 -0.17184371 0.0016445906
0.12095559 0.014877141 0.026039947 -0.97940463 -0.11764146 -0.16409446 0.0016025895
-0.12013421 0.024428226 0.023330232 0.96014392 -0.22023857 -0.17210063 0.001990766
-0.11935745 0.024122681 0.02840698 0.96114689 -0.20685296 -0.18277997 0.0018905626
0.11984787 0.025678264 0.024086921 -0.9638018 -0.20372255 -0.17199789 0.001878655
0.12032793 0.023646392 0.022766214 -0.96562856 -0.19577695 -0.17097636 0.0020172389
-0.11700406 0.035848849 0.026325438 0.93901557 -0.29737568 -0.1726774 0.0016366538
0.11725267 0.036082502 0.024063872 -0.94251961 -0.2911953 -0.16389672 0.0016776829
-0.11304384 0.04604223 0.024812371 0.90841728 -0.38089398 -0.17233017 0.0014943009
0.11300088 0.046131872 0.024846122 -0.91034913 -0.37692821 -0.17084937 0.0015629726
-0.11061542 0.052421503 0.02357341 0.88972396 -0.42646134 -0.16285586 0.0019968466
-0.10929102 0.054376882 0.026552331 0.87747693 -0.45097664 -0.16326168 0.0015744064
0.10849074 0.056838628 0.025281871 -0.87144578 -0.46217701 -0.16423988 0.0018726612
0.11103919 0.051159564 0.024146318 -0.89592701 -0.41193101 -0.16621628 0.0021662281
-0.10347638 0.066004954 0.023082446 0.82812583 -0.53439361 -0.16920717 0.0016380716
-0.099787459 0.069937065 0.026797846 0.80960864 -0.56288308 -0.16642232 0.002280225
0.10284133 0.066203579 0.025857698 -0.82601076 -0.53814566 -0.16764688 0.001610666
-0.096015841 0.075512312 0.02427962 0.77887338 -0.60398614 -0.16898772 0.0018832696
0.096803904 0.074734293 0.023329642 -0.78113073 -0.60315871 -0.1613518 0.0017634827
-0.090723023 0.082659729 0.023327056 0.72607106 -0.66723049 -0.16620566 0.001851041
-0.086531386 0.086889729 0.025648793 0.69951254 -0.69557637 -0.16387717 0.0023653451
0.08677312 0.08636266 0.027448153 -0.69859356 -0.69443625 -0.17241 0.0023161531
0.091424085 0.081717089 0.023437664 -0.72680944 -0.6676473 -0.16122971 0.0019546347
-0.081958733 0.091365948 0.022804802 0.66675907 -0.72714233 -0.16339009 0.0020371026
-0.076130107 0.095304638 0.025458874 0.6161859 -0.77011311 -0.1650472 0.0021777204
0.07626833 0.095664211 0.023143694 -0.60893124 -0.77623886 -0.16326687 0.0019026177
0.081140466 0.091454238 0.025487851 -0.65490156 -0.73611164 -0.17100734 0.001279315
-0.065492451 0.10330699 0.02599939 0.54106355 -0.82443631 -0.16599739 0.0017530982
-0.05701752 0.10850339 0.024779519 0.45614445 -0.87351948 -0.16998799 0.0018854706
0.055877797 0.10889466 0.025247503 -0.45217279 -0.8758353 -0.16867822 0.0017119669
0.064739518 0.10405749 0.025312226 -0.53814405 -0.82617527 -0.1668393 0.0015422272
0.070470914 0.10044977 0.021467783 -0.5639286 -0.80975336 -0.16212361 0.0018289312
-0.052183867 0.11046349 0.025023088 0.41879699 -0.89244497 -0.16778256 0.0023687545
-0.043362949 0.11418548 0.024627946 0.33984655 -0.92489362 -0.1705173 0.0016204116
-0.03530864 0.11749623 0.02469996 0.27039903 -0.94856423 -0.16465183 0.0018965073
-0.025365736 0.11933497 0.027529741 0.21775483 -0.95985365 -0.17681573 0.001769967
0.026633702 0.11931776 0.026599443 -0.22425024 -0.95853555 -0.17584483 0.001757002
0.03516721 0.11755731 0.024429629 -0.27873224 -0.94504142 -0.17089495 0.0019350293
0.044956345 0.11348915 0.024838286 -0.38870302 -0.90536427 -0.1709543 0.0013686812
0.053994738 0.11034933 0.021340834 -0.43268597 -0.88636839 -0.16472344 0.0015544387
-0.022486709 0.12025079 0.024194209 0.17499456 -0.96877593 -0.17564197 0.0019580014
-0.016912771 0.12092444 0.024568193 0.13204153 -0.97835672 -0.15932122 0.0014780912
-0.0063156756 0.12211265 0.025854131 0.053363722 -0.98561287 -0.16037336 0.001737242
0.0065442496 0.12222884 0.024945153 -0.044442352 -0.98595965 -0.16096105 0.0021313303
0.01482405 0.12114166 0.024927199 -0.10583007 -0.98079127 -0.16385509 0.0012496631
0.02498477 0.12012351 0.022941502 -0.1941229 -0.96628982 -0.16911642 0.0016761682
-0.01199061 -0.12044014 0.031309284 0.090612747 0.97992098 -0.17760679 0.0016739249
-0.0043152142 -0.12092552 0.034051426 0.029932857 0.98367095 -0.17746945 0.0017211514
0.0037767286 -0.12142085 0.031835053 -0.020520337 0.98418289 -0.17596295 0.0018115465
0.012115411 -0.12026367 0.032145072 -0.08611279 0.98026651 -0.17793886 0.0022512882
-0.050151214 -0.11040221 0.030173946 0.40658242 0.8977927 -0.16928993 0.001659676
-0.04614985 -0.11120524 0.034331497 0.38378248 0.90673167 -0.17478187 0.0016621086
-0.035762843 -0.11560305 0.033867422 0.29803854 0.93849599 -0.17435111 0.0020124828
-0.024957443 -0.11761159 0.037165292 0.22030249 0.95892972 -0.17866367 0.0021079602
-0.015295032 -0.11907205 0.036181629 0.12306169 0.97430396 -0.18864679 0.0016229817
0.0088275988 -0.11955537 0.038104136 -0.065754734 0.980564 -0.18485257 0.0019499321
0.015280622 -0.11889466 0.037117951 -0.13361798 0.97311294 -0.18761002 0.0016577942
0.025708206 -0.11827784 0.033169955 -0.21910267 0.95803219 -0.18484674 0.001655306
0.034567129 -0.11564257 0.035990432 -0.27507052 0.94521141 -0.1758167 0.0018298865
0.044651795 -0.11172107 0.034840927 -0.37075305 0.91091728 -0.18102978 0.0016467207
-0.0626963 -0.10366606 0.034279492 0.50818843 0.84188616 -0.18158282 0.0020230578
-0.054665793 -0.10767005 0.034369249 0.4533129 0.87404865 -0.17477512 0.0016442315
-0.049259298 -0.10919254 0.037858091 0.39763847 0.89863622 -0.18530156 0.0013668581
0.054856539 -0.10733604 0.035610117 -0.45114717 0.87215042 -0.18926135 0.0015118255
0.063657001 -0.10280503 0.034796987 -0.51771927 0.8344835 -0.18868999 0.0018114574
-0.080809623 -0.090728834 0.030261144 0.6592623 0.73084551 -0.17674291 0.0018118009
-0.075055525 -0.094158106 0.034381356 0.61925822 0.76544774 -0.17495441 0.0020934741
-0.068086088 -0.098655187 0.037936326 0.55264544 0.81233889 -0.18624884 0.0016486805
0.068242267 -0.098840773 0.036660016 -0.54364526 0.81883091 -0.18429779 0.0017521854
0.075535968 -0.093941592 0.033745535 -0.62076402 0.76451451 -0.1736939 0.0021227375
-0.084653415 -0.086505122 0.034649111 0.68329251 0.7071256 -0.18189204 0.0020723646
-0.079805359 -0.089430228 0.03890755 0.66447741 0.72344184 -0.18735452 0.0020849279
0.0858825 -0.085211307 0.034410719 -0.69595098 0.69431144 -0.18325895 0.0020851803
-0.093670838 -0.07544028 0.035183717 0.7615732 0.62080693 -0.18602417 0.0016105606
0.095315941 -0.073533334 0.034423821 -0.7843883 0.59546745 -0.17364717 0.0017046222
-0.1028084 -0.063889049 0.03403886 0.82948899 0.52974308 -0.17697504 0.0019224738
-0.098643497 -0.0695512 0.033287432 0.806238 0.56458956 -0.17668901 0.0020787178
0.099179283 -0.068722501 0.033705734 -0.82134646 0.54377747 -0.17232545 0.0014359729
0.10203363 -0.064783417 0.034408644 -0.82826519 0.52985519 -0.18229188 0.0017630938
-0.10722586 -0.053922147 0.038029741 0.8711167 0.45527017 -0.18407848 0.0016483456
0.10711741 -0.055530567 0.035315465 -0.87079835 0.45798588 -0.17877151 0.0015561584
-0.11135787 -0.045100421 0.035704058 0.91149896 0.37214604 -0.17514843 0.0016826227
0.10970967 -0.049819283 0.034212921 -0.89601076 0.40409935 -0.18403356 0.0014769093
0.11176604 -0.045040034 0.033839513 -0.90752673 0.38094619 -0.17684814 0.0011769156
-0.11559004 -0.035096411 0.035047393 0.94663435 0.26992646 -0.17613405 0.0017633326
0.11484225 -0.037079714 0.034915302 -0.93948185 0.29099932 -0.18081293 0.0017855479
-0.11761364 -0.02320523 0.038359277 0.9653182 0.1805284 -0.18860099 0.0018452177
0.11804412 -0.024393033 0.035294726 -0.96182841 0.21119945 -0.17401391 0.0019330652
-0.12032899 -0.013781039 0.030658873 0.98028928 0.10033491 -0.1701932 0.0011777605
-0.11899668 -0.013460147 0.037836794 0.97816849 0.09871307 -0.18287191 0.0023890263
0.11854786 -0.014767235 0.039281767 -0.97361827 0.1231638 -0.1920891 0.0016636457
-0.12006254 -0.0038493511 0.038878165 0.98270112 0.036679395 -0.18152995 0.0019819671
-0.11987877 -0.0066193826 0.037933476 0.98077065 0.062121943 -0.18501282 0.0019190961
0.11951672 -0.0094309058 0.037891194 -0.97981501 0.084768519 -0.18104365 0.0017924544
0.12120421 -0.0030628012 0.033457156 -0.98438787 0.01498539 -0.17537384 0.0022451028
-0.12070134 0.005591779 0.034344517 0.98427498 -0.032007806 -0.17371905 0.00240848
-0.11979753 0.007383069 0.037832655 0.98207206 -0.057863913 -0.17940508 0.001961251
0.11979951 0.0066944286 0.038295716 -0.98151463 -0.044327747 -0.18618278 0.0013864042
0.12098091 0.0030284568 0.034646858 -0.98466563 -0.023318594 -0.17288694 0.0020809905
-0.11876357 0.015774198 0.037463196 0.97483045 -0.118466 -0.18886861 0.0017781776
0.11865801 0.016220678 0.037707351 -0.97088963 -0.14844324 -0.18798389 0.0015820917
-0.11793745 0.026385808 0.034481708 0.95592397 -0.23458876 -0.17657159 0.0018140977
0.1183022 0.023930876 0.034264706 -0.96279818 -0.20252681 -0.17889291 0.0020637522
-0.1157367 0.034844756 0.034957513 0.94682634 -0.26813981 -0.17782296 0.0019682769
0.1150338 0.03669706 0.034754455 -0.9306035 -0.31785193 -0.18151379 0.001557998
-0.11157694 0.044990335 0.034859892 0.90859765 -0.37881714 -0.17591992 0.0014594169
-0.10999817 0.049465515 0.033522163 0.90222991 -0.39180854 -0.18018669 0.0014984744
0.10884024 0.049232338 0.039626725 -0.90198523 -0.38743478 -0.19056995 0.0013411461
0.11196674 0.044422407 0.034107774 -0.91549486 -0.35784537 -0.18389095 0.001778009
-0.1068282 0.055365693 0.037055116 0.86775327 -0.4597075 -0.18887383 0.0015499569
0.10691002 0.056480419 0.034410059 -0.8606928 -0.4757517 -0.18129575 0.0019456526
-0.10264512 0.063993573 0.034386005 0.82921243 -0.52826685 -0.18259457 0.0019856475
-0.098671302 0.068370804 0.036956072 0.80777115 -0.56138027 -0.17988329 0.0020650437
0.099537402 0.06765756 0.035623863 -0.81813568 -0.54695243 -0.17747396 0.002094263
0.10248778 0.063197479 0.037481587 -0.83304203 -0.52303159 -0.18021929 0.0020055457
-0.093980394 0.075030997 0.035202529 0.76456225 -0.61944139 -0.17814872 0.0016807453
0.0920619 0.077336513 0.03582684 -0.75043833 -0.63415861 -0.18623932 0.0018751648
-0.090893202 0.080641054 0.030114835 0.73208839 -0.65831846 -0.17510931 0.0014326127
-0.085774988 0.085580558 0.03397676 0.70386904 -0.68598515 -0.1843708 0.0024232289
0.085796081 0.085420929 0.034266997 -0.69297671 -0.69716305 -0.18370332 0.0024933447
0.091044858 0.080200985 0.030892108 -0.74045652 -0.64858252 -0.17625214 0.0019554459
-0.080298364 0.090557739 0.032615364 0.66738361 -0.7230562 -0.17829421 0.0019543534
-0.076023035 0.093161628 0.035442971 0.62619478 -0.75975227 -0.17509019 0.0018540189
-0.068604715 0.098906837 0.035221875 0.56896484 -0.80272985 -0.17861624 0.0020302988
0.06839101 0.098838404 0.036192976 -0.55599868 -0.81278592 -0.17390946 0.0018032028
0.076043934 0.092817277 0.036814891 -0.61719054 -0.76514512 -0.18338168 0.0013572889
0.080185264 0.090463966 0.033369854 -0.66298515 -0.72736478 -0.1771754 0.0016374119
-0.064052947 0.10236336 0.035372991 0.52568841 -0.83069509 -0.1832961 0.0020805364
-0.054681376 0.1075811 0.034770671 0.44323471 -0.87673283 -0.18676905 0.0021851275
0.053593379 0.10782241 0.035789415 -0.44825849 -0.87571913 -0.17938876 0.0018580098
0.064636454 0.10196169 0.035180472 -0.53177708 -0.82720155 -0.18152389 0.0018641033
-0.050347935 0.11010011 0.031247469 0.38299701 -0.90638739 -0.17825592 0.00099644694
-0.045043901 0.11164451 0.034423042 0.37458545 -0.90993094 -0.17807724 0.0011933577
-0.034863874 0.11592932 0.03383594 0.27333942 -0.94604301 -0.17403522 0.0019223173
-0.026638785 0.11794424 0.034272287 0.2286337 -0.95702338 -0.17841783 0.0018697261
-0.015505012 0.11944279 0.034101341 0.12943667 -0.97674429 -0.17092888 0.0025989728
-0.0097176023 0.11950634 0.037748203 0.0739825 -0.98117357 -0.17839551 0.0024106922
0.0070173563 0.11962808 0.038968936 -0.050800435 -0.98160261 -0.18405366 0.0017113268
0.017332623 0.11889005 0.035731219 -0.13220556 -0.97288656 -0.18977211 0.0023233464
0.026902847 0.11758941 0.035943668 -0.22075967 -0.95771807 -0.18450287 0.0018605406
0.033998597 0.11597121 0.035631966 -0.26616907 -0.94736969 -0.17788939 0.0019460949
0.044934154 0.11166496 0.034544751 -0.36268523 -0.91319478 -0.18583529 0.0017900303
-0.011047598 0.12029557 0.032712579 0.071653403 -0.98285574 -0.16988358 0.0019304135
-0.0065882155 0.12043498 0.035050381 0.051065531 -0.98378789 -0.17191184 0.0022210826
0.0056693275 0.12085424 0.033492692 -0.041317318 -0.98451334 -0.17037156 0.002037419
0.01373784 0.12032473 0.03071082 -0.09975674 -0.97912151 -0.17711481 0.0016541767
-0.041450936 -0.11093536 0.045115963 0.34410644 0.91786194 -0.19778837 0.0026113503
-0.036399771 -0.11296977 0.045397483 0.29761732 0.9352867 -0.19147509 0.0017002759
-0.025552573 -0.11608185 0.044744384 0.22459824 0.95668322 -0.18523739 0.0016781675
-0.015998147 -0.11785246 0.042066891 0.1188418 0.97445148 -0.19058065 0.0014725724
-0.0050000921 -0.11851307 0.046178263 0.025930442 0.98091674 -0.19269124 0.0019232391
0.0046742922 -0.11862823 0.045800917 -0.033431292 0.97929043 -0.19968122 0.0015684994
0.016732186 -0.11719806 0.044979535 -0.14699635 0.96988851 -0.19418642 0.0012525729
0.024731804 -0.11595002 0.045997135 -0.19767655 0.95921141 -0.20208262 0.0017403032
0.035962414 -0.11337571 0.044297077 -0.28062505 0.94052702 -0.19146413 0.0018723788
0.043027215 -0.11053419 0.043890923 -0.35415676 0.91622812 -0.18734752 0.0023768572
-0.064474419 -0.10025586 0.042828061 0.53265637 0.82525265 -0.18771037 0.0014874497
-0.055822507 -0.10506263 0.044725839 0.48165306 0.8544296 -0.19483431 0.0019655698
-0.046763137 -0.10835695 0.0469555 0.38667148 0.90199316 -0.19207686 0.0011885397
0.045535672 -0.10889411 0.046815693 -0.38413364 0.9028914 -0.19294672 0.0013395416
0.054217588 -0.10583882 0.044183653 -0.46399739 0.86341435 -0.19804569 0.0016877869
0.060360387 -0.10261057 0.046179768 -0.48502922 0.84954679 -0.20740528 0.0016387871
-0.073869772 -0.092684209 0.044342108 0.62190104 0.75779921 -0.19743213 0.0017443044
-0.067249775 -0.097915001 0.043710839 0.54937625 0.8135277 -0.19067904 0.0018611939
0.067301176 -0.097245857 0.046342101 -0.54070193 0.81868172 -0.19339505 0.0018439979
0.072674394 -0.093282863 0.045673341 -0.61390865 0.7657488 -0.19168973 0.0014198135
-0.083957888 -0.084538728 0.044314556 0.69646275 0.69193065 -0.19018832 0.0022290368
-0.076765381 -0.089600503 0.047943313 0.630243 0.74924046 -0.20354979 0.001425873
0.078623906 -0.088553891 0.046357542 -0.65282845 0.73211789 -0.19446941 0.0024377159
0.084875941 -0.08360076 0.044640537 -0.70652843 0.67906076 -0.19923362 0.0018675326
-0.092363402 -0.073699601 0.046228237 0.75565153 0.62473959 -0.1967008 0.001865343
-0.088886604 -0.0797313 0.041416608 0.72134674 0.66456652 -0.1949622 0.0016620851
0.09286236 -0.073860295 0.043628067 -0.76121545 0.61989474 -0.19047728 0.0020043827
-0.1025976 -0.061102033 0.04385595 0.83784014 0.50975502 -0.19538085 0.0023112348
-0.097718082 -0.067552023 0.043564547 0.81244797 0.55219716 -0.18710046 0.0021437311
0.097148299 -0.067152359 0.047226872 -0.80573767 0.56289518 -0.18421665 0.0020197139
0.10085299 -0.062231492 0.047524523 -0.83533275 0.51201183 -0.20015772 0.0020452605
-0.10685842 -0.051823173 0.044048455 0.88215375 0.42993277 -0.19225658 0.0023412057
0.10584966 -0.055402465 0.041742645 -0.87082297 0.45186082 -0.19362107 0.0014929184
-0.11136705 -0.042037226 0.041833606 0.92450523 0.33097351 -0.18906765 0.0021667865
-0.10881861 -0.045913078 0.046422422 0.89983141 0.38974115 -0.19597295 0.0016277418
0.10865396 -0.046802148 0.045431484 -0.90332288 0.38399947 -0.19118634 0.0013176291
0.11151761 -0.040404461 0.044391945 -0.92556953 0.32674682 -0.19120018 0.0018966607
-0.11501869 -0.032319188 0.043652076 0.94772083 0.25256863 -0.19502385 0.001961747
0.11390427 -0.034434378 0.044719655 -0.93791503 0.29003352 -0.1902522 0.0015610881
-0.11616841 -0.025281953 0.044478446 0.95823509 0.20726904 -0.19704083 0.0018725586
0.11593977 -0.025462015 0.045548651 -0.95594716 0.22356941 -0.19021499 0.0018788959
-0.11736429 -0.014652632 0.045541167 0.97326308 0.12030172 -0.19566935 0.0017631082
0.11721323 -0.016188612 0.045274064 -0.96991485 0.1415471 -0.19806486 0.0012569339
-0.11857297 -0.0057849037 0.045325998 0.97986579 0.048159935 -0.19376172 0.0015136382
0.11869608 -0.0024790163 0.046955824 -0.97885472 0.0066391989 -0.20444851 0.0023465569
-0.11874919 0.0044602607 0.045316458 0.98279554 -0.019750027 -0.18363781 0.0020386446
0.11838654 0.0063117081 0.045937281 -0.97786385 -0.06243483 -0.19971021 0.0021523417
-0.11750143 0.014972944 0.044604875 0.97471923 -0.11417488 -0.19205843 0.001939324
0.11744453 0.013951679 0.045604002 -0.97321129 -0.12663811 -0.19189179 0.0021009741
-0.11599034 0.02663229 0.044480033 0.95792258 -0.22080654 -0.18338166 0.0015601511
0.11663035 0.023674205 0.043171477 -0.96067709 -0.20251861 -0.18996243 0.0017552765
-0.11355437 0.034905065 0.04555757 0.94250977 -0.28002515 -0.18237674 0.0017956679
0.11326858 0.035309687 0.046104241 -0.93612254 -0.29316983 -0.19423212 0.0019766465
-0.11053849 0.041698366 0.04654846 0.91960752 -0.34148756 -0.19418608 0.0022281613
-0.10873768 0.04701585 0.044593442 0.90188777 -0.38699022 -0.19192988 0.0012977924
0.10892427 0.046660285 0.044402041 -0.9026264 -0.38501778 -0.19242367 0.0013303591
0.11061721 0.042560741 0.044427149 -0.91947997 -0.34770212 -0.18346632 0.0023125317
-0.10517712 0.05567782 0.044434071 0.86576319 -0.46355793 -0.18859497 0.0018701247
0.10481762 0.055690531 0.046141718 -0.85850883 -0.47288805 -0.19834167 0.0021525593
-0.10200126 0.06266243 0.04134459 0.82936203 -0.52668405 -0.18644723 0.0016973191
-0.09908247 0.065149009 0.045568246 0.81833607 -0.54191452 -0.19145407 0.0020654355
0.098006859 0.066467226 0.045836046 -0.8136934 -0.55052465 -0.18661635 0.0023455629
0.10187398 0.062236395 0.043242425 -0.83859557 -0.5106315 -0.18977025 0.0022851436
-0.092483066 0.074078605 0.044512995 0.7538321 -0.62610745 -0.19931537 0.0014913172
-0.088870957 0.079164669 0.043298796 0.73679489 -0.64791203 -0.19324407 0.0019176962
0.089272365 0.077038869 0.048437551 -0.7438218 -0.63799322 -0.19923289 0.0014580488
0.090522438 0.076966219 0.043446902 -0.75048894 -0.63085771 -0.19693911 0.0015719682
-0.083999038 0.084361389 0.044742975 0.69759732 -0.69206458 -0.1854845 0.0025817731
-0.079646714 0.087734595 0.04650154 0.66811937 -0.71849805 -0.19333117 0.0025389555
0.078715868 0.08891397 0.044558115 -0.65248764 -0.73209536 -0.19569442 0.0017103114
0.084962107 0.084021218 0.043207243 -0.69464129 -0.69275272 -0.19382264 0.0023550503
-0.075505368 0.091629513 0.043504886 0.62794405 -0.7527321 -0.19768816 0.0018701851
-0.065996438 0.098660991 0.044612214 0.53202266 -0.82489008 -0.19107141 0.0016738838
0.067176893 0.097321957 0.046422549 -0.54384685 -0.81749398 -0.18956323 0.0016547599
0.072941251 0.092351116 0.048711043 -0.62165344 -0.75821912 -0.19659801 0.0015246664
-0.061833333 0.10205454 0.043780368 0.50418979 -0.83898669 -0.20468016 0.0021208392
-0.055240538 0.10539805 0.044215623 0.46743593 -0.8608405 -0.20113999 0.0018200817
-0.04507516 0.10887235 0.047849786 0.37444896 -0.90578383 -0.1983521 0.0017911101
0.046089441 0.10888381 0.045749538 -0.38681018 -0.90290821 -0.18744212 0.0021492818
0.053889923 0.10597205 0.044195756 -0.45295337 -0.86984694 -0.19544685 0.0013161539
0.063819878 0.10069597 0.043087672 -0.52385843 -0.83002591 -0.19138791 0.0020701254
-0.040756058 0.11128026 0.044838253 0.33087742 -0.92508441 -0.18638434 0.0021033359
-0.037162315 0.11251558 0.046070531 0.30150604 -0.93556279 -0.18389249 0.0018024347
-0.024161272 0.11632654 0.044423189 0.20327871 -0.96022284 -0.19144166 0.0017131876
-0.015126297 0.11739516 0.045054376 0.13738647 -0.97021776 -0.19950542 0.0013189284
-0.0054000015 0.11851622 0.045886956 0.027900701 -0.98041421 -0.19496024 0.0017942602
0.0045701098 0.11860627 0.045987237 -0.030255595 -0.98006767 -0.19634637 0.0019224437
0.017707203 0.11697861 0.045455258 -0.15528101 -0.96877074 -0.19331568 0.0022701113
0.021689495 0.11644448 0.045506585 -0.18367307 -0.96283978 -0.19799957 0.0018256191
0.037658166 0.11275116 0.043924775 -0.31764662 -0.92857647 -0.19195396 0.0016869624
0.041863814 0.11068001 0.045526285 -0.34938255 -0.91657573 -0.19447586 0.0020287966
-0.00011574656 0.12027356 0.040343024 0.010527832 -0.98384613 -0.17870614 0.0021782627
-0.034242529 -0.11208284 0.053600337 0.28423458 0.93589139 -0.20812963 0.0021076293
-0.026918564 -0.1138196 0.054950628 0.24024265 0.94982392 -0.200295 0.0019457284
-0.013996229 -0.11559919 0.054608751 0.11415718 0.97244292 -0.20328045 0.0017637378
-0.0050202883 -0.1161854 0.057282027 0.03896676 0.97688627 -0.21017805 0.0019930513
0.0049799653 -0.11690395 0.054080162 -0.045955654 0.97756165 -0.20557563 0.0011588712
0.014730047 -0.11513013 0.056280755 -0.1227654 0.96982223 -0.21065004 0.0014267828
0.024671501 -0.11427961 0.054195255 -0.20131361 0.95762563 -0.2059755 0.0016501978
0.034991883 -0.11178099 0.05357331 -0.29594088 0.93226767 -0.20807709 0.0014988934
-0.060241781 -0.10049371 0.054777145 0.4973568 0.84198231 -0.20905015 0.0019720616
-0.054585006 -0.10291583 0.056622293 0.46218535 0.86065978 -0.21365717 0.0023594124
-0.044807754 -0.10755215 0.054267701 0.38625389 0.8992914 -0.20514148 0.0014067625
0.038251109 -0.10951205 0.057430044 -0.31285697 0.9252612 -0.21450473 0.00143286
0.043847226 -0.10734423 0.056801803 -0.38068017 0.90036696 -0.2107652 0.0014799149
0.054521967 -0.1033797 0.054813161 -0.47300279 0.85557926 -0.21036266 0.0018493612
-0.071279287 -0.091293797 0.057401329 0.61809361 0.75637329 -0.21414873 0.0014079594
-0.065441072 -0.096401855 0.055136509 0.54831451 0.81089455 -0.20445332 0.0021366016
0.066157751 -0.096109897 0.054212041 -0.55231363 0.80944145 -0.19938438 0.0022885613
0.072442375 -0.091065049 0.055017054 -0.62125647 0.75446779 -0.21170439 0.0019138786
-0.084774293 -0.080570981 0.055209059 0.71341473 0.66738218 -0.21363653 0.0018115271
-0.076971732 -0.087404154 0.055683091 0.6426124 0.73598498 -0.21301511 0.00213087
0.077399239 -0.087426111 0.054425754 -0.66509515 0.71968532 -0.19925214 0.0022589257
0.083439909 -0.081985414 0.055671934 -0.70037758 0.68458039 -0.20204198 0.0019384528
-0.091190137 -0.072061241 0.055618316 0.76013792 0.61640763 -0.20550428 0.0017832874
-0.087996125 -0.076655395 0.054423828 0.73473221 0.64504397 -0.20996869 0.0017796969
0.087875344 -0.076133683 0.056300461 -0.73512161 0.64513773 -0.20831107 0.0021715742
0.091879472 -0.071574718 0.054483078 -0.76644349 0.60694849 -0.21018533 0.002217032
-0.10030294 -0.060875867 0.05371457 0.84178865 0.49864987 -0.2067371 0.0020898709
-0.095306881 -0.06671641 0.05555822 0.80386782 0.55679059 -0.20923845 0.0019465837
0.096723892 -0.065219082 0.054599572 -0.81512362 0.54060543 -0.20813268 0.0021048971
0.10060218 -0.060985707 0.052336846 -0.83790034 0.50449115 -0.2083547 0.0020472945
-0.10350981 -0.053974926 0.055226356 0.8610028 0.46436936 -0.20744921 0.0020544988
-0.099522509 -0.059726775 0.059685551 0.84066463 0.49975678 -0.20862906 0.0020177821
0.10335887 -0.054251786 0.05519063 -0.86203831 0.46257216 -0.20716435 0.0018948056
-0.10692415 -0.046225511 0.054421857 0.90013993 0.38400412 -0.2056428 0.0013136688
0.10659343 -0.047354579 0.053859271 -0.89116842 0.40004399 -0.21397111 0.0017293621
0.11013065 -0.040185943 0.051489539 -0.92284781 0.327959 -0.20197715 0.0020477632
-0.1116081 -0.035096578 0.054127783 0.92925602 0.30544636 -0.20781177 0.001790511
-0.10952635 -0.038148444 0.057548106 0.9213208 0.32364881 -0.21545182 0.0019300836
0.10993318 -0.036299028 0.059050843 -0.92363292 0.31962243 -0.21152744 0.0015406088
0.11259457 -0.032076057 0.05521664 -0.94359267 0.26356027 -0.2004216 0.0022475603
-0.11447388 -0.024492174 0.053439807 0.95657146 0.20921887 -0.20297422 0.0019021494
0.11404119 -0.024135739 0.055610318 -0.9589439 0.19782896 -0.20320018 0.0020703271
-0.11559637 -0.015197419 0.053895485 0.96994799 0.13496543 -0.20244791 0.0011729684
0.11516207 -0.015184554 0.055868797 -0.97079116 0.1255295 -0.20446743 0.0018204342
-0.11713297 -0.0030471587 0.054194417 0.97794914 0.025711901 -0.20725457 0.0016425664
0.11695289 -0.0046675047 0.05403972 -0.97698408 0.038240634 -0.20985651 0.0019974106
-0.11638097 0.0045064678 0.056707751 0.97684002 -0.04705504 -0.20873284 0.0023392586
0.11634757 0.0046910332 0.056748658 -0.97619134 -0.035346325 -0.21401189 0.00176568
-0.11555387 0.015315888 0.054032274 0.9676919 -0.1464815 -0.20522092 0.0015297482
0.11502917 0.014425306 0.056914039 -0.96895707 -0.12270731 -0.21462788 0.0018202973
-0.11413226 0.024127724 0.055203106 0.95868331 -0.1954277 -0.20672303 0.001849746
0.11416168 0.025188273 0.054426674 -0.96060938 -0.20323651 -0.189538 0.0020998225
-0.11240903 0.033265367 0.053950291 0.93649167 -0.28170443 -0.20886822 0.0018305586
-0.10984755 0.037779815 0.056843165 0.92710578 -0.3076497 -0.21407129 0.0013980543
0.10902911 0.039808329 0.056751944 -0.92133617 -0.32861313 -0.2077332 0.0021497379
0.11188939 0.034365863 0.05419432 -0.93847442 -0.28146896 -0.20010251 0.002120896
-0.10784832 0.043898884 0.054592371 0.90814537 -0.36528823 -0.20453963 0.001656425
0.1071301 0.04520461 0.055345505 -0.89695877 -0.38722295 -0.21336192 0.0013507897
-0.10303698 0.055978995 0.053685419 0.8542375 -0.47595924 -0.20914374 0.002072426
0.10319322 0.055097066 0.054551046 -0.85800081 -0.46869624 -0.21013924 0.0020605437
-0.096679024 0.065572418 0.053776365 0.8077125 -0.55483395 -0.19939853 0.002155331
0.095700622 0.066329591 0.055214405 -0.80750197 -0.55009061 -0.21293432 0.0023472172
0.10080762 0.060146097 0.053913161 -0.84642565 -0.49073613 -0.2067406 0.0021754024
-0.091619834 0.071250156 0.056310423 0.76795441 -0.60558802 -0.20858847 0.0018266946
-0.086691938 0.07762327 0.056445539 0.72924429 -0.65299147 -0.20446238 0.0021408841
0.088023141 0.075976074 0.056203891 -0.74319166 -0.63631248 -0.20681529 0.0017178726
0.091294564 0.071925439 0.055617414 -0.74937093 -0.62886292 -0.20730305 0.001675063
-0.08205951 0.083436199 0.055296849 0.68593103 -0.70019454 -0.1980565 0.0020287042
-0.077832788 0.087634027 0.052483778 0.64443165 -0.73833334 -0.19892621 0.0020024495
0.078041352 0.086903617 0.054529164 -0.65897083 -0.72217983 -0.21027067 0.0020694535
0.083331838 0.082023621 0.05567088 -0.69341946 -0.69121921 -0.20343399 0.0021508504
-0.071566671 0.091952763 0.054241981 0.62181634 -0.75560433 -0.20592843 0.0015361352
-0.065550819 0.096449524 0.054652218 0.54455525 -0.81174254 -0.21102996 0.0021627301
0.065520585 0.09690544 0.053113699 -0.53445888 -0.82066977 -0.20212552 0.0021280174
0.071198866 0.093335591 0.050184101 -0.59730643 -0.7759009 -0.20298463 0.002589742
-0.055720091 0.10258323 0.055815052 0.47360286 -0.85544306 -0.20956513 0.0018770417
-0.044889819 0.10752586 0.054224756 0.3685118 -0.90588462 -0.20873903 0.0018963503
-0.039203927 0.10917795 0.057176586 0.33167279 -0.91958946 -0.21059062 0.0018630606
0.03885138 0.10897298 0.058644995 -0.32418934 -0.92127204 -0.21484655 0.0018882438
0.045253567 0.10737938 0.054208502 -0.39065108 -0.898148 -0.20179656 0.001903749
0.057280395 0.101767 0.056303978 -0.48231748 -0.85224462 -0.20260565 0.0020601505
0.060776617 0.10022131 0.054281369 -0.50215185 -0.83900118 -0.20957212 0.0022231448
-0.035782322 0.11106494 0.055208135 0.30950597 -0.92696178 -0.21200897 0.0016625699
-0.02752348 0.11408334 0.053396199 0.2153434 -0.95450336 -0.20627807 0.0011891451
-0.016691502 0.11548773 0.053500485 0.16502218 -0.96533316 -0.20223647 0.0017143366
-0.0060111345 0.11676214 0.054092582 0.034929127 -0.97701877 -0.21027172 0.0017936459
0.0051103039 0.11630084 0.056710642 -0.048945796 -0.97602946 -0.21206348 0.0013580887
0.016097352 0.11511011 0.055562407 -0.15710312 -0.96625674 -0.2041239 0.0013545357
0.026395151 0.11365061 0.056028366 -0.22204486 -0.95303148 -0.20597829 0.0014280253
0.035358664 0.11160943 0.05366049 -0.30780941 -0.9277724 -0.21093057 0.0015573095
-0.030698771 -0.11107332 0.063985378 0.26390746 0.93804169 -0.22456792 0.0023203979
-0.024724802 -0.11189636 0.064890765 0.22313869 0.94720268 -0.23025274 0.0018757181
-0.014562182 -0.11373933 0.06262359 0.1129447 0.97038722 -0.21352328 0.0015072114
-0.0067077503 -0.11424806 0.064981833 0.050046913 0.97449672 -0.21874966 0.001989369
0.0054783653 -0.11496145 0.062505886 -0.044182569 0.97578353 -0.21422988 0.0014225401
0.014772289 -0.11325806 0.064660005 -0.11720275 0.96793145 -0.22219843 0.0020661931
0.025066793 -0.11162198 0.065919101 -0.23415686 0.94464594 -0.22981435 0.0020192086
0.031406324 -0.11114179 0.062472895 -0.26037386 0.93961465 -0.22210301 0.0020303684
-0.054297559 -0.1013893 0.063605018 0.47512749 0.85256791 -0.21767381 0.0018710785
-0.045073491 -0.10458662 0.066212937 0.38474822 0.89507836 -0.2253966 0.0011003661
-0.0363077 -0.10842545 0.065343156 0.30633265 0.92520994 -0.22393511 0.0017444384
0.038041376 -0.10774596 0.065181568 -0.32483864 0.91860229 -0.22505474 0.0020929945
0.044668313 -0.10501286 0.065131947 -0.38850555 0.89430159 -0.22200905 0.0019550878
0.051878557 -0.1018259 0.065970145 -0.44184265 0.87045777 -0.21697548 0.0021163493
-0.065183863 -0.093648791 0.065743357 0.56449819 0.79386902 -0.2260837 0.0016882711
-0.057564944 -0.098824769 0.067549266 0.49347535 0.84047091 -0.22380981 0.0020940811
0.059082329 -0.097865246 0.067415357 -0.49547964 0.83907396 -0.22462174 0.0019052757
0.064659715 -0.094242893 0.065053955 -0.54970598 0.80332106 -0.22912587 0.0023869937
0.070821643 -0.090814397 0.060384974 -0.61550349 0.75887644 -0.21274883 0.0018183894
-0.080621995 -0.082959078 0.061589208 0.678361 0.70051014 -0.22161213 0.0017816722
-0.074093252 -0.087090589 0.064743899 0.62773818 0.74596864 -0.22243118 0.0016217617
0.068930998 -0.089962162 0.068657942 -0.59380227 0.76982635 -0.23402193 0.0024691527
0.073423311 -0.087704822 0.064384043 -0.63102615 0.74199265 -0.22639112 0.0024839812
0.083247475 -0.080468774 0.060975555 -0.70697033 0.67649019 -0.2062863 0.0019495628
-0.086001813 -0.075799882 0.063950777 0.73231292 0.64335072 -0.22319868 0.0020277482
0.085920252 -0.075404763 0.065332904 -0.73457593 0.64269441 -0.2175824 0.0024585524
0.090173058 -0.07007353 0.06475094 -0.76139021 0.60871428 -0.22305149 0.0030596799
-0.095284939 -0.063232616 0.065244406 0.82200044 0.52646977 -0.21712895 0.0018030081
0.093189038 -0.065730311 0.065888613 -0.7885989 0.573466 -0.22192025 0.0019629691
-0.10185677 -0.055061132 0.060326323 0.85803503 0.46802509 -0.21149112 0.001934186
-0.098167755 -0.058223102 0.068397813 0.83867353 0.49584582 -0.22530781 0.0020125399
0.098861292 -0.058101226 0.066541627 -0.84149146 0.49169812 -0.22388625 0.0021114638
0.10206454 -0.052977402 0.063067801 -0.85965168 0.46301955 -0.21589774 0.0019304041
-0.10463114 -0.0450566 0.066055909 0.89100993 0.39164171 -0.22960414 0.0014943627
0.10493544 -0.044618461 0.065542147 -0.89701241 0.38029978 -0.22525708 0.0022154299
-0.1112642 -0.03175693 0.061353303 0.9371559 0.2682178 -0.22315471 0.0018033362
-0.10843903 -0.035603859 0.066505954 0.92231452 0.31371367 -0.22565401 0.001497535
0.10873685 -0.036054403 0.064479336 -0.92571491 0.3032746 -0.22600064 0.0019034017
0.11185229 -0.030435704 0.061182514 -0.94199622 0.25063819 -0.22321215 0.0020201912
-0.11182216 -0.025071705 0.06501893 0.94749045 0.2214738 -0.23067549 0.0022452425
0.11204971 -0.024065984 0.06459178 -0.95033973 0.21394123 -0.22601676 0.0021817912
-0.11291622 -0.014583481 0.066306166 0.9673301 0.11942045 -0.2236322 0.0014324402
0.1130782 -0.016238486 0.064600863 -0.96391743 0.14847627 -0.2209478 0.0018315852
-0.11502855 -0.0041139256 0.063011087 0.97566718 0.021556443 -0.21819453 0.0021336193
0.11449225 -0.0040718685 0.065443471 -0.9746179 0.040291626 -0.22021943 0.0016918926
-0.11423691 0.0041388068 0.066550255 0.97366339 -0.028335238 -0.22622275 0.0020434365
0.11449815 0.0047619496 0.06500908 -0.97507656 -0.031911831 -0.21956158 0.0018100018
-0.11343926 0.014783249 0.063840017 0.96731037 -0.11629146 -0.22535956 0.0019087523
0.11306366 0.014678807 0.065587766 -0.9647941 -0.12908457 -0.22914964 0.0014002975
-0.11220283 0.025293009 0.063179135 0.95302027 -0.20639855 -0.22170262 0.0017624687
0.11230729 0.025765428 0.062431011 -0.94773108 -0.232107 -0.21893388 0.0017303831
-0.11045456 0.033174444 0.062284041 0.93378299 -0.28131655 -0.22115687 0.002131226
-0.10786818 0.035884943 0.068406932 0.9235478 -0.30640393 -0.23059957 0.0013065147
0.10865603 0.034901757 0.066814773 -0.92325264 -0.31227636 -0.22380333 0.0015655354
0.11103467 0.03138978 0.062949643 -0.94145972 -0.25716636 -0.21798874 0.002085797
-0.10458204 0.046045776 0.064547285 0.88666421 -0.40270194 -0.22728367 0.0019637437
0.10530273 0.044284601 0.064584211 -0.89595026 -0.38265353 -0.22549793 0.0017312424
-0.10100736 0.054889943 0.064129092 0.85188913 -0.47385633 -0.22303608 0.0020501718
-0.098623127 0.058021039 0.067385875 0.8354615 -0.5024786 -0.22252952 0.0022622882
0.098286569 0.058242105 0.068011865 -0.8326149 -0.50345576 -0.23083466 0.002350681
0.10160827 0.053163026 0.064654835 -0.86551845 -0.45008972 -0.21976584 0.0020000816
-0.095104791 0.063743286 0.064483926 0.81148046 -0.53880399 -0.22625139 0.0014478607
0.09418726 0.064792126 0.064888813 -0.79162002 -0.56699955 -0.22770447 0.0019647935
-0.086386815 0.075244769 0.064097904 0.73261321 -0.64326888 -0.22244754 0.0025682261
0.085868813 0.075148411 0.066224255 -0.72657287 -0.6503045 -0.22180164 0.0023906496
-0.080864333 0.081593201 0.065798715 0.68520993 -0.69138676 -0.2290671 0.0023812309
-0.074370615 0.087061696 0.064083107 0.63167536 -0.74488884 -0.21477205 0.0016191775
0.075648613 0.085719235 0.065382823 -0.64788848 -0.72930694 -0.21989073 0.0026867113
0.080842614 0.081631638 0.065513656 -0.68633169 -0.69190377 -0.22409379 0.0024248431
-0.064322956 0.094207197 0.066110454 0.56100684 -0.79676878 -0.22456811 0.0021010383
-0.058515862 0.098434739 0.066600055 0.49393737 -0.84155637 -0.21865198 0.0021526413
0.058699481 0.098782793 0.064766325 -0.48747459 -0.84375638 -0.22459689 0.0022862742
0.065310821 0.09381555 0.064794362 -0.55189615 -0.80217046 -0.22788836 0.0020905756
0.070536047 0.090429492 0.062554926 -0.60188264 -0.76865619 -0.21657555 0.0019511334
-0.052659146 0.10170124 0.065138966 0.45946863 -0.85976636 -0.22291353 0.0016696618
-0.045542605 0.10509767 0.063262112 0.38573349 -0.89434624 -0.22661516 0.0014152386
-0.03628961 0.10882517 0.063702337 0.30030525 -0.92678428 -0.22558293 0.0017908708
0.039462008 0.10680486 0.066656858 -0.33922866 -0.91347468 -0.22469519 0.0023308492
0.045066737 0.10469393 0.065775707 -0.40756866 -0.8833335 -0.23153761 0.0019727044
0.054697204 0.101405 0.062678613 -0.47476131 -0.85233998 -0.2193587 0.0017938035
-0.0321921 0.11095373 0.061898012 0.26721954 -0.93785006 -0.2214295 0.0021806336
-0.023567015 0.11151239 0.067298867 0.19633085 -0.9557358 -0.21914226 0.0020352476
-0.014623849 0.11297666 0.066010952 0.12334755 -0.96704799 -0.22271866 0.0015925632
-0.0036950016 0.11468302 0.064809807 0.024588058 -0.97384393 -0.22588347 0.0020435515
0.0051812218 0.11471617 0.063782573 -0.032459904 -0.97349763 -0.22638163 0.0020713785
0.015776543 0.11293784 0.065503873 -0.13174479 -0.96555781 -0.22436909 0.0015553692
0.023919446 0.11180454 0.065778904 -0.21257515 -0.95191509 -0.2206115 0.0021063313
0.032484889 0.11100271 0.061185747 -0.27804005 -0.9355759 -0.21769573 0.0020676153
-0.023226792 -0.11047433 0.072080567 0.21250939 0.94679362 -0.24170578 0.0024514033
-0.012475722 -0.11128199 0.074478373 0.084401317 0.96815085 -0.23571238 0.0027504188
-0.0051614312 -0.11191874 0.075785197 0.036130633 0.97182643 -0.23291197 0.0018120708
0.0063254819 -0.11185838 0.075420581 -0.050051369 0.97270894 -0.22656611 0.0023685112
0.0152124 -0.11092456 0.074443795 -0.13229421 0.96314102 -0.23421714 0.0023460034
0.020140551 -0.11124975 0.070502892 -0.17581977 0.95696396 -0.23088387 0.002264003
-0.050833009 -0.10063823 0.072600916 0.43945366 0.8660996 -0.23822668 0.0026716592
-0.046065662 -0.10171851 0.075906932 0.4040224 0.88255483 -0.24054711 0.0017371296
-0.035218544 -0.10617132 0.076050811 0.30739141 0.92203265 -0.23530045 0.0015356606
-0.026123084 -0.10905424 0.076090388 0.22873461 0.9437229 -0.23888814 0.0019589704
-0.016909149 -0.10966938 0.078542963 0.1468433 0.95784152 -0.24693464 0.001498777
0.014768518 -0.10963582 0.079780482 -0.12572266 0.95984906 -0.25076604 0.0023345815
0.025767189 -0.10924237 0.075606279 -0.23984154 0.9405728 -0.24041401 0.0019337549
0.034344874 -0.1068963 0.074726269 -0.29946393 0.924568 -0.23557457 0.0022514253
0.044542138 -0.10241251 0.075672112 -0.39958709 0.88549775 -0.23711576 0.001811279
0.050675113 -0.10081868 0.072215587 -0.43659443 0.87104011 -0.22510982 0.0021657359
-0.063567378 -0.092237785 0.074837014 0.5660907 0.78707284 -0.24506658 0.0024257163
-0.05565862 -0.09783373 0.074401557 0.48368642 0.84140265 -0.24101695 0.0019540605
0.048654221 -0.099601984 0.079725757 -0.4247857 0.87218833 -0.24257901 0.0020066635
0.056879394 -0.096835271 0.075560249 -0.49444836 0.83837116 -0.22946581 0.002116459
0.064279854 -0.091482021 0.075461626 -0.56440943 0.79023933 -0.23867095 0.0020176279
-0.074061006 -0.084140331 0.074943088 0.63816905 0.73279607 -0.23611462 0.0019935798
-0.067046613 -0.08824072 0.0790051 0.58480835 0.77132154 -0.251122 0.0023009053
0.075307153 -0.08319433 0.074947514 -0.66572702 0.70632768 -0.24064237 0.0018000772
-0.083686233 -0.075435355 0.072998263 0.72417307 0.64941299 -0.23202617 0.0020111804
0.078099683 -0.079839244 0.078754358 -0.67327219 0.69855505 -0.24233292 0.0020818694
0.083883837 -0.07405594 0.07579723 -0.72180635 0.65206957 -0.23195045 0.0021411362
-0.09241242 -0.063015826 0.075596429 0.79031307 0.56312394 -0.24144699 0.0018002328
-0.088828251 -0.0680575 0.074686684 0.78225362 0.57722598 -0.23428485 0.0021971313
0.087552205 -0.069048449 0.076343685 -0.76031113 0.60561883 -0.23484625 0.0023569728
0.093825832 -0.061657261 0.074421205 -0.81336188 0.52918553 -0.24167156 0.00224534
-0.10013594 -0.051255289 0.073833413 0.86348337 0.44628143 -0.23500937 0.002739202
-0.097818471 -0.055263281 0.075545676 0.84399545 0.47995147 -0.23941228 0.0021363257
0.097418964 -0.055809129 0.076084666 -0.84122676 0.48421544 -0.24056807 0.0019245896
0.10101949 -0.050383996 0.071922131 -0.87149256 0.43282488 -0.23057203 0.0025983241
-0.10230646 -0.044434473 0.076208159 0.88888747 0.38767451 -0.24410538 0.00212293
-0.099822275 -0.049254134 0.078011543 0.87552285 0.41836685 -0.24172068 0.002339358
0.10245895 -0.045328889 0.074245751 -0.88092643 0.41102576 -0.23457706 0.0019032788
-0.10651573 -0.034942426 0.07519535 0.92510766 0.29742655 -0.23603663 0.0018359096
0.10681835 -0.035160203 0.0737269 -0.91899818 0.30985671 -0.24378519 0.0019407077
-0.11053682 -0.022778833 0.07210651 0.95183176 0.19539043 -0.23630266 0.0023554116
-0.1089412 -0.025101477 0.07716728 0.94198275 0.23489116 -0.23978035 0.0019136817
0.10916086 -0.023591442 0.077086158 -0.94304574 0.2094644 -0.25843647 0.0026853194
0.11032558 -0.024473056 0.072010286 -0.94338405 0.23135769 -0.23769772 0.0018138076
-0.11132202 -0.013366201 0.073869526 0.96694213 0.11162105 -0.22926767 0.0021508068
-0.10955189 -0.016148992 0.079396568 0.95572788 0.15876274 -0.24774705 0.0018687575
0.11112557 -0.015471745 0.073565476 -0.9625597 0.13028961 -0.23770443 0.0012662756
-0.11217404 -0.0055215838 0.074571587 0.97200131 0.042431869 -0.23111244 0.0028340234
0.11161987 -0.005524952 0.076770142 -0.972785 0.041993313 -0.2278726 0.001461011
-0.11240666 0.0047487924 0.074057296 0.97048175 -0.029494833 -0.23936401 0.0018051328
0.11172035 0.0056135682 0.076310523 -0.97230721 -0.036424641 -0.23085043 0.0019340639
-0.11119758 0.015153575 0.073414557 0.96253192 -0.13532338 -0.23498893 0.002201963
0.10992213 0.017077181 0.077464327 -0.95740968 -0.14845012 -0.24764733 0.0023948466
0.11116727 0.016532917 0.072816066 -0.96052718 -0.1498175 -0.23439765 0.0022643199
-0.11063147 0.022900105 0.071616866 0.95404446 -0.18678997 -0.23432595 0.0018274195
-0.10874079 0.023508225 0.078777567 0.94925338 -0.19984646 -0.2428568 0.0018845295
0.10912281 0.026263654 0.075854994 -0.94246179 -0.23251893 -0.24020995 0.0019672601
0.11063219 0.023951616 0.071010694 -0.95053232 -0.20537712 -0.23304203 0.0022971607
-0.10542947 0.037055817 0.075953655 0.91120279 -0.33655444 -0.2375726 0.002130778
0.10611971 0.036511656 0.074247301 -0.91559428 -0.31980988 -0.24373902 0.0019492292
-0.10293317 0.043602385 0.075196356 0.89140242 -0.38385242 -0.2409545 0.0025508474
0.099438928 0.049931332 0.078387596 -0.86981028 -0.43007091 -0.24180375 0.0020704744
0.10201874 0.045639418 0.075454734 -0.88632601 -0.39411008 -0.24311206 0.0022073246
-0.1004881 0.052108422 0.071168303 0.85713899 -0.46179193 -0.22816879 0.0016486918
-0.098052695 0.054539479 0.075795949 0.84775352 -0.4768019 -0.23232283 0.0019203092
0.096985735 0.057892278 0.073532142 -0.83140916 -0.50362355 -0.23478101 0.0021616064
-0.091943353 0.063448727 0.076024756 0.800547 -0.5497542 -0.23852646 0.0020686928
-0.089184046 0.067706585 0.074452668 0.7842657 -0.57215792 -0.23992226 0.0022258828
0.088548221 0.06814377 0.07539589 -0.76918513 -0.59490776 -0.23332162 0.001761739
0.092777908 0.063375928 0.073554173 -0.79623014 -0.55736583 -0.23528886 0.0020803863
-0.084006689 0.074817806 0.073530726 0.72998971 -0.64443946 -0.22762415 0.002738866
-0.079649128 0.078837395 0.077438295 0.68110555 -0.69144982 -0.24081619 0.0023918517
0.079353623 0.079760946 0.075978771 -0.69286245 -0.6819486 -0.23428117 0.0024765101
0.082087435 0.076451808 0.075665228 -0.70755982 -0.66480249 -0.23957643 0.0020044614
-0.080310076 0.080045693 0.072586827 0.68546349 -0.69022405 -0.2317982 0.0024586213
-0.073950775 0.084537134 0.073988758 0.64105839 -0.73011893 -0.2365808 0.0022218826
-0.066953674 0.088799931 0.077458896 0.57138139 -0.78326815 -0.24497823 0.0020382022
0.068910062 0.088587493 0.073391944 -0.58895075 -0.77211982 -0.23867981 0.0021574053
0.074819632 0.083849579 0.074035704 -0.65786779 -0.71623111 -0.23285839 0.0023642923
-0.063983671 0.092410199 0.073239192 0.56559402 -0.79070252 -0.2342921 0.0021105988
-0.05850951 0.096399501 0.073880248 0.50613374 -0.831159 -0.23022431 0.0023487466
