# .PCD v0.7 - Point Cloud Data file format
VERSION 0.7
FIELDS x y z normal_x normal_y normal_z curvature
SIZE 4 4 4 4 4 4 4
TYPE F F F F F F F
COUNT 1 1 1 1 1 1 1
WIDTH 560
HEIGHT 1
VIEWPOINT 0 0 0 1 0 0 0
POINTS 560
DATA ascii
0.0044845785 0.14030938 0.0061867349 -0.030929601 -0.9995212 0.00086457992 0.0019662192
-0.0042552585 -0.14033958 0.01538357 0.016588621 0.99985176 0.0046247551 0.0020350697
0.006065601 -0.14010125 0.015014045 -0.047265552 0.99885881 0.0068592071 0.0015205787
-0.047232151 -0.13163991 0.018244397 0.34601742 0.93822706 0.0014194911 0.00099265645
-0.0366285 -0.13580437 0.018618917 0.25460231 0.96704584 -1.5971289e-05 0.0021508476
-0.026636925 -0.137393 0.012520422 0.18337438 0.98303103 0.0048897061 0.0010316079
-0.01497346 -0.1389285 0.014083887 0.095168658 0.99546123 3.1458025e-05 0.00082146208
-0.0086583216 -0.13975991 0.015249513 0.069990598 0.99753261 0.0054775388 0.0015180277
0.014565451 -0.13898222 0.015375102 -0.099230975 0.99505985 0.0030239434 0.0014745089
0.02527063 -0.13757285 0.014742578 -0.18357961 0.98300475 0.00052870932 0.0015454285
0.03585415 -0.1358801 0.015876116 -0.25479853 0.96698594 0.0039932914 0.0019714399
0.043173276 -0.13332117 0.016813792 -0.29770586 0.95465153 0.003398102 0.0021428601
-0.071676575 -0.12106048 0.014820619 0.5185082 0.85505331 -0.0057631256 0.0025555184
-0.066265479 -0.12375604 0.013940656 0.48157561 0.87638032 -0.0065185698 0.0025074913
-0.056485534 -0.12780704 0.015273415 0.39966464 0.9166593 -0.0019796116 0.00054202945
0.055784926 -0.12809724 0.016074648 -0.40243623 0.91544795 0.00010062207 0.00072240469
0.065240838 -0.12418047 0.014050841 -0.47358459 0.88073319 -0.0051552234 0.0024867179
0.071183264 -0.12143489 0.013874213 -0.51221973 0.8588528 0.0016999447 0.0022439582
-0.083621204 -0.1119161 0.0158021 0.61557883 0.78807521 -0.00046254959 0.00070833584
-0.075411193 -0.11821586 0.016030522 0.55117524 0.83437616 -0.0047053024 0.0015582923
0.077302314 -0.11676476 0.014870592 -0.55614322 0.83108419 0.0019620946 0.001838367
0.08188732 -0.11324655 0.012027199 -0.60085642 0.79935688 -0.00016910781 0.00061088568
-0.091977105 -0.10550439 0.015435849 0.65908909 0.75206304 0.0016308081 0.0017888367
-0.089370653 -0.10750439 0.016074628 0.64381999 0.76515871 0.0052878936 0.0016741644
0.088848501 -0.10790505 0.013751071 -0.63221693 0.7747888 -0.0020138181 0.001596968
0.097096652 -0.10157603 0.012086534 -0.68888587 0.72485608 -0.0044790125 0.0024160491
-0.10427316 -0.093581654 0.016406205 0.7413348 0.6710971 0.0071616806 0.0023367205
-0.099512815 -0.099722028 0.01762192 0.70367062 0.71047282 0.0087173088 0.0021853477
0.10232036 -0.096126609 0.017298436 -0.73144579 0.68189836 -0.0013162899 0.0023522233
-0.11130241 -0.084420964 0.015994672 0.78949791 0.61375326 0.0002553064 0.00096061197
-0.10922202 -0.087132186 0.01512087 0.78319687 0.6217736 -0.0004557964 0.0013513452
0.11134034 -0.08437153 0.012158335 -0.79325968 0.60887599 0.0030021484 0.00078503828
-0.12176883 -0.070780851 0.019620776 0.86395055 0.50357115 0.0023606683 0.0026750029
-0.11806263 -0.075610884 0.018451361 0.8439784 0.5363757 0.0012395005 0.0022557839
0.1176191 -0.076188907 0.013340016 -0.84754354 0.53067195 -0.0075698807 0.0025844225
0.12100004 -0.071767077 0.016551275 -0.87090349 0.49145302 0.0010048453 0.002537003
-0.1248196 -0.0636978 0.017035576 0.88769287 0.46039212 0.0063601211 0.001856253
0.12428615 -0.06498567 0.015493554 -0.88158345 0.47200036 -0.00512806 0.0022678247
-0.12857208 -0.054638535 0.015410364 0.91864455 0.39508462 -0.00053606008 0.00059621304
0.12910683 -0.053347487 0.015213571 -0.92482483 0.38038468 0.0025649385 0.001398294
0.13023785 -0.050616995 0.013777437 -0.93283486 0.36030412 -0.0004013835 0.0012388851
-0.13340557 -0.04296948 0.016331002 0.95281231 0.30355883 -0.00086382893 0.001739026
0.13292418 -0.044131637 0.013123118 -0.94467163 0.32801083 -0.002123541 0.0010460119
-0.1359019 -0.035549045 0.013724494 0.9711653 0.23840508 -0.0010051257 0.0018635762
0.13626575 -0.034284074 0.015212746 -0.97170961 0.23615922 0.0030394378 0.0019678122
-0.13777608 -0.023726979 0.017412238 0.98597509 0.16687068 0.0026792192 0.0013283846
0.13753974 -0.025522053 0.015368126 -0.98091042 0.19443728 -0.0030062965 0.0017475506
-0.13859445 -0.017510822 0.013244589 0.99207473 0.12561072 0.0031162123 0.0011276718
0.13927042 -0.012376312 0.014586363 -0.99720383 0.074686617 -0.0025508672 0.0014821225
-0.14016668 -0.0055685532 0.016230851 0.9994759 0.03117224 0.0087240469 0.0020140111
-0.13985194 -0.0079592345 0.014950567 0.99756342 0.069595166 0.004870953 0.0017252271
0.13963512 -0.0096061751 0.01912225 -0.99690992 0.078342065 0.0057650884 0.001422395
0.14061336 -0.002175705 0.016539728 -0.99993122 0.01158595 0.0017942302 0.0025750145
-0.1403836 0.0039207982 0.013816784 0.99974149 -0.022702778 0.0012191378 0.0021223919
-0.13976507 0.0086191008 0.016007388 0.99782884 -0.065692738 0.0046975221 0.0019738916
0.13967884 0.0092740683 0.014573479 -0.9973771 -0.072379932 -2.1531734e-05 0.001543024
0.1405403 0.00273058 0.013853725 -0.99974746 -0.022448171 0.0010959633 0.0021342912
-0.13897724 0.014603157 0.01472372 0.99507987 -0.098948501 -0.0050327545 0.00084372394
0.13871123 0.01662376 0.015816756 -0.99429989 -0.10655005 0.0038599891 0.0014413988
-0.13784352 0.023214711 0.016483935 0.98622137 -0.16538712 0.0037987337 0.0015285341
0.13764715 0.024706168 0.015935015 -0.98247677 -0.18637438 0.0019857245 0.0013901535
-0.13538896 0.037708689 0.015365665 0.96296793 -0.26946169 0.0091141211 0.0025955033
0.13602138 0.035429627 0.01496863 -0.96852887 -0.24885525 0.0047933576 0.0019839541
-0.13219287 0.045897156 0.014153337 0.9440304 -0.32981583 -0.0053050588 0.001524016
0.13284685 0.044318292 0.014243255 -0.9469192 -0.32145396 -0.0033688925 0.0018526505
-0.13034095 0.0503681 0.011125283 0.93476331 -0.35522982 0.0054159006 0.0015980095
-0.1274693 0.057300843 0.013180622 0.91047639 -0.41356003 -0.00098588981 0.00073295803
0.12800574 0.056005765 0.013928588 -0.91038793 -0.41375485 0.00087924529 0.0011768769
0.13004725 0.051077135 0.012667142 -0.92961824 -0.36852208 -0.0012430691 0.0013793664
-0.12433374 0.064870775 0.011682842 0.88170505 -0.47179541 -0.0022983761 0.0022836437
0.12304287 0.067987233 0.01702706 -0.87641883 -0.48148626 0.0078049293 0.0022367872
-0.11584824 0.078496709 0.014041391 0.82633156 -0.56306428 -0.011611573 0.0011348655
0.11758964 0.076227285 0.015033302 -0.84146798 -0.54002821 0.017352823 0.0023410039
0.12116521 0.071567513 0.016411968 -0.86551076 -0.50087035 0.0044812961 0.0026469985
-0.11145712 0.084219329 0.013565779 0.80082321 -0.59890079 -0.00013708358 0.0010948286
-0.10770794 0.089105345 0.016942337 0.76328194 -0.64606029 0.0025831466 0.0018364766
0.10807668 0.08862479 0.015804695 -0.77325296 -0.634067 0.0062259627 0.0016344282
0.11469425 0.080000624 0.014721103 -0.82366318 -0.56706166 0.0044830297 0.0016227829
-0.10420046 0.093676373 0.016554082 0.73475164 -0.67831957 0.0047536232 0.0016606
0.099740699 0.099488437 0.011436481 -0.71430486 -0.69982463 0.0037416699 0.0022430276
0.10467041 0.093063936 0.015720397 -0.74317151 -0.669092 0.0034655614 0.0022689402
-0.093836889 0.10407729 0.013754543 0.6770789 -0.73587263 0.0074563976 0.001932296
0.087064654 0.10927381 0.015626628 -0.61934602 -0.78511739 -0.0010551357 0.0011990697
0.094867229 0.10328668 0.012632801 -0.67566091 -0.73720139 0.0040608873 0.0023748511
-0.085098915 0.11078218 0.012105805 0.60836035 -0.79363173 0.0068028159 0.001156461
-0.077461474 0.1166426 0.015389808 0.55787116 -0.8298592 0.010653774 0.0016241081
0.075387068 0.11823436 0.01458251 -0.52803206 -0.84922093 -0.0024327002 0.0024369641
0.083053745 0.1123515 0.014257811 -0.60698289 -0.79471493 0.00019835214 0.00075545855
-0.072381243 0.12054082 0.017680319 0.51681924 -0.85604429 0.0092696436 0.002275805
-0.065151647 0.1242174 0.015243734 0.46972737 -0.88275343 0.010130544 0.0019289614
-0.056163792 0.12794028 0.014233916 0.40353432 -0.9149456 0.0058756829 0.00061232282
0.055684224 0.12813893 0.011339129 -0.39835817 -0.91722506 -0.0029836379 0.00063715951
0.06559328 0.12403446 0.016072026 -0.47124925 -0.88198185 -0.0056689819 0.0023832507
0.071760625 0.12101704 0.019145757 -0.51656312 -0.85624886 0.00064125966 0.00249508
-0.043047525 0.1333732 0.015473872 0.30126289 -0.95353746 0.0026468986 0.0016518981
-0.034016706 0.13637763 0.014138044 0.23700066 -0.97146642 -0.0091491109 0.0019445021
-0.024425631 0.13768408 0.015273392 0.17474864 -0.98458606 -0.0072903996 0.0014650177
-0.014576786 0.13898072 0.01513809 0.11082877 -0.99383444 0.0031683496 0.0010761239
-0.0093835415 0.13966443 0.01164104 0.066511087 -0.99778444 -0.0015383409 0.0013871518
0.0096854279 0.13962467 0.015118577 -0.07215526 -0.99739337 -0.00037424621 0.0015562854
0.016491903 0.13872859 0.01500491 -0.13117889 -0.99135828 -0.00099000963 0.0012585706
0.024843764 0.13762903 0.019097643 -0.16827649 -0.98573965 -0.0006635224 0.0012416728
0.034497757 0.1362955 0.013876598 -0.23485097 -0.97203118 -0.00063431589 0.0024665163
0.045249861 0.13246098 0.01506153 -0.32380101 -0.94611239 -0.0049297153 0.0017939296
0.050294101 0.13037159 0.014312028 -0.36104038 -0.93254811 0.001933325 0.0013852225
-7.8258672e-05 0.1408895 0.019030415 0.003244427 -0.99998426 0.0045697405 0.0021695883
0.0053076413 0.14020102 0.017447177 -0.036531128 -0.99932355 0.0042395592 0.0019550531
-0.0037427363 -0.14040706 0.023949675 0.022585291 0.99974155 -0.0025941767 0.0019893113
0.0050053662 -0.14024082 0.024508957 -0.034414016 0.99940425 -0.0026314796 0.0014098162
-0.044333678 -0.13284051 0.024428017 0.31637907 0.94862187 -0.00455915 0.001743427
-0.033922374 -0.13631675 0.023387393 0.22936812 0.97327209 -0.011477879 0.0022557047
-0.026735807 -0.13737997 0.024746358 0.18492122 0.98273808 -0.005479407 0.0012385794
-0.015899505 -0.1388066 0.026171785 0.12087834 0.99266684 -0.0009762962 0.00090711925
-0.0069259796 -0.13998796 0.028110312 0.05901115 0.99825698 0.00079838216 0.0017046955
0.016730333 -0.13869721 0.025369033 -0.1222098 0.992504 0.00073814479 0.0013311458
0.023577968 -0.1377957 0.022881201 -0.16544437 0.9862079 -0.0047105644 0.0012087799
0.035876021 -0.13591945 0.025462747 -0.24855003 0.96856046 -0.01065453 0.0020723508
0.044540156 -0.13275498 0.027752228 -0.31294781 0.9497683 0.0019604284 0.0019561888
0.050684061 -0.13021009 0.026122877 -0.35465178 0.93499756 -0.0013137741 0.0015673495
-0.070668116 -0.12180777 0.027055942 0.49924412 0.86644489 0.005344003 0.0026679477
-0.064655699 -0.12442283 0.025282428 0.48041973 0.87695593 -0.012047869 0.0024547544
-0.057646919 -0.12732597 0.026468482 0.4142856 0.91014194 -0.0030092909 0.0013525597
0.05615345 -0.12794457 0.025554935 -0.40675807 0.91353571 -0.00054070097 0.00086536398
0.065705165 -0.12398812 0.025705477 -0.47102627 0.88208514 -0.0077468641 0.0026751575
-0.08282914 -0.11252387 0.023351666 0.59959418 0.80030298 -0.0013686272 0.0014283451
-0.076692529 -0.11723265 0.023793675 0.56075627 0.8279686 -0.0045208228 0.0017166211
0.076765291 -0.11717683 0.027403794 -0.54552466 0.83806056 0.0075673545 0.0021170776
0.082946628 -0.11243371 0.024429992 -0.60431063 0.79674697 0.0017268537 0.00066381285
-0.095611222 -0.10271583 0.023803821 0.68525022 0.72829694 -0.0039632199 0.0023292864
-0.087709971 -0.10877867 0.025809083 0.62557429 0.78015876 0.0030140649 0.0012790971
0.087939247 -0.10860275 0.025159016 -0.6284489 0.7778495 -0.0014399142 0.0015940508
0.095577478 -0.10274173 0.024977395 -0.68640697 0.72714067 -0.010585508 0.0022559799
-0.10376726 -0.094240978 0.025808517 0.73225451 0.68102992 0.0012841426 0.0025037194
-0.099688686 -0.099556267 0.022109648 0.70160365 0.71250093 -0.0097273504 0.002525545
0.099688835 -0.099556088 0.02007328 -0.70173275 0.71237987 -0.009272363 0.0025535156
0.10272016 -0.095605575 0.026813174 -0.73092127 0.68243551 -0.0059985495 0.0023992853
-0.11284181 -0.082414791 0.026323244 0.7987861 0.60161513 -4.0897587e-05 0.00079533749
-0.10832994 -0.088294774 0.025345115 0.76953226 0.63860804 -0.00010045158 0.0013158203
0.10820389 -0.088459045 0.023642819 -0.77267277 0.63480037 0.0022958096 0.001494686
0.11241531 -0.082970612 0.024275545 -0.78976882 0.61340427 -0.00068283436 0.00042387482
-0.12111799 -0.071629062 0.029832389 0.86390245 0.50363052 0.005378027 0.0028049632
-0.1184376 -0.0751222 0.025097584 0.84688401 0.53176093 -0.0042097913 0.0023947696
0.11690834 -0.077115171 0.025369471 -0.83499748 0.55019909 -0.007756345 0.0020497967
0.12201253 -0.070404746 0.023932507 -0.86954391 0.49380592 -0.0070040477 0.0023281211
-0.12363513 -0.066557378 0.025564708 0.87526894 0.48356804 0.008139329 0.0024998439
0.12302306 -0.068035021 0.023843339 -0.87990218 0.47506028 -0.0094808461 0.0022079807
-0.13039333 -0.05024166 0.024166726 0.93127257 0.36430892 -0.0032488464 0.0013572513
-0.12900582 -0.053591363 0.026209936 0.92384696 0.38275436 -0.0024267193 0.001200386
0.12861317 -0.054539315 0.025621723 -0.91795099 0.39669359 -0.00037659341 0.00063350378
0.13046569 -0.050066981 0.02861267 -0.93340689 0.35881802 0.0010741391 0.0011015945
-0.13195112 -0.046480827 0.021956861 0.93989152 0.34147242 0.00064719247 0.0010063928
0.13238169 -0.0454413 0.024432821 -0.94021112 0.34058893 0.0014990377 0.00099937036
-0.13578781 -0.036230594 0.025695534 0.9678033 0.25169167 -0.0028480357 0.0020677058
0.13594078 -0.035978861 0.025667362 -0.97034812 0.2416656 0.0047104303 0.0022537003
-0.13752034 -0.025669396 0.023539169 0.98209739 0.18818215 -0.0084972195 0.001605093
0.137602 -0.025049258 0.025698468 -0.98278999 0.18471603 0.001986037 0.0015197125
-0.13869144 -0.016774002 0.026227141 0.99272388 0.12041229 0.00047026598 0.0011414726
0.13912031 -0.013516599 0.023327256 -0.99585915 0.090904415 -0.00098005938 0.0008853582
-0.14021124 -0.0052300924 0.024678562 0.99961084 0.027336344 -0.0055580316 0.0023011079
-0.13966158 -0.0094051864 0.023348477 0.99706346 0.076368548 -0.0056896536 0.0014788657
0.13978216 -0.0084892595 0.026146129 -0.99787867 0.065075569 -0.0018049416 0.0018686504
0.14044759 -0.0034348776 0.026993558 -0.99967861 0.025188921 0.0028683073 0.0019932697
-0.14045602 0.00337077 0.023436921 0.99993932 -0.010451853 0.0034873858 0.0025489563
-0.13972795 0.0089010205 0.02791347 0.99781936 -0.065994382 0.0011177865 0.0014372156
0.13999164 0.0068981592 0.024806138 -0.99851871 -0.05347646 -0.0100336 0.0016915451
0.14050034 0.0030341384 0.025003273 -0.99965298 -0.025923366 -0.0046801856 0.0020309689
-0.13908353 0.013795865 0.026041925 0.99523735 -0.097439542 -0.0028680952 0.00085353258
0.13931602 0.01202995 0.025313139 -0.99739534 -0.072116874 0.0013003374 0.0017476766
-0.13784535 0.023200754 0.024985174 0.9855352 -0.16945341 -0.0024334881 0.0013054375
0.13779946 0.023549357 0.022608349 -0.98736131 -0.15846993 -0.0022254791 0.0010682057
-0.13606752 0.035625208 0.024289133 0.97136164 -0.2375827 0.0033176939 0.0020242436
0.13632743 0.033867866 0.026257489 -0.97102827 -0.23893243 0.0039194119 0.0019838314
-0.13248277 0.045197275 0.024255008 0.9443242 -0.3290157 0.00063601544 0.0015644374
0.13191904 0.046558224 0.025371158 -0.9376027 -0.34770367 0.0017825579 0.001282402
-0.12778394 0.056541242 0.025052171 0.91311294 -0.40768549 0.0041574589 0.00084493757
0.1282604 0.055390984 0.023964936 -0.91260165 -0.40884387 0.0022212269 0.00084249553
-0.12448195 0.064512968 0.024469091 0.88259476 -0.4699387 0.013566421 0.0020017042
0.1232275 0.067541488 0.025678506 -0.8755551 -0.48309565 -0.0046744361 0.0023586571
-0.12052146 0.072406463 0.021067638 0.85885453 -0.51216209 0.0076697743 0.002204163
-0.11632463 0.077875875 0.027017087 0.82899088 -0.55907631 0.014415836 0.0012147587
0.11754964 0.076279424 0.024597744 -0.83404917 -0.55168998 0.00033853386 0.0019902159
0.12061509 0.072284453 0.025408646 -0.85939485 -0.51131058 0.0014017626 0.0026807054
-0.11226442 0.083167247 0.021810561 0.80063498 -0.59914732 0.0024532038 0.00099504145
-0.10793772 0.088805884 0.02439861 0.76574177 -0.64310074 -0.0078150677 0.0014976186
0.10807022 0.088633195 0.026411394 -0.77424961 -0.63287991 -0.00076690927 0.0014336802
0.11171745 0.083880067 0.024585765 -0.79003662 -0.61305928 0.00067780196 0.00078211556
-0.10227069 0.096191287 0.023997257 0.72504681 -0.68869722 0.0018003798 0.0017027557
-0.099945113 0.099222057 0.021858208 0.70611936 -0.7080887 0.0024208908 0.0019788961
0.099534974 0.099704988 0.026745915 -0.71090323 -0.70328039 0.0036631173 0.0024977841
0.10182349 0.096774101 0.022684442 -0.72298485 -0.69086242 -0.001403056 0.0022958696
-0.09205801 0.10544227 0.027695358 0.65394098 -0.75649989 0.0083109643 0.0012223027
-0.088170663 0.10842515 0.023902578 0.63196391 -0.77499771 0.00036779765 0.0014967866
0.087675937 0.10880477 0.027348168 -0.62331414 -0.78196931 0.0018991171 0.0011849268
0.094415769 0.1036331 0.02345456 -0.67245144 -0.74009222 -0.0085167754 0.002286667
-0.083552442 0.11196884 0.022594551 0.60697901 -0.79471594 -0.0017289866 0.00099925627
-0.077078991 0.1169361 0.023735082 0.54903191 -0.83580142 8.491984e-05 0.002123015
0.078108646 0.11614601 0.025307098 -0.56096232 -0.82783926 -0.0018350366 0.0015449553
0.083362222 0.11211479 0.026016265 -0.59670043 -0.80245841 -0.0030171566 0.00067920593
-0.071902208 0.1209084 0.02660846 0.50875145 -0.86091095 0.0020752994 0.002430053
-0.064588822 0.12445053 0.025644552 0.46422204 -0.88571602 -0.0022303439 0.0023002399
-0.055566024 0.12818787 0.024739932 0.40331957 -0.91503859 0.0061396025 0.0006722883
0.054892674 0.1284668 0.025977731 -0.39095861 -0.92040581 -0.0021223067 0.0010275968
0.063978389 0.12470338 0.025898254 -0.47432417 -0.88035017 -0.00031886823 0.0021963301
0.071683422 0.12107627 0.025960341 -0.52017683 -0.85401136 -0.0089843124 0.0020390993
-0.050739564 0.13018705 0.023312226 0.36521167 -0.93091452 0.0043167332 0.0016226635
-0.045607235 0.13231294 0.024402997 0.32773265 -0.94476873 -0.001815109 0.0014613492
-0.036372505 0.13594478 0.02743498 0.25275022 -0.96751785 0.0051501263 0.0020833614
-0.024003867 0.1377396 0.024744198 0.17722528 -0.98416424 0.0034589416 0.0016317627
-0.015397237 0.1388727 0.026672712 0.089781158 -0.9959594 0.0020490943 0.001057546
-0.0085084457 0.13977963 0.025106147 0.061943956 -0.99802792 0.010156705 0.001497149
0.013373196 0.13913918 0.028220374 -0.080917493 -0.99672025 0.0010267763 0.0014180682
0.027515341 0.13727732 0.022109479 -0.18779805 -0.9822042 -0.0026080851 0.0015505344
0.034767825 0.1363225 0.024182811 -0.23626861 -0.97166461 -0.0067097787 0.0021578928
0.043174028 0.13332082 0.023734463 -0.30989724 -0.95077008 0.00018650065 0.0016727106
-0.0039682402 0.14037737 0.026061177 0.020151608 -0.99977493 0.006624795 0.0019805708
0.0056318347 0.14015834 0.025059257 -0.042691614 -0.99904245 0.0095704803 0.0022708068
-0.003904863 -0.1403857 0.03669576 0.017712552 0.99984223 0.0013050288 0.002197634
0.0036558276 -0.14041848 0.03364699 -0.0086317156 0.9999547 -0.0039958954 0.0020936171
-0.050349247 -0.13034877 0.032007035 0.35068747 0.93648887 -0.0026344617 0.00096340646
-0.045563966 -0.13233091 0.035769191 0.33745813 0.94133878 -0.0017971159 0.0011543696
-0.033855177 -0.13627377 0.033895969 0.23259202 0.97250009 -0.012026379 0.0023728204
-0.025477383 -0.13754565 0.03598525 0.18139043 0.98339242 0.0060718856 0.0014969684
-0.014797043 -0.13895173 0.035629548 0.08644677 0.99625099 -0.0032898849 0.0013337226
-0.0084001813 -0.1397939 0.03757121 0.064365953 0.99792606 -0.00081819395 0.0017410404
0.0084794872 -0.13978344 0.035306927 -0.06878797 0.99762595 0.003272325 0.0017179714
0.014835398 -0.13894668 0.036615312 -0.091535062 0.99580175 -0.00024236862 0.0011233893
0.023039525 -0.13786659 0.034343936 -0.16783597 0.98581356 -0.0016106447 0.0014794489
0.036909994 -0.13572572 0.033400342 -0.24666427 0.96909052 -0.0045069251 0.0022029802
0.044926442 -0.13259497 0.035159595 -0.33036128 0.94380713 -0.0094605787 0.0013914329
-0.071129307 -0.12146336 0.036464967 0.50350457 0.86399251 -0.00024476988 0.0025724845
-0.064460732 -0.12450359 0.037337087 0.46950281 0.8829307 -0.00067828776 0.0022588815
-0.056115303 -0.12796038 0.036324147 0.40076479 0.9161678 0.0048992154 0.00093966024
0.055072248 -0.12839243 0.035381626 -0.40125674 0.91596556 -0.00045248825 0.0007871358
0.065848112 -0.1239289 0.034225844 -0.48486143 0.87458736 -0.0025012817 0.0022774537
0.071484558 -0.12118723 0.037374701 -0.50415242 0.86358291 0.0074087176 0.0024405848
-0.08374881 -0.11181818 0.0327258 0.60333365 0.79748714 -0.0016407808 0.00078105833
-0.078360319 -0.11595291 0.035232656 0.56903458 0.82229966 -0.0047885473 0.0015141293
0.078765266 -0.11564219 0.034124758 -0.55814648 0.82974017 -0.0019153516 0.0016711111
0.081646688 -0.1134312 0.033752024 -0.6032151 0.79756528 0.0046055187 0.00052955182
-0.094211161 -0.10379014 0.035899971 0.67445606 0.73830867 -0.0030573162 0.0023314655
-0.08760944 -0.10885581 0.035155475 0.62971646 0.77682477 0.00068116194 0.0014554072
0.087780826 -0.1087243 0.037487403 -0.62955463 0.77695608 0.00050740578 0.0013240193
0.09500286 -0.10318265 0.034690224 -0.6780386 0.73502558 -0.0010473797 0.002204082
-0.10140679 -0.097317189 0.033639085 0.71641856 0.69766533 -0.0027399575 0.002525721
0.10250401 -0.095887288 0.035109457 -0.73146737 0.6818552 -0.0053814603 0.0020457013
-0.11199276 -0.083521277 0.033662617 0.7954486 0.60601908 0.0015647326 0.00073725282
-0.1081284 -0.08855743 0.034977622 0.78250086 0.62264055 -0.0033275569 0.0012466372
0.10730084 -0.089635916 0.031106168 -0.76866966 0.63964111 -0.0024803032 0.0012442416
0.11241084 -0.082976446 0.030625142 -0.78882736 0.61460894 0.0026730655 0.00051477581
-0.12065825 -0.072228208 0.037712548 0.86310858 0.50497586 0.0065491251 0.0021559873
-0.11596718 -0.078341722 0.034078479 0.82634711 0.56316108 0.0002812907 0.0015681625
0.11849271 -0.075050384 0.035372548 -0.85020024 0.52644628 -0.0037299118 0.0026574442
0.1207 -0.072173797 0.033168424 -0.86369002 0.50399774 -0.0050780852 0.0028004162
-0.12459526 -0.064239405 0.035339057 0.88528186 0.46505368 -0.0010673522 0.0022961921
-0.13018523 -0.050744046 0.037696339 0.9316498 0.36334014 0.0035276797 0.0009499584
-0.12804089 -0.055920951 0.035491038 0.91642559 0.40018284 -0.0042282972 0.0013405343
0.12857246 -0.054637566 0.030953206 -0.91581392 0.40160263 -0.00046244205 0.00059412525
0.13044611 -0.050114211 0.033301629 -0.93412048 0.35695475 -0.0015099321 0.0012939656
-0.13272642 -0.04460907 0.034355458 0.95135933 0.30805892 0.0038914164 0.0021538902
0.13258414 -0.04495256 0.035979345 -0.94717896 0.32066771 0.0049130842 0.0017485435
-0.13581075 -0.035950072 0.033218868 0.96858811 0.24855259 -0.0076615047 0.0019467544
0.13636002 -0.034482982 0.034937263 -0.97111154 0.23862526 0.00063889351 0.0019974224
-0.13710251 -0.028843228 0.035342373 0.97773486 0.20978621 0.004916274 0.0017590451
0.13748968 -0.025902344 0.03408416 -0.98387164 0.17887437 0.0007238668 0.0014458197
-0.13869429 -0.016752478 0.033408932 0.99357319 0.1131632 -0.0025325997 0.0011910448
0.13880444 -0.015915815 0.034016456 -0.99387342 0.11052395 0.0003475204 0.0011822875
-0.14038537 -0.0039072675 0.036255229 0.99971014 0.024075069 -0.00031352026 0.0022285893
-0.13983034 -0.008123274 0.03185663 0.9978599 0.065095 -0.0061876257 0.0016039308
0.13979617 -0.0083828531 0.037454162 -0.99755466 0.069851264 0.00234688 0.0014795793
0.14039768 -0.0038138831 0.032464985 -0.99988198 0.015295961 0.0014282006 0.0024525933
-0.14055635 0.0026087663 0.035706379 0.99943477 -0.033609279 -0.0006962748 0.0017113042
-0.13975674 0.0086823087 0.03119619 0.99774104 -0.067176305 -0.00033066195 0.0014880702
0.13981843 0.0082138106 0.037303921 -0.99796891 -0.063693419 -0.0010982926 0.0017503421
0.1403819 0.0039337277 0.034084767 -0.9996146 -0.027712321 -0.0016595607 0.0020231137
-0.13916239 0.013196704 0.03632541 0.99578667 -0.091662601 0.0026437389 0.00085264095
0.13864918 0.017095009 0.034845088 -0.9933092 -0.11545052 -0.0028307671 0.0012447729
-0.13769023 0.024379015 0.03411394 0.98520273 -0.17138501 0.0016560019 0.0012355963
0.13765532 0.0246442 0.038817309 -0.98415911 -0.17728768 -3.8478607e-05 0.0015997747
-0.1362851 0.035052091 0.035851516 0.97196692 -0.23508801 0.0037275429 0.0019415555
0.13595974 0.036393128 0.035291683 -0.96991146 -0.24327715 0.0093831914 0.0018984686
-0.13258095 0.044960279 0.034497406 0.94500089 -0.32705292 0.0031156898 0.001443623
0.13238227 0.045439869 0.036306903 -0.94830447 -0.31736183 0.0003663809 0.0016668226
-0.13023818 0.050616194 0.034183115 0.93671685 -0.35007459 -0.0030509655 0.00121054
-0.12770644 0.05672837 0.035893109 0.91471183 -0.40410471 -0.0013068725 0.00061148568
0.12807247 0.055844672 0.035950124 -0.91636169 -0.40034616 -0.0020588492 0.00059229741
0.13044493 0.050117064 0.039382171 -0.93191773 -0.36261076 -0.0065427003 0.0013886795
-0.12441857 0.064665958 0.037008137 0.88158876 -0.47201815 -0.00036916387 0.0022088001
0.12382701 0.066094123 0.037307911 -0.87721777 -0.48008451 0.0028038549 0.0024419429
-0.12208498 0.070288226 0.03851445 0.86094445 -0.50842279 0.016758814 0.0023133901
0.11800566 0.075685114 0.036889888 -0.84809268 -0.52980018 -0.0071111415 0.0021927424
0.121593 0.071010008 0.037674338 -0.86736923 -0.49766192 0.0017767508 0.0026998918
-0.11178184 0.083796144 0.036160085 0.79569697 -0.60569322 -0.0014479755 0.00076610112
-0.10854039 0.088020481 0.03451696 0.77874929 -0.62732565 -0.0034719452 0.0013016728
0.10864691 0.087881647 0.037209619 -0.77674222 -0.62980735 -0.0037738355 0.0014516826
0.11151464 0.084144369 0.034544248 -0.78948611 -0.61376828 -0.00046340039 0.00072491093
-0.104164 0.093723893 0.033922344 0.73876113 -0.67391944 -0.0080385059 0.0019493529
0.099722803 0.099509552 0.033419743 -0.69106203 -0.72264826 -0.01458915 0.0022093409
0.10354429 0.094531499 0.034296252 -0.73625398 -0.67668974 -0.0046013012 0.0023157059
-0.095153421 0.10306707 0.034326788 0.67722821 -0.73576659 0.0030819029 0.0017669045
-0.089825712 0.10715517 0.033994511 0.6413002 -0.76728821 0.0016982959 0.0012258344
0.089212611 0.10762562 0.033739347 -0.65238291 -0.75785035 -0.0076991939 0.0014236157
0.093421176 0.10439627 0.034577176 -0.67193222 -0.74056935 -0.0080047827 0.0021954176
-0.082592353 0.11270554 0.033922348 0.60719997 -0.79453987 0.0038172139 0.00076086458
-0.076060176 0.11771787 0.034803502 0.5436973 -0.83928144 -1.7922828e-06 0.0021353702
0.076516263 0.1173679 0.036699735 -0.54674834 -0.8372851 0.0044559925 0.0020041005
0.082639135 0.11266964 0.03478495 -0.58737731 -0.80930758 0.003039103 0.0011879872
-0.071772397 0.12100799 0.035115093 0.51731974 -0.85572404 0.010800939 0.0027821758
-0.066185653 0.1237891 0.034611765 0.4858982 -0.87401533 0.00032058079 0.002719454
-0.056389112 0.12784694 0.037570745 0.40742826 -0.91323298 -0.0027791222 0.00087095075
0.0574838 0.12739351 0.033602815 -0.41559079 -0.90954316 -0.0039409338 0.0011421379
0.062888965 0.12515463 0.035030756 -0.44403532 -0.89599997 -0.0040871836 0.0016864159
-0.05116554 0.1300106 0.036456101 0.36399606 -0.9314003 -0.00066043902 0.0013352889
-0.045332361 0.1324268 0.03526213 0.33373168 -0.94265944 0.0040495698 0.0014075763
-0.036709704 0.13574764 0.034690235 0.25617224 -0.96661001 0.0063906158 0.0019429177
-0.023232337 0.13784118 0.036864839 0.16849113 -0.98570079 0.0021680491 0.0014165523
-0.014548794 0.1389844 0.036169063 0.085520595 -0.99633545 0.0014023052 0.0012546623
0.0087902714 0.13974252 0.036100235 -0.069264978 -0.99759835 -6.4000713e-05 0.0019132595
0.014694887 0.13896517 0.036869455 -0.099632308 -0.99502373 0.0010872635 0.0013010204
0.026002571 0.13747647 0.035874955 -0.16825335 -0.98573893 0.0030923851 0.0011755414
0.036138784 0.13578551 0.031405468 -0.26013285 -0.96555346 -0.00611225 0.0022402809
0.044280969 0.1328623 0.035241671 -0.31314084 -0.94969428 0.0048500239 0.0015569538
-0.0025555494 0.14056334 0.035200916 0.0093663074 -0.99995607 0.00034532332 0.0024377345
0.004505693 0.14030662 0.035877459 -0.021440402 -0.9997701 -0.00042055474 0.0023106076
-0.0029990296 -0.14050497 0.042890042 0.012281258 0.9999001 -0.0069954586 0.0022024412
0.0041507035 -0.14035334 0.045347918 -0.01763165 0.99983913 0.0033011073 0.0023805457
-0.048428208 -0.13114449 0.045994118 0.3462033 0.93815947 -0.00019627874 0.0009564074
-0.035034306 -0.13605013 0.043013427 0.23821121 0.97121245 -0.0013506291 0.0021681904
-0.024551868 -0.13766749 0.04213259 0.17118576 0.98523796 0.001252786 0.0015682111
-0.016378731 -0.1387435 0.04474118 0.10070571 0.99491501 0.0015739361 0.00066137878
-0.0072722728 -0.13994239 0.044026934 0.069145106 0.99760348 -0.0024978817 0.0016295252
0.0076905526 -0.13988732 0.046196923 -0.061745461 0.9980917 0.00065289141 0.0018843553
0.013728319 -0.13909243 0.042622034 -0.090101957 0.99592745 0.0031894457 0.0010823157
0.023040764 -0.13786645 0.044147301 -0.15829803 0.9873901 0.0016211409 0.0011380262
0.033884808 -0.13634028 0.045108024 -0.22159378 0.97513652 0.0021929631 0.0018636162
0.047337763 -0.13159618 0.043514226 -0.34109914 0.9400245 -0.0022971365 0.0012618054
-0.072317898 -0.12058942 0.047134206 0.52726948 0.84958071 0.014122406 0.0021447004
-0.063186161 -0.12503155 0.046972137 0.4669627 0.88425696 0.0059649167 0.0020087061
-0.055237949 -0.12832379 0.045306887 0.40424937 0.91464335 0.003162991 0.00098258746
0.055268299 -0.12831123 0.044237155 -0.40829882 0.91284013 0.0038793415 0.00091159047
0.06651929 -0.12365091 0.044059236 -0.48231831 0.87593353 0.01046488 0.0024651133
0.070130467 -0.1221551 0.046376213 -0.49071479 0.87128478 0.0078664599 0.002349786
-0.082841448 -0.11251442 0.041841924 0.60049659 0.79962713 -0.00052601326 0.00066851714
-0.077412724 -0.11668003 0.044541575 0.55265373 0.83340871 0.0019789953 0.00161732
0.075716063 -0.11798192 0.043799572 -0.54444826 0.83879292 0.001623693 0.0020598525
0.083740741 -0.11182437 0.049090058 -0.60830569 0.79370266 0.00061132293 0.00084400963
-0.095480233 -0.10281634 0.045264795 0.68079758 0.73240155 -0.010129672 0.0020732416
-0.086792588 -0.10948261 0.042376202 0.61904293 0.78535551 -0.0015963074 0.0010952862
0.08826112 -0.10835577 0.045685668 -0.63042063 0.77625358 0.00043471728 0.0010396505
0.09670601 -0.10187577 0.044433486 -0.68847805 0.72515923 -0.011917508 0.0019728602
-0.10250054 -0.095891789 0.043391623 0.7284137 0.68496001 -0.015597854 0.0022448341
-0.099402562 -0.099806637 0.044085443 0.70538789 0.70875353 -0.0098129651 0.0023269113
0.10340849 -0.094708525 0.044469092 -0.73688197 0.67580867 -0.016955873 0.0018865953
-0.11196108 -0.083562568 0.046170987 0.7952016 0.60634452 0.00081089814 0.00084001693
-0.10741325 -0.08948943 0.040300176 0.7690388 0.63918215 -0.0050444077 0.0014583529
0.10800102 -0.088723421 0.044413187 -0.76538903 0.6434949 -0.0096987942 0.0013451293
0.11257888 -0.082757451 0.045402598 -0.80900878 0.58779651 0.00025909519 0.0014770476
-0.1206641 -0.072220571 0.043996077 0.86016262 0.50991815 -0.010183806 0.0026685358
-0.11584327 -0.078503191 0.049214303 0.82692534 0.56229627 0.0041876631 0.0015314048
0.1179944 -0.075699806 0.045060389 -0.83348352 0.55253917 -0.0024069732 0.0018439803
0.12129033 -0.071404472 0.046046797 -0.86207408 0.50678074 0.0012309729 0.0023280929
-0.1239473 -0.065803722 0.045235716 0.87647057 0.48141357 0.0063456441 0.0023109848
0.12607744 -0.060661118 0.045555454 -0.90389282 0.42775723 -0.0012132543 0.001434418
-0.12763444 -0.056902237 0.045845944 0.91394091 0.40584347 -0.0017381537 0.00090048468
0.12749639 -0.057235479 0.042659145 -0.91041523 0.4136951 -0.00072175311 0.001112215
-0.13223669 -0.045791376 0.045784153 0.94227582 0.33476287 -0.0070776204 0.0016013497
0.13327615 -0.043281928 0.045675319 -0.95206738 0.30587265 -0.0030999 0.0016310663
-0.13612604 -0.034870453 0.046905648 0.96935564 0.24561721 0.0046688132 0.0017827782
0.13587962 -0.035617318 0.045351345 -0.96849781 0.24877596 0.011070411 0.002384953
-0.13737175 -0.026798129 0.044645365 0.98229057 0.18720071 0.0078130253 0.0011425937
0.13767818 -0.024470584 0.045396842 -0.98431379 0.17636931 -0.0045051058 0.0015085151
-0.13844021 -0.018682459 0.043790359 0.99071616 0.13594507 -0.00065572344 0.0012697721
0.13882467 -0.01576196 0.043728925 -0.99334532 0.11514112 0.00275713 0.00083868456
-0.14057232 -0.0024874574 0.041201591 0.99985421 0.014190773 -0.0094968053 0.0022872086
-0.13991177 -0.0075047114 0.045043338 0.9981516 0.060764525 0.0010760102 0.0016390609
0.13977301 -0.0085587949 0.048776668 -0.99783629 0.065746941 0.00031364226 0.0017566928
0.14034799 -0.0041913586 0.045517992 -0.99981111 0.018870816 -0.0046526394 0.0024284194
-0.14046822 0.0032780177 0.043388955 0.99982172 -0.016723529 -0.0087628644 0.0019774234
-0.13968462 0.0092301248 0.046772178 0.9978531 -0.064804174 0.0094729625 0.001768347
0.1398875 0.0076891338 0.044399813 -0.99822706 -0.059394572 -0.0038697654 0.0016171873
0.14056751 0.0025239533 0.044055879 -0.99980104 -0.019190669 -0.0054307403 0.0020757243
-0.13884668 0.015594934 0.04515053 0.9928416 -0.11943541 -0.0008718163 0.0010708206
0.13890183 0.015175921 0.04421426 -0.99512559 -0.098612815 -0.00077017228 0.00072125805
-0.13755931 0.025373433 0.045706213 0.98157698 -0.19104762 0.0027202407 0.0014393032
0.13767125 0.024523215 0.045345694 -0.98427194 -0.17665228 -0.0016144663 0.001585416
-0.13590945 0.035923041 0.044908512 0.96910125 -0.24664554 -0.0029701055 0.0019686194
0.13612601 0.035297044 0.044776049 -0.96898133 -0.24703577 -0.0069735101 0.0022715502
-0.13341828 0.042938758 0.046102334 0.95413363 -0.29924336 0.0090806242 0.0022138187
0.13201731 0.046320964 0.044285502 -0.93951786 -0.34249941 0.00056939834 0.0012292365
-0.12910941 0.053341251 0.043085873 0.92416209 -0.38198617 -0.0033343902 0.0012405603
0.12830511 0.05528307 0.045610506 -0.91855836 -0.39526793 0.0037200921 0.0005546505
0.13005483 0.051058821 0.046312258 -0.93018454 -0.36707878 0.003164907 0.001755954
-0.12375687 0.066263452 0.043898132 0.88168985 -0.4718293 0.00036557062 0.0025370684
0.12430439 0.064941615 0.044248357 -0.8804552 -0.47412169 -0.0027160926 0.002546763
-0.12091774 0.071890026 0.045220044 0.85437381 -0.51964271 0.0041071195 0.0024309063
-0.11703612 0.076948643 0.045279566 0.83469331 -0.550713 0.0015010585 0.0020374723
0.11767647 0.076114126 0.044952929 -0.8454724 -0.53400946 -0.0032087837 0.0021589641
-0.11291504 0.082319334 0.048243713 0.7980355 -0.60261005 0.00055480644 0.00067236234
-0.1095652 0.086684935 0.043962464 0.78727269 -0.61659569 -0.0033970482 0.00092781143
0.10901332 0.087404154 0.042748343 -0.77615309 -0.63054329 0.0012692983 0.0013762463
0.11262318 0.082699694 0.044980079 -0.80015486 -0.59978461 -0.0032666069 0.00082492171
-0.10232051 0.09612637 0.045671418 0.7249676 -0.68878073 0.0017693134 0.001844728
0.099425308 0.099789135 0.048122033 -0.6932286 -0.72071749 -0.00062487501 0.0021452357
0.10368343 0.094350189 0.047131386 -0.73491251 -0.67815685 -0.0026113605 0.0018839262
-0.093459167 0.10436711 0.045505017 0.67432255 -0.73843271 0.002505502 0.0020294769
-0.087625429 0.10884351 0.044583082 0.61786723 -0.78627789 0.0026898626 0.00072384049
0.088452443 0.10820893 0.045460038 -0.63599724 -0.77166522 -0.006350162 0.0018231384
0.094444737 0.10361088 0.042083181 -0.68095672 -0.7322529 -0.010178816 0.0020844198
-0.083874904 0.1117214 0.046714883 0.61722064 -0.78678691 0.0022515357 0.00068848458
-0.078700587 0.1156918 0.043628495 0.56324899 -0.82628703 -0.00054894562 0.0016784595
0.075819589 0.11790247 0.049035449 -0.53381181 -0.84554631 0.0098157711 0.0020988365
0.083514899 0.11199763 0.044120323 -0.60050303 -0.79961842 0.0025627674 0.0009141714
-0.071197987 0.12138367 0.044049334 0.5118565 -0.85906941 0.0016324347 0.002691936
-0.066120923 0.1238159 0.04216506 0.46466118 -0.8854661 0.0063133906 0.0019074647
-0.05627289 0.12789507 0.042882685 0.40195394 -0.91565901 -0.0012705963 0.00078852527
0.054083169 0.12880211 0.04426945 -0.38587186 -0.92255217 0.00068146252 0.0014525707
0.064328194 0.12455848 0.044232674 -0.46325183 -0.88620239 -0.006560931 0.0021137479
0.072641164 0.12034137 0.041434549 -0.5228985 -0.85239089 -0.0026579443 0.0022903311
-0.045114599 0.132517 0.04503046 0.32870984 -0.94443059 0.0008642404 0.0013663662
-0.034245849 0.13637884 0.046507541 0.24082892 -0.97055686 0.0045564943 0.0021276074
-0.024064768 0.1377316 0.044350144 0.16870022 -0.98566473 0.0022957888 0.0015272539
-0.014969232 0.13892905 0.047074318 0.097758263 -0.99520987 -0.00076724571 0.0007582301
-0.0071016774 0.13996483 0.040212508 0.051688384 -0.99865448 -0.0041924804 0.0015215181
0.0090282029 0.13971122 0.045025472 -0.066493802 -0.99777418 -0.0050125653 0.0015891754
0.01665487 0.13870713 0.043907709 -0.12944639 -0.99158567 -0.001157489 0.00089209294
0.025419058 0.13755329 0.044943552 -0.18200754 -0.98327714 -0.0062813964 0.001844776
0.033395853 0.13650312 0.044979982 -0.22960357 -0.97328025 0.0027672811 0.0022513757
0.040868666 0.13427573 0.044424456 -0.29098219 -0.95669991 -0.0073876311 0.0021531738
0.050890863 0.13012441 0.044705998 -0.36516967 -0.93093479 0.0033998741 0.0016312335
-0.001950044 0.14064305 0.045927741 0.003532066 -0.99993598 -0.010746968 0.0025354531
0.0044567944 0.14031304 0.04544178 -0.030751767 -0.99949652 -0.0078120138 0.0025691704
-0.003098818 -0.14049183 0.055881154 0.014332133 0.99989659 0.0011684385 0.0019467316
-0.045554508 -0.13233483 0.054670941 0.32092533 0.94710016 0.0028731048 0.0016252493
-0.035496838 -0.13604642 0.054493893 0.25245631 0.96760625 0.0019780265 0.0019235341
-0.025203586 -0.13758169 0.056411337 0.17480874 0.98460186 0.0010656264 0.0010848546
-0.017711602 -0.13856803 0.053999789 0.12255604 0.99246162 -7.6640326e-06 0.0010995843
-0.0081809871 -0.13982275 0.050709855 0.06619902 0.9978013 -0.0032009366 0.0014717015
0.008520321 -0.13977808 0.057320315 -0.060486171 0.99816811 0.0013093681 0.0017966287
0.014720147 -0.13896185 0.055919867 -0.11398819 0.99345696 0.0070657698 0.00091365509
0.026188236 -0.13745205 0.05569417 -0.18220145 0.98325169 0.0043272888 0.0013229797
0.035961404 -0.13592565 0.055232182 -0.23974521 0.97083008 -0.0033289737 0.0019528011
0.043955009 -0.13299736 0.054436602 -0.30874902 0.95114237 -0.0015184167 0.0018770507
-0.071083494 -0.12152777 0.055131502 0.51234257 0.85874861 0.007477602 0.002677747
-0.064988732 -0.12428488 0.056896903 0.47201419 0.88154137 0.0093500521 0.002262742
-0.055054564 -0.12839974 0.055902809 0.40278432 0.91526651 -0.0072124866 0.00094320235
0.052007124 -0.12966205 0.054354351 -0.38848132 0.92144847 -0.0038784209 0.00096668018
0.064021654 -0.12468547 0.05635618 -0.46525788 0.88517475 0.00079079479 0.0022008335
0.072833419 -0.12019386 0.056160197 -0.53372973 0.84565395 -0.0013688046 0.0019979447
-0.083829388 -0.11175635 0.056678534 0.60677141 0.79487574 0.0010520326 0.00074199541
-0.077343561 -0.1167331 0.055656485 0.55722106 0.83034945 0.0049475343 0.0018266304
0.077090025 -0.11692765 0.054452199 -0.54739136 0.83687449 -0.0019298234 0.0021329387
0.082341284 -0.11289822 0.053738873 -0.60268044 0.79798061 -0.0017724502 0.00080780539
-0.094797105 -0.10334053 0.055880487 0.67613417 0.73677576 0.001996553 0.0020213106
-0.086598381 -0.10963163 0.059808701 0.61415017 0.78918695 -0.0019013713 0.00050811574
0.088095091 -0.10848317 0.056950331 -0.61955041 0.78495687 0.0001915985 0.00099664112
0.094064705 -0.10390251 0.056951854 -0.67322576 0.73943675 -0.00066796079 0.0018086791
-0.10270026 -0.09563151 0.054134078 0.72743726 0.68610781 -0.0095402794 0.0019461709
0.1034423 -0.094664492 0.055522978 -0.72486776 0.68885952 -0.0062665502 0.0018689645
-0.11201981 -0.083486028 0.052760821 0.79446757 0.60730255 -0.0022195873 0.00081460975
-0.10821201 -0.088448465 0.059085093 0.78510284 0.61935633 -0.0033528481 0.00081932161
0.11328382 -0.081838749 0.056476403 -0.8033576 0.59549594 0.0010679637 0.0011265066
-0.12129235 -0.071389794 0.053414002 0.86713141 0.4980768 -0.0016098957 0.0025052777
-0.11790866 -0.07581155 0.054332666 0.83699709 0.54720056 -0.002730266 0.0019245074
0.11641148 -0.077762693 0.052683089 -0.8347885 0.55056995 0.00089065125 0.0016142287
-0.1238518 -0.066034272 0.056086093 0.88007277 0.4747934 -0.0065710596 0.0025195982
0.12393489 -0.065833703 0.054446504 -0.88270366 0.46991202 0.004104686 0.0021842476
-0.12845007 -0.054933108 0.054475449 0.91825372 0.39597812 -0.003389779 0.00081066991
0.12842785 -0.054986753 0.052091386 -0.91991574 0.39211148 -0.0019102956 0.0010955591
0.13027267 -0.050532959 0.055930875 -0.9351843 0.35403833 -0.0093371868 0.0014130689
-0.13179629 -0.046854623 0.054254729 0.94146484 0.33708838 -0.0039168554 0.0011820585
0.13314863 -0.043589808 0.055144526 -0.95065534 0.31018236 -0.006425465 0.0015498176
-0.13661082 -0.032578047 0.054021806 0.97205496 0.23445742 -0.011781687 0.002005304
0.13621803 -0.034534626 0.053081736 -0.9684037 0.24938786 -0.00025794411 0.0023458567
-0.13799384 -0.022072822 0.054840591 0.98838145 0.15198894 -0.001228034 0.0011546866
0.13725707 -0.027669333 0.05469165 -0.98079437 0.19493969 -0.0063959369 0.0015725379
-0.13886237 -0.015475735 0.055331763 0.99486572 0.10118555 -0.0019351143 0.00058730412
0.13887425 -0.015385397 0.055334102 -0.99359 0.11290552 0.0055933567 0.00097117608
-0.13969997 -0.0091136415 0.056014132 0.99784446 0.065336391 0.0061262958 0.0017279194
0.13975954 -0.0086609907 0.059724987 -0.99785721 0.064816885 0.008926291 0.0016593416
0.14043674 -0.0035171674 0.054931298 -0.99998933 -0.00051346963 0.0045848521 0.0026055321
-0.14028986 0.0046328548 0.057011496 0.99973327 -0.023092786 0.00010311561 0.0017590657
-0.13980526 0.0083138384 0.05780901 0.9978081 -0.066034801 -0.0042815367 0.0016090975
0.14046939 0.0032692626 0.055331226 -0.99978036 -0.020547774 0.0041389535 0.0024346244
-0.13875803 0.016268164 0.056458067 0.99264258 -0.121081 0.00035361754 0.0011252073
0.13860473 0.017432826 0.055997994 -0.99216586 -0.12442373 -0.011205456 0.0014697709
-0.13792114 0.022625115 0.053839397 0.98594451 -0.16703548 -0.0035563486 0.00084038585
0.1374822 0.025959099 0.053126425 -0.98305285 -0.18322471 0.0059851906 0.0016618775
-0.1360825 0.035182271 0.056782454 0.9720521 -0.23459344 0.0089754593 0.0020756731
0.13624319 0.034836337 0.053779054 -0.96967912 -0.2443766 0.0015534316 0.0022475673
-0.13354132 0.042641707 0.053170122 0.95504314 -0.29636577 -0.0077403993 0.0022722767
0.13259429 0.044928025 0.052837655 -0.94670886 -0.32205907 -0.004517403 0.0016235454
-0.13048995 0.050008338 0.059714094 0.93247873 -0.36120328 0.0039534303 0.0012038074
-0.12854952 0.054692999 0.055441838 0.91706634 -0.39873421 0.00063195871 0.00069362199
0.1277025 0.056737863 0.055859596 -0.91394293 -0.40584251 0.00034363204 0.00079863583
-0.12368476 0.066437535 0.055911213 0.88100553 -0.4729279 0.012981289 0.0023897437
0.12481499 0.063708901 0.054105397 -0.88400167 -0.46747279 0.0031944092 0.0021988475
-0.12123995 0.07146737 0.053079143 0.85997754 -0.51032746 0.0021240402 0.0023086395
-0.11747915 0.076371267 0.054345988 0.84123451 -0.54058224 0.0097601414 0.0023868566
0.11785004 0.075887941 0.055710435 -0.84333456 -0.53731602 0.0088514788 0.002106745
0.1219193 0.070584781 0.056833789 -0.86816305 -0.49608308 0.01394903 0.0024040546
-0.11277214 0.082505569 0.055945117 0.80121261 -0.59837973 -0.00026721074 0.00053899811
0.10878723 0.087698795 0.055306796 -0.78282601 -0.62223822 0.0017482929 0.0013199634
0.11165583 0.083960362 0.056174926 -0.79957169 -0.60056257 0.0031126444 0.00094196229
-0.10396368 0.093984947 0.055813871 0.73578781 -0.67717129 0.0074344594 0.0020548562
-0.099448234 0.099771544 0.055842824 0.7092346 -0.70496267 0.0037163713 0.0022323756
0.10546939 0.092022657 0.053295374 -0.75964695 -0.65033329 0.0017765155 0.0013592908
-0.091758706 0.10567194 0.054189611 0.64721018 -0.76230937 0.0018454778 0.0013480076
-0.088202342 0.10840084 0.05691319 0.62184089 -0.78313804 -0.0029547508 0.00054395461
0.087807588 0.10870373 0.056393463 -0.63648677 -0.77126884 -0.005380359 0.0014717843
0.095692717 0.10265326 0.053570095 -0.67934185 -0.73381406 -0.0034050744 0.00223681
-0.082165726 0.11303291 0.056588385 0.60551429 -0.79582977 0.0027031945 0.0005571713
-0.077388845 0.11669835 0.055189237 0.55551672 -0.83150411 0.0014535042 0.001848256
0.078471914 0.11586727 0.054016523 -0.55488956 -0.83189088 0.007417222 0.0015746589
0.082752772 0.11258245 0.055600546 -0.60336912 -0.79746205 0.00023523573 0.00060754723
-0.070309661 0.12208088 0.058346927 0.4971227 -0.86767876 -0.0015751267 0.002578578
-0.068599656 0.12278919 0.056491479 0.48870042 -0.8724317 0.0059011094 0.0026110958
-0.054843653 0.12848708 0.053977251 0.40069094 -0.91620642 0.0035496471 0.0009089876
0.053632885 0.12898862 0.056836553 -0.39742023 -0.91762918 0.0037295867 0.00099323224
0.065544784 0.12405457 0.055375762 -0.47604048 -0.87934566 0.011695129 0.0022036412
0.072240911 0.12064848 0.057934001 -0.50814706 -0.86118823 0.011891322 0.0022700066
-0.045341332 0.13242307 0.055898428 0.32969624 -0.94408667 0.00081315322 0.0012822719
-0.034740169 0.13622215 0.055357922 0.24308936 -0.9700039 0.00020506428 0.0021037827
-0.026182221 0.13745283 0.055324703 0.17911629 -0.9838261 -0.0018962648 0.0013088472
-0.014494205 0.13899159 0.054188736 0.097219869 -0.99525565 0.0038229795 0.00071052683
-0.0083743092 0.1397973 0.052571759 0.060445722 -0.99817002 -0.0016922684 0.0017272844
0.0076488396 0.13989279 0.057602391 -0.069049001 -0.9976061 0.0037843182 0.0014095458
0.015966363 0.13879776 0.057132483 -0.12095452 -0.9926576 0.00095933327 0.00096968038
0.024700865 0.13764784 0.052721977 -0.18173528 -0.98334569 0.0018963683 0.0015157263
0.030109309 0.13693582 0.053229425 -0.2072816 -0.97826385 -0.0058545372 0.0019741892
0.0411405 0.13416313 0.053711489 -0.28874198 -0.95740646 -0.00096841948 0.0021176534
0.050675876 0.13021344 0.054753955 -0.35665062 -0.93421394 0.0066846185 0.001293569
-0.0020921661 0.14062434 0.054041035 0.0073754312 -0.99995321 -0.006263922 0.0023038483
0.0023546019 0.1405898 0.057529561 -0.013919383 -0.9998731 0.0077487403 0.0024770983
-0.0027556166 -0.14053702 0.065545373 0.012388547 0.99989945 -0.0068917158 0.0019777808
0.0030091419 -0.14050363 0.064324118 -0.0089793969 0.99993563 -0.0069411579 0.0021525405
-0.044735201 -0.13267419 0.065660581 0.3240155 0.94605178 -0.00020721294 0.0016721095
-0.032646146 -0.13660187 0.064145319 0.22889672 0.97342908 -0.0064934934 0.0020495884
-0.025169982 -0.13758612 0.067257136 0.16780412 0.98581845 -0.0019442821 0.00092478917
-0.016527349 -0.13872392 0.064914845 0.12118124 0.99262774 -0.0022789361 0.00092178135
0.014086755 -0.13904525 0.066930749 -0.094957232 0.99548048 -0.0013811985 0.0010312619
0.024868242 -0.13762584 0.066877633 -0.1752449 0.98452199 -0.0023792803 0.0012192528
0.03541059 -0.13602494 0.065966167 -0.23336031 0.97238529 -0.0031232717 0.0022088916
0.045268398 -0.13245334 0.065487966 -0.32788536 0.9447127 -0.0030205841 0.0013342805
-0.071576484 -0.12115309 0.06559664 0.52069885 0.85372061 -0.0058298339 0.0025051662
-0.066990934 -0.12345555 0.067730755 0.47811237 0.87827086 0.0069854981 0.0023305751
-0.056669373 -0.12773088 0.06383425 0.409246 0.91241491 -0.0041078781 0.0013276471
0.055551402 -0.12819396 0.064585268 -0.40387082 0.91481209 -0.0026799664 0.00066156342
0.065559626 -0.12404841 0.06535323 -0.47795933 0.87837344 -0.00387609 0.0025344852
0.072760336 -0.12024993 0.066585556 -0.5284487 0.84895837 -0.003394495 0.0023030259
-0.083645254 -0.11189764 0.065158181 0.60805374 0.79389203 -0.0024625589 0.00059750001
-0.077010758 -0.11698847 0.06354776 0.55467653 0.83206475 0.001457338 0.0017468503
0.075452268 -0.11818433 0.065265685 -0.54513353 0.83832407 -0.0064993184 0.0021351082
0.083517902 -0.11199536 0.063595228 -0.60564667 0.79573196 0.001646484 0.00095635146
-0.094715849 -0.10340288 0.06416855 0.67874199 0.73437679 -0.0003348852 0.0023265874
-0.087256297 -0.10912679 0.064980932 0.61654097 0.78732115 -0.001611525 0.00057080283
0.088305019 -0.10832208 0.064549632 -0.63411552 0.7732383 0.0003213278 0.00098139676
0.093624689 -0.10424016 0.063400067 -0.67098808 0.74146163 0.00311442 0.001837653
-0.10276238 -0.095550552 0.066688016 0.73065078 0.68274987 -0.0014245271 0.0023066823
0.10424438 -0.093619175 0.064290643 -0.73977172 0.67284614 0.0039940011 0.0018642652
-0.11211094 -0.083367266 0.0628158 0.7959795 0.60532355 -8.1632068e-05 0.00069526304
-0.10867967 -0.087838992 0.062938333 0.78610402 0.61808354 -0.0036446811 0.00091274397
