# .PCD v0.7 - Point Cloud Data file format
VERSION 0.7
FIELDS x y z normal_x normal_y normal_z curvature
SIZE 4 4 4 4 4 4 4
TYPE F F F F F F F
COUNT 1 1 1 1 1 1 1
WIDTH 577
HEIGHT 1
VIEWPOINT 0 0 0 1 0 0 0
POINTS 577
DATA ascii
0.016560663 -0.06245986 0.12778676 -0.27345538 0.96175557 0.01576066 0.10747826
-0.035670131 -0.053401738 0.12610808 0.63336807 0.77302969 0.035637405 0.096389815
-0.028080735 -0.05773598 0.12734216 0.48073575 0.87605661 -0.03765557 0.10779566
-0.0075081373 -0.050641604 0.1278013 0.098684348 0.99363863 -0.05425556 0.099023215
0.0096962024 -0.050353538 0.12425925 -0.12777688 0.99108469 -0.037737936 0.10502409
0.025298215 -0.058888536 0.12612954 -0.44989046 0.8930124 0.011282724 0.1005867
0.032812417 -0.0556022 0.1236764 -0.50211483 0.86380714 -0.041447803 0.099873446
-0.045997873 -0.04522182 0.1226777 0.7243765 0.68932581 0.01042007 0.090724781
-0.02585111 -0.044251204 0.12535329 0.5662533 0.822882 -0.047142252 0.095696993
-0.015234706 -0.049095474 0.12376978 0.2711153 0.96082616 -0.057528596 0.11415429
0.015986444 -0.048784092 0.12696442 -0.35826489 0.93359047 -0.0074137207 0.11329666
0.02663862 -0.043748252 0.12495578 -0.53036201 0.84768939 -0.01178327 0.097131185
0.046430111 -0.044177175 0.12467277 -0.76168078 0.64726442 0.02985193 0.084219374
-0.054108441 -0.034669623 0.12391204 0.75469214 0.6559791 -0.011457365 0.087971434
-0.036764253 -0.036173958 0.12077688 0.72023726 0.69298393 0.032115534 0.086985879
0.032626886 -0.039486051 0.12925677 -0.65151143 0.75426745 -0.081322983 0.096256427
0.040926803 -0.030749273 0.12348082 -0.82975394 0.55758607 0.024619667 0.093943909
0.053854574 -0.034957256 0.12558566 -0.80357379 0.59509492 -0.011450295 0.097552076
-0.059158321 -0.024646943 0.12604624 0.92954654 0.36836499 0.01582565 0.10569989
-0.044218034 -0.025673537 0.12216529 0.84436822 0.535703 -0.0080338623 0.095119998
0.046697076 -0.021025006 0.12296598 -0.90263188 0.42947099 -0.028467292 0.096407399
0.058656961 -0.025857287 0.12151539 -0.90772837 0.41937375 -0.012440788 0.10352389
-0.063121043 -0.01153855 0.12411189 0.99018598 0.13182299 0.04641645 0.10235795
-0.047607049 -0.018828038 0.12743661 0.90997291 0.41457197 0.0089043183 0.10881756
0.049949758 -0.012763411 0.12270978 -0.96064627 0.26875293 -0.070217751 0.10328154
0.062881641 -0.013357034 0.12575719 -0.96559513 0.25341168 -0.058382306 0.09998817
-0.06463185 -6.2766223e-05 0.1280186 0.99992806 -0.0096529359 -0.0071182819 0.090589397
-0.051583599 -0.00035301075 0.12959768 0.99857962 -0.032380048 -0.042310983 0.097242534
0.051081151 -0.0041695242 0.12416234 -0.98099399 0.14368485 -0.13040504 0.1038793
0.064194798 -0.0033826944 0.12411103 -0.98858422 0.078238972 -0.12876281 0.092204615
-0.064207055 0.0032894283 0.1244375 0.99678963 -0.068390287 -0.041631922 0.1031261
-0.051266328 0.0027629437 0.12482377 0.99701464 -0.06621521 0.039715033 0.099863119
0.05073005 0.0068364572 0.12559628 -0.99258554 -0.10244151 -0.065419383 0.1129417
0.063623905 0.0077190297 0.12366423 -0.98950374 -0.13781877 -0.043454338 0.10958643
-0.062665708 0.014997197 0.12640461 0.9674421 -0.25131714 -0.02992476 0.10188893
-0.05017323 0.011065746 0.12292384 0.97927958 -0.19680658 -0.047734931 0.10042168
-0.049148031 0.015107803 0.12496515 0.93735999 -0.3463918 -0.036999036 0.096241511
0.0499902 0.012456266 0.12329914 -0.98373377 -0.1786049 -0.019186785 0.103713
0.062821493 0.013813902 0.12387517 -0.97826993 -0.20521493 -0.029574431 0.099252753
-0.058180768 0.027006969 0.12415067 0.91572398 -0.40091512 -0.026774053 0.10387353
-0.044854637 0.024592252 0.12755428 0.85486639 -0.5154196 -0.059547905 0.093663327
0.046152242 0.022273652 0.12592116 -0.89920104 -0.4358592 -0.038264275 0.10336009
-0.053013936 0.036185548 0.12715441 0.77430713 -0.63066638 -0.052042618 0.093035884
-0.039997656 0.031960137 0.12345116 0.726502 -0.68714803 0.004747055 0.096961826
0.037910588 0.034680106 0.12487201 -0.76061505 -0.64873201 0.024729779 0.093851738
0.040581018 0.03119994 0.12542047 -0.78833568 -0.61168617 -0.066082649 0.094540976
0.052216798 0.037224367 0.12580918 -0.80903661 -0.5877499 0.003143871 0.10469954
-0.02663637 0.043750722 0.12613866 0.62331146 -0.78120309 0.034708146 0.098249808
-0.015903369 0.048818529 0.12663352 0.4071559 -0.91290838 -0.028676543 0.10407788
0.016481349 0.048579119 0.12171367 -0.38094357 -0.92383146 0.037648808 0.10129592
0.024533771 0.044901978 0.12856545 -0.55347824 -0.8264721 0.10298377 0.096273124
0.043520771 0.047385417 0.12553248 -0.67774117 -0.73449188 0.034473356 0.089101404
-0.037702437 0.051849961 0.12585464 0.66675025 -0.74475366 -0.02803912 0.07947088
-0.006651653 0.050754376 0.12243199 0.13210237 -0.98760712 0.084741794 0.09698569
0.027933767 0.05779684 0.12619767 -0.4737913 -0.88063705 0.00045755363 0.097848706
0.036328115 0.052904509 0.12360759 -0.59634072 -0.80269605 0.0075348616 0.09301132
-0.020856436 0.060728371 0.12292688 0.40177432 -0.915663 0.011771057 0.088718399
-0.015560518 0.062404942 0.12537211 0.31279558 -0.94948149 -0.025374986 0.09444847
-0.0028131346 0.064269781 0.12629373 0.041589413 -0.99762726 0.05486552 0.083351836
0.0042273202 0.064083599 0.12525243 -0.064436927 -0.99682212 0.046835639 0.085527271
0.014267669 0.062761746 0.12458303 -0.16733176 -0.98587215 0.0074944263 0.088203423
0.022225857 0.06016114 0.12646779 -0.41070828 -0.9117586 -0.0038610853 0.10395623
-0.014698415 -0.062705033 0.13496599 0.20728816 0.97692031 -0.051557563 0.097169898
-0.0052773324 -0.063945338 0.1316628 0.09958829 0.99431592 -0.037657868 0.095776856
0.0077816765 -0.063615635 0.13599859 -0.095458493 0.99543142 0.0019862095 0.097435333
0.014369528 -0.062614441 0.13532989 -0.21022198 0.9776535 0.00054497016 0.097518906
0.021439347 -0.060486924 0.13404514 -0.33759031 0.94084656 -0.028991649 0.096391693
-0.028803404 -0.057436638 0.13529196 0.46453616 0.88103509 -0.089349255 0.098950163
-0.0027357454 -0.0512699 0.13857009 0.085396357 0.99078107 -0.10516849 0.09231551
0.0019950196 -0.051367417 0.13614857 -0.0079230387 0.99969798 -0.023260802 0.092736341
0.010157193 -0.050292846 0.13947287 -0.11458639 0.99240512 -0.044743568 0.10633211
0.026997045 -0.058184858 0.13535972 -0.46894172 0.88252443 0.035275828 0.09977217
0.036340144 -0.052895281 0.13632847 -0.54606038 0.83721983 0.029683733 0.094856113
-0.046581306 -0.044476226 0.13756984 0.71577364 0.69813865 0.016447082 0.096850105
-0.030590704 -0.04104846 0.13740529 0.59353352 0.80479389 -0.0049843462 0.098958686
-0.025959181 -0.044290852 0.13753287 0.47503287 0.875494 -0.088623233 0.096356332
-0.016109141 -0.048733272 0.13366361 0.31069079 0.94351512 -0.11511075 0.11088437
0.016239213 -0.048679393 0.13958035 -0.35651508 0.93422103 0.011317698 0.10516917
0.026558081 -0.043885667 0.13385488 -0.55581653 0.83123589 -0.010717699 0.090564743
0.047904015 -0.042759452 0.13315152 -0.73411733 0.67432135 -0.079764917 0.09445449
-0.05344376 -0.035440743 0.13364807 0.79511732 0.60554886 -0.033151321 0.10607957
-0.037341028 -0.035016842 0.1349957 0.68772793 0.72552103 0.025484888 0.098007433
0.037320592 -0.035055645 0.13279766 -0.74064934 0.66842395 0.068175986 0.093858138
0.040808778 -0.030903086 0.1316742 -0.84848988 0.52917576 0.0061612101 0.090847716
0.05415808 -0.034603726 0.13257138 -0.8329972 0.5511722 -0.048217285 0.10345331
-0.060390748 -0.021671589 0.13845484 0.96553665 0.25961667 0.018388122 0.094357103
-0.057769574 -0.027999692 0.13543072 0.87030536 0.49057263 0.04366909 0.098522574
-0.042411424 -0.028814435 0.1374287 0.76908249 0.63560635 -0.067206807 0.09814813
0.046527822 -0.021433622 0.13463783 -0.89549893 0.44019058 0.065680608 0.10425194
0.058808066 -0.025492487 0.13625133 -0.92404902 0.38033888 0.038415007 0.10517248
0.060185999 -0.022165865 0.13412447 -0.91546261 0.40223429 0.011651546 0.099885881
-0.062329426 -0.015542679 0.13495654 0.98103404 0.19317913 -0.015939621 0.098549061
-0.048646003 -0.016319774 0.1349902 0.96077597 0.2756463 0.030472832 0.10688312
0.050287396 -0.010198787 0.13158694 -0.96890581 0.24447845 -0.038103472 0.098241985
0.062706679 -0.014686 0.13632742 -0.96474695 0.26020274 0.039469395 0.10104442
-0.063751712 -0.0067481007 0.13389234 0.99940485 0.01886096 -0.028882444 0.1047523
-0.050694428 -0.0071068699 0.13537848 0.99561715 0.092401527 -0.014434646 0.10490385
0.050986201 -0.0048907595 0.13485102 -0.99128836 0.1131954 -0.067337878 0.10045916
0.064530462 -0.00083316036 0.13100946 -0.99800366 0.022702593 -0.058934994 0.098773189
-0.064049609 0.0044853357 0.13699841 0.98743165 -0.12698954 -0.094087079 0.098102421
-0.051047835 0.0044225291 0.13689935 0.99125397 -0.11211988 -0.069603689 0.091001064
0.05135911 0.0020582469 0.13208158 -0.99783033 -0.024647234 -0.06105002 0.10345717
0.063979372 0.0050190687 0.13646443 -0.99282384 -0.085938275 -0.083158903 0.094172895
-0.050154202 0.011210286 0.13601634 0.97272646 -0.21988909 -0.07383807 0.095922247
-0.047837235 0.01827235 0.13481665 0.91487449 -0.38967845 -0.10561857 0.096146733
0.047684681 0.018640734 0.13376263 -0.93602598 -0.351881 0.0059410408 0.10223734
0.050210595 0.010782148 0.1359809 -0.98590559 -0.16705267 -0.0091418223 0.099231385
0.062594771 0.014682461 0.13599747 -0.9822613 -0.18216375 -0.044486471 0.09065152
-0.058295362 0.026730308 0.13421576 0.9192304 -0.37726027 -0.11265137 0.085250571
-0.044009 0.026440818 0.13641974 0.85002393 -0.52669048 -0.0075157396 0.097972192
0.043633536 0.026836302 0.13240634 -0.83780432 -0.54571748 0.016626325 0.093907714
0.059169203 0.024620615 0.13449378 -0.92859024 -0.36883742 -0.040977925 0.084940672
-0.05288288 0.036356345 0.13493542 0.82678801 -0.56101245 -0.041068181 0.10045401
-0.036296651 0.035784945 0.13320231 0.72642636 -0.68575877 0.045160666 0.091179579
0.032333266 0.039711379 0.13479528 -0.6906296 -0.72214103 0.039280836 0.11014687
0.052017622 0.037483938 0.13289885 -0.82091838 -0.56976163 -0.03826927 0.092231728
-0.043453086 0.047110025 0.13598958 0.66902292 -0.7427243 0.027728857 0.097096615
-0.031371091 0.040449671 0.135506 0.67026687 -0.7421028 0.0050859721 0.097358607
-0.023689916 0.045330316 0.13276465 0.55832785 -0.82955432 -0.010469847 0.097202495
-0.016933158 0.048391979 0.13664107 0.41589996 -0.90765232 -0.05652057 0.092292197
0.015488438 0.048990395 0.13630117 -0.25253168 -0.96716815 -0.028521115 0.10342407
0.026281733 0.044354893 0.13006018 -0.59145766 -0.79865706 0.11101689 0.10073012
0.04859164 0.041948788 0.13266245 -0.76177424 -0.64728743 0.026814135 0.09898027
-0.035031177 0.05365929 0.13599344 0.61172181 -0.7908994 0.016568497 0.091592684
-0.026788104 0.058271393 0.1341254 0.48371452 -0.87506837 -0.016605431 0.10001212
-0.0071114614 0.05069384 0.1351628 0.17529978 -0.98442721 0.013148912 0.10715599
0.029493786 0.057150662 0.13931078 -0.45290327 -0.89144927 -0.014026522 0.095568106
0.03454962 0.054269183 0.1357979 -0.57749617 -0.81638122 0.0044691493 0.1097675
-0.01621047 0.062251605 0.13733807 0.31198379 -0.95001101 -0.012051275 0.09544719
0.0039743623 0.064116895 0.1364821 -0.1015595 -0.99425995 -0.033656407 0.086380459
0.017310716 0.061945956 0.13333997 -0.22956865 -0.97326183 -0.0077216243 0.10220089
0.022497088 0.060048793 0.13836454 -0.3656635 -0.92869663 -0.061746601 0.090184748
-0.021306805 -0.060541824 0.14420238 0.38348541 0.9206745 -0.072782867 0.10047089
-0.012506525 -0.062993601 0.14610745 0.25787431 0.96572185 -0.029704273 0.10097885
0.0051107043 -0.063967273 0.14047359 -0.0068805953 0.99579489 -0.091352157 0.10059969
0.014172349 -0.062774286 0.14817788 -0.18560536 0.98142612 0.048511241 0.10756514
-0.034457169 -0.054340139 0.14337544 0.52808082 0.84731054 -0.056528836 0.10566247
-0.027724646 -0.057883475 0.14354406 0.44911593 0.89130533 -0.062206749 0.10070202
-0.01030766 -0.050273046 0.1420638 0.22483431 0.97220618 -0.065305494 0.10103678
-0.0050399462 -0.05096655 0.14603463 0.11216561 0.9931612 0.032400336 0.10666127
0.0094088018 -0.050391376 0.14071688 -0.12496244 0.99198735 -0.018585071 0.10671578
0.024113514 -0.05937925 0.14906652 -0.39236429 0.91896623 0.039387871 0.11285625
0.033601154 -0.054636505 0.14516376 -0.5563935 0.83091849 -0.00085255149 0.10547297
-0.044484325 -0.046184231 0.14481747 0.66976452 0.74198717 0.029505316 0.088448279
-0.031349473 -0.040466234 0.14038402 0.57789278 0.81414795 -0.056595463 0.094095305
-0.023639742 -0.045614 0.14686891 0.44385508 0.89578766 -0.023606129 0.11153083
-0.018230611 -0.047854532 0.14403722 0.29441684 0.95382673 -0.059441127 0.10295572
0.016371829 -0.04862446 0.14597164 -0.2971296 0.95242947 -0.067765914 0.1250792
0.023126662 -0.045826524 0.14543265 -0.45570678 0.88864124 0.051459815 0.12140027
0.03128659 -0.040514499 0.14327504 -0.66691148 0.74491274 -0.018279243 0.089864582
0.044686552 -0.046015039 0.14588773 -0.69210613 0.7193864 0.058926743 0.08918342
-0.052469105 -0.036895588 0.14342059 0.80460072 0.59349936 -0.01939534 0.10822726
-0.034894709 -0.037434496 0.14698747 0.67684233 0.7360509 0.01066025 0.095992476
0.039101604 -0.033127911 0.14515255 -0.72983938 0.68359733 -0.0053873584 0.10559737
0.041047014 -0.030592615 0.14373364 -0.78648013 0.61752248 0.010718368 0.10026198
0.054110996 -0.034755796 0.14972028 -0.81258422 0.58174396 -0.035789829 0.090844892
-0.059965223 -0.022698911 0.14323255 0.9420917 0.33535293 -0.001249076 0.099772707
-0.043570817 -0.027303483 0.14904815 0.78632462 0.61750782 0.019433761 0.10625272
0.045146238 -0.024444809 0.1471232 -0.86706978 0.49720058 -0.031331912 0.097960874
0.058939572 -0.025175005 0.14501107 -0.91909963 0.39379725 0.013401617 0.10596899
-0.061741047 -0.018411657 0.14286073 0.97807598 0.20596831 -0.030731594 0.096505061
-0.048505306 -0.016659455 0.14215513 0.94354278 0.31733483 0.095003985 0.10143354
0.048113197 -0.017606186 0.14138848 -0.95011967 0.31098399 0.023697527 0.099373601
-0.063547991 -0.0082955817 0.14593959 0.99499571 0.09986122 -0.0033538328 0.097076282
-0.050582416 -0.0079576783 0.14375672 0.99967694 0.010169065 -0.023295224 0.09167441
0.051056713 -0.0043551545 0.14652084 -0.99700123 0.06066018 -0.048051666 0.096622169
0.064135239 -0.0038351074 0.14210965 -0.99876326 -0.013778707 -0.047770582 0.10062797
-0.06430462 0.002548333 0.14375502 0.9931671 -0.11667512 -0.0024328837 0.10120443
-0.051066279 0.0042824503 0.14775649 0.9929899 -0.11382078 0.031874813 0.098314792
0.050661065 0.0073604742 0.14620271 -0.98894888 -0.14015783 -0.048330892 0.10282525
0.063369818 0.0096490234 0.14195545 -0.99176854 -0.12583646 0.023673397 0.10331132
-0.062413655 0.014744267 0.14398596 0.98905605 -0.14663449 0.016323872 0.093893237
-0.047620215 0.018796284 0.14739135 0.90703529 -0.42004478 0.029143313 0.095403627
0.047679454 0.018653344 0.14294012 -0.9268409 -0.36931869 0.067599364 0.0954789
0.050098196 0.011635912 0.14461598 -0.98697352 -0.16087045 0.002011721 0.09977743
0.062627688 0.014815194 0.14741346 -0.96089077 -0.27157527 0.054182578 0.097084321
-0.043679755 0.026703361 0.146332 0.83853555 -0.54433507 -0.02361067 0.09928181
0.04601964 0.022660503 0.14333235 -0.93178141 -0.35521302 0.074881114 0.10085837
0.057798743 0.0279292 0.14990714 -0.94060487 -0.33716321 0.03979155 0.096460104
-0.05289264 0.036343619 0.14120872 0.7890501 -0.60979646 -0.074486353 0.089734808
-0.035545256 0.037231423 0.14688553 0.69031274 -0.72338814 -0.013336697 0.10476293
0.054282717 0.034378927 0.14318687 -0.89098191 -0.4534944 0.022225965 0.086975567
-0.040589832 0.049634397 0.14202674 0.66106772 -0.74991429 0.024858907 0.090744078
-0.030675272 0.040983591 0.14419329 0.64304924 -0.76464289 0.042531472 0.095774949
-0.026931262 0.043657523 0.14574894 0.57987499 -0.81362522 -0.041940179 0.095166773
0.017521998 0.048148073 0.14364594 -0.25320151 -0.96067941 -0.11394794 0.10533843
0.02486103 0.044757985 0.14433748 -0.49335992 -0.86729628 -0.066281095 0.10683624
0.030664876 0.040991578 0.14121555 -0.66309333 -0.74805576 -0.026828604 0.10895727
0.044063129 0.046822272 0.14566258 -0.70017409 -0.71342832 -0.0278627 0.093542859
-0.036408581 0.052842766 0.14944735 0.53327912 -0.84593886 0.00087944104 0.10172027
-0.025837485 0.058665156 0.14624615 0.51352763 -0.85646522 -0.052505299 0.10548317
-0.0072396621 0.05067696 0.14913046 0.18779692 -0.97720808 -0.098978445 0.10934968
0.0065774438 0.050764143 0.1418447 -0.13069513 -0.99125177 -0.018404162 0.091908321
0.027849276 0.057831842 0.14026037 -0.41581228 -0.90591019 -0.080167226 0.087910905
0.035280526 0.053708348 0.14748017 -0.49094868 -0.86930549 -0.057247989 0.098758936
0.040055342 0.050044522 0.14178033 -0.64545727 -0.76320714 0.02999606 0.091984853
-0.021205842 0.06058364 0.1450046 0.36881772 -0.92433393 -0.097878478 0.098422624
-0.01670482 0.062004514 0.14345698 0.34482771 -0.93748081 -0.047155917 0.099506654
-0.0046352451 0.064029895 0.14638925 0.014427704 -0.99989182 -0.0028612434 0.095899239
0.0032241184 0.064215668 0.14512189 -0.076837763 -0.98988813 -0.11923704 0.088796131
0.013882029 0.062812522 0.14399716 -0.24245667 -0.96863151 -0.054477196 0.10220565
0.021167286 0.060599614 0.14711419 -0.37578315 -0.92112267 -0.10158746 0.093869239
-0.012255447 -0.063026652 0.15995584 0.25729498 0.96591216 0.028513348 0.08805199
-0.0019920606 -0.064377852 0.156249 0.0027161795 0.99986309 0.01632221 0.096769296
0.0060982895 -0.06383726 0.15620488 -0.059184626 0.99824536 -0.001849029 0.1073232
0.014346316 -0.062672868 0.15347868 -0.19437493 0.98083854 -0.013198889 0.10052545
0.020226961 -0.060989112 0.15569907 -0.3557094 0.93454564 0.0097666178 0.10595428
-0.033961233 -0.054720689 0.15274096 0.52462786 0.85107654 -0.02083784 0.10268308
-0.024398059 -0.059261389 0.15742131 0.36565986 0.92873019 0.061262809 0.1080744
-0.011176082 -0.050158709 0.15511625 0.21770433 0.97412086 0.060772751 0.10415873
-0.0090094022 -0.050443958 0.15674683 0.19302407 0.97962028 0.055551521 0.10076769
0.0057824636 -0.050868791 0.15530442 -0.068185553 0.99724835 -0.029090561 0.10917758
0.023988822 -0.059430897 0.15549174 -0.45674509 0.88701344 -0.067757867 0.089643449
0.039354749 -0.0505821 0.15293689 -0.6313349 0.77463967 0.036738098 0.093439549
-0.042334139 -0.04829593 0.15328684 0.62966025 0.77672809 -0.014881269 0.099225305
-0.030809036 -0.040880926 0.15386066 0.5498172 0.83523613 0.0090325996 0.098351203
-0.025200635 -0.04457533 0.15428442 0.51497793 0.85597986 0.045785055 0.10532766
-0.013049737 -0.049912035 0.15314637 0.23523617 0.9685688 0.080860078 0.10480743
0.01412642 -0.049554542 0.15218799 -0.17883219 0.98326284 -0.034830634 0.11374805
0.020293426 -0.047000084 0.15534276 -0.40686277 0.91324228 0.021245202 0.10403536
0.030410115 -0.041187044 0.15522489 -0.57300204 0.8181293 0.048303574 0.097127825
-0.054095395 -0.034592114 0.15619372 0.82675862 0.55489963 0.092501454 0.094668202
-0.032695241 -0.039433584 0.15470293 0.53565168 0.84436274 -0.011355726 0.096282311
0.035892095 -0.036536206 0.1543168 -0.69228894 0.71374905 0.1062939 0.095201582
0.053503335 -0.035517212 0.15754087 -0.85327578 0.51524913 0.08024209 0.092778631
-0.057078451 -0.029668227 0.15179859 0.8571769 0.51323485 0.04286905 0.097569846
-0.044862416 -0.024463644 0.15118383 0.85284787 0.51414561 0.091130465 0.11141258
0.044487726 -0.025807342 0.15235324 -0.86745602 0.4967607 0.027365973 0.10580899
0.059282303 -0.024347581 0.1546606 -0.92978799 0.36750913 0.020767091 0.10053458
-0.050232418 -0.010616158 0.15302995 0.99424046 0.10576374 0.01732108 0.10173198
-0.049459569 -0.01427179 0.15753327 0.96387053 0.26623207 -0.0085983109 0.10767111
0.049598068 -0.014021382 0.15019093 -0.97802198 0.20501284 0.037983403 0.099114731
0.050019264 -0.012235502 0.15172035 -0.99093181 0.13346103 0.015567588 0.10048573
0.06253802 -0.014870023 0.15510277 -0.98303574 0.18013567 -0.034524053 0.10570382
-0.063776396 -0.0065606306 0.15858914 0.99900395 0.032662369 0.030401915 0.08517988
-0.050952539 -0.0051463353 0.15387052 0.99709541 0.075357392 0.011052886 0.103639
0.051174629 -0.0034595029 0.15924588 -0.99741113 0.039445542 0.060125012 0.095469482
0.064341784 -0.0022662992 0.15441942 -0.99997532 -0.0069781155 -0.00087282539 0.099017911
-0.064118847 0.0039594043 0.15615588 0.98857045 -0.13521421 0.066675946 0.096204534
-0.051152747 0.0036256374 0.15498784 0.97964138 -0.17127579 0.10472459 0.10173848
0.050765857 0.0065644826 0.15672708 -0.99849445 -0.046362776 0.029314023 0.10050351
0.064199425 0.003347575 0.15431941 -0.99867254 -0.012309495 0.050017089 0.098835558
-0.062286146 0.01699863 0.15760235 0.96493566 -0.24379095 0.097289748 0.08570724
-0.050232507 0.01061549 0.15763992 0.97051466 -0.22607394 0.083617643 0.09414874
-0.048639398 0.016335748 0.15459491 0.9383775 -0.34239429 0.047050942 0.10015982
0.048173115 0.017461548 0.15475114 -0.96979308 -0.2351729 0.064769551 0.10122368
0.050070938 0.011843005 0.15384167 -0.98598087 -0.16534868 0.022395376 0.11182427
0.062323827 0.015801778 0.1553507 -0.96980393 -0.23193149 0.07541927 0.10677914
-0.058544368 0.026129147 0.15228118 0.90473849 -0.42544225 -0.021146094 0.098621003
-0.045901239 0.022946257 0.15370816 0.84709847 -0.52334708 0.092369489 0.094632886
0.044832721 0.025525983 0.15953614 -0.90549928 -0.4134613 0.09550295 0.11029227
0.057378631 0.028943432 0.15776128 -0.93006241 -0.3593154 0.0766581 0.097672425
0.060536068 0.021320719 0.1558148 -0.95895964 -0.27016377 0.08606939 0.098971173
-0.05213622 0.037329409 0.15861842 0.78841025 -0.61152065 0.066721782 0.087716684
-0.034199137 0.038279623 0.15235355 0.65347165 -0.75644064 0.027791841 0.10969424
0.035463452 0.037309505 0.15185915 -0.69873542 -0.71289337 0.059597649 0.094861723
0.04060686 0.031166257 0.15335661 -0.83352995 -0.55056787 0.045856766 0.09768831
0.053711139 0.035276894 0.15738666 -0.9013108 -0.42526591 0.082387261 0.087305285
-0.044966072 0.04621743 0.15559703 0.7138105 -0.69073981 0.11555543 0.096360773
-0.031101895 0.040656231 0.15693966 0.60726672 -0.7942512 0.019799711 0.10783549
-0.026871771 0.043729439 0.15673696 0.53341293 -0.84466195 -0.044909235 0.10664324
-0.016725561 0.048477966 0.15706903 0.34204611 -0.93948424 -0.019336179 0.10564002
0.018919785 0.047569089 0.15105173 -0.33529124 -0.93772095 -0.090880103 0.099394768
0.023995271 0.045325477 0.15546644 -0.41687933 -0.90716732 -0.057089243 0.10251725
0.046572238 0.044324577 0.15401135 -0.72423673 -0.68813741 -0.044136047 0.092047445
-0.033453431 0.055028386 0.15782747 0.49761385 -0.86710119 0.022716792 0.096695513
-0.027628612 0.057923239 0.15518928 0.42400119 -0.90561277 0.0094110705 0.10621393
-0.011293458 0.050143279 0.1570549 0.28395995 -0.95623845 -0.070532307 0.11796434
-0.0032633841 0.051200446 0.15638383 0.042389579 -0.99593353 -0.079494633 0.11001707
0.0026740504 0.051278025 0.15293086 -0.10073473 -0.98966306 -0.1020763 0.092721127
0.010966018 0.050186381 0.15554255 -0.10487847 -0.99124628 -0.080195107 0.10168517
0.02787409 0.057821564 0.15686058 -0.3904815 -0.91997087 0.034319323 0.097506762
0.035257537 0.053634971 0.15391104 -0.46954793 -0.88232511 -0.032048821 0.087835506
-0.017068304 0.061949112 0.15730555 0.35411429 -0.93513459 0.011242685 0.108855
-0.0079576643 0.063592494 0.15684496 0.090299733 -0.99583912 -0.012269182 0.10814065
0.0034412041 0.064187095 0.15406053 -0.11061041 -0.98909545 -0.097240448 0.092421502
-0.015361504 -0.062536873 0.16501507 0.27965689 0.9558894 0.089819245 0.10122371
-0.0010587268 -0.064500734 0.16463631 0.017591231 0.99853861 0.051099543 0.086249806
0.014387764 -0.062738977 0.16468473 -0.18170044 0.98335385 0.00045080099 0.10020385
-0.035776008 -0.053328156 0.16737743 0.54441684 0.83595258 0.06923601 0.094031252
-0.024392307 -0.059263773 0.16310322 0.40499675 0.91343981 0.040064476 0.10442184
-0.01075929 -0.050213579 0.16782162 0.22647636 0.97074503 0.079765432 0.10448916
-0.0052901893 -0.050933599 0.16411236 0.10449544 0.99211782 0.069158956 0.096663758
0.0015936354 -0.051420256 0.16225256 0.015361156 0.99891698 0.043920208 0.095368557
0.026760593 -0.0582828 0.16510196 -0.44435713 0.89551508 0.024483737 0.094579794
0.036075551 -0.053098314 0.16493893 -0.58906364 0.80729973 0.035652619 0.088445477
-0.043461755 -0.047144853 0.16195241 0.65295345 0.75738859 -0.003778151 0.092711501
-0.026089953 -0.044107616 0.16614456 0.49487242 0.86717099 0.055819213 0.099485047
-0.014963573 -0.049207781 0.1644216 0.33498871 0.9413656 0.040167239 0.098066516
0.015555596 -0.048962556 0.16050056 -0.24946411 0.9682945 -0.013166851 0.10243572
0.02455771 -0.045161244 0.16258189 -0.54282951 0.83656573 0.07412032 0.096342444
0.044886898 -0.046041876 0.16303347 -0.67750901 0.7306031 0.084856234 0.086067662
-0.054171056 -0.034677569 0.16415018 0.76743948 0.64104784 0.009713348 0.08329232
-0.041054398 -0.030582942 0.16626258 0.80552828 0.5925355 0.0050804825 0.097144276
-0.034260508 -0.038232509 0.16109772 0.59206361 0.80551451 0.024638595 0.093416624
0.03491132 -0.03768687 0.16617313 -0.66705054 0.73891288 0.095138408 0.092527233
0.05340834 -0.035486501 0.16442937 -0.83206517 0.5301103 0.16325 0.08382652
-0.060707815 -0.020906104 0.16323845 0.97247976 0.22869332 -0.044524144 0.08865241
-0.057793807 -0.027941186 0.16422082 0.90857244 0.41772684 -0.00063163444 0.092159152
-0.045435064 -0.024071682 0.16581224 0.843018 0.53788465 0.00089560926 0.099921301
0.043792311 -0.026933866 0.16622655 -0.86088175 0.49793118 0.10462844 0.092048325
0.059507176 -0.023804694 0.16972838 -0.94404149 0.32356825 0.063947529 0.092171811
0.06035877 -0.021748759 0.16399109 -0.94823706 0.31362462 0.049859513 0.090260148
-0.063177541 -0.011109455 0.16694772 0.98642296 0.15637809 0.050155591 0.081226297
0.048460782 -0.016767032 0.16742107 -0.94879967 0.30158982 0.093930416 0.1016262
0.050146755 -0.011267071 0.16848756 -0.98986143 0.066039823 0.12575027 0.092021242
0.0510162 -0.0046629081 0.16285489 -0.9925971 0.10524995 0.060609378 0.097955741
0.064203233 -0.003318643 0.16582467 -0.99562579 -0.0017001469 0.093415819 0.094367921
-0.063611358 0.0078141941 0.16770548 0.98523533 -0.15906721 0.063316196 0.10185982
-0.05102472 0.0045981044 0.16533253 0.9974817 -0.057628028 0.041342735 0.10411283
0.050578438 0.0079881065 0.16186547 -0.99677002 -0.074302837 0.030474406 0.10172123
0.064551517 0.00067328895 0.16519164 -0.99844122 0.029082635 0.047637407 0.088351615
-0.062462188 0.014980611 0.16548041 0.96334666 -0.26122808 0.061017625 0.097101256
-0.049876358 0.013320688 0.16277333 0.9587003 -0.26022419 0.11479191 0.090599619
0.049978711 0.012543509 0.160613 -0.99413627 -0.10109431 0.038379423 0.10351188
0.050076351 0.01180191 0.16757703 -0.99469548 -0.10222048 0.011488742 0.1028363
0.062780112 0.014128218 0.16799422 -0.99173993 -0.11879605 0.048366219 0.10089044
-0.059364505 0.024149161 0.16648072 0.94224405 -0.3241632 0.084228486 0.098050497
-0.043507095 0.02738655 0.16792676 0.84664667 -0.52975905 0.050444614 0.095938429
0.044758808 0.025471533 0.16568071 -0.92412728 -0.38041282 -0.035706241 0.11224113
0.058289811 0.026743662 0.16057606 -0.91871011 -0.39263245 0.042561166 0.096285708
-0.053216919 0.035921011 0.16354883 0.81649876 -0.57595587 0.040058702 0.094654448
-0.035694793 0.037131965 0.1635709 0.69222063 -0.72126651 0.024600431 0.099469699
0.053625971 0.035378225 0.16384177 -0.90203118 -0.42783812 0.057395633 0.094450675
-0.047940452 0.042694747 0.16542865 0.80616635 -0.58935493 0.052502867 0.090634592
-0.031820007 0.040105201 0.16088201 0.645522 -0.76311046 0.031043489 0.099498153
-0.028310621 0.042798061 0.16203541 0.53128922 -0.84652668 0.03353155 0.10046002
-0.01479817 0.049229238 0.16281761 0.30314961 -0.95268005 -0.022385439 0.11001983
0.016518807 0.048549507 0.16515121 -0.22151722 -0.97428817 -0.041140713 0.092560932
0.022103151 0.046250496 0.16790327 -0.37372082 -0.92753679 -0.0028730582 0.099185646
0.045673545 0.045165643 0.1632219 -0.63700211 -0.77040255 0.026613321 0.092369288
-0.033870805 0.054634508 0.16420718 0.53708899 -0.84284633 -0.033846632 0.10095389
-0.0036590411 0.051148359 0.16554527 0.038106408 -0.99788982 -0.052573022 0.11168187
0.0080831377 0.050565917 0.16139956 -0.11505923 -0.99197239 -0.052460901 0.094780564
0.0118494 0.050070085 0.16908681 -0.15728031 -0.98535842 -0.065816462 0.093823262
0.024149861 0.059364192 0.16623534 -0.30515772 -0.94933021 -0.075172186 0.094595537
0.034616925 0.054217547 0.16712795 -0.4286885 -0.90130645 -0.062231563 0.083401784
-0.016330376 0.062243395 0.16435055 0.30920598 -0.9505052 -0.030522414 0.11729658
-0.0097568044 0.063355625 0.16339311 0.093545124 -0.99352199 -0.064523786 0.10058884
0.0004299393 0.06458354 0.16575815 -0.054848708 -0.99776649 -0.038127657 0.10194318
0.014701691 0.062704608 0.16622674 -0.19164816 -0.97727054 -0.090626955 0.087577067
-0.02148319 -0.060468763 0.17540516 0.36535555 0.92606843 0.094406322 0.096174948
-0.015981764 -0.062233657 0.17373109 0.2426572 0.96797818 0.064309157 0.093985721
-0.0025788012 -0.064300612 0.17208612 0.014395596 0.99988675 0.0043856413 0.091147467
0.0071238652 -0.063702241 0.1750007 -0.095929392 0.99503106 -0.02666161 0.099502549
0.013957635 -0.062802553 0.17344141 -0.21223515 0.97623903 -0.043744236 0.10032693
-0.036389921 -0.052857086 0.17480668 0.61324203 0.78901875 0.037196122 0.098908216
-0.025443638 -0.058828298 0.17524473 0.39838153 0.9098621 0.11594456 0.081810035
-0.0045746178 -0.051027805 0.17625766 0.074288987 0.99676692 -0.030607156 0.10946806
0.0078683663 -0.050594177 0.17674574 -0.080786303 0.9946695 -0.064079478 0.09736985
0.023394346 -0.059677139 0.1791992 -0.396961 0.91782361 -0.0046568071 0.097631142
0.036326826 -0.052905507 0.17319688 -0.52655244 0.84642899 -0.079374924 0.093678772
-0.046596855 -0.044320788 0.17242225 0.6687324 0.74249011 0.038797073 0.082021751
-0.030636905 -0.04101301 0.17921443 0.62250614 0.78252256 0.012024223 0.087517947
-0.026308591 -0.044304237 0.17447542 0.59290665 0.79796743 0.10821068 0.098487213
-0.017205371 -0.0482792 0.17501819 0.34495065 0.93770927 0.041357517 0.098177344
0.014901508 -0.049233489 0.17742899 -0.3683812 0.92933267 -0.025223754 0.099699937
0.021435507 -0.046527021 0.1768823 -0.37436995 0.92727113 0.003928693 0.10297196
0.03080637 -0.040882986 0.17797191 -0.49623778 0.86488914 -0.075596124 0.093324892
0.043537006 -0.047372941 0.17578411 -0.60813892 0.79293573 -0.037683111 0.087440483
-0.053284626 -0.035800159 0.17569987 0.7990737 0.60047889 0.030105185 0.096882872
-0.036316808 -0.036100164 0.17327958 0.67398453 0.73728198 0.046477813 0.090885654
0.038816392 -0.033499613 0.17067647 -0.70312363 0.71002734 0.038450498 0.095870659
0.052084677 -0.037396554 0.17631418 -0.82115394 0.57016271 -0.024914159 0.09218958
-0.060284864 -0.021927208 0.17641318 0.94521183 0.32359543 0.043134484 0.10195678
-0.057217784 -0.029331844 0.17675087 0.85906798 0.51173675 0.011296795 0.10069782
-0.044412129 -0.025544351 0.17430702 0.81664288 0.5731836 0.067490689 0.10092654
0.057862058 -0.027776359 0.17187713 -0.9151392 0.39873657 0.059409045 0.094377138
-0.063212335 -0.010845085 0.17347877 0.99710947 0.073873654 -0.017762786 0.089206241
0.048962548 -0.015555654 0.17201009 -0.98237109 0.17971563 0.051472411 0.1058891
0.050061546 -0.011914287 0.17193443 -0.99025214 0.10277478 0.094010726 0.098090194
0.062560745 -0.014698023 0.17306769 -0.9863894 0.10706913 0.12478909 0.087087609
-0.063883528 -0.0057468526 0.17425445 0.99212205 0.11871553 0.040004771 0.093219683
-0.051350303 -0.002125049 0.17061599 0.99838537 0.05659819 0.0048341919 0.092011265
0.051400762 -0.0017418386 0.17193471 -0.99430382 -0.028056709 0.10282362 0.091611974
0.063574158 -0.0080968849 0.17622799 -0.99779534 0.029724095 0.059337649 0.094538696
-0.064072624 0.0043105506 0.17526206 0.99759853 -0.055755503 0.041090399 0.092705816
-0.050861511 0.0058377832 0.17559059 0.98897839 -0.14624967 0.023084505 0.093392514
0.051197372 0.0032867361 0.17315006 -0.99526054 -0.07502237 0.061871663 0.088586308
0.064270951 0.0028043222 0.17379135 -0.99901366 -0.02547561 0.036369268 0.096520677
-0.062801458 0.013526272 0.17303449 0.98027337 -0.19657557 0.020548176 0.094979323
-0.049200542 0.014981028 0.17355235 0.95624101 -0.29166532 0.023119377 0.095411465
0.049390804 0.014237719 0.17327216 -0.98588955 -0.1669468 0.01227285 0.11079016
0.062472671 0.016463464 0.17512593 -0.9791255 -0.19952859 -0.038749766 0.10589767
-0.058467221 0.026315415 0.17542845 0.92584777 -0.37738505 0.019655662 0.10905565
-0.045782816 0.023232166 0.17580602 0.86718959 -0.4926177 0.072868757 0.09660431
0.045279056 0.02444843 0.170755 -0.89816082 -0.43777984 0.040692065 0.10390691
0.057866599 0.027765382 0.17156667 -0.94478482 -0.32755274 -0.0095360978 0.096545197
0.060533628 0.021326609 0.17143792 -0.94874823 -0.31526002 0.022090379 0.097883828
-0.054133464 0.034696721 0.17382054 0.80978417 -0.58493727 0.045803584 0.094995581
-0.038120158 0.034406938 0.17048809 0.75848991 -0.64026016 0.12149023 0.091405906
0.035936005 0.036585867 0.17722401 -0.61543047 -0.78177917 -0.10033213 0.077635281
0.052585028 0.036744475 0.17605469 -0.81733227 -0.57551515 -0.027389968 0.095138252
-0.044996232 0.045653101 0.17401206 0.68528295 -0.72718525 0.039862029 0.095747747
-0.027616046 0.043331031 0.17183393 0.50830495 -0.86003566 -0.044323858 0.0967457
-0.0160325 0.048765041 0.17076154 0.24787967 -0.96872258 -0.011505028 0.10721143
0.015532804 0.048952311 0.17454371 -0.1912839 -0.97878301 -0.0734457 0.085187301
0.025701664 0.044464532 0.17344397 -0.48382121 -0.87509477 -0.011227927 0.098154344
0.04493339 0.046155293 0.175717 -0.64457566 -0.7645213 -0.0054223016 0.080050588
-0.04004987 0.050048716 0.1793465 0.57165998 -0.81964242 0.037298199 0.10252392
-0.03499525 0.05392725 0.17648557 0.56016427 -0.82787895 0.028854584 0.087149508
-0.026435502 0.058417447 0.17573333 0.41040406 -0.91180974 0.013101735 0.09121871
-0.011587088 0.050104622 0.17221279 0.18342686 -0.97987771 0.078703776 0.099182099
-0.0094448458 0.050386645 0.17751543 0.11873984 -0.99025881 0.072721109 0.095868036
0.00073335785 0.05153352 0.17578928 -0.055128247 -0.99845111 -0.0074949777 0.097538717
0.011867246 0.050067738 0.17349088 -0.17626883 -0.98396713 -0.027165942 0.097114459
0.023193786 0.059760209 0.17838174 -0.28706035 -0.95781589 0.013610309 0.10000064
0.038536988 0.051209588 0.17776529 -0.5478009 -0.83660656 -0.0019017839 0.085453488
-0.010059225 0.063315809 0.17477325 0.069236428 -0.99721682 0.027657118 0.098045513
-0.0043964856 0.064061329 0.17863975 -0.0065168506 -0.99927312 0.037559528 0.1102488
0.014368065 0.062748529 0.17007835 -0.18649884 -0.98115176 -0.05058977 0.095763035
-0.01464358 -0.062712245 0.18599145 0.250909 0.96708399 -0.042346142 0.10006609
-0.0060442858 -0.063844375 0.18697202 0.048387263 0.99871087 0.015335995 0.10236324
0.0024882075 -0.064312533 0.18138662 -0.056266785 0.99799943 0.028831704 0.089994736
0.01264375 -0.062975533 0.18866237 -0.147369 0.9885695 -0.031821407 0.090411045
0.022561492 -0.060022116 0.18299863 -0.34214342 0.93886971 -0.038229182 0.089687921
-0.037319753 -0.052143604 0.18685211 0.60688555 0.79444027 0.02355054 0.083845124
-0.026572332 -0.058360782 0.18359689 0.43669039 0.89714682 -0.066550545 0.097312801
0.0038406353 -0.051124435 0.18520431 -0.10232875 0.99470645 0.0093772477 0.10025266
0.010223893 -0.050284065 0.1849132 -0.16676494 0.98543751 0.033202089 0.10124625
0.024537668 -0.059203561 0.18652433 -0.43723246 0.89714682 0.062891416 0.093969032
0.034779921 -0.054070722 0.18492329 -0.55464005 0.83192998 -0.016337158 0.10781275
-0.046603635 -0.044247866 0.18521069 0.71795839 0.69597352 -0.012507801 0.082115509
-0.024366491 -0.045293629 0.18407661 0.52106315 0.85316312 0.024615809 0.10440931
-0.017658185 -0.048091639 0.18168603 0.34183383 0.93908316 0.035670899 0.1019948
0.016527364 -0.048560038 0.18787864 -0.3137967 0.94924289 -0.021668198 0.094432369
0.024504136 -0.045255959 0.1813587 -0.54355025 0.83885878 -0.029478306 0.094276197
0.045064524 -0.04599423 0.18382949 -0.66974753 0.7420367 -0.028632466 0.080693312
-0.056021564 -0.031849299 0.1850799 0.83231628 0.5515396 -0.055260442 0.092593119
-0.037720244 -0.034928091 0.18872258 0.74156916 0.67042047 -0.024731465 0.092565306
0.03641858 -0.036243197 0.184835 -0.68134373 0.7314468 -0.027498173 0.097132638
0.055646274 -0.032516822 0.18685614 -0.84354597 0.53447056 0.052644294 0.090333506
-0.060317293 -0.021848921 0.18404463 0.93587804 0.35164139 -0.021923581 0.10412649
-0.045435112 -0.024071565 0.18415099 0.84633851 0.52769101 -0.072480492 0.10068087
0.059405062 -0.024051212 0.18954173 -0.92946714 0.35544348 0.098745786 0.10389483
0.060397938 -0.021654194 0.18594772 -0.93396699 0.33821064 0.11540939 0.10001829
-0.061550528 -0.018871611 0.18508309 0.97492468 0.20949638 -0.075054891 0.10265681
-0.050064411 -0.011892264 0.18759613 0.98069608 0.17159425 -0.093759149 0.10055818
-0.048381858 -0.016957486 0.18750054 0.95304728 0.28389838 -0.10536861 0.10016283
0.04849283 -0.016689666 0.18793216 -0.94694269 0.31310922 0.072540753 0.11066152
0.062517054 -0.016126337 0.18522385 -0.97686923 0.20578192 0.058139309 0.092626445
-0.064131372 -0.0038642953 0.18980306 0.99961632 0.027528087 -0.0030693472 0.092768192
-0.050503492 -0.0085571725 0.18400955 0.99014741 0.12682462 -0.059360269 0.10174812
0.051199704 -0.0032690265 0.18635213 -0.9997896 -0.0054390631 -0.019778237 0.090523094
0.064169489 -0.0035749911 0.18519059 -0.99742067 -0.022831073 0.068048969 0.077740893
-0.063842259 0.0060603986 0.1879005 0.99701512 -0.076540485 0.010118117 0.099533617
-0.050831195 0.0060680811 0.18242708 0.98437369 -0.16917354 -0.048874792 0.096942753
0.05115464 0.0036113616 0.18478557 -0.9888373 -0.13383488 0.065490432 0.096205734
0.063443407 0.009090025 0.18311688 -0.99833155 -0.057641409 -0.0034012564 0.092473067
-0.062817693 0.013842741 0.1830152 0.9673081 -0.25330979 -0.012215288 0.1032395
-0.050311707 0.010013922 0.18853372 0.9850862 -0.16600016 -0.045268673 0.11074878
-0.048061188 0.017731672 0.18617491 0.95128047 -0.30797854 -0.014652152 0.111926
0.047497172 0.019093422 0.18997623 -0.92141277 -0.38306785 -0.065249659 0.10299919
0.050154068 0.01121155 0.18464935 -0.99550813 -0.093661457 0.013819692 0.095982395
0.062823974 0.013795093 0.18348312 -0.96867001 -0.23843995 -0.069461115 0.094339162
-0.060889952 0.020466376 0.18679348 0.94310582 -0.33051932 0.036172204 0.1012081
-0.058675151 0.025813419 0.18441227 0.9277001 -0.3724474 -0.025603693 0.10297219
-0.043613765 0.027247539 0.18475126 0.85457414 -0.51858324 -0.027825743 0.10102882
0.045231573 0.024155568 0.18612278 -0.88284659 -0.46516493 -0.064833827 0.10247751
0.059164263 0.024632541 0.1818535 -0.94706768 -0.31591016 -0.057127237 0.098149158
0.060600393 0.021165406 0.18434346 -0.94588137 -0.32146895 -0.044341359 0.10179249
-0.05388378 0.035051942 0.18565984 0.86198324 -0.50244492 -0.067334004 0.092993908
-0.041124914 0.030491069 0.1862596 0.85715926 -0.514467 -0.024529452 0.098662414
0.040463038 0.031353697 0.18535218 -0.73621839 -0.67148644 -0.084192745 0.09397091
0.055021111 0.033569694 0.18325755 -0.833184 -0.54842967 -0.07091862 0.097323157
-0.044176776 0.046505906 0.18498911 0.74955696 -0.66192394 0.0045866952 0.086755089
-0.031232022 0.040556379 0.18822007 0.64577234 -0.76263106 0.037039641 0.094629437
-0.02453907 0.045241505 0.18458104 0.44405577 -0.89298904 0.073381431 0.094760463
0.018615931 0.047694951 0.18917723 -0.40344629 -0.91486335 0.016007787 0.098210044
0.024491807 0.045100842 0.18600674 -0.44735217 -0.89415938 0.018844904 0.10973849
0.030034289 0.041475452 0.18453811 -0.57588154 -0.81610721 0.048264317 0.096773632
0.048929155 0.041508928 0.18642254 -0.72451949 -0.68169355 -0.10181122 0.082095042
-0.034096073 0.054490108 0.18639658 0.54946727 -0.83358532 0.056755707 0.095287427
-0.025923947 0.058629345 0.18339761 0.32514581 -0.94561648 0.0094712274 0.087150052
-0.011865187 0.050068006 0.1847619 0.14139815 -0.9897303 0.020988874 0.096358828
-0.0021765858 0.051343523 0.1895733 -0.026427241 -0.99965 -0.0011523789 0.094516039
0.0053711138 0.050922956 0.18275797 -0.163569 -0.9843719 0.06524647 0.097472727
0.010482902 0.050249986 0.18123291 -0.17085584 -0.98318523 0.064460061 0.091190375
0.02651635 0.058383957 0.18556845 -0.31246334 -0.9499231 -0.0035878865 0.10308674
-0.012262572 0.063025728 0.18518253 0.1910497 -0.98157984 -0.0010597204 0.099162363
-0.0065092021 0.063783184 0.18096223 0.014535282 -0.99967289 -0.021043221 0.10090479
0.0071463501 0.06369929 0.18470286 -0.16663952 -0.9832564 0.073743559 0.09832523
0.012256555 0.063026518 0.18087685 -0.19817558 -0.98004371 0.015520202 0.093025558
-0.016643159 -0.06223312 0.19253625 0.33772585 0.94003892 -0.047624886 0.092631213
-0.0042635482 -0.064078808 0.19416524 0.03484131 0.99865705 -0.038342014 0.099768415
-0.03548722 -0.053549755 0.1945935 0.55645841 0.82587236 -0.091043375 0.093446717
-0.02484172 -0.059077621 0.19257128 0.44128442 0.89336163 -0.084694125 0.092468776
-0.0050144726 -0.050969899 0.19561142 0.091368668 0.99172592 -0.090174973 0.097354628
0.025998602 -0.058598425 0.19697444 -0.41973701 0.90759152 0.0099265939 0.092832647
0.038516372 -0.051225409 0.19604979 -0.60593951 0.79531783 -0.017517591 0.093432501
-0.0442903 -0.046296593 0.1921353 0.72370821 0.68692636 -0.06617108 0.092857443
-0.030517451 -0.041104671 0.19627436 0.61410528 0.78357536 -0.094257571 0.091934189
-0.0254307 -0.044540007 0.19705978 0.52328515 0.84263265 -0.12705433 0.092935398
-0.013192724 -0.049893215 0.19187756 0.29937774 0.95397651 -0.017371878 0.10024756
0.015851252 -0.048795685 0.19361699 -0.35774621 0.93375719 -0.01073341 0.11090123
0.024885787 -0.044600412 0.19745173 -0.48793888 0.87285298 -0.0065889033 0.1056315
0.046515934 -0.044518113 0.19204323 -0.72022027 0.69267988 -0.038435981 0.085498765
-0.055462986 -0.03299389 0.19323036 0.84018588 0.53480029 -0.089869253 0.10453391
-0.036753781 -0.035830054 0.19495809 0.7241959 0.68869627 -0.035182018 0.097531371
0.037171289 -0.035109941 0.19713813 -0.64066947 0.76779824 -0.0053441427 0.095607229
0.040709384 -0.031032626 0.1948213 -0.72643828 0.6871087 0.01300417 0.089899868
0.053145915 -0.036013514 0.19273221 -0.75301868 0.65745264 0.026812185 0.07760407
-0.060445856 -0.021538541 0.19409265 0.92688185 0.36203945 -0.099083588 0.097513139
-0.057771668 -0.027994638 0.19573939 0.89469051 0.43753144 -0.089972734 0.10418441
-0.046201847 -0.022220498 0.19484887 0.89157957 0.4487195 -0.061128888 0.10812579
0.04305739 -0.027972644 0.19431938 -0.79869729 0.59881145 0.059223808 0.096183524
0.058717478 -0.025711183 0.19724953 -0.91059011 0.41224438 -0.029667454 0.096174106
-0.063215904 -0.010817996 0.19437796 0.99629337 0.085193023 0.011898747 0.092384465
-0.05010771 -0.011563415 0.19360691 0.98070437 0.18415575 -0.065616861 0.1149573
-0.04791211 -0.018091559 0.19443561 0.94253916 0.33031097 -0.050146531 0.10493008
0.049192652 -0.015000141 0.19325259 -0.96234256 0.27012974 0.030441413 0.10620327
0.06259612 -0.015525814 0.19189534 -0.98113328 0.18037727 0.06958057 0.092402995
-0.064290538 -0.0026552789 0.19880293 0.99996823 -0.0030117158 -0.0073828693 0.089417055
-0.050983187 -0.004913548 0.19792224 0.99318218 0.066842049 -0.09550526 0.090236969
0.05156482 -0.00049568678 0.19670554 -0.99723989 -0.059953742 -0.043796349 0.085799605
0.063570932 -0.0081213769 0.19561805 -0.99947476 0.02269461 0.023132689 0.089932323
-0.051102951 0.0040038759 0.19076887 0.9978283 -0.061286107 -0.024140207 0.10154229
0.064173371 0.0035454992 0.19490597 -0.98959994 -0.10726846 -0.095840968 0.076435462
-0.062886208 0.013322372 0.19241121 0.98782808 -0.15547355 -0.0048674061 0.10588819
-0.048900146 0.015706245 0.19550042 0.96559685 -0.25686619 -0.040526163 0.11229552
0.048243694 0.017291151 0.1962581 -0.92237049 -0.37482202 -0.09349364 0.092578791
0.061351474 0.019352151 0.19438557 -0.95003176 -0.28586709 -0.12537801 0.098607413
-0.060441233 0.021549694 0.19794039 0.92938328 -0.36911592 0.00025663772 0.10986281
-0.05811118 0.027174965 0.19426405 0.89431244 -0.44711325 0.017170554 0.1118988
-0.04591288 0.022832194 0.1945107 0.92318946 -0.38432837 -0.0035963338 0.10791562
0.059927724 0.022789389 0.19792476 -0.94870406 -0.30502972 -0.083170861 0.10203469
-0.054992467 0.0332966 0.19429524 0.87614626 -0.48006284 0.04367375 0.091172189
-0.04088768 0.030800236 0.1917246 0.84062117 -0.53855252 -0.057595201 0.096308798
-0.036725756 0.035795886 0.19217713 0.74466145 -0.66544276 -0.051625438 0.089711122
0.035426788 0.036955394 0.19565971 -0.69502842 -0.71788239 -0.039753102 0.097731292
0.053621475 0.03500092 0.19723839 -0.81445587 -0.57787824 -0.052136891 0.09261065
-0.047378253 0.043380983 0.19560334 0.76176637 -0.64151233 -0.090409718 0.085356005
-0.020042302 0.047104131 0.19993129 0.36747307 -0.92813349 -0.059429545 0.085509188
-0.014626643 0.049298942 0.19203745 0.2111966 -0.97656274 0.041488953 0.099585488
0.014317716 0.049475323 0.19474436 -0.24667536 -0.96380633 0.10113636 0.097994715
0.023103943 0.045835957 0.19942909 -0.51436263 -0.85571474 0.056421012 0.092639476
0.045494474 0.044965371 0.19248712 -0.71814722 -0.69375038 -0.054543424 0.0891008
-0.036029927 0.052999225 0.19627562 0.60326612 -0.79373282 -0.077834502 0.10346664
-0.026557956 0.058366727 0.1989295 0.41302109 -0.91038436 -0.024777884 0.087129086
0.0026245287 0.051284548 0.19546618 -0.063003868 -0.99672753 0.050643824 0.10045055
0.027292619 0.058062419 0.19599952 -0.39273366 -0.91546744 0.087633692 0.08659558
-0.015478776 0.062245648 0.19513834 0.23763518 -0.9698692 0.053695071 0.094481841
-0.0057389475 0.063884586 0.19466016 0.05188489 -0.9986124 0.0090148523 0.10622764
0.0024723066 0.064314649 0.19700173 -0.034735646 -0.99877769 0.035162613 0.093976587
-0.019415187 -0.061325356 0.20319536 0.34976354 0.93296111 -0.085140966 0.094056666
-0.0046962099 -0.064021848 0.20543104 0.066642985 0.99777335 -0.0026568188 0.096205577
0.0039446368 -0.064120792 0.20624936 -0.082486697 0.99406141 0.070977911 0.098104618
0.016522143 -0.062168982 0.20360918 -0.24983618 0.96785253 0.029041542 0.098881617
0.022529379 -0.060035422 0.20846969 -0.45102116 0.89227611 -0.020572972 0.10527813
-0.03260066 -0.055524398 0.20248802 0.51615638 0.85348564 -0.071726993 0.098615646
-0.025242437 -0.058911636 0.20025082 0.45527026 0.88917744 -0.045743391 0.092324771
-0.0089212405 -0.050455563 0.20098943 0.1544548 0.98691541 -0.046277642 0.10307018
0.00090362504 -0.051511098 0.20849419 0.0043774666 0.99964643 -0.026226997 0.097857893
0.026769565 -0.058279078 0.20594552 -0.52371418 0.85129875 -0.03184396 0.11192229
0.034940798 -0.053837329 0.20654985 -0.59155083 0.8057003 0.030242844 0.10008666
-0.045843828 -0.045342281 0.20458248 0.68248725 0.72776288 0.067620084 0.088220023
-0.031621642 -0.040257391 0.20803685 0.57831591 0.81452775 -0.045773506 0.10031871
-0.024944477 -0.044873547 0.20751794 0.49911374 0.86162043 -0.092172317 0.093427792
-0.016891269 -0.048409302 0.20957875 0.42548072 0.90154964 -0.078577198 0.091803931
0.017086182 -0.048328571 0.20683944 -0.39103788 0.91926044 0.045273785 0.10637764
0.023871342 -0.045518067 0.20537004 -0.58473665 0.81011361 0.04241566 0.097791709
0.030101623 -0.04142376 0.20061161 -0.61567014 0.78691459 0.041421004 0.10318872
0.044481892 -0.046328027 0.20473254 -0.67367411 0.73635328 -0.062826127 0.084576011
-0.053921096 -0.035003312 0.20323652 0.83724767 0.54371172 -0.05825717 0.089523621
-0.041391987 -0.030142989 0.20872128 0.85242265 0.52271408 0.012066863 0.096524566
-0.035903625 -0.036971696 0.2093538 0.71775168 0.69396144 -0.057008337 0.091055334
0.036302365 -0.036277428 0.20486708 -0.6931529 0.71904951 0.050069626 0.087151445
0.040100396 -0.031826269 0.20984961 -0.6833238 0.73010302 -0.0042822789 0.089546844
0.05354337 -0.035495542 0.20732723 -0.75196207 0.65874916 -0.024548572 0.088808
-0.060089387 -0.022399131 0.20467304 0.91531622 0.40020955 -0.045040101 0.10130696
-0.043216556 -0.027765166 0.20971033 0.82729393 0.56090599 0.031132063 0.10270856
0.046499595 -0.021501761 0.20273729 -0.84362489 0.53327292 -0.062586352 0.1205249
0.059003402 -0.025020903 0.2036479 -0.91860235 0.39503047 -0.01098814 0.1184997
0.060815088 -0.020647105 0.20930351 -0.93341345 0.35837212 -0.017573763 0.099124603
-0.04931983 -0.014693009 0.20564952 0.96214825 0.27144784 -0.024224453 0.11721135
0.0617235 -0.018454013 0.20163827 -0.96311116 0.26751646 -0.029186716 0.10796859
-0.064032644 -0.0046142577 0.20286071 0.99863261 0.029021308 -0.043480881 0.090923421
