# .PCD v0.7 - Point Cloud Data file format
VERSION 0.7
FIELDS x y z normal_x normal_y normal_z curvature
SIZE 4 4 4 4 4 4 4
TYPE F F F F F F F
COUNT 1 1 1 1 1 1 1
WIDTH 554
HEIGHT 1
VIEWPOINT 0 0 0 1 0 0 0
POINTS 554
DATA ascii
0.094209097 -0.11473256 -0.10394695 -0.63582695 0.77181077 0.0056764008 0.00085936929
-0.11023568 -0.10006955 -0.10960279 0.73988569 0.67270613 0.0059672357 0.0017834045
-0.10474135 -0.10615899 -0.10628767 0.69347167 0.72044778 0.0072213914 0.0023355349
0.10735913 -0.1037591 -0.10566553 -0.72162175 0.69226938 -0.0050067524 0.0018084224
-0.1139008 -0.09529309 -0.10531202 0.7627877 0.64664859 -0.0007119134 0.0010883911
0.11617269 -0.092332304 -0.10362308 -0.79495418 0.60666949 5.6128611e-05 0.00026046881
-0.12368571 -0.082541138 -0.10591657 0.82776642 0.56107271 0.00034125173 0.0013866068
-0.11858702 -0.089185871 -0.10437868 0.80257422 0.59655118 0.0011527042 0.0010007757
0.11898524 -0.088666901 -0.10626952 -0.80360073 0.59515089 0.004607053 0.00046867889
0.12200246 -0.08473479 -0.10346978 -0.81818432 0.5749557 -0.00059294433 0.0010672719
-0.13153443 -0.070168637 -0.1033541 0.88814503 0.4594183 0.01154354 0.0021923566
-0.12881376 -0.075732611 -0.10312039 0.85731608 0.51477683 0.0037351141 0.0023080721
0.12770265 -0.077306151 -0.10475208 -0.85121197 0.524822 0.00023560639 0.0021161141
0.13147017 -0.070323713 -0.10415983 -0.8790248 0.47676939 -0.0025051925 0.0025428173
-0.13394046 -0.064359926 -0.10378176 0.89936632 0.43718711 -0.0027713636 0.0018607732
0.13457923 -0.062817805 -0.1043311 -0.90208077 0.4315525 -0.0035631538 0.0013614332
-0.13732818 -0.056181274 -0.10661595 0.92482162 0.38040054 0.00060835946 0.00077724608
0.13822237 -0.054022502 -0.10693139 -0.92727548 0.37436098 -0.003736218 0.00031908054
-0.14162226 -0.045814406 -0.1071868 0.94864589 0.31633809 0.0011129269 0.0015829306
0.14153357 -0.046028558 -0.10567007 -0.94941968 0.31399477 -0.0030944166 0.001608022
-0.14535952 -0.032624688 -0.105101 0.97641242 0.21588549 0.0034990255 0.0021385127
0.14536725 -0.032566026 -0.10418566 -0.97812414 0.20801975 0.0010029756 0.0020116903
-0.1460454 -0.027414756 -0.10447297 0.98579335 0.16795681 -0.0013789734 0.00066045235
0.14646363 -0.024238139 -0.10241284 -0.9882648 0.15274215 0.0016038594 0.00066664186
-0.1475676 -0.015852598 -0.10655024 0.99352938 0.11357318 0.00075470784 0.00022821153
0.14785674 -0.013656328 -0.10512996 -0.99652004 0.082765676 -0.009883428 0.0011467648
-0.14912584 -0.004016588 -0.10458807 0.99971139 0.02331866 -0.0057819355 0.002594826
0.14886022 -0.0060342271 -0.10443771 -0.99857682 0.053316012 0.0013469701 0.0016865208
-0.14914757 0.0038515129 -0.10298663 0.99972254 -0.023510668 0.0014552426 0.0021658754
0.14912397 0.0040309769 -0.10518667 -0.99985558 -0.016737096 0.0029531731 0.0023965945
-0.1475191 0.016221182 -0.10492478 0.99142736 -0.13065775 0.00064111321 0.00075705099
0.14769441 0.014889464 -0.10481605 -0.99612254 -0.087839991 -0.0049034692 0.0010198986
-0.14633258 0.025233628 -0.10533807 0.98828697 -0.15257514 0.0031238259 0.00076770037
0.14646003 0.024265531 -0.10532983 -0.98613745 -0.16582213 -0.0059962012 0.0009236511
-0.14492023 0.035961471 -0.10450936 0.97277027 -0.23164605 0.007623082 0.0015784708
0.14478582 0.03657078 -0.10497717 -0.97224963 -0.23351486 -0.014198963 0.0016902742
-0.14178513 0.045421209 -0.10668181 0.95337451 -0.30171299 0.0068054399 0.0021654686
0.14201784 0.044859402 -0.10544693 -0.94586945 -0.32454491 0.0012177863 0.0013362819
-0.13817921 0.054126676 -0.10630427 0.92799073 -0.37260321 -1.5174791e-05 0.00040777877
0.13837259 0.05365983 -0.10459457 -0.93023795 -0.36694109 -0.0034074148 0.00053302437
-0.13329451 0.065919392 -0.10424577 0.89159459 -0.45270556 -0.010808867 0.002042203
0.13341412 0.065630592 -0.10664599 -0.89529693 -0.44543517 -0.0055590109 0.0017641048
-0.1284209 0.076370083 -0.10650582 0.85484576 -0.51875764 -0.011368955 0.0023147922
0.1276691 0.077349886 -0.10328462 -0.85309601 -0.52171767 0.0061473059 0.0019738853
0.13113157 0.071141168 -0.10114128 -0.88831115 -0.45923945 0.0015968704 0.0020854052
-0.12354984 0.082718179 -0.10738908 0.81498414 -0.57948321 0.00017955173 0.00085335306
-0.11952108 0.087968566 -0.10735726 0.80854464 -0.58842987 -0.0024134461 0.00078889029
0.11828727 0.089576505 -0.10569108 -0.79673636 -0.6042996 0.0057705655 0.0011173195
0.12340709 0.082904242 -0.1082172 -0.82359815 -0.56716818 0.0025360635 0.00098004052
-0.11394048 0.095241353 -0.10369443 0.75972301 -0.6502468 -0.00029879855 0.0010640549
0.11354842 0.095752291 -0.10559469 -0.75698054 -0.65331203 -0.012802251 0.0011108652
-0.1066878 0.10413668 -0.10417326 0.72325987 -0.69048834 0.011005671 0.0020553458
0.1038805 0.10710343 -0.10452996 -0.68819225 -0.72542375 -0.012319614 0.002048481
-0.095481128 0.11375651 -0.10468984 0.64123523 -0.76734322 0.0013148899 0.0013421712
0.087757513 0.11968303 -0.10040777 -0.58388424 -0.81181961 0.0053000944 0.00076388067
0.093908288 0.11496338 -0.10424943 -0.63180041 -0.77513069 -0.00076240505 0.001213659
-0.084535629 0.12215528 -0.10683101 0.58193803 -0.81322652 0.0032752487 0.0010554527
-0.076289043 0.12845087 -0.10615462 0.50684893 -0.86202461 0.0042039114 0.0025133493
0.076915912 0.12799661 -0.10526545 -0.53323483 -0.84593141 0.0077898204 0.002013294
0.084748656 0.12199179 -0.10317236 -0.58443075 -0.81143206 0.0043216185 0.00071450573
-0.072039083 0.13075966 -0.10437924 0.48705074 -0.87333542 0.0081689442 0.0027833364
-0.064901538 0.13371611 -0.10373583 0.4349823 -0.90037513 0.010729481 0.0013036401
-0.055347733 0.13767344 -0.10462697 0.3737222 -0.92754036 -0.00076626934 0.0002741768
0.057804182 0.13665593 -0.10278267 -0.38077244 -0.92466879 0.00013542706 0.00030043288
0.066924468 0.1328782 -0.10273105 -0.44697016 -0.89454585 0.0023452423 0.0018935245
-0.044659082 0.14210081 -0.10660794 0.30608627 -0.95198095 -0.0065851891 0.0019190365
-0.034350678 0.14513229 -0.10365057 0.23480794 -0.97203982 0.001944303 0.0017616414
-0.023335868 0.14658242 -0.10459959 0.15407968 -0.98805296 0.0032997078 0.001180356
-0.017267279 0.14738137 -0.10711026 0.11864129 -0.99293292 0.0029308381 0.00088153785
-0.003494611 0.14919455 -0.10589967 0.0065206042 -0.99996728 -0.0047952225 0.0020639694
0.0063151345 0.14882325 -0.10623462 -0.03668727 -0.99929404 -0.0080867698 0.002170922
0.015908051 0.14756031 -0.10357952 -0.11736132 -0.99308878 -0.00098013144 0.00067247229
0.025736721 0.14626636 -0.1039198 -0.15499821 -0.98790544 0.0042854641 0.0006077594
0.035051927 0.14501031 -0.10501981 -0.22907902 -0.97340763 0.00070887955 0.00241381
0.044722721 0.14207445 -0.10632292 -0.3011755 -0.95354378 -0.0068919114 0.0017777081
-0.046769846 -0.14122652 -0.095224336 0.32902139 0.94432235 0.00052475522 0.0016138386
-0.035285063 -0.14497827 -0.096878789 0.23028353 0.97311115 0.0049244082 0.0018562139
-0.026837891 -0.14612137 -0.094557166 0.19365431 0.98105937 0.0045345607 0.0014360056
-0.015510703 -0.14761263 -0.090917587 0.1082987 0.99411702 -0.001661712 0.00033957942
-0.0040608631 -0.14912003 -0.098350443 0.014637328 0.99989218 -0.0012144798 0.0021602304
0.0046863519 -0.14903769 -0.096050926 -0.0419522 0.99911678 -0.0023722257 0.0015691026
0.016129296 -0.1475312 -0.09273205 -0.12548152 0.99209583 0.00045117631 0.00080816168
0.024595676 -0.14641656 -0.093523309 -0.15752186 0.98751372 0.0018904968 0.0006783951
0.035762005 -0.14494649 -0.093230456 -0.23857075 0.97111589 0.0042310753 0.001678233
0.044730689 -0.14207117 -0.092994563 -0.30163974 0.95334351 -0.012230455 0.0023442886
-0.07330589 -0.13023493 -0.092780203 0.49211797 0.87048048 0.0091521274 0.0025200802
-0.064259887 -0.1339819 -0.09476997 0.44305491 0.89642054 0.011516555 0.0016723884
-0.055264562 -0.13770787 -0.095853694 0.36578783 0.93069738 0.0013089803 0.00071396917
0.056805778 -0.13706949 -0.097532667 -0.39065501 0.92053455 -0.0022019632 0.00079244719
0.065211117 -0.13358788 -0.097361378 -0.44195369 0.89702296 -0.005168431 0.0018934152
0.070461214 -0.13141322 -0.092542417 -0.46175435 0.88700682 -0.0013333978 0.0021606933
-0.085315153 -0.12155713 -0.095296621 0.57469392 0.81836838 -0.00026959812 0.0011524194
-0.076988332 -0.12794654 -0.096509375 0.52975702 0.84812564 -0.0063430569 0.0024128167
0.077216417 -0.12774645 -0.094805226 -0.5231182 0.8522079 -0.0094369613 0.0022409665
0.082489848 -0.12372506 -0.093645126 -0.56164896 0.82736385 0.0044240677 0.0015448047
-0.1003563 -0.11001566 -0.097616062 0.66642904 0.74556226 -0.003070791 0.0015405145
-0.095442466 -0.11378618 -0.095494337 0.64387816 0.76512349 0.0026150148 0.0010453579
-0.088509031 -0.11910638 -0.094551727 0.59776694 0.80166727 -0.0020520547 0.0010671066
0.088709287 -0.11895271 -0.096659154 -0.58811224 0.8087793 9.5651303e-05 0.00092636934
0.094916075 -0.11419008 -0.095963739 -0.62403834 0.7813828 0.0041298326 0.00058099249
-0.11007182 -0.1002831 -0.096729189 0.74066907 0.67180204 -0.0095546972 0.0016073465
-0.10592935 -0.10534575 -0.094641201 0.70698297 0.70722145 -0.0035932164 0.0021807232
0.10560021 -0.1054361 -0.096316606 -0.71019554 0.70394516 -0.0091411341 0.0021798352
-0.11301897 -0.096442305 -0.095647514 0.75854027 0.65161699 -0.0034620219 0.0012035674
0.11220715 -0.097500265 -0.094804086 -0.7582528 0.65193301 -0.006003486 0.0012736546
-0.12276468 -0.083741456 -0.094898127 0.82153201 0.57016236 -0.00014652169 0.0010723317
0.11851123 -0.089284666 -0.093028836 -0.80589759 0.59205467 -0.00063467497 0.00096743263
0.12258049 -0.083981462 -0.093882255 -0.82241976 0.56887501 0.0026218176 0.0013174438
-0.13071114 -0.072156213 -0.090736978 0.88026512 0.4744707 0.0032949001 0.0020257104
-0.12874757 -0.075783707 -0.093039624 0.85539144 0.51798099 0.0011292686 0.0022008985
0.12828228 -0.076513089 -0.095769614 -0.85161179 0.52416974 -0.0018758819 0.0020071703
0.13077998 -0.071989998 -0.093331784 -0.87030828 0.49245894 0.0069050868 0.0022280309
-0.13387541 -0.064516962 -0.095227197 0.90333194 0.42894232 0.00020913361 0.0011396979
0.13396101 -0.06431032 -0.094982013 -0.89890414 0.4381448 -0.00074394292 0.0015941899
-0.13763535 -0.05543967 -0.095415242 0.92909473 0.36984164 -0.00041180843 0.00028195375
0.13731891 -0.056203652 -0.096682258 -0.92738789 0.37410063 0.00061472028 0.00042619649
-0.14183173 -0.045308687 -0.095165573 0.94967967 0.31308433 -0.0093162172 0.0018055236
0.14177129 -0.045454632 -0.09644147 -0.94881856 0.31576967 -0.0057356199 0.0017809933
-0.14489093 -0.035828713 -0.093953885 0.97049135 0.24102555 0.0072974493 0.0017716842
0.14504346 -0.034930941 -0.09554261 -0.97182095 0.23571683 -0.001246421 0.0018916676
-0.14658952 -0.023282021 -0.094067611 0.98885739 0.14885885 0.0014718749 0.00072709762
0.14676802 -0.021925962 -0.09429922 -0.98974061 0.14279759 -0.0047266614 0.0010759947
-0.1478765 -0.013506288 -0.097244643 0.99423701 0.10696695 -0.0071308017 0.00040794941
0.14793071 -0.013094586 -0.095246308 -0.99662334 0.081978552 0.0046390234 0.0011774198
-0.14937834 -0.0020986598 -0.095316507 0.9999845 -0.0010527486 0.005466314 0.0025300973
0.14904824 -0.0046059983 -0.095913239 -0.99899888 0.044419751 0.0053067566 0.0016542627
-0.14913712 0.0039309636 -0.094438352 0.99986482 -0.014161575 0.0083557675 0.0023514547
0.14886917 0.0059663211 -0.096006513 -0.99929726 -0.036996011 0.0060171545 0.0020207546
-0.14734742 0.017525077 -0.093210205 0.99112761 -0.13289087 -0.0025000169 0.00071198941
0.1480573 0.012133021 -0.092139944 -0.99700016 -0.077193767 0.0056435931 0.0012605257
-0.1464244 0.024536043 -0.096134245 0.98813754 -0.15355013 -0.0025590952 0.0008411957
0.14580606 0.029232919 -0.099376492 -0.98125774 -0.19269873 0.00076195411 0.0015672946
-0.14477547 0.036954843 -0.094648167 0.97198695 -0.2349306 -0.0069959303 0.0018343977
0.14478543 0.036985263 -0.09552294 -0.96923459 -0.24608348 0.0052209604 0.0023191406
-0.14137527 0.046410713 -0.09496735 0.95001096 -0.31221628 0.00043973149 0.0019163849
0.13998814 0.049759544 -0.094940841 -0.93897468 -0.34389171 0.0080645243 0.0012774278
0.14185889 0.045243137 -0.094421059 -0.94391501 -0.32991746 0.01337544 0.0014649548
-0.1379763 0.054616548 -0.094179034 0.92432302 -0.38160452 -0.0022164199 0.0003317977
0.13787992 0.054849207 -0.095044352 -0.93001842 -0.36746851 0.0057081571 0.00051352649
-0.13218917 0.068587936 -0.097803712 0.89053398 -0.45482913 -0.0089318696 0.0018267796
0.13418117 0.063778803 -0.093529485 -0.898857 -0.43820843 0.0054212925 0.0017408419
-0.12712136 0.078052662 -0.092882037 0.85196161 -0.52356052 0.0067600138 0.0021655653
0.12831011 0.07651449 -0.095220044 -0.86266768 -0.50545841 0.017781191 0.0027122868
0.13093759 0.071609497 -0.097839177 -0.88120133 -0.47269288 -0.0067616329 0.0024029708
-0.12333502 0.082998157 -0.095874131 0.82037818 -0.57181931 0.0014888308 0.00097809127
-0.11898413 0.088668354 -0.091222882 0.80153531 -0.59794438 0.0019193637 0.0011548183
0.11921218 0.088371128 -0.098264769 -0.79976594 -0.60031021 0.0014712231 0.0012662923
0.12387167 0.082298771 -0.094285205 -0.83009607 -0.55749834 0.01166629 0.0010363322
-0.11184944 0.097966447 -0.094423123 0.75778359 -0.65250552 0.00078601681 0.0012301491
0.11386532 0.095339306 -0.095082127 -0.76600385 -0.64281642 -0.0050055408 0.0010581326
-0.10402014 0.10713028 -0.095518038 0.69557202 -0.71843392 -0.0056755515 0.0021119809
0.10486659 0.10632211 -0.094673634 -0.69563949 -0.71838725 -0.0023149564 0.0021472876
-0.093870372 0.11499247 -0.094931357 0.62811589 -0.77808243 0.0076206806 0.00095998798
-0.089311875 0.11849035 -0.094991028 0.60140681 -0.79894263 -0.00070996204 0.00050389604
0.088903777 0.11880347 -0.094406351 -0.59126621 -0.80647391 0.0020506156 0.00053416978
0.096359096 0.1130828 -0.092613474 -0.64435834 -0.76471126 0.004370329 0.0012522563
0.10023647 0.11010759 -0.099355847 -0.67254019 -0.74005198 0.0035705359 0.00209666
-0.082723521 0.12354575 -0.096506834 0.57044977 -0.82133251 0.00018461904 0.0010375401
-0.07706143 0.12789044 -0.092037365 0.52319646 -0.85221195 0.00060044776 0.0024708663
0.077286407 0.12771779 -0.096042462 -0.52946687 -0.84831947 0.004342895 0.0023864449
0.084886536 0.12188601 -0.093238547 -0.57872105 -0.81550384 -0.0059585921 0.00096392015
-0.072938479 0.13038711 -0.092201963 0.48624536 -0.87382066 0.0016953335 0.0027180114
-0.066035949 0.13324623 -0.096834987 0.44886643 -0.89357358 -0.0067130304 0.0018481464
-0.054384276 0.13807251 -0.095415965 0.37392884 -0.92745453 -0.0022862619 0.00037629099
0.055065539 0.13779032 -0.093910336 -0.36666423 -0.93035132 -0.0019473211 0.0005642451
0.065529607 0.13345596 -0.094175361 -0.45770982 -0.88909572 0.0032410149 0.0022991234
0.071868621 0.13083026 -0.094761088 -0.4863489 -0.87376273 -0.0018534453 0.0026467454
-0.045496851 0.14175381 -0.094125926 0.31412956 -0.94937271 -0.0037486691 0.0016746377
-0.035704345 0.14489365 -0.095239937 0.2364741 -0.9716115 -0.0071515571 0.0018537155
-0.02485789 0.14638203 -0.095346212 0.17315383 -0.98488843 0.0035497115 0.00076621003
-0.015817812 0.1475722 -0.094265431 0.10728572 -0.99422652 -0.0018464661 0.00040441379
-0.0049282736 0.14900583 -0.094665185 0.03876932 -0.99921423 -0.0082380418 0.0013418971
0.0058927857 0.14887886 -0.095614798 -0.047781073 -0.99878687 -0.011903733 0.0016209318
0.014923651 0.14768991 -0.097452126 -0.108743 -0.99406499 -0.0031104016 0.00032809368
0.02897748 0.14583969 -0.093169525 -0.19315441 -0.98116833 -9.4450377e-05 0.0015742339
0.035420749 0.14492281 -0.094179533 -0.22393556 -0.97458404 -0.0062219463 0.0022471442
0.045107361 0.14191513 -0.094739072 -0.32156119 -0.94687897 -0.0043171928 0.0013657754
-0.045503993 -0.14175084 -0.085634805 0.32155436 0.94687772 -0.0050428123 0.0016178398
-0.034762435 -0.14502788 -0.082377836 0.22515519 0.97431231 0.004554505 0.0019707307
-0.024410326 -0.14644098 -0.085153379 0.17558444 0.98445213 0.0049098996 0.0010288517
-0.015781034 -0.14757702 -0.08670032 0.10576748 0.99438727 -0.0026736932 0.00035529694
-0.007331687 -0.14868942 -0.085725233 0.050510064 0.99871027 -0.0051433966 0.0018112714
0.0060737692 -0.14885502 -0.085933246 -0.041380271 0.99914145 0.0019814072 0.001806478
0.016687095 -0.14745775 -0.084237844 -0.12443841 0.99222451 0.0023795634 0.00082955969
0.026081085 -0.14622101 -0.08288952 -0.16677912 0.98599428 9.3166345e-05 0.00060259941
0.033646211 -0.14522505 -0.084315263 -0.2145182 0.9767198 0.00073880382 0.002266739
0.044275746 -0.1422596 -0.083943829 -0.29960498 0.95401621 0.009487249 0.0022780963
-0.072264053 -0.13066646 -0.085184187 0.47954902 0.87736189 0.016395744 0.0026018226
-0.065596595 -0.13342823 -0.083972156 0.45588267 0.88988996 0.016336627 0.0020269456
-0.052190691 -0.13898112 -0.085677601 0.34932843 0.93699074 -0.0042512896 0.0012916593
0.054913167 -0.13785344 -0.086270042 -0.37779519 0.92588812 0.0013855735 0.00036620998
0.066370659 -0.13310759 -0.08536277 -0.45627096 0.8898406 -0.00072490895 0.0019337577
0.071063824 -0.13116361 -0.08372511 -0.46018761 0.88781863 0.0023248594 0.0020294262
-0.084089041 -0.12249797 -0.084421784 0.58204502 0.81315625 -0.00065885915 0.0009195063
-0.075781457 -0.1288726 -0.081866153 0.5095675 0.86033142 0.013065213 0.0022689376
0.076777756 -0.12807381 -0.085466944 -0.53170145 0.84693068 0.0014098682 0.002142997
0.083891176 -0.12264978 -0.085571475 -0.57319224 0.81941944 0.0015731788 0.001028165
-0.094639875 -0.11440202 -0.083344281 0.63182276 0.77510142 0.0042200973 0.00089604146
-0.088759102 -0.1189145 -0.08620771 0.59225446 0.80574679 -0.0026231592 0.00061832857
0.089264773 -0.11852647 -0.082809597 -0.58634657 0.8100546 -0.0030326031 0.00072330877
0.096085481 -0.11329276 -0.084899776 -0.64764148 0.76193684 0.0035708544 0.0012869341
0.10005322 -0.11024821 -0.08188279 -0.67377812 0.73893362 0.00037732415 0.0020570622
-0.10530623 -0.10580783 -0.083723836 0.70402765 0.71010333 -0.0099130468 0.0023113401
0.10339274 -0.10763279 -0.084861025 -0.69135928 0.72250611 -0.0026961784 0.0022020654
-0.11275447 -0.096787006 -0.085375912 0.7600494 0.64978778 -0.010037233 0.0012046965
0.11565015 -0.093013287 -0.08534959 -0.77962458 0.62623161 -0.0044135354 0.0007096355
-0.12224597 -0.08441744 -0.08488854 0.81649458 0.5773468 0.0026924124 0.0010999157
-0.11997148 -0.087381609 -0.080439627 0.80790496 0.58931261 -0.00037214745 0.00080026273
0.11825696 -0.089616023 -0.083943114 -0.79480386 0.60686195 -0.0023112579 0.0007163054
0.12284388 -0.083638236 -0.086339302 -0.82434773 0.56605226 0.005970805 0.0013564564
-0.13107421 -0.07127969 -0.08058954 0.87532324 0.48352838 -0.0030953831 0.0024267803
-0.12847042 -0.076305591 -0.083369531 0.8496362 0.5272736 0.0100439 0.0022552477
0.12689002 -0.078365192 -0.08725705 -0.85043097 0.52608472 -0.0013826569 0.002203977
0.13074139 -0.072083175 -0.081530735 -0.87235409 0.4888424 0.0055981204 0.0022167624
-0.13367684 -0.064996354 -0.085314259 0.89954758 0.43681601 -0.0024385254 0.0016378684
0.13367578 -0.06499891 -0.084154315 -0.88950288 0.45690131 0.0050779404 0.0021171561
-0.13766304 -0.055372793 -0.084181733 0.92614669 0.37716329 0.00041914376 0.0002031856
0.13704875 -0.056855865 -0.083224319 -0.92495435 0.38007426 -0.0017266858 0.00036547039
-0.14240018 -0.043936387 -0.08657749 0.95384371 0.30028081 0.0036693579 0.0018073132
0.14242281 -0.043881733 -0.08372283 -0.95523459 0.29581732 0.0043514692 0.0018496644
-0.14508131 -0.034737926 -0.083871111 0.97287381 0.23120853 0.0076977313 0.0018686211
0.14514251 -0.034273114 -0.083950974 -0.97638589 0.2156387 0.013058795 0.0020506068
-0.14640181 -0.024707656 -0.08674334 0.98833257 0.15228489 0.0028251798 0.00069420011
0.14657263 -0.023410102 -0.084250063 -0.98857212 0.15073952 -0.0016493916 0.00076233631
-0.14733988 -0.017582344 -0.085876003 0.99142629 0.13066661 0.00029139032 0.00096070068
0.14794107 -0.013016006 -0.084077425 -0.99751621 0.070435517 0.00041777163 0.0014558686
-0.14900753 -0.004915325 -0.087081917 0.99965662 0.024956882 -0.0079885395 0.0024928548
0.14901647 -0.0048474991 -0.08538349 -0.9989832 0.04425323 -0.0086132688 0.0017525026
-0.14864419 0.007675136 -0.085027114 0.9981944 -0.058599409 -0.013197439 0.0018481063
0.14901692 0.0048440653 -0.084247634 -0.99986464 -0.016123632 0.0032696195 0.0021090831
-0.14777228 0.014297931 -0.085486345 0.99306208 -0.11758662 -0.0010647448 0.00047592085
0.14743824 0.016835272 -0.083333336 -0.99366689 -0.11236476 -0.00046396613 0.0011638867
-0.14645037 0.024338923 -0.085354082 0.99001354 -0.14097226 -0.00025100476 0.00086334714
0.14632343 0.025303068 -0.085580081 -0.98541653 -0.1701487 -0.0019362069 0.00079697487
-0.14501874 0.035213213 -0.086323321 0.97334689 -0.22915056 -0.0092659863 0.0018538897
0.14507341 0.034797899 -0.082854666 -0.9724583 -0.23304452 0.0038955249 0.0017401489
-0.14257149 0.043522786 -0.085258715 0.96080059 -0.27723998 -0.0004746521 0.0026233711
0.14210857 0.044640347 -0.087056004 -0.9529205 -0.30306619 -0.009666509 0.0018737748
-0.13843949 0.053498309 -0.085891284 0.92493498 -0.38012549 -0.00013871155 0.0003498008
0.13798192 0.054602962 -0.08539737 -0.92683804 -0.37545231 -0.0026051339 0.00026445891
-0.13366212 0.065031916 -0.08486744 0.89370257 -0.44865984 0.00028879647 0.0016905385
0.1338274 0.064632878 -0.08467906 -0.89791447 -0.44016844 -0.0011507731 0.0017561262
-0.13084428 0.07183481 -0.086147666 0.87594467 -0.4824039 0.0027257614 0.0023233544
-0.12709868 0.078093253 -0.082986511 0.85511655 -0.51834935 0.0094676521 0.0020771469
0.13000059 0.07387159 -0.083986074 -0.86353892 -0.50425124 0.0055856034 0.0023795702
-0.12267856 0.083853662 -0.082992762 0.81858718 -0.57438123 0.0010501195 0.001316922
-0.11891398 0.088759772 -0.084171847 0.79754305 -0.60323852 0.0053169541 0.00096991012
0.11920272 0.088383466 -0.085436508 -0.80326062 -0.59562576 -0.0015121483 0.0014389952
0.12303933 0.083383501 -0.084316544 -0.82763547 -0.56126583 0.00054047134 0.001111057
-0.11461981 0.094356038 -0.083606191 0.77218109 -0.6353966 -0.0027393198 0.0011660637
0.1141673 0.094945751 -0.086048298 -0.76274383 -0.64669544 -0.0026052021 0.00079132174
-0.10484789 0.10603511 -0.083539985 0.70167434 -0.71247786 0.0053383885 0.0025373087
0.10279118 0.10808023 -0.084499925 -0.69111478 -0.72261542 0.013686866 0.0021489817
-0.10006364 0.11024021 -0.088423669 0.6714325 -0.74105209 -0.0044851536 0.0021784948
-0.095582068 0.11367904 -0.085863449 0.6423828 -0.76638269 0.0014144175 0.0015131889
-0.087985665 0.11950798 -0.084278673 0.58190572 -0.81325614 0.00041559205 0.00093296071
0.088868357 0.11883065 -0.087440543 -0.5897575 -0.80758023 -0.00060279912 0.00066806533
0.097860947 0.11193039 -0.084199727 -0.65337801 -0.75702465 -0.0032880423 0.0016038087
0.10007423 0.11023208 -0.080984935 -0.6735028 -0.73918313 0.0014800773 0.0021911152
-0.081942953 0.12414471 -0.083848551 0.56937015 -0.82206529 0.005134406 0.0012555489
-0.078046672 0.12713443 -0.085215271 0.52805585 -0.84917188 -0.0080099227 0.0025863417
0.077454194 0.12758903 -0.083148785 -0.52322972 -0.85214496 0.0089241043 0.0023089482
0.083843537 0.12268633 -0.084731147 -0.57958341 -0.81491238 0.00099293119 0.00087493192
-0.07255286 0.13054685 -0.082510889 0.49739596 -0.86746722 0.0098880306 0.0026080182
-0.064371333 0.13393573 -0.086503044 0.43230775 -0.90172487 0.0014962103 0.0014644343
-0.055215176 0.13772835 -0.084939964 0.37683269 -0.92627954 0.001813783 0.00035877217
0.054784756 0.13790663 -0.086681478 -0.36722422 -0.93013191 0.0010347991 0.00063825177
0.065066651 0.13364772 -0.082391344 -0.45011276 -0.89297158 -0.00056134537 0.0019317477
0.072283633 0.13065836 -0.082126692 -0.5002687 -0.86581755 0.0095547531 0.0020165944
-0.046839882 0.1411975 -0.085292198 0.32830432 -0.94456828 -0.0026496327 0.001421721
-0.035711449 0.14488025 -0.085535102 0.22019431 -0.97545469 0.0015771268 0.0018710986
-0.026378473 0.14618185 -0.083208635 0.16808249 -0.98577106 0.0019055363 0.00053220242
-0.014172922 0.14778873 -0.08541093 0.081257075 -0.99669111 -0.0020288678 0.00096572266
-0.0072752442 0.14869684 -0.085064121 0.059681505 -0.99818051 0.0085951444 0.0013287266
0.0049275463 0.14900592 -0.083429739 -0.032600157 -0.99946743 0.0014505845 0.0017167568
0.013472547 0.14788096 -0.084005952 -0.082967937 -0.99654245 -0.0044095404 0.00088903384
0.024735952 0.1463981 -0.085429132 -0.1624963 -0.98670912 0.00028172735 0.00045955571
0.034837827 0.14506817 -0.084440358 -0.22383323 -0.97462499 -0.0021928577 0.0017567307
0.044464111 0.14218158 -0.085369848 -0.31365755 -0.94953281 0.0025294954 0.0013078437
-0.045339942 -0.14181879 -0.07258673 0.31246367 0.94991595 0.005116418 0.0020043126
-0.039228611 -0.14435019 -0.073458925 0.24683359 0.96899867 0.010710413 0.0017987652
-0.025720105 -0.14626853 -0.076536961 0.17941932 0.98377275 3.450461e-05 0.0011137783
-0.017653976 -0.14733048 -0.075083554 0.12654148 0.9919613 0.00029960182 0.00068991643
-0.0035231656 -0.14919081 -0.073941521 0.014140232 0.99989253 0.0038667594 0.0022402315
0.0056397091 -0.14891216 -0.076279357 -0.040898491 0.99914998 0.0051708813 0.0018682717
0.015520377 -0.14761136 -0.072969869 -0.10792269 0.99415666 0.0022838153 0.0003980324
0.023803584 -0.14652085 -0.076131716 -0.15324859 0.98818666 -0.0014281844 0.00067415595
0.037604332 -0.14459135 -0.075821348 -0.25610867 0.9666456 -0.0021490445 0.0023195103
0.045802839 -0.14162707 -0.073476829 -0.32349023 0.94622922 0.0020901917 0.0015670817
-0.070257977 -0.13149741 -0.076251432 0.4674859 0.88396174 0.0082831476 0.0021995762
-0.066918969 -0.13288048 -0.077218473 0.45336798 0.89132196 0.0016663234 0.0021022847
-0.056027584 -0.13739184 -0.076312445 0.38055366 0.92475265 -0.003377469 0.00022075983
0.057036005 -0.13697413 -0.075604603 -0.38282037 0.92382199 0.0012282863 0.00047811915
0.065226145 -0.13358165 -0.073836334 -0.44662535 0.89472109 4.3068108e-06 0.0019923912
0.071287505 -0.13107097 -0.074221455 -0.4838196 0.87516207 0.0031600473 0.0023074257
-0.083965003 -0.12259314 -0.077574305 0.57913035 0.81523484 0.00050693512 0.0010637484
-0.076584138 -0.12825668 -0.074529931 0.51860464 0.85501319 0.0012681712 0.0024893875
0.077944711 -0.12721266 -0.075731114 -0.53385764 0.84556568 -0.0038371752 0.0019413437
0.085127711 -0.12170094 -0.076029465 -0.57599765 0.81742853 -0.0061082533 0.00079152884
-0.094816163 -0.11426675 -0.072316073 0.6419208 0.76675135 -0.0054818112 0.0011984366
-0.088518173 -0.11909938 -0.079047509 0.59041798 0.80708599 -0.0043267258 0.00085633731
0.08871381 -0.11894924 -0.073502794 -0.57877082 0.81548947 0.0010933786 0.00074499793
0.094584972 -0.11444414 -0.075428553 -0.62271458 0.78244555 0.0023496805 0.00073331874
-0.10451558 -0.10631869 -0.074658677 0.70857346 0.70562977 -0.0032019692 0.0024498601
0.10426153 -0.10680245 -0.074598506 -0.69654453 0.71735924 0.014884043 0.0019625898
-0.11457678 -0.094412126 -0.072896101 0.7760939 0.63060564 -0.0038460586 0.0011594375
0.11318956 -0.096219972 -0.077815033 -0.76280057 0.64658469 -0.0079690777 0.0010300059
-0.12318643 -0.083191812 -0.076003477 0.81424886 0.58051586 -0.00025135305 0.0010743596
-0.11811843 -0.089796565 -0.078715779 0.79583061 0.60550654 -0.0039241174 0.00067903107
0.11811208 -0.089804828 -0.079433098 -0.79910702 0.60118878 0.00020601711 0.0011426812
0.12356687 -0.082696021 -0.073960386 -0.83957261 0.54319972 0.0072086938 0.0014923852
-0.13065559 -0.072290316 -0.070954718 0.86955065 0.49379861 0.0066758171 0.0028156892
-0.12825184 -0.076590441 -0.07528124 0.85376638 0.52062565 -0.0056485492 0.0025268029
0.12765031 -0.077374391 -0.073436417 -0.85257554 0.52250385 0.010225136 0.0021583708
0.13038428 -0.072945304 -0.073411308 -0.86792445 0.49658179 0.010660326 0.0022914573
-0.13315569 -0.066254556 -0.073542535 0.88963276 0.45666718 0.002929905 0.0024205516
0.13385525 -0.064565659 -0.076837979 -0.89904529 0.43779972 0.0070039891 0.0015591215
-0.13770857 -0.055262912 -0.074909464 0.92603225 0.37744293 -0.001103938 0.00042150184
0.13809575 -0.054328162 -0.075525947 -0.92633104 0.37670594 0.001855005 0.00041159912
-0.14194226 -0.045041848 -0.076074176 0.95040911 0.3108291 0.010387235 0.0021222953
0.14140354 -0.046342455 -0.077742174 -0.95025706 0.3114613 0.0018532599 0.0020227837
-0.14471194 -0.0368638 -0.074609391 0.97059846 0.24061717 0.0064776582 0.0020314655
0.14489214 -0.036174782 -0.076674998 -0.97044504 0.2412964 0.0035325473 0.0019886694
-0.14623588 -0.025968039 -0.075689323 0.98646384 0.16394603 0.0032854758 0.00056363549
0.14654735 -0.023602214 -0.075950906 -0.99062485 0.13660781 0.00091527187 0.00079292792
-0.14779304 -0.014140386 -0.075188369 0.99473435 0.10244261 -0.0030287995 0.00050046091
0.14722596 -0.018447712 -0.071876884 -0.99180192 0.12777196 0.001813514 0.00088367012
-0.14910808 -0.0041515231 -0.078068875 0.9996627 0.025717594 -0.0036103351 0.0022719139
0.14905798 -0.0045321202 -0.073208705 -0.99961585 0.027500514 0.0034335351 0.0017518374
-0.14889406 0.0057771415 -0.074794769 0.99874628 -0.050049003 -0.0010277291 0.001792157
0.14890152 0.005720525 -0.075846687 -0.99972159 -0.022526983 -0.0070209159 0.0019285681
-0.14747526 0.01655408 -0.074075177 0.99305671 -0.11760987 0.0025010796 0.00044577636
0.14772451 0.014660843 -0.076107673 -0.994506 -0.10463598 0.0030282699 0.0010156378
0.14653409 0.023703037 -0.07226678 -0.98857957 -0.15069763 -0.00081189128 0.00073103764
-0.14512983 0.03436945 -0.076791391 0.97625124 -0.21662411 -0.0027330201 0.0018984438
0.14474335 0.037190691 -0.073515087 -0.96800601 -0.25092429 -0.0011270038 0.0022230519
-0.14149606 0.046119068 -0.077001423 0.94736654 -0.31999317 -0.010054016 0.001574531
0.14251781 0.043652374 -0.075619407 -0.95666546 -0.29117697 0.0026832893 0.0021907375
-0.13771684 0.0552429 -0.076083921 0.92465281 -0.38079923 0.0030244424 0.00035010948
0.13726789 0.056326777 -0.0755511 -0.92536402 -0.37907815 -0.0011234323 0.00025895578
-0.13411818 0.063930862 -0.072221525 0.89784008 -0.44031915 -0.0014942797 0.0015287006
0.13238543 0.06811408 -0.079362512 -0.89489484 -0.44627684 -0.00040993874 0.0019054085
-0.13104963 0.071338996 -0.073671609 0.87555689 -0.48309422 0.004482097 0.0024935533
-0.12784195 0.077021711 -0.075883493 0.85795349 -0.51360577 -0.011169994 0.0025006966
0.1273679 0.077742383 -0.076269209 -0.85141587 -0.52448922 -0.0014580324 0.0023173254
0.13081208 0.071912512 -0.074654825 -0.87635791 -0.48150888 -0.012081392 0.0024147443
-0.12321413 0.083155714 -0.076739676 0.8250851 -0.56499684 -0.0036384619 0.0015421819
-0.1187586 0.088962242 -0.074190341 0.80159777 -0.59786302 -0.00090920762 0.00083229301
0.11896372 0.08869493 -0.07810849 -0.79284579 -0.60942131 0.0011214382 0.0010076762
0.12282498 0.083662853 -0.074449763 -0.82375962 -0.56693774 -0.00122199 0.0012693147
-0.11521634 0.093578629 -0.075884037 0.77405566 -0.63308865 0.0060488977 0.0010153267
0.11398019 0.095189601 -0.073505387 -0.76616466 -0.64264441 -0.00015498755 0.0010294946
-0.10523663 0.10585961 -0.074565552 0.7154724 -0.69861042 -0.0065365164 0.002172275
0.10458645 0.10668299 -0.074527554 -0.70055735 -0.71357584 -0.0053855209 0.0024514215
-0.095233351 0.11394662 -0.073743321 0.64125425 -0.76732075 0.0034409189 0.0013376286
-0.089082852 0.11866608 -0.074977398 0.59209174 -0.80586237 -0.0036354051 0.00075102388
0.08817327 0.119364 -0.074640244 -0.58186883 -0.81328225 0.00084925065 0.00085807079
0.094366901 0.11461147 -0.075844839 -0.63569885 -0.77191263 -0.0061595654 0.0013027774
0.10030104 0.11005804 -0.071331382 -0.66997576 -0.74236673 -0.0049185469 0.0017963602
-0.084194832 0.12241679 -0.075810738 0.57965648 -0.8148464 0.0048637306 0.0011451286
-0.078213573 0.12700637 -0.078271896 0.53132987 -0.84715945 -0.0030403838 0.0020835453
0.077060908 0.12784618 -0.075550303 -0.53429359 -0.84529489 -0.0026236135 0.0021264998
0.086985037 0.12027577 -0.075210236 -0.58185983 -0.81328869 0.00085719535 0.00084517687
-0.072753079 0.1304639 -0.075526163 0.49420783 -0.86933142 -0.0046418705 0.002477457
-0.064547725 0.13386266 -0.07443253 0.44143018 -0.89729148 0.0027241416 0.0017649132
-0.055383801 0.13765851 -0.075572029 0.3796002 -0.92514968 0.0013376771 0.00037017246
0.055209853 0.13773054 -0.075753823 -0.36196092 -0.93218577 -0.0037451161 0.00076480454
0.064837947 0.13374245 -0.076652117 -0.44647029 -0.89479786 -0.0010447407 0.0019244282
0.073658764 0.13008875 -0.078742132 -0.50022191 -0.86589491 0.0020256205 0.0018489896
-0.043857336 0.14243291 -0.075265832 0.29439369 -0.95567453 -0.004297426 0.0020812496
-0.034623548 0.14506154 -0.075323455 0.22234011 -0.9749397 -0.0075759259 0.0020946928
-0.022691971 0.14666718 -0.076004431 0.14252472 -0.98977643 0.005420703 0.0010482641
-0.015395514 0.14762779 -0.07560657 0.099950001 -0.99498612 0.0035480228 0.0011945539
-0.0090335133 0.14846537 -0.076474741 0.071068361 -0.99745631 -0.0054962737 0.001373272
0.0068536191 0.14875235 -0.073591478 -0.04339613 -0.99904352 0.0053746412 0.0018324734
0.013510325 0.14787595 -0.075011723 -0.075457595 -0.99713933 0.0043953396 0.0011303403
0.027132079 0.14608264 -0.075739682 -0.18558234 -0.98262465 -0.0028375839 0.001283597
0.033946268 0.1451818 -0.076415785 -0.22757275 -0.97373599 -0.0069921445 0.0019563385
0.045368284 0.14180706 -0.073438905 -0.31783459 -0.94813746 0.0040716925 0.0011646349
-0.042447172 -0.14301702 -0.067331456 0.28698519 0.95793378 0.0015273715 0.0023608555
-0.035280161 -0.14500991 -0.066980705 0.22916025 0.97338766 -0.0014244586 0.0021581273
-0.025066258 -0.14635462 -0.065971158 0.16023131 0.98707932 0.00050331722 0.00045195359
-0.015774533 -0.14757791 -0.06677644 0.11079195 0.99384212 0.0017361362 0.00054015551
-0.0060958969 -0.14885211 -0.066312023 0.050033398 0.99866956 0.012481556 0.0016572715
0.0049819117 -0.14899878 -0.065142438 -0.032893635 0.99935985 0.014070407 0.0014249237
0.015310737 -0.14763896 -0.06602557 -0.11005408 0.99391872 -0.0036936409 0.0002827362
0.023946878 -0.14650199 -0.063913368 -0.14925463 0.98879868 0.00049744372 0.0006560316
0.035308499 -0.14495179 -0.063445352 -0.22375353 0.97464544 -0.00079038925 0.0019413807
0.044807974 -0.14203915 -0.065235071 -0.31961101 0.94754505 -0.0026690578 0.0016250294
-0.07147336 -0.13099398 -0.066524118 0.49164033 0.87079835 0.0001154322 0.0025639769
-0.066209711 -0.13317426 -0.065607481 0.44933063 0.89335477 -0.0043846695 0.0020798044
-0.057844475 -0.13663925 -0.065522619 0.38780996 0.9217391 -0.00070344179 0.00065494265
0.056057587 -0.13737941 -0.064937823 -0.38725081 0.92196554 -0.0040355795 0.00037668625
0.065054446 -0.13365279 -0.065191582 -0.45391235 0.89102846 -0.0056531695 0.0019569052
0.071360037 -0.13104092 -0.063813239 -0.48171148 0.87632549 -0.0027778109 0.0022804106
-0.082628071 -0.12361901 -0.060242854 0.54789323 0.83654755 0.0010546081 0.0016109768
-0.077643372 -0.12744391 -0.063357525 0.53786302 0.84301668 0.0051090829 0.0019336439
0.079469927 -0.12604232 -0.064608932 -0.53263581 0.84631509 -0.0070646051 0.0018539076
0.084320411 -0.12232041 -0.064039566 -0.57231873 0.82003129 -0.00014826932 0.00093379471
-0.10006779 -0.11023703 -0.067009017 0.67565513 0.73719013 -0.0064007379 0.0018813683
-0.096818246 -0.1127305 -0.0643581 0.64988118 0.76003474 -0.0012610536 0.0012758882
-0.088668078 -0.11898434 -0.066079311 0.58959705 0.80769473 -0.0021236732 0.00097153528
0.08796937 -0.11952047 -0.061038978 -0.58380085 0.8118962 0.0010557713 0.00084693666
0.095451534 -0.1137792 -0.065003358 -0.63583356 0.77181697 0.0037583818 0.0015016304
-0.10674497 -0.10420987 -0.066569336 0.72707891 0.6865539 -6.26006e-05 0.0019984539
0.10475253 -0.1063822 -0.065237015 -0.70240003 0.71170688 0.010363986 0.0021959667
-0.11388084 -0.095319085 -0.065856449 0.77466774 0.63235486 0.0041449759 0.0010865236
0.1149634 -0.093908288 -0.064945906 -0.7714873 0.63624185 -0.0019289518 0.00088727445
-0.12191468 -0.084849186 -0.063413918 0.81168056 0.5841012 0.00065923453 0.0009770703
-0.11918582 -0.088405505 -0.064301744 0.80148286 0.59799546 0.0051607569 0.0009816119
0.11887418 -0.088811636 -0.066730171 -0.79551345 0.60593539 -0.00069945503 0.0002005807
0.12334368 -0.082986876 -0.067603752 -0.83022606 0.55742317 -0.0020461923 0.0017585368
-0.13074416 -0.07207647 -0.064751543 0.87025726 0.49258769 -0.0031031151 0.0028491763
-0.12609421 -0.079402328 -0.063984543 0.8519668 0.52354503 -0.0072934581 0.0023338653
0.12743852 -0.077650398 -0.06387502 -0.85939735 0.51109111 0.014902362 0.0020744291
0.1308828 -0.071741804 -0.064226821 -0.8640765 0.50335765 0.0016452076 0.0020939079
-0.13295037 -0.066750273 -0.066146597 0.89191598 0.45217538 -0.0048265466 0.0021031597
0.13467811 -0.062579066 -0.066402741 -0.91033536 0.41381997 -0.006530208 0.0010752577
-0.13805456 -0.054427631 -0.064689294 0.93028319 0.36683482 -0.0023466474 0.0009040091
0.13659841 -0.057943083 -0.066002071 -0.91789794 0.39681607 0.00059984054 0.001002092
-0.14191104 -0.045117222 -0.064976893 0.9494344 0.31380615 -0.010003417 0.0020598595
0.14309993 -0.04224699 -0.066019326 -0.9596501 0.28119385 0.0013042715 0.0023838254
-0.14471231 -0.036670096 -0.064503327 0.97154921 0.23677535 -0.0054294444 0.0019055984
0.14492668 -0.035585094 -0.064138018 -0.9672935 0.25362802 0.0040169558 0.0021566092
-0.14616111 -0.026536006 -0.066298909 0.98371559 0.17968783 -0.0039873738 0.0012250275
0.14617935 -0.026397452 -0.06429565 -0.98659915 0.16313042 0.0032566786 0.00056673802
-0.14771536 -0.014730399 -0.067095369 0.99558777 0.093828209 0.0010789987 0.00097979861
0.14788026 -0.013477815 -0.064703457 -0.99601114 0.089154355 0.0036403215 0.001406173
-0.14893794 -0.0054438356 -0.066668898 0.99920577 0.037060689 -0.014637363 0.001737304
0.14888479 -0.0058476026 -0.067148097 -0.99912256 0.041862231 -0.0013046943 0.0015552531
-0.14885499 0.0060739438 -0.06624119 0.99905545 -0.042766422 -0.0076968791 0.0014772554
0.14886686 0.0059837638 -0.065783687 -0.99897778 -0.045193676 -0.0010072349 0.0015803367
-0.14769365 0.01489515 -0.064240314 0.99589288 -0.090537645 -0.00067563681 0.00084834982
0.14775205 0.014451747 -0.066409416 -0.99597073 -0.089678518 0.00028655899 0.00078363909
-0.14675577 0.022019133 -0.06283313 0.98897547 -0.14807382 0.0012646203 0.00094302278
0.14624371 0.025908589 -0.065373786 -0.98587924 -0.16744849 0.0017412407 0.00063234766
-0.14487408 0.036181774 -0.064190038 0.97107714 -0.23873761 0.0036696186 0.0017073898
0.14519735 0.033856519 -0.065968044 -0.97378188 -0.22739081 -0.0065092868 0.001999974
-0.14119893 0.046836428 -0.065880485 0.94401366 -0.32982573 -0.0073030931 0.0012709377
0.14168471 0.045663651 -0.066259436 -0.94775921 -0.31896123 -0.0040045213 0.0015213495
-0.13761024 0.055500273 -0.065546781 0.92681557 -0.37550423 -0.0030653917 0.00039288049
0.13760281 0.055518176 -0.065995418 -0.92684889 -0.37543464 1.4778108e-05 0.00028559795
-0.13395759 0.064318582 -0.063698389 0.89563823 -0.44470245 0.0084781544 0.0016354759
0.13417797 0.063786566 -0.067176729 -0.90379649 -0.42794669 0.0036859764 0.0014582168
-0.13005155 0.073748611 -0.065808184 0.86813462 -0.49630794 -0.0045515648 0.0025929578
-0.12771776 0.077286445 -0.064904794 0.85114437 -0.52492166 -0.0032536844 0.0020958576
0.12832519 0.076463617 -0.065357193 -0.85776597 -0.51403356 -0.0026587464 0.002390895
0.13084662 0.07182911 -0.064659566 -0.87825036 -0.4781332 0.0080592372 0.0026684005
-0.12187219 0.084904559 -0.065862611 0.81642848 -0.57744646 -0.00019549439 0.0014126921
-0.11904012 0.08859539 -0.060284678 0.80659157 -0.59110928 -3.5876539e-05 0.00097809453
0.11959612 0.087870792 -0.06390252 -0.80891353 -0.5879271 0.00083365611 0.0010966008
0.12368344 0.082544088 -0.064692169 -0.82562149 -0.56422371 0.00091235247 0.001229862
-0.11243315 0.097205743 -0.064137787 0.76149434 -0.64812624 0.0076627969 0.0011527381
0.11332542 0.096042924 -0.064754799 -0.76289815 -0.64643753 0.010239581 0.0011570931
-0.10498191 0.10603523 -0.063121207 0.70385289 -0.71032298 0.0056899483 0.0021053329
0.10262427 0.10817689 -0.064965606 -0.69199449 -0.72184932 -0.0087855086 0.0018974143
-0.095502533 0.11374009 -0.065559141 0.62108433 -0.7837438 3.8643328e-05 0.00056534755
0.087899595 0.119574 -0.068209529 -0.58852613 -0.80847788 0.00057682482 0.00080845144
0.096203357 0.1132023 -0.062708169 -0.6387229 -0.76941359 -0.0059943884 0.0012240683
-0.083220884 0.12316412 -0.063738614 0.55788857 -0.82991296 -0.002191769 0.0016263993
-0.077549174 0.12751618 -0.064491212 0.52476186 -0.85122055 -0.0069753388 0.0022430227
0.07724683 0.12774816 -0.062883832 -0.52954996 -0.84826565 0.0047308034 0.0019217662
0.08327084 0.12312578 -0.063152216 -0.56228942 -0.82690138 0.0080461176 0.0013771933
-0.071536958 0.13096763 -0.064524233 0.48777568 -0.87295967 -0.0040314989 0.0021950349
-0.06624607 0.13315921 -0.06341359 0.45231918 -0.89185452 0.0017224823 0.0019517917
-0.058672737 0.13629617 -0.064560741 0.39257237 -0.9197163 0.0029739386 0.0008163781
0.058757301 0.13626115 -0.066670887 -0.38479728 -0.92299682 -0.0027919272 0.00095910655
0.064461507 0.13389838 -0.063992716 -0.44677466 -0.89464509 0.0016133827 0.0019337299
0.072260395 0.13066798 -0.064310893 -0.4872652 -0.87324566 -0.0038216186 0.0029084589
-0.04340373 0.1426208 -0.062561586 0.29761001 -0.95465189 0.0082503473 0.0019634999
-0.035327695 0.14500366 -0.06444218 0.22649324 -0.97395009 0.01104536 0.002139885
-0.027131692 0.1460827 -0.064411707 0.17178361 -0.98511559 0.0061541395 0.0007285641
-0.015725447 0.14758433 -0.063622415 0.11420005 -0.99344903 0.0041680485 0.00049621059
-0.0073653101 0.14868498 -0.064445429 0.054643709 -0.99847037 0.0084316172 0.0016132448
0.0055350303 0.14892595 -0.064095855 -0.045216866 -0.99890238 0.012226705 0.0013061512
0.014970086 0.14768378 -0.063344285 -0.086008653 -0.99629265 0.0018626933 0.00092256645
0.024829507 0.14638579 -0.064855717 -0.16766761 -0.98584008 -0.0026291006 0.00058655126
0.03186392 0.14545968 -0.064326808 -0.21782331 -0.97597766 0.0045335009 0.0019598936
0.045208376 0.1418733 -0.063787222 -0.31856444 -0.94789952 0.0017786254 0.0013339474
-0.044440623 -0.14219132 -0.055460535 0.3169983 0.94842333 0.002280327 0.0016470285
-0.035356719 -0.14496027 -0.055461358 0.23760134 0.97134233 -0.0063010417 0.0022037502
-0.02506887 -0.14635426 -0.056643568 0.16126962 0.98688275 -0.0073886714 0.00073768391
-0.014120245 -0.14779568 -0.054388333 0.088500522 0.9960742 0.0019827196 0.0010227913
-0.0039645755 -0.14913271 -0.054034803 0.026011851 0.99958146 0.012659189 0.0020751974
0.0072984402 -0.1486938 -0.056205682 -0.062151693 0.99806106 -0.0033652293 0.001486382
0.015395004 -0.14762786 -0.054843083 -0.10917611 0.99401534 -0.0037413507 0.0011990807
0.025961706 -0.14623673 -0.054302011 -0.17888072 0.98387069 -0.00027897872 0.00120075
0.037265193 -0.14469965 -0.053060498 -0.22858801 0.97350675 0.0056680012 0.0018176767
0.044572577 -0.14213666 -0.053952664 -0.30974293 0.95082015 -0.00061470841 0.0020584869
-0.071563229 -0.13095677 -0.055931427 0.48261684 0.87568891 -0.015811771 0.0023478838
-0.065755315 -0.13336249 -0.055911869 0.44051659 0.89769477 -0.0094456207 0.0018106614
-0.05672444 -0.13710319 -0.056284435 0.38655069 0.92226809 0.00020761749 0.00062773959
0.054276466 -0.13811716 -0.054686878 -0.37081653 0.92870504 0.0014448049 0.00099525996
0.066466697 -0.1330678 -0.056500264 -0.45406717 0.89093697 -0.0073675052 0.0018388371
0.070163094 -0.13153671 -0.055512965 -0.46813726 0.88365549 -0.00059834303 0.0020293773
-0.08327885 -0.12311965 -0.056693073 0.57623833 0.81728166 0.00025248955 0.0010204475
-0.075731099 -0.12890166 -0.058915135 0.52085036 0.85364681 -0.0014085141 0.0019497134
0.077288747 -0.127716 -0.051607769 -0.52708846 0.84981042 -0.00010755726 0.0022334561
0.083930656 -0.12261948 -0.056378551 -0.57839882 0.81574804 0.0031634632 0.00095572061
-0.09243571 -0.11609334 -0.056653082 0.61569589 0.78796095 -0.0060142325 0.00034079881
0.087676637 -0.11974509 -0.051696725 -0.58571815 0.81051052 0.002636123 0.00099679537
0.095705368 -0.11358444 -0.055782873 -0.65475059 0.75582403 -0.0056285057 0.0013529379
0.10009269 -0.11021792 -0.05514811 -0.66242117 0.74912918 -0.0019192974 0.0016087507
-0.10647855 -0.10450345 -0.054720949 0.71237206 0.70180082 -0.0013147298 0.0025199018
0.10620997 -0.10487735 -0.052993521 -0.70910716 0.70509917 0.0014735431 0.0023420446
-0.1142627 -0.094821438 -0.05251696 0.77038741 0.63757604 -0.0003854259 0.00106072
0.1163952 -0.092042327 -0.054396246 -0.77717954 0.62927896 0.0001652371 0.00074669521
-0.12348003 -0.082809187 -0.055050176 0.81407422 0.58076024 0.00089185656 0.00074496504
-0.11943015 -0.088087089 -0.054820858 0.80950099 0.58711839 -0.00013979366 0.00073383888
0.11979699 -0.087609015 -0.056537941 -0.80653805 0.59116209 -0.0048776623 0.00086897449
0.12330433 -0.083038174 -0.055662293 -0.83070767 0.55667031 -0.0065557715 0.0016099347
-0.13031286 -0.073117726 -0.056191958 0.86560869 0.50071245 -0.0029391183 0.0025264514
-0.12784918 -0.0771152 -0.053895995 0.85220963 0.52319974 -0.00091368344 0.0023087496
0.12840131 -0.076324299 -0.05559238 -0.85438478 0.51963699 0.0020391413 0.0022763426
0.13057724 -0.072479501 -0.054880925 -0.86660308 0.49899632 0.0013035823 0.0023760675
-0.13304746 -0.066515826 -0.054864388 0.89130378 0.45340073 -0.0023322662 0.0023039414
0.13390984 -0.064433895 -0.055846184 -0.90173006 0.43229952 -0.00046930893 0.0013190283
-0.13837895 -0.053644482 -0.055333283 0.93077314 0.36559322 0.0017268824 0.00086713443
0.1382277 -0.054009613 -0.05447071 -0.93147391 0.36380094 -0.0022845769 0.00075597985
-0.14360404 -0.041029971 -0.058290981 0.96147794 0.27481899 -0.005896701 0.0023628224
0.1421953 -0.044430979 -0.054225944 -0.9489904 0.31519899 -0.0081768772 0.0012486058
-0.14528997 -0.033153027 -0.057453379 0.97717005 0.21241124 0.0044907159 0.0021037294
0.14508921 -0.034677867 -0.055204146 -0.97303212 0.23060925 0.0052824663 0.0022811324
-0.14633247 -0.02523431 -0.054907683 0.98432571 0.17634882 0.0020202596 0.0011185333
0.14619175 -0.026303336 -0.05308767 -0.98573005 0.16833337 0.00012605409 0.0012520757
-0.14720802 -0.018583987 -0.056278098 0.99103075 0.13362665 0.0013523065 0.00077093334
0.14777336 -0.014289784 -0.054299347 -0.99651706 0.083388701 0.00030361972 0.00097367173
-0.14910789 -0.0041529913 -0.054782409 0.99974877 0.022078557 0.0038562501 0.0023990211
0.14868255 -0.0073838052 -0.052991021 -0.99819475 0.059950825 0.0036344845 0.0014776604
-0.14891765 0.0055980678 -0.054324478 0.99925923 -0.038444906 -0.0017102133 0.0018941391
0.14895497 0.0053145229 -0.055521984 -0.99885786 -0.047765508 -0.0011439153 0.0018470184
-0.14744255 0.01680259 -0.055649184 0.9923209 -0.12368473 0.0011883095 0.00056497246
0.14767458 0.015040138 -0.056493096 -0.99658942 -0.082513236 -0.0010108678 0.0013211562
-0.14629897 0.025488852 -0.055888962 0.98689872 -0.16133153 0.0017466975 0.00094223686
0.14653586 0.023689548 -0.055328775 -0.98659921 -0.16310684 -0.0042559463 0.0005499043
-0.14481327 0.036009058 -0.053653464 0.97445977 -0.22455984 0.00098442833 0.0020205032
0.14511292 0.034295611 -0.055418294 -0.97623587 -0.21641505 -0.011321723 0.0021198154
-0.1422154 0.044382468 -0.056790128 0.95508337 -0.29631025 -0.0039986041 0.0020167422
0.14169708 0.045633771 -0.056149743 -0.94841766 -0.31701699 0.0020060644 0.0018202747
-0.13708328 0.056772515 -0.056936692 0.92425525 -0.38177279 -0.001299403 0.00034380978
0.13824779 0.053961132 -0.057233389 -0.92614931 -0.37715444 -0.0014008401 0.00027755901
-0.13399574 0.064226434 -0.057465982 0.89814234 -0.43969542 -0.0028841572 0.0015340219
0.1337606 0.064794168 -0.056595407 -0.89730459 -0.44138968 -0.0044163205 0.0020714416
-0.12758432 0.077460371 -0.056005102 0.8528074 -0.52221841 -0.0027249567 0.0022806888
0.12850322 0.076262832 -0.05669887 -0.85504353 -0.5185551 0.0010358561 0.002386624
0.13083509 0.071856968 -0.053645536 -0.88587844 -0.46390805 0.0029647606 0.0019524849
-0.1222295 0.084438898 -0.054434676 0.81870067 -0.57421196 -0.0031359664 0.0013823902
0.11961816 0.08784204 -0.053820118 -0.80898458 -0.58782828 0.0013760942 0.00095743826
0.12370312 0.082518443 -0.053394549 -0.82184321 -0.56970751 -0.0026552111 0.0012065588
-0.11544061 0.093286343 -0.055291452 0.7763232 -0.63033205 -0.0019603726 0.00069570006
0.11325055 0.096140467 -0.055220667 -0.75996965 -0.64995456 0.00227947 0.0011659522
-0.1056741 0.10527754 -0.054201767 0.70832884 -0.7058652 0.0049549658 0.0022326084
0.10726102 0.10367738 -0.05635586 -0.71952558 -0.69440615 -0.0091114789 0.0020559987
-0.095033199 0.1141002 -0.055999689 0.64487201 -0.76428258 -0.0034754456 0.0013556865
