# .PCD v0.7 - Point Cloud Data file format
VERSION 0.7
FIELDS x y z normal_x normal_y normal_z curvature
SIZE 4 4 4 4 4 4 4
TYPE F F F F F F F
COUNT 1 1 1 1 1 1 1
WIDTH 569
HEIGHT 1
VIEWPOINT 0 0 0 1 0 0 0
POINTS 569
DATA ascii
-0.15533568 -0.11568633 -0.11364882 0.84017438 0.54230773 -0.0030519285 0.00029261774
0.15500298 -0.11581075 -0.11570805 -0.81304443 0.58202642 0.014284075 0
-0.16286564 -0.10360578 -0.11509554 0.84891289 0.5285058 -0.0053347484 1.4798068e-05
-0.15981451 -0.10852155 -0.11657886 0.84891248 0.52850664 -0.0053146412 0
0.16253138 -0.10531247 -0.11495705 -0.81326669 0.58171809 0.014190315 7.7464583e-06
-0.17037308 -0.09154819 -0.11522715 0.85189104 0.523682 -0.0062310966 9.5264746e-05
-0.16635215 -0.098024093 -0.11694579 0.84891117 0.52850896 -0.005294099 0
0.16815448 -0.097416036 -0.11664044 -0.82717675 0.56177676 0.013616557 0.00058568513
0.17124514 -0.093108274 -0.11624628 -0.84250146 0.5386079 0.0096307592 0.0018935091
-0.17349121 -0.086513333 -0.11260481 0.85954791 0.51102644 -0.0054124272 0.00042108065
0.17667986 -0.085474655 -0.11255398 -0.88281459 0.46928316 0.020292027 0.0046266788
-0.18335305 -0.070709318 -0.11625758 0.92929435 0.36897388 -0.016441341 0.0059077423
-0.17850102 -0.078487694 -0.11474198 0.8846826 0.46611345 -0.0086510666 0.0029659783
0.18087184 -0.076295376 -0.11321473 -0.92605931 0.37733805 0.0054886304 0.0050343708
-0.18463533 -0.065931551 -0.11551407 0.93846905 0.34504664 -0.014787121 0.0058862385
0.18416801 -0.062101595 -0.11362569 -0.96737009 0.25316605 0.010104865 0.00073871034
-0.18579407 -0.059182987 -0.11955385 0.97620583 0.2165814 -0.010706453 0.0018143915
0.18526766 -0.057224832 -0.11620311 -0.97171712 0.23585697 0.011717736 0.00030880811
-0.18795326 -0.045817588 -0.11413065 0.98513645 0.17150199 -0.0096569033 8.7705186e-05
0.1889839 -0.04130213 -0.1152854 -0.97391123 0.2265491 0.013131971 0
-0.19018605 -0.032240469 -0.1125205 0.98650676 0.16341671 -0.009968685 2.9314274e-06
-0.18966179 -0.035585448 -0.1154707 0.98650628 0.16341926 -0.0099747255 0
-0.19178197 -0.022758111 -0.11500666 0.98683482 0.16146141 -0.0093383351 7.3552355e-06
0.1933267 -0.022600612 -0.11583777 -0.98407656 0.17774053 0.0012457323 0.001561967
-0.19317634 -0.01431161 -0.11452975 0.99006492 0.14020388 -0.010698322 0.00078340538
0.19530937 -0.014203401 -0.11366103 -0.99389672 0.10963166 0.012255049 0.004087795
-0.19449987 -0.0063366764 -0.11477143 0.99257314 0.12164018 -0.0014776217 0.0013214935
0.19650333 -0.0049787043 -0.1139705 -0.99893153 0.045285642 0.0092224507 0.004341458
-0.19617973 0.0043443739 -0.11551724 0.99912357 -0.035764337 -0.021748934 0.0065137511
0.19544803 0.0033413593 -0.11390442 -0.99891007 -0.046193022 0.0066958559 0.0037176053
-0.19452213 0.014978472 -0.11469045 0.99103689 -0.13283366 -0.014182284 0.003531039
0.19358711 0.014449027 -0.11597265 -0.98945689 -0.14446376 0.010255661 0.00056411704
-0.19208822 0.025458962 -0.11498701 0.98010606 -0.19828787 -0.0086075477 0.00070657965
-0.1904753 0.032384973 -0.11485291 0.97552335 -0.21958861 -0.01161714 6.1250852e-05
-0.18883178 0.039509337 -0.11586881 0.9739114 -0.22654712 -0.013150134 2.6696051e-05
0.19010305 0.035616904 -0.11375098 -0.98650682 -0.1634158 0.0099766683 0
-0.18738367 0.045700088 -0.1152736 0.97390944 -0.22655575 -0.013146806 2.56611e-05
0.18847901 0.045332879 -0.11519066 -0.98347038 -0.18077405 0.010332473 0.00029213846
-0.18445989 0.058345847 -0.11659472 0.9719398 -0.23488492 -0.012734584 0.0002357176
0.18700778 0.054116625 -0.1167891 -0.97804809 -0.20789649 0.014175871 0.0013072314
-0.18353222 0.06214967 -0.11341696 0.97069234 -0.23995672 -0.013307114 0.0003954873
0.18477841 0.06683927 -0.1156514 -0.93760455 -0.34768522 0.0035675366 0.0061442722
-0.18080701 0.074004553 -0.11582157 0.93456006 -0.35536078 -0.017780831 0.0055012456
-0.17969351 0.078852803 -0.11688041 0.91740221 -0.3969827 -0.027891103 0.0051151277
0.18229042 0.072857194 -0.11316442 -0.9172886 -0.39785376 0.017143119 0.0053748041
-0.17663407 0.084568404 -0.11589995 0.88818794 -0.45937607 -0.0097927609 0.00532082
0.17510913 0.084374733 -0.11490917 -0.85776627 -0.51399064 0.0071211676 0.00035760328
-0.17090411 0.092575423 -0.11600658 0.8357355 -0.54885787 -0.017357038 0.001019261
-0.16986963 0.093943715 -0.11287556 0.83254379 -0.55373591 -0.015725946 0.0010143865
0.16795067 0.095859423 -0.11626898 -0.84890807 -0.52851391 0.0053044474 1.576105e-05
0.17156839 0.090080321 -0.1130923 -0.85311955 -0.52169317 0.0048292642 0.00015794569
-0.16272546 0.10395988 -0.11435135 0.81305051 -0.582017 -0.014320633 2.8845891e-06
0.15937498 0.1096411 -0.1155839 -0.84807146 -0.5298571 0.0051260032 2.1146687e-05
0.16167861 0.10594641 -0.11503167 -0.8489123 -0.52850705 0.0053162235 3.0534648e-06
-0.15391986 0.11629564 -0.11577245 0.81304419 -0.58202696 -0.014271613 1.1760286e-05
0.15633421 0.11451662 -0.11645986 -0.84630966 -0.53267485 0.0041782451 5.6951994e-05
-0.14660707 0.12649727 -0.11520652 0.80062383 -0.59880334 -0.020882299 0.0005503823
0.14677528 0.12993167 -0.11039081 -0.76105666 -0.64851701 0.014785307 0.0044152932
-0.1412778 0.13391772 -0.11421931 0.7645427 -0.64433223 -0.017617546 0.0025282137
-0.13942201 0.13644262 -0.1114682 0.74670625 -0.6648643 -0.019625982 0.0037701237
0.14346156 0.13436 -0.11360134 -0.72544569 -0.68816507 0.012546978 0.0047432142
-0.13240346 0.14476548 -0.11579482 0.66458529 -0.74659044 -0.030481014 0.0057919328
-0.12744184 0.14787383 -0.11706877 0.6163044 -0.78729337 -0.018386466 0.0041750511
0.12739199 0.1463154 -0.11690561 -0.60343575 -0.79739481 -0.0051843035 0.00085605733
-0.11498489 0.15560496 -0.11560296 0.53016949 -0.84779662 -0.012694403 7.8394278e-06
0.10893166 0.15953074 -0.11891603 -0.58209425 -0.81312132 -0.00017384083 6.9008947e-06
0.11528254 0.15498342 -0.11408819 -0.58208126 -0.81313062 -0.00016491288 0
0.120701 0.15110396 -0.11123122 -0.58363527 -0.81201589 -0.00017919281 4.2765943e-05
-0.10369151 0.16263036 -0.11532592 0.52840471 -0.84888875 -0.013276861 6.360804e-06
-0.094868004 0.16807461 -0.11224922 0.52841455 -0.84888309 -0.013246994 0
0.098982483 0.16665195 -0.1143989 -0.57959002 -0.81490833 0.00015229518 3.4107372e-05
0.1048556 0.16244714 -0.11214118 -0.58197445 -0.81320703 -0.0002066891 1.1687706e-05
-0.091468751 0.17022984 -0.11476403 0.5257231 -0.85055494 -0.013092917 5.2023657e-05
-0.083154917 0.17540717 -0.11490829 0.50895417 -0.86063886 -0.016322611 0.00049597095
-0.077665783 0.17883497 -0.11561183 0.43529862 -0.89992034 -0.025661562 0.0039853202
0.07969889 0.17961794 -0.11436109 -0.38786522 -0.92159945 -0.0146622 0.0040910579
0.083949506 0.17741342 -0.11456378 -0.43755665 -0.89897257 -0.01981042 0.0047573028
0.091983408 0.1716622 -0.11405396 -0.52805114 -0.84917438 0.0080510825 0.0025120648
-0.07245864 0.18207943 -0.11581604 0.38989803 -0.92078477 -0.011611519 0.0062036356
-0.066860817 0.18443453 -0.11425762 0.32912049 -0.9441812 -0.014197417 0.0052108332
-0.054715402 0.18650557 -0.11693112 0.21429679 -0.97667837 -0.013280217 0.001538633
-0.044250671 0.18823023 -0.11618485 0.17442974 -0.98464584 -0.0068440414 0.00020868849
-0.03667542 0.18945721 -0.11356871 0.16332158 -0.98651987 -0.010230989 1.9674239e-05
0.038138568 0.18930222 -0.11669221 -0.22663696 -0.97396314 -0.0056088786 0
0.042108275 0.18835746 -0.11305375 -0.22663745 -0.97396272 -0.0056614187 1.5407346e-06
0.05852025 0.18454029 -0.11335844 -0.23627242 -0.97168088 -0.0034086003 0.00016170631
0.065880924 0.18282302 -0.11258353 -0.2720322 -0.96228802 -0.00062508031 0.0021033797
0.071451455 0.18156072 -0.1184558 -0.3271544 -0.9448275 -0.016461225 0.0031978099
-0.032285292 0.19020335 -0.11543705 0.1633155 -0.98652101 -0.010209674 1.4683683e-05
-0.025709726 0.19126792 -0.11312265 0.163323 -0.98651987 -0.010206359 0
-0.012422666 0.19346441 -0.11281683 0.12982269 -0.99146813 -0.011707191 0.0011281522
-0.0054341624 0.19464962 -0.11554535 0.1067156 -0.99412239 -0.018233834 0.0018318449
0.0020705648 0.19588514 -0.11488276 0.026623555 -0.99932057 -0.025487125 0.0045992434
0.015605305 0.19453157 -0.1142739 -0.12462193 -0.99218768 -0.0057403492 0.0041454891
0.025945261 0.19215381 -0.11916578 -0.21229839 -0.97716165 -0.0091960318 0.00028102001
0.033978164 0.19026506 -0.11578421 -0.22663493 -0.97396362 -0.0056123319 0
-0.03281422 -0.19085304 -0.1027203 0.22231036 0.97496009 0.0055676368 7.51923e-05
-0.025038071 -0.19264613 -0.10555511 0.19581936 0.98062259 0.0058414382 0.00084582181
-0.013606512 -0.19532569 -0.1021747 0.12592511 0.99202806 0.0048165093 0.0039009766
-0.0045309658 -0.19656232 -0.10339997 0.03230321 0.99941295 0.011414155 0.0050358609
0.0045770011 -0.1953503 -0.10391644 -0.073266648 0.99727339 0.0088227652 0.003138049
0.016072378 -0.19343744 -0.10486547 -0.14879139 0.98882145 0.0096547659 0.00048505201
0.025516756 -0.19188289 -0.1040006 -0.16331483 0.98652095 0.010230481 4.9285973e-06
0.034240961 -0.19039989 -0.10773627 -0.16331586 0.98652083 0.010233364 5.2311125e-06
-0.070645913 -0.18202852 -0.1064124 0.34265107 0.93918842 -0.022703422 0.0036140031
-0.067124605 -0.18285671 -0.10488931 0.30110487 0.95345443 -0.016139463 0.0027284657
-0.048591968 -0.18716963 -0.10480362 0.22663981 0.97396225 0.0056548123 0
-0.036968116 -0.18987373 -0.10492262 0.22664331 0.97396147 0.0056388532 0
0.044610344 -0.18871573 -0.10460539 -0.16919337 0.98553187 0.010025723 0.00011823853
0.059945725 -0.18615784 -0.10645144 -0.24890056 0.96852827 0.0012664961 0.0032096384
0.062256303 -0.18576474 -0.1074723 -0.28378841 0.95885926 0.0072868122 0.00408848
0.073327541 -0.18239865 -0.10251325 -0.40053317 0.9160378 0.021163236 0.0041764947
-0.09210062 -0.17158929 -0.1085986 0.51835406 0.85516524 -0.0012129019 0.0027947377
-0.087759778 -0.17469716 -0.1064281 0.48942581 0.87202656 -0.0056544039 0.0029440443
0.086823896 -0.17396417 -0.10465354 -0.49782494 0.86717325 0.013451905 0.001073266
0.09112937 -0.17123823 -0.10759435 -0.52316105 0.85215056 0.011914359 0.00010645885
-0.10412276 -0.16298382 -0.10562021 0.58208275 0.8131296 0.00015676751 1.2173988e-05
-0.095814697 -0.16893184 -0.10257759 0.54971415 0.8353337 0.0056608072 0.0011607792
0.095356233 -0.16863267 -0.10596136 -0.52842563 0.84887594 0.013266073 0
0.10510191 -0.16256779 -0.10586539 -0.52840525 0.84888828 0.013292507 0
-0.1203009 -0.15140206 -0.10816175 0.58477962 0.81119221 -0.00027933743 4.5893055e-05
-0.11490322 -0.15526661 -0.1054333 0.58208144 0.81313044 0.00020021794 8.5609753e-07
-0.10975461 -0.15895173 -0.1079121 0.58210176 0.81311595 0.00015881965 1.432686e-05
0.10996133 -0.15959829 -0.10232614 -0.52840543 0.84888834 0.013276539 1.0907239e-05
0.11658052 -0.15544742 -0.10428578 -0.55219185 0.83356714 0.015805021 0.00090344518
0.12405746 -0.15078297 -0.10494649 -0.60256183 0.79789728 0.016710252 0.0029771274
-0.1301693 -0.14433835 -0.10523705 0.61136049 0.79134405 -0.0035964351 0.001384293
0.12760921 -0.14855096 -0.10630135 -0.61955869 0.78494942 0.0012128366 0.0036526229
-0.14383401 -0.13354352 -0.1057663 0.71899897 0.69499689 0.0044640978 0.005232235
-0.13765463 -0.13897997 -0.10505009 0.66828388 0.74389315 0.0044295373 0.0038330576
0.13869396 -0.1388166 -0.10661488 -0.72641557 0.68701708 0.018108314 0.0046430589
0.1418204 -0.13449723 -0.10465631 -0.75633645 0.65386945 0.020244615 0.0029171393
-0.15181723 -0.12127532 -0.10741683 0.82524061 0.56478131 2.7440285e-05 0.0013952113
-0.14742029 -0.12833333 -0.1069532 0.79261798 0.60965174 -0.0090280958 0.0028176617
0.14719754 -0.12698838 -0.10454708 -0.80236417 0.59663171 0.015571235 0.00067741581
-0.15617114 -0.11426311 -0.10555033 0.84691823 0.53169763 -0.0052115684 2.4888297e-05
0.15622322 -0.11433052 -0.10656645 -0.81304795 0.58202171 0.014275146 0
-0.16256826 -0.10394016 -0.10081512 0.84891415 0.52850401 -0.005317112 4.6484547e-06
0.15961507 -0.10970213 -0.10209091 -0.8131305 0.58190656 0.014264587 0
0.16588975 -0.10086787 -0.10489893 -0.82364368 0.56689179 0.015648408 0.00055870268
-0.16693935 -0.096952312 -0.10413095 0.84891522 0.52850264 -0.0052897548 1.9142806e-06
0.16653813 -0.099848166 -0.10954304 -0.82469225 0.56532073 0.017180143 0.00054877985
0.1712487 -0.093322694 -0.10730539 -0.84569412 0.5331009 0.024593456 0.0019037332
-0.17281683 -0.087527752 -0.10574915 0.85675943 0.51569229 -0.0049695442 0.0002948693
0.17685699 -0.085461192 -0.10580654 -0.87787563 0.47873285 0.012218683 0.0046296427
-0.18292783 -0.071281418 -0.10520601 0.92988497 0.36781657 -0.0049965559 0.0060101622
0.18120377 -0.07548546 -0.10256884 -0.91794008 0.39487863 0.038169064 0.0053418665
-0.18474995 -0.064564362 -0.10445434 0.95911098 0.28263542 -0.014948724 0.0052868249
0.18305352 -0.067303106 -0.10654375 -0.9563691 0.29178846 0.014751833 0.0029171647
-0.18610251 -0.05635988 -0.10380737 0.97879744 0.20477636 -0.0047173663 0.0015414128
0.18600698 -0.054809883 -0.1030314 -0.97390759 0.226565 0.013129182 0
-0.18802808 -0.044740971 -0.10389368 0.98535997 0.17018482 -0.0101446 0.00012535542
0.18832846 -0.044799738 -0.10355289 -0.97390944 0.2265566 0.013134143 2.317925e-06
-0.18930529 -0.037016664 -0.1036628 0.98650509 0.16342592 -0.0099814851 1.9426492e-05
0.1898009 -0.038532365 -0.10247207 -0.97391081 0.22655214 0.013105559 1.9769157e-05
0.19105302 -0.032864925 -0.10738499 -0.97572339 0.21857834 0.01368661 0.00012771704
-0.1912965 -0.024983974 -0.1034613 0.98650604 0.16342148 -0.0099602984 0
0.19289519 -0.025088092 -0.10492542 -0.98314506 0.1820453 0.016889857 0.0013298915
-0.19284415 -0.015856137 -0.10698232 0.98807198 0.15374859 -0.008672745 0.00025741456
0.1947601 -0.017105972 -0.10432047 -0.98757219 0.15692931 0.0086271428 0.0019518111
-0.19453789 -0.0055619441 -0.10584192 0.99359924 0.11277507 -0.0065020546 0.0020381217
0.19655512 -0.0048509226 -0.1043061 -0.99923158 0.038545802 0.0071003046 0.0052082585
-0.19586633 0.0027647931 -0.1008068 0.99991167 0.010807167 -0.0077384426 0.0055152848
0.19537097 0.0044264719 -0.10374901 -0.99812973 -0.059707053 0.013121172 0.0038411785
-0.19538249 0.010946133 -0.10893303 0.99552274 -0.092132606 -0.021122988 0.0049400385
0.19376187 0.014106989 -0.10429236 -0.98912692 -0.14640138 0.013944529 0.00054781459
-0.19121009 0.028873377 -0.10876578 0.97669327 -0.21422166 -0.01338953 0.00012075153
0.19138205 0.028310008 -0.10696739 -0.98650718 -0.16341345 0.0099817542 3.5192568e-06
-0.18930371 0.036899094 -0.10583758 0.97391045 -0.22655217 -0.013134085 0
0.18944831 0.039854772 -0.10907643 -0.98642004 -0.16392918 0.010131141 0
0.19037786 0.03457208 -0.10368907 -0.98650658 -0.16341737 0.0099789305 0
-0.18762499 0.04413683 -0.10620025 0.9739092 -0.22655778 -0.013128795 2.8656505e-06
0.18850923 0.045531075 -0.10895598 -0.98342812 -0.18100893 0.010241483 0.00032780677
-0.18507931 0.054944791 -0.10385696 0.97391009 -0.22655573 -0.013100249 0
0.18710861 0.054108057 -0.10695942 -0.9782564 -0.20734359 0.0047925464 0.0014288757
-0.18239944 0.066511288 -0.10464883 0.96129817 -0.27502039 -0.016422259 0.0026251716
0.18520731 0.065772168 -0.1039049 -0.94487852 -0.32680687 0.020044923 0.0054455446
-0.1807992 0.073416851 -0.10510051 0.93128008 -0.36417648 -0.0096335392 0.0051542972
-0.17962605 0.078457564 -0.10505577 0.91786736 -0.3965154 -0.017179731 0.0061341696
0.17945281 0.077468254 -0.10787515 -0.89286613 -0.4501029 0.01405223 0.0034468514
0.18218282 0.073100403 -0.10615045 -0.91515386 -0.40295935 0.010820732 0.0053450931
-0.17634094 0.084649377 -0.10278999 0.87502682 -0.48373893 -0.018020211 0.0048303409
0.17516628 0.084370062 -0.10622702 -0.86174238 -0.50730354 0.0065774997 0.0005161814
-0.17061213 0.092667677 -0.10314547 0.84226304 -0.53885949 -0.014953309 0.0021161134
-0.16743951 0.097163975 -0.10576583 0.82990277 -0.557724 -0.014331712 0.00088846765
0.16770668 0.09636806 -0.10464086 -0.84890157 -0.52852434 0.0053056772 1.4167716e-05
0.17114559 0.09083043 -0.10602012 -0.85301721 -0.52185374 0.0055064992 0.00015042872
-0.16263033 0.10389253 -0.10619155 0.81303412 -0.5820415 -0.014255474 0
-0.15878519 0.10927701 -0.10672354 0.81303859 -0.58203518 -0.014255948 0
0.16530205 0.10023351 -0.10434161 -0.84891713 -0.52849931 0.0053065671 0
-0.15422373 0.11564011 -0.10635817 0.8130399 -0.58203286 -0.014278525 0
0.1561099 0.11499552 -0.10463785 -0.84596366 -0.53318781 0.0074966359 6.2866457e-05
-0.15056321 0.12071861 -0.10493167 0.81304449 -0.58202618 -0.01429054 2.1203755e-06
-0.14649276 0.12640087 -0.10477146 0.80092752 -0.5985297 -0.016651716 0.00057881401
0.14772758 0.12844354 -0.10625146 -0.77208614 -0.63548183 0.0067762877 0.0038682811
0.15072468 0.12363219 -0.10597259 -0.80755067 -0.58979213 -0.0026724988 0.0024702477
-0.14148559 0.13340956 -0.10534132 0.76856416 -0.63943064 -0.020917015 0.0024623682
0.13672245 0.13963351 -0.10474894 -0.65930754 -0.75185579 0.005151466 0.0028616616
0.14272931 0.1351478 -0.10639544 -0.71094549 -0.70318484 -0.0093585411 0.004920641
-0.13222766 0.1447002 -0.10461311 0.66024321 -0.75077069 -0.020549612 0.0049556363
-0.12721935 0.14784914 -0.10662589 0.61075097 -0.79180634 -0.0050892867 0.0038482461
0.12721795 0.14643775 -0.10662476 -0.60283637 -0.79786479 -0.00041754401 0.00063849922
0.13250834 0.14265011 -0.10441389 -0.62837458 -0.777897 0.0046542301 0.0018136022
-0.12330495 0.15024966 -0.10431658 0.57907987 -0.81521916 -0.0091868201 0.0024707769
-0.11703566 0.15423344 -0.10952435 0.5414775 -0.84061927 -0.012705129 0.00061263598
-0.10885415 0.15930191 -0.10797274 0.52842063 -0.8488791 -0.013264566 4.2321171e-06
0.10896322 0.15950581 -0.10811631 -0.58207947 -0.81313187 -0.00013568072 0
0.11545612 0.15485722 -0.10517119 -0.58207518 -0.81313503 -0.00017539045 4.7887529e-06
-0.10209014 0.16346768 -0.10511871 0.52840447 -0.84888893 -0.01327636 9.7649745e-06
-0.093433641 0.16886477 -0.10567597 0.52840829 -0.84888661 -0.013275228 4.6330038e-06
0.095107332 0.169424 -0.10521701 -0.54495126 -0.83839744 -0.01085605 0.001710307
0.10518809 0.16220795 -0.10663805 -0.58195335 -0.81322211 -0.0001754602 7.3394135e-06
-0.085441932 0.17379785 -0.10302042 0.51589876 -0.85650998 -0.015463027 0.00030098902
-0.077595517 0.17866749 -0.10209313 0.44826478 -0.8938424 -0.010226816 0.0034743065
0.083709478 0.17752567 -0.10482588 -0.43425396 -0.90077931 -0.0044820062 0.0054336283
0.093050808 0.17089641 -0.10629152 -0.54334795 -0.83948827 -0.0056965267 0.0015582533
-0.073112205 0.18152475 -0.10635386 0.39126739 -0.91988403 -0.026892003 0.005606662
-0.06602753 0.18450017 -0.10413086 0.28625908 -0.95798934 -0.017669061 0.0045759804
-0.051854022 0.18687703 -0.10706622 0.21123114 -0.97736323 -0.011939036 0.0014568181
-0.044008024 0.18814768 -0.10434167 0.17103709 -0.98521906 -0.0094743017 0.00019172557
-0.036940608 0.18931855 -0.10442527 0.16331902 -0.98652041 -0.010218712 0
0.037023142 0.18948859 -0.10403089 -0.22664365 -0.97396123 -0.0056566685 2.3185972e-05
0.044538297 0.18774736 -0.10532463 -0.22663195 -0.97396415 -0.0056323479 0
0.056818441 0.18488513 -0.104509 -0.23430668 -0.97215468 -0.0039630677 0.00012916494
0.063116975 0.18341371 -0.10350641 -0.24870798 -0.96856022 -0.0059579741 0.00079095626
-0.02411535 0.19145629 -0.10582693 0.16159606 -0.98680389 -0.010243547 1.643806e-05
-0.016083132 0.19280887 -0.10803358 0.1497023 -0.98866403 -0.011515706 0.00041402454
-0.0071860612 0.19425195 -0.10515843 0.10229187 -0.99469149 -0.011190625 0.0016859808
0.0039983401 0.19571948 -0.10852623 -0.013754821 -0.99984336 -0.011140571 0.0055679544
0.013792844 0.19491041 -0.10684808 -0.10516886 -0.99424618 -0.020347331 0.0052879546
0.026143674 0.19201468 -0.1030786 -0.21000358 -0.97769004 -0.0045518596 0.00026098266
0.032616321 0.1905098 -0.10329357 -0.21801656 -0.97592878 -0.0056306086 0.00015479898
-0.026154123 -0.192441 -0.096109785 0.21389094 0.97684139 0.0056212018 0.00014429526
-0.014653576 -0.19512835 -0.094166502 0.15501678 0.98783934 0.011970116 0.0021666584
-0.003204914 -0.19653428 -0.093751669 -0.012330481 0.99989742 0.007283248 0.0048744897
0.0043795472 -0.19545791 -0.096690811 -0.10266265 0.99470323 0.0050840764 0.0014328246
0.018639917 -0.19311464 -0.094998688 -0.16018192 0.98703694 0.0099899676 0
0.023661602 -0.19232196 -0.091269106 -0.16116089 0.98687565 0.010177391 6.4779442e-06
0.034338318 -0.19049387 -0.09711612 -0.16332005 0.98652005 0.010236552 0
-0.075334571 -0.18099956 -0.095674336 0.37900758 0.92536509 0.0072575915 0.0034416672
-0.066813484 -0.18298645 -0.094965644 0.30000302 0.95391929 0.0060161701 0.0024324767
-0.053809643 -0.18599923 -0.09723974 0.22663438 0.9739638 0.0056112367 1.3906014e-05
-0.045357414 -0.18797873 -0.0950372 0.22663426 0.9739638 0.0056143221 1.2764095e-05
-0.03955622 -0.18930838 -0.098539114 0.22662985 0.97396469 0.005620338 0
0.044834886 -0.18878806 -0.094038703 -0.16332579 0.9865191 0.010236532 0
0.055874396 -0.18692583 -0.097381942 -0.22186275 0.97507221 0.0033254202 0.0019398711
0.066674516 -0.18513703 -0.097465336 -0.34103093 0.93988025 0.01797032 0.0052774372
0.074261576 -0.18192832 -0.09540388 -0.42862809 0.90347528 0.0032166673 0.0035127569
-0.092211805 -0.17151232 -0.096404083 0.52080578 0.85366148 0.0048471959 0.0023373938
-0.086737171 -0.1754317 -0.094893962 0.49113834 0.87104374 -0.0081205582 0.0030723703
0.078478634 -0.17933342 -0.093479812 -0.45067719 0.89259303 0.012952689 0.0030218344
0.082829669 -0.17662254 -0.093639329 -0.47595865 0.87908167 0.026054977 0.0016234132
0.092173651 -0.17078926 -0.094726935 -0.52353477 0.8518821 0.014432532 0.00012130192
-0.10547698 -0.16201694 -0.093828112 0.58206695 0.81314093 0.00017096972 0
-0.09474206 -0.16970058 -0.098479338 0.54084784 0.84111869 0.0017240535 0.0014516889
0.096056044 -0.16838999 -0.093612403 -0.52840453 0.84888899 0.013271831 2.2814327e-06
0.10777488 -0.16108505 -0.094276696 -0.52840638 0.84888816 0.013246769 2.9753057e-06
-0.11500376 -0.15519655 -0.096557014 0.58207661 0.8131339 0.00016952223 5.129119e-06
-0.10940319 -0.15920714 -0.090222657 0.58208072 0.81313103 0.00017269336 3.8707362e-06
0.11578015 -0.15614946 -0.091241218 -0.54040682 0.841317 0.012093118 0.00033115147
0.12226512 -0.15205243 -0.095104098 -0.59215981 0.80575252 0.010474356 0.0021603149
-0.13259311 -0.1426055 -0.094848998 0.6332044 0.77397788 0.0032341792 0.0024220189
-0.12580696 -0.14746383 -0.092835896 0.58935785 0.80787212 0.00012953598 8.2025945e-05
0.12789963 -0.14853489 -0.095759213 -0.62569386 0.78005052 -0.0053397766 0.0040945476
0.13512163 -0.14329977 -0.096892811 -0.68488038 0.72864842 0.0032111364 0.004594808
-0.14335629 -0.13403443 -0.093668506 0.75636214 0.65407318 -0.010233284 0.0043511009
-0.13798386 -0.13874623 -0.096090458 0.67962855 0.73350346 -0.0088164182 0.0044083679
0.13878603 -0.13893016 -0.096747383 -0.71910971 0.69488662 0.0037193361 0.0045631621
0.14313792 -0.13291124 -0.094286546 -0.76495874 0.64381528 0.018441558 0.0028192129
-0.15157063 -0.12154684 -0.095002353 0.82032526 0.57185364 -0.0070710382 0.001740651
-0.14895996 -0.12574653 -0.095624946 0.80878872 0.58803159 -0.0089192791 0.002540004
0.14697862 -0.1275562 -0.093871616 -0.79946977 0.60047567 0.016643826 0.00063353044
0.15112881 -0.12173115 -0.094991937 -0.8121261 0.5833022 0.014488265 3.04942e-06
-0.15500548 -0.11603115 -0.095156968 0.84220022 0.53914642 -0.0044525741 0.00032427337
0.15447778 -0.11704429 -0.095340259 -0.81304806 0.58202147 0.014280113 8.7653425e-06
-0.16414072 -0.10135689 -0.095089458 0.84890968 0.52851129 -0.0053113624 4.1704684e-06
-0.15904342 -0.10955177 -0.095810324 0.84828675 0.52951092 -0.0052631209 1.3382581e-05
0.16290969 -0.10516256 -0.099531561 -0.81322873 0.58176541 0.014421207 0
-0.17052087 -0.091117784 -0.09599112 0.85130328 0.52464217 -0.0057703224 7.847415e-05
-0.1669082 -0.096913785 -0.095306516 0.84891611 0.52850109 -0.0052919686 0
0.16780311 -0.098419666 -0.095746838 -0.82524949 0.56454188 0.015989341 0.00054307847
0.17242216 -0.092025764 -0.093358062 -0.85169482 0.52325797 0.028582113 0.0017278857
-0.17468624 -0.084409915 -0.09427885 0.86327374 0.50464815 -0.0094141914 0.00075142551
0.17789306 -0.084337607 -0.095216408 -0.89226729 0.45085976 0.024176657 0.0041190218
-0.18231033 -0.072177038 -0.095614225 0.9239642 0.38229799 -0.011761299 0.0064057936
-0.17824742 -0.078744642 -0.099750541 0.88573319 0.46413526 -0.0074289669 0.0027367745
0.18151399 -0.074718922 -0.092782781 -0.93486768 0.35410479 0.02514625 0.0040209536
-0.18425481 -0.066900432 -0.093758762 0.94239497 0.33448172 -0.0036974091 0.0064872787
0.18459013 -0.061372533 -0.094892547 -0.97055453 0.24023159 0.017682986 0.00037942143
-0.18623777 -0.054984186 -0.094647236 0.97902983 0.20310886 -0.01573048 0.0014613876
0.18598755 -0.05536497 -0.094893567 -0.9739117 0.22654642 0.0131397 0
-0.18812987 -0.043667879 -0.096378274 0.98553789 0.16917592 -0.0097229918 0.00011647488
0.18842252 -0.04497296 -0.093585797 -0.97390991 0.22655475 0.013134345 2.0784266e-05
-0.1901166 -0.031791989 -0.098303914 0.98650587 0.16342305 -0.0099564027 5.1095699e-06
-0.18903683 -0.038101528 -0.094885617 0.98650575 0.16342224 -0.0099781882 0
0.19162805 -0.031016266 -0.096627682 -0.97689235 0.21332267 0.013221872 0.00019268917
-0.19115704 -0.025364641 -0.095906161 0.98650569 0.16342425 -0.0099498006 0
0.1931573 -0.024499193 -0.09564352 -0.98371136 0.17930399 0.012730589 0.0015970303
-0.1927518 -0.015722794 -0.095662177 0.98795682 0.15453634 -0.0077357115 0.00018545898
0.19517009 -0.015926262 -0.094264299 -0.98918879 0.14505923 0.021526571 0.0024199949
-0.19517274 -0.0012209257 -0.097509481 0.99762529 0.06505353 -0.022619633 0.0037568316
0.19644591 -0.0030944478 -0.095541202 -0.99999028 0.0044133337 -0.00015856516 0.0052133873
-0.19607392 0.0048279613 -0.092879549 0.99923813 -0.039014168 -0.00098270166 0.004897126
0.1954577 0.0044494183 -0.094795883 -0.99743652 -0.068976738 0.019043811 0.0035875752
-0.19391394 0.016289568 -0.092199624 0.98622787 -0.16504876 -0.010653111 0.0018049788
0.19326338 0.017573487 -0.096801408 -0.98730129 -0.15854467 0.0099895298 2.8472305e-05
-0.19161776 0.026309203 -0.094759978 0.97864699 -0.2053149 -0.0097944634 0.00050441007
0.19164889 0.0274106 -0.09531419 -0.98650604 -0.16342078 0.0099756122 5.8971004e-06
-0.19018412 0.032579128 -0.096602872 0.97448224 -0.22406147 -0.013446758 2.8676282e-05
-0.18960443 0.034996599 -0.095317267 0.97391158 -0.2265484 -0.013119294 7.6478109e-06
0.19048895 0.034682821 -0.090890467 -0.98650634 -0.16341896 0.0099704769 1.7098555e-05
-0.18730077 0.044988785 -0.096849725 0.97391105 -0.22654961 -0.013135583 2.2344395e-06
0.18895046 0.043721545 -0.094963886 -0.98650789 -0.16341023 0.0099715563 0
-0.18486698 0.055291709 -0.094093047 0.97312647 -0.22982852 -0.014273788 2.5873826e-05
0.187097 0.054855827 -0.095858313 -0.97615343 -0.21698049 0.0066357013 0.0018927089
-0.18272322 0.064548612 -0.094800472 0.96530813 -0.26094306 -0.0094311507 0.0018766815
0.18573955 0.063125253 -0.09463086 -0.96029311 -0.27890551 0.0069889249 0.0040215957
-0.18057346 0.073830329 -0.095490538 0.93457919 -0.35550615 -0.013310108 0.0054567563
-0.17918052 0.079844415 -0.09593793 0.91563356 -0.40122753 -0.025130419 0.0062759756
0.17889714 0.078504756 -0.093526565 -0.88947856 -0.45671991 0.015326975 0.0031797737
0.18195355 0.073599704 -0.093097471 -0.90593964 -0.42328307 0.010238507 0.0041663209
-0.17801236 0.082023919 -0.090672277 0.89699876 -0.44142106 -0.023252839 0.0052275332
0.17524312 0.08437565 -0.093367644 -0.85970527 -0.51072228 0.0083465017 0.00036930377
-0.17094584 0.091985665 -0.09435001 0.85163051 -0.52412957 -0.0036968833 0.0026491785
-0.16791636 0.096273832 -0.096638419 0.83146316 -0.55532444 -0.016846605 0.00086892664
0.16807981 0.095841892 -0.097343303 -0.84890819 -0.52851373 0.0053019426 7.6205279e-06
-0.1628266 0.10327744 -0.092301212 0.81387472 -0.58087236 -0.01397501 3.0637636e-06
-0.15956293 0.10790539 -0.09510418 0.81306839 -0.58199316 -0.014274868 1.5663011e-07
0.16234744 0.10509184 -0.093134478 -0.84891945 -0.52849585 0.0052884268 3.0140377e-06
-0.15613514 0.11265156 -0.093383037 0.81305379 -0.58201367 -0.014271268 0
0.15646036 0.11454985 -0.092954226 -0.84650767 -0.53234106 0.0061467132 4.1232881e-05
-0.15033939 0.1208867 -0.099039152 0.81079495 -0.58514529 -0.014711389 3.2560034e-05
-0.14795087 0.12408489 -0.093399793 0.8088699 -0.58786464 -0.012026806 5.4584787e-05
0.14745773 0.12900507 -0.093485422 -0.75225538 -0.65879321 0.010164904 0.0048993127
0.15282059 0.12039649 -0.092933297 -0.82245839 -0.56880152 0.0052052499 0.0017249238
0.13745175 0.13910995 -0.097915687 -0.65438563 -0.75613987 0.0056470302 0.0028739877
0.145578 0.13189837 -0.093519017 -0.73705375 -0.67583406 -0.00035455977 0.0042933337
-0.13288173 0.14409924 -0.096831426 0.68393326 -0.72945851 -0.011202668 0.0053894739
0.12572694 0.14750247 -0.094450399 -0.59435004 -0.80420649 -6.2004867e-05 0.00033113896
0.13400514 0.14157642 -0.09419661 -0.64766157 -0.76189381 0.0072286911 0.0028298239
-0.12144054 0.15128273 -0.096161142 0.57019687 -0.82146388 -0.0085167233 0.0019722993
-0.1152117 0.15510477 -0.092627071 0.5302614 -0.84772551 -0.013574808 8.8959205e-06
-0.10838541 0.15941732 -0.096685864 0.52856606 -0.84878892 -0.013236285 1.2199412e-05
0.11304375 0.15658167 -0.093930334 -0.58207273 -0.81313676 -0.00016587418 0
0.12175411 0.15034603 -0.092495538 -0.58454043 -0.81136453 -0.00040410392 5.0992574e-05
-0.10307655 0.16268456 -0.094296023 0.52841443 -0.84888285 -0.01326855 0
-0.094688989 0.16791685 -0.095020585 0.5284043 -0.84888935 -0.013261545 4.8263996e-06
0.097091682 0.1680012 -0.094653867 -0.5530327 -0.83315712 -0.0019976955 0.0011053107
0.10270078 0.16398619 -0.095928349 -0.57772487 -0.81623077 -0.0011266775 9.670193e-05
-0.084308133 0.17439497 -0.096068382 0.51094186 -0.85943401 -0.017653931 0.00047270051
-0.076697551 0.17909329 -0.093571387 0.43614787 -0.89973444 -0.01590379 0.0031453413
0.078354247 0.17982769 -0.096512675 -0.3840307 -0.92328173 -0.0084452797 0.0051548085
0.089593433 0.17336872 -0.094010741 -0.49352777 -0.86972338 -0.0033981532 0.0041691577
0.092525102 0.17126973 -0.092420973 -0.52644134 -0.85019559 -0.0051931655 0.0024231744
-0.073928833 0.18084683 -0.095498689 0.41105816 -0.91138941 -0.020013796 0.0044291015
-0.063987896 0.18474081 -0.094768189 0.30115634 -0.95357478 -8.1111553e-05 0.0044232365
-0.055830471 0.18611144 -0.096715868 0.22854625 -0.97350407 -0.0075106118 0.0016267909
-0.046736926 0.18758361 -0.093506515 0.17963332 -0.98370469 -0.0075418795 0.00042636308
-0.039412308 0.18881255 -0.095086321 0.16331603 -0.98652095 -0.010208496 0
0.036341973 0.18960695 -0.097080767 -0.22663628 -0.97396314 -0.0056363633 5.099193e-06
0.046456717 0.18725909 -0.098082073 -0.22664446 -0.97396135 -0.0056131966 0
0.053613164 0.1855762 -0.095029533 -0.2266449 -0.97396123 -0.0056244521 0
0.06570065 0.18276586 -0.095435321 -0.27140081 -0.96243429 -0.007859976 0.0017886867
0.072066322 0.18126009 -0.091193512 -0.33049971 -0.94378763 0.005901299 0.0040129204
-0.024188738 0.1913162 -0.093484804 0.16331218 -0.98652154 -0.01021821 0
-0.013315569 0.19314261 -0.096029095 0.12588888 -0.9919765 -0.011600409 0.0012455315
-0.003945746 0.19469909 -0.096543953 0.07189206 -0.99739045 -0.0066183978 0.0030642122
0.0057718367 0.1959985 -0.09438666 -0.049357872 -0.99856102 -0.02096588 0.0047018919
0.016474837 0.19422549 -0.096319683 -0.12272 -0.99239999 -0.0090591861 0.0038103587
0.024776891 0.19229166 -0.09597405 -0.19527456 -0.98074007 -0.0040963083 0.00091955025
0.033554211 0.19025888 -0.09764342 -0.22311486 -0.97477317 -0.0060870289 1.7503544e-05
-0.033231735 -0.19086164 -0.084420651 0.22224171 0.97497398 0.0058606789 7.6221077e-05
-0.025662912 -0.19261138 -0.086405694 0.21346267 0.97691977 0.0078432076 0.00018330815
-0.011980243 -0.1958075 -0.084287606 0.10766131 0.99414879 0.0087928129 0.0046714158
-0.004012729 -0.19664022 -0.086275935 0.010175136 0.99975258 0.019780098 0.0058030463
0.0054848427 -0.19538192 -0.086364307 -0.10676955 0.99426359 0.0063357297 0.001304357
0.014402776 -0.19390994 -0.085944004 -0.14044952 0.99007535 0.0049797702 0.0005712554
0.023955053 -0.19230582 -0.088139497 -0.16141918 0.98683268 0.010246301 2.1117494e-05
0.032763258 -0.1908967 -0.08340615 -0.163326 0.98651886 0.010257623 0
-0.070450291 -0.1821844 -0.087316483 0.32674485 0.94506872 0.0091065839 0.0033785629
-0.062971026 -0.18394881 -0.083156869 0.26341796 0.96461856 0.011042859 0.0014001437
-0.054035537 -0.18601367 -0.08564353 0.22662956 0.97396481 0.0056269211 1.8168946e-06
-0.042200904 -0.18876617 -0.085876562 0.22663414 0.97396392 0.0055952501 1.4988924e-05
-0.03708484 -0.1899512 -0.086820312 0.22663487 0.9739635 0.005637337 1.0287282e-05
0.039443698 -0.18981127 -0.081428036 -0.16332537 0.98651892 0.01025845 0
0.045995921 -0.18871364 -0.082673766 -0.17060991 0.98530108 0.0086095706 0.00018220775
0.052353024 -0.18766677 -0.082139984 -0.20035589 0.97961742 0.014395825 0.0010903717
0.064373545 -0.18563098 -0.086559244 -0.2801834 0.95986253 -0.012694554 0.0033864565
0.075608388 -0.18121681 -0.087286703 -0.43752003 0.89906287 0.016192401 0.0033301951
-0.092435807 -0.17135428 -0.085780159 0.52679074 0.84998077 0.0049169902 0.002088815
-0.089079954 -0.1737573 -0.082544126 0.49230734 0.87033653 0.012155288 0.003062797
0.083428197 -0.17639904 -0.084100284 -0.4998385 0.86608094 0.0080726417 0.00063380849
0.092944689 -0.17050439 -0.082240805 -0.52840191 0.8488909 0.013251555 2.4358369e-06
-0.10231715 -0.16428135 -0.0826336 0.58186358 0.81328636 8.8778492e-05 0
-0.09774036 -0.16755734 -0.084114395 0.56637198 0.82414842 0.0014283998 0.00045070355
0.097593024 -0.16758426 -0.083950505 -0.52841687 0.84888148 0.013264518 8.3374489e-06
0.10257077 -0.16443492 -0.087204158 -0.52840352 0.84888995 0.013255742 1.7358428e-06
-0.11689598 -0.15384433 -0.0857924 0.58208334 0.81312919 0.00017242382 0
-0.10870156 -0.15971035 -0.085827194 0.58208179 0.81313026 0.00017341139 5.0935369e-06
0.11318234 -0.15785255 -0.085734852 -0.53358442 0.84566128 0.012025204 6.8771325e-05
0.12378781 -0.15128663 -0.083453916 -0.59664756 0.80244875 0.0093653668 0.0025135241
-0.13460292 -0.141169 -0.084538877 0.66241556 0.749102 0.0071958341 0.0035394693
-0.12559411 -0.14761806 -0.084217899 0.58752388 0.80920583 0.0012336844 6.6249479e-05
0.12836346 -0.1484921 -0.080020696 -0.63091677 0.775594 0.019950019 0.0035466752
0.13279933 -0.1454764 -0.085801139 -0.65867054 0.75238448 0.0084079187 0.0032625059
-0.14272574 -0.1346081 -0.083422914 0.74785745 0.66385376 0.002736836 0.0040709176
-0.13867521 -0.13825414 -0.083079182 0.6934889 0.72045159 -0.0047534821 0.0050503807
0.14197104 -0.13478325 -0.084428303 -0.75488597 0.65574443 0.012096581 0.0028607661
-0.1511492 -0.12210238 -0.082901299 0.82393658 0.56662911 -0.0077387965 0.0015060913
-0.14788494 -0.12736097 -0.084429234 0.80422574 0.59431845 -0.0025418354 0.0021335066
0.1457914 -0.12943043 -0.085079923 -0.79197711 0.61034501 0.015852794 0.00095040491
0.15150626 -0.12150218 -0.082836673 -0.81250709 0.58278072 0.014100636 1.4627769e-05
-0.15529422 -0.11546236 -0.084694482 0.84342372 0.5372237 -0.0052223848 0.00021936381
0.1541771 -0.11781031 -0.081242263 -0.81304359 0.58202767 0.014280352 0
-0.16329394 -0.10262187 -0.085602753 0.84891438 0.52850378 -0.0052932194 1.7840695e-05
-0.15898845 -0.1095328 -0.085123189 0.84774816 0.53036958 -0.005577385 2.2533382e-05
0.16425431 -0.10362083 -0.085815743 -0.8155753 0.57847542 0.014251249 2.3457551e-05
-0.17085952 -0.090445638 -0.083216988 0.85129809 0.52466625 -0.0041127196 0.00010334924
-0.16755056 -0.095766537 -0.083802365 0.84890831 0.52851355 -0.0053063356 3.2974458e-05
0.17164402 -0.093337663 -0.084194899 -0.83908278 0.54381752 0.014235211 0.0010500716
-0.17464514 -0.084367111 -0.083433717 0.86589986 0.50011986 -0.0098860767 0.00125159
0.17553198 -0.087917507 -0.083740875 -0.868626 0.49530393 0.012763009 0.0031082341
0.1801928 -0.080866814 -0.084705472 -0.91498071 0.40346035 0.0054765791 0.0052882098
-0.18192355 -0.072679833 -0.083809793 0.90786147 0.41927022 5.5560831e-05 0.0035566599
-0.17799583 -0.078999579 -0.084885336 0.88439327 0.46665806 -0.0088786818 0.0028892045
0.18058881 -0.079266906 -0.082935944 -0.91429031 0.40416536 0.026899623 0.0052065905
-0.18476461 -0.063300781 -0.085203685 0.96308446 0.26919541 -0.0014692418 0.0050091962
0.1838789 -0.064926364 -0.086328618 -0.96724689 0.25348714 0.01332913 0.00078608317
-0.18549308 -0.058595769 -0.080169059 0.97354686 0.22844997 -0.0041327351 0.0027606534
-0.1880949 -0.043144953 -0.084355205 0.98650587 0.16342199 -0.0099692224 0
0.18880542 -0.043867797 -0.084252052 -0.97390974 0.22655596 0.013121853 2.3405975e-05
-0.18911801 -0.036900192 -0.083233155 0.98650599 0.16342072 -0.0099769449 0
0.19121128 -0.033503141 -0.084631421 -0.9747085 0.22312312 0.012626298 4.2411293e-06
-0.19101356 -0.025596673 -0.085517213 0.98650593 0.16342089 -0.0099830087 4.5655247e-06
0.19338104 -0.024106966 -0.085814044 -0.98216671 0.18773898 0.010128945 0.0014036335
-0.19283694 -0.014622908 -0.086064443 0.98746151 0.15731443 -0.013109806 3.5191752e-05
0.19581006 -0.013644354 -0.086165681 -0.99361992 0.11236113 0.0097154863 0.0036807202
-0.19443019 -0.0050516487 -0.086833052 0.9950375 0.097600274 -0.019354429 0.0020854881
0.19696467 -0.0066986647 -0.082993396 -0.99864829 0.041423265 0.031397268 0.0047260383
-0.19581449 0.0057311822 -0.084061459 0.99870634 -0.045870561 -0.021944243 0.0052777394
0.19571972 0.0034281646 -0.085614622 -0.99888444 -0.047147024 0.0026528367 0.0044025029
-0.19391258 0.015791234 -0.083500274 0.98594588 -0.16657548 -0.012778656 0.0017104705
0.19345558 0.017407706 -0.08051239 -0.98729241 -0.1586401 0.0093324659 1.643555e-05
-0.19136651 0.026893219 -0.086200066 0.97638845 -0.21565008 -0.012676814 0.00011295393
0.19212088 0.025104553 -0.086414419 -0.98668003 -0.16234662 0.010297739 3.5799269e-07
-0.18942097 0.035250504 -0.086087547 0.97390771 -0.22656392 -0.013134532 4.3759937e-05
0.18992811 0.03828156 -0.087400272 -0.98650724 -0.16341384 0.0099712238 1.3140287e-06
-0.18725245 0.044613879 -0.086796224 0.97391087 -0.22655053 -0.013131948 2.4572715e-05
0.18853383 0.046830144 -0.085241519 -0.98446125 -0.17524298 0.011219836 0.00024644646
-0.18457338 0.056008726 -0.084687665 0.97318429 -0.2296969 -0.012314268 1.3856931e-05
0.18719395 0.054787677 -0.087384365 -0.97394824 -0.22650461 0.010981494 0.0019070354
-0.18231654 0.065717675 -0.084803998 0.96732748 -0.25299922 -0.016401103 0.00074376294
0.18532938 0.066149116 -0.085656665 -0.94551969 -0.32556364 0.00091328 0.0049652224
-0.1801993 0.074587055 -0.080791838 0.92703933 -0.37443069 -0.019991752 0.005161908
-0.17925429 0.078885674 -0.084866375 0.91619009 -0.39989847 -0.026018746 0.0063291597
0.17868578 0.07889571 -0.088396765 -0.88774389 -0.46033034 0.0025912754 0.0025823475
0.18393472 0.070525095 -0.082364611 -0.93122643 -0.36442697 -0.0032094191 0.0042399662
-0.17785779 0.08212667 -0.086496815 0.89878809 -0.43799481 -0.01845127 0.0056236936
0.17590447 0.083424076 -0.082336918 -0.86495554 -0.50184405 0.0021149879 0.0007561075
-0.16756479 0.096499704 -0.085831188 0.82675791 -0.56242442 -0.012248793 0.00058002869
0.16761315 0.096687794 -0.087751538 -0.8489185 -0.52849728 0.005298303 4.146103e-06
0.17053384 0.092006296 -0.086761378 -0.85099101 -0.52515638 0.0050073597 7.695239e-05
-0.16150989 0.10491531 -0.084090747 0.81305963 -0.58200538 -0.01427671 0
0.16281548 0.10442698 -0.084470108 -0.84891081 -0.52850926 0.0053205634 0
-0.15371025 0.11580908 -0.084015056 0.81305069 -0.58201784 -0.014276294 0
0.1561825 0.11508121 -0.084476642 -0.84287065 -0.53807992 0.0062389635 0.00040370043
-0.14663391 0.12568949 -0.083819322 0.80438679 -0.59403193 -0.0093783401 0.00042317915
0.14930145 0.12610562 -0.087303966 -0.79115248 -0.61161786 -0.0012147051 0.0036375606
0.15120663 0.12303897 -0.087946057 -0.79567569 -0.60568637 -0.0066456711 0.0033614829
-0.14216867 0.13191195 -0.08320038 0.76935077 -0.63859665 -0.017136103 0.0025786438
-0.13957651 0.13558531 -0.085330442 0.74481797 -0.66723031 -0.0070557347 0.0036621476
0.13873248 0.13819028 -0.084744312 -0.68641746 -0.72709763 -0.012651759 0.0043696808
0.14410625 0.13348785 -0.083771273 -0.70632708 -0.70782661 -0.0091450009 0.0048385439
-0.13442713 0.14236119 -0.084361471 0.69110727 -0.72267854 -0.01031444 0.0044531501
-0.12781879 0.14714913 -0.085705064 0.62613451 -0.77953911 -0.016565513 0.0044941078
0.12636589 0.14704283 -0.084113389 -0.59619665 -0.80283141 0.003371689 0.00034846354
0.132053 0.14297158 -0.08368513 -0.63461661 -0.77282232 -0.0027171702 0.0026592407
-0.1217377 0.15097445 -0.088269211 0.57116866 -0.82066679 -0.016502822 0.0020854848
-0.11889102 0.15270616 -0.085691944 0.55640584 -0.83078796 -0.014277513 0.0011340852
-0.10771497 0.15968359 -0.087019078 0.52840847 -0.84888673 -0.013262564 0
0.10889721 0.15954834 -0.086294055 -0.58208334 -0.81312907 -0.00017597036 1.1355297e-06
0.11479007 0.15533005 -0.086984068 -0.58207047 -0.81313831 -0.00016484155 1.0623947e-05
0.12151398 0.15051632 -0.085097469 -0.58409554 -0.81168491 -0.00023445149 3.5021098e-05
-0.10374852 0.16210389 -0.083902672 0.52840996 -0.84888548 -0.013279561 2.0437741e-05
-0.093337059 0.16859142 -0.084334664 0.52841848 -0.84888041 -0.013263506 6.7239857e-06
0.098591127 0.16692598 -0.086168982 -0.56464154 -0.82533568 0.00094109279 0.00062288041
0.10463236 0.16260165 -0.087670587 -0.58138198 -0.8136307 -0.00044221216 1.342191e-05
-0.087237708 0.17237298 -0.083369635 0.51292914 -0.85835701 -0.011273033 0.0004203979
0.079127535 0.17956316 -0.081878163 -0.38332146 -0.92355424 0.010591395 0.0048555462
0.083763599 0.17741689 -0.082777023 -0.44872698 -0.89351028 0.016836701 0.0032433392
-0.063482769 0.18471643 -0.084348246 0.29296121 -0.95612174 0.0022231627 0.0038113585
-0.054418158 0.18619706 -0.082418747 0.21320546 -0.97698498 -0.0066186283 0.0015436154
-0.034772303 0.18949704 -0.087013006 0.16331407 -0.98652118 -0.010220153 1.4525073e-05
0.038461789 0.18904257 -0.084778108 -0.22664547 -0.97396106 -0.0056325211 3.0051588e-05
0.045535892 0.18739569 -0.084642746 -0.22663441 -0.97396356 -0.0056493673 2.6878405e-07
0.053918868 0.18543816 -0.0834537 -0.22664498 -0.97396117 -0.0056292 1.8811994e-05
0.063256465 0.18328775 -0.087328233 -0.25147417 -0.96786356 -0.00088135363 0.00082656048
0.073176153 0.18098643 -0.088525102 -0.34459063 -0.93875062 -0.0021292914 0.0042223269
-0.026547795 0.19084819 -0.08601106 0.16331655 -0.98652083 -0.010219415 0
-0.012279532 0.19318202 -0.083282828 0.14174916 -0.98987252 -0.0077159023 0.00067697791
-0.0042039379 0.19452162 -0.08354602 0.075595178 -0.99712902 -0.0043621506 0.003259402
0.0049238927 0.19591506 -0.08426369 -0.032841679 -0.99945319 0.0038408157 0.0044478807
0.015212625 0.19447666 -0.088959664 -0.11038134 -0.99388278 -0.0035975398 0.0042739157
0.024592804 0.19226332 -0.083655633 -0.1901128 -0.98172945 -0.008023235 0.001222964
0.032261528 0.19047239 -0.082538262 -0.2198039 -0.97553122 -0.0050205821 4.6888195e-05
-0.034927782 -0.19053517 -0.072624959 0.22663781 0.97396284 0.0056210882 2.0650692e-05
-0.024333175 -0.1929791 -0.076320857 0.19695024 0.98039418 0.0061391341 0.0010621212
-0.01195535 -0.1958515 -0.07767383 0.10727104 0.99422729 0.0022503871 0.0050272983
-0.0053517702 -0.19682945 -0.072790205 0.0069624884 0.99994552 0.0077707842 0.0040064729
0.0050904709 -0.19556332 -0.075164519 -0.080947861 0.99671537 -0.0024189271 0.0036254614
0.015103836 -0.19390237 -0.075476021 -0.14076035 0.98997468 0.011692085 0.00053477118
0.026090646 -0.19208467 -0.075366616 -0.16331744 0.98652047 0.010237765 0
0.034332551 -0.19073179 -0.074251324 -0.16332752 0.98651886 0.010230755 0
-0.080238819 -0.18000326 -0.07060387 0.43215135 0.90168357 0.014563163 0.0042626658
-0.074906424 -0.18122341 -0.074179433 0.38863224 0.92137891 0.0050848648 0.0041569774
-0.064511448 -0.18364652 -0.073437721 0.26946425 0.96298116 0.0074971993 0.0015303101
-0.05777562 -0.18519717 -0.07633578 0.23875833 0.9710595 0.0061590276 0.00045700205
-0.044799142 -0.18822521 -0.074867316 0.22662915 0.97396481 0.0056356774 0
-0.03785478 -0.18983102 -0.076609932 0.22663818 0.97396278 0.0056266296 0
0.03953043 -0.18988332 -0.073091157 -0.1633181 0.98652047 0.010225207 0
0.045305308 -0.18889904 -0.075815804 -0.17189474 0.98505819 0.01060784 0.00017799523
0.054647699 -0.18734431 -0.076599732 -0.20439608 0.97884977 0.0086773103 0.00099812925
0.065187491 -0.18561113 -0.075475045 -0.28174266 0.95927787 0.02017487 0.0035846536
0.073805176 -0.18253247 -0.074919842 -0.38777772 0.9216761 0.011900614 0.0054292833
-0.093247473 -0.17077579 -0.074040771 0.54813206 0.83637834 0.0047477456 0.001138118
-0.085748851 -0.17614341 -0.075534575 0.45071343 0.89261883 0.0094358074 0.004026874
0.086781926 -0.17446581 -0.074221924 -0.50428128 0.86346471 0.011358814 0.00055533327
0.093051769 -0.17054777 -0.075198904 -0.52843523 0.84886974 0.013281506 0
-0.1044398 -0.16276321 -0.076345891 0.58209181 0.81312311 0.00018759376 1.1022595e-05
-0.097033344 -0.16806591 -0.072891913 0.56476086 0.82525301 -0.0016121187 0.00055150205
0.096115753 -0.16863792 -0.075367413 -0.52840483 0.84888881 0.013268993 4.9356145e-06
0.10625152 -0.1623805 -0.072055481 -0.52841067 0.8488853 0.013263599 0
-0.1202257 -0.15146387 -0.071331739 0.58456051 0.81134981 0.00070908281 4.5591882e-05
-0.11650127 -0.15412919 -0.075139813 0.58207846 0.81313258 0.00017500803 6.1563078e-06
0.11499089 -0.15694226 -0.071944073 -0.53304744 0.84598184 0.013230169 9.9793062e-05
0.12399268 -0.15125389 -0.077388585 -0.58754867 0.80907315 0.013678323 0.0021048172
-0.13342741 -0.14201358 -0.070334643 0.66015494 0.75112867 -0.0010203777 0.0038197201
-0.12666649 -0.14685284 -0.073007353 0.59861618 0.80102319 0.004527865 0.00078877376
0.13648351 -0.1421998 -0.076676406 -0.69583952 0.71804267 0.014902385 0.0049310457
-0.14376797 -0.13357997 -0.075402156 0.72991729 0.68344235 0.011283496 0.0051263864
-0.13825926 -0.13855384 -0.074120551 0.69078791 0.72305578 -0.0015415411 0.0049127764
0.13927087 -0.13869169 -0.078866541 -0.74833661 0.6631363 0.0155739 0.0031001875
0.1429399 -0.13367133 -0.074586697 -0.76225233 0.64696121 0.0203149 0.0026237771
-0.15088381 -0.12246766 -0.076819472 0.81992501 0.57246685 -0.0021418086 0.0018294639
-0.1483262 -0.12655213 -0.074459851 0.79572248 0.60563242 -0.0059260344 0.0033099542
0.14727849 -0.12760475 -0.074824706 -0.80062604 0.59892666 0.016876716 0.00052588567
0.1514678 -0.12176597 -0.07427761 -0.81246525 0.58282906 0.014511668 1.7404354e-05
-0.15349074 -0.11826245 -0.075046986 0.83749694 0.54642487 -0.0043412428 0.00043482333
0.15670882 -0.11438692 -0.076626152 -0.8130374 0.5820365 0.014269343 1.483677e-05
-0.16447566 -0.10057049 -0.070334464 0.84891027 0.52851027 -0.0053116363 7.9220481e-06
-0.1598624 -0.10804732 -0.076984152 0.84891069 0.52850974 -0.0053037978 0
0.16433953 -0.10380822 -0.073329695 -0.81303155 0.5820446 0.014273137 1.6980639e-05
-0.16639581 -0.097534671 -0.075162858 0.84891832 0.52849752 -0.0053043878 7.150918e-06
0.16802065 -0.098644152 -0.074217111 -0.82124788 0.5703792 0.014814041 0.00039830845
0.17223877 -0.092730746 -0.075070553 -0.84947318 0.52750391 0.011614531 0.0028533854
-0.17328362 -0.086461022 -0.074163139 0.86006033 0.51018178 -0.0032746466 0.00049395801
0.1771296 -0.08595413 -0.072806045 -0.88148564 0.47211936 0.009291999 0.0047113439
-0.1821662 -0.072188251 -0.073662929 0.92247242 0.38567618 -0.017278427 0.0060459049
0.18153016 -0.075584471 -0.076648183 -0.9272458 0.37443298 0.0039081969 0.0051246663
-0.18442135 -0.064785086 -0.075572751 0.95762557 0.28778934 -0.011429881 0.0047275554
0.18398724 -0.065192953 -0.073691539 -0.96340603 0.26758534 0.015712872 0.0019601984
-0.18612134 -0.05454145 -0.075882062 0.98035055 0.19715311 -0.0065954453 0.0010059694
0.1866658 -0.053590979 -0.07519272 -0.97391212 0.22654562 0.013123346 6.1933379e-06
-0.18762991 -0.045260545 -0.07302805 0.98571897 0.16813174 -0.0094823753 5.8041667e-05
0.18842411 -0.046043932 -0.074988909 -0.97391188 0.22654718 0.013116799 2.2549199e-05
-0.1900357 -0.031152396 -0.079827264 0.98650664 0.16341761 -0.0099656414 6.2454451e-06
-0.18903576 -0.03688892 -0.074914187 0.98650664 0.16341706 -0.0099814525 0
0.18983799 -0.039983846 -0.074676275 -0.97391111 0.2265505 0.013116742 1.8352925e-05
0.1915652 -0.0325584 -0.074680887 -0.97486234 0.22240408 0.013408734 3.8911716e-05
