# .PCD v0.7 - Point Cloud Data file format
VERSION 0.7
FIELDS x y z normal_x normal_y normal_z curvature
SIZE 4 4 4 4 4 4 4
TYPE F F F F F F F
COUNT 1 1 1 1 1 1 1
WIDTH 573
HEIGHT 1
VIEWPOINT 0 0 0 1 0 0 0
POINTS 573
DATA ascii
-0.043942261 0.12531662 0.13469769 0.32275066 -0.9464035 0.012347007 0.0015090327
-0.035140783 0.12871924 0.13476889 0.27755457 -0.96064907 0.010810717 0.0020518235
-0.028711103 0.12997794 0.13633776 0.22565095 -0.97409666 0.014745826 0.0019679035
0.028956415 0.12997366 0.13860582 -0.22457533 -0.97425282 0.019935023 0.002159389
0.036436129 0.12832507 0.13517217 -0.29058859 -0.95683259 0.0054530669 0.0018477967
0.047881149 0.12368098 0.1343881 -0.36652598 -0.93035758 0.0096705072 0.0014949688
0.054319132 0.12102089 0.13488735 -0.41713765 -0.90874815 0.013153482 0.0018768987
-0.025580574 0.13038573 0.13598455 0.1985172 -0.98004228 0.010398125 0.0014768693
-0.012818723 0.13204762 0.13450828 0.08620923 -0.99618739 0.013366907 0.0011539614
-0.0053523909 0.13300715 0.13261153 0.037458733 -0.99923438 0.011286065 0.0018708137
0.0051316405 0.13303503 0.13251546 -0.051590923 -0.99860191 0.011517323 0.0015297453
0.015102295 0.13175233 0.13494118 -0.10418847 -0.99449736 0.010944935 0.00089758623
0.023732908 0.13063832 0.13674128 -0.17444542 -0.98460191 0.011313353 0.0017044811
-0.023827219 -0.13074215 0.1461522 0.16638693 0.98599881 0.011031003 0.0014708117
-0.015637597 -0.1318198 0.14611022 0.10379665 0.99456012 0.008738894 0.0016707674
-0.0064930134 -0.13303636 0.14713335 0.065779537 0.99771452 0.015455625 0.0015722549
0.0041137948 -0.13330372 0.14341968 -0.020983744 0.99966079 0.015427216 0.0023307367
0.012877216 -0.13215931 0.1441742 -0.077186599 0.99696249 0.010395501 0.0015651302
0.0246432 -0.13061921 0.14489578 -0.18896943 0.98188555 0.013834428 0.0012367542
-0.052860051 -0.12178648 0.14704897 0.40218112 0.9154911 0.01125063 0.0019532945
-0.044414345 -0.12529524 0.14783719 0.34045258 0.94017273 0.01292803 0.0016805024
-0.035081208 -0.12885411 0.14549036 0.26883659 0.96308911 0.013650374 0.0023741887
0.029478228 -0.12996316 0.14331712 -0.2228342 0.97479522 0.010924018 0.0020566343
0.035149019 -0.12890396 0.14468819 -0.28210899 0.95928574 0.0136129 0.0019687817
0.045659814 -0.12473516 0.14450349 -0.35305467 0.93540883 0.01904488 0.001088194
0.05331501 -0.12158475 0.14604706 -0.41511798 0.90974635 0.0062033203 0.0017433022
-0.071104474 -0.11277423 0.14792988 0.52728856 0.84963512 0.0093213664 0.0018316564
-0.065419726 -0.11640305 0.14554654 0.49819654 0.8669892 0.011396117 0.0020950772
-0.059003912 -0.11921607 0.14512257 0.44435921 0.89574587 0.013572528 0.0016761012
0.058872931 -0.11926769 0.14492416 -0.45278311 0.89154869 0.011325496 0.0019163027
0.064886056 -0.11674654 0.1445222 -0.49498308 0.86880124 0.01327509 0.0022758432
0.072178684 -0.11190403 0.14495414 -0.54239494 0.84001929 0.013239294 0.0023100791
-0.085048825 -0.10206193 0.14712436 0.6432339 0.7655291 0.014672594 0.0016844125
-0.077300526 -0.10795419 0.14367686 0.56752843 0.82331091 0.0084007392 0.0011756888
0.079039238 -0.10663245 0.1444812 -0.59646374 0.80257928 0.0098653585 0.0018565613
0.083535649 -0.1032029 0.14581983 -0.63322771 0.77380031 0.015994489 0.0017358664
-0.095060714 -0.093801752 0.14588818 0.71754676 0.69629127 0.017468246 0.0019961649
-0.088436462 -0.099466063 0.14735517 0.66574907 0.74603826 0.014320791 0.0017433532
0.089933045 -0.098249868 0.14296058 -0.68427241 0.72919416 0.0068675713 0.0020993052
0.094205514 -0.094346568 0.14553674 -0.70728171 0.70683134 0.011914505 0.002513946
-0.10294984 -0.083848484 0.14497687 0.76844758 0.63971275 0.01599759 0.0011150037
-0.099849954 -0.087947257 0.14790657 0.75443083 0.65626717 0.01214457 0.0013842547
0.099246159 -0.088675216 0.14497659 -0.74550813 0.66646349 0.0066309115 0.0014859231
0.10297547 -0.08380837 0.14464308 -0.76764661 0.64077806 0.01105278 0.0013514805
-0.1119023 -0.072147414 0.14328727 0.84425122 0.53593951 0.0029646324 0.0018789092
-0.10716111 -0.078377172 0.14581878 0.81106234 0.58471298 0.016986063 0.0017006978
0.10862152 -0.076458208 0.14503706 -0.82292831 0.56801927 0.011964961 0.0017468609
0.11125696 -0.073022969 0.14500432 -0.83170289 0.55511069 0.011060234 0.0016354348
-0.11631408 -0.065620467 0.14518557 0.87026632 0.49241507 0.012805727 0.0022047963
0.11692613 -0.063947387 0.14530508 -0.87629181 0.48169532 0.0090617193 0.0019002636
-0.12198462 -0.052338786 0.14570859 0.91417205 0.40527281 0.0065920916 0.0014034316
-0.11935347 -0.058584061 0.142368 0.90012038 0.43559185 0.006558266 0.0014500788
0.11956666 -0.058099806 0.1433199 -0.89532834 0.44533199 0.0081581883 0.0016126649
0.12158714 -0.053318221 0.14632924 -0.91667295 0.39941838 0.013254053 0.0014285598
-0.12470213 -0.045799255 0.14636832 0.9381091 0.34600192 0.015295103 0.0014456509
0.12509662 -0.044910081 0.14834446 -0.93956834 0.34216294 0.011651169 0.00085543044
-0.12878679 -0.034962159 0.14269908 0.96360946 0.267021 0.01251313 0.002193185
0.12959351 -0.032837465 0.14919466 -0.96624142 0.25675946 0.021262225 0.0024906369
-0.13082209 -0.022968011 0.1434667 0.9847182 0.17330137 0.017223109 0.0014470863
0.1304435 -0.026135126 0.14657187 -0.97715718 0.21219866 0.011640952 0.0019993794
-0.1319035 -0.014971838 0.1457894 0.99377161 0.11064474 0.013258817 0.00054558559
0.13220479 -0.012753376 0.14653635 -0.99490035 0.099992417 0.013218964 0.0010939154
-0.13294873 -0.0067877024 0.1431797 0.99812239 0.059829164 0.013122506 0.001830542
0.13319375 -0.0049005984 0.14290223 -0.9991889 0.039750334 0.0064403871 0.0022401824
-0.13290952 0.0072873547 0.14533192 0.99807447 -0.059797086 0.016480137 0.00185808
0.13295043 0.0069587124 0.14514036 -0.99786818 -0.064927332 0.0065972595 0.0016086813
-0.13182117 0.015629798 0.14613752 0.99226779 -0.12342636 0.013059921 0.0011807438
0.13190801 0.014786427 0.14417891 -0.99423921 -0.10640143 0.01292605 0.0018213521
-0.13074227 0.023831837 0.1462107 0.98403549 -0.17760919 0.011362688 0.0013210193
0.13077986 0.023467736 0.14537294 -0.98649877 -0.16354369 0.0085820379 0.001548541
-0.12864073 0.035575297 0.14514881 0.96350402 -0.26737607 0.013038106 0.0022778404
0.1285795 0.035999645 0.14421408 -0.9597429 -0.28083619 0.0049508028 0.0022022724
-0.1252235 0.044533551 0.1461494 0.94425225 -0.32914099 0.0073403469 0.0014175018
0.12549268 0.043822888 0.14424843 -0.95073169 -0.30987489 0.0093169492 0.0019238951
-0.12140623 0.053845823 0.14916727 0.90505838 -0.42490882 0.017939314 0.0011729891
-0.11958557 0.058116883 0.14528017 0.90307838 -0.42899075 0.020407043 0.0011505644
0.11978539 0.057723962 0.14807665 -0.89804256 -0.43969852 0.013597279 0.0013153121
0.12139896 0.053675693 0.14330317 -0.90573889 -0.42373025 0.0094720758 0.0013271297
-0.11609583 0.065968402 0.14641468 0.86194003 -0.50694299 0.0082523823 0.0023200801
0.11739375 0.063402422 0.14509328 -0.88183725 -0.47148609 0.0079947561 0.002073983
-0.11223719 0.071695201 0.14250238 0.834732 -0.55060828 0.007287113 0.0016461682
-0.1086317 0.076422185 0.14390594 0.8225165 -0.56862384 0.011553376 0.0015861245
0.10763377 0.077703655 0.14295858 -0.81728613 -0.57611811 0.011463818 0.0018509221
0.11283103 0.070900835 0.14148606 -0.84322655 -0.5374878 0.0087072598 0.0015917694
-0.10226606 0.08479692 0.1478276 0.7680499 -0.64029682 0.01091869 0.0011597165
-0.098691285 0.089364164 0.14327841 0.74405879 -0.66809535 0.0050180778 0.0018554153
0.098786846 0.089320913 0.14731874 -0.73698509 -0.67554414 0.022206524 0.0017675213
0.10322051 0.083469279 0.14366141 -0.76861924 -0.6396054 0.011375297 0.0014163099
-0.09390042 0.094832152 0.14625476 0.70201272 -0.71196198 0.016981952 0.0025038905
-0.088703021 0.099218056 0.14453931 0.65931332 -0.75181735 0.0087586781 0.0013288842
0.093560614 0.095079497 0.14294565 -0.70395601 -0.71022135 0.0056221471 0.0023418465
-0.083850622 0.10294916 0.14503965 0.64464492 -0.76438409 0.012245524 0.0013978396
-0.077179924 0.10806955 0.14515541 0.57791078 -0.81600827 0.012232513 0.0015300546
0.077679969 0.10771468 0.14702241 -0.56988972 -0.82157087 0.01572047 0.0018104437
0.08297161 0.10360425 0.14378186 -0.64178002 -0.76672441 0.015872404 0.0012305424
-0.072063893 0.11198618 0.14456943 0.5483678 -0.83618057 0.0097405324 0.001399896
-0.06556762 0.11629887 0.14515467 0.50499612 -0.86303431 0.012275963 0.0022293339
-0.058335055 0.11948562 0.1445576 0.43864655 -0.89863414 0.0067806286 0.0012246619
0.057417415 0.11983065 0.141911 -0.43814144 -0.89886194 0.0089048883 0.0013386477
0.065911092 0.11612037 0.1438833 -0.49329713 -0.86976594 0.01285626 0.0016840964
0.072071388 0.11196809 0.14376967 -0.54047406 -0.84120691 0.0160881 0.0016953188
-0.054482263 0.12106483 0.14329997 0.42220208 -0.90642613 0.011704455 0.0013390242
-0.044501156 0.12523438 0.1459593 0.33755845 -0.94124949 0.010182585 0.00088491064
-0.035059143 0.12891446 0.14607175 0.27104583 -0.9624548 0.014660117 0.0022590216
0.035663083 0.12867819 0.14475317 -0.28321138 -0.9589529 0.014168087 0.0019302337
0.044427995 0.12526552 0.14602177 -0.32702109 -0.94486612 0.016887126 0.0013111471
0.05356859 0.12146661 0.14505947 -0.41148269 -0.91134191 0.011742175 0.0019945723
-0.025063332 0.130601 0.14790013 0.1707634 -0.98527378 0.0086872317 0.0011329066
-0.014850646 0.13191018 0.14503825 0.10182872 -0.99477899 0.0067610978 0.0010342499
-0.0071130474 0.13292581 0.1447918 0.061838508 -0.99806625 0.0063034962 0.0017691982
0.0057641938 0.13311255 0.14553463 -0.051092785 -0.99859512 0.014047682 0.0016214794
0.013793231 0.13206832 0.14657132 -0.083811499 -0.99632692 0.017560981 0.0015047698
0.025800465 0.13048278 0.14618492 -0.19262543 -0.98120421 0.011566722 0.0019441136
-0.025512427 -0.13062339 0.15450042 0.19706152 0.98020184 0.019265205 0.0016000156
-0.014512681 -0.13208599 0.15567032 0.085964516 0.99621278 0.01304333 0.0012066623
-0.0051074778 -0.13330813 0.15436892 0.054687537 0.99841076 0.013606767 0.0016417204
0.0055490239 -0.1332722 0.15616585 -0.060867336 0.99806184 0.012950034 0.0017759799
0.013073171 -0.13225679 0.15415566 -0.08111953 0.99659312 0.014890126 0.0016382483
0.027610423 -0.13036107 0.15562283 -0.225262 0.97425026 0.0096727218 0.0024574909
-0.054666448 -0.12115637 0.15596212 0.42586273 0.90475982 0.0071223038 0.0015453022
-0.046164326 -0.1246829 0.15632649 0.35629308 0.9341321 0.021273561 0.00099159335
-0.034278166 -0.12929095 0.15534525 0.26033074 0.96528053 0.021479648 0.0025214949
0.034222644 -0.12915371 0.15515935 -0.26338786 0.96463311 0.010478371 0.0025752028
0.044760354 -0.12525432 0.15556356 -0.34593964 0.93819225 0.011008692 0.00077394495
0.0525316 -0.12201788 0.1542435 -0.40448728 0.91447884 0.010882388 0.0016613033
-0.070230514 -0.11352638 0.15321246 0.52636051 0.85018116 0.011690257 0.0018271757
-0.063365825 -0.11753731 0.15827809 0.49423027 0.86927038 0.010270094 0.0018138032
0.058785584 -0.11946177 0.15683752 -0.44050771 0.89766848 0.012008027 0.0014836637
0.067187987 -0.11571141 0.15588239 -0.50586492 0.8625285 0.012053846 0.0020870157
0.072432846 -0.11193721 0.15973836 -0.54694736 0.83700001 0.016719181 0.0012990915
-0.082990855 -0.10377958 0.1560985 0.63353425 0.77370149 0.0045223758 0.0016628338
-0.077862017 -0.10768047 0.15385649 0.57591683 0.81738496 0.014201485 0.0014897421
0.07727582 -0.10811827 0.15307891 -0.57581097 0.81751096 0.01084393 0.0019834412
0.085369214 -0.10195554 0.15615913 -0.65393752 0.75643474 0.013119524 0.0014172728
-0.096563391 -0.092193522 0.15442735 0.72440302 0.68920571 0.015358877 0.0021812792
-0.088439927 -0.099616781 0.15729167 0.67364913 0.73895442 0.011964648 0.0018319729
0.089044094 -0.099117942 0.15500839 -0.67199141 0.74040532 0.015084191 0.0016900107
0.095204294 -0.093593776 0.15285093 -0.72141999 0.69240302 0.011452218 0.0021233251
-0.10408378 -0.082642384 0.15848407 0.77022028 0.63756502 0.016479068 0.001285576
-0.09895815 -0.089318849 0.15831476 0.73748618 0.6751284 0.017768966 0.0020701631
0.099638067 -0.088335671 0.15348794 -0.74109519 0.67132109 0.010285947 0.0017896354
0.10540309 -0.080812693 0.15299773 -0.79385018 0.60797179 0.013123485 0.0017752589
-0.11182195 -0.072513573 0.15628484 0.83425033 0.5512774 0.010938028 0.001424545
-0.10793848 -0.077598706 0.1574823 0.80785185 0.58925647 0.01233515 0.0018600649
0.10688463 -0.078865752 0.15219373 -0.81083119 0.58515614 0.0120504 0.0015014086
0.11025569 -0.074565329 0.15680952 -0.83182609 0.55491698 0.011515377 0.0013847691
-0.11610841 -0.06601502 0.15458716 0.8627041 0.50570291 0.0024785544 0.0020249891
0.11540622 -0.0674254 0.1554888 -0.85882425 0.51211339 0.012679813 0.0022809517
-0.12110214 -0.054725148 0.15370496 0.91028559 0.41389683 0.0083428007 0.0014572
0.11943866 -0.058669362 0.15146193 -0.89436179 0.44728738 0.0071372963 0.0016918337
0.121824 -0.053008944 0.15453286 -0.91469997 0.40398034 0.01112313 0.0021378726
-0.12579711 -0.04339185 0.15374683 0.94709396 0.32079956 0.010029559 0.0017253467
0.12494507 -0.045512676 0.15574133 -0.93844831 0.34509978 0.014864221 0.00089477142
-0.12879118 -0.035334252 0.15210225 0.96113402 0.27543896 0.018837595 0.0017590701
0.12816349 -0.037337527 0.15295723 -0.95615923 0.29224706 0.018740606 0.0021607988
-0.13024296 -0.028486758 0.15540136 0.97358006 0.2276942 0.017237818 0.0021683415
0.1306624 -0.025309503 0.15549509 -0.9801439 0.19760732 0.016405938 0.001620093
-0.13188709 -0.015887909 0.1542248 0.99223864 0.12368673 0.012812218 0.00092308695
0.13201042 -0.014893612 0.1536123 -0.99372101 0.11141492 0.01025858 0.00052962371
-0.13328269 -0.0051468173 0.15272725 0.99944925 0.032261897 0.0077720997 0.0019772819
0.13335918 -0.0046399082 0.15351945 -0.99959439 0.025650973 0.012375209 0.0025338673
-0.13322066 0.0056888098 0.15348367 0.99923223 -0.038470194 0.0074104411 0.0014483901
0.13313963 0.0064399904 0.15492897 -0.99856222 -0.048855133 0.022060225 0.00144136
-0.13190614 0.015556089 0.15222941 0.993734 -0.11106826 0.012510609 0.00045082957
0.13173491 0.016980356 0.15354782 -0.98972434 -0.14260839 0.010418328 0.0013222595
-0.13059701 0.025866348 0.15613501 0.97857738 -0.2053719 0.014445053 0.0017606115
0.13074936 0.024542363 0.15435855 -0.98542088 -0.17004852 0.0053950595 0.001165281
-0.12888874 0.035597008 0.15578827 0.95869094 -0.28376833 0.019683523 0.0019652036
0.12828116 0.037375644 0.15314697 -0.95547128 -0.2947658 0.013702607 0.0022290279
-0.12438631 0.046854597 0.15552181 0.93198109 -0.36214885 0.016111931 0.0011354758
0.1254473 0.044211399 0.15296721 -0.94610775 -0.32377526 0.0070441673 0.001381918
-0.1208355 0.055409938 0.15498798 0.90489918 -0.42522448 0.018483059 0.0012596262
-0.11921729 0.059321769 0.1551474 0.89877218 -0.43821955 0.013122646 0.0014998872
0.11968619 0.058252275 0.15710241 -0.89989102 -0.43577486 0.017218119 0.0012332284
0.12049079 0.056275271 0.15602387 -0.90050173 -0.43453696 0.016561514 0.0012008478
-0.11644311 0.06554316 0.15618381 0.86630923 -0.4993642 0.011992635 0.0022473657
0.11735613 0.063419916 0.15359601 -0.87929994 -0.47616741 0.0098139755 0.0019651616
-0.11297528 0.070954189 0.15348431 0.84684461 -0.53176153 0.0091588637 0.0017828555
-0.10806822 0.077373639 0.15469882 0.81868064 -0.57421339 0.0064007365 0.0020297964
0.1094778 0.075537682 0.1547513 -0.82491416 -0.5652529 0.0024197702 0.0013664799
0.1107668 0.073800534 0.15190309 -0.82860523 -0.55981255 0.0048254277 0.001513005
-0.10255411 0.084566548 0.15503672 0.76370353 -0.64555359 0.0041954792 0.0014537962
-0.099736109 0.088182911 0.15224688 0.75536519 -0.65522903 0.0099174045 0.0014704441
0.098659389 0.089724854 0.15914264 -0.73266637 -0.68034518 0.018178536 0.0018050222
0.10304735 0.08391647 0.15467316 -0.7720415 -0.6354956 0.0098649552 0.0013325261
-0.094290145 0.094587415 0.15604454 0.69836402 -0.71566963 0.010237707 0.0021748249
-0.088312499 0.099670641 0.15444718 0.66141754 -0.7498104 0.017640557 0.0019789743
0.089061365 0.099080577 0.15344672 -0.66710699 -0.7449562 0.002948991 0.0015212439
0.093842074 0.095016398 0.15599573 -0.69750458 -0.71639842 0.01614264 0.0022705144
-0.083606169 0.10327674 0.15411003 0.6296978 -0.776712 0.014112667 0.0016402887
-0.076944172 0.10841747 0.1559751 0.56433296 -0.82544976 0.012692794 0.0012821851
0.077613719 0.1078682 0.15367582 -0.57481802 -0.8182162 0.010321449 0.0022123496
0.08337938 0.10349321 0.1568601 -0.63891536 -0.76920485 0.010543164 0.0012721693
-0.073407829 0.11107525 0.15236402 0.55508685 -0.83175904 0.0074509121 0.001414587
-0.064993352 0.11666036 0.15769921 0.49313435 -0.86985785 0.012876767 0.0019333393
-0.059929207 0.11902368 0.15952381 0.45447403 -0.89072466 0.0079301307 0.0019571073
0.057809211 0.11983213 0.15426633 -0.42802867 -0.90364909 0.014479176 0.0014174539
0.065620139 0.11646546 0.15434392 -0.50403452 -0.86352217 0.01669563 0.0021036537
0.07399305 0.11067753 0.15568912 -0.55960786 -0.82855457 0.018340101 0.0016234538
-0.053951133 0.12140717 0.15253007 0.42970577 -0.90293556 0.0077693127 0.0011842373
-0.044038016 0.12555215 0.1554593 0.31966457 -0.94739157 0.016241683 0.0015854341
-0.036438715 0.128462 0.15490852 0.29354578 -0.95578587 0.017441997 0.0019990697
0.034594584 0.12910247 0.15485664 -0.27534083 -0.96111673 0.021028787 0.0021683581
0.043638151 0.12572062 0.15567398 -0.32797027 -0.94445008 0.021202898 0.0012723265
0.053163521 0.12177043 0.15532361 -0.42356315 -0.90583014 0.0081175715 0.0013985028
-0.023798319 0.13085839 0.15525594 0.17581132 -0.98435128 0.011955875 0.0010926478
-0.014963922 0.13198705 0.1524702 0.11721319 -0.99303102 0.012264086 0.001438968
-0.0019342699 0.13371313 0.15333414 0.012632106 -0.99986446 0.010558586 0.0023280054
0.0031696912 0.13355324 0.15355888 -0.022779915 -0.99971634 0.0069464659 0.0023327766
0.016730187 0.13174954 0.15206584 -0.13857065 -0.99021178 0.016699916 0.0011784136
0.024355385 0.13076681 0.15377848 -0.16826119 -0.98570228 0.008898777 0.0010321393
-0.030630909 -0.13009855 0.16656417 0.23461027 0.97186106 0.021073801 0.00249292
-0.024487553 -0.13089257 0.1653688 0.17882515 0.98375803 0.015548618 0.0018638131
-0.014417198 -0.13221271 0.16491175 0.087293848 0.99608815 0.013717229 0.0013734809
-0.0052543595 -0.1334247 0.16537239 0.057792049 0.99819171 0.016532108 0.0015212672
0.005279535 -0.13341504 0.16485822 -0.032009076 0.99947309 0.0053763022 0.0021236115
0.013765159 -0.13228491 0.16380776 -0.09363547 0.99552321 0.012881707 0.0013211807
0.025364753 -0.13078217 0.16578135 -0.2003292 0.97966671 0.011021744 0.0019688476
0.030772679 -0.13001181 0.16105331 -0.23604156 0.9716289 0.014884543 0.0022786022
-0.054157909 -0.12151117 0.16683823 0.41507533 0.90974092 0.0091618821 0.0012982652
-0.044487506 -0.12548752 0.16462958 0.33960566 0.94040132 0.017703846 0.0011162898
-0.034706853 -0.12916175 0.16435111 0.26493534 0.96420306 0.0110288 0.0026229941
0.036038961 -0.12884858 0.16403468 -0.27900651 0.96028715 0.0019857592 0.002318538
0.045773447 -0.12496308 0.1652493 -0.34762657 0.93747181 0.017388754 0.00073641166
0.053464063 -0.12172687 0.16142789 -0.39936182 0.91674107 0.0097995428 0.0018616068
-0.072897099 -0.11167734 0.16598152 0.55164301 0.8339358 0.015524686 0.0014100128
-0.065026358 -0.11677469 0.16509761 0.49503016 0.86876899 0.013618905 0.0019503707
-0.058971476 -0.11947681 0.16378197 0.45811656 0.88881069 0.012031303 0.0020497851
0.065975435 -0.11644343 0.16476382 -0.49298546 0.86994624 0.012603887 0.0022458367
0.073246524 -0.11137322 0.16364884 -0.55589497 0.83115399 0.01280055 0.0016056624
-0.082427882 -0.10434604 0.16481121 0.62469941 0.78080368 0.0098117366 0.001907074
-0.078632042 -0.1072274 0.16278426 0.59122515 0.80647117 0.0075519453 0.0018538255
0.077550918 -0.10806227 0.16312672 -0.57457691 0.81837183 0.011354587 0.0017847937
0.085279524 -0.10215272 0.16447467 -0.64222193 0.76650178 0.0050887591 0.00097704038
-0.093561098 -0.09558589 0.16456829 0.69812518 0.71594816 0.0062721381 0.0021397755
-0.089237161 -0.099113271 0.16430414 0.67180526 0.74070901 0.0052815876 0.0019517464
0.089387193 -0.09904886 0.16758859 -0.67507392 0.73772782 0.0057364171 0.0019498201
0.09600915 -0.093159355 0.16330269 -0.71666956 0.69739842 0.0044936785 0.0020083191
-0.1030091 -0.084180675 0.16533062 0.76166087 0.64784425 0.013060057 0.0018985098
-0.099454872 -0.088887364 0.16904534 0.73751301 0.67514807 0.015802655 0.0019563979
0.099631764 -0.08853583 0.16302936 -0.74794114 0.66370308 0.0090718353 0.0017887116
0.1025326 -0.084834903 0.16698255 -0.76492465 0.6439957 0.012644829 0.001250721
-0.11171603 -0.072843298 0.16581394 0.83341074 0.55252272 0.012050343 0.0017713741
0.10825162 -0.077349208 0.16536666 -0.82096082 0.57068479 0.018496938 0.0018295156
0.11228209 -0.072074354 0.16426045 -0.83630794 0.54791152 0.019546192 0.001279117
-0.11697946 -0.064759314 0.1659079 0.86419398 0.50292999 0.015170806 0.0020492701
0.11651772 -0.065703183 0.16381066 -0.86710715 0.49789712 0.014954907 0.0019944159
-0.1217801 -0.053430047 0.16438121 0.91529769 0.40243396 0.0166483 0.0011113579
0.11954439 -0.058892541 0.1664125 -0.89136547 0.45291257 0.018379096 0.0014841519
0.12182195 -0.053280253 0.16285799 -0.91286337 0.40808353 0.012174313 0.0012156372
-0.1245515 -0.046795521 0.16613905 0.93354243 0.35834643 0.0092930896 0.0010652372
0.12604596 -0.043172419 0.1656632 -0.94465071 0.32769984 0.01574342 0.0014018508
-0.1300682 -0.030509174 0.16281039 0.97108734 0.23748465 0.024299195 0.0024061715
-0.12888835 -0.035704758 0.16476248 0.96185994 0.27312434 0.015116871 0.0020740638
0.12888695 -0.035914421 0.16447566 -0.95870036 0.28333566 0.024790982 0.0022894959
0.13012908 -0.030118041 0.1635696 -0.97433436 0.22366808 0.025399106 0.0026802504
-0.13090479 -0.024351591 0.16490896 0.98437095 0.1748129 0.021312315 0.001252757
0.13104111 -0.023362445 0.16540296 -0.98554772 0.1675463 0.024977366 0.0015192473
-0.13201289 -0.015754074 0.16298424 0.99177706 0.12678583 0.017423507 0.00080487266
0.13220337 -0.014479796 0.16482313 -0.99489343 0.10056886 0.0085464567 0.001719167
-0.13339807 -0.0054192543 0.1649752 0.99828535 0.055664279 0.018104162 0.0015593857
0.13345248 -0.0050573731 0.16552082 -0.99854672 0.049666725 0.020919995 0.0017250254
-0.13365032 0.0035588883 0.16556737 0.99938595 -0.033162497 0.011311808 0.0019928047
0.13343984 0.0050902464 0.16484943 -0.99916565 -0.039277911 0.011191157 0.0019188252
-0.13206595 0.015629336 0.16595063 0.9927693 -0.11958963 0.010363795 0.00052072975
0.13218348 0.014739549 0.16598108 -0.99433035 -0.10612462 0.0066860383 0.0019639386
-0.13086806 0.024802582 0.16674298 0.98090827 -0.19368318 0.017487196 0.0018139881
0.13076386 0.025417607 0.16486058 -0.98027247 -0.19679233 0.018403742 0.0013530044
-0.12920716 0.034759175 0.16230704 0.95863074 -0.28411427 0.017499028 0.0021769719
0.12893364 0.036033913 0.16520151 -0.95876205 -0.28347796 0.020387238 0.0019173016
-0.12524538 0.045008432 0.16264024 0.93624896 -0.35114574 0.011601174 0.0010932941
0.12571247 0.043926861 0.16408174 -0.94783485 -0.31786436 0.023903141 0.0016629616
-0.12232324 0.052025225 0.16145781 0.91850847 -0.3951422 0.014311055 0.0019310134
-0.11959624 0.058639593 0.16242024 0.89509708 -0.44576567 0.0097073996 0.0018586529
0.12214363 0.052615292 0.166347 -0.91832697 -0.39551696 0.015551132 0.0013390848
-0.1168427 0.06527245 0.16526434 0.86733073 -0.49712819 0.024512874 0.0020362341
0.11690795 0.064999774 0.16618477 -0.86775804 -0.49680129 0.013586486 0.0020697927
-0.11334074 0.070705593 0.16480364 0.85664392 -0.51564395 0.016505739 0.0019821718
-0.10883679 0.076609269 0.16649362 0.82664657 -0.56244105 0.017762747 0.0015483021
0.10646836 0.079611257 0.1622875 -0.80631083 -0.59128678 0.015582367 0.001408989
0.11252828 0.071686991 0.16095364 -0.83605582 -0.54862428 0.0046981489 0.0012652525
-0.10365182 0.083334908 0.16492553 0.77947152 -0.62637532 0.0088377865 0.001913773
0.099700794 0.088414848 0.16148767 -0.75359893 -0.65715373 0.015417172 0.0013930269
0.1034735 0.083527043 0.16292375 -0.76723427 -0.64124888 0.012303817 0.0014695197
-0.09430597 0.094741613 0.16543849 0.69126034 -0.72247046 0.013984449 0.0021725192
-0.088242799 0.099935308 0.16812864 0.65907097 -0.75189507 0.016710032 0.0014483021
0.088333048 0.099778093 0.16242912 -0.65671438 -0.75409389 0.0082871011 0.0016601675
0.094949685 0.094279394 0.16488633 -0.70767063 -0.70616853 0.022983346 0.002594284
-0.083575241 0.10348857 0.16629647 0.62436002 -0.78095365 0.01691179 0.0021928349
-0.076727696 0.10869122 0.16294907 0.56331402 -0.82617325 0.010729152 0.0013195752
0.076659761 0.10875085 0.16343604 -0.57392132 -0.81888437 0.0065487018 0.0017790606
0.085451931 0.10202192 0.16457126 -0.6466217 -0.76265591 0.015376674 0.0013355259
-0.072637819 0.11186616 0.16532525 0.55311692 -0.83298725 0.013923302 0.0013563654
-0.064301923 0.11703624 0.16413669 0.4876205 -0.87300038 0.0098255286 0.0020434402
-0.058809865 0.11961187 0.16892034 0.45069259 -0.89255893 0.014653741 0.0014682673
0.064632371 0.11697699 0.16715305 -0.49678364 -0.86776227 0.013953651 0.0019764546
0.072386719 0.11204831 0.1646432 -0.53885305 -0.84234619 0.0095013771 0.0022228933
-0.052938733 0.12199406 0.16516973 0.4142831 -0.91007578 0.011471301 0.0015408975
-0.043988351 0.12571667 0.16632038 0.3245413 -0.9457069 0.017645832 0.0014438605
-0.036677115 0.12867996 0.16429266 0.29259107 -0.95610768 0.015765505 0.0021622756
0.035402492 0.129142 0.16519916 -0.27636793 -0.96084309 0.020030545 0.0021021648
0.04594605 0.12488505 0.16475673 -0.36300048 -0.93163973 0.016675184 0.0012298403
0.053565025 0.12173104 0.16489884 -0.40500066 -0.91424537 0.011393147 0.0017788422
-0.025774518 0.13070752 0.16410433 0.19919513 -0.97988194 0.012354137 0.0016252392
-0.016057115 0.13197392 0.16306014 0.13874266 -0.99024552 0.01281767 0.0011628843
-0.0037299637 0.13364048 0.16659489 0.032257061 -0.99934447 0.01643906 0.0023120954
0.0041844682 0.13358255 0.16674747 -0.052537698 -0.99832809 0.024101682 0.0016893573
0.014219288 0.13224317 0.16526908 -0.10505328 -0.99439448 0.011979359 0.00082167785
0.02602366 0.1307047 0.16653305 -0.18707904 -0.98218971 0.017458271 0.0017354578
0.030770618 0.130016 0.16137148 -0.23418647 -0.97202379 0.018066043 0.00262464
-0.021188697 -0.13144068 0.17458403 0.15444 0.98798442 0.0059143575 0.0016825343
-0.015811272 -0.13216217 0.17567864 0.10359106 0.99458945 0.0077891983 0.00089186558
-0.004475133 -0.1336455 0.17494379 0.039744616 0.99917763 0.0080285873 0.0019981356
0.0042654201 -0.13367404 0.17501831 -0.037791491 0.99922913 0.010628941 0.0019343223
0.013309247 -0.13249764 0.17617102 -0.086249776 0.99615628 0.015285477 0.0015268698
0.025208561 -0.13089246 0.17304508 -0.17839825 0.98389101 0.011514721 0.0016451065
0.031781204 -0.13002804 0.17311627 -0.23944236 0.97089118 0.0061363704 0.0025967697
-0.053902376 -0.12172912 0.17529616 0.41352338 0.9104706 0.0064529469 0.0012018729
-0.046820637 -0.12470318 0.17836668 0.35775217 0.93379134 0.0068659168 0.0016186046
-0.037058413 -0.1286675 0.1742826 0.28849819 0.95744395 0.0083581638 0.0023062122
0.039737158 -0.12754337 0.17128326 -0.30566677 0.95210797 0.0076272567 0.0019853977
0.044938765 -0.12541072 0.17293799 -0.34577191 0.93827575 0.008972954 0.00078332581
0.054886661 -0.12130686 0.17419739 -0.41831085 0.9082588 0.0090513965 0.001476639
-0.072920091 -0.11183422 0.17728868 0.54825455 0.83624184 0.010800052 0.0018057927
-0.066804051 -0.11604892 0.17753413 0.50917524 0.86062145 0.0084518641 0.0020758964
-0.058801964 -0.11963227 0.17021233 0.44879445 0.89356476 0.011200843 0.0016341342
0.059018016 -0.1196195 0.17600049 -0.44567028 0.89512992 0.010974702 0.0019319373
0.064935349 -0.11701848 0.17570604 -0.4807317 0.8766579 0.019181818 0.001940663
0.072702095 -0.11199942 0.17715424 -0.54931426 0.83552349 0.012426156 0.001471873
-0.083679266 -0.10354692 0.17524797 0.63900661 0.76918656 0.0047495449 0.001418915
-0.077481553 -0.10826188 0.17261061 0.57928514 0.81510568 0.0056102732 0.0020060535
0.077837765 -0.10805592 0.17697474 -0.58281386 0.81256819 0.0078127878 0.0016608667
0.083819337 -0.10344774 0.17578514 -0.63215381 0.77482373 0.0054526115 0.0015737469
-0.093656607 -0.0954163 0.1727206 0.70033348 0.71378672 0.0064459052 0.0022996322
-0.088591181 -0.099740908 0.17285316 0.67038453 0.74199438 0.0053798244 0.0015939897
0.089391395 -0.099194519 0.17723466 -0.67666572 0.73626167 0.0065041869 0.0016549451
0.094452538 -0.094815858 0.17527635 -0.70227969 0.71189553 0.002851696 0.0021202844
-0.10276661 -0.084660932 0.17349526 0.76575929 0.64303493 0.010895306 0.001629869
-0.099786669 -0.088484019 0.17049016 0.73818243 0.67444307 0.014603213 0.0020381615
0.099538684 -0.088911749 0.17568702 -0.73935753 0.67326272 0.0082321642 0.0014096319
0.10167634 -0.086122267 0.17550634 -0.76320112 0.64604521 0.012230913 0.0014098253
-0.11183928 -0.072879523 0.17560002 0.83105284 0.55597955 0.015425967 0.0014521806
-0.10705215 -0.07902278 0.17085427 0.8041479 0.59438759 0.0070391162 0.0014169953
0.10788438 -0.07804396 0.17611188 -0.81058639 0.58554983 0.0090072481 0.0015440662
0.11171053 -0.073026419 0.1745609 -0.83113694 0.55602008 0.0072849221 0.0013032752
-0.11786135 -0.063066788 0.17456774 0.87637818 0.48139623 0.01479833 0.002330052
0.11733906 -0.064267933 0.17500162 -0.8719461 0.4894467 0.012324358 0.0018535538
-0.12175252 -0.053790342 0.17356022 0.91507691 0.40315947 0.0098318579 0.0015933616
-0.11962025 -0.05910838 0.17888159 0.90211874 0.43146715 0.0042109 0.0014641811
0.11936639 -0.059522163 0.17265922 -0.89882177 0.43828321 0.0052250638 0.0012122111
0.1214531 -0.054526892 0.17398663 -0.91122085 0.41181988 0.0089996075 0.0018987803
-0.12592736 -0.043824382 0.17708941 0.94430286 0.32893038 0.0098414142 0.0015051418
0.12550919 -0.044771142 0.17512763 -0.94060308 0.3394393 0.0068372837 0.00092010252
-0.13015512 -0.03134549 0.17876133 0.97069287 0.23989391 0.014363039 0.0025776906
-0.12854721 -0.037249602 0.17599224 0.95613259 0.29262534 0.013447761 0.0022294468
0.12918784 -0.035722941 0.17673104 -0.95874149 0.28421348 0.006120021 0.0022257955
0.13014619 -0.030718379 0.17135347 -0.971062 0.2384754 0.012963325 0.002492676
-0.13087156 -0.025456563 0.17399672 0.98261714 0.18470822 0.018610153 0.0019991021
0.1307648 -0.026316196 0.17451532 -0.97830504 0.20705251 0.0069710505 0.0019135951
-0.13228318 -0.014771392 0.17439215 0.99302578 0.11757924 0.0086600408 0.0016419101
0.13247512 -0.013398137 0.17529547 -0.99608684 0.08758264 0.011844548 0.0011569258
-0.13382667 -0.0031361503 0.17533901 0.99967539 0.021419851 0.01379474 0.0024431532
0.13373287 -0.0038216107 0.17505017 -0.99924082 0.034242377 0.018581081 0.0021240613
-0.13367206 0.0042178272 0.17434862 0.99947095 -0.031377651 0.0085575934 0.0022255345
0.13351232 0.0054503791 0.17455459 -0.99847221 -0.054569378 0.008681831 0.0014929948
-0.13226463 0.014882626 0.17407683 0.99464351 -0.10301398 0.0085105933 0.0009153196
0.13247754 0.013410312 0.17562 -0.99585712 -0.090205483 0.011465861 0.0014609814
-0.13104828 0.024278486 0.17574716 0.98398358 -0.17814679 0.0063225208 0.0014664069
0.13098584 0.024560392 0.17369662 -0.9847942 -0.17331207 0.011969479 0.0012706904
-0.13012306 0.031126808 0.17383444 0.96977264 -0.2436478 0.013294625 0.0025890046
-0.1291872 0.035543226 0.17574582 0.95800948 -0.28649691 0.011721458 0.0022408224
0.12858747 0.037263174 0.17432517 -0.95788127 -0.28617543 0.023813948 0.0024239782
0.13014947 0.03096652 0.17426376 -0.97138953 -0.23661302 0.020412944 0.0027807399
-0.12395008 0.048504163 0.17415912 0.93188328 -0.36266315 0.0082993796 0.0012734432
0.12553322 0.044708502 0.17498446 -0.9396438 -0.34184548 0.014532331 0.0009967318
-0.12145175 0.054542352 0.17436792 0.90815872 -0.41859779 0.0048575066 0.0011944446
-0.11971137 0.058615334 0.17034867 0.89938098 -0.43705517 0.0098295994 0.0019131165
0.11958188 0.059032705 0.17362106 -0.9024334 -0.43071896 0.0097563798 0.0014278301
0.12189387 0.053519674 0.17576545 -0.91256475 -0.40893123 0.0009189407 0.0010144038
-0.11634269 0.066167548 0.17374133 0.8665325 -0.49899378 0.011253019 0.0019263662
0.11691835 0.065229185 0.17530431 -0.86310929 -0.5049172 0.010051787 0.0018967715
-0.11239237 0.072164036 0.17586339 0.8438096 -0.53641242 0.01571749 0.0018251196
-0.10816728 0.077648178 0.17476526 0.81389743 -0.58088511 0.011981853 0.0015596175
0.11173528 0.073038444 0.1767623 -0.83222556 -0.55426586 0.013785439 0.0013329136
-0.10290208 0.084560037 0.17725646 0.76568466 -0.64317882 0.0069258958 0.0010905287
-0.099795982 0.088568605 0.17529811 0.74552178 -0.66647536 0.0027959379 0.0016782169
0.099303275 0.089199156 0.17472446 -0.74954057 -0.66191298 0.0077554346 0.0015679236
0.10232307 0.085278168 0.17544457 -0.76519823 -0.64377809 0.0046314676 0.0013647308
-0.094821021 0.094600908 0.17395484 0.70290351 -0.71118891 0.011705099 0.0022322803
-0.089223921 0.099355362 0.1793296 0.68111992 -0.73209488 0.010613129 0.0019576028
0.095815793 0.093524128 0.17497453 -0.714463 -0.69965941 0.0043918123 0.002058256
-0.085864305 0.10187759 0.17572126 0.65000534 -0.75984228 0.011521635 0.001634387
-0.078122824 0.1077667 0.17240952 0.57458961 -0.81839997 0.0082627162 0.001535392
0.075770751 0.10953712 0.17018023 -0.56182891 -0.82718968 0.010273644 0.0015849422
0.084321059 0.10303837 0.17420594 -0.6383664 -0.76966417 0.010263221 0.0017721015
-0.073579244 0.11129462 0.17509769 0.55558723 -0.83140379 0.0095148785 0.0013999093
-0.060817219 0.11888064 0.17648317 0.46116346 -0.88723731 0.011754122 0.0017887318
0.059286214 0.11946118 0.17243871 -0.4415307 -0.89718652 0.010341693 0.0019037013
0.067559317 0.11579464 0.17543484 -0.50835633 -0.86099029 0.016417142 0.0020788247
0.07125476 0.11306548 0.17426987 -0.5215258 -0.85317254 0.010361937 0.0018698872
-0.053431034 0.12191857 0.17485981 0.40958244 -0.91217113 0.013641302 0.0016915565
-0.044312496 0.12569794 0.17503707 0.34212029 -0.9395963 0.010602549 0.00095441262
-0.036567234 0.12875484 0.17514865 0.29699245 -0.95480227 0.01217167 0.002018451
0.036771245 0.12885168 0.1773034 -0.28825581 -0.95751327 0.0087689627 0.0021531598
0.045764435 0.12509838 0.17517528 -0.35644642 -0.93430811 0.0037787985 0.00091867906
0.054053258 0.1216701 0.17555895 -0.40725285 -0.91321021 0.013861431 0.0015414052
-0.030754121 0.13016345 0.17313297 0.2258749 -0.9741196 0.0084511191 0.002276113
-0.02656953 0.13077189 0.17779137 0.20731075 -0.97821075 0.01122487 0.0018193449
-0.013464825 0.13247472 0.17597422 0.085325807 -0.99634677 0.0035611393 0.0017441193
-0.0041738315 0.13368773 0.17515096 0.055724956 -0.99844527 0.0013325419 0.0019611004
0.0061108051 0.13343473 0.17531224 -0.064063974 -0.99794495 0.0013217191 0.0015644575
0.015282743 0.13224593 0.17682761 -0.11728707 -0.99308091 0.0058409716 0.0010557575
0.027360382 0.13063313 0.17498522 -0.22570154 -0.97411752 0.012396024 0.0025785251
0.03136133 0.13007498 0.17244254 -0.24800959 -0.96864891 0.014507663 0.0025961513
-0.031503532 -0.13016427 0.18118617 0.23660506 0.97160029 0.003289364 0.0022763428
-0.024729438 -0.13112275 0.18658435 0.17260718 0.98496687 -0.0068521234 0.0015228536
-0.014136021 -0.13250072 0.18523528 0.090605848 0.99588656 -0.00072775915 0.0012076349
-0.0057523283 -0.13359711 0.18463886 0.052600659 0.99861568 9.6483251e-05 0.0015319722
0.0048795063 -0.13372451 0.18565117 -0.032409046 0.99947459 0.00048621171 0.0021680836
0.014825422 -0.13240422 0.18476926 -0.10526006 0.99444467 0.00037129008 0.00099409884
0.024585778 -0.13113211 0.18580982 -0.17875519 0.98389345 0.00029783821 0.0011039085
0.030766383 -0.13031469 0.18550791 -0.22577468 0.97416604 0.0051258262 0.0024067599
-0.054044858 -0.12177631 0.18330966 0.41507533 0.9097566 0.0074429242 0.0011605915
-0.046003144 -0.12512901 0.18494707 0.35081807 0.93642527 0.0058620553 0.0014193823
-0.036571551 -0.12886046 0.18147184 0.28460318 0.95864385 0.0017157076 0.0019979093
0.035907581 -0.12929307 0.18676214 -0.28141963 0.95955676 -0.0073371432 0.0022820833
0.045184005 -0.1254572 0.18410788 -0.34494621 0.93861586 0.0035215931 0.00072336697
0.054332562 -0.12168603 0.18548849 -0.41038752 0.91189158 -0.0059853178 0.0014741921
-0.072253279 -0.11241253 0.18160629 0.53935093 0.84206277 0.0055586812 0.002005114
-0.062053736 -0.1185016 0.18652813 0.46837947 0.88352096 -0.0033791235 0.0020303205
-0.059429809 -0.11959796 0.1872443 0.44051856 0.89770103 -0.0087317405 0.0012280419
0.058831394 -0.11979108 0.1831134 -0.44254088 0.89674205 0.0033537387 0.0011661235
0.065753333 -0.11673422 0.18605308 -0.48910278 0.87220478 0.0061165127 0.0016786541
0.072382972 -0.11239101 0.18665929 -0.5583654 0.82955104 -0.0085559702 0.0013640525
-0.085356303 -0.10239033 0.18368621 0.64345628 0.76547998 -0.0020983831 0.0013007567
-0.077056959 -0.10876094 0.18383494 0.56575996 0.82454693 0.0061654327 0.0012645111
0.077615187 -0.10832875 0.18358624 -0.56985682 0.82174259 -0.0015402568 0.0013391202
0.085089192 -0.1026307 0.18597963 -0.64081371 0.76768106 -0.0048610764 0.0011914689
-0.095029831 -0.094359219 0.1842991 0.70956016 0.7046392 -0.0028259456 0.0021447774
-0.088847764 -0.099782765 0.18831976 0.666834 0.74517405 -0.0069315075 0.0017031123
0.095557317 -0.093930013 0.18709862 -0.71452755 0.69955546 -0.0085203899 0.002052001
-0.10343247 -0.084039919 0.18576132 0.77278149 0.63465917 -0.0040560458 0.0015273804
-0.099667989 -0.088969171 0.18691981 0.75143903 0.65969843 -0.01171793 0.0014621692
0.10302049 -0.084540725 0.18396638 -0.76542425 0.64352524 -0.00099982531 0.001489056
-0.11131981 -0.07373327 0.18438675 0.827564 0.56136644 0.0023472733 0.0013017168
-0.10858945 -0.077338435 0.1867169 0.813003 0.58224714 -0.0038062253 0.0013882314
0.10830579 -0.077667072 0.18467748 -0.81886452 0.57391769 0.008906466 0.0015809768
0.11197117 -0.07294815 0.18755575 -0.83975387 0.54295349 -0.0038572554 0.0017300911
-0.11678357 -0.065399356 0.18583894 0.86994475 0.49313566 0.0036607706 0.0022969828
0.11756074 -0.064350493 0.18826683 -0.86974359 0.49345613 -0.0068705217 0.0017310802
-0.12166747 -0.054329209 0.18398197 0.90954703 0.4155978 -0.00168439 0.0014635215
-0.11935522 -0.059919722 0.18424113 0.89190298 0.45222682 -0.00017303563 0.0017257287
0.1198256 -0.058927104 0.18870875 -0.90230989 0.43101245 -0.0080717355 0.0013729457
0.12092373 -0.056129377 0.18412681 -0.90719378 0.42071176 0.0010400967 0.0014112002
-0.12728818 -0.040829424 0.18616466 0.95239222 0.30487475 0.0007267305 0.0022435989
0.12497702 -0.046332374 0.18376842 -0.93500954 0.35460991 -0.002995407 0.0010377815
-0.13034804 -0.030857326 0.18917778 0.97062117 0.24025658 -0.013092347 0.0022053893
-0.12955998 -0.035070252 0.18407981 0.96263075 0.27076173 0.0055013639 0.0025713765
0.12941492 -0.035429429 0.18278733 -0.96016282 0.27942055 0.0033868863 0.0021448117
0.13022427 -0.031584527 0.18690729 -0.96728152 0.25358021 -0.0079749869 0.0026288172
-0.13100298 -0.025595255 0.18611413 0.98502505 0.17239499 0.0023564228 0.001300126
0.13116187 -0.02426279 0.18477704 -0.98461396 0.17465603 -0.0055331038 0.0014212261
-0.13233076 -0.015354636 0.18446162 0.99116325 0.13263386 -0.0018982479 0.00073764985
0.13267596 -0.012786227 0.18503487 -0.99645472 0.084125921 0.00093185599 0.0013935204
-0.13360916 -0.0057440563 0.18552645 0.99821556 0.05969172 -0.001576207 0.0017239345
0.13380522 -0.004209321 0.18504043 -0.99914968 0.041209027 -0.0013197402 0.002050498
-0.13394855 0.0030592019 0.18438669 0.99963123 -0.026877671 0.0038739583 0.0023603754
0.13383228 0.0039631864 0.18460821 -0.99894738 -0.045865107 0.000761959 0.0020091024
-0.13234112 0.01554509 0.18733001 0.99107701 -0.13290726 -0.010101231 0.00081380305
0.1323518 0.015267237 0.18523422 -0.99303031 -0.11783849 -0.002238217 0.0011904925
-0.1310755 0.024982601 0.18545583 0.98362631 -0.1802116 -0.0017172305 0.0012175124
0.13111137 0.0247883 0.18628967 -0.98563617 -0.16888213 0.00042982309 0.001328456
-0.1301271 0.032312308 0.18679875 0.96651047 -0.25662604 -0.00079038471 0.0024517989
-0.12808295 0.038828377 0.1835929 0.95667446 -0.29111448 0.0051220404 0.0020628967
0.12915124 0.036259785 0.18391983 -0.96041608 -0.27855712 0.0026218574 0.0027330255
0.13021131 0.031483304 0.18477921 -0.97107255 -0.23856519 0.01023529 0.0029143316
-0.12605467 0.043743689 0.18417414 0.94454706 -0.3283692 -0.0021253456 0.0013203167
0.12570079 0.044641372 0.18552811 -0.9377358 -0.34734496 -0.001723866 0.00098691415
-0.12148877 0.054801527 0.18526089 0.90787911 -0.41922447 -0.0025422841 0.0013946857
-0.11974838 0.058859505 0.18077061 0.90104681 -0.43372163 -0.00027546473 0.0012833057
0.11956879 0.059347942 0.18248591 -0.8982476 -0.43946704 -0.004467384 0.0016494161
0.12140803 0.054948695 0.18376961 -0.90868223 -0.41748738 -0.00093878014 0.0012636022
-0.11697029 0.065148562 0.18566781 0.87499404 -0.48406386 -0.0082150437 0.0019494563
0.11705241 0.064968601 0.18491563 -0.87276286 -0.48814079 0.0018956392 0.0018124657
-0.11336036 0.071125761 0.18696153 0.8524217 -0.5228501 -0.0022259464 0.0017750877
-0.10823356 0.077802792 0.18674512 0.81299502 -0.58227062 -0.00011622222 0.0019254916
0.10769871 0.078438111 0.18367733 -0.81801897 -0.57519072 0.00079771841 0.0013825401
0.11157975 0.073425986 0.18595116 -0.83083278 -0.5565207 -0.0012735943 0.0013236603
-0.10356087 0.083882526 0.18625647 0.76537198 -0.64358789 -0.00050495268 0.0012951249
0.099483021 0.089231551 0.18797857 -0.74099684 -0.67140985 -0.011513481 0.0014321172
0.10342705 0.084061272 0.18647309 -0.77088535 -0.63694686 -0.0058618612 0.0017773251
-0.094027653 0.095551476 0.18456222 0.69238228 -0.72152954 0.0013885323 0.0021094813
-0.089750051 0.099086285 0.18805325 0.67231697 -0.74023014 -0.0070241671 0.0019121737
0.089975409 0.098872557 0.18540891 -0.66643894 -0.74555689 -0.0020119362 0.0014229075
0.094681807 0.094940186 0.18574916 -0.70068669 -0.71342564 -0.0078780595 0.0021753304
-0.083705783 0.10368786 0.18569693 0.62337422 -0.78191996 -0.0023668834 0.0021347676
-0.077608548 0.10838339 0.18679577 0.57042444 -0.82133734 -0.0045773406 0.0011869698
0.077144258 0.10873387 0.18642098 -0.5718202 -0.82034934 -0.0069751837 0.0018153273
0.083034962 0.10419946 0.18549368 -0.62849212 -0.77779615 0.005540817 0.0014294349
-0.072540008 0.11224152 0.1847817 0.54683208 -0.83724189 0.00090038922 0.0011537893
-0.065625988 0.11678699 0.18612467 0.50748068 -0.86166316 -6.2526771e-05 0.0017318376
-0.05894139 0.11983409 0.18979542 0.44880232 -0.89362729 -0.0026030121 0.0018616846
0.059443764 0.11950652 0.18078141 -0.45006835 -0.8929922 -0.0018294859 0.0014843388
0.06545157 0.11679431 0.18301718 -0.485515 -0.87422806 0.00073575345 0.0017969673
0.072380669 0.11235835 0.18442897 -0.54773247 -0.83665353 0.00012047178 0.0015761892
-0.053046547 0.12219628 0.18379602 0.40919879 -0.91244394 0.0015472352 0.0013635535
-0.044424392 0.12578778 0.185312 0.33987904 -0.94045854 -0.0044584102 0.00093308295
-0.037201669 0.12881356 0.18788049 0.28166431 -0.95948917 -0.0067611933 0.0021351408
0.035720211 0.12932935 0.18571442 -0.28312835 -0.95908189 0.00046848931 0.0022902698
0.043399833 0.12620248 0.18458082 -0.31680024 -0.94849145 -0.0012554609 0.0020133527
0.052536488 0.12239312 0.18270697 -0.39588651 -0.91828775 0.004626194 0.0016435623
-0.031987555 0.13014206 0.18454912 0.25028607 -0.96816832 0.002638625 0.0027520321
-0.02352182 0.13125242 0.18421187 0.17189874 -0.98511416 0.00091245741 0.0012911259
-0.014406636 0.13245057 0.18405782 0.1012781 -0.99485803 0.0005399122 0.0010580794
-0.0026596424 0.13401425 0.18544745 0.018064309 -0.99983501 -0.0019155327 0.002542184
0.0045017772 0.13377127 0.18541065 -0.046119224 -0.99892217 -0.005247849 0.0022273269
0.015160878 0.13236153 0.18488841 -0.10593466 -0.9943729 0.00062460318 0.0014812447
0.024754126 0.13114429 0.18859163 -0.17956465 -0.98368394 -0.011063861 0.0017318011
0.03122995 0.13025472 0.18559511 -0.22483824 -0.9743951 -0.0014190351 0.0023228531
-0.033687964 -0.13001202 0.19240017 0.24780308 0.96862411 -0.01899736 0.0022307886
-0.024652287 -0.13112858 0.19559228 0.18018988 0.98328751 -0.026023993 0.0015809907
-0.014931548 -0.13242385 0.19470882 0.10623358 0.9940688 -0.023273367 0.00083322439
-0.0062420582 -0.13356118 0.19492967 0.062342178 0.99774486 -0.024872651 0.0013119705
0.004246884 -0.13382778 0.19543046 -0.033580661 0.99896407 -0.030710831 0.0019530484
0.012578112 -0.13275133 0.19356015 -0.079985321 0.99652988 -0.023034144 0.0011368593
0.027855478 -0.13073117 0.19463757 -0.22707863 0.97366321 -0.020375008 0.0023031349
0.031223377 -0.13018855 0.19984348 -0.24052374 0.9699837 -0.035776824 0.0025729151
-0.054198403 -0.12173948 0.19611579 0.42077628 0.90670955 -0.028725721 0.0015203389
-0.045239728 -0.12550224 0.19419932 0.34909058 0.93680459 -0.023084771 0.00091000716
-0.036645047 -0.1289929 0.19432157 0.27890652 0.95994735 -0.026689656 0.0022346573
0.036790155 -0.12890539 0.1965189 -0.28667578 0.95750242 -0.031717718 0.0020694961
0.045361061 -0.12543154 0.19453835 -0.34790626 0.93728411 -0.021439068 0.0011392696
0.055441689 -0.12127398 0.19409584 -0.41190985 0.91104472 -0.018107744 0.0016296725
-0.072348103 -0.11241555 0.19589825 0.54784435 0.83615929 -0.026539033 0.0014335697
-0.065823801 -0.11670405 0.19422454 0.5046652 0.86316592 -0.016050166 0.0018767812
0.0589552 -0.11970211 0.19977917 -0.43526444 0.8993063 -0.04234416 0.0014383671
0.064570151 -0.11740727 0.19386427 -0.48911005 0.87199354 -0.01996316 0.0021634151
0.073257782 -0.11174678 0.19423079 -0.55543071 0.8314122 -0.01582595 0.0016621574
-0.084681332 -0.1029807 0.19412024 0.63310432 0.77400243 -0.0099581992 0.0012436729
-0.079692751 -0.1066946 0.19932826 0.59151244 0.80557442 -0.034102395 0.0014270052
0.077404834 -0.10854542 0.19536968 -0.5701533 0.82131267 -0.019254677 0.0015036592
0.08408758 -0.10338679 0.19655342 -0.64517611 0.76357412 -0.026501257 0.0012197087
-0.094997346 -0.094498143 0.19628984 0.71006531 0.70352006 -0.029438687 0.0020314581
0.094982781 -0.094441913 0.19414449 -0.70878541 0.70535028 -0.010203282 0.002018441
-0.10244343 -0.085308306 0.19634373 0.7665 0.64153361 -0.030204445 0.0012499533
-0.099411853 -0.089286998 0.19569984 0.74057442 0.6715852 -0.02286238 0.0014402727
0.10323729 -0.084335014 0.19482355 -0.76773721 0.64032727 -0.023675369 0.0012174149
-0.11191684 -0.073064119 0.19328924 0.83258492 0.55364633 -0.016678112 0.0013074279
-0.10768928 -0.078562371 0.1935124 0.81617779 0.57770419 -0.010567167 0.0014092673
0.10798871 -0.07816796 0.19433162 -0.81734735 0.57584947 -0.018456623 0.0013128386
0.11166048 -0.073328994 0.19559158 -0.83320189 0.55238873 -0.025324512 0.0016303813
-0.1171323 -0.065269545 0.19235329 0.87392777 0.48572528 -0.017922908 0.0020731818
0.11741865 -0.06436982 0.19501317 -0.87803048 0.47826999 -0.01789896 0.0019605027
-0.12161314 -0.054616906 0.19334693 0.91027606 0.41369072 -0.016050456 0.0013078743
0.12217634 -0.053278342 0.19298594 -0.91193193 0.41005298 -0.015386204 0.0016340421
-0.12670615 -0.042220525 0.19638924 0.9483847 0.31604981 -0.026056757 0.0018359502
0.12532949 -0.045601573 0.19457109 -0.93912774 0.34287301 -0.02184603 0.00093339337
-0.13037997 -0.030600796 0.19400032 0.97435784 0.22395125 -0.021740818 0.0022808379
-0.12827225 -0.03847234 0.19549048 0.95113701 0.30788797 -0.023311159 0.0019273473
0.12851545 -0.037789535 0.19761109 -0.95641708 0.289996 -0.034186203 0.0020761869
0.13030568 -0.031227682 0.19256017 -0.97197944 0.23403572 -0.0219846 0.002221074
-0.13109411 -0.024953743 0.19523185 0.98555952 0.16718844 -0.026840622 0.0011588249
0.13101344 -0.025396734 0.19620921 -0.97928703 0.20076057 -0.026307788 0.0017481456
-0.1323171 -0.015880454 0.19274609 0.99091387 0.13394639 -0.01216695 0.00065698766
0.13237359 -0.015296386 0.19532834 -0.99384451 0.10796483 -0.024832377 0.00085794495
-0.13390037 -0.0039016276 0.19406474 0.99880385 0.040954098 -0.026714532 0.0019057746
0.13414234 -0.0019095013 0.19340098 -0.99953735 0.010445772 -0.028563028 0.0023829807
-0.13390763 0.0036096796 0.19558424 0.99911618 -0.030866671 -0.028532624 0.002183777
0.13363871 0.0055175191 0.1965258 -0.99800318 -0.057042006 -0.027126949 0.0015044988
-0.13237663 0.015274504 0.1950902 0.99241644 -0.12040327 -0.024754824 0.00062536151
0.13264178 0.012836334 0.19820677 -0.99572688 -0.083628789 -0.039168008 0.0014665709
-0.1310987 0.024957465 0.19509561 0.98395377 -0.17571621 -0.030965084 0.0013630203
0.13082129 0.027209189 0.19334905 -0.98051172 -0.19542937 -0.020101722 0.0020073378
