# .PCD v0.7 - Point Cloud Data file format
VERSION 0.7
FIELDS x y z normal_x normal_y normal_z curvature
SIZE 4 4 4 4 4 4 4
TYPE F F F F F F F
COUNT 1 1 1 1 1 1 1
WIDTH 569
HEIGHT 1
VIEWPOINT 0 0 0 1 0 0 0
POINTS 569
DATA ascii
-0.081171647 -0.070364445 0.28476149 0.6673761 0.56603277 -0.48395881 0.096126698
-0.076159686 -0.076263919 0.28429943 0.63597786 0.62672174 -0.45027989 0.091006696
0.080305941 -0.071492754 0.28520182 -0.649584 0.55628598 -0.51825345 0.094012819
-0.082242101 -0.068969429 0.28707668 0.72248524 0.60461062 -0.33535218 0.079120114
-0.094504058 -0.052060165 0.28496122 0.68323094 0.40252939 -0.60923362 0.094559513
0.092362814 -0.055779811 0.28466803 -0.7750845 0.41226718 -0.47883168 0.082492582
-0.098423578 -0.042597651 0.28370154 0.79788703 0.22271755 -0.56015462 0.095634431
0.097525418 -0.044765983 0.28448763 -0.83999217 0.2762638 -0.46700248 0.074117765
-0.10052647 -0.037520818 0.28609461 0.8340115 0.2225257 -0.50488323 0.099484988
-0.09973304 -0.039436337 0.28871423 0.87968254 0.34401244 -0.32835048 0.072213583
0.099780895 -0.039320789 0.28311908 -0.83293831 0.28881431 -0.47201714 0.071829192
0.10194501 -0.034096193 0.28228465 -0.84421515 0.2710889 -0.46239761 0.0714738
-0.10500862 -0.023923721 0.28450584 0.89745504 0.155642 -0.41273472 0.089528106
0.10498161 -0.024088301 0.28334156 -0.89807993 0.20572767 -0.38875264 0.079329439
-0.10606422 -0.015905619 0.28584769 0.91777325 0.16896857 -0.35936314 0.078637339
0.1064119 -0.013264682 0.28134525 -0.90735942 0.049710244 -0.41740602 0.069224916
-0.10747761 -0.0051697884 0.28462291 0.90579247 0.027215529 -0.4228467 0.074432835
0.10760021 -0.0042384802 0.28978997 -0.96953428 -0.046396818 -0.24052158 0.052194715
-0.10768773 0.0035737357 0.28489155 0.86709619 -0.054370377 -0.49516466 0.08482179
0.10748878 0.0050848937 0.28247389 -0.81811261 0.014129739 -0.57488436 0.089398943
-0.10594628 0.016801381 0.28446999 0.86759359 -0.20845088 -0.45147499 0.08554212
0.10617797 0.015041532 0.2845743 -0.78445309 -0.072686933 -0.61591399 0.091569602
-0.10522431 0.022285383 0.28615075 0.85330802 -0.17461389 -0.49129972 0.084194884
0.10531612 0.021588055 0.28115633 -0.83170527 -0.15534252 -0.53304321 0.085219003
-0.10147174 0.03523875 0.28774899 0.88515812 -0.3306545 -0.32735714 0.065630645
0.099630468 0.03968396 0.28736067 -0.86761183 -0.3522656 -0.35093981 0.082139581
0.10183153 0.034370139 0.282368 -0.80518162 -0.31125328 -0.50478101 0.085035414
-0.096028291 0.048380367 0.28247994 0.83845323 -0.34952539 -0.41812459 0.071303636
0.097322859 0.045254994 0.28713942 -0.84204018 -0.44312829 -0.30758014 0.076073885
-0.093046159 0.054791652 0.28730512 0.77348047 -0.46281973 -0.43304253 0.091790177
0.089379437 0.059667725 0.28746918 -0.78517133 -0.4869099 -0.38265482 0.084104821
0.093163095 0.05473683 0.28380477 -0.73098701 -0.49497879 -0.46973819 0.09223114
-0.083703823 0.06706433 0.28725386 0.73335326 -0.60303015 -0.313923 0.071865223
0.0842041 0.066412412 0.28382739 -0.61980218 -0.47794974 -0.62242228 0.091502421
-0.075024307 0.077448897 0.28600916 0.64963382 -0.63704187 -0.41491407 0.08023072
0.076337107 0.07658875 0.28837061 -0.65795547 -0.61032909 -0.44112712 0.077795543
0.081117511 0.070434995 0.28427336 -0.58216435 -0.53601867 -0.61136633 0.09655536
-0.070976481 0.080701955 0.288055 0.65516502 -0.66697407 -0.35482994 0.063741259
-0.067964107 0.083013408 0.28750265 0.51412469 -0.75625676 -0.40466222 0.054896191
0.066949703 0.0837918 0.28591001 -0.55458224 -0.70939893 -0.43496177 0.076561496
0.070730351 0.080890879 0.28965706 -0.65019614 -0.70266253 -0.28898147 0.060221471
-0.052093931 0.094363466 0.28585118 0.43898949 -0.73655701 -0.51456004 0.063045599
-0.044558965 0.097611129 0.28449005 0.36810845 -0.7352277 -0.56915402 0.073485292
0.043000661 0.098256588 0.28328252 -0.39554694 -0.82163179 -0.41044348 0.084202826
0.05114679 0.094882384 0.28129762 -0.39000696 -0.7465353 -0.53905433 0.081644751
-0.031714618 0.10293138 0.28503415 0.26721931 -0.84476823 -0.46363831 0.071601249
-0.026926987 0.10451423 0.28643584 0.25527772 -0.88522536 -0.38885641 0.069729924
-0.016309176 0.10601103 0.28504795 0.21753675 -0.84665775 -0.4856424 0.084488563
-0.0064595062 0.10730778 0.28582942 0.082185522 -0.91247326 -0.40079695 0.06368462
0.026120322 0.10454858 0.28435758 -0.27883089 -0.87470257 -0.39641994 0.075012885
0.031696156 0.10293903 0.28701258 -0.2345406 -0.90978259 -0.34247106 0.065246515
-0.03502357 -0.10156096 0.29507315 0.29631689 0.93447274 -0.19737494 0.038951527
-0.023943545 -0.10500612 0.29706329 0.24231227 0.95328307 -0.18037787 0.045515332
-0.015311658 -0.10614248 0.2927357 0.16329685 0.95708758 -0.23941067 0.066833697
-0.0065527204 -0.10729557 0.29478663 0.063542522 0.97958386 -0.19072971 0.054479279
0.0021979937 -0.10786885 0.293284 0.019610081 0.98202729 -0.18771756 0.039681051
0.016694939 -0.10596037 0.29569435 -0.12229916 0.98213309 -0.14302963 0.034195382
0.032850638 -0.10246103 0.29667407 -0.28474858 0.94860244 -0.13810065 0.031417452
-0.055715192 -0.092211701 0.29620141 0.49295789 0.85104197 -0.18088688 0.035728484
-0.043136228 -0.098200545 0.29404363 0.38737637 0.89552867 -0.21901573 0.045058124
0.040696394 -0.099211156 0.2966193 -0.40646422 0.89418483 -0.18767092 0.041170999
0.055895776 -0.092090219 0.29556352 -0.46254051 0.86215067 -0.20676713 0.041689824
-0.067851737 -0.083099775 0.29253522 0.61012459 0.72727913 -0.31434539 0.068858147
-0.059395272 -0.089588642 0.29041815 0.49616051 0.80917448 -0.31474027 0.071207315
0.067882515 -0.083076194 0.29906887 -0.61574566 0.7738229 -0.14851031 0.029242454
0.070769951 -0.080860585 0.29418993 -0.61425811 0.74116391 -0.27085596 0.060358323
-0.075774297 -0.076814264 0.2946682 0.64893275 0.72356486 -0.23524483 0.048569009
0.076117016 -0.076177523 0.29669291 -0.69093859 0.69395858 -0.20254737 0.042927135
0.080999672 -0.070588663 0.29925978 -0.72784132 0.67298692 -0.13166416 0.028160201
-0.085404187 -0.064848527 0.29354227 0.81492233 0.54388934 -0.20021503 0.045948144
0.084674008 -0.065800168 0.29609981 -0.79417443 0.562702 -0.22946347 0.041124627
-0.093133122 -0.054248095 0.29457742 0.84693378 0.50345564 -0.17098442 0.044740975
0.094250798 -0.052671611 0.29257718 -0.81842113 0.44874161 -0.35891199 0.069694147
-0.097541653 -0.044726789 0.29349765 0.87206733 0.44678763 -0.19969815 0.049787585
0.098584794 -0.042208441 0.29256788 -0.91845113 0.31601366 -0.23787136 0.049463745
-0.099865556 -0.039116412 0.29331142 0.90783525 0.35960329 -0.21568674 0.041479073
0.10219807 -0.033485226 0.29713008 -0.92464149 0.35002345 -0.15007208 0.033758163
-0.1051139 -0.023124063 0.29394767 0.95473689 0.19818549 -0.22181077 0.056676671
0.10471714 -0.026137862 0.29536378 -0.93630546 0.26082414 -0.23516552 0.043089267
-0.1063455 -0.013769067 0.29515779 0.97791946 0.148251 -0.14729322 0.032525901
0.10619278 -0.01492913 0.29633677 -0.96838307 0.16845219 -0.18400578 0.041918915
-0.10724276 -0.0069536464 0.29060671 0.9406442 0.05675948 -0.33461469 0.075313911
0.10768716 -0.0035780533 0.29706854 -0.9927097 0.023876391 -0.11814158 0.029983105
-0.10753846 0.0047074994 0.29539144 0.96976745 -0.016326344 -0.24348423 0.04463467
0.10728129 0.0066609532 0.2959179 -0.98864806 0.0065791341 -0.15010568 0.034636635
-0.10633203 0.013871375 0.29600731 0.97012693 -0.13790017 -0.19959283 0.044735964
0.10591492 0.017039692 0.29537401 -0.9662981 -0.1464076 -0.21173744 0.05173539
-0.10458582 0.027135298 0.29742426 0.9587062 -0.26192203 -0.11081222 0.020667428
0.10438143 0.02821414 0.29648876 -0.95680988 -0.25025332 -0.14794625 0.032050535
-0.10238161 0.033042125 0.29438958 0.9440515 -0.27948099 -0.17509165 0.036232658
0.099848598 0.039157331 0.29248658 -0.90263385 -0.40012932 -0.15858318 0.032051671
-0.096950069 0.046154995 0.29657543 0.8731752 -0.46584913 -0.14335117 0.034956623
0.098182388 0.043179918 0.2957091 -0.88586199 -0.44558823 -0.12922731 0.028483145
-0.092817768 0.055066954 0.29499578 0.82812709 -0.52304888 -0.20155761 0.034515347
0.09368071 0.053923871 0.29438728 -0.83964097 -0.48866081 -0.23709445 0.057494186
-0.085792571 0.064342208 0.29287097 0.74524152 -0.60017055 -0.29053473 0.06614767
0.085671559 0.064499952 0.29419959 -0.79704529 -0.56184238 -0.22147676 0.048325952
-0.078333549 0.07406307 0.29492015 0.71498591 -0.66057366 -0.2289926 0.04346681
0.074666992 0.077517286 0.29112586 -0.67730373 -0.68916309 -0.25751457 0.054578569
-0.065935478 0.084570013 0.29449555 0.64997864 -0.73664373 -0.18677239 0.039358821
0.065336019 0.085030012 0.29321089 -0.59888488 -0.76995021 -0.22025828 0.046522297
-0.055047683 0.09261737 0.2916376 0.52706462 -0.77258229 -0.35400507 0.065249838
-0.043356039 0.098109394 0.29458433 0.38378653 -0.89483237 -0.22799771 0.04344482
-0.039104082 0.0998706 0.29627892 0.35795817 -0.90969771 -0.21051377 0.031999145
0.039104518 0.099870414 0.29666948 -0.35034972 -0.91949171 -0.17829756 0.038408957
0.044970144 0.097440816 0.29745224 -0.43316463 -0.89177614 -0.13078167 0.03229839
0.054213099 0.0929882 0.2951977 -0.51502174 -0.83233213 -0.20488001 0.039401621
-0.034035336 0.10197012 0.29308304 0.31523442 -0.92605788 -0.20747055 0.038318057
-0.023588223 0.10501542 0.29645768 0.21464275 -0.96904838 -0.12195829 0.02103438
-0.015669705 0.10609521 0.29675758 0.13264659 -0.97943932 -0.15199867 0.03075376
-0.0042272937 0.10760166 0.29502508 0.058279697 -0.97254533 -0.22529757 0.044234853
0.0041040522 0.10761789 0.29551366 -0.054527875 -0.97502738 -0.21528643 0.043032348
0.013988757 0.10631651 0.29273602 -0.13283893 -0.95211798 -0.27536389 0.049445324
0.024617195 0.10491723 0.2982623 -0.22970365 -0.96194178 -0.148001 0.025752746
0.031515419 0.10301389 0.29658872 -0.28945714 -0.93942654 -0.18355446 0.039571311
-0.034758423 -0.10167079 0.30507353 0.33319002 0.94279766 -0.010814555 0.0021990906
-0.025003418 -0.10486659 0.30436048 0.22574516 0.97417414 -0.0048981495 0.0019196426
-0.015217989 -0.10615481 0.30429095 0.13446611 0.99089283 -0.0070939413 0.0035937759
-0.0013932069 -0.1079748 0.30124661 0.0087369708 0.99863446 -0.051504996 0.007700067
0.00086118374 -0.10804485 0.30167961 0.0020287728 0.9989658 -0.045421142 0.0075420509
0.014714845 -0.10622106 0.30585551 -0.13363224 0.99102205 -0.0042064427 0.0024392214
0.022637954 -0.105178 0.30621755 -0.20759194 0.97801208 -0.019949529 0.0032637995
0.03260557 -0.10256254 0.30661184 -0.31169116 0.95017511 0.0039863344 0.0021278406
-0.054132733 -0.093346052 0.30648601 0.52417701 0.85154611 -0.010375114 0.0025129369
-0.042651772 -0.098401204 0.30322334 0.38762015 0.92088306 -0.041532431 0.0051073404
0.044482511 -0.097642876 0.30473396 -0.44180208 0.89637274 -0.036426686 0.0058071138
0.052794997 -0.094180793 0.30319574 -0.50515783 0.86227459 -0.036028862 0.005625328
-0.071134925 -0.080580465 0.30554357 0.66216618 0.74935699 0.00039171564 0.0022052166
-0.065082036 -0.085225053 0.30682704 0.5904941 0.80703795 0.0025345276 0.0024662938
-0.059737135 -0.089326322 0.30067861 0.54339653 0.82675976 -0.14556268 0.02112695
0.065735362 -0.084723763 0.30597007 -0.63174212 0.7751056 -0.010634221 0.0029242367
0.070125081 -0.081355415 0.30743477 -0.65916204 0.75199294 -0.0034684367 0.0019623993
-0.075559184 -0.076767839 0.3077738 0.69012094 0.72367418 -0.0053546657 0.0024784603
0.077122465 -0.0755262 0.30510163 -0.69911569 0.71500611 -0.0018248255 0.002158707
-0.087414645 -0.062228471 0.30216584 0.82737243 0.56122172 -0.02202164 0.0038921761
0.085209787 -0.065101936 0.3072767 -0.78566277 0.61865151 -0.0020560513 0.0028869668
0.094870672 -0.051175073 0.30387843 -0.88825238 0.45340133 -0.073722377 0.010788782
-0.097201757 -0.045547377 0.30365831 0.90856528 0.41212535 -0.068277724 0.0077238637
-0.10275362 -0.032144014 0.30777472 0.96049863 0.27828431 -0.00048367312 0.001735076
0.10158414 -0.034967393 0.30225617 -0.94426084 0.32178533 -0.069467328 0.017614853
-0.10507351 -0.02343085 0.30693829 0.97432601 0.22511616 0.0033895795 0.0026227459
0.1046425 -0.026704703 0.30569419 -0.9685418 0.24885012 -0.000560796 0.0021545175
-0.1060874 -0.015729504 0.30623505 0.99216026 0.124954 -0.0020926055 0.002330621
0.10629879 -0.01412391 0.30322495 -0.99013186 0.1241387 -0.065027751 0.01170815
-0.10735263 -0.0061190985 0.30413428 0.99815744 0.058910962 -0.014529879 0.0018937088
0.1071604 -0.0075792484 0.30157882 -0.99500072 0.071488634 -0.06973473 0.013201416
-0.10753301 0.0047489866 0.30645883 0.99916542 -0.039566819 -0.010146062 0.0027349154
0.10744447 0.005421462 0.304414 -0.99859023 -0.045625687 -0.02712583 0.0053668949
-0.10641946 0.013207301 0.30493462 0.99462521 -0.10119616 -0.021911571 0.0040517286
0.10621961 0.014725291 0.30446202 -0.98955131 -0.14409424 -0.0050075711 0.0028891594
-0.10386736 0.029455232 0.3006483 0.94940001 -0.29641071 -0.10382807 0.018518569
0.10449301 0.026243359 0.30410963 -0.9671877 -0.25207666 -0.031706944 0.0027585702
-0.10240599 0.032983296 0.30515426 0.95078564 -0.30972445 -0.0088023683 0.0024280774
-0.099608324 0.039737433 0.30912268 0.93718261 -0.34863085 0.01205756 0.0024622893
0.09980654 0.039258886 0.30760866 -0.93516237 -0.35394254 -0.014003396 0.0030605653
0.10059687 0.037350856 0.3055262 -0.94046694 -0.33900926 -0.024386052 0.0024597591
-0.09658058 0.047047019 0.30828568 0.89221388 -0.4516075 0.0022275404 0.0027295193
0.096799761 0.04651789 0.30655518 -0.89576334 -0.44437021 -0.011964279 0.0019399627
-0.09207657 0.056148134 0.30408731 0.86310196 -0.5023455 -0.052000117 0.0058462759
0.089189835 0.059914816 0.30407345 -0.84656787 -0.53171939 -0.02444011 0.0061756414
0.092087135 0.05613903 0.30707574 -0.85821176 -0.51329505 0.00086333731 0.0024786498
-0.086972505 0.062804498 0.30301347 0.80775094 -0.58765757 -0.046872463 0.0061060474
0.085967116 0.064114749 0.30609113 -0.80538857 -0.59267724 -0.0091056339 0.0031548135
-0.081285276 0.070216268 0.30327377 0.76848245 -0.63956362 -0.01982688 0.0041772649
-0.077870183 0.074300773 0.30597195 0.73118347 -0.68218011 -0.00099031127 0.0020764358
0.077646241 0.07463064 0.30374718 -0.73230821 -0.67793584 -0.064247862 0.0061254399
-0.063835315 0.086181499 0.30461779 0.57810736 -0.81573385 -0.019240854 0.0039304681
0.058976758 0.089909628 0.30124593 -0.53226155 -0.84025151 -0.1033204 0.016036419
0.065592073 0.084833518 0.30059534 -0.61653894 -0.78240532 -0.08787401 0.013581092
-0.050631709 0.095095731 0.30070674 0.44921154 -0.89120883 -0.062895775 0.01355869
0.039709374 0.09961988 0.30485907 -0.36125067 -0.93160039 -0.040233511 0.005346667
0.044633329 0.097580336 0.30305043 -0.42614031 -0.90196985 -0.069676653 0.010266101
0.053439736 0.093666956 0.30349314 -0.49317765 -0.86873752 -0.045507181 0.009552367
-0.031035172 0.10321281 0.30541971 0.27216741 -0.96208841 -0.017630085 0.004345946
-0.028413724 0.10417366 0.30572906 0.23527052 -0.97182691 -0.014146214 0.0032696731
-0.012164936 0.10655664 0.30524826 0.11674193 -0.99309874 -0.011231717 0.0039583812
-0.0015296519 0.10795683 0.30165145 0.01715526 -0.99971557 -0.016569296 0.0026473959
0.0055391835 0.10742895 0.30788648 -0.076675572 -0.99702942 0.0072879773 0.0023116868
0.014448047 0.10625605 0.30451337 -0.14423087 -0.98728102 -0.066885963 0.0063342298
0.029422252 0.1038809 0.30480653 -0.27489781 -0.96117985 -0.023757042 0.0038526391
0.034087304 0.1019486 0.3024601 -0.31533021 -0.94806117 -0.041795015 0.0052038953
-0.024180112 -0.10497497 0.31578603 0.22414783 0.97449589 0.010748968 0.0016017995
-0.016133739 -0.10603426 0.31244633 0.16964786 0.98545766 -0.0096274046 0.0030251897
-0.0055797049 -0.10742367 0.31539381 0.029934797 0.99955142 0.00091939565 0.0021399322
0.01279908 -0.10647324 0.31497714 -0.10533847 0.99431926 0.015266239 0.0025733167
0.024567366 -0.10492399 0.31051642 -0.227493 0.97376376 0.0055649593 0.0022576316
0.035447568 -0.10138533 0.31693539 -0.33248934 0.94309825 0.0040792348 0.002524086
-0.055257272 -0.092594407 0.31438875 0.52133858 0.85334909 -0.0011601667 0.0020489078
-0.045513675 -0.097215757 0.31651732 0.41603935 0.90934223 -0.002801693 0.002433738
0.049507305 -0.095561512 0.31249672 -0.45886427 0.88850629 -0.00043291668 0.0029408166
0.053146016 -0.09374819 0.31443569 -0.48761889 0.87305427 -0.0020444004 0.002125042
-0.071022332 -0.08066687 0.31185603 0.68102539 0.73225391 0.0029252095 0.0021529081
-0.064389385 -0.085756555 0.3144415 0.58992815 0.80745345 -0.0019081716 0.0024261314
0.063604318 -0.08635895 0.31356245 -0.5977698 0.8016662 -0.0015507569 0.0016084543
0.071297862 -0.080455504 0.31822529 -0.66045201 0.75083315 0.0072654169 0.0017520939
-0.075733028 -0.076631717 0.31266075 0.69375563 0.72018874 -0.0055955565 0.0023555553
0.079543345 -0.072486594 0.31068307 -0.73660517 0.67630136 -0.0054132002 0.0026963179
-0.084497087 -0.066030696 0.31201577 0.78189099 0.62341404 0.0012150988 0.0028290548
0.085466199 -0.064767756 0.31446651 -0.79194516 0.61046427 0.012498321 0.0027230335
-0.094931714 -0.051027723 0.31669152 0.87904435 0.47671166 0.0051910016 0.0012196407
-0.089875847 -0.059020929 0.31910503 0.82698756 0.56217164 0.0073887897 0.0029900165
0.093527563 -0.053886753 0.31324747 -0.85829502 0.51315588 0.00087440043 0.0022735035
-0.096113183 -0.048175432 0.31069642 0.90099007 0.43382612 -0.0034198584 0.0020059494
0.098182663 -0.043179244 0.31467369 -0.90905046 0.41668594 -0.00022783078 0.0024295745
-0.1016211 -0.034878142 0.31689191 0.94813561 0.31781995 -0.0054186471 0.0027518524
0.10127246 -0.035719849 0.31714183 -0.94797015 0.31833133 0.0041986261 0.0016272741
-0.10526324 -0.021989701 0.31267712 0.9780668 0.20826194 -0.0035026185 0.0028878208
0.10486159 -0.025040612 0.31261265 -0.97464859 0.22374122 -0.00027283738 0.0029102408
-0.10609503 -0.015671561 0.3120681 0.99427038 0.10687816 -0.0018702541 0.0016523413
0.10555129 -0.019801775 0.31877887 -0.98488218 0.17322032 -0.0013826162 0.0024429953
-0.10695247 -0.0091586523 0.3184498 0.9968003 0.079726905 0.005727964 0.0022790101
0.10740509 -0.0057206675 0.31631857 -0.99888009 0.04711961 -0.0042835507 0.001584475
-0.10784991 0.0023418081 0.31616381 0.99999994 -0.0001004825 -0.00019093293 0.0020486806
0.10759976 0.0042419825 0.31545696 -0.99973845 -0.022637665 -0.0032346938 0.0022244498
-0.10611013 0.015556819 0.31161866 0.98834348 -0.15179512 -0.011633123 0.0022503061
0.10638604 0.013461025 0.31778172 -0.98871815 -0.14948989 0.0094437702 0.0021171598
-0.10504096 0.023678115 0.31790537 0.97044581 -0.2411699 0.0084776254 0.0019774241
0.10473391 0.026010439 0.31538603 -0.96832138 -0.24966627 0.0045195608 0.002155323
-0.10213134 0.033646315 0.31593361 0.94801402 -0.31820375 0.003997562 0.0019226134
-0.099601746 0.039753281 0.31935972 0.92908233 -0.3697162 -0.010767835 0.0027301419
0.10131688 0.035612598 0.31491566 -0.94290018 -0.33305565 -0.0036168734 0.001887877
-0.096873619 0.046339568 0.31680322 0.9091447 -0.4164798 -0.00070508994 0.0013541491
0.09735319 0.045181789 0.3124539 -0.89906937 -0.43780166 -0.0019785485 0.0023523427
-0.092760213 0.055088256 0.31612879 0.85360509 -0.5208841 -0.0061724223 0.0025848313
0.094135955 0.052864321 0.31521362 -0.8673498 -0.49769804 -0.0010248591 0.0030263618
0.085072815 0.065280266 0.31599534 -0.78313458 -0.62184471 -0.0030808472 0.0029177582
-0.080595076 0.071115762 0.31060922 0.74937242 -0.66214848 0.00054842693 0.0027981622
-0.075190701 0.077378519 0.3136594 0.70888305 -0.70532578 -0.00058882043 0.0022246854
0.07676293 0.075497769 0.31567138 -0.71631986 -0.69776523 0.0030723952 0.0026247732
-0.059283435 0.089674294 0.31773764 0.54860914 -0.83602422 0.0095621534 0.002929382
0.059654754 0.089389369 0.31490389 -0.53227311 -0.84653187 -0.0083146133 0.0025423581
0.064169221 0.085925303 0.31521225 -0.58827537 -0.80854893 -0.013441058 0.0036248271
-0.056388356 0.091895804 0.31827873 0.51973772 -0.85431689 -0.0039295563 0.002032167
-0.039920133 0.099532574 0.31195891 0.35680601 -0.93417454 -0.0027189113 0.0030023381
0.041711129 0.09879072 0.31180805 -0.38556513 -0.92267579 0.0029807652 0.0036938631
0.054844078 0.092780791 0.31306586 -0.49722794 -0.8676188 0.0013952267 0.0027379491
-0.033908058 0.10202284 0.31555635 0.31047967 -0.95054173 -0.0085259536 0.0030990648
-0.023987727 0.1050001 0.31547537 0.20758656 -0.97821629 -0.00083580462 0.0022264672
-0.011480218 0.10664678 0.31668478 0.10748399 -0.9941898 0.0058212676 0.0031844398
-0.0091223773 0.1069572 0.31103992 0.072859071 -0.99734139 -0.0013143071 0.0021655664
0.0050891768 0.10748819 0.31538486 -0.033494201 -0.99943274 0.003500348 0.0023725152
0.01296737 0.10645099 0.31384847 -0.13595033 -0.99070972 -0.0034330059 0.0034655111
0.024004504 0.10499789 0.31297073 -0.22368348 -0.97466159 -0.0006834066 0.0018122996
0.034930229 0.10159945 0.31083971 -0.33899373 -0.94078606 -0.0022025465 0.0025309313
-0.034870975 -0.10162416 0.32694802 0.3448731 0.93858808 0.01072384 0.0013888362
-0.017621392 -0.1058384 0.3215183 0.18170273 0.98329383 -0.010833975 0.0022079153
-0.0052349777 -0.10746905 0.32321981 0.040467747 0.99918044 -0.00084394746 0.0019202218
0.0060133296 -0.10736658 0.32551229 -0.067557521 0.99769676 0.0060997908 0.0023988558
0.013735225 -0.10635001 0.32117707 -0.14444454 0.9895125 0.00093734986 0.0012561803
0.028565297 -0.10421012 0.32585517 -0.25914937 0.96578676 0.0098802978 0.0023122577
0.034056783 -0.10196141 0.32585213 -0.31036776 0.95055509 0.010808936 0.0034536589
-0.055139028 -0.092771426 0.32418507 0.51942742 0.85447937 -0.0077541135 0.0022588207
-0.042165387 -0.098602682 0.32365972 0.38063395 0.92471617 -0.0042245975 0.0026623895
-0.039403047 -0.099746905 0.32643756 0.36948785 0.92922819 0.0037129663 0.0022115102
0.044659302 -0.097569659 0.32255071 -0.42381188 0.90574169 0.0039458084 0.0017145098
0.056908809 -0.091496527 0.32213932 -0.52768475 0.84928584 -0.016201522 0.0026290554
-0.071819916 -0.080054857 0.32381517 0.69164717 0.72222131 -0.0045408839 0.0026453438
0.059621174 -0.089415304 0.32186541 -0.55134135 0.83427948 -0.00068706513 0.002867955
0.065455176 -0.084938757 0.32433796 -0.62354267 0.78175294 -0.0075377421 0.0025969446
-0.076879606 -0.075947568 0.32821709 0.71878409 0.6952334 -0.00010306324 0.0021457763
0.077996463 -0.074502535 0.32697392 -0.70647681 0.70764446 0.01139942 0.0025819843
-0.086725555 -0.063126519 0.32524571 0.80508363 0.59292257 0.016828198 0.0020943352
0.085812017 -0.06431707 0.32522619 -0.79213202 0.61033732 -0.0039045329 0.0025006423
-0.089739017 -0.059199266 0.32140273 0.83322465 0.55292749 0.0028051757 0.0026932533
0.093234174 -0.054000348 0.32592443 -0.86290479 0.5052126 -0.012476463 0.0028851635
-0.097781293 -0.044148277 0.32332411 0.90671331 0.42174739 -0.00029319155 0.0020702535
0.097506501 -0.044811677 0.32542866 -0.90378666 0.42777789 0.01326037 0.0023771366
0.1019844 -0.034001075 0.32505494 -0.95403177 0.29969543 0.002441369 0.0022400385
-0.10515328 -0.022824945 0.32642812 0.98022932 0.1978458 -0.0027334953 0.0022559974
0.10450733 -0.027161328 0.32550883 -0.96573925 0.25946763 -0.004920383 0.0026317949
-0.10624552 -0.014528588 0.32738322 0.99225748 0.12402014 -0.0066402983 0.0025287536
0.10609744 -0.015653294 0.32672292 -0.99022019 0.13946901 -0.0035202058 0.0014772674
-0.10731162 -0.006430591 0.32228225 0.99779117 0.066415198 0.0013419323 0.0025840998
0.10747201 -0.0052123461 0.32662016 -0.99878877 0.049199224 0.00063508085 0.0026929844
-0.10758519 0.0043525775 0.32619029 0.99979162 -0.020152602 -0.0032555978 0.0023912492
0.10725814 0.0068368237 0.3250249 -0.99932241 -0.036798052 0.00083900546 0.0016446394
-0.10627113 0.014333959 0.32419094 0.99117321 -0.13256389 -0.001547453 0.002712158
0.1059927 0.016448807 0.3251316 -0.98504514 -0.17220333 0.0056637391 0.0022310177
-0.1047965 0.025535017 0.32611415 0.96907008 -0.24678093 0.0015790731 0.0026984815
0.10500205 0.023152977 0.32553488 -0.97683883 -0.21385509 -0.0072015356 0.0025927208
-0.10097457 0.03643902 0.32411134 0.93599498 -0.35194966 -0.006697129 0.002144133
0.10108131 0.036181301 0.32162273 -0.9457888 -0.32477486 -0.0022345672 0.0016426079
-0.097940557 0.043763753 0.32640192 0.91891992 -0.39419782 -0.013937142 0.0018086336
0.097680509 0.044391543 0.3230432 -0.90926182 -0.41618955 0.0054112668 0.0027711662
-0.094182953 0.052562788 0.32446057 0.87593627 -0.48236668 -0.0076212999 0.0026327949
0.092114009 0.056104004 0.32498914 -0.84853125 -0.52880049 0.019101052 0.0025598663
-0.086976111 0.062799789 0.32381523 0.83006287 -0.55766988 -3.8420021e-05 0.0024238783
0.084237598 0.066368751 0.32322824 -0.78711051 -0.61673105 0.009994817 0.0029898486
-0.077401638 0.075277567 0.32945609 0.7224806 -0.69134474 0.0080148606 0.0031298387
0.075734213 0.077051356 0.32862973 -0.70065087 -0.7135042 0.00050207746 0.0035152745
-0.065714337 0.084739693 0.32402205 0.60601068 -0.79541624 0.0080029834 0.0016277324
0.067260288 0.083553493 0.32386452 -0.63794976 -0.77003944 -0.0077020624 0.0025775316
0.070600763 0.080990307 0.32039148 -0.65968603 -0.75153297 -0.0035415851 0.0019983801
-0.057758704 0.090844288 0.32636264 0.52901131 -0.84860241 0.0045795823 0.0025661623
-0.046145026 0.096954167 0.3287257 0.42623627 -0.90459579 -0.0053805686 0.0029691209
0.038914561 0.099949092 0.32462555 -0.33594072 -0.94188279 -0.00080270198 0.0020123383
0.041313633 0.098955378 0.32391164 -0.38566899 -0.92257243 -0.010936184 0.0028983729
0.052502565 0.094320811 0.32388011 -0.49598163 -0.86826515 -0.010855831 0.0021545945
-0.035333823 0.10143227 0.32670042 0.34210086 -0.93957794 0.012660341 0.0024475716
-0.026060766 0.1046337 0.3248511 0.24852297 -0.96852577 -0.013933209 0.0019946492
-0.013129798 0.1064296 0.32424924 0.11091579 -0.9938122 -0.0059093079 0.0025335907
-0.0058753691 0.10738469 0.3238354 0.063457578 -0.99798006 -0.0029881659 0.0022309134
0.014015014 0.10631306 0.32452387 -0.13185412 -0.99126899 -0.00045888417 0.0030668653
0.034252111 0.10188033 0.32411796 -0.32774445 -0.94476634 -0.00039344595 0.0019849213
-0.031988129 -0.10281829 0.33806142 0.33001226 0.94396013 0.0055892188 0.0014900259
-0.024233662 -0.10496792 0.33731174 0.23376936 0.97227401 0.0059301555 0.0023357391
-0.016598769 -0.10597304 0.33696699 0.18228725 0.98324144 0.0027625 0.0025624197
-0.0030408634 -0.1077579 0.33097231 0.019615127 0.99979413 -0.0051950989 0.0021937336
0.0064588673 -0.10730793 0.33471113 -0.086468518 0.99616224 0.013563311 0.0028956616
0.015608723 -0.10610337 0.33661461 -0.16034858 0.98704809 0.0049444917 0.0015937994
0.025649814 -0.10478149 0.33233765 -0.21220103 0.97722596 -0.00021331458 0.0023718297
0.034583822 -0.1017431 0.33560964 -0.3236025 0.9461931 0.00020998031 0.0025333168
-0.050178587 -0.095283464 0.33897907 0.47002706 0.88264781 -0.0027347575 0.0027374686
-0.045261934 -0.097320028 0.33830562 0.41641274 0.90917546 -0.0006162714 0.0033802793
0.044423822 -0.097667195 0.33611163 -0.44451016 0.89576429 -0.0041393568 0.0017782599
0.055678904 -0.09224768 0.33355814 -0.53170288 0.84691381 0.0054054256 0.002938509
-0.07153704 -0.080271922 0.33616358 0.68032223 0.73291206 -0.0012742241 0.0028346931
-0.063865446 -0.086158581 0.3347671 0.58202171 0.81317043 -0.0021582085 0.0029437165
-0.059116453 -0.089802571 0.33528069 0.52859944 0.84882265 -0.0090955384 0.0019938385
0.068287931 -0.082765102 0.33659291 -0.64063871 0.76783568 0.003239206 0.0022461354
-0.076181151 -0.076219164 0.33731356 0.71389902 0.70023865 0.0037469689 0.0025043802
0.076975837 -0.075292476 0.33205494 -0.70665753 0.70755512 0.0009599601 0.0022936473
0.080879748 -0.070744947 0.33884957 -0.7599054 0.65003246 0.0012579883 0.0026865099
-0.084366255 -0.066201203 0.33656755 0.79120237 0.61155289 -0.0013560393 0.0032002153
0.084199779 -0.066418193 0.33556381 -0.77694571 0.62953281 0.0066087819 0.0025299315
-0.092951775 -0.054719351 0.33521783 0.85262692 0.52251965 -0.00066050526 0.0021677867
-0.089680135 -0.059275996 0.33461326 0.83104217 0.55620497 -0.0021982372 0.0032964698
0.095292568 -0.050156541 0.33951834 -0.88267052 0.46997756 0.0037102338 0.0025619566
-0.098395891 -0.042664487 0.3371 0.91845357 0.39552402 0.0019624587 0.0027542913
0.096516594 -0.047201488 0.33459306 -0.88575953 0.46409792 0.0065608211 0.0024928739
-0.10055736 -0.037446242 0.33363345 0.93245709 0.36127958 -0.0009420616 0.0019696411
0.10168571 -0.034722183 0.33496243 -0.94569057 0.32504427 -0.0039337752 0.0017921128
-0.10497829 -0.02392141 0.33422759 0.97667044 0.2147204 -0.0031534762 0.0022018088
0.10493478 -0.024484649 0.3349497 -0.97317821 0.23005205 -0.00040887896 0.0030106974
0.10600706 -0.016339758 0.33362877 -0.9905563 0.13702135 -0.0048400923 0.0015645747
-0.10774477 -0.0031404702 0.33142883 0.99998641 0.0017159166 -0.0049285814 0.0020185218
0.10762714 -0.0040340023 0.33071554 -0.99976695 0.020925101 -0.0053094462 0.0023288545
0.10770763 0.003422572 0.33446863 -0.99969512 -0.021175306 0.012697387 0.0023327761
-0.10573868 0.018378332 0.33827865 0.98248339 -0.1854997 0.017783668 0.0024271652
0.10603246 0.016146846 0.33642575 -0.98620677 -0.16546705 0.0040996079 0.002067344
-0.10475259 0.025868494 0.33561796 0.96890795 -0.24737146 0.0049803504 0.0026588577
0.10473061 0.024958361 0.33490303 -0.97576416 -0.21878979 0.0039198617 0.0024324628
-0.10315555 0.031173671 0.33789116 0.95773178 -0.28766274 7.6813121e-05 0.0023463995
-0.099594429 0.039770953 0.33150381 0.92764682 -0.37335151 -0.0089511452 0.0026118751
-0.09788356 0.043901354 0.33289942 0.91790676 -0.3965798 -0.013101984 0.0028311561
0.096402779 0.047476273 0.33938986 -0.90200382 -0.43170884 0.0040637841 0.002194131
-0.094464444 0.052155819 0.33471403 0.88086927 -0.47327709 0.0088372948 0.0026071079
0.093735926 0.053733107 0.33267972 -0.8578465 -0.51387399 -0.005733036 0.0022797405
-0.087022975 0.062738702 0.33331418 0.82353628 -0.56679714 0.023003411 0.0020290622
0.084788069 0.065651327 0.33817279 -0.79111844 -0.61151314 0.013539254 0.0028854671
-0.080458641 0.071293563 0.33080059 0.75295132 -0.65801257 -0.0091526341 0.0017596915
-0.074709103 0.077837855 0.33404505 0.67768162 -0.73533964 -0.0048166513 0.0023150858
0.077154532 0.07503251 0.33382744 -0.73372054 -0.67938453 0.0095241908 0.0022175263
-0.070465527 0.081094012 0.33219573 0.65282911 -0.75750422 -0.001247153 0.0027140707
-0.065084517 0.085222974 0.33564526 0.60131562 -0.79838246 -0.031703293 0.0028324525
0.06403362 0.086029343 0.33424506 -0.59624475 -0.80273622 -0.0103312 0.0030127328
-0.051868059 0.094583631 0.33332366 0.4847613 -0.87461537 0.0073769703 0.0023262955
-0.045358863 0.097279795 0.33572266 0.41403556 -0.91021073 0.0095353741 0.0027065719
0.046028141 0.097002581 0.33627611 -0.44576073 -0.89514732 -0.0029278193 0.0019248496
0.052240491 0.094217002 0.33272186 -0.48811495 -0.87274235 -0.0080377841 0.0024500077
-0.038452737 0.10014039 0.33815455 0.35245058 -0.93577576 0.010112643 0.0015163334
-0.022061046 0.10525376 0.33676565 0.22350252 -0.97469944 -0.0027634031 0.0025132669
-0.019757917 0.10555698 0.33394092 0.20010163 -0.97970861 -0.011420401 0.0029901643
-0.0020399995 0.10788964 0.33387896 0.02745395 -0.99962038 0.0023229264 0.001820397
0.0057944423 0.10739534 0.33587775 -0.047169387 -0.99887812 -0.0041905986 0.0028232394
0.015797067 0.10607843 0.33530807 -0.16800036 -0.98569959 0.013125502 0.0017399529
0.023920286 0.10500897 0.33482829 -0.22791651 -0.97363347 0.0095924698 0.0019551218
0.0339466 0.10200687 0.33410007 -0.28424281 -0.95874906 -0.0025083604 0.0021671504
-0.034574293 -0.10174705 0.34315354 0.34282637 0.93939877 -0.00014635437 0.0022841084
-0.022742456 -0.10516424 0.34809956 0.20909986 0.97789305 -0.0015522169 0.002982941
-0.0033416329 -0.1077183 0.3466804 0.034390509 0.99940538 -0.0024868175 0.0021497591
0.0029556411 -0.10776912 0.34064925 -0.025758402 0.99966472 0.0026285998 0.0025697623
0.016139701 -0.10603347 0.34477374 -0.16065909 0.98699957 -0.004526576 0.0016366607
0.026270946 -0.10461277 0.3425971 -0.23434237 0.97215348 -0.0011050424 0.0020994511
0.031546257 -0.10300133 0.34885293 -0.29229787 0.95631021 -0.0057334155 0.0026137729
-0.056340776 -0.091932386 0.34901556 0.51348209 0.85808444 0.0052147945 0.0027215024
-0.04593477 -0.097041324 0.3471083 0.4321529 0.90179807 0.0020169301 0.0024418591
-0.039394423 -0.099750467 0.34848946 0.35704091 0.9340685 0.0061456319 0.0021143795
0.042181317 -0.098596089 0.34521827 -0.37815413 0.92573339 0.0041369679 0.0026300913
0.05540961 -0.092472419 0.34723824 -0.50114536 0.86535287 -0.0042088795 0.0022503738
-0.067950562 -0.083023936 0.34456721 0.62639004 0.77950335 -0.0031746754 0.0036993118
-0.059457041 -0.089541242 0.3422659 0.54680592 0.83725804 -0.0015007243 0.0028399529
0.064819649 -0.085426405 0.34536713 -0.60828209 0.79371268 0.0036229589 0.0024972986
0.071546137 -0.080265 0.34579879 -0.67111337 0.74134415 0.0039736968 0.0013777942
-0.081259519 -0.070249937 0.34549826 0.75151926 0.65970778 0.0021068179 0.002648585
0.075740606 -0.076571889 0.34531173 -0.69479209 0.71920729 -0.0021969969 0.0027441257
0.081247516 -0.070265681 0.34138513 -0.75947821 0.65046173 0.0096137486 0.0023955917
-0.087479912 -0.062143415 0.34466818 0.8046034 0.59381068 -0.0015367653 0.0027710756
-0.091846436 -0.056452774 0.34360331 0.84920609 0.52801102 -0.0073134736 0.0025987853
-0.089463934 -0.059557762 0.34686321 0.82794309 0.56079662 0.0041744243 0.0030750874
0.092698082 -0.054773152 0.3471773 -0.86031479 0.50958771 0.013367903 0.0025425185
-0.09780059 -0.04410167 0.34669191 0.91960859 0.39251578 0.015857846 0.0028112417
-0.10149985 -0.035170875 0.3453908 0.93522888 0.35372257 0.015073197 0.002005999
0.10165697 -0.03479154 0.34308329 -0.94595534 0.3242166 0.0072309403 0.0015441451
-0.10488153 -0.024677649 0.34254646 0.97174388 0.23602583 0.0023655905 0.0017124737
0.10398867 -0.029162358 0.34393474 -0.96417201 0.26525757 -0.0032694556 0.0027699389
-0.10610708 -0.015580093 0.34571978 0.98727357 0.15898466 -0.0038437925 0.0032400351
0.10613251 -0.015386808 0.34159589 -0.99077845 0.13545474 0.0031661738 0.0014796985
-0.1074169 -0.0056309067 0.34416923 0.99964195 0.024570847 -0.010595132 0.0019160454
0.10752755 -0.0047903922 0.34304297 -0.99821597 0.059276074 -0.0071591386 0.0020616702
-0.10719544 0.0073130853 0.34554687 0.99756902 -0.069611587 -0.0031827982 0.002459931
0.10732187 0.0063527524 0.34549493 -0.99847388 -0.055221591 -0.0006909449 0.0024836066
-0.10567393 0.018870134 0.34499407 0.98199034 -0.18873872 -0.008528877 0.00281261
0.10607468 0.015826141 0.34803563 -0.98587954 -0.16745107 0.0012928604 0.0024576723
-0.10523651 0.022192778 0.34533978 0.97647411 -0.21563436 1.0499813e-05 0.0031262194
0.10419996 0.028015142 0.34670001 -0.96317416 -0.26869714 0.0098705646 0.0023848366
-0.1019677 0.034041401 0.34235066 0.94922221 -0.31441143 -0.011074394 0.0022386478
0.10204483 0.033855192 0.34328118 -0.94870907 -0.31613529 0.0031080323 0.0022655583
-0.095940493 0.048592329 0.34667614 0.89197737 -0.45201647 -0.0075802235 0.0027827674
0.098286889 0.042927645 0.34420937 -0.91951644 -0.39283404 0.01306974 0.0036043383
-0.092505306 0.055268895 0.34950268 0.85759187 -0.51430964 0.0046663485 0.0022749328
-0.089935802 0.058942668 0.3439033 0.84364289 -0.53690463 0.00025993423 0.0023303283
0.089769743 0.059159081 0.34422675 -0.84788287 -0.53018129 0.0015382187 0.0025498271
0.093783639 0.053799432 0.34546021 -0.86756784 -0.49723643 0.0090518398 0.0032158492
-0.08439178 0.066167772 0.34330532 0.78395247 -0.62076789 0.0081013618 0.003394952
0.085964471 0.064118207 0.34628788 -0.81112319 -0.58485872 -0.0044213473 0.0029810513
-0.076715373 0.076171935 0.34341091 0.70771796 -0.70635909 -0.013860359 0.0025094915
0.077497512 0.074923389 0.3441577 -0.74729466 -0.66446495 0.0060839234 0.0015766606
-0.066313013 0.084280327 0.34497613 0.61104602 -0.79153168 -0.010014775 0.0028721183
-0.057372153 0.091140896 0.34662747 0.53069091 -0.847206 -0.024682144 0.0022561902
-0.044699889 0.097552754 0.34570757 0.41792151 -0.90833855 0.016207499 0.0032674384
0.046646498 0.09674646 0.34467185 -0.42650929 -0.9044826 -0.0009877421 0.0016719922
-0.035470936 0.10137548 0.34674886 0.31040305 -0.95049524 -0.014450152 0.0026097312
-0.021812083 0.10528653 0.34170157 0.20183153 -0.97939306 -0.0073007592 0.0029404904
-0.0063249553 0.1073255 0.34464511 0.051194679 -0.99867678 -0.0048940256 0.0026445275
0.0074435086 0.10717823 0.34532842 -0.071919233 -0.99728727 0.015680788 0.003220815
0.016873889 0.10593668 0.34594035 -0.15099166 -0.98853499 0.00027087549 0.0022262575
0.027043762 0.10451044 0.34441236 -0.25032902 -0.96806026 0.013953012 0.0020617084
0.033366438 0.10224718 0.34613806 -0.27903885 -0.96025503 0.006897876 0.0024703061
-0.03416913 -0.10191488 0.35315406 0.32344911 0.94618988 -0.010265515 0.0016887439
-0.026975123 -0.10460702 0.35453275 0.26301676 0.96475881 -0.007917936 0.0025507153
-0.013823573 -0.10633838 0.35372803 0.15926114 0.98708504 0.017293211 0.0019028785
-0.0025178939 -0.10782674 0.35345072 0.021055348 0.99977833 0.00029532705 0.0021023483
0.0053735031 -0.10745082 0.3548049 -0.053594276 0.99855316 0.0043858266 0.0025285617
0.018307148 -0.10574813 0.352083 -0.19301063 0.9811548 -0.0090607237 0.0023600142
0.028789759 -0.10414311 0.35303184 -0.27340052 0.96189874 -0.0016969022 0.0028721385
0.031155843 -0.10316304 0.35381132 -0.28938922 0.95715356 -0.01053246 0.0026024119
-0.052277345 -0.094414115 0.35453552 0.48580652 0.87393928 0.014903078 0.0025300661
-0.046048217 -0.096994333 0.35544449 0.44686741 0.89453727 0.010609436 0.0028297629
-0.039306685 -0.099786803 0.35362583 0.34518364 0.93853509 -1.5887714e-05 0.0022983016
0.046250157 -0.096910685 0.35677743 -0.43633685 0.89978349 7.8817371e-05 0.00361415
0.05448927 -0.093021818 0.35564145 -0.49657133 0.8679108 0.012152354 0.0022234365
-0.070913114 -0.080750674 0.35485962 0.65946949 0.75173098 -0.00077916292 0.0034065261
-0.065842845 -0.084641248 0.35292518 0.60236812 0.79821563 -0.0021380929 0.0021130233
0.06203673 -0.087561801 0.35247868 -0.59084886 0.80675185 0.0070169806 0.0021728375
0.070856437 -0.080794215 0.35949057 -0.65682995 0.75402611 -0.004353018 0.0028529845
-0.080750346 -0.070913509 0.35622299 0.77015465 0.63782871 -0.0060257223 0.00262404
-0.075439885 -0.077170812 0.35555667 0.69668126 0.71733773 -0.0078617856 0.0029395823
0.079270244 -0.072842516 0.35402507 -0.73952949 0.67311394 -0.0036910039 0.0019123699
0.081151932 -0.070390239 0.35008097 -0.75011617 0.66129124 0.0044254591 0.0022579031
-0.082155876 -0.069081806 0.35437784 0.77099067 0.63673586 -0.011869065 0.0025928812
0.085338831 -0.064933747 0.35773963 -0.7947458 0.60691559 0.0057117911 0.0023254161
-0.093829654 -0.053288419 0.35582444 0.86921096 0.49443242 -0.0029726524 0.0021435635
0.093474381 -0.053737294 0.35637793 -0.86811739 0.49629825 0.0077629606 0.0023979363
-0.096694246 -0.046772607 0.35551092 0.88974768 0.45639619 0.0071792617 0.0029448858
0.09846323 -0.042501904 0.35328665 -0.92046672 0.39071989 -0.0088822329 0.0020739157
-0.10204764 -0.033848383 0.35685208 0.952241 0.30531806 -0.0042287861 0.0027547346
0.10247465 -0.032817505 0.35224378 -0.95744228 0.28852454 -0.0076006837 0.003001625
-0.10488376 -0.024872163 0.35641092 0.96842396 0.24928313 0.003605538 0.0018509988
0.10509244 -0.022630624 0.35481325 -0.9815082 0.19014783 -0.022032937 0.002407949
-0.10574565 -0.018325446 0.35193717 0.98723722 0.15905847 0.007947227 0.0032721125
0.10602988 -0.016166456 0.35077316 -0.98780233 0.15561908 -0.0054155793 0.0018605847
-0.10747674 -0.0051762993 0.35883278 0.99771047 0.066286452 0.013410456 0.0022408594
0.10755815 -0.0045579253 0.35007298 -0.99852473 0.053834647 -0.0070864065 0.0023610285
-0.10744295 0.0054330705 0.35469609 0.99889916 -0.046905588 -0.00055678515 0.0017873867
0.10746024 0.0053017135 0.35409561 -0.99928892 -0.036803331 -0.0082006902 0.0019137397
-0.10673694 0.010795761 0.35177693 0.99603838 -0.088920027 0.00090635387 0.0026490362
0.10629913 0.01412126 0.35377836 -0.99085408 -0.13385211 -0.017081041 0.0022069691
-0.10467517 0.025104379 0.35609826 0.96512049 -0.26175451 -0.0051950156 0.0024654039
0.10446464 0.026992964 0.35782376 -0.96605831 -0.25815207 0.0094347401 0.0020336767
-0.1010737 0.036199719 0.35307062 0.93883896 -0.34430322 -0.006058787 0.002089964
0.099686489 0.039548714 0.35150716 -0.92981321 -0.36773556 0.014762579 0.0031625396
0.10156392 0.035016187 0.35353065 -0.94169092 -0.33569691 0.022930605 0.0019037825
-0.098042712 0.043517128 0.35743552 0.91166162 -0.41070411 0.013973544 0.0021356936
0.09684673 0.046404492 0.35615462 -0.89983869 -0.43618998 0.005350837 0.001720618
-0.094882965 0.051145405 0.3588762 0.87592864 -0.48242125 0.0043261307 0.0032672754
-0.089221217 0.059873916 0.35778159 0.83951831 -0.54330415 -0.0054462338 0.0021246937
0.093090117 0.054831937 0.35039291 -0.86344188 -0.5044049 -0.0066159805 0.002999858
-0.085232437 0.065072186 0.35430428 0.78649759 -0.617531 -0.0087737925 0.0027707303
0.086821996 0.063000642 0.35584715 -0.82231539 -0.56902903 -0.0018448754 0.0029031651
-0.081333667 0.070153199 0.35483068 0.7571609 -0.65318739 -0.0073252143 0.0020540061
-0.079211511 0.072918877 0.35026827 0.73651177 -0.67636669 -0.0088636065 0.0035300208
0.075345442 0.077295721 0.35134041 -0.69935703 -0.71471596 -0.0089823306 0.0027340995
-0.067096286 0.083679296 0.35442781 0.61771429 -0.78639495 0.0034658692 0.0029565969
0.065782085 0.084687725 0.35442859 -0.59997284 -0.79996789 0.0091698663 0.0029732408
-0.056539539 0.091779798 0.35294062 0.53377306 -0.84562624 -0.0015912757 0.0024382845
-0.043855797 0.097902387 0.35251829 0.41846892 -0.90815604 0.011678509 0.003202962
-0.039832763 0.099568762 0.35868096 0.34337744 -0.9391821 0.0053755729 0.0015544564
0.041678987 0.098804042 0.35388556 -0.37314361 -0.92770892 -0.010946773 0.0029662703
0.053683847 0.093671173 0.35472998 -0.4760679 -0.87937427 0.007759898 0.0026164798
-0.034304302 0.10185871 0.35567153 0.31730425 -0.94832373 -0.00028587953 0.001979155
-0.02437032 0.10494973 0.35298482 0.2284607 -0.97355139 -0.0018500664 0.0023303644
-0.01302619 0.10644325 0.35362688 0.13510196 -0.99075335 -0.012461214 0.0034126721
-0.0084317494 0.10704813 0.35427895 0.065680638 -0.99783587 -0.0030933507 0.0036698757
0.0048493138 0.10751978 0.35347414 -0.045745205 -0.99888849 -0.011362644 0.003469497
0.018104315 0.10577469 0.35987756 -0.1670838 -0.98594081 0.0019345436 0.002698438
0.026115455 0.10460818 0.35203913 -0.25673488 -0.96648151 0.00089062634 0.0026788739
0.033477716 0.1022011 0.35615215 -0.29254684 -0.95625085 0.00075632829 0.0028459458
-0.031941492 -0.10283761 0.3621797 0.29469806 0.95556504 -0.0069525233 0.0021872709
-0.024208289 -0.10497126 0.36604673 0.22795917 0.97366458 0.0034475655 0.0022803003
-0.013610077 -0.10636649 0.36400193 0.1380439 0.99042428 0.0019257747 0.001695906
-0.0040241592 -0.10762844 0.36517534 0.038292095 0.99925506 0.0048151477 0.0025054191
0.0034642518 -0.10770216 0.36175123 -0.037748747 0.99928272 0.0030068604 0.0025456266
0.016554633 -0.10597885 0.3624804 -0.16409433 0.98637587 -0.01164729 0.0019961293
0.021738218 -0.10529643 0.36561188 -0.20494688 0.97876382 -0.0042533935 0.0027649119
0.035171878 -0.10149952 0.36751947 -0.32668802 0.94478464 -0.025631038 0.0019509385
-0.054148909 -0.093333937 0.36497179 0.52482939 0.85117704 0.0071943309 0.0023693237
-0.045627963 -0.097168416 0.36472347 0.41710305 0.90884995 -0.0041009854 0.0020166475
0.043278426 -0.09814164 0.36195803 -0.40089506 0.9160648 -0.010419253 0.0032965306
0.05115898 -0.094877362 0.36613679 -0.48086289 0.87661391 0.017858956 0.0018948645
-0.063691296 -0.0862922 0.36817425 0.59338218 0.80487674 0.008429599 0.0020010555
0.06717094 -0.083622202 0.36537251 -0.62616211 0.77964282 -0.0088417623 0.0032405586
0.070984095 -0.080696262 0.3674832 -0.67036939 0.7420252 0.0018672245 0.0020269095
-0.076393403 -0.076277673 0.36424527 0.70744425 0.70676827 -0.0011160889 0.0023804386
0.077083282 -0.075572446 0.36681068 -0.71600097 0.6980834 -0.0047125034 0.0025340139
0.080284953 -0.071520105 0.3691268 -0.741997 0.67040139 0.0015489437 0.0017238511
-0.088426076 -0.06091034 0.36480707 0.82810473 0.56056523 0.0030494467 0.0024586467
0.083995767 -0.066684067 0.36543894 -0.77390897 0.63329417 -0.001855217 0.0023460938
-0.092018604 -0.056228403 0.36645946 0.84914297 0.5280655 0.01014978 0.002397975
0.089869238 -0.059029542 0.36062637 -0.82492763 0.56523591 -0.0016694821 0.0026556831
0.091534488 -0.056859322 0.36322123 -0.8551482 0.51828289 -0.010221077 0.0022518348
-0.096681364 -0.046803702 0.36299706 0.89469945 0.4466584 -0.0030413596 0.0024949992
0.097568333 -0.044662397 0.36360916 -0.90197766 0.43176851 -0.0035064106 0.0019039602
-0.10181221 -0.034416776 0.3645364 0.94553882 0.32547188 -0.0049403426 0.0029166183
0.10165969 -0.034784988 0.36627311 -0.94406641 0.3296327 0.0089927288 0.0029736399
-0.10488183 -0.024886878 0.36490071 0.97272217 0.23197325 0.00028621955 0.0024294169
0.10463156 -0.026787881 0.36191076 -0.9683243 0.2496793 0.002868654 0.0020919566
0.10642936 -0.013132032 0.36459777 -0.9942565 0.10702357 0.00014809553 0.0021142527
-0.10724413 -0.0069432613 0.36471689 0.99462938 0.10263193 0.013385365 0.0021028905
0.10735258 -0.006119451 0.36260292 -0.99669898 0.081147373 0.0024955098 0.0029173389
-0.10732841 0.0063030371 0.36447278 0.99923009 -0.039211489 0.0013099535 0.0015353623
0.10742179 0.0055938456 0.36415485 -0.99851763 -0.053992387 -0.006880878 0.0024507646
-0.1062292 0.014652449 0.36025915 0.99004745 -0.14072935 -0.0011979985 0.00183645
0.10577872 0.018074133 0.36507332 -0.9844808 -0.1754923 -3.8661041e-05 0.0026736574
-0.10458206 0.026222203 0.36396748 0.96757919 -0.2525194 -0.0049520303 0.0021040353
0.10478732 0.025604717 0.36849305 -0.96506625 -0.26198372 0.0034227837 0.0019213677
-0.10032968 0.037995901 0.36471507 0.92853528 -0.37100086 0.013444725 0.0018808723
0.10013551 0.038464695 0.36323601 -0.93188536 -0.36274266 0.0027452558 0.0032558972
-0.097158358 0.045652162 0.36488444 0.90192091 -0.43179581 0.0095434468 0.0018965561
0.0970551 0.045901429 0.36679021 -0.90104836 -0.43371004 -0.002713779 0.0025993828
-0.092639625 0.055118121 0.36252961 0.8543402 -0.51968038 -0.0059295464 0.0022494786
0.09312968 0.054147605 0.36423093 -0.86520296 -0.50124198 -0.013428688 0.0023322355
-0.08721409 0.062489629 0.36687192 0.82020038 -0.57207561 -0.00093759812 0.0022788215
0.086087279 0.063958153 0.36603317 -0.80989546 -0.58648574 -0.010187096 0.0035031487
-0.077526234 0.074783541 0.36338413 0.72857231 -0.68493432 0.0068780258 0.0029531715
0.0761737 0.076568708 0.36620057 -0.69489408 -0.71909505 0.0049531935 0.0032306102
0.081073254 0.070492677 0.36696762 -0.75824225 -0.65194207 -0.0063465727 0.0031666139
-0.067535192 0.083342522 0.36663014 0.64489555 -0.7642706 -0.00035036937 0.0025113507
0.059934542 0.089174673 0.36799216 -0.55116343 -0.8342545 0.015435228 0.0032123663
0.067975506 0.083004683 0.36406958 -0.63682884 -0.77099073 0.004726354 0.0040857648
-0.055913609 0.091909021 0.3659246 0.51922154 -0.85451555 0.014565804 0.0024357438
-0.047815733 0.096262142 0.36077255 0.44425958 -0.89589781 0.00072477624 0.0027618322
-0.039724492 0.099613607 0.36902609 0.34711143 -0.93782187 -0.0019171208 0.0016129625
0.044183981 0.097766452 0.36253655 -0.41742682 -0.90869135 -0.0059098611 0.0037943823
0.054512899 0.093013808 0.36486977 -0.49569747 -0.86823261 0.0213574 0.002607757
-0.038341932 0.10018628 0.36222619 0.33366144 -0.94269139 -0.001740551 0.001785245
-0.021022428 0.10539049 0.36382341 0.2087869 -0.97794563 -0.0055112187 0.0028962672
-0.019063776 0.10564837 0.36999747 0.17602678 -0.98436695 0.0060149874 0.0019363882
-0.0042670495 0.10759644 0.36529219 0.028132904 -0.99960423 -0.00015520846 0.0017649514
0.0040434445 0.10762587 0.36294073 -0.043122228 -0.998972 -0.01397938 0.0019778176
0.015003031 0.10618298 0.36394149 -0.13067779 -0.99142379 0.0015125502 0.0027048811
0.029629117 0.10379522 0.36112428 -0.28088394 -0.95972657 -0.0053949133 0.0026918952
0.034510091 0.10177347 0.36454672 -0.33456847 -0.94235575 -0.005439538 0.0025507594
-0.022227008 -0.10523209 0.37737748 0.21787755 0.97597331 0.002334648 0.0029351148
-0.012592161 -0.10650049 0.37645403 0.092069238 0.99575216 -0.00090066809 0.0019555124
-0.0056304461 -0.10741699 0.37564921 0.042045098 0.99911422 -0.0017062215 0.0031008371
0.0068631833 -0.1072547 0.37807274 -0.050023906 0.99873513 0.0050728344 0.0029526954
0.014150501 -0.10629535 0.37602091 -0.1379368 0.9903844 0.010593474 0.002451905
0.022513179 -0.10519442 0.37982333 -0.18609393 0.98237103 0.017782059 0.0027750165
