# .PCD v0.7 - Point Cloud Data file format
VERSION 0.7
FIELDS x y z normal_x normal_y normal_z curvature
SIZE 4 4 4 4 4 4 4
TYPE F F F F F F F
COUNT 1 1 1 1 1 1 1
WIDTH 581
HEIGHT 1
VIEWPOINT 0 0 0 1 0 0 0
POINTS 581
DATA ascii
0.20802073 -0.066237032 0.14684623 -0.9411025 0.31735712 -0.11666404 0.0020567374
0.21233153 -0.055680554 0.14204602 -0.96230179 0.2529375 -0.09998934 0.0024240813
-0.21345198 -0.047850057 0.14338224 0.97463363 0.2053933 -0.088898189 0.0017297966
0.21368845 -0.044942066 0.14499259 -0.97781724 0.18197307 -0.10372707 0.0013747048
-0.21513242 -0.033572335 0.14540574 0.98433971 0.14174326 -0.10480539 0.00073345017
0.21459587 -0.038214259 0.14473352 -0.98345214 0.15489279 -0.09396854 0.0011936476
-0.2164674 -0.025444914 0.1426571 0.98787481 0.12785329 -0.08807344 0.00084752316
0.21643762 -0.023932829 0.14517778 -0.98712373 0.12353253 -0.10161947 0.0010734568
-0.21788372 -0.013551705 0.14430685 0.99110341 0.087105848 -0.10063127 0.0016046918
0.21726342 -0.015380681 0.14839613 -0.98702669 0.1050388 -0.12142978 0.0010497393
-0.21871442 -0.0070468164 0.1445903 0.99330616 0.057011422 -0.10046206 0.0021577112
0.2188879 -0.0056829727 0.14465278 -0.99412858 0.042324305 -0.099584147 0.0019785748
-0.21895289 0.0042563211 0.14586906 0.99361128 -0.031998988 -0.10822488 0.002449201
0.21923825 0.0033880943 0.14403188 -0.99483913 -0.013928343 -0.10050407 0.0017822171
-0.21771447 0.016038796 0.14256105 0.99039465 -0.10555966 -0.0893059 0.0013724559
0.21750025 0.014970429 0.14640009 -0.9880048 -0.11171985 -0.10660738 0.0013373045
-0.21612388 0.026661225 0.14459504 0.98712265 -0.12815811 -0.095730469 0.0009730091
0.21612342 0.026396668 0.14506577 -0.98699105 -0.12552205 -0.10046353 0.0010623551
-0.2152738 0.035521179 0.14118993 0.98766828 -0.13457383 -0.080008335 0.00083500351
0.21495274 0.036212135 0.14372435 -0.98374712 -0.14224592 -0.10958003 0.00089609349
-0.21321131 0.047452882 0.14661485 0.97257453 -0.2055916 -0.10876963 0.0021995318
0.21335876 0.046533953 0.14620222 -0.97599065 -0.18543389 -0.11426528 0.0019858687
-0.21274285 0.055462431 0.1401483 0.96507692 -0.25216556 -0.070986979 0.0021019562
0.2123578 0.055299062 0.14286204 -0.96619034 -0.24145906 -0.090408191 0.0026291793
-0.20878914 0.064795256 0.14537917 0.94138157 -0.3228327 -0.097875945 0.0014513626
0.20854886 0.065367989 0.14540595 -0.94081056 -0.32012543 -0.11133339 0.0021142296
0.21051443 0.061416507 0.1420251 -0.94987601 -0.30139768 -0.083035819 0.0023139357
-0.20437241 0.075586654 0.14483219 0.92559004 -0.36492312 -0.10056906 0.001064976
0.20489083 0.074602641 0.14368799 -0.92717344 -0.36349955 -0.090650842 0.0012054325
-0.20102599 0.083907008 0.14380404 0.9231835 -0.37514937 -0.083636977 0.00089820276
-0.19957136 0.086687244 0.14692019 0.91918427 -0.38041529 -0.10190386 0.0012622906
0.19933252 0.087055124 0.14760523 -0.9174211 -0.3752012 -0.13252403 0.00096487545
0.20099549 0.083431043 0.14614068 -0.9201141 -0.37047023 -0.12705047 0.00098351401
-0.1961377 0.094977416 0.14674863 0.90724069 -0.40248948 -0.12213337 0.0012193628
0.19704115 0.093285523 0.14482912 -0.90964687 -0.40291834 -0.10099196 0.0013257135
-0.19109525 0.10817371 0.1425609 0.8725251 -0.48249319 -0.076813474 0.002117313
0.1920324 0.10521981 0.14547019 -0.87720698 -0.47067618 -0.09472055 0.002237522
-0.18537587 0.11615786 0.14438923 0.826509 -0.5545612 -0.096667565 0.0016497165
0.18488821 0.11593945 0.14963257 -0.83260351 -0.53852546 -0.12946662 0.0023017647
-0.18105718 0.12138872 0.14707752 0.80303055 -0.584517 -0.11611156 0.0012267663
-0.17628507 0.12794559 0.14479336 0.79252458 -0.60319173 -0.089802526 0.00093088229
0.17926171 0.12386771 0.14613558 -0.80090404 -0.5867734 -0.1193722 0.00099470431
0.18154466 0.1213043 0.1433451 -0.80799967 -0.58195525 -0.092004187 0.0012292657
-0.17291158 0.13284999 0.14135122 0.78887445 -0.61057144 -0.069855064 0.00081146939
-0.16863284 0.13774699 0.14588875 0.78309804 -0.6129421 -0.10516407 0.00098663662
0.16790624 0.13916276 0.14277261 -0.78005219 -0.62102711 -0.076444544 0.00069329375
0.17303181 0.13252662 0.14247693 -0.78847569 -0.60985005 -0.07993108 0.00072694581
-0.16346711 0.14451507 0.14570986 0.76063895 -0.64086932 -0.10351248 0.0012596237
0.16368 0.14434293 0.14499228 -0.75368351 -0.65015298 -0.096240945 0.0012022636
-0.15360874 0.15685728 0.14246006 0.68735433 -0.7215482 -0.083140321 0.0019760288
0.14869961 0.15996031 0.1483188 -0.66577893 -0.73584175 -0.1235941 0.0018527772
-0.14580438 0.16227859 0.14746819 0.64143747 -0.75837934 -0.11583907 0.0016058458
-0.13862517 0.16856489 0.14060356 0.61159748 -0.78751659 -0.075934179 0.00072212948
0.13701536 0.16979107 0.14068031 -0.61391848 -0.78594655 -0.073431157 0.00087936362
0.14290059 0.16500193 0.14309268 -0.63146228 -0.76834023 -0.10444418 0.00097906601
-0.13439739 0.17139986 0.14421588 0.60795653 -0.78702676 -0.10477418 0.0011385632
-0.12834746 0.17605419 0.14410906 0.60512048 -0.79001451 -0.098520264 0.0010225209
0.12818439 0.17619416 0.14397457 -0.59573132 -0.79832244 -0.088235095 0.00082620193
0.13379091 0.17164886 0.1460596 -0.60469896 -0.78711873 -0.12158606 0.0010008352
-0.12028533 0.18192571 0.14679264 0.57409483 -0.80916458 -0.12517087 0.0018010179
-0.11467865 0.18634041 0.1458558 0.54284644 -0.83341396 -0.10362878 0.0025223992
-0.10977202 0.18988404 0.14784801 0.49958876 -0.85873872 -0.11392502 0.0029621576
0.11508999 0.18599661 0.1460554 -0.53599846 -0.83717608 -0.10882004 0.0015921353
0.12136642 0.18099354 0.1477903 -0.57766944 -0.80600792 -0.12903188 0.0011647359
-0.11032771 0.19010025 0.14217523 0.4929795 -0.86662173 -0.077058055 0.0027206456
-0.10477942 0.19221304 0.14548421 0.46367085 -0.88040358 -0.09949334 0.0027918541
-0.096183933 0.19569227 0.14616749 0.41112229 -0.90514302 -0.1081413 0.0016837463
-0.087839134 0.19933784 0.14441322 0.38404185 -0.91666979 -0.11058228 0.001158324
0.088150762 0.1989743 0.1467683 -0.38500789 -0.91535759 -0.11785331 0.0010139943
0.095027216 0.1962529 0.14551757 -0.40815538 -0.90701717 -0.1035808 0.0013737936
0.10422234 0.19263512 0.14352432 -0.45981562 -0.88433439 -0.080761977 0.0015952802
-0.08319439 0.20125023 0.14453202 0.37505281 -0.92124134 -0.10319786 0.0012232332
-0.075819775 0.204409 0.14346212 0.37683645 -0.92102706 -0.09850537 0.0011354026
-0.062524177 0.20975022 0.145169 0.29236692 -0.95123875 -0.098317958 0.0025281711
0.069951132 0.20629878 0.14894718 -0.3340463 -0.93450975 -0.12290023 0.0013315098
0.07514292 0.20459652 0.14430851 -0.36590603 -0.92523581 -0.10025647 0.00065793976
0.082843482 0.20104979 0.14808562 -0.37634027 -0.91674668 -0.13395368 0.0013481211
-0.060708936 0.2103447 0.14678758 0.28866208 -0.95089161 -0.1117114 0.0026644042
-0.056863546 0.21181118 0.14518924 0.25622609 -0.96222186 -0.09207207 0.0029839252
-0.041048113 0.21418411 0.14518301 0.14690399 -0.98382139 -0.10254146 0.0011235506
-0.033401329 0.21494389 0.14787257 0.13672832 -0.98216522 -0.12906158 0.00099694717
-0.025254121 0.21647149 0.14288677 0.13070388 -0.98789376 -0.083561026 0.00074702705
-0.013103739 0.21806654 0.14293721 0.084311195 -0.99270886 -0.086143978 0.0016590965
-0.0048254174 0.21902657 0.14436984 0.047641538 -0.99406034 -0.097848676 0.0023251474
0.000568202 0.21922985 0.14831068 -0.0091153244 -0.99336308 -0.11465909 0.0024752654
0.017723504 0.21732976 0.14435568 -0.11065818 -0.99011946 -0.086129032 0.00077628612
0.025986699 0.21633242 0.1433568 -0.13288546 -0.98851877 -0.071916811 0.00054900703
0.033206474 0.21534581 0.14375508 -0.1330072 -0.98818475 -0.076157577 0.00054397777
0.043573875 0.2138328 0.14526799 -0.17976357 -0.98013586 -0.083778128 0.0011656911
0.055186193 0.21214318 0.14440638 -0.24215026 -0.96581131 -0.092584059 0.0022036894
-0.054869741 -0.21101527 0.15546808 0.24988136 0.95445526 -0.16301663 0.0028064107
-0.044404298 -0.21215758 0.15686715 0.16081892 0.97355163 -0.16227952 0.0010087215
-0.036276113 -0.21288954 0.15888061 0.14161013 0.97380167 -0.17792372 0.0011479944
-0.024166884 -0.21540922 0.15322402 0.12702441 0.98056191 -0.14954324 0.0015487565
-0.016591577 -0.21590722 0.15631494 0.1062075 0.98057806 -0.1648834 0.0012973294
-0.004003156 -0.21813883 0.15272975 0.041410331 0.98496425 -0.16772173 0.0019132812
0.0059201289 -0.21721643 0.15680912 -0.043334946 0.98329526 -0.17678377 0.0020012732
0.015637321 -0.21633267 0.15453801 -0.098980434 0.98151881 -0.16377951 0.0010587801
0.026205203 -0.21493945 0.1544534 -0.12300721 0.98022008 -0.1550418 0.0013321658
0.035272293 -0.2135071 0.15603586 -0.13035893 0.97729146 -0.16705656 0.0012286797
0.043870918 -0.21269482 0.15401648 -0.15499765 0.9769572 -0.14673203 0.0014677196
0.056649592 -0.21099108 0.15291521 -0.27628872 0.94991452 -0.14603774 0.0024982889
-0.083270699 -0.20025228 0.15219809 0.37639979 0.91631871 -0.13668671 0.0010375944
-0.0734642 -0.20395468 0.15433083 0.36228684 0.91868454 -0.1573754 0.0012072566
-0.063832469 -0.20754611 0.15644354 0.30670995 0.93343174 -0.18610243 0.0019216575
0.065487996 -0.20683542 0.15687321 -0.33008224 0.93004185 -0.16145527 0.0018621131
0.073749736 -0.20381403 0.15449283 -0.36028987 0.92031389 -0.15235959 0.0011415351
0.083544031 -0.20000418 0.1530249 -0.37502885 0.91732603 -0.13366544 0.0011146149
-0.10257178 -0.19177584 0.15505284 0.44975993 0.87906533 -0.15798764 0.0022766553
-0.094437882 -0.19550329 0.15295558 0.40611789 0.90077251 -0.15387414 0.0014690449
-0.08614967 -0.19868711 0.15438372 0.3835769 0.90810966 -0.16794552 0.0011177158
0.089249253 -0.19745442 0.15417029 -0.38666657 0.90890902 -0.1561195 0.0011652042
0.097233564 -0.1944738 0.15216549 -0.41372436 0.90034753 -0.13493125 0.0017631077
0.1033971 -0.19186352 0.15251704 -0.46606469 0.87255305 -0.14640623 0.0024883759
-0.11325396 -0.1859867 0.15470658 0.52134281 0.83730984 -0.16466303 0.0024323941
-0.1096534 -0.18849567 0.15604451 0.49396023 0.85328102 -0.16707702 0.002562322
0.1085589 -0.18935363 0.15455262 -0.49135089 0.85573226 -0.16216241 0.0023884661
0.11419911 -0.18482129 0.15678056 -0.53809345 0.82491559 -0.17311729 0.0021717891
0.12076852 -0.18033776 0.15408695 -0.57318139 0.80418843 -0.15730278 0.0012088536
-0.13232546 -0.17100412 0.15654361 0.59656346 0.78159469 -0.18226814 0.00087261992
-0.12562554 -0.17666401 0.15380865 0.58761019 0.7906853 -0.17184561 0.00078452769
0.12544949 -0.17600733 0.15766747 -0.5839361 0.79296541 -0.17385195 0.0011661842
0.13149992 -0.17219494 0.15360379 -0.60089612 0.78418076 -0.15486865 0.0010410039
-0.14289849 -0.16254467 0.15820616 0.63250518 0.75101388 -0.18951359 0.0018001213
-0.13662979 -0.16840321 0.15284406 0.60993248 0.7793538 -0.14349234 0.0012362612
0.13662529 -0.16787878 0.15535656 -0.60818619 0.77806723 -0.15722919 0.0011073882
0.14222132 -0.16368566 0.15509242 -0.6243524 0.76424223 -0.16161031 0.0013355374
-0.15524405 -0.15296821 0.15523747 0.70795977 0.68960732 -0.15242936 0.0022414892
0.14748582 -0.15925393 0.15677132 -0.64509374 0.74403697 -0.17396252 0.0016083437
0.15333308 -0.15545334 0.15295172 -0.69998342 0.69968468 -0.14305447 0.0020968765
-0.16233902 -0.14366142 0.15630877 0.75117743 0.63463402 -0.18158238 0.0018747031
-0.15913023 -0.14725657 0.15846027 0.74076724 0.64595997 -0.18438978 0.0020460654
0.15906852 -0.14896709 0.15214556 -0.72877282 0.67053717 -0.13881665 0.0020302883
0.16096827 -0.14615288 0.15351425 -0.74657601 0.64914984 -0.14570092 0.0017556398
-0.17002866 -0.13379133 0.15575594 0.78726739 0.59293389 -0.16923214 0.0011242384
-0.16734466 -0.13789433 0.15330873 0.7771945 0.61494589 -0.13345529 0.00097256782
0.16958502 -0.13489789 0.15361676 -0.78200912 0.60428745 -0.15263835 0.0013481461
0.17074619 -0.13270742 0.15625593 -0.78001237 0.59897631 -0.18113002 0.0012048124
-0.17554584 -0.12724523 0.15315126 0.78680599 0.59612614 -0.1599059 0.00088825286
0.17682229 -0.12415641 0.15859179 -0.78995389 0.58373475 -0.18768749 0.001038745
-0.18511364 -0.11438993 0.15455805 0.81803763 0.54931742 -0.17048436 0.0018984557
0.18273056 -0.11773443 0.15367013 -0.81540269 0.55954856 -0.14840437 0.0015581342
-0.1910581 -0.10422802 0.15525094 0.87275827 0.46208555 -0.15738499 0.0027280094
-0.1897302 -0.10856681 0.15246901 0.86831069 0.47761485 -0.13386765 0.0026268533
0.1911488 -0.10414841 0.15488704 -0.87161648 0.46311599 -0.16065001 0.0021466159
-0.19423419 -0.096470408 0.15549976 0.90253735 0.3969112 -0.16699696 0.0010651511
0.19336794 -0.097472735 0.15803193 -0.89134502 0.40940535 -0.194657 0.0015266984
-0.20056625 -0.081558965 0.15462318 0.9132359 0.37353051 -0.16271178 0.00096782565
-0.19855028 -0.086218007 0.15503965 0.91050869 0.38057467 -0.16166916 0.00072681223
0.19917557 -0.084492445 0.15548496 -0.91019279 0.37434259 -0.1772476 0.0010079838
-0.20338924 -0.07469406 0.15474944 0.91656744 0.36441392 -0.1646409 0.0011453104
0.20309883 -0.077012226 0.15063547 -0.92166758 0.36761406 -0.12405153 0.00094620901
-0.20615351 -0.066991493 0.15736604 0.92629075 0.33217537 -0.17789032 0.0019129859
0.2068851 -0.065573812 0.15627322 -0.93251622 0.31993172 -0.16750284 0.001556328
-0.21082757 -0.054496277 0.15710367 0.95498765 0.23892377 -0.17582411 0.0024454822
-0.20980752 -0.058866508 0.15559521 0.94609684 0.27925444 -0.16406631 0.0024309473
0.2112284 -0.055967264 0.15181872 -0.95736009 0.25174475 -0.14172578 0.0022191596
-0.21247315 -0.043440949 0.15564136 0.97024626 0.17422825 -0.16812718 0.0016304672
0.2126828 -0.044997416 0.15311766 -0.97177696 0.18540336 -0.14585993 0.001878459
0.21407442 -0.033729285 0.15372309 -0.97931463 0.13477832 -0.15092286 0.0010782462
-0.21491671 -0.025565524 0.1552569 0.97871828 0.12224053 -0.16482633 0.00091773761
0.21555568 -0.023263797 0.15297875 -0.97849536 0.12061745 -0.16732673 0.0010834453
-0.21671404 -0.014181782 0.15326989 0.98301953 0.10212202 -0.1524588 0.0013242546
0.21621954 -0.015085869 0.15564835 -0.97840101 0.10579333 -0.17759329 0.0014866374
-0.21743123 -0.0070062219 0.15470144 0.98451853 0.049816899 -0.16805211 0.0019644089
0.21826927 -0.0044526472 0.15148048 -0.99111456 0.026009006 -0.13044314 0.0020554562
-0.21752635 0.0054990388 0.15526924 0.98466349 -0.048164353 -0.16768406 0.0016977636
0.21733984 0.0038976991 0.15800405 -0.98154908 -0.023752557 -0.18972903 0.0023435776
-0.21576504 0.018770387 0.15541452 0.97955966 -0.10389286 -0.17224696 0.0011575333
0.21557559 0.015338741 0.15920874 -0.97614938 -0.09794981 -0.19374798 0.0012938416
-0.21422724 0.026437692 0.15860564 0.97351706 -0.12015389 -0.19449323 0.0011438156
0.21505541 0.024650108 0.15510592 -0.97807598 -0.12924725 -0.16328663 0.0010501645
-0.2136714 0.033289686 0.15633313 0.97398788 -0.13233228 -0.18394512 0.0011113894
0.21343981 0.03478251 0.15677738 -0.9773075 -0.13263303 -0.16516216 0.0010670127
-0.21235822 0.045734446 0.1546194 0.97185671 -0.17642345 -0.15610647 0.0018019734
0.21226254 0.047868021 0.15339649 -0.97024274 -0.19574891 -0.14251791 0.0019788276
-0.2113394 0.050728254 0.15693519 0.95999211 -0.21706836 -0.17690796 0.002460358
-0.20948495 0.059941918 0.15484072 0.94206578 -0.28907624 -0.17013824 0.0024356216
0.21081392 0.055707313 0.15573162 -0.95359468 -0.24605128 -0.17353944 0.0027300431
-0.20540078 0.067783661 0.1593429 0.9221648 -0.33627805 -0.191126 0.0013587617
0.20729297 0.064899623 0.15568765 -0.92671782 -0.33029842 -0.17915623 0.0015222956
-0.2034265 0.074545614 0.154898 0.92010665 -0.35880488 -0.15704377 0.0009626993
0.20247737 0.076809585 0.15492281 -0.91319489 -0.37717032 -0.15432937 0.0011151368
-0.20099404 0.081974581 0.15094051 0.91683042 -0.37739179 -0.13037407 0.0014835477
-0.19898495 0.084103644 0.15743072 0.90878975 -0.37563884 -0.18164967 0.0012659532
0.19868986 0.084871285 0.15735309 -0.90978169 -0.37415707 -0.17973264 0.0014300598
-0.1951683 0.094653927 0.15446234 0.89939427 -0.40982863 -0.15208682 0.0009636574
0.19543381 0.094567128 0.15305065 -0.90644717 -0.39461905 -0.15043044 0.0015912222
-0.19193879 0.10325114 0.1524273 0.87891555 -0.45442012 -0.14494757 0.0020376623
0.1899244 0.10879444 0.15069571 -0.85833001 -0.49511495 -0.13465051 0.0025410082
0.19091171 0.10448878 0.15528174 -0.86550218 -0.47557068 -0.15728465 0.0026783077
-0.1846239 0.11507879 0.15438747 0.82087052 -0.54810196 -0.16048631 0.0014643675
0.18374971 0.11633663 0.15399039 -0.81903708 -0.55097532 -0.16001369 0.0019630445
-0.1759081 0.12638097 0.15473691 0.79301721 -0.59098911 -0.14783649 0.00080504525
0.17582287 0.12577225 0.15733345 -0.78937018 -0.58746016 -0.17828424 0.0010898456
-0.17056045 0.13278045 0.15704092 0.78245169 -0.59628296 -0.17948782 0.0011162537
-0.1657732 0.13960321 0.15467939 0.77360064 -0.61200428 -0.16429511 0.0011210119
0.16526189 0.13920495 0.15864114 -0.77143538 -0.60839647 -0.1863896 0.001094167
0.1720247 0.13170597 0.15366676 -0.78711849 -0.59911478 -0.14664918 0.0015518409
-0.15828601 0.14910091 0.15573004 0.73136616 -0.66486472 -0.15185018 0.0019622203
0.15742251 0.14999378 0.15666801 -0.71780837 -0.67873031 -0.1551653 0.0022199401
0.16344613 0.14219172 0.15611173 -0.75841653 -0.6296854 -0.16822793 0.0013214173
-0.15416197 0.15379363 0.15572815 0.69995713 -0.69794065 -0.15145572 0.0022688252
-0.14848797 0.15905944 0.15413213 0.65529162 -0.74150759 -0.14408121 0.0016927484
0.14773731 0.15858334 0.15913258 -0.65398413 -0.73671091 -0.17193556 0.0018724442
0.15311313 0.15532653 0.15292373 -0.68927675 -0.71162111 -0.1359892 0.0022499631
-0.14391804 0.1624091 0.15490484 0.63944995 -0.75267404 -0.15679781 0.0015563705
-0.13524777 0.16945097 0.15290931 0.60920089 -0.78133422 -0.1356141 0.00098414102
0.13872245 0.16607116 0.15641426 -0.60959136 -0.77733403 -0.15540318 0.00071446004
0.14261118 0.16358992 0.15399107 -0.64048618 -0.75438106 -0.14382836 0.0015941941
-0.13139684 0.17178403 0.15616536 0.60321528 -0.78234881 -0.15511832 0.0012500229
-0.12608176 0.17597373 0.15560095 0.5887115 -0.79275221 -0.15799591 0.0008216952
0.12747949 0.1747465 0.1563976 -0.59005839 -0.78976345 -0.16764499 0.0013204088
0.13110386 0.17194253 0.15653563 -0.59378451 -0.78573978 -0.17330021 0.0011327851
-0.11406263 0.18566264 0.15314306 0.5424518 -0.82651722 -0.15038405 0.0024104228
-0.1098465 0.18783611 0.15846887 0.49981549 -0.84549403 -0.18794762 0.0031105087
0.11475325 0.18505572 0.15334481 -0.54063123 -0.82870466 -0.14479849 0.0020431865
-0.10393663 0.19109246 0.15587912 0.4642624 -0.8682974 -0.1746996 0.0030890517
-0.096004739 0.19426766 0.15636939 0.40714383 -0.89787531 -0.16749325 0.0016541723
-0.085597068 0.19909167 0.15340713 0.38068125 -0.91488487 -0.1344151 0.00099949841
0.086216964 0.19868231 0.15434238 -0.38469362 -0.91137069 -0.14633641 0.0013497153
0.091585442 0.19633664 0.1549174 -0.39617658 -0.90456522 -0.15749937 0.0010517496
0.10401377 0.19134749 0.15408763 -0.45951024 -0.87383902 -0.15892003 0.0020663631
-0.072896361 0.20489283 0.15009014 0.37033424 -0.92007595 -0.12772132 0.0012317703
-0.062413752 0.20892717 0.15197913 0.30170366 -0.94308615 -0.13986942 0.0023996534
0.063970231 0.20770125 0.15549438 -0.30854002 -0.93735325 -0.16177742 0.0016646709
0.07403966 0.20370796 0.15423042 -0.35927075 -0.91955572 -0.15919101 0.0013134137
0.082484007 0.20070815 0.15139829 -0.37633878 -0.91674441 -0.13397302 0.0013453717
-0.054686472 0.21124542 0.15371929 0.23574623 -0.95816892 -0.16228399 0.0024401944
-0.041573279 0.21214618 0.15909535 0.16150263 -0.96517688 -0.20579219 0.0012997186
-0.035948053 0.21345425 0.15588516 0.13430579 -0.97712135 -0.16491124 0.0010854877
-0.024454523 0.21479635 0.15686534 0.12654501 -0.9763009 -0.17556477 0.0010133067
-0.015665999 0.2162161 0.15519185 0.10737326 -0.98062897 -0.16382267 0.001052792
-0.0044470779 0.21737453 0.15737964 0.028997744 -0.98355639 -0.17825784 0.0023922385
0.0077603273 0.21719328 0.15567595 -0.064010151 -0.98187613 -0.17838708 0.0017478467
0.014298158 0.21664321 0.15363112 -0.090436257 -0.98499906 -0.14696318 0.0016474706
0.026007127 0.21476549 0.15552989 -0.12191971 -0.9786135 -0.16568431 0.0012755103
0.038082037 0.21295457 0.15732601 -0.14394371 -0.97415596 -0.17407012 0.0011631441
0.04551959 0.21182381 0.15810533 -0.19046074 -0.96427149 -0.18413414 0.0022835981
0.054029532 0.21089695 0.15704991 -0.24316233 -0.95492983 -0.17023839 0.0022279078
-0.036289409 -0.21204486 0.16281778 0.14493297 0.96906179 -0.19978422 0.0013118017
-0.024943352 -0.21279271 0.16599712 0.11310235 0.9686994 -0.22097383 0.0013163757
-0.017271908 -0.21467263 0.16223827 0.10445386 0.97140509 -0.21321711 0.001273158
-0.0072830813 -0.21529651 0.16534467 0.043730211 0.97402531 -0.22217615 0.0016386359
0.0050532222 -0.21494722 0.16791804 -0.021104963 0.96641642 -0.25611317 0.0019624743
0.015372065 -0.21416803 0.16563305 -0.10717076 0.96796769 -0.22705296 0.0011857837
0.02137671 -0.21258487 0.16882583 -0.12168878 0.96006423 -0.25192961 0.0013302964
0.035732716 -0.21234 0.16178118 -0.13297114 0.97099203 -0.19872917 0.0013090691
0.046224706 -0.21082675 0.16239744 -0.18145406 0.96337533 -0.19743967 0.0020258361
0.051094472 -0.21028069 0.16195361 -0.22060977 0.95374411 -0.2042145 0.0026002398
-0.073779367 -0.20197982 0.16342241 0.35983387 0.9089784 -0.21042319 0.0010139832
-0.0647211 -0.20525511 0.16539721 0.32254493 0.91848069 -0.22881868 0.0016414521
-0.051525347 -0.20920396 0.16671006 0.22511408 0.9424966 -0.24702993 0.0018804776
0.049554262 -0.20964301 0.16587901 -0.21235578 0.94893718 -0.23328821 0.0023743883
0.055478267 -0.20827127 0.16715148 -0.24677113 0.93822503 -0.24256533 0.0023049372
0.063779861 -0.20589785 0.16439611 -0.30824089 0.92365634 -0.22769864 0.0019850594
0.075611107 -0.20071116 0.16564098 -0.36049879 0.90063447 -0.24268946 0.00088569929
-0.10195458 -0.19079459 0.16131021 0.45079201 0.86801875 -0.20815867 0.0022902007
-0.094029173 -0.19298136 0.16582112 0.40333387 0.88600874 -0.2287146 0.0013908972
-0.085369594 -0.19626687 0.1670872 0.37189135 0.89543867 -0.244717 0.0012423304
-0.077119455 -0.1994285 0.16808634 0.36529112 0.89825141 -0.24434941 0.00079934095
0.085752621 -0.19702032 0.16339241 -0.37928724 0.90034771 -0.21334265 0.0013412948
0.092570007 -0.19353023 0.16609217 -0.38692978 0.88897479 -0.24496762 0.001092102
0.10112268 -0.19087151 0.16247445 -0.44407761 0.87111485 -0.20965183 0.0023517534
-0.11765462 -0.18079162 0.16240489 0.55598271 0.80418682 -0.21015888 0.0016236728
-0.10591316 -0.18810636 0.16482845 0.4659254 0.85556328 -0.22566563 0.0024659438
0.10783115 -0.18694599 0.16589577 -0.48101437 0.84651536 -0.22811626 0.0026593402
0.11148649 -0.18519665 0.16362931 -0.50315493 0.83825129 -0.21016653 0.0024514992
-0.12572341 -0.17338884 0.16667387 0.58004314 0.78112942 -0.23105574 0.0014256646
-0.11813149 -0.17882943 0.16783029 0.55946285 0.79285181 -0.24163479 0.0016145078
0.12386395 -0.17554745 0.16403782 -0.58258486 0.78551084 -0.20872846 0.00094005273
-0.14163609 -0.16284959 0.16068693 0.622154 0.75565928 -0.20470349 0.0015144625
-0.13624784 -0.16556665 0.16555044 0.6018768 0.76986724 -0.21224692 0.0011708769
0.13635316 -0.16599341 0.16408655 -0.60582274 0.76805693 -0.20752648 0.0011244363
0.1422258 -0.1624386 0.16053051 -0.6269545 0.75443774 -0.19429822 0.0014346654
-0.15305683 -0.15361929 0.16200623 0.70021981 0.68478394 -0.20189895 0.0024911433
-0.14503108 -0.15847138 0.16700354 0.63874614 0.73002601 -0.24303347 0.0016072883
0.14728886 -0.15699035 0.16614905 -0.65382081 0.72095734 -0.22964935 0.0020231612
-0.16089924 -0.14284754 0.16450207 0.74001586 0.63260794 -0.22843763 0.0017775852
-0.15835398 -0.14530939 0.16668324 0.73948044 0.6310001 -0.23453681 0.0018777123
0.15805164 -0.14628382 0.16519395 -0.72950405 0.64357257 -0.23159936 0.0017191495
0.16176066 -0.14153928 0.16474842 -0.74856889 0.62383896 -0.22465441 0.0014028929
-0.16830614 -0.13318558 0.16445929 0.77804214 0.5919708 -0.21028796 0.0010903836
0.16698563 -0.13629414 0.16054682 -0.77167571 0.60563761 -0.19421569 0.0011767879
0.17057173 -0.13174707 0.16018422 -0.77788466 0.5992986 -0.18904139 0.0014622426
-0.17603174 -0.12392272 0.1622185 0.78581375 0.58716702 -0.19424652 0.0010443142
0.17473201 -0.12454638 0.16506422 -0.77553123 0.58787161 -0.23012654 0.0010922407
-0.18302602 -0.11378643 0.16509458 0.81213772 0.53988057 -0.22127211 0.0017509775
0.17991365 -0.11919563 0.16126487 -0.80048126 0.56557488 -0.19838041 0.001308808
0.18317445 -0.11324549 0.16613555 -0.81218076 0.53827351 -0.22499783 0.0017529983
-0.18769279 -0.1072273 0.16457087 0.84510314 0.48146808 -0.2323557 0.0022650536
0.18680698 -0.10698873 0.16892105 -0.84598172 0.46955901 -0.25264448 0.0024267707
-0.19264573 -0.095892876 0.16415749 0.89009243 0.40595561 -0.20720869 0.0012624349
0.19304769 -0.095579654 0.1629951 -0.88458002 0.40832958 -0.22535564 0.0012624651
-0.19673304 -0.085507356 0.16492939 0.89828533 0.3751415 -0.22880648 0.00098828552
0.19778353 -0.081918888 0.16648592 -0.89960074 0.36935094 -0.23302008 0.00066811306
-0.20109971 -0.074703276 0.16556318 0.89952564 0.35970098 -0.24792898 0.00081012602
-0.19809572 -0.079807892 0.16882172 0.8949284 0.36752316 -0.25304124 0.000895618
0.20101303 -0.073504947 0.16779284 -0.90395057 0.34611276 -0.25115612 0.0011198246
-0.20370327 -0.067466952 0.16698603 0.91388154 0.32434276 -0.24417681 0.0017959947
0.20401017 -0.066048726 0.16807294 -0.91859645 0.31142721 -0.24329743 0.001678678
-0.20832913 -0.056200411 0.16718023 0.93475354 0.26001728 -0.24212961 0.002624575
0.2094672 -0.055260103 0.16311303 -0.94116449 0.26488626 -0.20986812 0.0019476167
-0.21128428 -0.040935777 0.1635136 0.96403283 0.16282719 -0.21006666 0.0017950977
-0.20992671 -0.045086436 0.16716012 0.95158601 0.18026736 -0.24897356 0.0020527842
0.20915504 -0.045513034 0.16973229 -0.94913095 0.18344902 -0.25592348 0.0017093306
0.21062766 -0.045411568 0.16381063 -0.95700192 0.18347684 -0.22468568 0.0017850216
-0.21176948 -0.032778814 0.16607688 0.96343762 0.12987088 -0.23435345 0.0011526907
0.21151242 -0.036431134 0.16501087 -0.96270609 0.14644676 -0.22748695 0.0011724791
-0.21275765 -0.026922135 0.16519126 0.96665597 0.12173244 -0.2252942 0.0008005508
0.2137409 -0.024769964 0.16197854 -0.97300631 0.12616552 -0.19323792 0.0011305464
-0.21400674 -0.012880431 0.16762342 0.96617317 0.076020658 -0.24643523 0.0015756513
0.21485405 -0.012244339 0.16443507 -0.97176462 0.073181622 -0.22431663 0.0011684622
-0.21558096 -0.0066790897 0.16447727 0.97558415 0.043545179 -0.21526618 0.0016657746
0.21506034 -0.0048902472 0.16748822 -0.97119987 0.041520838 -0.23462056 0.0020302613
-0.2157377 0.0066294544 0.1638079 0.97563481 -0.051255368 -0.21332984 0.0016146282
0.21614118 0.0050809439 0.16287418 -0.97538537 -0.025658432 -0.21900913 0.0023348758
-0.21436922 0.0164901 0.16413632 0.97416872 -0.098723277 -0.20309831 0.0012707969
0.21457623 0.014858174 0.16417108 -0.97246599 -0.097765677 -0.21154614 0.0014368128
-0.21326594 0.024336418 0.16442421 0.97226769 -0.11835572 -0.20171124 0.0011327118
0.21281318 0.025036279 0.1657159 -0.96566081 -0.131869 -0.2238518 0.0011873301
-0.21170171 0.034125485 0.16548008 0.96626323 -0.1295073 -0.22262803 0.0015112333
0.211574 0.034886509 0.1658781 -0.95887202 -0.13591164 -0.24918391 0.0010897482
-0.2113103 0.044612333 0.16113147 0.96508259 -0.17059179 -0.19878171 0.001517217
0.20940776 0.049016416 0.16709794 -0.94990361 -0.20304398 -0.23760526 0.0018676263
0.21084523 0.044867154 0.16314493 -0.9603985 -0.18678813 -0.20674849 0.0016992067
-0.20880282 0.055448733 0.16577189 0.93630123 -0.25985715 -0.23625013 0.002202061
0.20780982 0.059163049 0.1643973 -0.9332841 -0.27983344 -0.22510885 0.0021449858
-0.20498489 0.065539293 0.16503392 0.92320782 -0.31957951 -0.21343923 0.0018034939
0.20488288 0.066109113 0.16461408 -0.92043436 -0.32422912 -0.21834862 0.0016522724
-0.20174339 0.074860841 0.16250236 0.90885603 -0.36589846 -0.20024751 0.0012811887
-0.19870022 0.078984693 0.1679384 0.8961693 -0.3687298 -0.24681754 0.0010585225
0.19883609 0.077796966 0.16913061 -0.89583665 -0.36715558 -0.25034648 0.0013093689
0.2021959 0.073321715 0.16330582 -0.91209733 -0.34959921 -0.21414673 0.0010321563
-0.19700021 0.084695078 0.16528031 0.89745927 -0.38042629 -0.22325498 0.00093903503
0.19726239 0.083711386 0.16576706 -0.90035874 -0.37049091 -0.22823372 0.00071464805
-0.19334009 0.094238341 0.16414253 0.89166856 -0.40054712 -0.21092457 0.0013090435
0.19253853 0.093707591 0.16814904 -0.88193715 -0.40557033 -0.24020742 0.0014688021
-0.18719423 0.10576688 0.16853943 0.84209305 -0.47442037 -0.25652421 0.0022130369
0.18817978 0.10512115 0.16620442 -0.85320133 -0.46868968 -0.22886099 0.002369158
0.19134553 0.10104665 0.1605473 -0.87180465 -0.44422287 -0.20645283 0.0021095162
-0.18542409 0.11119854 0.16359028 0.83132362 -0.51269501 -0.21458088 0.002219117
0.17994775 0.11956923 0.16006587 -0.79982662 -0.56802595 -0.19396859 0.0015775028
0.1836822 0.11292316 0.16499832 -0.81399077 -0.53254002 -0.23199148 0.0017728595
-0.17421044 0.12524739 0.16504872 0.78079957 -0.59119236 -0.20209768 0.0013519718
0.17412023 0.12531017 0.16526335 -0.78062391 -0.58555281 -0.21852706 0.00081195217
-0.17028305 0.13110985 0.16309234 0.78225845 -0.58924645 -0.20213951 0.0011301558
-0.1664649 0.13532956 0.16504027 0.77440065 -0.59653044 -0.21084358 0.0012065555
0.16681269 0.13480455 0.16518471 -0.76984841 -0.59949839 -0.21894106 0.0014352917
-0.16220947 0.1426663 0.16012451 0.75097269 -0.63381046 -0.18526833 0.0017881718
-0.1566738 0.14773299 0.16591068 0.72343695 -0.65264988 -0.22513801 0.0023058727
0.15712281 0.14925314 0.16024394 -0.72709775 -0.66147423 -0.18379505 0.002279304
0.16169581 0.14235219 0.16294372 -0.74699003 -0.62708813 -0.22083119 0.001676817
-0.15353733 0.15182108 0.16582128 0.70219702 -0.67472684 -0.22729525 0.002878732
-0.14654911 0.1584911 0.1628865 0.64011908 -0.74150097 -0.20105673 0.0021037341
0.14871691 0.15567903 0.16669048 -0.66219151 -0.70638853 -0.25003523 0.0024794468
0.15106231 0.15368205 0.16763264 -0.67015988 -0.69723439 -0.25445998 0.0024115616
-0.14259656 0.16106796 0.16459127 0.616301 -0.75530136 -0.22291902 0.0013695187
-0.13546236 0.16661468 0.16410691 0.60422015 -0.76663423 -0.21723282 0.00087249646
0.13634512 0.16592816 0.16435325 -0.60213697 -0.76805103 -0.2180109 0.0011099266
0.14098047 0.16191125 0.16607289 -0.61490548 -0.75551921 -0.22601339 0.0014325535
-0.12512797 0.17434849 0.16480213 0.58337504 -0.77901328 -0.22980848 0.00091892283
-0.11916869 0.17863548 0.16612113 0.55404925 -0.7980141 -0.23707147 0.0013805483
0.11847675 0.17885348 0.16715026 -0.55835795 -0.79435003 -0.2392582 0.0017289153
0.12661657 0.17315868 0.16497529 -0.59353554 -0.7769807 -0.20980097 0.001115613
0.13004977 0.17040914 0.16566011 -0.59616166 -0.77340251 -0.21549922 0.00098291342
-0.11358242 0.18340497 0.16421153 0.53432614 -0.81273431 -0.23228991 0.0018889118
-0.10370005 0.1888985 0.16613111 0.46271375 -0.85608602 -0.23024473 0.0025707586
0.107902 0.18780878 0.16358264 -0.48603326 -0.8480944 -0.21096794 0.0020714772
0.11628687 0.18142331 0.16387807 -0.54719371 -0.80807465 -0.21816148 0.0019084638
-0.10183097 0.1900087 0.1649535 0.45504695 -0.86287278 -0.21996087 0.0027430307
-0.093613289 0.19366807 0.16384146 0.3948558 -0.89311272 -0.21549615 0.0016007975
-0.084409334 0.1974851 0.16378549 0.37011623 -0.90284824 -0.21881254 0.0010196647
0.078793176 0.19907932 0.16676806 -0.37235454 -0.89790177 -0.23478608 0.0009935163
0.087304592 0.19598706 0.16485633 -0.37551546 -0.90041232 -0.21964921 0.00074116507
0.10062951 0.19139381 0.16109025 -0.43376428 -0.87634981 -0.20942672 0.0017713023
-0.072478108 0.20231573 0.16427679 0.35732132 -0.90456241 -0.23256892 0.00098081888
-0.065031737 0.20510864 0.16550922 0.30765152 -0.92046726 -0.24101962 0.0020913198
-0.055328291 0.20817471 0.16752942 0.24329121 -0.93985474 -0.23975477 0.0019564861
0.054519463 0.2092005 0.16459341 -0.2641134 -0.93744391 -0.22681037 0.0020705836
0.06656111 0.20441145 0.16571012 -0.33358184 -0.91316342 -0.23421298 0.0012125794
0.07283175 0.20149082 0.16711186 -0.34998742 -0.90411764 -0.24511257 0.0011168284
-0.049436551 0.21042353 0.16230609 0.20686738 -0.95622218 -0.20699018 0.0019670667
-0.035192721 0.21145704 0.16582862 0.13753791 -0.96293271 -0.23204294 0.001521437
-0.024493763 0.21310399 0.16480699 0.1166572 -0.96789163 -0.22265857 0.0013461745
-0.01077843 0.2146951 0.16607265 0.073429495 -0.97087806 -0.2280436 0.0017901317
-0.0040344917 0.21612635 0.16358754 0.04332367 -0.97557718 -0.2153423 0.0024621959
0.0053707249 0.21529368 0.16631879 -0.022719705 -0.97053707 -0.23987816 0.0027185767
0.01439698 0.2150102 0.16241619 -0.0988409 -0.97447067 -0.20158759 0.0012816279
0.03571533 0.2123493 0.16174835 -0.13438265 -0.97017491 -0.20174724 0.0013239766
0.044825297 0.21102494 0.16233228 -0.19713253 -0.95953053 -0.20109662 0.002194806
-0.024834543 -0.21040854 0.17481425 0.12260435 0.94492793 -0.30344585 0.0012241912
-0.016866662 -0.2115384 0.17451881 0.1011022 0.94761974 -0.30297723 0.0011314319
-0.008752997 -0.21262744 0.17441833 0.062284764 0.95392668 -0.29350373 0.0016382167
0.0044489978 -0.21292214 0.17533661 -0.0019631165 0.954328 -0.29875436 0.0019183825
0.014417656 -0.21203008 0.17411649 -0.091557361 0.95413089 -0.28504643 0.0015951215
0.023110399 -0.21065278 0.17484134 -0.1262548 0.94586718 -0.29899001 0.00092525984
-0.065723151 -0.20050335 0.17936888 0.32411972 0.88672489 -0.32964426 0.0011894136
-0.055181269 -0.20626308 0.17439985 0.25506634 0.92236048 -0.29015917 0.0020798224
-0.045007341 -0.20739746 0.17600876 0.17836441 0.93500787 -0.30650681 0.0012261431
-0.035685752 -0.20837331 0.17681293 0.13644594 0.94111431 -0.30933216 0.0010125355
-0.022013506 -0.20958643 0.17856373 0.11335135 0.94210279 -0.31558469 0.00088291941
0.025628543 -0.20918524 0.17834646 -0.12393047 0.9405297 -0.31629899 0.0012230409
0.035546724 -0.20823507 0.17717031 -0.13456719 0.93727398 -0.32157308 0.0011949632
0.044051416 -0.20827535 0.17350867 -0.16979219 0.94309282 -0.28591356 0.0017384078
0.051202875 -0.20712069 0.17423421 -0.20696516 0.93173754 -0.29838002 0.001941644
0.065588474 -0.20262735 0.17337289 -0.32695433 0.9036203 -0.27671498 0.0010633316
-0.090571478 -0.19321853 0.17022468 0.3859773 0.88619989 -0.25626418 0.001368564
-0.084850982 -0.19369952 0.17613994 0.36755285 0.8814801 -0.29647544 0.0015532261
-0.076288447 -0.19734284 0.17578365 0.35776672 0.88297516 -0.30390424 0.0011824105
0.072687246 -0.19914167 0.17518076 -0.34800166 0.89177555 -0.28919074 0.0007578627
0.083831884 -0.19401403 0.17657942 -0.36744341 0.88121408 -0.29740041 0.0010394858
0.091270447 -0.19261104 0.1712898 -0.38506576 0.88349879 -0.26674771 0.0011558656
-0.10599281 -0.18526822 0.17461872 0.48526335 0.82315218 -0.29485586 0.0022004549
-0.09905909 -0.18667588 0.17942104 0.43396211 0.84206349 -0.32032156 0.0018879431
0.099486962 -0.1864827 0.17946371 -0.42347044 0.84905171 -0.31588599 0.0019039951
0.10655466 -0.18473545 0.1756037 -0.47685593 0.8242206 -0.30539933 0.0025189479
0.110682 -0.18073031 0.17828433 -0.50568086 0.80361688 -0.31382596 0.0023377412
-0.12252706 -0.17277394 0.1755452 0.56659245 0.77113438 -0.29038733 0.00077951734
-0.11383711 -0.17851052 0.17781729 0.52365226 0.79771239 -0.29907086 0.0018678765
0.11385275 -0.17926919 0.17586923 -0.52698469 0.79550231 -0.29910398 0.0022998534
0.1239385 -0.17248526 0.17333885 -0.57701808 0.76666325 -0.28156275 0.0012596955
-0.14013171 -0.16035384 0.17257145 0.62474197 0.73347789 -0.26778272 0.0013982352
-0.13313916 -0.16448048 0.17576452 0.5835256 0.75348175 -0.30292431 0.00098415487
-0.12772614 -0.16754048 0.17854422 0.57733506 0.7512297 -0.31990343 0.001252956
0.12783246 -0.16839528 0.17636602 -0.58325833 0.75703442 -0.29446304 0.0011137067
0.13403802 -0.16397096 0.17548771 -0.58926308 0.75357723 -0.29135951 0.0015117361
0.1402383 -0.16059408 0.17164372 -0.61799681 0.74062902 -0.26372072 0.0018220516
-0.14581332 -0.15518434 0.17461395 0.64162254 0.70748562 -0.2962845 0.0019788404
0.13988468 -0.15852743 0.1778073 -0.60548073 0.73241562 -0.31138492 0.0017545922
0.14577162 -0.15567288 0.17343065 -0.64488041 0.71008915 -0.28267053 0.0023431759
0.15104958 -0.15166126 0.17313537 -0.67691302 0.68450159 -0.27064058 0.002311416
-0.16014864 -0.14072694 0.17184761 0.74108005 0.60939986 -0.28183702 0.0013579752
-0.15422094 -0.14738271 0.17420928 0.70501429 0.65291286 -0.27687481 0.0022381125
0.15430722 -0.14660345 0.17539209 -0.70493972 0.6555683 -0.27072167 0.00225863
-0.16514242 -0.13213857 0.17603827 0.75532538 0.58353144 -0.2982862 0.00090965285
0.15846662 -0.13912681 0.17930083 -0.73375112 0.60376692 -0.31156838 0.0019889716
0.1642046 -0.1346226 0.17362809 -0.7551927 0.59889966 -0.26646429 0.0011807141
-0.1719005 -0.12499632 0.17264321 0.76794082 0.5802415 -0.27126867 0.0011347795
0.16819277 -0.12813412 0.1759766 -0.75564188 0.58208925 -0.30029586 0.0010695349
0.17192462 -0.12261998 0.17745984 -0.7550832 0.5791198 -0.30735919 0.0011420683
-0.18294172 -0.1114492 0.17090543 0.82038248 0.51114339 -0.25632992 0.0021137898
-0.17496762 -0.11895147 0.17692916 0.76773423 0.55754066 -0.31580463 0.0012915566
0.17527187 -0.11904882 0.17586948 -0.76848662 0.56095207 -0.30783278 0.0016032148
0.1808047 -0.1115898 0.1764003 -0.80059898 0.51998097 -0.29775992 0.0022780788
-0.18672676 -0.10366591 0.17376642 0.84373945 0.45378956 -0.28666842 0.002229203
0.18641429 -0.10429306 0.17383003 -0.84714788 0.45569372 -0.27328321 0.0025781528
-0.19147021 -0.093095973 0.17258072 0.87388307 0.39857933 -0.27832168 0.0012311868
-0.18900706 -0.096844569 0.17536584 0.8610304 0.41667062 -0.29156846 0.001616707
0.18901096 -0.095019057 0.17762916 -0.86157757 0.3951855 -0.31861031 0.0017756051
0.19029123 -0.092185736 0.17734027 -0.86581284 0.38566887 -0.31879106 0.0014872774
-0.19372401 -0.085454859 0.1753483 0.87863702 0.37014255 -0.30164781 0.0010826392
-0.19883938 -0.074035957 0.17434292 0.89110398 0.3559882 -0.28143573 0.0014923805
0.19814244 -0.074572682 0.1758357 -0.88602018 0.36789426 -0.28217357 0.0012145381
-0.20305234 -0.064136103 0.17396641 0.91011047 0.30532321 -0.28013679 0.0021863489
0.20388922 -0.061783068 0.17442682 -0.91614455 0.28960821 -0.27713928 0.0020908637
-0.20652425 -0.05286352 0.17469449 0.92959684 0.23105122 -0.28716704 0.0024115294
-0.20728688 -0.049295213 0.17466263 0.92997032 0.21609263 -0.29742092 0.0020849302
0.20748988 -0.04601261 0.17521167 -0.93513435 0.18821549 -0.30016443 0.0016135533
-0.20994186 -0.036303766 0.17126462 0.94948161 0.14266075 -0.27952209 0.0013251181
0.20911331 -0.037194703 0.1738137 -0.94777215 0.15165016 -0.28058913 0.001328471
-0.21081375 -0.023899443 0.1740025 0.94867527 0.1129661 -0.29538786 0.00072301069
0.20922916 -0.026695669 0.17781 -0.94163013 0.12760775 -0.3115266 0.0013095118
0.21079451 -0.024605142 0.17360473 -0.95097226 0.12675188 -0.28210935 0.0015601555
-0.21190195 -0.014856566 0.17409769 0.94934928 0.095606215 -0.29932475 0.0013105765
0.20992954 -0.017820427 0.17917 -0.94122499 0.10011473 -0.32260278 0.0014028912
-0.21290822 -0.0045152665 0.17538641 0.95461529 0.030165114 -0.29631019 0.0021812026
0.21292765 -0.0045088972 0.17555058 -0.9577778 0.031845529 -0.28574035 0.0025206315
-0.21279919 0.0055459528 0.17523892 0.95356566 -0.039037634 -0.29864448 0.0020007195
0.21380903 0.0074933781 0.17099583 -0.96320313 -0.051270165 -0.26383922 0.0020036225
-0.21168496 0.016883688 0.17403321 0.94529986 -0.10320248 -0.30944693 0.001391279
-0.20967764 0.018988108 0.17945646 0.93943059 -0.11346298 -0.32341355 0.001520559
0.21227865 0.011289668 0.17470296 -0.95417231 -0.074987561 -0.28971037 0.0018900982
-0.21090575 0.024405375 0.17341655 0.94974685 -0.126306 -0.28640485 0.0014150686
-0.20939082 0.025247434 0.17789543 0.93745375 -0.12502511 -0.32488325 0.0013063253
0.20826188 0.029988429 0.17936139 -0.93546426 -0.12540446 -0.33042473 0.001281878
0.21074779 0.025237506 0.17360459 -0.95151561 -0.12086886 -0.28285816 0.0013067153
-0.20899373 0.033643249 0.17583776 0.94237977 -0.13353831 -0.30673742 0.00094240898
0.20802563 0.035575856 0.17791033 -0.9378556 -0.14226796 -0.31652302 0.0010033521
0.21063247 0.032008093 0.1708132 -0.95581514 -0.13663317 -0.26028603 0.00110541
-0.20704138 0.04289972 0.17796955 0.93268615 -0.17398979 -0.31594965 0.0014376122
0.20793736 0.044325728 0.17449583 -0.939475 -0.1737875 -0.29527044 0.0017645665
-0.20710663 0.054250736 0.17241271 0.93050402 -0.23980914 -0.2768642 0.0020317307
0.20633847 0.054838449 0.17453206 -0.92371213 -0.24323054 -0.29596409 0.002371582
-0.2030777 0.06372162 0.17438582 0.90729582 -0.31404218 -0.27962789 0.0016664016
-0.19916688 0.069699362 0.17852865 0.89009362 -0.33339521 -0.3107748 0.0010728741
0.19953391 0.068514064 0.17886305 -0.8867594 -0.32757363 -0.32611841 0.0015530447
0.20451356 0.061322585 0.17297336 -0.91566789 -0.28835559 -0.28000596 0.0022043725
-0.20007581 0.07177975 0.17333095 0.89438355 -0.34655553 -0.28280264 0.0015011407
-0.19782846 0.074446104 0.17674114 0.88306999 -0.3613143 -0.2993983 0.001097766
0.19795744 0.076311454 0.17396462 -0.88716859 -0.36702082 -0.27969193 0.0013721568
-0.1941448 0.085387304 0.17412838 0.88278186 -0.37760773 -0.27947906 0.0013081843
0.19531162 0.081737921 0.17546429 -0.88235295 -0.37064356 -0.28995994 0.0014978783
-0.18926555 0.097298682 0.17380303 0.86570323 -0.41171131 -0.28469598 0.0015769141
0.18825185 0.096420631 0.17811245 -0.84847391 -0.41872022 -0.3236748 0.0019226409
0.19087961 0.0963744 0.17000687 -0.87406045 -0.41339198 -0.25519681 0.0017643002
-0.18548143 0.10457988 0.17608473 0.83116412 -0.46360406 -0.30698103 0.0021964463
0.18540978 0.10652161 0.17354941 -0.82881242 -0.47892568 -0.2893098 0.0021299336
-0.18150866 0.11221808 0.17333166 0.8067317 -0.52168769 -0.27753547 0.0020553633
-0.17764376 0.11656624 0.17462881 0.78973246 -0.54630888 -0.27905092 0.0015878601
0.17649297 0.11878634 0.17326038 -0.78816509 -0.55306447 -0.27002886 0.0013132718
0.1808261 0.11074953 0.1779411 -0.80473399 -0.50678593 -0.30914599 0.0017716519
-0.17287529 0.12431021 0.17147428 0.77162248 -0.57914978 -0.26302904 0.0012325307
-0.16942146 0.12721267 0.17500499 0.75887239 -0.57863373 -0.29882383 0.00077421643
0.16738555 0.12854466 0.17744291 -0.75115705 -0.58540022 -0.30507314 0.0007557447
0.17453822 0.12174708 0.17234762 -0.78370273 -0.56432891 -0.25950536 0.001268938
-0.1639657 0.13524395 0.17289129 0.75454605 -0.59558105 -0.27557844 0.0012791513
0.16391155 0.13417573 0.17534816 -0.74692422 -0.59183282 -0.3030481 0.00070173579
-0.15450175 0.14592254 0.17610145 0.70516169 -0.64053756 -0.30407009 0.002206316
0.15469417 0.14601728 0.17562337 -0.7003001 -0.64298373 -0.31008336 0.0018492546
-0.15104681 0.1524854 0.17111184 0.67578852 -0.68664527 -0.26800781 0.0028834424
-0.14646639 0.154295 0.17570981 0.65096843 -0.69860327 -0.29697409 0.0025942174
0.14530274 0.15597685 0.17368844 -0.64345866 -0.71073037 -0.2842944 0.0017889729
-0.14085418 0.1603754 0.17091358 0.61492115 -0.74464089 -0.25958025 0.001596833
-0.13222727 0.16671041 0.17173281 0.58451247 -0.76540762 -0.2692517 0.0014351334
-0.12733431 0.16993904 0.17324643 0.58049786 -0.76917821 -0.26718366 0.0013372788
0.12917069 0.16796024 0.17480347 -0.58200294 -0.75596303 -0.29965371 0.0013546416
0.13460636 0.1640387 0.17416728 -0.59156191 -0.75043732 -0.29478517 0.0014270485
-0.12307259 0.17264046 0.17459585 0.56458008 -0.77516139 -0.28350314 0.00083510327
-0.11605361 0.17753685 0.17592469 0.54599452 -0.78452772 -0.29394946 0.001250463
0.11670188 0.17684506 0.17657758 -0.53567213 -0.78709626 -0.30583462 0.0017848586
0.12220279 0.17270178 0.17639682 -0.57277799 -0.75875759 -0.31018096 0.0014391774
-0.10349071 0.18652764 0.17471457 0.45205092 -0.84020382 -0.299512 0.0021697991
-0.097930335 0.18800682 0.17708309 0.42062354 -0.85051757 -0.31574625 0.0018641588
0.096510664 0.18895856 0.17609781 -0.41148955 -0.86054403 -0.30023381 0.0015261609
0.10552261 0.18487684 0.17581086 -0.47076443 -0.8269093 -0.30757433 0.002195888
0.11207217 0.18089178 0.17519835 -0.51890188 -0.8015238 -0.29715395 0.002042304
-0.096125275 0.19065329 0.17111209 0.40953442 -0.87232071 -0.26709202 0.0018091095
-0.084877111 0.19451162 0.17365643 0.366254 -0.89054841 -0.26978049 0.0016175718
-0.078326017 0.197642 0.17239906 0.36367121 -0.8922621 -0.26760328 0.0015434766
0.074219547 0.19831604 0.1756455 -0.35760239 -0.88707179 -0.29193175 0.0016999586
0.085463934 0.19327828 0.17664865 -0.37300351 -0.87654251 -0.3042064 0.0016326424
0.091157198 0.19161898 0.17477213 -0.39691103 -0.8742708 -0.27948537 0.0015155745
-0.071927696 0.20066631 0.17114541 0.35092279 -0.90067536 -0.25619748 0.0013509205
-0.064210922 0.20262721 0.17500553 0.286533 -0.91018564 -0.29910001 0.0020178864
-0.05349464 0.20587945 0.17637819 0.23421818 -0.92392379 -0.30250075 0.0021497835
-0.042984936 0.20794879 0.1750377 0.16927333 -0.94131315 -0.29202098 0.0015488404
-0.036504716 0.20950851 0.17264445 0.14877093 -0.95140451 -0.26962307 0.0011797344
-0.019134035 0.20992528 0.1786806 0.11171111 -0.94248927 -0.31501511 0.0011893081
0.038050786 0.20862129 0.17493938 -0.15166515 -0.94081753 -0.30308428 0.0011338611
0.045932796 0.20749718 0.17529513 -0.1927429 -0.93456709 -0.29905593 0.001880995
0.055390637 0.20619744 0.17415774 -0.25869617 -0.92181182 -0.28868541 0.0023056155
0.065999284 0.2006498 0.17866206 -0.31161866 -0.89500117 -0.31916547 0.0017372768
-0.036649935 0.21005519 0.17069203 0.14877327 -0.9514007 -0.26963544 0.0011950317
-0.021127911 0.21119699 0.17388794 0.11560332 -0.95121235 -0.28606102 0.0010038489
-0.014272285 0.21176417 0.17499226 0.08806967 -0.94886708 -0.30314186 0.001514135
-0.0070168115 0.21330515 0.17303471 0.051659502 -0.9590947 -0.27833182 0.0020766796
0.0037875292 0.21318009 0.17476389 -0.021153884 -0.95735097 -0.28815198 0.0025610593
0.015566004 0.21073122 0.17770348 -0.086106315 -0.95060968 -0.29820621 0.0013920354
0.025329817 0.21037409 0.17490543 -0.1261504 -0.947335 -0.29435101 0.0006805915
0.0037491508 -0.21078445 0.18206978 -0.010701301 0.93705374 -0.34902123 0.001958105
0.014435634 -0.21008587 0.18001136 -0.0918217 0.94221157 -0.32218963 0.0018121079
-0.063231811 -0.20024082 0.18287414 0.31216261 0.88349193 -0.34928003 0.0016273707
-0.054393116 -0.20228094 0.18546721 0.26272753 0.891307 -0.36952132 0.0024222643
-0.044253569 -0.20301573 0.18829203 0.16566306 0.90607023 -0.38934869 0.0016740293
-0.033189069 -0.20595041 0.18462472 0.126992 0.9278909 -0.35055882 0.00097339746
-0.021881023 -0.20718439 0.18520215 0.1060228 0.92439687 -0.36640075 0.00090200658
-0.016920647 -0.20774896 0.18549642 0.098537363 0.92421621 -0.3689374 0.00099440943
-0.0085235657 -0.20742361 0.18900871 0.061194684 0.92071098 -0.38541743 0.0016871591
0.0042081885 -0.20846634 0.18785971 -0.020150214 0.92976344 -0.36760563 0.0017829058
0.01504961 -0.20732276 0.18708466 -0.093559325 0.91652751 -0.38887531 0.0011499565
0.025985079 -0.20643559 0.18576382 -0.11497036 0.91833091 -0.37874821 0.00094249356
0.035838712 -0.20573634 0.18421799 -0.12702483 0.9293617 -0.34662887 0.0012435683
0.045521736 -0.20465545 0.1837865 -0.18390712 0.92159796 -0.3418119 0.0017679658
0.054185778 -0.20272478 0.18504903 -0.24711427 0.89748621 -0.36531234 0.0021651422
-0.083988667 -0.19154897 0.18312883 0.3601357 0.86805111 -0.34174481 0.0011657219
-0.078237265 -0.19377626 0.18350694 0.3498117 0.86578578 -0.35783637 0.00064265373
-0.065689862 -0.19869214 0.183983 0.32538748 0.87796831 -0.35113341 0.0012203613
0.066471674 -0.19738324 0.18648285 -0.31498116 0.87124723 -0.37645072 0.0014878958
0.075839557 -0.19372456 0.18593435 -0.35063121 0.85724974 -0.37706843 0.0013311397
0.084402144 -0.19127788 0.1833192 -0.36754519 0.85782832 -0.35922292 0.0009427084
-0.10411728 -0.18105625 0.1881384 0.46280783 0.80677742 -0.3673133 0.0019590806
-0.09711118 -0.18527056 0.18497136 0.42350268 0.8293947 -0.36434865 0.0017945896
-0.088817537 -0.18778534 0.1872547 0.37656724 0.84922171 -0.37016165 0.001093766
0.093102254 -0.18662299 0.18576105 -0.3929998 0.8452366 -0.36211354 0.0012193703
0.10797089 -0.18104103 0.18239917 -0.4794063 0.80956489 -0.33878344 0.0022566335
-0.11541424 -0.17336734 0.18631046 0.53502208 0.75958508 -0.36984026 0.0011983336
0.10701965 -0.17809528 0.18978916 -0.4674415 0.78628623 -0.40404519 0.0022984007
0.11462542 -0.17625323 0.18165873 -0.53713286 0.77373368 -0.33589345 0.0019412715
-0.12562852 -0.16606672 0.1852957 0.57035536 0.74051809 -0.35542595 0.0012766006
0.11876091 -0.16945882 0.1890666 -0.5510869 0.73280495 -0.39912421 0.0012983171
