# .PCD v0.7 - Point Cloud Data file format
VERSION 0.7
FIELDS x y z normal_x normal_y normal_z curvature
SIZE 4 4 4 4 4 4 4
TYPE F F F F F F F
COUNT 1 1 1 1 1 1 1
WIDTH 560
HEIGHT 1
VIEWPOINT 0 0 0 1 0 0 0
POINTS 560
DATA ascii
0.083314367 0.17247158 -0.34362713 -0.43146896 -0.90212685 -0.0012519431 0.0011490742
-0.064044654 0.18045337 -0.34174016 0.34566399 -0.93835568 -0.0022659828 0.00072655088
-0.054476365 0.1844167 -0.34484354 0.2845403 -0.9586485 0.0054589948 0.0016005838
-0.042646147 0.18726163 -0.3450492 0.22088 -0.97524077 0.010834737 0.0016293228
-0.036676273 0.18804757 -0.34197879 0.18202811 -0.98328519 0.0040033269 0.00097006402
-0.027306598 0.18928111 -0.34710407 0.14333013 -0.98967367 0.0016168109 0.00022385636
0.024151234 0.18969651 -0.34387633 -0.12424791 -0.99225104 -0.00059110392 0.00013020023
0.036829941 0.18802735 -0.34584236 -0.18463837 -0.98280644 0.00046333583 0.0010432933
0.046740364 0.18672261 -0.34599531 -0.22754109 -0.97376114 0.0037680273 0.001851008
0.055374481 0.18404469 -0.34518066 -0.29243141 -0.95628244 -0.0027969815 0.0016572825
0.062516287 0.18108645 -0.34290427 -0.34194994 -0.93971002 -0.0039024483 0.0010883394
-0.016493032 0.19070473 -0.34701988 0.10618478 -0.99434489 0.0017540873 0.00039092373
-0.0052123177 0.19218986 -0.34443623 0.026392248 -0.99963892 0.0050481423 0.002181445
0.004294903 0.19231063 -0.34459943 -0.037790846 -0.99928492 -0.0011879265 0.0014217674
0.013832364 0.19105501 -0.34679574 -0.09082292 -0.99586451 0.0022590319 0.00080958725
0.020635229 0.1901594 -0.34803748 -0.11527168 -0.99333376 -0.00064617203 0.00023517068
-0.017135205 -0.1906202 -0.33586055 0.10665684 0.9942947 0.0015428766 0.00036683166
-0.0068662115 -0.19197214 -0.33294499 0.05606053 0.99842262 0.003060793 0.0016139993
0.0063072531 -0.19204572 -0.33686519 -0.04468406 0.9989562 -0.0094756251 0.0017654464
0.01583118 -0.19079188 -0.33620456 -0.10944407 0.99399257 0.00085034355 0.00035077534
-0.062266473 -0.18118992 -0.33332795 0.34729233 0.9377538 0.0024041759 0.00082866434
-0.05648021 -0.18358667 -0.33581877 0.30807799 0.95135957 -0.0017214257 0.0015436135
-0.043420665 -0.18715966 -0.33416936 0.21291399 0.97706777 -0.0024823365 0.0018159712
-0.035663746 -0.18818086 -0.33801883 0.16727826 0.98589998 -0.0043707914 0.00074810971
-0.024996135 -0.1895853 -0.33612052 0.13052525 0.99144495 3.4010351e-05 0
0.027953777 -0.18919592 -0.33325273 -0.14367451 0.98962432 -0.0011939859 0.00023356678
0.032683652 -0.1885732 -0.33526286 -0.152376 0.98832256 -0.00030427595 0.000330957
0.043924753 -0.1870933 -0.33808485 -0.2167338 0.97623074 -8.9248588e-06 0.0015919837
0.054582238 -0.18437284 -0.33013195 -0.28362337 0.95893353 0.0020807167 0.001782116
0.062110584 -0.18125449 -0.33672187 -0.34409842 0.93893355 0.00033354529 0.00076089101
-0.083687454 -0.17231707 -0.33445153 0.4315443 0.90208966 0.0019190221 0.0013342676
-0.072399475 -0.17699268 -0.33596593 0.3859753 0.92250896 -0.00050450745 2.3864548e-05
-0.067664027 -0.17895418 -0.33757663 0.36238411 0.93202329 -0.0032138892 0.00033550322
0.068136945 -0.17875829 -0.33374956 -0.36894327 0.9294436 0.0039155385 0.00027242518
0.074506745 -0.17611982 -0.33604574 -0.38576776 0.92259538 -0.00097213994 2.1959213e-05
0.08448723 -0.17198579 -0.33509848 -0.42894247 0.9033317 0.00046403724 0.0011692655
-0.1033067 -0.16176508 -0.33688205 0.559596 0.82875824 -0.0034772637 0.0013958723
-0.096600063 -0.16640982 -0.33320948 0.51628458 0.85641646 -0.0010789969 0.0022206039
0.095214993 -0.16738054 -0.33428454 -0.49345994 0.86972189 -0.009001418 0.0021537573
0.1025034 -0.16238147 -0.33456397 -0.55652589 0.83081001 -0.0058025643 0.0012822952
-0.11549746 -0.15241078 -0.33780491 0.60737598 0.79441386 -0.0010116155 7.136137e-05
-0.1083196 -0.15791854 -0.33470178 0.5728249 0.81959063 -0.011952021 0.0010853537
0.10864399 -0.15766963 -0.33854029 -0.57898605 0.81533426 0.0022793554 0.00092177477
0.11373458 -0.15376349 -0.33353609 -0.60595745 0.79549634 0.0010511513 4.4693053e-05
-0.13148269 -0.14014488 -0.3309356 0.66532397 0.74654663 -0.0034913535 0.0017855247
-0.12440697 -0.14557427 -0.33192602 0.63742167 0.77049166 -0.0060169282 0.0011418842
-0.11932218 -0.14947598 -0.33826208 0.60993564 0.79245019 -0.0010754787 2.4286179e-05
0.1199369 -0.1490043 -0.33909357 -0.6254943 0.78022778 -0.0011735642 0.0003417207
0.12502916 -0.14509687 -0.33314404 -0.64023679 0.76817763 0.0002491363 0.00084295124
-0.13627231 -0.13590583 -0.33578849 0.70898497 0.70517081 -0.008630068 0.0026562884
0.13646908 -0.13594982 -0.33796439 -0.70895576 0.70521289 -0.0075198715 0.0025963127
0.14075303 -0.13069016 -0.33624256 -0.74803871 0.66362244 -0.0065841628 0.0016072348
-0.14455542 -0.12573478 -0.33544666 0.75846875 0.65170538 0.0022622345 0.0011750417
0.1446396 -0.12562509 -0.33542442 -0.75995255 0.64997798 -0.00086968427 0.00127141
-0.15304893 -0.11466581 -0.33464319 0.79770917 0.60303897 -0.0020304406 0.00019133075
0.15395786 -0.11348128 -0.33716804 -0.7957781 0.60558617 -0.0015892538 6.2950894e-05
-0.1637941 -0.10066242 -0.33391407 0.84516323 0.53449821 0.0032646989 0.0018484893
-0.15907823 -0.10680828 -0.33655891 0.82091874 0.5710206 -0.0052754693 0.0012594705
0.16307634 -0.10159782 -0.333323 -0.84051031 0.54179543 0.00043330266 0.0016467288
-0.16689786 -0.095843673 -0.33572394 0.86554015 0.50082701 0.0035474831 0.0021171118
0.16669679 -0.09674263 -0.33545536 -0.86569715 0.5004974 -0.0084187333 0.0019595744
-0.17172785 -0.08510989 -0.33196977 0.90605289 0.4231576 -0.0024100752 0.0010677241
0.17178887 -0.084962621 -0.33256087 -0.90616834 0.42291102 -0.0022822917 0.0010814787
-0.17568731 -0.075550914 -0.33503219 0.92079002 0.39005861 -6.4694919e-05 0.00010213043
0.17645898 -0.073687956 -0.33219033 -0.92230999 0.3864505 -0.00055267476 1.0248456e-05
-0.18116328 -0.062330794 -0.33504915 0.94074267 0.33909774 -0.0039879954 0.0010866683
-0.17914174 -0.067211211 -0.33436802 0.92998803 0.36758599 -0.0017092641 0.00025654092
0.17873788 -0.068186231 -0.33319208 -0.93013775 0.36719728 -0.003150278 0.00032805925
0.18119071 -0.062264562 -0.33474439 -0.93884045 0.34434617 0.0020729548 0.00090095075
-0.18384227 -0.055863164 -0.33617169 0.95269132 0.30392656 0.002808145 0.0015579883
0.18420544 -0.054986365 -0.33722857 -0.95874101 0.28421855 -0.0059678014 0.0017757756
-0.18682878 -0.045933936 -0.33553621 0.97098172 0.23914209 0.0023596671 0.0016161082
0.18686527 -0.045656752 -0.33714998 -0.97356117 0.22825658 -0.0088078771 0.0018146778
-0.18854758 -0.03287825 -0.33897436 0.98870653 0.14984253 -0.0025766657 0.00031994359
0.18876866 -0.03119901 -0.33246976 -0.98797178 0.15463297 -0.00063244638 0.00039834896
-0.18957478 -0.025075853 -0.33151054 0.99144435 0.13053006 4.863889e-06 0
0.18933634 -0.026887069 -0.33586845 -0.99028808 0.13903098 -0.00011238459 0.00016573603
0.19003114 -0.02160948 -0.33248329 -0.99346137 0.11416116 0.0013084118 0.00022572928
-0.19107573 -0.013674989 -0.33184794 0.99697524 0.077693112 -0.0020121781 0.0010588694
0.19081235 -0.01567575 -0.3351872 -0.99422359 0.10728383 0.0031044486 0.00037655752
-0.1918911 -0.0074817557 -0.33365673 0.99932808 0.036288824 0.0051571629 0.0023146973
0.19208692 -0.0059943097 -0.33374634 -0.99912435 0.041116584 0.0077407937 0.0021197393
-0.19186145 0.0077070356 -0.33482695 0.99890751 -0.046522193 -0.0044196942 0.0015827911
0.19211252 0.0057998933 -0.33269519 -0.99889189 -0.046071492 0.0096152695 0.0017590995
-0.19102883 0.014031422 -0.33538038 0.99614966 -0.087619968 -0.0029336722 0.00084674102
0.19073479 0.016264809 -0.3339006 -0.9933942 -0.114751 -0.00030775144 0.00020207191
-0.19006988 0.021315193 -0.33644372 0.9933033 -0.11553344 0.00075693277 0.00030824976
-0.1896477 0.024521966 -0.33785629 0.99144405 -0.13053218 1.370874e-05 1.0584809e-05
0.18945843 0.025959685 -0.33791661 -0.99100178 -0.13384362 0.0011615191 8.7061766e-05
0.19012678 0.020883186 -0.33725661 -0.99284112 -0.11942938 -0.0017466233 0.00016608395
-0.18812649 0.036076732 -0.33562928 0.98538178 -0.17020883 -0.0071885297 0.00084277859
0.18827793 0.03492653 -0.33650866 -0.98534244 -0.17058553 -0.00095888478 0.0010017384
-0.18695532 0.044972725 -0.33406052 0.9761129 -0.21726368 -0.00035498326 0.0018812584
0.18668893 0.046996128 -0.33351678 -0.97260058 -0.23243476 0.0047108871 0.0020389028
-0.18404652 0.055370033 -0.33536217 0.94955844 -0.31355757 0.0045170779 0.001616945
0.18393019 0.05565092 -0.33700365 -0.95069832 -0.31011498 0.001138819 0.0014005818
-0.17948808 0.066375069 -0.3359237 0.93010014 -0.36726791 0.0052894587 0.00023531169
0.17856674 0.068599388 -0.33558685 -0.92783082 -0.37300009 -0.00095643039 0.00013418573
0.18128793 0.062029872 -0.3346087 -0.94374955 -0.33061147 -0.0057368721 0.0012768507
-0.17610687 0.074538015 -0.33265752 0.9234488 -0.3837207 -0.00085473026 7.2488483e-06
0.17562281 0.075706653 -0.33502617 -0.92361265 -0.3833271 0.00010700838 2.2628974e-06
-0.17266828 0.082839519 -0.3358455 0.90916115 -0.41644263 -0.0012204413 0.00095373736
0.16977946 0.089813724 -0.33248204 -0.89361626 -0.4487938 0.0058469721 0.001583048
0.17215958 0.084067583 -0.33477518 -0.90719944 -0.42069554 -0.0021062526 0.0011400434
-0.16800635 0.094094418 -0.33232543 0.86692315 -0.49843904 -0.0016883651 0.0020203094
0.16777928 0.094561197 -0.33368975 -0.87141246 -0.49047035 0.0088988915 0.0025190485
-0.16239348 0.10248776 -0.3353529 0.83611369 -0.54853916 0.0043149772 0.0014475288
-0.15919527 0.10665573 -0.33730465 0.82491356 -0.56523699 0.0049804728 0.0012766151
0.15894926 0.10697635 -0.33334601 -0.81901795 -0.57375556 0.0037649546 0.0010648855
0.1616928 0.10340089 -0.33400914 -0.82708794 -0.56206435 0.0030384576 0.001254816
-0.15389185 0.11356729 -0.33534557 0.79859847 -0.60186261 -0.0013994523 0.00024496042
0.15148255 0.11670717 -0.33601561 -0.79302204 -0.60919064 -0.0016331594 8.560533e-05
-0.14530769 0.1247544 -0.33178139 0.76629913 -0.64247793 0.0027831818 0.000903807
0.14452069 0.12578005 -0.33294451 -0.76812565 -0.64029425 0.0024921396 0.0010323491
-0.13581815 0.13614291 -0.3369894 0.70616394 -0.70804834 -0.0002700855 0.002301405
0.13366276 0.13837141 -0.33445609 -0.69452775 -0.71946478 0.0012672651 0.0020749336
0.14117923 0.13013472 -0.33522937 -0.74690562 -0.66491133 0.0049907044 0.0017073589
-0.12484016 0.14524189 -0.33460563 0.64085662 -0.76765192 -0.0036544292 0.0011149001
0.11923729 0.14954111 -0.33369762 -0.61783433 -0.78630751 0.0011337707 0.00025196161
0.12545927 0.14476681 -0.33615294 -0.63807738 -0.76997197 -0.00062924309 0.00070167868
-0.11581758 0.15216514 -0.33730623 0.60579163 -0.7956233 0.00037938985 6.8879017e-05
-0.10833606 0.15790592 -0.33130407 0.57256144 -0.81986177 -0.00020785813 0.0010415688
0.10790052 0.15824012 -0.33448258 -0.57516962 -0.81801611 0.0054290364 0.00085884257
0.1145706 0.15312199 -0.33435902 -0.6036846 -0.79722226 0.0013044991 6.3552427e-05
-0.10339922 0.16169409 -0.33513913 0.562819 -0.8265661 0.0048176236 0.0013658964
-0.095410801 0.1671093 -0.33755371 0.49631277 -0.86814368 0.00048359722 0.0020430281
0.095861316 0.1666998 -0.33537436 -0.50359929 -0.86389989 -0.0080438387 0.0021315108
-0.083863102 0.1722443 -0.3360227 0.43153676 -0.90206909 0.0068849726 0.0010524542
-0.072881691 0.17679295 -0.33370677 0.38054454 -0.92476249 0.0003918189 6.2817591e-05
-0.066958025 0.1792466 -0.33071575 0.36374736 -0.9314974 0.00062607153 0.00028138037
0.068004921 0.17881298 -0.33508116 -0.36534131 -0.93087363 6.3464191e-05 0.00030011436
0.07476899 0.1760112 -0.33467355 -0.39152205 -0.92016733 -0.0016131168 8.2086917e-05
0.086259484 0.17125167 -0.33244467 -0.43580014 -0.90003878 -0.0029150432 0.0012810603
-0.061726876 0.18141343 -0.33809355 0.3364293 -0.94170612 0.0022324238 0.0010603495
-0.055710163 0.18390563 -0.33546922 0.29027981 -0.95694017 -0.0017693575 0.0015321996
-0.045819711 0.18684381 -0.33247149 0.25419101 -0.96715397 0.00017270737 0.0018234844
-0.033255223 0.18849796 -0.33622015 0.16071552 -0.98699981 0.0013656736 0.00071099115
-0.024752505 0.18961737 -0.33046058 0.12533799 -0.99211401 -0.00049725332 6.4434396e-05
0.027545365 0.18924968 -0.3358202 -0.14660448 -0.98919427 0.0013178155 0.00029051318
0.035180606 0.18824448 -0.33375999 -0.18052474 -0.98356593 0.0029878577 0.0011427258
0.040861987 0.18749653 -0.33191979 -0.20937827 -0.97783476 1.3410974e-05 0.001746706
0.05497355 0.18421075 -0.33417064 -0.28865269 -0.95743191 -0.0019568496 0.0019917432
0.063384116 0.18072699 -0.33419797 -0.33252019 -0.94309211 -0.002745159 0.00099181291
-0.015083835 0.19089025 -0.33398506 0.10941383 -0.99399531 0.0014016806 0.0002833305
-0.0047012884 0.19225717 -0.33580375 0.038988624 -0.99923438 0.0032474033 0.0018816888
0.0070631388 0.19194619 -0.33451271 -0.049724203 -0.99875915 0.0027722234 0.0013995006
0.016423937 0.19071382 -0.33802682 -0.10541106 -0.99442858 -0.00048617314 0.00031249973
0.021107215 0.19009727 -0.33429274 -0.11955082 -0.99282706 0.0014019478 0.00019234118
-0.020725027 -0.19014759 -0.32683849 0.11299824 0.99359518 0.00012199651 0.00025422347
-0.016266132 -0.19073462 -0.3260847 0.10584184 0.99437475 0.0040426189 0.00032153932
-0.0041741789 -0.19232655 -0.32579917 0.027986418 0.99957561 -0.0080809481 0.0017600016
0.0049310024 -0.1922269 -0.32433927 -0.029344907 0.99956906 0.00074342202 0.0020339671
0.017369736 -0.19058931 -0.32431063 -0.10980133 0.99395329 0.00073613285 0.00031488057
0.021588989 -0.19003385 -0.32125482 -0.11743797 0.99307978 -0.00087955722 0.00020323088
-0.062482815 -0.18110031 -0.32551381 0.34629405 0.93811119 -0.0052708983 0.0010608955
-0.054897945 -0.18424208 -0.32725734 0.29817721 0.95450079 -0.0043175695 0.0019812633
-0.043796897 -0.18711013 -0.32506225 0.21807122 0.975927 0.0033926975 0.0019154696
-0.033981003 -0.1884024 -0.32514188 0.17353892 0.98482436 -0.0022788178 0.00084017182
-0.026569108 -0.18937822 -0.3277958 0.13777378 0.99046373 9.4566021e-05 0.0001227699
0.027299561 -0.18928203 -0.32122117 -0.14601767 0.98928177 0.00063599221 0.00019534572
0.033252403 -0.18849833 -0.32494974 -0.14802516 0.98898339 0.00054230849 0.00025241973
0.046978019 -0.18668975 -0.32360059 -0.23472786 0.97206104 0.00021299536 0.002171387
0.055672854 -0.1839211 -0.3272799 -0.29084209 0.95675933 0.0047383304 0.0019195073
0.062593751 -0.18105435 -0.32189611 -0.35029873 0.93663621 -0.0018205006 0.00067757221
-0.085372657 -0.17161901 -0.3244386 0.43051258 0.90255708 0.0070538041 0.0011920274
-0.076317407 -0.17536983 -0.32683918 0.38725969 0.92197061 0.0003967419 2.0381145e-05
-0.068213612 -0.17872655 -0.3294138 0.3657313 0.93071944 -0.0014080656 0.00033565194
0.066535443 -0.17942166 -0.3268548 -0.36582041 0.9306854 -0.00036213745 0.00025536373
0.076776214 -0.17517978 -0.32591736 -0.39392102 0.91912937 -0.0052413126 0.00017464193
0.083270922 -0.17248958 -0.32589033 -0.40974373 0.9121905 -0.0043130107 0.00052382459
-0.10423601 -0.161052 -0.32265791 0.55707496 0.83046216 0.00015035683 0.0015681774
-0.09535522 -0.16724883 -0.32616043 0.48944926 0.87202692 0.0029076484 0.0020954814
0.09811455 -0.16574916 -0.32283169 -0.51829523 0.85518867 0.0047422731 0.0022788483
0.10369448 -0.16146752 -0.32214984 -0.56640702 0.82411385 0.0044228272 0.0013384875
-0.11562914 -0.15230975 -0.32823053 0.6075322 0.79429489 -0.00046981682 0.00010394371
-0.10840735 -0.15785122 -0.3275947 0.58174199 0.81336778 -0.0030370189 0.00088259293
0.11489227 -0.15287519 -0.32669285 -0.60876095 0.7933535 0.00049961405 1.8001441e-05
-0.13108754 -0.14044811 -0.3233031 0.67289335 0.73973811 -0.001445743 0.0019224114
-0.1271399 -0.14347725 -0.32614961 0.64910191 0.76069993 -0.0015334552 0.0014780401
-0.11959514 -0.14926654 -0.3294189 0.61584526 0.78786194 -0.0028571894 0.00023084093
0.11989414 -0.14903711 -0.32286239 -0.61655653 0.78730804 0.0020048963 0.00018533344
0.1249419 -0.14516382 -0.32490966 -0.63725966 0.77057147 0.010940636 0.00078788924
0.13115597 -0.1403956 -0.32350594 -0.68186408 0.73145545 -0.0058596674 0.0018566269
-0.14043635 -0.13110286 -0.32093456 0.73489088 0.67817855 0.003032275 0.0021727474
-0.1367113 -0.13554336 -0.32579938 0.71081895 0.7033692 0.0028773432 0.0024765839
0.13827726 -0.13372393 -0.32438931 -0.72487062 0.68887752 -0.0032064011 0.0021601713
0.14031538 -0.1312605 -0.3264384 -0.7342028 0.67890632 -0.0056927991 0.0020679869
-0.144991 -0.12516709 -0.32547796 0.76383328 0.64541084 -0.0018999423 0.0012635604
0.14293544 -0.12784599 -0.32855979 -0.75840819 0.65177751 0.0017477869 0.0012810482
-0.15296113 -0.11478021 -0.32366425 0.79541898 0.60605985 0.00029684993 0.00015219727
-0.14901291 -0.11992566 -0.32315689 0.78025967 0.62545365 0.0015769938 0.00036397454
0.14941712 -0.11939888 -0.32488608 -0.78845036 0.61509633 -0.0015712897 0.00018336705
0.15430368 -0.11303059 -0.32696784 -0.79567295 0.60572624 -0.00042795669 2.0089357e-05
-0.16206133 -0.10292059 -0.32556498 0.83276141 0.55363125 0.00091798499 0.0015494517
-0.15852596 -0.107528 -0.32491305 0.82078797 0.57123274 -0.00059217046 0.0012141502
0.15731418 -0.10910723 -0.32533956 -0.81441355 0.58028036 -0.0022812795 0.001090382
0.16195412 -0.10306033 -0.32641274 -0.83313817 0.55306208 -0.0017307597 0.0017975015
-0.1689657 -0.091778308 -0.3263976 0.88534075 0.46492869 0.0035949573 0.0023467022
0.16765082 -0.094454288 -0.32465804 -0.87859875 0.47754291 0.0041298852 0.0023618592
-0.17246203 -0.083337426 -0.32688144 0.90559757 0.42410702 0.0051180385 0.0011027054
0.17193571 -0.084608063 -0.32732743 -0.90828705 0.41833901 -0.0026616037 0.0010148404
-0.17651212 -0.073559657 -0.32475638 0.92298758 0.38482979 0.00018061636 1.1537568e-05
0.1749603 -0.077306114 -0.32424676 -0.91576201 0.4017204 0.00079440011 0.00033390062
-0.18132566 -0.061938751 -0.3232637 0.94041425 0.3400152 -0.0032608474 0.00097510923
-0.17943603 -0.066500746 -0.32864267 0.93076193 0.36562118 -0.0018459487 0.00028330224
0.17948449 -0.066383734 -0.32390538 -0.93192494 0.36265096 0.00039204757 0.00025339358
0.18067756 -0.063503385 -0.32836974 -0.93210852 0.36217898 1.2804338e-05 0.00028125345
-0.18422464 -0.054940004 -0.32511792 0.95525283 0.29577589 -0.0029567953 0.0013763346
0.183492 -0.056708734 -0.32332107 -0.95395923 0.29993296 0.0014599242 0.0015067881
-0.1871314 -0.043635376 -0.32529473 0.97565162 0.21915293 -0.0087105464 0.0018491958
0.18722436 -0.042929035 -0.32442427 -0.97719967 0.21232218 -0.00010472134 0.0021464014
-0.18804997 -0.036658131 -0.32364452 0.98375744 0.17949983 -0.0010653923 0.0012059902
0.1886213 -0.032318246 -0.3248395 -0.98841953 0.15174536 -0.00028043773 0.00035608473
-0.18973708 -0.023843242 -0.32209462 0.99144405 0.13053203 -6.7387147e-05 1.2694334e-05
0.18956563 -0.025145436 -0.32600483 -0.99237078 0.12328912 8.6017729e-07 6.8732981e-05
-0.19081631 -0.015645657 -0.32519048 0.99569327 0.092640258 0.0035524901 0.00077724102
0.19095774 -0.014571113 -0.32638928 -0.99516302 0.098236836 -0.0002801693 0.00085017615
-0.19185936 -0.0077227992 -0.32509977 0.99793535 0.064222321 0.00067413459 0.0012304567
0.19232436 -0.0041907779 -0.32361436 -0.99926078 0.037560113 0.008197479 0.0023900934
-0.19207719 0.0060683372 -0.32609859 0.99902183 -0.043901153 0.0052991314 0.0014892768
0.19241261 0.0035203723 -0.32597047 -0.99978948 -0.019848675 0.0052027712 0.0024487234
-0.19104747 0.013889621 -0.32512644 0.99750823 -0.070393652 0.0047018621 0.0011585094
0.19107875 0.013652094 -0.32162136 -0.99630773 -0.085852094 0.00048275955 0.0011035398
-0.18942578 0.026207551 -0.32524514 0.99144483 -0.13052623 4.1031719e-05 0
0.18931556 0.027044864 -0.32386962 -0.99073142 -0.13583542 3.4478551e-05 5.7073001e-05
-0.18812548 0.036084503 -0.32485068 0.98591715 -0.16722466 0.0018395886 0.00073378399
0.18812637 0.036077756 -0.32366592 -0.98439717 -0.17594658 0.0022403835 0.00086034095
-0.18658212 0.047807574 -0.324792 0.9688586 -0.24757636 0.0043526916 0.0023057326
0.1868957 0.045425732 -0.32563365 -0.9744755 -0.22447588 0.0028415287 0.0020120249
-0.1837436 0.05610133 -0.32384115 0.94564193 -0.32520917 0.00056765822 0.0013625781
0.18474384 0.053686585 -0.32535982 -0.95897806 -0.28342739 0.0054821293 0.0021123819
-0.18116593 0.06232439 -0.32859248 0.9384917 -0.34530193 8.859343e-07 0.0010819477
-0.17975667 0.06572666 -0.32223734 0.93025166 -0.36692217 -2.0532636e-06 0.00025042862
0.17883494 0.067951903 -0.32458049 -0.92861211 -0.37105188 0.00036025824 0.00018630789
0.1811828 0.062283654 -0.32553825 -0.9398104 -0.34168306 -0.0030290978 0.00102772
-0.17614384 0.074448794 -0.32847434 0.92350852 -0.38357753 -0.00057140581 2.1175982e-05
0.17593215 0.074959844 -0.3243624 -0.92268091 -0.38556409 -0.00053703587 3.2252959e-05
-0.17243688 0.083398104 -0.32501844 0.90503496 -0.42525631 -0.008292296 0.0010313499
-0.16977811 0.08981701 -0.32651937 0.89494294 -0.44611874 -0.0074290913 0.0016927951
0.17150915 0.08563789 -0.32298025 -0.90238565 -0.43092638 0.0016409787 0.0011834044
-0.16621496 0.097203098 -0.32642582 0.86277068 -0.50559455 -0.00095036777 0.0019575146
0.16756208 0.09498661 -0.3268764 -0.87698746 -0.48051304 0.00037557827 0.002289817
-0.16228075 0.10263465 -0.32410389 0.83229202 -0.55431211 -0.005284525 0.0013779639
0.15973468 0.10595275 -0.32894361 -0.82391703 -0.5667094 0.0011276845 0.001174476
-0.15308845 0.11461431 -0.32304242 0.79686034 -0.60416216 -0.0013337652 9.4227376e-05
-0.14973041 0.11899062 -0.32280174 0.78427374 -0.62041467 0.00068250007 0.00021131364
0.14947814 0.11931937 -0.32529908 -0.78663433 -0.6174109 -0.0031926448 0.00020514621
0.15245871 0.11543502 -0.32374439 -0.7951082 -0.60646731 0.00055000419 3.106095e-05
-0.1432029 0.1274974 -0.32320783 0.75496548 -0.65576035 0.0023400919 0.0012299627
0.14509477 0.12503189 -0.32465622 -0.77614754 -0.63052928 -0.0052763661 0.00062957522
-0.1323936 0.13944595 -0.3280243 0.67846274 -0.7346046 -0.0066616535 0.001823443
0.1370624 0.13523215 -0.32281294 -0.72120291 -0.69264883 0.010192388 0.0018331569
0.14086202 0.13054812 -0.32294977 -0.73476261 -0.67830473 -0.0051499894 0.001605068
-0.13157785 0.14007187 -0.32219926 0.67626119 -0.73663878 -0.0058388449 0.0017906775
-0.1246524 0.14538598 -0.32490414 0.63742536 -0.77050984 -0.0018557986 0.00093816401
0.12742916 0.14325528 -0.32360765 -0.64912206 -0.76068217 0.0017871129 0.0012289296
-0.11455906 0.15313084 -0.32349661 0.60619658 -0.79531455 0.0007104766 4.4228491e-05
-0.10605079 0.15965946 -0.32425356 0.56349546 -0.82611763 0.001580862 0.0012716586
0.1087928 0.15755545 -0.3200793 -0.58152658 -0.81352592 0.0015360719 0.00095279078
0.11229322 0.15486948 -0.32678473 -0.60354882 -0.797324 0.0018388969 4.8869562e-05
-0.10387076 0.16133225 -0.32499292 0.5604654 -0.82817566 0.001880438 0.0013024427
-0.094260111 0.16793771 -0.32460675 0.48036417 -0.8770678 -0.0015048325 0.0024680418
0.095845975 0.16701561 -0.32398373 -0.49617177 -0.86821997 0.0027740758 0.0016423817
0.10083894 0.16365865 -0.32976443 -0.52564961 -0.85069758 -0.0024656216 0.001682876
-0.084201887 0.17210397 -0.32588321 0.42674947 -0.90436989 0.00014887951 0.00099892134
-0.076447986 0.17531575 -0.3253828 0.38718662 -0.9220013 -0.00024699033 2.6435737e-05
-0.069213822 0.17831223 -0.3248601 0.37017858 -0.92896056 -0.00039844919 0.0002356331
0.06749852 0.17902273 -0.3215895 -0.36030185 -0.93282688 0.0040779216 0.00047958313
0.078750052 0.17436218 -0.32464495 -0.39772075 -0.91750485 -0.0017432036 0.00023617892
0.080041826 0.17382713 -0.32644624 -0.3973158 -0.91767633 -0.0032309345 0.00020583656
-0.062886275 0.18093319 -0.32479846 0.33381686 -0.94263786 -0.00036157397 0.0010136566
-0.054336153 0.18447478 -0.32434696 0.29044482 -0.95678413 0.014349191 0.0016670771
-0.043566581 0.18714045 -0.32262537 0.2291186 -0.97339076 0.0038911412 0.0019361639
-0.03520558 0.18824118 -0.32487693 0.16369304 -0.98651028 0.0014147356 0.00079414307
-0.028142141 0.18917109 -0.32523805 0.14514355 -0.98941046 0.00051287119 0.00024123046
0.027522901 0.18925266 -0.32728297 -0.14202456 -0.98986268 0.00089804991 0.00013651236
0.036691122 0.18804562 -0.3267799 -0.18528493 -0.98264968 -0.0083081033 0.0010777252
0.046509501 0.186753 -0.32439074 -0.23043923 -0.97301984 -0.011410682 0.0017269728
0.054480921 0.1844148 -0.32599509 -0.28472811 -0.95859075 -0.005795225 0.0018712451
0.062265936 0.18119013 -0.32346722 -0.3374503 -0.94133735 0.0033640682 0.0010234967
-0.016722044 0.19067459 -0.32444346 0.10791332 -0.99415624 0.0028494673 0.00029929084
-0.0065525994 0.19201343 -0.32169628 0.039711237 -0.99921 0.0015710142 0.0021518187
0.0038072357 0.19237486 -0.32451755 -0.031856399 -0.99949044 -0.0020110849 0.002000238
0.014201215 0.19100645 -0.32446501 -0.094217107 -0.99554908 -0.0022626712 0.00061170768
-0.020190123 -0.19021802 -0.31665045 0.11415862 0.99346232 0.00066152157 0.00031810754
-0.016591638 -0.19069174 -0.31096604 0.1106252 0.99386001 0.0021039548 0.00035394225
-0.006745562 -0.19198801 -0.31583941 0.048839837 0.99879849 0.0040464997 0.0019703784
0.0048331101 -0.19223981 -0.31364712 -0.019307645 0.99979436 0.0062088659 0.0020855574
0.015121757 -0.19088528 -0.31336379 -0.10589555 0.99436718 0.0044764387 0.00034372252
-0.061194152 -0.1816341 -0.31933391 0.3357434 0.94195104 0.0021153912 0.001138977
-0.058091182 -0.18291938 -0.31331822 0.31919903 0.94768739 0.00082295213 0.0012892495
-0.045264032 -0.18691698 -0.31313783 0.21319865 0.97697484 0.0081557836 0.0016280233
-0.034299307 -0.1883605 -0.31292406 0.16541946 0.98621833 0.0031216077 0.00066692219
-0.02592242 -0.18946333 -0.31961814 0.13052739 0.99144471 1.0760126e-05 7.0909919e-06
0.027202055 -0.18929487 -0.31609628 -0.13602455 0.99070543 0.00013995868 9.290663e-05
0.037013285 -0.18800321 -0.31327295 -0.18554384 0.9826355 0.00098414707 0.0010761125
0.044411454 -0.1870292 -0.31682181 -0.21290201 0.97706062 -0.0050335126 0.0015752084
0.053821228 -0.18468806 -0.3160038 -0.27276275 0.9620769 0.0029193927 0.0020881603
0.062118527 -0.1812512 -0.31718516 -0.34726128 0.9377684 0.00011371016 0.00077449111
-0.084291689 -0.17206676 -0.31519493 0.41762826 0.90861803 1.1684621e-05 0.00073605048
-0.079663977 -0.17398363 -0.31667984 0.40779436 0.9130736 0.00063338887 0.00051070121
-0.06853129 -0.17859495 -0.31756073 0.36884117 0.92949235 -0.00036990416 0.00022059925
0.067331828 -0.1790918 -0.31445584 -0.36504781 0.93098766 -0.001410397 0.00023968778
0.073439069 -0.17656206 -0.31387839 -0.38610438 0.92245364 0.001617242 8.6613276e-05
0.084902771 -0.17181365 -0.31543845 -0.43053156 0.90256673 -0.003971681 0.0011965324
-0.10327313 -0.16179083 -0.31542221 0.55186653 0.83393055 0.0017692512 0.0014463654
-0.09622962 -0.16663934 -0.31566754 0.51347297 0.85810047 0.0030143911 0.0021012863
-0.089530408 -0.16989681 -0.31928456 0.45090106 0.89255905 0.0051576202 0.0016293203
0.097619519 -0.16591969 -0.31382337 -0.51882195 0.85482657 0.0097593116 0.0023451503
0.10134214 -0.16327251 -0.31452441 -0.54577041 0.83788425 0.0092012081 0.0018331339
-0.11402023 -0.15354431 -0.31690088 0.59783697 0.80161756 -0.00030206554 0.00027453981
0.1085695 -0.15772678 -0.31020671 -0.58564323 0.81056899 6.8590612e-05 0.00092226214
0.11442173 -0.15323623 -0.31737468 -0.6070134 0.79469162 0.00015115504 4.6319681e-05
-0.1306465 -0.14078653 -0.31770349 0.67225295 0.74022841 0.011740634 0.0018914085
-0.12551369 -0.14472507 -0.31707975 0.64023083 0.76817334 0.0037727247 0.0011501228
-0.1193314 -0.1494689 -0.31382209 0.61960942 0.78490996 -0.00073860004 0.00029899541
0.11899865 -0.14972423 -0.31407392 -0.61211473 0.79076689 0.0018228805 7.3056202e-05
0.1245503 -0.1454643 -0.31080666 -0.63424051 0.77312613 0.0038700139 0.00082574849
0.13072516 -0.14072618 -0.31405535 -0.66675985 0.74527234 -0.00067120354 0.0015075532
-0.13550983 -0.13649702 -0.31639445 0.70306355 0.71112698 7.3201541e-06 0.0027301831
0.13558437 -0.1366276 -0.31346667 -0.69730228 0.71674722 0.0065485127 0.0022528893
-0.14494783 -0.12522338 -0.31544828 0.7668888 0.6417315 0.0078864852 0.00095731323
0.1454318 -0.12459265 -0.31510141 -0.77319473 0.63416463 -0.0022735591 0.00084461126
-0.15160902 -0.11654234 -0.31624135 0.79438871 0.60740864 -0.0011716482 0.00012731602
0.14910221 -0.11980929 -0.31443113 -0.78365558 0.62118787 0.0030818928 0.00027566202
0.15373097 -0.11377695 -0.31575847 -0.79502589 0.60657549 -0.00017547808 6.4211468e-05
-0.16238199 -0.10250273 -0.31915492 0.83035457 0.55723381 -0.0013360402 0.0015755625
-0.15854172 -0.10750744 -0.31209517 0.82039821 0.57179201 0.00078526506 0.0012323752
0.15797104 -0.10825119 -0.31459051 -0.81590557 0.57804859 -0.012568334 0.00092551426
0.16323847 -0.10138654 -0.31103092 -0.84045953 0.54181975 0.007691748 0.00234648
-0.16730881 -0.095272064 -0.31467846 0.86635894 0.49936828 -0.0073181735 0.0022483596
0.16632912 -0.096948124 -0.3164286 -0.85395163 0.5203408 0.0034823192 0.0028002933
-0.17262788 -0.082937039 -0.31701729 0.90519482 0.4249799 -0.0037930042 0.0010991299
0.17094803 -0.086992525 -0.31427312 -0.90421307 0.4269436 0.010855779 0.001182375
0.17555539 -0.075869434 -0.31286511 -0.91952819 0.39302394 0.00023994134 0.00014101037
-0.18103592 -0.062638253 -0.31642997 0.94070661 0.33917832 0.0053956611 0.0011252076
-0.17920053 -0.067069285 -0.31468293 0.93028045 0.3668426 0.002209642 0.00032251046
0.17848422 -0.068798609 -0.31533062 -0.92868978 0.37085453 0.0014760067 0.00022184494
0.18135984 -0.061856247 -0.31839719 -0.93717092 0.34886998 0.00069673202 0.00080354116
-0.18433702 -0.054668698 -0.31497276 0.95767981 0.2878243 -0.002562386 0.0019432086
0.18446569 -0.054358095 -0.31557584 -0.95732617 0.28894967 -0.0058855079 0.0016358879
-0.18702461 -0.044446412 -0.31598774 0.97472721 0.22330245 -0.0065562925 0.0018102796
0.1868359 -0.045879811 -0.31200716 -0.96789217 0.25136539 -0.00042883813 0.0016313033
-0.18818173 -0.035657305 -0.31424391 0.98455191 0.17509197 0.00054637482 0.00099767942
0.18830656 -0.034709103 -0.31761479 -0.98590332 0.16731548 -0.00029142085 0.00077700231
-0.19081743 -0.015637103 -0.31622648 0.99424857 0.10686161 0.0070863781 0.00038811099
0.19089158 -0.015073933 -0.31624717 -0.995148 0.098358087 0.002473325 0.00069681555
-0.19244027 -0.0033103898 -0.31164411 0.99977762 0.020938873 0.0025076738 0.0018667423
0.19267754 -0.0015080216 -0.31418547 -0.9999758 -0.0028031422 0.006367669 0.002532806
-0.19202864 0.0064368634 -0.31745806 0.99954677 -0.029637055 0.0052857311 0.0014568506
0.19250245 0.0028379601 -0.31595415 -0.99979913 -0.020001046 -0.0012895772 0.0022697186
-0.19092047 0.014854361 -0.31500018 0.99460858 -0.10359655 0.0046424381 0.00038870657
0.19072695 0.016324444 -0.31622711 -0.99347699 -0.11400443 0.002524812 0.00024183124
-0.18940933 0.026332637 -0.31812233 0.99039233 -0.13828653 0.00014365718 0.00013152255
0.18947576 0.025828086 -0.31557804 -0.99103528 -0.1335946 0.0012577157 8.9524539e-05
0.19011481 0.020973971 -0.31473845 -0.99269485 -0.12064794 0.00098707329 0.00012857502
0.1882327 0.035270054 -0.31459939 -0.98599946 -0.16674778 0.00045596599 0.00073696702
-0.18706781 0.044118267 -0.31722891 0.97718287 -0.21239671 0.0011646089 0.0018369365
0.18704727 0.044274293 -0.31597847 -0.97497976 -0.22222899 0.0053630075 0.0020172205
-0.1840471 0.055368587 -0.31579524 0.95509934 -0.29626292 -0.0036644989 0.0018211139
0.18395767 0.05558458 -0.31413165 -0.95122159 -0.30850849 -2.0509078e-05 0.0014193004
-0.1800503 0.06501776 -0.31484723 0.9318893 -0.36273226 -0.0027638623 0.00030743939
0.17891715 0.067753419 -0.31400648 -0.93007618 -0.36736262 0.0017020722 0.00019859645
-0.1757369 0.07543119 -0.31264219 0.9192518 -0.3936663 -0.0016958464 0.00017564162
0.17651099 0.073562384 -0.31752884 -0.92276192 -0.38537046 -0.00037272146 3.6557678e-05
-0.17233396 0.083646655 -0.31404606 0.90228075 -0.43114802 -0.00095134589 0.0011669194
0.16977298 0.08982937 -0.316201 -0.89516717 -0.44572455 -0.0023163315 0.0013470043
0.17173758 0.085086405 -0.31272253 -0.90255976 -0.43056232 0.0013959315 0.0010752283
-0.167961 0.093657717 -0.31286091 0.8762185 -0.48188192 0.0055697155 0.0020668269
0.16576438 0.09781649 -0.31672999 -0.8605935 -0.50929087 -0.0012375191 0.0021609766
-0.16143475 0.10373718 -0.31518385 0.83109927 -0.55609143 -0.0060345982 0.0015096435
-0.15840106 0.10769078 -0.3150228 0.8220309 -0.56943756 -0.0024792438 0.0014549543
0.15986332 0.10578514 -0.31566203 -0.82463169 -0.56565332 0.004356612 0.0014539117
0.16203019 0.10296123 -0.31189376 -0.83318681 -0.55298233 0.003217537 0.0013529365
-0.15418166 0.11318961 -0.31378186 0.79728156 -0.6036073 0.00050784746 0.00012491774
0.15126228 0.1169942 -0.31101516 -0.79226577 -0.61017621 -3.2943099e-05 1.4316981e-05
-0.14550476 0.12449757 -0.31492376 0.77131498 -0.63644701 -0.0028779176 0.00079178793
0.14455739 0.1257322 -0.31624064 -0.76726449 -0.64132267 -0.0032304018 0.0011606121
-0.14052549 0.13098668 -0.31748971 0.73682207 -0.67606181 -0.0058098668 0.0019725598
-0.13580477 0.13644806 -0.31745794 0.71077168 -0.70338416 -0.0073752105 0.0023228461
0.13694008 0.13535535 -0.31648257 -0.70496488 -0.70922971 0.0042035156 0.0024544697
-0.12642631 0.14402477 -0.31371865 0.64157122 -0.7670548 0.0036598642 0.00091935036
-0.11978963 0.14911729 -0.31725654 0.61770153 -0.78641146 -0.001342852 0.00014700256
0.11964852 0.14922555 -0.3164559 -0.62134182 -0.78353882 0.0011326126 0.00036710745
0.12357346 0.14621384 -0.31238735 -0.6317423 -0.77515858 0.0055502704 0.00074825255
0.13127442 0.14030471 -0.31699648 -0.66803664 -0.74386322 0.019863956 0.0018169566
-0.11441158 0.15324402 -0.31213668 0.60211867 -0.79840654 0.00040327272 0.00026358699
-0.10891992 0.1574579 -0.31709796 0.59033757 -0.80715066 -0.0030768369 0.0005045947
0.10584828 0.15981485 -0.3171953 -0.56935811 -0.82208759 -0.0018493917 0.0010231711
0.11447574 0.15319479 -0.31327057 -0.60784614 -0.79405481 -0.00023963647 7.1566443e-05
-0.10256317 0.1623356 -0.31384394 0.55616474 -0.83103842 -0.0074759508 0.0013257628
-0.098445699 0.16549505 -0.31925833 0.52486748 -0.85118395 -7.4108728e-05 0.00226098
-0.089847505 0.16976547 -0.31474835 0.45277664 -0.89157963 0.0088921366 0.001869138
0.096882999 0.16639379 -0.31294066 -0.50918758 -0.86064184 0.0048594289 0.0019547981
0.10178132 0.16293554 -0.31665945 -0.526595 -0.85011446 0.0017330014 0.002038148
-0.083162934 0.17253432 -0.31380004 0.42344254 -0.90592015 0.0022620715 0.0010088041
-0.073198281 0.17666182 -0.31463164 0.38310468 -0.92370474 0.0005079484 5.7171674e-05
-0.068866573 0.17845607 -0.31567803 0.3680093 -0.92982203 0.00046544443 0.00028750711
0.06586653 0.17969872 -0.31286633 -0.36399746 -0.93139952 -0.00083152612 0.00031546847
0.075129136 0.17586203 -0.3188175 -0.39361933 -0.91927314 0.00090103451 0.00014875429
0.084081732 0.17215376 -0.31448883 -0.43024078 -0.90270692 0.0036219014 0.0011390761
-0.06244608 0.18111552 -0.3144421 0.3442356 -0.93888307 0.00065489166 0.0011008638
-0.052903321 0.18506826 -0.3130478 0.2726317 -0.96203095 0.012973373 0.0021792047
-0.047315791 0.18664685 -0.31705779 0.24385875 -0.96980047 -0.0044637653 0.0021439411
-0.036366794 0.18808831 -0.31652597 0.1835956 -0.98298812 -0.0051913094 0.0012682521
-0.024736175 0.18961951 -0.31502581 0.12968968 -0.99155456 -0.00043414181 0.00013529518
0.029183932 0.18903396 -0.31833661 -0.14288634 -0.989739 0.0004837164 0.00019656526
0.033498161 0.18846598 -0.31499621 -0.16619046 -0.98609155 0.0020628092 0.00073485484
0.043499552 0.18714927 -0.31815794 -0.21721347 -0.97605431 -0.011673505 0.0014240638
0.055464856 0.18400724 -0.31364745 -0.29523334 -0.9553411 0.012680188 0.001567051
0.062458027 0.18111056 -0.31584609 -0.33014923 -0.94392622 0.0021861827 0.0013248977
-0.02046092 0.19018234 -0.31060725 0.11722248 -0.99310493 0.0012245101 0.00017076911
-0.013111669 0.19114991 -0.31261152 0.082743868 -0.9965508 0.0063215643 0.001171627
-0.004918369 0.19222857 -0.31371462 0.029102864 -0.9995721 0.0029549801 0.0021495898
0.0040429053 0.19234383 -0.31483021 -0.03467188 -0.99939483 0.002796775 0.0021155537
0.017462082 0.19057716 -0.31253645 -0.11153867 -0.99375796 0.0020651077 0.00029414691
0.020380888 0.19019289 -0.31855986 -0.11324029 -0.99356574 -0.001926977 0.00027113414
-0.020601816 -0.19016381 -0.30313054 0.1171526 0.9931109 0.0024386202 0.00024189496
-0.016691899 -0.19067855 -0.30584839 0.11105446 0.99381429 0.00030438683 0.00031377395
-0.0049688835 -0.19222189 -0.30331454 0.024833312 0.99968624 -0.0032643734 0.0020621952
0.0074098445 -0.19190057 -0.30508143 -0.04051125 0.99917865 0.00091098563 0.0023632457
0.015358061 -0.19085418 -0.30266556 -0.1091217 0.99402839 -4.2114974e-05 0.00029552513
0.021371385 -0.19006249 -0.30501994 -0.12029164 0.99273676 -0.0019446693 0.00015159097
-0.053856537 -0.18467343 -0.3050991 0.28638214 0.95811212 -0.0025472101 0.0016368389
-0.046328742 -0.1867768 -0.30552918 0.22175185 0.97509676 -0.0035437357 0.0017959835
-0.036162961 -0.18811515 -0.30369261 0.17611849 0.98436385 -0.0031696705 0.0008578077
-0.027704133 -0.18922877 -0.30705717 0.14172114 0.98990583 -0.0012584059 0.00019199892
0.027286006 -0.18928382 -0.30275324 -0.13917466 0.99026775 0.00037746615 0.00020804166
0.034086112 -0.18838856 -0.30336112 -0.16647109 0.98604625 0.00046205387 0.00075313187
0.044091981 -0.18707128 -0.30424216 -0.2190537 0.97571278 -0.00034206678 0.0019655135
0.056029834 -0.18377323 -0.3056955 -0.29091755 0.95671064 -0.0084720794 0.0019216229
0.061949514 -0.18132122 -0.30489627 -0.33829308 0.94104058 0.0005874628 0.0011455737
-0.084079795 -0.17215455 -0.30518886 0.42415431 0.90558332 -0.00345166 0.00092768954
-0.07512705 -0.17586288 -0.30453181 0.39314881 0.91947281 -0.0019569187 0.00016598175
-0.067591399 -0.17898427 -0.30583474 0.37026572 0.92892522 -0.00111232 0.00019611616
0.07213071 -0.17710403 -0.30516493 -0.37849161 0.92560452 -0.00055937713 0.00021770505
0.085591838 -0.17152822 -0.30910271 -0.43168885 0.90201753 -0.0029994617 0.0012738369
-0.1014194 -0.16321324 -0.3031925 0.54184508 0.84044468 0.0075223381 0.0018334958
-0.091237076 -0.16918989 -0.30549046 0.46511555 0.88524365 -0.0033465433 0.0020542443
0.096524753 -0.1664664 -0.30257392 -0.50737906 0.86171055 0.0046140812 0.0026248724
0.1017471 -0.1629618 -0.30408782 -0.56500876 0.82506251 0.0060787774 0.0013204403
-0.11412346 -0.15346508 -0.30531412 0.60257155 0.79806483 -0.00021109042 0.00016570333
-0.10621167 -0.159536 -0.30247703 0.56747329 0.8233586 0.007397355 0.00098051899
0.10864304 -0.15767036 -0.30573207 -0.58470368 0.81123227 0.0048754425 0.00085216574
0.11515298 -0.15267511 -0.30442336 -0.60691255 0.79476857 5.9177903e-05 3.7145659e-05
-0.13161558 -0.14004293 -0.30204359 0.66929275 0.74299574 -0.002150917 0.0015467322
-0.1238115 -0.14603122 -0.30631107 0.62107313 0.78375232 0.00070520863 0.00024658875
0.11897744 -0.1497405 -0.30774781 -0.61444855 0.78895569 -0.0013622664 0.00023622735
0.1250921 -0.14504857 -0.30473372 -0.64274937 0.76605773 -0.0053707929 0.0011755559
0.13064648 -0.14078653 -0.30245307 -0.65879667 0.7523101 0.0040561259 0.0015095521
-0.14053893 -0.13096917 -0.30622712 0.73317033 0.68004459 0.00075632695 0.0019613518
-0.13680974 -0.13555352 -0.30436841 0.70890486 0.70529276 -0.0039989757 0.0023469583
0.13331354 -0.13874005 -0.30407956 -0.68791324 0.72566307 0.013727394 0.0020253619
0.14071974 -0.13073353 -0.30299783 -0.72900152 0.68450963 0.0017981874 0.001933014
-0.14578909 -0.12412705 -0.30437273 0.77635634 0.63029242 0.0015408967 0.00040985711
0.14584532 -0.12405374 -0.30446452 -0.76851833 0.63981467 0.0041095638 0.00073700887
-0.15166371 -0.11647108 -0.30277738 0.79535633 0.606139 0.0019563974 9.2267335e-05
0.1512543 -0.11700461 -0.30480099 -0.79250419 0.60986638 0.00015222945 0.00010023941
-0.16227098 -0.10264742 -0.30415696 0.82970154 0.55820519 0.0015078611 0.0015375685
-0.15679583 -0.10978276 -0.30193946 0.80044329 0.59940857 -9.914273e-05 0.00010439606
0.16201152 -0.10298554 -0.30506897 -0.82324576 0.56760049 -0.0098051531 0.0010963072
-0.16850989 -0.092878789 -0.30900112 0.87581468 0.48260114 -0.006695685 0.0024535845
0.16650511 -0.096557885 -0.30401492 -0.86784571 0.49682179 0.0034574547 0.0021032298
-0.17247958 -0.083295047 -0.30630237 0.90488893 0.42564636 -0.0010718904 0.00089209463
0.16985279 -0.089636713 -0.30297101 -0.90673167 0.4216179 0.0087179085 0.00090817059
0.17196485 -0.084537767 -0.30417201 -0.90917182 0.41641089 0.0029162162 0.00082673749
-0.17625087 -0.074190341 -0.3085205 0.9235304 0.38352534 6.2948035e-05 2.9994715e-05
0.17759304 -0.070950121 -0.30277625 -0.92499411 0.37998018 0.00089428085 0.00012540945
-0.18066856 -0.063525155 -0.30227277 0.93762046 0.34765822 0.0012414731 0.00081121403
-0.17873129 -0.068202108 -0.30524462 0.92837149 0.37165052 0.001498597 0.00019980126
0.17869866 -0.06828092 -0.30281657 -0.93039405 0.36655855 -0.0013012448 0.00027780727
0.18058102 -0.063736491 -0.30305928 -0.93649518 0.35066968 -0.0027379885 0.0008566624
-0.18433821 -0.054665823 -0.30505314 0.95726526 0.28920761 -0.0014802949 0.0016815321
0.18442206 -0.054463394 -0.30520099 -0.95768738 0.28779826 0.0026560586 0.0016965957
-0.18695089 -0.045006383 -0.30655399 0.97477186 0.22310947 -0.0064799804 0.0020006935
0.18660249 -0.047652733 -0.30545327 -0.96632779 0.25731182 -0.0011345937 0.0017614092
-0.18828613 -0.034864258 -0.30339441 0.98499656 0.17255896 -0.0022881066 0.00092540024
0.18822591 -0.03532169 -0.30286402 -0.98287338 0.18428224 5.2626729e-06 0.0011094173
-0.19016564 -0.020587986 -0.30604625 0.99356294 0.11327296 0.0014172066 0.00030195
-0.18917874 -0.02808425 -0.30537957 0.98934668 0.14557387 0.0011610613 0.00026513869
0.18913829 -0.028391259 -0.30782497 -0.98950344 0.14450862 0.00056201272 0.00020363707
-0.19083077 -0.01553576 -0.30401477 0.99540997 0.095699497 0.00082911993 0.00079529715
0.19102366 -0.014070604 -0.30582064 -0.99545401 0.095018528 -0.0065444428 0.00083154353
-0.19207752 -0.0060657989 -0.30262795 0.99905062 0.043559991 0.00054806465 0.0017439645
0.19231299 -0.0042772274 -0.30631572 -0.99992782 0.0091627659 -0.0077688545 0.0024242776
-0.19250444 0.0028230124 -0.30373666 0.9998529 -0.017106352 0.0012155299 0.0020269386
0.19243346 0.0033620421 -0.30383131 -0.99911278 -0.04208165 -0.0017206736 0.0017213719
-0.19105925 0.013800424 -0.30262095 0.99684066 -0.079416379 -0.0013320198 0.0013297674
0.19088501 0.015123774 -0.30443785 -0.99535418 -0.096264534 -0.0017616223 0.00079039979
-0.18940815 0.026341544 -0.30857581 0.99119723 -0.13239199 -0.00052440813 0.00013615124
0.18953148 0.025404818 -0.30534485 -0.9922182 -0.12450302 0.001420201 7.2320501e-05
-0.18803558 0.036767349 -0.3053979 0.98524415 -0.17108999 -0.0046990821 0.00084826164
0.18821646 0.035393361 -0.30366275 -0.98457968 -0.17491573 -0.0027056504 0.0010640053
-0.18675633 0.046484292 -0.30511385 0.97271031 -0.23194718 0.0059332056 0.0016402937
0.18686104 0.04568883 -0.30418861 -0.97371608 -0.22772199 -0.0044254619 0.0019529087
-0.18454285 0.054171801 -0.30509612 0.95890087 -0.2836715 -0.0062841307 0.0020822196
0.18368326 0.056247007 -0.30436823 -0.94845432 -0.31673247 0.010718602 0.0016372708
-0.18118635 0.062275067 -0.30895284 0.93634719 -0.35106456 -0.0027761655 0.00071355683
-0.17889729 0.067801371 -0.30668622 0.9297806 -0.36811405 -0.00044914315 0.00029264
0.17898695 0.06758488 -0.30519378 -0.92943025 -0.36899623 0.0011049012 0.00019264715
0.18082349 0.063151084 -0.30028388 -0.93571401 -0.35274628 0.003052196 0.00087921438
-0.1759706 0.074867025 -0.30314842 0.92247868 -0.38604802 -0.00011581596 2.922913e-05
0.17521958 0.076680146 -0.30528092 -0.91822416 -0.39606008 -0.00090469379 0.00029273093
-0.17210713 0.084194258 -0.30395758 0.90116 -0.43344989 0.0056449072 0.0011662273
0.17306101 0.081891358 -0.30464807 -0.9070341 -0.42104021 -0.0037740613 0.00094071531
-0.16674525 0.096099861 -0.30595043 0.85812128 -0.51344579 0.0011469926 0.0023456814
0.1671247 0.096222863 -0.30664057 -0.86923844 -0.49435884 -0.0058211149 0.0020476864
-0.16279119 0.10196943 -0.30930826 0.83842188 -0.54502136 0.00062548096 0.0019042974
-0.15811296 0.10806622 -0.30512285 0.82406694 -0.56648767 -0.0023276997 0.0013608882
0.15895221 0.10697249 -0.30345607 -0.8235715 -0.56721193 0.00087210548 0.001392931
0.16184004 0.10320902 -0.30550659 -0.8379032 -0.54580218 -0.0042567025 0.0020261405
-0.15187445 0.11619641 -0.30528593 0.79526407 -0.60626316 0.00020369882 0.0001427237
-0.14950377 0.11928596 -0.30555299 0.79090488 -0.61193901 0.00030859932 7.1176488e-05
0.15465291 0.11257547 -0.30362567 -0.79403251 -0.60787475 -0.00085904641 2.6628784e-05
-0.14685504 0.12273784 -0.30483848 0.77630609 -0.63034177 0.0042564748 0.00056496571
0.14419706 0.12620179 -0.30339518 -0.76404977 -0.64511192 -0.0076520452 0.0011074581
-0.13563682 0.13651371 -0.30248672 0.70288825 -0.7112565 0.0078990953 0.0023325128
0.13614759 0.13610224 -0.30517524 -0.70783651 -0.70631033 -0.0096475938 0.0025558092
0.14082527 0.13059601 -0.30714685 -0.73835576 -0.67436928 -0.0075443485 0.0016844883
-0.1272807 0.1433692 -0.30666307 0.65660018 -0.75423187 -0.0032429129 0.0014519449
-0.11929253 0.14949872 -0.30909246 0.61703157 -0.78693676 0.0016072312 0.00018143555
0.12448756 0.14551243 -0.30477911 -0.63241202 -0.77462643 0.0030042122 0.00069610903
0.13061291 0.14081229 -0.30745456 -0.66299635 -0.7486189 -0.0023554442 0.0015804961
-0.11349595 0.15394659 -0.3047916 0.60709065 -0.79463208 -0.00086531846 7.4893236e-05
-0.10718232 0.1587912 -0.3048512 0.57513791 -0.81805348 0.0022003877 0.00089203432
0.10801009 0.15815604 -0.30664811 -0.57448447 -0.81849623 -0.0056109126 0.0010048256
0.11066648 0.15611772 -0.30565915 -0.58894509 -0.80815494 -0.0054154904 0.00060149794
-0.10260746 0.16230163 -0.30864081 0.54951954 -0.83548057 0.00068725285 0.0012848049
-0.094615303 0.16765599 -0.3061409 0.48598248 -0.87395704 0.0044883471 0.0022450264
0.094646871 0.16756697 -0.30422986 -0.48635498 -0.87375426 -0.0035145634 0.0019093187
0.10298359 0.16201299 -0.30568862 -0.55817866 -0.82967275 -0.0089254491 0.0014033088
-0.087795988 0.17061524 -0.30977583 0.44028324 -0.89783025 0.0071769608 0.0013834323
-0.075240314 0.17581598 -0.30289188 0.38633379 -0.92235857 -0.00088759902 0.00011513852
-0.066885293 0.17927675 -0.30551934 0.36709425 -0.93017673 0.0036172597 0.00030815619
0.067880079 0.17886469 -0.30488515 -0.36424887 -0.93130153 -0.00042436543 0.00033395601
0.075793162 0.17558698 -0.30870175 -0.39274299 -0.91964549 0.0022627299 0.00011647408
0.085164309 0.17170532 -0.30713439 -0.43293428 -0.90142268 0.0022399821 0.0013030128
-0.062735267 0.18099575 -0.30842343 0.34316507 -0.93927449 0.0010645258 0.00098536385
-0.057109274 0.18332611 -0.30325803 0.31534049 -0.94897497 -0.0026278167 0.0014533697
-0.043353029 0.18716857 -0.306431 0.22263959 -0.97489572 0.003154356 0.0017571906
-0.036266737 0.18810149 -0.30522057 0.18122694 -0.98344052 0.0012266495 0.0011228225
-0.024779318 0.18961383 -0.30656454 0.13415515 -0.99096012 0.00069952873 2.9570523e-05
0.025306743 0.18954439 -0.30472147 -0.13053021 -0.99144435 -3.7541817e-05 1.9734562e-05
0.035364147 0.18822032 -0.30478838 -0.17676851 -0.98421955 -0.0080520669 0.00085259817
0.043884512 0.18709859 -0.3043721 -0.21289387 -0.97707069 -0.0030121524 0.0016542976
0.056469776 0.18359099 -0.30479157 -0.29986292 -0.95394069 -0.008915551 0.0013598085
0.062226534 0.18120646 -0.3056573 -0.34778294 -0.93756229 -0.0048943292 0.00079216919
-0.013503527 0.19109832 -0.30714974 0.093043812 -0.9956612 -0.0012662543 0.00085628865
-0.0049398565 0.19222574 -0.30548763 0.014438067 -0.99989575 0.00021453318 0.0021636889
0.0050815218 0.1922071 -0.30447498 -0.03141043 -0.99949354 0.0051093311 0.0018764372
0.01534046 0.19085649 -0.30664292 -0.084227473 -0.99644631 -0.0007366176 0.001123899
0.020869127 0.19012861 -0.30331278 -0.11684646 -0.99314845 0.0017553705 0.00019376738
-0.020479333 -0.19017994 -0.29945004 0.11484911 0.99338198 0.0014047566 0.00025466277
-0.014230742 -0.19100259 -0.29550084 0.10537986 0.99443054 0.0017291592 0.00034859692
-0.0041543623 -0.19232915 -0.29328147 0.026126243 0.99965852 0.00052168831 0.0019840023
0.00082354079 -0.19276768 -0.29547653 -0.0072287265 0.99995506 -0.0061411294 0.0021703343
0.01935548 -0.19032788 -0.29616481 -0.11706817 0.99312377 -0.00059870281 0.00018481354
0.021197103 -0.19008544 -0.29624656 -0.11702754 0.99312854 -0.00041880464 0.00016848664
-0.061781842 -0.18139066 -0.29332417 0.33478749 0.942285 0.0040358389 0.0012114568
-0.054774441 -0.18429323 -0.29577094 0.28284758 0.95916086 0.0027697051 0.0018665976
