# .PCD v0.7 - Point Cloud Data file format
VERSION 0.7
FIELDS x y z normal_x normal_y normal_z curvature
SIZE 4 4 4 4 4 4 4
TYPE F F F F F F F
COUNT 1 1 1 1 1 1 1
WIDTH 560
HEIGHT 1
VIEWPOINT 0 0 0 1 0 0 0
POINTS 560
DATA ascii
0.044292558 0.10897428 -0.17564529 -0.40031493 -0.91637069 0.0035678851 0.0014892065
0.056060016 0.10410021 -0.17455491 -0.49029344 -0.87155735 -0.00031157109 0.0022800819
0.061330136 0.10120822 -0.17559993 -0.51126134 -0.85939848 -0.0067903134 0.002655691
-0.040932488 0.11036603 -0.17513534 0.36648229 -0.93036598 -0.010480261 0.0022397297
-0.034123547 0.11316349 -0.17379507 0.28939131 -0.95718729 0.006715829 0.0024584823
-0.025574418 0.11527705 -0.17634124 0.22613944 -0.97409463 -0.00075958786 0.0016395935
-0.016955856 0.11641173 -0.17591682 0.1506637 -0.98858285 -0.0020904583 0.0014236694
-0.005163745 0.11796423 -0.17607702 0.054439042 -0.99850976 -0.0038196656 0.0020880329
0.0044704801 0.11805551 -0.17543359 -0.044986911 -0.99895632 -0.0078996615 0.0016156264
0.014429803 0.11674429 -0.1754908 -0.14191808 -0.98984677 0.0079120919 0.002223934
0.025479523 0.11528955 -0.17536275 -0.21726213 -0.97611034 -0.0023901677 0.0013807814
0.034803476 0.11290467 -0.17477435 -0.30508205 -0.95225602 -0.011547122 0.0019539739
0.040851094 0.11039974 -0.17838478 -0.35422051 -0.93515992 -0.0019270689 0.0023056718
-0.041653786 -0.11006726 -0.16036797 0.36384892 0.93143427 0.0066434224 0.0026894631
-0.035099968 -0.11278185 -0.16469428 0.30841169 0.95120591 0.0094618704 0.0019624361
-0.026660288 -0.11513408 -0.1665273 0.24009684 0.97074789 0.001451302 0.0021629559
-0.014480721 -0.1167376 -0.1653302 0.12211143 0.99251318 -0.002528263 0.002441234
-0.0054266253 -0.11792962 -0.16479169 0.053489853 0.99854231 0.0072235684 0.0017816345
0.0052538374 -0.11795237 -0.16565751 -0.04750023 0.99886179 -0.0043493095 0.0014277381
0.013169912 -0.11691017 -0.16591695 -0.11765624 0.99305403 0.00082551409 0.0026880288
0.024781955 -0.11538138 -0.1623999 -0.22288154 0.97484356 0.0019504678 0.0013121895
0.037319709 -0.11185306 -0.16548261 -0.3196916 0.94752038 0.0015496797 0.0020375752
0.041362211 -0.11018804 -0.16729456 -0.34904492 0.9371056 0.00085136219 0.002767812
-0.061350252 -0.10119275 -0.16320135 0.51508856 0.85702306 -0.013976015 0.0024044686
-0.05436625 -0.10480175 -0.16545649 0.46596825 0.88477987 -0.0061818445 0.0023258156
-0.046007354 -0.10826401 -0.16528481 0.39421993 0.91901606 0.00039863621 0.0012182271
0.045018632 -0.10867355 -0.16408509 -0.39569089 0.91838092 -0.0022697696 0.0014019748
0.05595037 -0.10414562 -0.16331796 -0.48660633 0.87362123 0.00052763493 0.002011511
0.060818616 -0.10160072 -0.16147617 -0.50348341 0.86400205 -0.0022281855 0.0023630166
-0.072996609 -0.092256151 -0.16426545 0.64234793 0.76641291 0.00044969181 0.0019638767
-0.066036917 -0.097596534 -0.16440453 0.54479736 0.83856684 0.0011828275 0.0017018742
0.06638395 -0.097330354 -0.16409932 -0.54440928 0.83881819 0.001604678 0.002393723
0.073487006 -0.091880083 -0.16471201 -0.64051181 0.76794833 -5.8877977e-05 0.0018075096
-0.082635202 -0.084773131 -0.16414082 0.69263405 0.72127932 0.0037733119 0.0021099234
-0.076027259 -0.089930646 -0.1623106 0.65141535 0.75871658 0.0026942468 0.0021395204
0.078184068 -0.088275969 -0.16589397 -0.6743477 0.73836678 -0.0083461329 0.0019168319
0.086559094 -0.080421567 -0.16836709 -0.73112059 0.68217152 -0.010238318 0.0019664688
-0.092606477 -0.072539665 -0.16475423 0.7768966 0.629628 0.00056207355 0.0023488062
-0.089291595 -0.07685978 -0.16321558 0.76150197 0.64814734 -0.004448568 0.001864205
0.088837445 -0.077452332 -0.16500749 -0.75894511 0.6511237 -0.0063464898 0.0018189562
0.092029728 -0.07329198 -0.16506837 -0.76838714 0.63998216 -0.0020228829 0.0019647458
-0.10202962 -0.060258985 -0.16601472 0.86804014 0.49638659 -0.010325816 0.0022224237
-0.096882246 -0.066967279 -0.16767913 0.81786543 0.57539117 -0.0045893993 0.0017027274
0.097359948 -0.066345379 -0.16508722 -0.82621133 0.56336021 5.3511663e-05 0.0026936624
0.1004774 -0.062282581 -0.16243188 -0.85184675 0.52369899 0.0098213255 0.0024511169
-0.10460147 -0.054848824 -0.16496909 0.87969315 0.47553965 -0.0014098084 0.0026861471
0.10358082 -0.057278864 -0.16265294 -0.87430125 0.48533434 0.006922619 0.0024840652
-0.10713127 -0.048741542 -0.16527107 0.90372819 0.42808607 -0.0042047296 0.002425191
0.10804192 -0.046544354 -0.16572742 -0.91780841 0.39702347 -0.00031239571 0.001207048
0.11054917 -0.040491514 -0.16076577 -0.93244469 0.36131233 0.00052864617 0.0024599112
-0.11284986 -0.034936059 -0.16522518 0.95160735 0.30731368 0.0013047354 0.0017258103
0.1124448 -0.035915196 -0.16540076 -0.95176739 0.30682024 0.00051205885 0.0021748731
-0.11503368 -0.027423348 -0.16546465 0.96764523 0.25210723 -0.010232426 0.0023284263
0.11513627 -0.026647663 -0.16571234 -0.97228688 0.23377779 -0.0024930567 0.0016401719
-0.11658224 -0.015661007 -0.16416585 0.99112433 0.13293825 0.00018623119 0.0021387169
0.11679053 -0.014080734 -0.16462155 -0.99278957 0.11986964 -0.00026926195 0.0019484642
-0.1180022 -0.0048753694 -0.16503906 0.99920517 0.039460216 0.0056550712 0.0017069038
0.11808083 -0.0042786798 -0.16518749 -0.99985236 0.016158978 -0.0058363765 0.0023868636
-0.11781894 0.0062671928 -0.16499627 0.99842501 -0.055594873 0.0075334557 0.0020454654
0.11772666 0.0069689229 -0.16517229 -0.99816537 -0.06035354 0.0048265443 0.0021152257
-0.11691911 0.013101791 -0.16474199 0.99456757 -0.10408904 0.00092779548 0.002364188
0.11680547 0.013966742 -0.16509332 -0.99199653 -0.12626423 -0.00050174125 0.0026652594
-0.11533627 0.025124179 -0.16625929 0.97416413 -0.22578616 -0.0049886517 0.0014742025
0.11543772 0.024356727 -0.16736248 -0.97840905 -0.20667745 -0.00045643596 0.0022460844
-0.1130261 0.034509681 -0.16680816 0.95301437 -0.30292153 -0.0014713682 0.0022581746
0.11247669 0.035836998 -0.1643935 -0.95495659 -0.29673663 -0.0022947302 0.0021911978
-0.10835496 0.045786865 -0.16522405 0.92045629 -0.39083317 0.0030928443 0.0012783193
0.10766461 0.047454786 -0.16383895 -0.91149217 -0.41124982 -0.0074607711 0.0020097455
0.11018714 0.041364841 -0.16038248 -0.93825817 -0.34591079 0.0041493447 0.0031270012
-0.10450201 0.055069245 -0.16528252 0.87436301 -0.48527217 -0.00039736129 0.0023597619
0.10477752 0.054424871 -0.16494557 -0.87379843 -0.48613927 -0.012042532 0.0021425653
-0.10139069 0.061091665 -0.1632217 0.85880703 -0.51226825 0.0056250347 0.0024676374
-0.097658731 0.065955326 -0.16685265 0.81932575 -0.57332522 0.0018700502 0.0021420934
0.097774766 0.065804772 -0.16334333 -0.83230382 -0.55431747 0.0015333799 0.0023227928
0.10120489 0.061334468 -0.16550526 -0.8516885 -0.52376658 -0.017186707 0.0023719883
-0.091278672 0.074270122 -0.16574118 0.77183008 -0.63582766 -0.001251684 0.0016286612
-0.08853256 0.077848993 -0.16431595 0.76311374 -0.64625645 0.0031825681 0.0016939567
0.088167973 0.078324802 -0.16573443 -0.74034017 -0.67223221 -0.00054192753 0.0024589691
0.092651114 0.072482169 -0.16560516 -0.77918547 -0.62675911 -0.0065526054 0.002408399
-0.083960697 0.083656214 -0.16375387 0.70862681 -0.70558041 0.0020938427 0.0026409093
-0.078065738 0.088366464 -0.16467017 0.65743405 -0.75350195 0.0039061808 0.0022971779
0.078324147 0.08816848 -0.16384056 -0.66863668 -0.74357373 0.0048157875 0.0023098092
0.083441488 0.083903834 -0.16534014 -0.69905621 -0.71505839 0.00346152 0.0026508986
-0.073565558 0.091819584 -0.16423161 0.63986689 -0.76848501 0.0010451743 0.0016505623
-0.066011958 0.097615674 -0.16616745 0.55363929 -0.83273584 0.005884781 0.0020791173
0.066911139 0.096925847 -0.16650687 -0.57179934 -0.8203879 0.0030508996 0.0028370004
0.073634945 0.091766573 -0.16449305 -0.64367139 -0.76529628 -0.0029478434 0.0017557727
-0.061727166 0.10090354 -0.16668344 0.50848883 -0.86103827 -0.0072208373 0.0024262297
-0.054533906 0.10473231 -0.16462536 0.47488511 -0.87998909 0.010166305 0.0019694169
-0.044778783 0.10877288 -0.16484325 0.3763226 -0.92648494 -0.0026631192 0.0017778722
0.046293382 0.10814553 -0.16462083 -0.39583465 -0.91832167 -0.00051077496 0.0015227291
0.055220157 0.10444806 -0.16313869 -0.48531321 -0.87429804 0.0085966215 0.0022703731
0.060813811 0.1016044 -0.16525744 -0.5050137 -0.86305463 0.0098906187 0.002546465
-0.03531782 0.11269162 -0.16496572 0.31420824 -0.9493202 -0.0080287987 0.0017389851
-0.024289627 0.1154462 -0.16529982 0.20625444 -0.97848409 -0.0052847182 0.0018678519
-0.016137175 0.11651951 -0.16454941 0.15961777 -0.98717874 -0.0006163572 0.0018242244
-0.0039150161 0.11812863 -0.16469719 0.021387357 -0.99974889 -0.006692098 0.0023291842
0.0037047211 0.11815632 -0.16474369 -0.01854169 -0.99980694 -0.0064977114 0.0021647743
0.015222724 0.1166399 -0.1634102 -0.15457356 -0.98798096 0.00082416384 0.0015164645
0.025514157 0.11528498 -0.16305019 -0.21591806 -0.97640991 0.0017951372 0.0018469184
0.035861496 0.11246643 -0.16578846 -0.31029981 -0.95063877 0.00020981874 0.0020948171
0.041344322 0.11019544 -0.16586509 -0.36268315 -0.93190837 0.0027820484 0.0029188183
-0.040799703 -0.11042102 -0.15408649 0.33748516 0.94132257 0.0039424696 0.0028283731
-0.036476959 -0.11221151 -0.15249316 0.31592789 0.9487797 -0.0025762029 0.0020973238
-0.025584949 -0.11527566 -0.1574939 0.22447623 0.97447127 -0.004030582 0.0015402662
-0.014442551 -0.11674263 -0.15348963 0.13633102 0.99065739 0.0034260722 0.0019315199
-0.0047468431 -0.11801912 -0.15459836 0.045499466 0.99894476 0.0062639499 0.0015229062
0.005581859 -0.11790919 -0.15642166 -0.040696684 0.99915755 -0.005287603 0.0015947783
0.016187752 -0.11651286 -0.15584818 -0.16051941 0.987032 -0.0011788368 0.0015136156
0.025680322 -0.1152631 -0.15372893 -0.2370335 0.971488 0.0051155449 0.0017243079
0.035842557 -0.11247041 -0.15438995 -0.30170691 0.95339233 0.0040056724 0.0021993853
0.041266486 -0.11022769 -0.15489331 -0.3680087 0.92982227 0.00039653594 0.002138389
-0.055033747 -0.10451023 -0.15440093 0.48268995 0.87577856 0.0047109546 0.0021775614
-0.04737968 -0.10769559 -0.15471651 0.41983512 0.90759295 0.0036665748 0.0016243177
0.046230141 -0.10817173 -0.1527738 -0.3977257 0.91749859 -0.0032552478 0.0016383699
0.052756339 -0.10546857 -0.15604128 -0.45046449 0.89273059 -0.010669797 0.0018488889
0.060888343 -0.10154722 -0.1540668 -0.50448638 0.86341947 0.00064728264 0.0023149352
-0.072234675 -0.092840798 -0.15679547 0.61758053 0.78650653 -0.0013161013 0.0023192086
-0.066984013 -0.096869804 -0.15448804 0.54358143 0.8393414 0.005018278 0.0018951148
0.066367246 -0.097343177 -0.15530853 -0.54858983 0.83608919 0.002036134 0.0022265301
0.072737738 -0.092455007 -0.15725514 -0.63735121 0.77057344 -2.3599878e-06 0.001728046
-0.082912736 -0.084313363 -0.15468717 0.70179933 0.71237469 5.1803108e-05 0.0024607964
-0.078856416 -0.087759748 -0.15502721 0.67380506 0.73888004 0.0065635797 0.0021077425
0.077624708 -0.088705182 -0.1547904 -0.67044616 0.7418797 0.010796403 0.0018199504
0.082474984 -0.084661685 -0.15437013 -0.69938004 0.71472359 0.0061321063 0.0024570769
-0.093496636 -0.071379572 -0.15859964 0.79252309 0.60983574 0.0027517278 0.0024414177
-0.089337483 -0.076799974 -0.15323092 0.75897336 0.65106285 0.0087500429 0.0017318141
0.088886775 -0.077388033 -0.15517256 -0.75871438 0.65140408 0.0050222874 0.0017323251
0.092399225 -0.072810441 -0.15426545 -0.76582795 0.64303309 -0.0039944495 0.0017470024
-0.10071517 -0.061972037 -0.15487815 0.8529411 0.52196085 -0.0069532343 0.002405229
-0.097227015 -0.066517949 -0.15549307 0.82890981 0.55938065 -0.0013788365 0.0022631481
0.097390346 -0.066305764 -0.15564455 -0.82856447 0.55989027 -0.0019792698 0.002434301
0.10108296 -0.061493382 -0.15413903 -0.8548122 0.51890498 -0.0058134254 0.0025324943
-0.10504533 -0.053777274 -0.15551536 0.88428533 0.46693817 -0.0028828341 0.0023454875
0.10418671 -0.055844333 -0.15546826 -0.87431198 0.4853411 -0.0047584283 0.0022653781
-0.11055505 -0.040476047 -0.15671423 0.93815488 0.34621358 0.0012223052 0.0020454549
-0.10835907 -0.045777459 -0.15476781 0.91380173 0.40615031 -0.0029036643 0.0018987483
0.10824685 -0.04604961 -0.15610465 -0.91521609 0.4029569 0.0023110956 0.00096086581
-0.11216256 -0.036595296 -0.1573336 0.94947612 0.3138296 -0.0024517444 0.0017957398
0.11321388 -0.034058526 -0.15680896 -0.95893401 0.28362951 -4.4416545e-05 0.0020600811
-0.11553349 -0.023627039 -0.15448645 0.97554278 0.2198088 -0.0005486912 0.0017586357
0.11507778 -0.027091894 -0.15443569 -0.97404772 0.22633462 0.0019209575 0.0016395344
-0.11688534 -0.013358725 -0.1545779 0.99440515 0.10550787 -0.0051396317 0.0027036902
0.11679681 -0.014032978 -0.15445015 -0.99269617 0.12052044 0.0053973659 0.0023326133
-0.11799964 -0.0048949653 -0.15569456 0.99964201 0.026756188 0.00011892072 0.0019352089
0.11790608 -0.0056061684 -0.15360369 -0.99919122 0.040063828 -0.0034266941 0.0025926132
-0.11772523 0.0069789104 -0.15498824 0.99789274 -0.064533249 -0.0067435396 0.0021047799
0.11777213 0.0066236076 -0.15498675 -0.99774384 -0.066327006 -0.010392535 0.0019507759
-0.11647727 0.016457848 -0.15466782 0.98948848 -0.14460346 -0.0015846904 0.002508739
0.11680137 0.013997819 -0.15365353 -0.99095362 -0.13419542 -0.0016078675 0.0023069212
-0.11538202 0.024776608 -0.15465035 0.98094189 -0.19424433 -0.004700121 0.0017417436
0.11551099 0.023800254 -0.15523286 -0.98128736 -0.19250984 -0.0038766777 0.0023264403
-0.11228701 0.036294002 -0.15677014 0.95157528 -0.30735227 -0.00624811 0.00215192
0.11258378 0.03557881 -0.1567066 -0.95662963 -0.2912778 0.0041123037 0.0021485095
-0.10862726 0.045129497 -0.15341598 0.92686158 -0.37539455 0.0025571263 0.0016680881
0.1083802 0.045727205 -0.15473382 -0.92124629 -0.38897949 0.00051495532 0.0013859551
-0.10422757 0.055746723 -0.15536767 0.87159687 -0.49013025 -0.0095516276 0.0022430313
0.10427827 0.05556602 -0.1543785 -0.87548494 -0.48324096 -0.0020351668 0.0018046657
-0.10140128 0.061077859 -0.15506199 0.85558945 -0.51765406 0.00087940984 0.0027403138
-0.097668342 0.065942794 -0.15472957 0.8275131 -0.56144398 0.0016583847 0.0017789218
0.096618518 0.067311659 -0.15640874 -0.81763732 -0.57565874 -0.0092904074 0.0024928292
-0.092515461 0.072658293 -0.15300564 0.77287626 -0.63455153 0.0025635178 0.0016554306
-0.088581778 0.077784859 -0.15386571 0.75923645 -0.65081388 -0.0011207364 0.00191534
0.089625239 0.076425634 -0.15720612 -0.76458603 -0.64450252 -0.0049767159 0.0019060393
0.092899859 0.072157986 -0.15511538 -0.77436107 -0.63273817 0.0027127543 0.0016785463
-0.083811834 0.083487637 -0.15365341 0.7124275 -0.7017433 -0.0018075563 0.0023911593
-0.077698521 0.08864823 -0.15256631 0.65631205 -0.75448918 -0.0007240171 0.0017360138
0.077744931 0.088612922 -0.15489933 -0.65904474 -0.75210094 -0.0020767197 0.0022489049
0.084041379 0.083363175 -0.15517516 -0.70473713 -0.70945138 -0.0049242969 0.0021958044
-0.073016815 0.092240654 -0.15659709 0.64201862 -0.76668143 -0.0034053847 0.0016455727
-0.065419026 0.098070666 -0.15501294 0.54222536 -0.84018034 -0.0094076963 0.0022054571
0.065209985 0.098231159 -0.15594836 -0.54504257 -0.83840293 -0.0030248531 0.0024095101
0.073221736 0.092083625 -0.15611897 -0.64311755 -0.76576734 -0.00049697631 0.001786128
-0.062647335 0.10019746 -0.15991059 0.52735347 -0.84961224 -0.0075735035 0.0023174288
-0.055686306 0.10425498 -0.15404756 0.49109259 -0.87110192 0.0030820814 0.0022835603
-0.046444155 0.10808309 -0.1560922 0.39645937 -0.91804582 0.0034331158 0.0011313151
0.047214229 0.10776412 -0.15549313 -0.39925516 -0.91682601 -0.0050365846 0.0014365452
0.054555837 0.10472322 -0.15495372 -0.4798165 -0.87736821 0.0010777491 0.0022166334
0.061852343 0.10080752 -0.15465817 -0.52748829 -0.84952033 0.0084366985 0.0025780944
-0.040387928 0.11059159 -0.15139377 0.35239336 -0.93584335 0.0040201317 0.0022851008
-0.03747559 0.11179788 -0.15676653 0.32872748 -0.94442385 -0.0013122497 0.0018179611
-0.02567924 0.11526325 -0.15656486 0.22584443 -0.97415942 -0.0027772421 0.0015930594
-0.014006673 0.1168 -0.15538692 0.11568824 -0.99327648 -0.0042380011 0.0024184326
-0.0054587102 0.11792539 -0.15801722 0.033587981 -0.99943525 -0.0010352462 0.0019111101
0.0047108186 0.11802386 -0.15530372 -0.033781961 -0.99939793 0.0078995181 0.0016971949
0.01323719 0.11690131 -0.15550822 -0.12959535 -0.99155873 0.0040258118 0.0021222041
0.023002136 0.1156157 -0.15332618 -0.19116899 -0.98153043 0.0072374428 0.0021715842
0.036502544 0.11220092 -0.15487713 -0.32376534 -0.94608945 -0.0095306067 0.0019726688
0.041329723 0.11020149 -0.15690711 -0.35039589 -0.936571 -0.0075769834 0.0021638849
-0.041302297 -0.11021285 -0.14148502 0.34876779 0.93720716 -0.0019280991 0.0020545942
-0.034116115 -0.11316016 -0.14403664 0.27828327 0.96049905 -3.686807e-05 0.0021456562
-0.025948003 -0.11522786 -0.14440842 0.23449054 0.9721182 -0.00056500133 0.0018991638
-0.014594299 -0.11672264 -0.14273596 0.1317986 0.99127209 0.0029596051 0.0029653283
-0.0045391493 -0.11804644 -0.1435878 0.02989007 0.99955314 -0.00023989248 0.0027914264
0.0058530276 -0.11787349 -0.14454718 -0.038498651 0.99925452 -0.0028479083 0.0017015426
0.011859207 -0.11708274 -0.14858744 -0.10996666 0.99391741 -0.0059680338 0.0024057219
0.024527395 -0.1154149 -0.14431956 -0.20944186 0.97771502 0.014399949 0.0017316204
0.036171023 -0.11233824 -0.14563081 -0.31498632 0.94909233 0.0026915243 0.0020065873
0.040323809 -0.11061814 -0.14549515 -0.33722889 0.94141757 0.0031175686 0.0025777824
-0.062026341 -0.10067397 -0.14484696 0.51907235 0.85472393 0.0033064084 0.0022041418
-0.05239471 -0.10561837 -0.14359839 0.45558473 0.89018786 0.0028541328 0.0020503446
-0.045549035 -0.10845386 -0.14341317 0.39523253 0.91858095 -0.00055284792 0.0016377965
0.046470165 -0.10807232 -0.14458719 -0.39885482 0.91701227 -0.0018461728 0.0015874831
0.053901047 -0.10496143 -0.14402786 -0.47281164 0.88113827 0.0066733635 0.0018031053
0.062487531 -0.10032014 -0.144968 -0.518619 0.85499156 0.0048605804 0.0022856463
-0.072968431 -0.09227778 -0.14621377 0.63154233 0.77531844 -0.0059704133 0.001888879
-0.066079199 -0.097564094 -0.14356509 0.54584175 0.83788019 -0.0036885317 0.002126246
0.066899672 -0.096934639 -0.14484087 -0.56046456 0.8281762 0.0018904372 0.0024991275
0.07260631 -0.092555851 -0.14582148 -0.63473618 0.77269709 0.0070153843 0.0017396994
-0.083616234 -0.083608203 -0.14422102 0.71231258 0.70181632 0.0080391727 0.0021710182
-0.078218274 -0.088249423 -0.14368378 0.67004669 0.74227673 0.0079177385 0.0019055634
0.077063963 -0.089135438 -0.14640471 -0.66364914 0.74800992 -0.0071385 0.0020949298
0.083806515 -0.083617486 -0.14345501 -0.71164709 0.70253319 0.0023588424 0.0021648321
-0.092284203 -0.072959669 -0.14446452 0.76909894 0.63912344 0.0028153572 0.0015808408
-0.088796727 -0.077504717 -0.14666255 0.74260861 0.6697107 0.004464162 0.0017152637
0.088357404 -0.078077935 -0.14711121 -0.74965215 0.66182595 0.0028548264 0.0020870576
0.092499375 -0.072679922 -0.14583348 -0.77332896 0.63400167 -0.0020750465 0.0013458162
-0.097700141 -0.065901361 -0.14632933 0.83009285 0.55753356 -0.010107516 0.0022691295
0.096902311 -0.066941805 -0.14472859 -0.82195199 0.56946814 -0.010051728 0.0030855469
0.1008722 -0.061768055 -0.1476506 -0.85560614 0.51747286 -0.012645243 0.0023776905
-0.10363753 -0.057028793 -0.14716566 0.87230641 0.48893631 -0.0047752224 0.0021884472
0.1046128 -0.054822717 -0.1458514 -0.88204455 0.47115552 -0.0031535642 0.0025654801
-0.10785839 -0.046986189 -0.1460062 0.91797495 0.39659813 -0.0056439838 0.0014697368
0.10820439 -0.046152133 -0.14427251 -0.9201529 0.39153957 -0.0039242064 0.0016657909
0.11033462 -0.041009456 -0.14319634 -0.93652058 0.35060602 0.0021451202 0.0024786775
-0.11268683 -0.035275605 -0.14449427 0.95458257 0.29794544 -0.00076863961 0.0016741335
0.1125389 -0.035688028 -0.14507455 -0.9494012 0.31397799 -0.0074340301 0.0024133776
-0.11542138 -0.024478583 -0.14657293 0.97627121 0.21634957 -0.0093530687 0.0013998629
0.11506189 -0.027212696 -0.14389244 -0.97029108 0.24189469 0.0047114287 0.0021539619
-0.11684129 -0.013693373 -0.14423335 0.99368083 0.11213841 -0.0048405523 0.002534582
0.11661234 -0.015434367 -0.14534418 -0.98942393 0.14505197 0.00035454097 0.0017227682
-0.11824857 -0.0030041065 -0.14778639 0.99994791 0.0068264576 -0.0075829048 0.0022003914
0.11813011 -0.0039044069 -0.14492168 -0.99990249 0.011653729 0.0076961359 0.0023132849
-0.11791332 0.0055502909 -0.14377615 0.99914068 -0.041132405 0.0051066601 0.0015600348
0.11793823 0.0053618378 -0.14366014 -0.99897105 -0.045269664 0.0027401776 0.0022570933
-0.11680046 0.014003021 -0.14409994 0.99159211 -0.12939872 -0.0010607316 0.0029104922
0.11662105 0.015367684 -0.14457665 -0.9904834 -0.1376173 -0.0020368295 0.002147896
-0.11548456 0.023997938 -0.14520621 0.97822738 -0.2075343 0.00085377734 0.0016461796
0.11522928 0.025940165 -0.14545417 -0.97398609 -0.22646402 0.0080706375 0.0021972137
-0.11230076 0.036245167 -0.14442055 0.94969136 -0.31314123 0.0053796885 0.001920458
0.11287425 0.034877539 -0.14520873 -0.95958537 -0.28134105 0.0065700309 0.0017891186
-0.11028084 0.041137364 -0.1430636 0.9398039 -0.34156328 0.010156368 0.0021664479
-0.10891816 0.044427175 -0.14568043 0.9215169 -0.38833821 -0.00029633052 0.0013735936
0.10816659 0.046242923 -0.14715566 -0.91513622 -0.4031392 0.0021251887 0.0014803521
0.11045265 0.040723834 -0.14432096 -0.93902773 -0.34382755 0.0030947991 0.002583127
-0.10454179 0.054992747 -0.14708014 0.87473887 -0.48452446 -0.0082382997 0.0020325731
0.10508232 0.053689025 -0.14555052 -0.88570124 -0.46420571 0.0068081594 0.0023455641
-0.1013421 0.061154995 -0.14699556 0.85257429 -0.52255976 -0.0069584739 0.0025675432
-0.097435415 0.066246353 -0.14539386 0.83222091 -0.55435944 -0.0096931197 0.0027998528
0.097369395 0.066333078 -0.14345577 -0.83591014 -0.5488255 0.0066963183 0.0023776758
-0.092301361 0.072937317 -0.14445363 0.76987082 -0.63819736 0.001710003 0.0015317093
-0.088469461 0.077931225 -0.14560509 0.76061857 -0.64919901 0.00027675609 0.0018558599
0.089347243 0.076787919 -0.14493525 -0.75746936 -0.65284044 0.0062909168 0.0020081683
0.092272073 0.072976142 -0.1457842 -0.76986182 -0.63821048 0.0004771979 0.002021506
-0.082754061 0.084523544 -0.14557804 0.6958065 -0.71822923 0.00025831308 0.002078169
-0.078151099 0.088300966 -0.14432269 0.66722637 -0.74485457 -0.00074986409 0.0024923149
0.078105688 0.08833611 -0.14722772 -0.66842902 -0.74377251 -0.002235509 0.0022302861
0.083699808 0.083528332 -0.14524658 -0.69592565 -0.71811116 -0.0019762602 0.0021322062
-0.070668124 0.094042875 -0.14360379 0.60033005 -0.79975122 0.0013478117 0.0017627476
-0.065748766 0.09781763 -0.14274082 0.541776 -0.84051931 -0.002487985 0.0022019409
0.064390711 0.098859794 -0.14464182 -0.53594184 -0.84425455 0.00072663772 0.0025892819
0.072469845 0.092660576 -0.14544202 -0.62766421 -0.778476 -0.0035842867 0.0014399671
-0.061395768 0.10115782 -0.14345954 0.50658482 -0.86211181 0.01162127 0.0023253728
-0.056163687 0.10402262 -0.145101 0.48635635 -0.87375706 0.0024664302 0.0023110169
-0.046085294 0.10823174 -0.14508349 0.40383691 -0.91482437 -0.0034932031 0.0018395706
0.044863947 0.10873761 -0.14542162 -0.3796443 -0.92513239 -0.00051337789 0.0014172526
0.056486141 0.10390067 -0.14489396 -0.48967335 -0.87188613 -0.0058706393 0.0022342834
0.061876912 0.10078868 -0.14448151 -0.51623344 -0.85644519 -0.0021537638 0.0027932778
-0.040922582 0.11037013 -0.14349289 0.3665241 -0.93039531 0.0049595754 0.002460652
-0.034044258 0.11321914 -0.14385386 0.29419211 -0.95574045 -0.0033499184 0.0025120454
-0.026059231 0.11521322 -0.1470395 0.2243029 -0.97450948 -0.0044141458 0.0017871384
-0.017120937 0.11639 -0.14584346 0.15647018 -0.98767692 -0.0033532877 0.001619832
-0.0052032284 0.11795903 -0.14424667 0.036860667 -0.99926722 0.010311284 0.0026167398
0.0056108958 0.11790535 -0.14415963 -0.035222385 -0.99937481 0.0030667845 0.001950915
0.014077311 0.11679072 -0.14552175 -0.13751426 -0.9904874 0.0049462621 0.0022688201
0.023118686 0.11560036 -0.14353611 -0.2029271 -0.97917533 0.0060196179 0.0017379816
0.035255942 0.11271725 -0.14432846 -0.29962081 -0.95404774 0.0044959178 0.0019459821
0.040627047 0.11049253 -0.14361528 -0.35027888 -0.93664426 -0.0015058063 0.0023079065
-0.040995102 -0.1103401 -0.13393022 0.34268352 0.93944257 0.0039511467 0.0022150553
-0.034703571 -0.11292408 -0.13404496 0.3032431 0.95291167 0.0017245157 0.0017360857
-0.024711315 -0.11539067 -0.13581099 0.20595184 0.97856063 0.0016944646 0.0020335868
-0.015303031 -0.11662932 -0.13544382 0.13564049 0.99075413 0.0028036647 0.0024352523
-0.0041079428 -0.11810323 -0.13446768 0.025306486 0.99967551 0.0029059786 0.0020059098
0.0046033594 -0.11803801 -0.13564469 -0.026059104 0.99965841 -0.0019943807 0.0021496878
0.014358075 -0.11675374 -0.13515814 -0.11825451 0.99296916 0.0053110118 0.0026699717
0.023847008 -0.11550447 -0.13485971 -0.20234606 0.97930884 0.0031994837 0.0021771125
0.034681462 -0.11295521 -0.13441494 -0.29286006 0.95614141 0.0051564695 0.0016113078
0.040455773 -0.11056348 -0.13025965 -0.35081539 0.93644381 0.0012256933 0.0022487876
-0.061077546 -0.10140201 -0.13246122 0.50812304 0.86127937 0.0029523557 0.0024600718
-0.055418458 -0.10436358 -0.13388202 0.48457095 0.87472218 0.0072124004 0.0022914766
-0.046980452 -0.10786096 -0.13423824 0.4133935 0.91055226 -0.00055988523 0.0019649079
0.044782978 -0.10877115 -0.13593589 -0.39225575 0.91985506 0.001435995 0.0013100256
0.055759713 -0.10419938 -0.13469587 -0.47862953 0.87795424 -0.010491982 0.0022067167
-0.074607961 -0.091019712 -0.13792329 0.63739544 0.77052706 -0.0038679603 0.0017840073
-0.067893155 -0.096172184 -0.13805881 0.58121169 0.81374896 -0.0023855569 0.0024801081
0.06665232 -0.097124435 -0.13633673 -0.56696695 0.82372832 -0.0044840523 0.0019024612
0.072422884 -0.0926966 -0.13344826 -0.63642144 0.77133781 -0.0024129064 0.0018169697
-0.085890405 -0.081292383 -0.13297044 0.72306108 0.6907323 0.0084542716 0.0018508444
-0.07713417 -0.089081287 -0.13467701 0.65774989 0.75323617 -0.00058836967 0.002040718
0.078307264 -0.088181436 -0.13513957 -0.67911381 0.73398352 0.0085225375 0.0022280833
0.084721595 -0.08258798 -0.13515775 -0.72455436 0.68917817 0.007374662 0.0020567107
-0.091903411 -0.073455937 -0.13523687 0.7702902 0.63768762 0.0027466055 0.0014607474
-0.08867038 -0.077669382 -0.1348021 0.74534088 0.66666979 0.004281132 0.0021743942
0.088157102 -0.078338966 -0.13298824 -0.74062455 0.67190927 0.0036309988 0.0020965203
0.092529774 -0.072640315 -0.13464612 -0.77795208 0.62831628 0.003025552 0.0015317171
-0.10062243 -0.062092889 -0.13486525 0.85397154 0.52028745 0.0057959906 0.0024082544
-0.097091667 -0.066694357 -0.13402207 0.82355952 0.56722403 0.002582567 0.0029493261
0.097114682 -0.066665024 -0.13410075 -0.82870424 0.55967575 -0.0035222198 0.0025213151
0.10151879 -0.060925379 -0.13607684 -0.86055267 0.50926667 -0.0098327454 0.0026477014
-0.10481875 -0.05428974 -0.13548507 0.88217247 0.47091103 0.0038066709 0.0019380513
0.10469241 -0.054630507 -0.13398135 -0.87715489 0.4799794 -0.014799207 0.0021563696
-0.11022373 -0.041275885 -0.13680027 0.93239701 0.36143458 0.00090498035 0.0025778043
-0.10841824 -0.045634605 -0.13525772 0.91828334 0.39592046 0.0016182062 0.0014549505
0.10901479 -0.044195712 -0.13567524 -0.92019814 0.39144936 -0.0016649361 0.0016206584
0.11027212 -0.041160338 -0.13453808 -0.93979752 0.34172833 0.0015435304 0.0025060892
-0.11285497 -0.034923736 -0.13578492 0.95336491 0.30181769 -0.0011907862 0.0018905117
0.11324336 -0.033969998 -0.13580768 -0.95953166 0.2815094 -0.0071758209 0.0023917691
-0.11537324 -0.024844175 -0.13467789 0.97854477 0.20552008 0.014547943 0.0017172924
0.11580724 -0.021550514 -0.137666 -0.98300719 0.18341233 -0.0075311172 0.0022022759
-0.11659747 -0.015545206 -0.13529634 0.99063122 0.13656408 3.5718371e-05 0.0025435344
0.11695345 -0.012843044 -0.13500322 -0.99444634 0.10523003 0.0017628847 0.0026826491
-0.11796691 -0.0051434389 -0.13525774 0.999686 0.024259152 -0.0062707826 0.0019721133
0.11788338 -0.0057788058 -0.13331357 -0.99885356 0.047130786 0.0083861491 0.0020145832
-0.11805073 0.0045066313 -0.1355098 0.99963927 -0.026837021 -0.0010281075 0.0019642217
0.11818062 0.0035206357 -0.1358142 -0.99980938 -0.019340931 -0.002654565 0.0021285797
-0.11680532 0.013966128 -0.13408637 0.99214154 -0.12509085 0.0027221125 0.0033610498
0.11633091 0.017571714 -0.13591419 -0.98506647 -0.1721656 0.0017340936 0.0019524158
-0.11540065 0.024635224 -0.13612026 0.97783297 -0.20938215 0.0013417357 0.0019233277
0.11532221 0.025234198 -0.13450621 -0.97172934 -0.23609641 -0.00080250221 0.0020284893
-0.11235575 0.036128037 -0.13447136 0.94895256 -0.31526995 0.0096915159 0.0019725882
0.11266342 0.03538654 -0.13433357 -0.95227194 -0.30519265 0.0059660524 0.0017705563
-0.11025658 0.041195944 -0.1375742 0.93781126 -0.34706479 0.007491068 0.0029693502
-0.10839683 0.045685783 -0.13333595 0.91960537 -0.39284104 0.0013883727 0.0015556932
0.10817198 0.046229884 -0.13511118 -0.92481661 -0.38035014 -0.0069278334 0.0019963339
0.11044202 0.040749505 -0.13790093 -0.93761486 -0.34764636 -0.0045042676 0.0025785309
-0.10451899 0.055047791 -0.13567574 0.87622589 -0.48183101 -0.0081874216 0.0021852537
0.10521205 0.053375851 -0.13274869 -0.89157218 -0.45276007 0.010365352 0.0021455667
-0.10066606 0.062036037 -0.13339344 0.85799652 -0.5136435 -0.0035084966 0.0025188378
-0.096479319 0.067492388 -0.13706052 0.82133323 -0.57043397 -0.0040868325 0.002843359
0.097952344 0.06557335 -0.13431799 -0.84701759 -0.53153676 0.0054743974 0.0020511306
0.10149128 0.060961239 -0.13435364 -0.86277527 -0.50557512 0.00355399 0.00217302
-0.092479959 0.072704546 -0.13454041 0.77948147 -0.62642473 0.00087246142 0.0014843643
-0.089930192 0.076027535 -0.13854228 0.75981122 -0.65014076 0.0019628878 0.0020194512
0.088239372 0.078231767 -0.13210747 -0.73517078 -0.67788136 -0.00084135268 0.0016468618
0.092853256 0.072218724 -0.13503727 -0.78062385 -0.62500054 0.00086151442 0.001740256
-0.085514449 0.081764974 -0.13586034 0.72493249 -0.68881315 -0.0030700129 0.0021515605
-0.077675678 0.088665754 -0.13664825 0.65909004 -0.75204575 -0.0052420846 0.0021330947
0.078035131 0.088390246 -0.13510117 -0.65218687 -0.75805604 0.0018190377 0.0017594267
0.084134787 0.08317057 -0.13525979 -0.7051605 -0.70904773 0.00019552166 0.0023696283
-0.073633552 0.091767408 -0.13503213 0.64307874 -0.76579469 0.0028885093 0.0018013297
-0.066400766 0.097317338 -0.13539332 0.54989171 -0.83521527 0.0058766645 0.0024955221
0.065389849 0.098093137 -0.1363506 -0.541255 -0.8408559 -0.002108702 0.0024262201
0.072458766 0.09266907 -0.13515195 -0.63642102 -0.77133125 -0.0040440583 0.0017853321
-0.061960466 0.10072452 -0.13611916 0.52110285 -0.85349369 -0.00058610202 0.0025180157
-0.055005904 0.10451537 -0.13523816 0.47970238 -0.87742877 0.0020834105 0.0022600431
-0.047957387 0.1074563 -0.13480432 0.42231867 -0.9064461 0.00157258 0.0018219595
0.046398543 0.10810199 -0.13396646 -0.39028496 -0.92068911 -0.0030381912 0.0014018581
0.054382745 0.10477545 -0.13413419 -0.4731358 -0.88098931 -0.00051518384 0.0020866445
0.061454941 0.10111246 -0.13530871 -0.51024228 -0.86001134 -0.0057707527 0.0026651055
-0.041618638 0.11008182 -0.13275841 0.36091134 -0.93258291 0.0056585306 0.0026384972
-0.034723196 0.11291652 -0.13395125 0.31321064 -0.94968367 0.00036153494 0.0018765081
-0.024415139 0.11542968 -0.13449226 0.20961028 -0.97778147 -0.0026198085 0.0023756002
-0.015278805 0.11663253 -0.13586979 0.13080746 -0.99140292 -0.0030969041 0.002324499
-0.0014505297 0.1184531 -0.13077495 0.012912421 -0.99988914 0.0074107959 0.0023102476
0.0042497301 0.11808457 -0.13382883 -0.022653779 -0.99972439 0.0061603659 0.0021820629
0.014468295 0.11673923 -0.13400796 -0.14634211 -0.98922962 -0.0029598139 0.0025774017
0.024650926 0.11539863 -0.13698661 -0.21330747 -0.97697723 -0.003915594 0.0013703376
0.034696791 0.11290438 -0.13397883 -0.3030422 -0.95297128 0.0033331593 0.0019782574
0.041006066 0.11033554 -0.13450272 -0.34615004 -0.93817496 0.0028040379 0.0031453532
-0.036241222 -0.11230915 -0.12232579 0.32482415 0.94577444 -0.00019170006 0.0018358314
-0.023668341 -0.11552799 -0.12445658 0.20801316 0.97807163 0.010314562 0.001934172
-0.016334873 -0.11649349 -0.125488 0.15856124 0.98734796 -0.0015289813 0.0019384893
-0.005241171 -0.11795404 -0.12705547 0.046392567 0.99892265 0.0011310737 0.0014443048
0.0045042569 -0.11805107 -0.12438171 -0.045078076 0.99898344 -0.00013303061 0.0026882009
0.015376197 -0.11661971 -0.12460775 -0.15511118 0.98789275 0.0029058815 0.0015235487
0.025123507 -0.11533641 -0.12495116 -0.22446424 0.97447497 -0.0037860726 0.0015713697
0.033744354 -0.11334336 -0.12322768 -0.26686233 0.96373123 0.0025572977 0.0023848703
0.041793037 -0.11000958 -0.12283903 -0.35640472 0.9343313 0.0009176727 0.0024620977
-0.062140282 -0.10058654 -0.12715182 0.51394391 0.85782301 0.001101912 0.002285792
-0.055456448 -0.10432778 -0.12625138 0.48510614 0.87445498 -0.00069362985 0.0022356531
-0.045180831 -0.10860637 -0.12564182 0.38431236 0.92320168 -0.0016290544 0.0021372545
0.045860611 -0.1083248 -0.12279899 -0.3992365 0.91684788 0.00013529265 0.0012434747
0.054477118 -0.10472409 -0.1246751 -0.46157232 0.88710248 0.00034917862 0.0020791872
0.061213918 -0.1012974 -0.12473194 -0.51599061 0.85657001 -0.0064479415 0.0021219363
-0.071420237 -0.093465753 -0.12452368 0.61198652 0.79085642 0.0043277168 0.002014382
-0.067351967 -0.096587457 -0.1257377 0.58158636 0.81348324 0.0015068871 0.0023135392
0.066372409 -0.097339213 -0.12579627 -0.55230331 0.83363914 0.0026104166 0.0026566226
0.071873784 -0.09311793 -0.12407202 -0.63189214 0.77505571 0.0010107735 0.0018436242
-0.082976498 -0.08434657 -0.12456466 0.69557166 0.71841705 0.0075542168 0.002334707
-0.078250661 -0.08822456 -0.12522368 0.67129099 0.74119282 0.0012611642 0.0023947535
0.078302264 -0.088185273 -0.12485058 -0.66484958 0.74694675 -0.0067521841 0.002603953
0.081631787 -0.085630476 -0.12627299 -0.69074064 0.72305101 -0.0086348578 0.0019510139
-0.090920694 -0.074736655 -0.12391555 0.76741517 0.64114547 0.002531627 0.0018761711
-0.087810099 -0.078790545 -0.12491129 0.73270655 0.68054235 0.001805707 0.0018231649
0.089817315 -0.07617531 -0.12375373 -0.76229668 0.64720702 -0.0051739248 0.002110519
0.09240672 -0.072800681 -0.12750053 -0.77286828 0.63456655 0.00012912677 0.0017519672
-0.10147337 -0.060983911 -0.12400446 0.85612482 0.51672828 0.0065035126 0.0025507347
-0.097644843 -0.065973409 -0.12653702 0.83616567 0.54847366 0.0019049208 0.0026299497
0.096659087 -0.067258775 -0.12530972 -0.8171652 0.57638317 0.0048455079 0.0024950381
0.10101054 -0.061587762 -0.12604587 -0.85720634 0.51493198 0.0065031215 0.0025127803
-0.10503249 -0.053808268 -0.12480822 0.88442129 0.46667582 0.003562653 0.0018392091
0.10540441 -0.052911647 -0.12301476 -0.88847941 0.45891517 0.0010660908 0.0021412473
-0.11059538 -0.040378671 -0.12689227 0.94140273 0.33726075 -0.004009482 0.0023211234
-0.10991367 -0.042024437 -0.12802827 0.93442112 0.35615918 -0.0027723138 0.0023098197
0.10907044 -0.044061378 -0.12636575 -0.91910189 0.39399219 0.0046886588 0.0015778866
-0.11291952 -0.034741487 -0.12423391 0.95448416 0.29824352 0.0032831554 0.0018863183
0.11275766 -0.035159878 -0.12592208 -0.95206678 0.30586946 0.0035663429 0.0020242059
-0.11546036 -0.024182502 -0.12426052 0.97640431 0.21592794 0.003119583 0.0014548234
0.11543539 -0.024375262 -0.12664315 -0.97987086 0.19963206 0.00015658075 0.0018714609
-0.11678364 -0.01413125 -0.12360215 0.99241334 0.12275906 0.0067797261 0.0029375281
0.11675549 -0.01434691 -0.12513936 -0.99208099 0.12559222 -0.0013601119 0.001990149
-0.11815193 -0.0037381195 -0.12601779 0.99966162 0.02459228 -0.0084795076 0.0020397657
0.11809892 -0.0041412665 -0.12162521 -0.99934858 0.035903957 -0.0036444068 0.0015848101
-0.11786988 0.0058802534 -0.12412967 0.99919063 -0.040163875 0.0022294824 0.0015095595
0.11803968 0.0045911246 -0.1245827 -0.99967045 -0.023374494 0.010610522 0.0020854997
-0.11662491 0.015336427 -0.12642145 0.98943734 -0.14464574 -0.0095614046 0.0022297963
0.11662503 0.015337532 -0.12479055 -0.99175942 -0.12809896 0.0019596186 0.0026981144
-0.11523119 0.025922352 -0.12523466 0.97626257 -0.2165049 -0.0060827876 0.0016546102
0.11520991 0.026087275 -0.12482214 -0.97315311 -0.23009558 0.0053843223 0.0021204366
-0.11223684 0.036415156 -0.12518133 0.94832355 -0.31728619 0.0034517869 0.0019995926
0.11273263 0.035219446 -0.12510224 -0.94889712 -0.31557682 0.0023164838 0.0019175007
-0.11043274 0.040770628 -0.12406161 0.94154638 -0.33687246 0.002698804 0.00239573
-0.10823963 0.046065308 -0.12445098 0.9100399 -0.414509 -0.0031075284 0.001917433
0.10787516 0.04694647 -0.12648906 -0.91450435 -0.40456918 -0.0023657414 0.0013973215
0.11057512 0.040428162 -0.1284425 -0.93630314 -0.35114583 -0.005747756 0.0024245412
-0.10485482 0.054236997 -0.1241608 0.87854779 -0.47764707 -0.0026639255 0.0019699822
0.10496268 0.053977892 -0.12454965 -0.88342899 -0.46855986 -0.0022078161 0.0025598919
-0.10145613 0.061006382 -0.12529989 0.86258018 -0.50591707 -0.0017978851 0.0026557141
-0.097588412 0.066046968 -0.12440032 0.83116442 -0.55585706 -0.013735063 0.0023050515
0.097358465 0.066347331 -0.12453565 -0.84059441 -0.54166073 0.0021400093 0.0021345853
0.10164005 0.060767345 -0.12126305 -0.86202818 -0.50675762 0.01020689 0.0024688055
-0.093356639 0.071562015 -0.12571155 0.78850001 -0.61501819 -0.0045240368 0.0019607251
-0.089166939 0.077022225 -0.12575811 0.75838554 -0.65171403 -0.0109592 0.0022710902
0.088212632 0.078266613 -0.12256142 -0.74700558 -0.66481686 0.0010431191 0.0022029718
0.091105029 0.074497104 -0.12667131 -0.76590896 -0.64294773 -0.001314617 0.0023099575
-0.083057299 0.084357396 -0.12505955 0.70146662 -0.71270174 0.00085637835 0.0024621871
-0.077670448 0.088669777 -0.12004817 0.66449082 -0.74729615 -0.000702249 0.0020821884
0.076793469 0.089342989 -0.12855864 -0.64600873 -0.76332641 0.0023378755 0.0017247954
0.084036231 0.083514236 -0.1244894 -0.71527559 -0.69881278 0.0064453087 0.0023866156
-0.071787037 0.093184292 -0.12464564 0.60186809 -0.79858726 0.0036380962 0.0020942115
-0.067073524 0.09680111 -0.12433373 0.57151413 -0.82056636 0.0065067816 0.0024373678
0.066352591 0.097354412 -0.12538736 -0.56314099 -0.82636082 -0.00011073638 0.0033177838
0.071158499 0.093666777 -0.12195609 -0.62878931 -0.77757579 0.00016445237 0.0014282665
-0.061085418 0.10139596 -0.12157832 0.52078646 -0.85368085 -0.0032344125 0.002511295
-0.056756645 0.10381091 -0.12724495 0.4837853 -0.87518084 -0.0032115458 0.0022452748
-0.047839671 0.10750506 -0.12580711 0.41306129 -0.91069329 -0.0042377734 0.0019353267
0.044799019 0.10876451 -0.12339818 -0.38891634 -0.92126995 0.0023857176 0.0011563202
0.055070773 0.10449693 -0.12589569 -0.48123232 -0.87659091 0.0019370537 0.0022731926
0.061241321 0.10127638 -0.12446204 -0.50601298 -0.86252511 0.0011653698 0.0027090863
-0.035509206 0.11261234 -0.12569545 0.30775347 -0.9514606 -0.0032377432 0.001805961
-0.02636975 0.11517234 -0.12525456 0.23001438 -0.973185 0.0020564871 0.0019526774
-0.014807037 0.11669464 -0.1252096 0.1326019 -0.99116743 0.0019966622 0.0023010201
-0.0039327424 0.1181263 -0.12637164 0.022146374 -0.99974895 0.0034004338 0.002501433
0.004685204 0.11802724 -0.12555248 -0.037898771 -0.99927896 0.0022858479 0.0018818431
0.01333229 0.11688881 -0.12523416 -0.1380934 -0.99040687 0.0049392888 0.0021675418
0.024150761 0.11546449 -0.12496104 -0.19975191 -0.97984177 0.0030444434 0.0018715014
0.036196794 0.11232755 -0.12481594 -0.31825072 -0.94800216 0.0029033965 0.0020170358
0.04078728 0.11042617 -0.12282982 -0.34591955 -0.9382565 0.0038020599 0.0026066261
-0.041082662 -0.11030383 -0.11289734 0.3488324 0.93708974 -0.013375891 0.0018891204
-0.034059949 -0.11320167 -0.11558726 0.29063466 0.95679569 -0.0085670091 0.0021084272
-0.024605403 -0.11540463 -0.11410005 0.21624437 0.97630757 -0.007863896 0.0014703082
-0.015358418 -0.11662205 -0.11408112 0.12658967 0.99191749 -0.0086472062 0.002012315
-0.0048939497 -0.11799975 -0.11514427 0.051100522 0.99863648 -0.010668879 0.0018846798
0.0063691637 -0.11780553 -0.11272014 -0.062997423 0.99788326 -0.016136482 0.0019645132
0.013693022 -0.1168413 -0.11528182 -0.13516404 0.99078649 -0.0085404683 0.0024716982
0.027387047 -0.1150384 -0.1172663 -0.23711647 0.97147822 -0.0024334821 0.0019077817
0.033397555 -0.11348701 -0.11930148 -0.27324519 0.96194071 -0.0026660881 0.0020904879
0.040365938 -0.11060069 -0.11345327 -0.34298608 0.93921685 -0.015240553 0.0027578657
-0.060849443 -0.10157704 -0.11400532 0.50696123 0.86195254 0.0052867923 0.0025862295
-0.054279767 -0.10480192 -0.11668316 0.46678346 0.88436651 -0.0030143664 0.0018556656
-0.045784499 -0.10835632 -0.11536924 0.38811618 0.92151058 -0.01356903 0.0012327215
0.044870604 -0.10873485 -0.11135074 -0.39424402 0.91879731 -0.019575186 0.0013150285
0.055935483 -0.10408576 -0.11557825 -0.48150986 0.87643927 0.001563829 0.002132196
0.061862402 -0.10079981 -0.11910181 -0.52533555 0.85089403 0.0014065568 0.0022028836
-0.073488213 -0.091878928 -0.11601856 0.63714761 0.77071768 -0.0060898592 0.0015497146
-0.065476686 -0.098026425 -0.1156384 0.54516941 0.83828676 -0.0080964761 0.0020428211
0.065655969 -0.097888947 -0.11561552 -0.53438544 0.845218 -0.0062219417 0.0023445704
0.072965965 -0.092279889 -0.11190207 -0.63840073 0.76944482 -0.01997832 0.0015752872
-0.084686048 -0.08258725 -0.11527786 0.72397166 0.68969494 -0.013634583 0.0019251626
-0.077390082 -0.088884912 -0.11656874 0.65558875 0.75511032 -0.0034225138 0.0019814603
0.077922374 -0.08847677 -0.11475078 -0.66931307 0.74286383 -0.013163084 0.0022275243
0.084528096 -0.082942031 -0.11704203 -0.71068013 0.7035113 0.0023916981 0.0025151034
-0.091636457 -0.073803842 -0.11298785 0.77509302 0.63160557 -0.017469265 0.0018422072
-0.088629082 -0.07772319 -0.11542699 0.75429809 0.65649801 -0.0066925203 0.0015544725
0.089062653 -0.077158816 -0.11495833 -0.75379419 0.65704739 -0.0091087986 0.0015517188
0.09125071 -0.074307241 -0.11425845 -0.76262671 0.64680707 -0.0064123766 0.0018505384
-0.1012011 -0.061338738 -0.11429229 0.85341722 0.52114844 -0.0091295969 0.0022335746
-0.096557356 -0.067390688 -0.11505196 0.80646646 0.59122461 -0.0080820089 0.0021655986
0.096354008 -0.06765639 -0.11445651 -0.81157583 0.58422786 -0.0047348142 0.0027856871
0.10167427 -0.060722768 -0.11405203 -0.86387253 0.50368381 -0.005189491 0.0023624178
-0.10475293 -0.054483183 -0.11483447 0.88269311 0.46994519 -0.0020758817 0.0019602431
0.10414653 -0.055948358 -0.11450563 -0.87343866 0.48692346 -0.0032485502 0.0022082066
-0.10828928 -0.045945901 -0.11409032 0.91691387 0.39884451 -0.013855326 0.00145952
0.10878194 -0.044757824 -0.11423818 -0.91800028 0.39634883 -0.013529755 0.0016367515
0.11051038 -0.040585142 -0.11175591 -0.94028538 0.33944976 -0.02524267 0.0017840988
-0.11207862 -0.036797907 -0.11234171 0.94889808 0.31536052 -0.011837677 0.0019425983
0.11297647 -0.034617364 -0.11382453 -0.95702326 0.2897788 -0.011607176 0.0024314479
-0.11537774 -0.024809981 -0.11459403 0.97593963 0.21784137 -0.0093291663 0.0013688067
0.11526597 -0.025662288 -0.11567573 -0.9733234 0.22942853 -0.0020112197 0.0017263911
-0.11661818 -0.015388003 -0.11557677 0.98922437 0.14612654 -0.0090639377 0.0014175873
0.11675543 -0.014347337 -0.11497891 -0.99094039 0.1335981 -0.013731316 0.0019082978
-0.11799345 -0.0049418854 -0.11508284 0.9993853 0.034960996 -0.0025837698 0.0015728266
0.11784717 -0.006053796 -0.11576193 -0.99806178 0.060609996 -0.014106867 0.0018303094
-0.11793464 0.0053883512 -0.11496837 0.99919206 -0.039647739 -0.0065703141 0.0014883439
0.11792328 0.0054753656 -0.11384983 -0.99839574 -0.053412672 -0.018785562 0.0015485823
-0.11668614 0.014871306 -0.11317348 0.98897243 -0.14780217 -0.0093873562 0.001637927
0.11648813 0.016377378 -0.11719402 -0.98827082 -0.15251116 -0.0078140879 0.0015226511
-0.11533966 0.025098467 -0.11523917 0.97389752 -0.22695419 -0.0039283899 0.001424155
0.11521809 0.026025224 -0.11591109 -0.97117382 -0.23816654 -0.0099002905 0.0020764135
-0.11245444 0.035889797 -0.11750671 0.95039827 -0.31102839 -0.0021232525 0.0018660254
0.1126476 0.035405148 -0.11631186 -0.94894534 -0.31543589 -0.0017055483 0.0019720383
-0.11042643 0.04078589 -0.11394596 0.93905926 -0.34340611 -0.015493202 0.0024985906
-0.10869785 0.044959061 -0.11451445 0.91996038 -0.39171645 -0.01520142 0.0015066648
0.10808583 0.046437886 -0.11530061 -0.91643101 -0.40007108 -0.0098628299 0.0013990612
0.11031854 0.041047595 -0.11991735 -0.93756711 -0.34779856 0.0020118831 0.0019593551
-0.10488959 0.054114722 -0.11569233 0.87508732 -0.48396292 0.001457804 0.0018641916
0.1049538 0.05399932 -0.11532296 -0.8872714 -0.46123016 0.0040249107 0.0022394944
-0.10124323 0.061283838 -0.11461923 0.86092234 -0.50862461 -0.010662278 0.0024265116
-0.096940562 0.066891275 -0.11527125 0.81878531 -0.57403296 -0.0087618912 0.0027889302
0.096144497 0.067929402 -0.11375964 -0.81275123 -0.5825277 -0.0098448796 0.0019935372
0.10126776 0.061252542 -0.11668816 -0.85460484 -0.51926428 0.0038791627 0.0026693332
-0.092168383 0.073110618 -0.11385999 0.77640814 -0.629798 -0.02334336 0.0015877719
-0.08899384 0.077247836 -0.11638417 0.76301998 -0.64635479 -0.005091907 0.0020005694
0.089306526 0.076840997 -0.11622204 -0.76302332 -0.6463691 -0.0015881131 0.0021670784
0.091570437 0.073890552 -0.11308174 -0.76914293 -0.63886577 -0.016420089 0.0019215902
-0.083385713 0.084016472 -0.11447215 0.70337307 -0.71079296 -0.0063009229 0.0023558948
-0.078661591 0.087909251 -0.118323 0.67124444 -0.74123496 0.0012288016 0.0024608863
0.077913232 0.088483781 -0.1158948 -0.65388209 -0.7565884 0.0034836128 0.0024250206
0.083444431 0.083861016 -0.11416805 -0.70543689 -0.70851356 -0.019164646 0.002342436
-0.073470049 0.091892861 -0.11603653 0.63434714 -0.77300406 -0.0082683591 0.0015753469
-0.065838903 0.097748481 -0.11648223 0.54458833 -0.83854336 -0.016392643 0.0020040274
0.065351486 0.098122582 -0.11448995 -0.53583795 -0.8442356 -0.011996306 0.0022520833
0.07304965 0.09221568 -0.11535265 -0.62928945 -0.77717102 -3.083943e-05 0.0016328662
-0.062294621 0.10046811 -0.11675452 0.5346244 -0.8449614 -0.014730089 0.0020269766
-0.054688204 0.10465246 -0.11569448 0.48083651 -0.87677312 -0.008065341 0.002361577
-0.046487965 0.10806495 -0.11470236 0.39862004 -0.91708064 -0.0080687366 0.0013733973
0.045148298 0.10861983 -0.1146339 -0.38877168 -0.92121089 -0.01506887 0.0014581943
0.054418009 0.10478032 -0.11549082 -0.47027275 -0.88247091 -0.0094124693 0.0020071596
0.06071214 0.10168242 -0.11238331 -0.50826788 -0.86111569 -0.011983715 0.0023760465
-0.040428352 0.11057483 -0.11310959 0.33986011 -0.94037724 -0.013629052 0.0023139203
-0.033002917 0.11363748 -0.11622404 0.27654144 -0.96098524 -0.0056749526 0.0021189053
-0.025014052 0.11535083 -0.11443482 0.21633838 -0.97631735 -0.0014840257 0.0018309432
-0.015127748 0.11665241 -0.11565133 0.14909872 -0.988814 -0.0040444913 0.0014191082
-0.0036368766 0.11816525 -0.1145222 0.030090768 -0.99949557 -0.01015556 0.0025149623
0.0049022911 0.11799864 -0.11387098 -0.045989547 -0.99885488 -0.013188122 0.0021388887
0.01577995 0.11656655 -0.11576875 -0.16759057 -0.98583442 -0.0066222823 0.0012642756
0.025201015 0.11532621 -0.11437628 -0.20936999 -0.9777444 -0.013420342 0.0017466585
0.036087018 0.11237302 -0.11613552 -0.31300738 -0.94968092 -0.011510024 0.001881663
0.040762831 0.11043629 -0.113297 -0.35287786 -0.93546134 -0.019731639 0.0021844136
-0.036235776 -0.11229614 -0.10612386 0.31398728 0.94824773 -0.04730973 0.0019819692
-0.026420752 -0.11516562 -0.10508861 0.24041529 0.9689526 -0.057717592 0.0023383626
-0.017494122 -0.11634086 -0.10497133 0.15239462 0.9876225 -0.037117705 0.002304455
-0.0033550358 -0.11820236 -0.10482606 0.023095312 0.99859637 -0.047664803 0.002386664
0.0042243577 -0.11808791 -0.10553461 -0.034912385 0.99866331 -0.038114734 0.0025227501
0.015424741 -0.11661331 -0.10498306 -0.13958536 0.98861396 -0.056199349 0.0022562775
0.025274759 -0.1153165 -0.10431433 -0.21238701 0.9753387 -0.060052004 0.0024795928
0.035031848 -0.11281008 -0.1046377 -0.30274722 0.95191884 -0.046844833 0.0021484783
0.040575624 -0.11051384 -0.10704373 -0.35248262 0.93514711 -0.035439227 0.002365716
-0.0615157 -0.10106578 -0.10456473 0.51524556 0.85580927 -0.045962252 0.0027440109
-0.054405641 -0.10477652 -0.10545994 0.46241856 0.8848989 -0.055883348 0.0025285368
