# .PCD v0.7 - Point Cloud Data file format
VERSION 0.7
FIELDS x y z normal_x normal_y normal_z curvature
SIZE 4 4 4 4 4 4 4
TYPE F F F F F F F
COUNT 1 1 1 1 1 1 1
WIDTH 570
HEIGHT 1
VIEWPOINT 0 0 0 1 0 0 0
POINTS 570
DATA ascii
-0.0056677009 -0.11911468 0.095529348 0.055456135 0.998456 -0.0031998358 0.0019820076
0.0048369546 -0.11922407 0.096718393 -0.037204679 0.99926078 0.009681331 0.0020861302
0.016762264 -0.11765406 0.093600959 -0.15600727 0.98775357 -0.0021609017 0.0020135315
0.025955459 -0.11644377 0.09486302 -0.23103794 0.9729287 -0.0055949995 0.0017586281
0.036695234 -0.1134269 0.094903164 -0.31285775 0.94979614 -0.0027103499 0.0017154546
0.043161999 -0.11074828 0.093869127 -0.38134477 0.92441702 -0.0054259873 0.0021342486
-0.06287121 -0.10154601 0.0947337 0.52924848 0.84846437 -0.0020700509 0.002118418
-0.052175786 -0.10701464 0.094422221 0.44740376 0.89433104 -0.0013149647 0.001925134
-0.047004588 -0.10915661 0.09638039 0.39444843 0.91891599 -0.0019646557 0.0017065115
0.0475001 -0.10895139 0.094060667 -0.40172929 0.91574758 0.0044626528 0.001628949
0.054479182 -0.10606057 0.096134618 -0.46998098 0.88267297 0.002510882 0.0019478187
0.062557779 -0.10178658 0.096070409 -0.52222747 0.85280305 0.0023183452 0.0022061453
-0.073502868 -0.093388081 0.090073615 0.63201004 0.77495724 0.002118442 0.0019142921
-0.067862697 -0.097715929 0.095356598 0.57433128 0.81862277 0.00056668767 0.0024960213
0.067448162 -0.098034047 0.094792813 -0.55910844 0.82909226 -0.001968679 0.0021421157
0.073741183 -0.093205243 0.095562123 -0.62674421 0.77922302 0.0017728556 0.001925212
-0.084191769 -0.084847376 0.092946142 0.70516294 0.70904195 -0.0021820236 0.0024372649
-0.078847595 -0.089286946 0.09169393 0.66182423 0.74965727 0.0016509504 0.0017286213
0.078831479 -0.089299329 0.095347114 -0.67297906 0.73965818 0.0022449393 0.0024162689
0.08501149 -0.083809957 0.095124543 -0.71686459 0.69720852 -0.0023388569 0.0025733439
-0.093557805 -0.073281676 0.096385196 0.78352886 0.62132001 0.006623853 0.0022416112
-0.089542329 -0.078514777 0.098354906 0.74566662 0.66631925 -0.00028411805 0.0022755947
0.088906184 -0.079343811 0.091516852 -0.74622154 0.6656962 0.0013632388 0.0024822732
0.093186378 -0.07376574 0.095359854 -0.76804167 0.6403929 -0.0029672368 0.0016290488
-0.10196078 -0.062330682 0.095096424 0.85690176 0.51547968 -3.5840054e-05 0.0025336528
-0.099605493 -0.065400161 0.094933651 0.84377998 0.53664035 -0.007241461 0.0023190994
0.098652288 -0.066642389 0.093689203 -0.83914798 0.54390323 8.1293656e-05 0.0022360168
0.10255105 -0.061561428 0.095765442 -0.85904181 0.51189184 -0.0037259427 0.0024631813
-0.10544883 -0.055955954 0.094165005 0.87404341 0.48579192 -0.0073772077 0.0018136568
0.10564195 -0.055489741 0.095671229 -0.88049608 0.47402847 0.0048688254 0.0020366146
-0.11069661 -0.043286726 0.095407479 0.93074501 0.36564767 -0.003944614 0.0023646064
-0.10864975 -0.048228282 0.097687565 0.90917611 0.41638783 -0.0044821687 0.0020727457
0.10928239 -0.046700954 0.094891325 -0.91965711 0.39271972 0.0014357007 0.0015881628
0.11062893 -0.043450106 0.091482781 -0.92933053 0.36924788 0.00084901584 0.0020488554
-0.11504237 -0.032654911 0.094998091 0.96307075 0.26924145 -0.0019616305 0.0020615878
0.11429029 -0.034576822 0.093444735 -0.95669508 0.29108125 -0.0025066987 0.0021147253
-0.11687519 -0.022678491 0.095950715 0.97915763 0.2030918 0.0020043808 0.0021520266
0.1165606 -0.025067987 0.097348876 -0.97517627 0.22142257 -0.0017733995 0.0019373356
-0.11776372 -0.015929367 0.097515583 0.98938268 0.14532526 0.0015867472 0.0021566553
0.11806908 -0.013609886 0.095314898 -0.99450815 0.10465906 -0.00027277801 0.0017611615
-0.11929609 -0.0042898348 0.095053934 0.99936396 0.034734208 0.0080795102 0.0023984851
0.11920542 -0.0049786419 0.09663327 -0.99921596 0.039537963 0.0020443895 0.0023701075
-0.1191711 0.0052393381 0.096385457 0.99946886 -0.032359641 0.0038441126 0.0020514235
0.11913894 0.0054835798 0.095151737 -0.99870586 -0.050772525 0.0029744466 0.0021431283
-0.11798757 0.014229075 0.093991585 0.99162889 -0.12909624 -0.002518428 0.00067238696
0.11821399 0.012509224 0.094347239 -0.99610549 -0.088131279 -0.0025989753 0.0024142908
-0.11651444 0.025418578 0.09509363 0.97524154 -0.22114003 0.0010077655 0.0021822152
0.11661123 0.0246835 0.097315803 -0.97711462 -0.21266671 0.0044618226 0.0023329416
-0.11411366 0.035026807 0.095886402 0.95245183 -0.30468825 -0.00080193114 0.0019054954
0.11485863 0.033115186 0.093988031 -0.96365261 -0.26710016 -0.0055890605 0.0023331889
-0.11026354 0.044332251 0.090903342 0.92120051 -0.3890875 0.0008132949 0.0012961243
-0.10884795 0.04774984 0.096677855 0.91425884 -0.40512767 0.001514711 0.0012818279
0.1093073 0.046640854 0.0938702 -0.91846025 -0.3954584 -0.0065839523 0.0016739062
0.11123949 0.041976113 0.094434798 -0.92874169 -0.37071326 -0.0032431427 0.0022481952
-0.10611529 0.054347076 0.094814412 0.88783962 -0.46013582 0.0039892956 0.0016095444
0.10542762 0.056007255 0.09374354 -0.87346727 -0.48683828 0.0065905605 0.0025870241
-0.1021622 0.062068269 0.095706955 0.85499483 -0.51860744 0.0055022794 0.0020081445
-0.098586768 0.066727862 0.097036794 0.82850713 -0.55997062 0.0029582712 0.002141421
0.097539507 0.068092689 0.096091807 -0.82109118 -0.57079554 -0.0013048194 0.0028517463
0.10146708 0.06297417 0.092790313 -0.84602523 -0.53312665 0.0041701011 0.0023875243
-0.092614487 0.074511081 0.093378872 0.77057874 -0.63732386 -0.0051717209 0.0018972463
-0.088915609 0.079331554 0.091386445 0.73925996 -0.6734181 -0.0016542185 0.0020852836
0.089182369 0.07898391 0.093226105 -0.75048661 -0.66087949 0.0028767069 0.0019524534
0.093141504 0.073824272 0.094531365 -0.77053493 -0.63739407 0.0021956603 0.0015103291
-0.085177407 0.083686061 0.09554252 0.71678662 -0.69725162 -0.0075556957 0.0023498053
-0.078898132 0.089248165 0.095652834 0.66770494 -0.74440068 -0.0061387932 0.0021720983
0.079631507 0.08868546 0.094264522 -0.68072385 -0.73248404 -0.0090699075 0.0018262092
0.084040552 0.08474382 0.094430588 -0.70328438 -0.71089733 -0.0040248921 0.002351102
-0.073202245 0.093618765 0.094590403 0.63523 -0.77231991 -0.0021823184 0.0013466745
-0.066482641 0.09877488 0.095153354 0.54741734 -0.8368485 -0.0043331729 0.0025923047
0.066931821 0.098430268 0.092769332 -0.56282145 -0.82651907 -0.0099160867 0.0026553241
0.075997949 0.091473579 0.097684361 -0.63581508 -0.77183867 0.0020484333 0.0017184661
-0.063628137 0.1009652 0.094609834 0.53469652 -0.84501392 -0.0071492577 0.0021064358
-0.056478903 0.10523222 0.095414892 0.48091176 -0.87675428 -0.0050744493 0.0020612488
-0.04679789 0.10924225 0.096564643 0.39759973 -0.91754037 0.0058343746 0.0013651981
0.046591341 0.10932781 0.095290825 -0.39536509 -0.91852391 -0.00062884542 0.0016977509
0.054727245 0.10595782 0.095091626 -0.46833205 -0.883551 0.0016670927 0.0019702883
0.063409999 0.10113265 0.093087733 -0.53143263 -0.84708923 -0.0043761814 0.0022780683
-0.042901162 0.11085631 0.095268928 0.36773029 -0.92993176 0.0011697997 0.0024853018
-0.035772402 0.11380914 0.094097957 0.29422826 -0.95573497 0.00056353095 0.00143295
-0.023748279 0.11673434 0.093607202 0.20137763 -0.97943467 -0.012437686 0.0019059415
-0.015085044 0.11787488 0.094273113 0.13798524 -0.9903999 -0.0082551874 0.0030079291
-0.0045745084 0.11925862 0.094561376 0.039864436 -0.99919802 -0.0037700552 0.0016243934
0.0022629579 0.11956293 0.094523273 -0.010719771 -0.99993455 -0.0039885771 0.002428774
0.013530391 0.11807955 0.096748061 -0.11013887 -0.99391621 0.00020700647 0.0023717659
0.02610931 0.11642352 0.095222153 -0.22332035 -0.97473902 -0.0034376327 0.0018999946
0.035701819 0.11383837 0.095033534 -0.294065 -0.95577908 -0.0034935533 0.0018432137
0.041728951 0.11134187 0.094250768 -0.34851184 -0.93730354 0.0012716131 0.0026093365
-0.041929994 -0.11125858 0.10461299 0.34103224 0.94002074 -0.00762256 0.0025465172
-0.035552092 -0.11390039 0.10533934 0.29671696 0.95496035 -0.0031341184 0.0015435112
-0.024707213 -0.11660811 0.10575631 0.20514616 0.97869307 -0.0086570065 0.0023548789
-0.014274902 -0.11798154 0.10552949 0.12718889 0.99187362 -0.0031170424 0.0021367229
-0.0049996311 -0.11920264 0.1060029 0.024943938 0.99968487 -0.002820686 0.0020972812
0.0048724567 -0.11921939 0.10531385 -0.034756459 0.99934703 -0.0098735094 0.0028212769
0.015430056 -0.11782946 0.10534602 -0.13548732 0.99073833 -0.0089788288 0.0022857485
0.023775242 -0.11673079 0.10521795 -0.20305248 0.97914916 -0.0060439147 0.0022377872
0.034340575 -0.114368 0.10509043 -0.27969268 0.96008813 0.0016685398 0.0018725676
0.041564327 -0.11141006 0.10380632 -0.35264525 0.93571818 -0.0085290847 0.0020722072
-0.063204035 -0.10129063 0.10527623 0.53539479 0.84459352 -0.0037630943 0.0019452194
-0.056710966 -0.1051361 0.10437071 0.483385 0.87539798 -0.0041483147 0.0020320348
-0.04728191 -0.10904174 0.1042301 0.40692335 0.91337669 -0.012503868 0.0019115827
0.045936428 -0.10959908 0.10462406 -0.39761418 0.91754121 -0.00459573 0.0014327593
0.055068515 -0.10581647 0.10365755 -0.46866953 0.88334131 -0.007547054 0.0017485351
0.062554747 -0.10178891 0.10696091 -0.52796012 0.84926379 -0.0030232782 0.0018405246
-0.072707966 -0.093998022 0.10527916 0.60573363 0.79564595 -0.005846119 0.0016335073
-0.067951441 -0.097647823 0.10570242 0.56106102 0.82776588 -0.0037650797 0.0022176905
0.067733623 -0.097815014 0.10440716 -0.55297452 0.83319008 -0.0036589138 0.0025901471
0.073408134 -0.093460806 0.10550237 -0.63269442 0.77439737 -0.0025620982 0.0022579762
-0.083906226 -0.084820807 0.10536713 0.70725739 0.70683849 -0.012898874 0.0022937867
-0.078649662 -0.089438818 0.10466135 0.6661697 0.74576336 -0.0074106161 0.0018542923
0.079276666 -0.08895772 0.10666494 -0.6670022 0.74501801 -0.0075070034 0.0020865991
0.084527552 -0.084928572 0.10625143 -0.70527804 0.70883119 -0.011878253 0.0022997414
-0.094392166 -0.072194308 0.1057179 0.79581285 0.60554266 0.00013749457 0.0017076603
0.089323044 -0.078800552 0.10689829 -0.74742252 0.66427159 -0.01013778 0.001898862
0.094258681 -0.072368287 0.10505594 -0.78767592 0.61607307 -0.0045407969 0.0018507787
-0.10233054 -0.061848797 0.10520655 0.85823941 0.51320696 -0.0066023204 0.0022767866
-0.098030388 -0.067452885 0.1050656 0.83005673 0.55762923 -0.0074436367 0.0026959658
0.097327732 -0.068368606 0.105684 -0.81468171 0.57990795 -0.0007046198 0.002617693
0.10176764 -0.062582381 0.10542693 -0.85271162 0.52237856 0.0018698411 0.0022190555
-0.10566645 -0.055430572 0.10382448 0.88129222 0.47257146 -0.00043811227 0.0018624067
0.10488755 -0.057311058 0.10528313 -0.87474489 0.48455861 -0.0049227108 0.0021979637
-0.11108544 -0.042347997 0.10563646 0.9312827 0.36429745 0.00023116077 0.0024621997
-0.10986273 -0.045299873 0.10651851 0.91960466 0.39281711 -0.0046771024 0.0014275496
0.10882828 -0.047797289 0.10626268 -0.90934277 0.41597781 -0.007630399 0.0017506649
0.11091152 -0.042767871 0.10310072 -0.92902577 0.37001312 -0.0011872017 0.0021018537
-0.11359543 -0.03628834 0.10337356 0.949278 0.31435683 0.0071376329 0.0019831317
0.11507435 -0.032571089 0.10425062 -0.96270406 0.27044404 -0.0078104227 0.0021371371
-0.11653043 -0.025297144 0.10497403 0.97406572 0.22621572 -0.0047355313 0.00167168
0.11651693 -0.025399705 0.10759778 -0.97629124 0.21646076 0.0002533113 0.0016727571
-0.11779111 -0.015721347 0.10432841 0.98790723 0.15485571 -0.0076849256 0.0016602303
0.1177761 -0.01583535 0.10354316 -0.99015975 0.13992842 -0.0019282654 0.0021951911
-0.11932076 -0.0041025029 0.10518161 0.99914598 0.039899006 -0.010743969 0.0018208057
0.11904009 -0.0062342919 0.10530543 -0.99820775 0.059813734 -0.0018878299 0.0015535747
-0.11911306 0.0056800996 0.10748854 0.99749815 -0.06989824 -0.010567433 0.0020663098
0.11961234 0.0018877219 0.10471539 -0.99992913 0.0017225931 -0.011775178 0.002470511
-0.11798105 0.014278551 0.10371772 0.99314725 -0.11629786 -0.011550228 0.0014114348
0.1179648 0.014402059 0.10487197 -0.99245906 -0.12249823 0.0043791858 0.0019959989
-0.11646347 0.025805848 0.10361222 0.97101796 -0.23900621 0.00027571703 0.0020989045
0.11667757 0.024179583 0.10469718 -0.97744137 -0.21112998 -0.0056925658 0.0017886941
-0.11411437 0.035035506 0.10603994 0.95616591 -0.29276073 -0.0061581708 0.0022247212
0.11387376 0.035616379 0.1046705 -0.95673323 -0.29077891 -0.010447286 0.0017234741
-0.1091921 0.046918977 0.1061655 0.91561693 -0.40200382 -0.0062132976 0.0016917118
0.10886639 0.047705315 0.10227993 -0.91352671 -0.40663379 -0.010854359 0.0015682458
0.11121107 0.042044729 0.10553103 -0.93184131 -0.36283046 -0.0050764368 0.0021942845
-0.10648722 0.053449146 0.10662786 0.89153421 -0.45292273 -0.0052698543 0.0019912159
0.1056907 0.055372164 0.10439679 -0.88204163 -0.4711431 -0.0051654899 0.0022462686
-0.10207801 0.062177986 0.10308346 0.84808475 -0.52974355 -0.011138914 0.0021710801
-0.097525813 0.068110511 0.10562059 0.81562817 -0.57843655 -0.012719397 0.002356922
0.097287841 0.068420649 0.10528481 -0.81873721 -0.57416582 0.0017048233 0.0026620103
0.10139403 0.063069351 0.10556716 -0.84014869 -0.54235595 0.00041401442 0.0023985561
-0.094074726 0.072608054 0.10625618 0.79799241 -0.60258597 -0.0099138217 0.0022299381
-0.089186937 0.078977957 0.10256165 0.73858333 -0.67415416 -0.003291483 0.0014471649
0.088732265 0.079570502 0.10026055 -0.74637306 -0.66552681 0.0011700571 0.0022610391
0.092608497 0.074518889 0.10547101 -0.77064556 -0.63717884 -0.010421813 0.0017098708
-0.084880613 0.084172659 0.10809685 0.71180338 -0.70230228 -0.010363284 0.002053312
-0.078499191 0.08955428 0.1063554 0.65755916 -0.75335449 -0.0085412962 0.0019750786
0.07935337 0.088898882 0.10554805 -0.67650485 -0.73641896 -0.0053219441 0.0018327497
0.084878363 0.08398132 0.10585457 -0.71272999 -0.70143622 -0.0018096372 0.0023713144
-0.074341059 0.092744924 0.10423601 0.64464575 -0.76446319 -0.0052856924 0.0014976059
-0.067541957 0.097962037 0.103236 0.55970502 -0.82867408 -0.0054341271 0.0021985648
0.068347968 0.097343616 0.10597578 -0.57417405 -0.81873178 -0.001556734 0.0023071254
0.074299902 0.092776537 0.10625947 -0.64022022 -0.76816428 -0.006458824 0.0016245657
-0.062814586 0.10158946 0.10494964 0.51680768 -0.8560515 -0.0092519885 0.0020869514
-0.055636317 0.10558125 0.10358119 0.48470807 -0.87465578 -0.0059470143 0.0020485895
-0.047513079 0.10894599 0.10442253 0.40007037 -0.91648251 -0.0019259494 0.0015482723
0.047162682 0.10909116 0.10656324 -0.39795351 -0.91731775 -0.012698533 0.0013730396
0.05329014 0.10655309 0.10493433 -0.45971635 -0.88804281 -0.0063890708 0.0018375024
0.062589891 0.10176194 0.10555635 -0.54354393 -0.83933568 0.008699677 0.0022479519
-0.041950915 0.11124992 0.10511968 0.35471413 -0.93497419 -0.0010823329 0.0022631506
-0.034891032 0.11414395 0.1056802 0.27251479 -0.96211666 -0.0081977695 0.0019096183
-0.025889743 0.11645242 0.10423167 0.20710877 -0.97831738 0.0010523594 0.0018086249
-0.013352515 0.11810298 0.10751339 0.11976493 -0.99279124 -0.0046821432 0.0023094849
-0.0057239057 0.11910729 0.10567746 0.040365938 -0.99914753 -0.0086453669 0.0023744865
0.0033783896 0.11941608 0.10583089 -0.0018131896 -0.99998951 -0.0042124083 0.0024619484
0.013650412 0.11806375 0.10248651 -0.096556619 -0.99532509 -0.0021797114 0.0017523994
0.023827014 0.11672399 0.10511195 -0.2058403 -0.97857153 -0.0052486332 0.0021060549
0.03384627 0.11459323 0.10436311 -0.29162213 -0.95650905 -0.0068539181 0.0017060474
0.04308179 0.11078151 0.10395033 -0.39205891 -0.91991711 -0.0065071406 0.0017004499
-0.043857783 -0.11046007 0.11564855 0.36826676 0.92947251 -0.021459002 0.0024547393
-0.034778453 -0.11417855 0.11498039 0.2925396 0.95602918 -0.020708483 0.001544893
-0.024060797 -0.11669083 0.11374139 0.21778879 0.9758662 -0.015913419 0.0019656937
-0.015435287 -0.11782876 0.11518453 0.14205353 0.98955238 -0.02463487 0.00266474
-0.0039395392 -0.11934221 0.11417382 0.012217526 0.99977154 -0.017537175 0.0023274834
0.0033511289 -0.11941967 0.11393461 -0.018049354 0.99956095 -0.023499828 0.0023198063
0.014450916 -0.11795274 0.11511099 -0.12118509 0.99222976 -0.028183628 0.0022498379
0.025110254 -0.1165543 0.11433773 -0.21305937 0.97665 -0.027575064 0.0018432715
0.035231274 -0.11400439 0.11735256 -0.30269387 0.95255142 -0.031972662 0.0013448638
0.042627566 -0.11096966 0.11406435 -0.35929829 0.93288779 -0.02500231 0.0023552554
-0.062362418 -0.10193641 0.11527267 0.52787465 0.84918123 -0.015476443 0.0020184177
-0.055373788 -0.10568404 0.11555716 0.47020108 0.88222462 -0.02430613 0.0018803092
-0.046934109 -0.10916292 0.11813384 0.39925483 0.91622585 -0.033552427 0.0015616631
0.047725637 -0.10885797 0.11374672 -0.40908155 0.91237962 -0.014684231 0.0016759324
0.053977925 -0.10626806 0.11289521 -0.46257979 0.88636184 -0.019558249 0.0014932646
0.06281808 -0.1015458 0.11988173 -0.52199489 0.85215044 -0.036891021 0.0021037818
-0.074254334 -0.092799999 0.11654079 0.63617098 0.77078605 -0.034284078 0.0013649776
-0.068010278 -0.097602688 0.11571342 0.57423222 0.81829441 -0.025525518 0.0021026004
0.067570999 -0.097936869 0.11516779 -0.55794144 0.82949495 -0.025286641 0.0022864328
0.072977126 -0.09378016 0.11720704 -0.61981839 0.784015 -0.033846725 0.0022749912
-0.083819374 -0.085217834 0.1144759 0.69494182 0.71863812 -0.024799936 0.0019581574
-0.079452418 -0.088822849 0.11011768 0.66882235 0.74325329 -0.015851071 0.0021688149
0.078797385 -0.089325488 0.11323079 -0.6797539 0.73314446 -0.020830432 0.0017677507
0.083863005 -0.085127041 0.11431576 -0.69589883 0.71776652 -0.023153098 0.0021470811
-0.093512923 -0.073340178 0.11404277 0.7869994 0.61658591 -0.021302043 0.0015145749
-0.089645185 -0.078380719 0.11601338 0.7450307 0.66651064 -0.026323302 0.0014526977
0.089476198 -0.078554831 0.11971035 -0.75215709 0.65826875 -0.030692391 0.0020885523
0.093045324 -0.073949575 0.1144723 -0.76765907 0.6406101 -0.017837789 0.0016386993
-0.1016638 -0.062710039 0.11480478 0.84948689 0.52705902 -0.024101146 0.0021138699
-0.098026156 -0.067458391 0.11417903 0.83248454 0.55377299 -0.017462173 0.0024014474
0.098170802 -0.067257039 0.11692114 -0.83108431 0.55526239 -0.031344108 0.0023764344
0.10204846 -0.062210433 0.11519703 -0.85821801 0.51250583 -0.028277388 0.002413762
-0.10677033 -0.052757744 0.11536308 0.89370871 0.448008 -0.023949485 0.0017610254
0.10550831 -0.055800784 0.11414771 -0.8770557 0.47979432 -0.023889361 0.0021576681
-0.1104937 -0.043776564 0.1167869 0.91713995 0.39705414 -0.03467378 0.0013930968
-0.10897744 -0.047429085 0.1144373 0.91550332 0.40176359 -0.020969007 0.0014275098
0.10936252 -0.046507496 0.1133099 -0.91867381 0.39463222 -0.017426889 0.0013023302
0.11118019 -0.042119242 0.11363895 -0.93728507 0.34771964 -0.024241947 0.0020292883
-0.11402863 -0.035234723 0.1153119 0.95625746 0.29163679 -0.02279678 0.0017430907
0.1141028 -0.034989413 0.11508375 -0.95125037 0.30833125 -0.0073946887 0.0019145027
-0.11632817 -0.026766438 0.11654962 0.9696424 0.24320526 -0.025393099 0.0019830766
0.11654364 -0.025162509 0.11454121 -0.97629428 0.21428971 -0.030486044 0.0018516249
-0.11803733 -0.013813645 0.11376209 0.99527389 0.095976368 -0.014778812 0.0020407261
0.11787707 -0.015043889 0.11521501 -0.99058306 0.13355497 -0.030137649 0.0019155255
-0.11929039 -0.004307935 0.11414801 0.99879164 0.041151583 -0.026866531 0.0016239644
0.11956016 -0.0022840709 0.11612344 -0.99954331 0.01200452 -0.027730854 0.0021053958
-0.11929594 0.0042822924 0.11620481 0.99894798 -0.034971677 -0.029661743 0.0016668534
0.11923884 0.0047247368 0.11465505 -0.99800378 -0.057878874 -0.025268639 0.0017066022
-0.11781039 0.015574893 0.1132627 0.99096292 -0.13264762 -0.01992894 0.0018806409
0.11810094 0.013346934 0.11474238 -0.99261892 -0.11818212 -0.027216997 0.0015434102
-0.11642765 0.026025806 0.11690155 0.97406846 -0.22353518 -0.034967635 0.0017784582
0.11658958 0.024847813 0.1142027 -0.97715312 -0.21198227 -0.015339142 0.0019779759
-0.11450734 0.034076758 0.11390758 0.9570381 -0.28926829 -0.020050004 0.0020999692
0.1144457 0.034203276 0.11441682 -0.96122938 -0.27506745 -0.019389555 0.0018730501
-0.11040453 0.043983109 0.11559961 0.9254958 -0.37811908 -0.021989049 0.0022116886
-0.10873571 0.048020788 0.11306913 0.90818429 -0.41834301 -0.013800786 0.0022143233
0.10882735 0.04779958 0.11308642 -0.9165386 -0.39971188 -0.013688653 0.0014371595
-0.10586652 0.054947652 0.11420787 0.88440681 -0.46610183 -0.023953173 0.0017408471
0.10470894 0.05774232 0.11355078 -0.87471193 -0.48394796 -0.025949799 0.0018282114
-0.10258104 0.061515495 0.115371 0.85671139 -0.51502442 -0.028203934 0.0023121515
-0.098916292 0.066298403 0.1152188 0.83670247 -0.54726076 -0.020852046 0.0017641061
0.097424075 0.068243124 0.11529954 -0.81049514 -0.58524281 -0.024259616 0.001659601
0.10106825 0.06349393 0.11535063 -0.84266108 -0.53784865 -0.025318779 0.0018936108
-0.093349241 0.073536716 0.11494509 0.78145885 -0.62354618 -0.022631178 0.0026970154
-0.089102052 0.079088569 0.11374457 0.74693233 -0.66460681 -0.019745836 0.0018628231
0.088795222 0.079488456 0.11283036 -0.73874122 -0.67370707 -0.019496467 0.0017321698
0.092477746 0.074684411 0.11686686 -0.76863641 -0.63886809 -0.032336373 0.0014699468
-0.085206494 0.083616272 0.1151302 0.72656924 -0.68679398 -0.020276248 0.0019035032
-0.078898914 0.089243673 0.11477894 0.67296392 -0.73933232 -0.022522956 0.0018025684
0.083587565 0.085227601 0.11287659 -0.70192891 -0.71198839 -0.019191815 0.0021600029
-0.073105782 0.09368965 0.11524033 0.62734199 -0.7786088 -0.014505072 0.0014015062
-0.067644082 0.097879954 0.11492366 0.56829339 -0.82248944 -0.023528837 0.0021649841
0.067392714 0.098074675 0.11385175 -0.57469189 -0.81824714 -0.014170959 0.0020679629
0.074287638 0.092783511 0.1157942 -0.63874143 -0.76886529 -0.029249344 0.0015290531
-0.061745148 0.10239822 0.11574616 0.51469517 -0.85700339 -0.025180869 0.0020699915
-0.056337755 0.10528973 0.11620262 0.48720759 -0.87295014 -0.024225529 0.0021277564
-0.046973508 0.10916949 0.11372828 0.40278935 -0.91517544 -0.014649666 0.0015149434
0.047294486 0.10903654 0.11364847 -0.39290172 -0.91944087 -0.016020805 0.0012640721
0.057277791 0.10490136 0.1153369 -0.48645863 -0.87337345 -0.024019185 0.0022452767
0.063057549 0.10140309 0.11429586 -0.53864104 -0.84229696 -0.020039257 0.0020543886
-0.04238832 0.11106875 0.11343659 0.35345459 -0.93520707 -0.021390975 0.0018288721
-0.036925286 0.11332779 0.11604633 0.30973667 -0.95044178 -0.026899062 0.0018283225
-0.022828925 0.11685182 0.11494328 0.20326406 -0.97892296 -0.019837564 0.001836486
-0.014146886 0.11799733 0.11660414 0.14801958 -0.98849177 -0.031214256 0.0014421139
-0.0070957737 0.11892669 0.11431772 0.061281703 -0.99784929 -0.023267478 0.0016499655
0.0050292169 0.11919738 0.1159824 -0.039212547 -0.99880087 -0.029311111 0.0017244476
0.016170459 0.11772782 0.11532068 -0.13239114 -0.99075902 -0.02948129 0.0014915795
0.02367253 0.11674432 0.11365888 -0.21553746 -0.97630227 -0.019429047 0.0017027238
0.032585345 0.11512926 0.11505827 -0.26945692 -0.96274984 -0.022489486 0.0022040159
-0.041729618 -0.11116254 0.12494793 0.34179258 0.93796086 -0.058371775 0.0017734092
-0.035160143 -0.11383337 0.12446126 0.27839795 0.95864475 -0.059116915 0.0018514971
-0.02610917 -0.11626263 0.1240946 0.22698137 0.97257799 -0.050709412 0.0016974236
-0.016568633 -0.11755295 0.12344365 0.15922323 0.98610407 -0.047400009 0.0016273265
-0.0044646575 -0.11910444 0.12462095 0.027109126 0.99746066 -0.065858208 0.0017815625
0.0046682288 -0.1190758 0.1245299 -0.03178639 0.99790561 -0.056337923 0.0018189679
0.016789867 -0.11749663 0.12399719 -0.16012697 0.985888 -0.048828863 0.0018348749
0.026328947 -0.11611016 0.12669039 -0.23133506 0.97066998 -0.065450691 0.0016966577
0.03686665 -0.11316247 0.12506984 -0.31545341 0.94750965 -0.052101839 0.0020056244
0.043460798 -0.11044552 0.12464193 -0.3700698 0.92750722 -0.052713219 0.0019443723
-0.062598392 -0.10151859 0.12443466 0.53665018 0.84211427 -0.053387221 0.002106885
-0.05662331 -0.10494611 0.12569831 0.48627588 0.87224048 -0.052270465 0.0023841967
-0.047703948 -0.1086159 0.12659535 0.39337948 0.9168756 -0.067762673 0.0016410056
0.048419192 -0.10831136 0.12680243 -0.40916914 0.90989816 -0.068307728 0.0020533586
0.055518202 -0.10541576 0.12507808 -0.47558844 0.87770319 -0.058760446 0.0020035545
0.062837541 -0.10129647 0.12569861 -0.5270552 0.84761995 -0.061263643 0.0022212579
-0.073779747 -0.092878319 0.1255102 0.62899166 0.77451223 -0.067083918 0.0016239033
-0.065824658 -0.098973542 0.12697032 0.54146165 0.83797765 -0.067917228 0.0023003502
0.066853225 -0.098278277 0.12481586 -0.5597989 0.8272748 -0.047344565 0.0022625017
0.073531888 -0.093169399 0.12430555 -0.62784451 0.77650177 -0.053444505 0.0022731675
-0.084898837 -0.083994016 0.12502167 0.70751089 0.7054494 -0.042064905 0.0022247976
-0.079024665 -0.088870257 0.12604606 0.65793294 0.75011832 -0.066684507 0.0019619744
0.078528635 -0.089185566 0.12645057 -0.65896678 0.74902415 -0.068742648 0.0021056801
0.083694205 -0.085015208 0.12583357 -0.69696885 0.71512479 -0.053207524 0.0022502404
-0.092814595 -0.073843859 0.12645763 0.76885569 0.63721025 -0.053142302 0.0020758305
-0.089080259 -0.07896255 0.12223488 0.74156374 0.66953284 -0.042532373 0.0017120985
0.089067385 -0.078567654 0.12855223 -0.74210787 0.66590756 -0.076439872 0.0022511513
0.092270173 -0.074678339 0.12428692 -0.76652044 0.64071941 -0.043874551 0.0018446099
-0.10277911 -0.060931876 0.12489927 0.86117738 0.50514913 -0.05654911 0.0022529974
-0.097177297 -0.068179309 0.1263849 0.82778132 0.55802643 -0.058177538 0.0024152575
0.098154709 -0.066937804 0.12557326 -0.82602549 0.56122321 -0.052062493 0.002481597
0.10121021 -0.062919468 0.12613723 -0.85010451 0.52253771 -0.065395109 0.002199305
-0.10644456 -0.053000193 0.12578389 0.89834619 0.43580449 -0.055213802 0.002243747
0.10553525 -0.055225197 0.1255112 -0.87071735 0.48840278 -0.057567459 0.0021003538
-0.11131974 -0.04144115 0.12363608 0.93705118 0.34494546 -0.054292783 0.0018175265
-0.10920916 -0.046628036 0.12229486 0.91417837 0.40301737 -0.04306861 0.0014690991
0.10869461 -0.047373086 0.12728256 -0.91145945 0.40454865 -0.074712999 0.0017692267
0.11098327 -0.042091895 0.12440474 -0.93233961 0.35877377 -0.044992689 0.0021557235
-0.11370405 -0.035465684 0.1254393 0.9549644 0.28992921 -0.063119337 0.0020608944
0.11389079 -0.035090193 0.12457842 -0.95942962 0.27712357 -0.051935229 0.0018957152
-0.11632006 -0.025541965 0.12442634 0.97493547 0.21701854 -0.049028788 0.0018901089
0.11632914 -0.025373274 0.12481486 -0.9731465 0.22256893 -0.05872735 0.0016909936
-0.11792348 -0.013518435 0.12437597 0.99218965 0.10988409 -0.05903497 0.0020521437
0.11761213 -0.015892867 0.124575 -0.98695612 0.1511398 -0.055448052 0.0015885188
-0.11905312 -0.0048811524 0.12426928 0.99828953 0.036519993 -0.045654353 0.0017039822
0.11891824 -0.0055837603 0.12610154 -0.99662763 0.054275442 -0.061543282 0.0020553803
-0.11906902 0.0041715652 0.12602168 0.99761379 -0.021821888 -0.06550277 0.0020825199
0.11885071 0.0057085147 0.12682678 -0.99643159 -0.053817976 -0.065021366 0.0019175999
-0.11765124 0.015481224 0.12469344 0.98895007 -0.1358494 -0.059352133 0.0021573093
0.11744694 0.016235599 0.12699178 -0.98485303 -0.15555315 -0.076601401 0.0016341369
-0.11640848 0.025034286 0.12419783 0.97151536 -0.2294735 -0.059158925 0.0017081535
0.11633681 0.025277769 0.12502249 -0.97415698 -0.21818203 -0.058436435 0.0019345892
-0.11355027 0.035972077 0.12393644 0.95154357 -0.30297756 -0.052625734 0.0020821334
0.11492199 0.032612257 0.12411328 -0.96352249 -0.26337782 -0.04750216 0.0021603773
-0.11051683 0.043314293 0.1243773 0.92436552 -0.37828848 -0.049457937 0.0019661419
-0.10816601 0.04907123 0.12339696 0.90382481 -0.42467722 -0.052440088 0.0021563494
0.10903361 0.04687323 0.12465666 -0.91561782 -0.39911965 -0.04845161 0.0013965785
0.1118133 0.040124878 0.12546541 -0.93899196 -0.34017301 -0.050757267 0.002323105
-0.10590279 0.054451216 0.12380517 0.88159883 -0.46938702 -0.049591757 0.0019268177
0.10549297 0.055376381 0.12459399 -0.88199383 -0.46800619 -0.055290833 0.0022870016
-0.10132939 0.062707096 0.12755786 0.84595895 -0.52876103 -0.069031261 0.0022524018
-0.097090274 0.068410166 0.12455174 0.81671804 -0.57441103 -0.054987583 0.0023218733
0.099039011 0.066017315 0.12146036 -0.8359108 -0.54722846 -0.042358864 0.0020859088
0.10111433 0.06311696 0.12464675 -0.84920532 -0.52436203 -0.062408611 0.0023416856
-0.093744427 0.0727816 0.12399346 0.78450072 -0.61772585 -0.054529853 0.0020279114
-0.089378051 0.0781468 0.12840764 0.75391221 -0.65292662 -0.072822742 0.0017583315
0.089769959 0.077955253 0.12434244 -0.75862563 -0.64949298 -0.051439609 0.0017091356
0.092965513 0.073752001 0.12527189 -0.76520777 -0.64083546 -0.061539512 0.0016631834
-0.084243074 0.084401414 0.1240024 0.70066416 -0.71153021 -0.052863047 0.0021433227
-0.078654818 0.089043692 0.12779203 0.66086251 -0.7477867 -0.06384249 0.002160117
0.078903705 0.089022256 0.12537055 -0.66752285 -0.7423867 -0.05722988 0.0020066597
0.085388616 0.08320985 0.12489283 -0.71371979 -0.69857645 -0.050941579 0.0019387322
-0.07379654 0.092942365 0.1243014 0.63489175 -0.77042407 -0.057959951 0.0019442299
-0.066994607 0.098156139 0.12484243 0.55173993 -0.83183253 -0.060313366 0.0020333291
0.065532766 0.0993172 0.12397279 -0.54530317 -0.83681256 -0.048879236 0.0024203376
0.074667685 0.092257567 0.12479802 -0.64804256 -0.7592119 -0.060315803 0.0014943524
-0.061762344 0.10213924 0.1252941 0.51517326 -0.85512382 -0.057963423 0.0024880019
-0.05486894 0.10570026 0.12505376 0.4661074 -0.88290584 -0.056755368 0.001905022
-0.047193572 0.10890085 0.12431858 0.39204657 -0.91859317 -0.049860526 0.0015905652
0.057762533 0.10438042 0.12693544 -0.49045417 -0.86867392 -0.069716781 0.0022569001
0.062301911 0.10175809 0.12530549 -0.53030348 -0.8454783 -0.062806234 0.002701448
-0.041668739 0.11124302 0.12301575 0.34109813 -0.93876433 -0.048720043 0.0020734009
-0.035549816 0.11365429 0.12572655 0.29581407 -0.95344383 -0.058641743 0.0020109289
-0.024853921 0.11636934 0.12627405 0.22638428 -0.97233087 -0.057643697 0.0017268565
-0.014142433 0.11780994 0.12447409 0.13010259 -0.98980778 -0.057911746 0.0025376119
-0.0057538021 0.11886348 0.12586111 0.051255487 -0.99640399 -0.067468338 0.0019379793
0.0059013655 0.11886458 0.12610444 -0.050223485 -0.9969241 -0.060166046 0.0016855031
0.015573116 0.11759038 0.12568244 -0.12751913 -0.98993492 -0.061381601 0.0021181244
0.026713327 0.1161234 0.12612106 -0.23182434 -0.97094381 -0.059375849 0.0018525707
0.035524901 0.11360707 0.12625788 -0.31356469 -0.94768882 -0.059692014 0.001839763
0.042356599 0.11087104 0.12576793 -0.3407312 -0.93843019 -0.057017002 0.001878976
-0.040653858 -0.1104553 0.13796458 0.35310978 0.92716271 -0.12523094 0.0023405682
-0.03517966 -0.11299968 0.13565546 0.29632297 0.94935191 -0.1045162 0.0023713293
-0.02492032 -0.11554229 0.13596255 0.23562439 0.96560574 -0.1099392 0.0020157618
-0.01589546 -0.11672845 0.13605291 0.14825748 0.98196769 -0.11729931 0.0017778776
-0.0071506822 -0.11820762 0.13315521 0.069183022 0.99314404 -0.094226427 0.0020790398
0.0062567722 -0.11801732 0.13583513 -0.047140386 0.99298155 -0.1084691 0.0022510013
0.015616138 -0.11692011 0.13469277 -0.13701673 0.98476744 -0.10704926 0.0017484153
0.02316173 -0.11589775 0.13486508 -0.20373082 0.97420812 -0.097016782 0.0021101194
0.034523152 -0.1134638 0.1338543 -0.28925589 0.95287889 -0.091393404 0.0022332103
0.041348115 -0.11017699 0.13789944 -0.35337809 0.92818534 -0.11660113 0.0025310316
-0.062287133 -0.10095129 0.13470563 0.51376796 0.85115749 -0.10757963 0.0026252232
-0.05570364 -0.10464166 0.13452077 0.47911572 0.87044972 -0.11298385 0.002540464
-0.047526844 -0.10777834 0.13676853 0.40929827 0.90401202 -0.12343926 0.0019574128
0.047791652 -0.1077736 0.1356632 -0.41338417 0.9037255 -0.11132757 0.0021290523
0.054820847 -0.10496651 0.13458265 -0.47524408 0.87471616 -0.094945028 0.0023963172
0.061266687 -0.10182653 0.13351022 -0.50818139 0.85599035 -0.095037855 0.0026145552
-0.072733819 -0.092457689 0.13776317 0.62157089 0.77311182 -0.12628432 0.0025653846
-0.066959798 -0.097228408 0.1352682 0.55957514 0.82273525 -0.099911906 0.0025674624
0.067803316 -0.096357852 0.13681382 -0.56635284 0.8162899 -0.11364512 0.0027714565
0.072997108 -0.092612125 0.13501307 -0.62739557 0.77206618 -0.10143282 0.0024281295
-0.08352679 -0.084298499 0.13590835 0.69357252 0.71223718 -0.10805268 0.0022950189
-0.077127703 -0.089059308 0.13794234 0.64180577 0.75759572 -0.1188871 0.0018051569
0.079003222 -0.087714739 0.13737091 -0.65546817 0.74658298 -0.11390921 0.0022796229
0.0828209 -0.084849633 0.13629636 -0.68866688 0.71724075 -0.10631891 0.0025470718
-0.091592573 -0.074039377 0.13668351 0.76636958 0.63026631 -0.12426563 0.0022683104
-0.088140368 -0.07828626 0.13812344 0.73560965 0.66621667 -0.12261246 0.0022951041
0.089115031 -0.077381127 0.13636176 -0.74949276 0.6540184 -0.10256969 0.0025285229
0.093342438 -0.072409399 0.13290811 -0.78563857 0.61276489 -0.085388608 0.0026817657
-0.10129996 -0.061477665 0.13653657 0.84981906 0.51367998 -0.11806951 0.0022942496
-0.09733057 -0.066750221 0.13578351 0.82646167 0.54853892 -0.12675256 0.0024186531
0.097406499 -0.066715807 0.13556148 -0.82109267 0.55875689 -0.11660867 0.0022276621
0.10160657 -0.061684627 0.13238497 -0.86125243 0.50074589 -0.086590499 0.0020313766
-0.1044435 -0.055755224 0.13560618 0.87197405 0.47672477 -0.11133199 0.0022652331
0.10411675 -0.056263935 0.13675787 -0.87349111 0.47114393 -0.12262408 0.0021285452
-0.11026015 -0.042606182 0.13261893 0.92209506 0.37421957 -0.098491095 0.001959092
-0.10908512 -0.044837363 0.13439703 0.92209357 0.37422132 -0.098497577 0.0019577963
0.1084178 -0.046757262 0.13346191 -0.91103399 0.40039387 -0.098497741 0.0020162442
0.11080712 -0.040829122 0.13426401 -0.93281239 0.34744087 -0.095634073 0.002551093
-0.11331849 -0.034594454 0.13500454 0.94949663 0.29140204 -0.11636592 0.0024738191
0.1129342 -0.035525456 0.13476543 -0.94727087 0.30786398 -0.088868707 0.0020385368
-0.11581234 -0.025580224 0.13267484 0.96949667 0.22896019 -0.0874836 0.0020407252
0.11564964 -0.025426753 0.13439728 -0.96958911 0.21838713 -0.11047167 0.0021081045
-0.11683571 -0.01607858 0.13506903 0.98138338 0.15579779 -0.11231089 0.0018576916
0.1172273 -0.012800015 0.13542847 -0.9878543 0.10332232 -0.116053 0.0022511228
-0.1181352 -0.0052639348 0.13573478 0.99032927 0.065504394 -0.12229914 0.0020542454
0.11843278 -0.0037055691 0.13511108 -0.99294299 0.02493491 -0.11594159 0.0023136795
-0.11814062 0.0065290956 0.13447662 0.99313563 -0.051983848 -0.10478231 0.0021504832
0.11810382 0.0067155077 0.13464278 -0.99220616 -0.064438589 -0.10665208 0.0024922865
-0.11706659 0.014260371 0.13482445 0.98623258 -0.12686732 -0.10606557 0.002007795
0.11663969 0.015579897 0.13718614 -0.98107493 -0.14761764 -0.12530378 0.002141221
-0.11576839 0.02466793 0.13453579 0.97140849 -0.2151982 -0.10027643 0.0019342463
0.11566073 0.02556451 0.13413417 -0.97412699 -0.19873281 -0.10761907 0.0017507288
-0.11360327 0.034051098 0.13425334 0.9519335 -0.29132128 -0.09462896 0.0020190256
0.11315235 0.034953766 0.13474992 -0.95146787 -0.28940439 -0.1046609 0.0026014764
-0.11072333 0.041186329 0.13396576 0.93390387 -0.34422264 -0.096614897 0.0020409338
-0.10855061 0.046406582 0.13377041 0.91505557 -0.39154553 -0.096774586 0.001602269
0.10881611 0.044447429 0.13844234 -0.91669118 -0.37741289 -0.13128875 0.0024498696
0.1102881 0.04259932 0.13232359 -0.93148702 -0.35352576 -0.085740864 0.0024850999
-0.10560725 0.053219412 0.1347765 0.88215035 -0.45809886 -0.10934465 0.0021134517
0.10471173 0.055498783 0.13450666 -0.86913383 -0.48127478 -0.11393382 0.0022769291
-0.1008478 0.062285379 0.13487568 0.84341192 -0.52655917 -0.10673197 0.0024936767
-0.097588003 0.066538654 0.1350235 0.82096577 -0.56183439 -0.1017712 0.0023344371
0.096934952 0.067281455 0.13540278 -0.81557572 -0.56754714 -0.11281139 0.0027889714
0.10157327 0.061134398 0.13644771 -0.85105097 -0.5115996 -0.11822883 0.0023898759
-0.092207536 0.073493376 0.13554657 0.76750177 -0.63132119 -0.11124078 0.0021859945
-0.087963 0.078633681 0.13758436 0.73508418 -0.66743225 -0.11910224 0.0022614012
0.087994583 0.07885544 0.1361481 -0.73743045 -0.66628051 -0.11075494 0.0023455278
0.093192853 0.072104461 0.13601866 -0.7701872 -0.62814456 -0.1106622 0.0021039641
-0.083197683 0.084448881 0.13404524 0.69936079 -0.70738584 -0.10246851 0.0023416295
-0.078834839 0.08840245 0.13286971 0.67224139 -0.73406678 -0.096111506 0.0022215899
0.077707283 0.088784404 0.13640592 -0.65920299 -0.7439369 -0.10958738 0.0021846166
0.083641157 0.084139548 0.13365132 -0.69900405 -0.70927185 -0.091251254 0.0021393523
-0.074895427 0.091730155 0.13011999 0.63392818 -0.76875138 -0.084595919 0.0019461541
-0.06629163 0.097725466 0.13505603 0.55665046 -0.82270527 -0.11530969 0.0019947311
0.067346431 0.096964315 0.13526934 -0.56183791 -0.81901908 -0.1163874 0.0022550013
0.073306359 0.092257448 0.13608009 -0.6327967 -0.7654103 -0.11711282 0.0020254578
-0.062539347 0.10080163 0.13364452 0.52831334 -0.84186155 -0.11024596 0.002106634
-0.052640781 0.10574081 0.13606831 0.44932282 -0.88557458 -0.11775646 0.0021903692
-0.046248998 0.10855696 0.13443641 0.39554885 -0.91254795 -0.10391009 0.0014774986
0.045062684 0.10897727 0.13497098 -0.38266677 -0.91755527 -0.10797428 0.0019991947
0.056277998 0.10414217 0.136465 -0.48083577 -0.86832929 -0.12166055 0.0022618885
0.061741274 0.10132467 0.1344981 -0.51839632 -0.84820092 -0.10872169 0.0021992007
-0.042068731 0.11054319 0.13190763 0.35228038 -0.9318167 -0.087270737 0.0022089959
-0.033370379 0.1140523 0.13265646 0.27266681 -0.95779955 -0.090955131 0.0019976231
-0.024100401 0.11572577 0.13544334 0.20652503 -0.97286528 -0.10430987 0.0020265426
-0.01629176 0.11684398 0.13455071 0.14600401 -0.98444629 -0.09771578 0.0020328357
-0.0061203889 0.11823075 0.13440146 0.045585718 -0.99398559 -0.09957204 0.0021552164
0.0051072841 0.11819901 0.13590981 -0.034383103 -0.9929468 -0.11346625 0.002432252
0.016356444 0.11684615 0.13452302 -0.15866885 -0.98046809 -0.11621787 0.0019478059
0.025150867 0.11563808 0.13481456 -0.20954734 -0.97137374 -0.11190648 0.001891
0.035009965 0.11301587 0.13598114 -0.29123184 -0.95004386 -0.11225265 0.0027531162
0.042184643 0.11012278 0.13525948 -0.36151063 -0.92696518 -0.10022744 0.002416407
-0.033057872 -0.11246507 0.14499068 0.26024669 0.95150411 -0.16404748 0.0024383015
-0.025305571 -0.11427163 0.14469709 0.22244905 0.96151501 -0.16126153 0.0024024795
-0.014922286 -0.11550104 0.14558519 0.1338391 0.97623378 -0.17045464 0.0017537893
-0.005589514 -0.11694733 0.14428236 0.058659948 0.98241609 -0.17725036 0.0018020696
0.0069242413 -0.11633863 0.14681032 -0.050351184 0.98175454 -0.18336533 0.0015908011
0.016608743 -0.11545624 0.14455666 -0.15157121 0.97702891 -0.1498023 0.0021055243
0.02768768 -0.11346608 0.14762868 -0.23775475 0.95426315 -0.18125804 0.0025427884
0.036693025 -0.11129564 0.14313529 -0.31465819 0.93778419 -0.14680262 0.0020658704
-0.060689159 -0.10074066 0.1433138 0.50597048 0.84946185 -0.14969456 0.002553368
-0.056379482 -0.10255835 0.14596677 0.4807784 0.85874957 -0.1772041 0.0023748567
-0.047541555 -0.10628028 0.14601956 0.42125139 0.89122111 -0.16814347 0.002407619
-0.038710449 -0.10923266 0.14967252 0.32371071 0.92588407 -0.19480778 0.0024593021
0.039998472 -0.10948309 0.14575292 -0.33449295 0.9255802 -0.17724484 0.0021908495
0.044419695 -0.10757631 0.14604528 -0.37474725 0.9081198 -0.18676989 0.0022911874
0.055925649 -0.10306144 0.14456241 -0.47847408 0.86277288 -0.16335694 0.0025096049
0.060318414 -0.10094643 0.1438601 -0.51184291 0.84287876 -0.16604896 0.0023695633
-0.072554782 -0.091465764 0.1441811 0.61242664 0.77340126 -0.16365868 0.0022695402
-0.064890511 -0.097291529 0.14426596 0.54039776 0.82628727 -0.15880682 0.0023683046
0.065783791 -0.096443869 0.14516138 -0.53515482 0.82834482 -0.1656927 0.0022447647
0.071775503 -0.09176854 0.14524952 -0.61678231 0.76954883 -0.16545154 0.0019092184
-0.083611049 -0.082054369 0.14605698 0.70784253 0.6856057 -0.17001109 0.0025100945
-0.078028195 -0.08694917 0.14546621 0.66534489 0.7298646 -0.15688778 0.0025325618
0.076641634 -0.087600201 0.147385 -0.64676529 0.73927903 -0.18751295 0.0021707797
0.081889033 -0.083739929 0.1464662 -0.69116986 0.69931549 -0.18232392 0.0023307526
-0.091589265 -0.072318621 0.14437369 0.76315713 0.62313402 -0.1711584 0.002303835
-0.087801985 -0.077217489 0.14442188 0.7375024 0.65797663 -0.15217461 0.0022363735
0.088701993 -0.076118313 0.14418659 -0.7569921 0.63118482 -0.16902265 0.0019929102
0.091844171 -0.07201162 0.14422333 -0.7714119 0.6149925 -0.16342583 0.0021344137
-0.10015577 -0.061866317 0.14165382 0.84215224 0.52158165 -0.13686553 0.0021721809
-0.097540475 -0.064499326 0.14443889 0.82416296 0.54236984 -0.16306555 0.0023515595
0.097172759 -0.064701021 0.14554544 -0.82718182 0.53558576 -0.1700535 0.0020770582
-0.10451633 -0.05168451 0.14638419 0.88391179 0.43211874 -0.17881058 0.0021685304
0.10367979 -0.053962711 0.14575417 -0.86763275 0.46427408 -0.17794065 0.0024423699
-0.10745806 -0.044540294 0.14647162 0.90452617 0.38528755 -0.1827184 0.001727581
0.10733471 -0.045316625 0.14525615 -0.91037279 0.37696749 -0.17063662 0.0018445674
-0.11243968 -0.033451695 0.14424443 0.95045304 0.27278256 -0.14909248 0.002359774
-0.10999842 -0.038655803 0.14595705 0.92603284 0.33278885 -0.17808634 0.002433172
0.11220784 -0.033209413 0.14599112 -0.94341654 0.27737483 -0.18173753 0.00228329
-0.1140091 -0.024915487 0.14661305 0.96114546 0.21671267 -0.17098238 0.002631753
0.11399101 -0.026255401 0.14571103 -0.95621341 0.23589577 -0.17323098 0.0023422672
-0.11548705 -0.015029317 0.14569952 0.97561842 0.13060148 -0.17638567 0.0016070879
0.11587311 -0.015726469 0.14269409 -0.97895032 0.14178722 -0.1468083 0.0017211571
-0.1170091 -0.0043923049 0.14496309 0.98576027 0.036767211 -0.16408792 0.002246307
0.1167503 -0.0059043197 0.14520188 -0.98465735 0.043505907 -0.16898835 0.0021200136
-0.1171135 0.0039096791 0.14464152 0.98611861 -0.030472977 -0.16322206 0.0020795502
0.11715782 0.0050881552 0.14355531 -0.9856528 -0.055434149 -0.15942283 0.0020000755
-0.11564741 0.015273258 0.14456385 0.97652918 -0.14251837 -0.16149102 0.001726781
0.11598643 0.015230872 0.14263994 -0.97795373 -0.13998416 -0.15495458 0.0023438467
-0.11393628 0.024124304 0.14762296 0.96637475 -0.18577351 -0.17778654 0.0022247389
0.11431707 0.023264285 0.1460762 -0.96603006 -0.18942495 -0.1757959 0.0023067305
-0.11180682 0.034304615 0.14586383 0.94002253 -0.30064848 -0.16114645 0.0026028391
-0.10944535 0.038714733 0.14860025 0.92674172 -0.32981783 -0.17991678 0.0027040406
0.10959265 0.038283728 0.14875644 -0.92972165 -0.31259042 -0.19469182 0.0020738852
0.11225875 0.034008618 0.14398715 -0.94602835 -0.28245944 -0.15889309 0.0023863784
-0.10783172 0.044912953 0.14360246 0.90799052 -0.38753131 -0.15928854 0.0018273303
0.10823122 0.043612517 0.14431031 -0.91468716 -0.36797521 -0.16715771 0.0025847231
0.11023241 0.040184978 0.14090078 -0.93600523 -0.32156882 -0.14313504 0.0022641609
-0.10312627 0.055437785 0.14507692 0.86124253 -0.47803223 -0.17247194 0.0024156917
0.10340304 0.055375654 0.14404915 -0.86447579 -0.47540575 -0.16331291 0.0022947267
-0.10091762 0.061130803 0.1404604 0.84728974 -0.51365262 -0.13513345 0.0023720602
-0.09677799 0.065185398 0.1455726 0.82403976 -0.54066682 -0.16922709 0.0025233156
0.095324479 0.067422427 0.14438589 -0.80381387 -0.57274324 -0.16077428 0.0021999332
0.10134892 0.060205478 0.14214531 -0.8593927 -0.49025798 -0.14522849 0.0022104078
-0.091011643 0.072723404 0.14561509 0.75739396 -0.62717235 -0.1816843 0.0021697239
-0.088990003 0.074900374 0.14706902 0.75361693 -0.62979716 -0.18819389 0.0021891813
0.0888253 0.075661764 0.14522985 -0.75237232 -0.63785946 -0.16453326 0.0021195025
0.091669805 0.072288737 0.14411028 -0.76392466 -0.62414223 -0.16390714 0.0021877098
-0.083234102 0.082744732 0.14510275 0.70723265 -0.68603843 -0.17080195 0.0024477951
-0.078539431 0.086812139 0.14439249 0.66807228 -0.7264291 -0.16118383 0.002469057
0.076081887 0.088806674 0.14389886 -0.64512712 -0.74892795 -0.15138669 0.0024184089
0.082014129 0.083611503 0.14609447 -0.68621051 -0.70322776 -0.18597265 0.0023930024
-0.072101824 0.091384493 0.14600606 0.62697631 -0.7584579 -0.17788316 0.0019629502
-0.066413261 0.096048467 0.14452843 0.55513221 -0.81626517 -0.15981032 0.0019619819
0.065615281 0.096462145 0.14550118 -0.54993826 -0.81710094 -0.17295669 0.0023202451
0.072875775 0.090926655 0.14550954 -0.62023675 -0.76629919 -0.16760649 0.0020704647
-0.055892255 0.10304229 0.14454539 0.48163554 -0.8625403 -0.15508558 0.0020508065
-0.044059616 0.107613 0.14659402 0.38542417 -0.90874165 -0.16011471 0.0015535009
-0.038674831 0.10970823 0.14736845 0.31985644 -0.93101698 -0.1757817 0.0024483444
0.036941074 0.1099644 0.14967841 -0.30229086 -0.93112373 -0.20403177 0.0022276866
0.044051539 0.10804299 0.14454274 -0.38384476 -0.90690148 -0.17376061 0.001817769
0.054682676 0.10329661 0.14600822 -0.46669599 -0.865915 -0.17996107 0.0022487924
-0.033687733 0.11206765 0.14582638 0.27228764 -0.94979697 -0.15409504 0.0024739611
-0.025377734 0.11432444 0.14443174 0.21522106 -0.96400923 -0.15609671 0.0024424861
-0.013975527 0.11606407 0.14305374 0.11999185 -0.98154426 -0.14890498 0.0018279511
-0.0044289399 0.11726503 0.14342342 0.049737558 -0.9867065 -0.15471411 0.0021209496
0.0068146018 0.11675237 0.14463429 -0.068784364 -0.98438394 -0.16203998 0.0019794635
0.014194104 0.11579972 0.14447497 -0.11842956 -0.98005968 -0.15955399 0.0019867865
0.025528166 0.11400223 0.14611572 -0.2072279 -0.96416843 -0.16563788 0.0020751872
0.03307138 0.1122477 0.14625536 -0.27708524 -0.94165432 -0.19107808 0.0025786809
-0.032560911 -0.11054105 0.15480499 0.26667255 0.93334645 -0.24031265 0.0026502828
-0.023755133 -0.11234658 0.15525649 0.192674 0.95122248 -0.24094109 0.0021824979
-0.014405018 -0.11332539 0.15634337 0.12931497 0.96313256 -0.23590943 0.0019838503
-0.0064709052 -0.11489835 0.1541166 0.058251861 0.97596258 -0.21000883 0.0018839109
0.0031385149 -0.11506575 0.15527846 -0.02508614 0.97499162 -0.22082105 0.0021148256
0.015728254 -0.11355984 0.15465066 -0.14410587 0.96259534 -0.22944224 0.0018762788
0.024283975 -0.1124052 0.15471885 -0.2046956 0.95014513 -0.23521039 0.0022567948
0.030471932 -0.11184435 0.15309331 -0.25837451 0.94074357 -0.21964537 0.002501792
-0.043452252 -0.10558248 0.15655984 0.36868641 0.89631182 -0.24636456 0.0024395862
-0.037412036 -0.1086599 0.15429211 0.31117916 0.92646837 -0.21171658 0.0023514256
0.036663141 -0.10852405 0.15609975 -0.31794059 0.91601694 -0.24459517 0.0020322229
0.045616686 -0.10533871 0.1540111 -0.39219132 0.89261067 -0.22233321 0.0018778124
0.054832045 -0.10155397 0.15367794 -0.47090507 0.85374939 -0.22217201 0.0021337564
-0.070579432 -0.090444326 0.15432037 0.60368878 0.76753199 -0.21553333 0.0021025841
-0.066513225 -0.093680255 0.15386961 0.56673527 0.79357505 -0.22147192 0.0022865287
-0.057793032 -0.099201925 0.15781273 0.4903591 0.83704418 -0.24270366 0.0022551068
0.058159307 -0.099057496 0.15711319 -0.48459506 0.84201777 -0.2370102 0.0024063876
0.064903162 -0.094645552 0.1548319 -0.54215926 0.80848205 -0.22895439 0.002256644
-0.082464546 -0.080320291 0.15594801 0.70116621 0.67272383 -0.2362382 0.002667763
-0.075442381 -0.086096182 0.15634722 0.63631982 0.73165059 -0.24450871 0.0024864082
0.075028829 -0.086966492 0.15449144 -0.63943231 0.73494732 -0.22578488 0.0020359587
0.081886053 -0.081524484 0.15444101 -0.67991638 0.69933367 -0.22055846 0.0021949292
-0.086694948 -0.074783944 0.15602343 0.7324329 0.63525271 -0.24494089 0.0025830746
0.086336702 -0.075407907 0.1556547 -0.74221271 0.6279543 -0.23408067 0.0024004735
-0.095894828 -0.063241109 0.15491827 0.81700224 0.52845436 -0.2307453 0.0016672872
0.094816014 -0.065451033 0.15283552 -0.79400015 0.5682922 -0.21588799 0.0018865836
-0.10237338 -0.051786348 0.15558194 0.86697501 0.43698373 -0.23958215 0.0022140099
0.099790543 -0.057138912 0.15707664 -0.84637618 0.47666994 -0.23755659 0.0022371663
0.10323905 -0.051479854 0.152814 -0.86906177 0.44595096 -0.214148 0.0025080077
-0.10514619 -0.045338038 0.1552448 0.88538271 0.40267006 -0.23228043 0.001883815
0.10554557 -0.044369452 0.15523513 -0.89807886 0.37867308 -0.22374305 0.002002066
