# .PCD v0.7 - Point Cloud Data file format
VERSION 0.7
FIELDS x y z normal_x normal_y normal_z curvature
SIZE 4 4 4 4 4 4 4
TYPE F F F F F F F
COUNT 1 1 1 1 1 1 1
WIDTH 567
HEIGHT 1
VIEWPOINT 0 0 0 1 0 0 0
POINTS 567
DATA ascii
-0.03501102 0.13904215 0.13432911 0.24728872 -0.96884376 -0.013785819 0.0021041222
-0.029509097 0.1397665 0.13485152 0.21212983 -0.97720802 -0.0080911107 0.0019383751
0.028419843 0.13990788 0.13385873 -0.19579063 -0.98062253 -0.0067451885 0.0014942301
0.035587106 0.13881649 0.13492721 -0.25161496 -0.96780074 0.0071837162 0.002214724
0.04468932 0.1356439 0.13514687 -0.30671734 -0.95180064 0.00026794715 0.0017785222
0.055123698 0.13132183 0.13579604 -0.3867144 -0.92219871 -0.00118807 0.0011917861
-0.022355422 0.14070828 0.13402759 0.15097454 -0.98853767 0.0002453959 0.00099601084
-0.015656125 0.14159027 0.13735998 0.11664968 -0.9931556 -0.0058983886 0.000608631
-0.0083233733 0.14255564 0.13404855 0.063090168 -0.99799955 0.00407041 0.0017901572
0.0060528577 0.14285254 0.1345742 -0.044520069 -0.99900717 -0.00161736 0.0018746743
0.015685398 0.1415844 0.13386914 -0.11635154 -0.99320227 -0.0034023048 0.00082739128
0.024770625 0.14038831 0.13795117 -0.17821063 -0.98397136 0.0064236368 0.00094809476
-0.024300599 -0.14050964 0.14223914 0.15579692 0.98778725 0.0018988695 0.00065287593
-0.0024184166 -0.14339048 0.14817891 0.026813904 0.99963439 -0.0034917279 0.0022475026
0.0034161936 -0.1432571 0.14663185 -0.022459242 0.99973989 0.0039706114 0.0023742334
0.013919584 -0.14187431 0.14349577 -0.11159807 0.99375308 0.00083680335 0.00023730588
0.022969851 -0.1406828 0.14483696 -0.16271019 0.98667389 -0.00018899985 0.0015093886
-0.054960717 -0.13145314 0.1469117 0.38438371 0.92316872 -0.00293895 0.00089144194
-0.045433767 -0.13539933 0.14484651 0.3275308 0.94484025 -0.00070786837 0.0010542525
-0.032416373 -0.13943081 0.14597987 0.24347864 0.96989787 0.0040438222 0.0019470679
0.035053808 -0.13895869 0.14522591 -0.25422755 0.96713972 0.0030220102 0.0020945943
0.044649024 -0.13571803 0.14459968 -0.31405768 0.94940346 -0.00089165609 0.0011194238
0.051880624 -0.1327226 0.14446291 -0.35695696 0.93411946 0.001573487 0.00097278203
-0.07287842 -0.12366728 0.14504689 0.50871235 0.86091161 0.0065518008 0.0019883732
-0.064543582 -0.1274838 0.14512423 0.4614884 0.88714415 0.0019664937 0.0013742768
-0.058737155 -0.12988891 0.1432226 0.41881305 0.90805811 0.005109373 0.0011682879
0.059324097 -0.12963942 0.14237314 -0.42499962 0.90517807 0.005292098 0.001631262
0.065113641 -0.12724131 0.14645693 -0.46096522 0.88741744 0.001160666 0.0012878987
0.074150026 -0.12267975 0.14467074 -0.51361352 0.85802162 -4.7251324e-05 0.0016901565
-0.083103739 -0.11582111 0.14433107 0.57850128 0.81563497 0.0087110279 0.001369336
-0.078044914 -0.1197029 0.14724894 0.53970146 0.84185606 0.00078288821 0.0019999137
0.078913279 -0.11902476 0.14194661 -0.54602301 0.83776873 -0.0015784362 0.0016426556
0.08410114 -0.11504398 0.14582239 -0.58939129 0.80784661 0.001315185 0.0013173983
-0.10167705 -0.10150274 0.14803323 0.70734531 0.70684838 0.0052802665 0.0031332681
-0.095808253 -0.1060726 0.14486235 0.64988416 0.75996977 0.009824397 0.0018276041
0.096618146 -0.10543934 0.14623053 -0.6773265 0.73568249 0.00019001492 0.0027720716
0.10026495 -0.10264103 0.14329761 -0.68966913 0.72406971 -0.0089210933 0.0026479054
-0.10468749 -0.097606979 0.14539208 0.73569286 0.67728323 0.0065899938 0.0027794903
0.10618249 -0.095638603 0.14452678 -0.74621826 0.66568971 -0.0039478648 0.0022698727
-0.11600024 -0.082863905 0.14710659 0.81666791 0.57710391 0.0021303771 0.0012194436
0.11522186 -0.083858274 0.1444758 -0.81804931 0.57514662 -0.0013027007 0.0016313937
-0.1226785 -0.074088126 0.1439869 0.85939676 0.51121581 -0.0097841704 0.0024043084
-0.11906275 -0.078872755 0.14341602 0.83499593 0.55020094 -0.0077925348 0.0020216394
0.12115304 -0.076128602 0.14187321 -0.85091192 0.52530777 -0.00076689385 0.0020288697
-0.12790759 -0.063490696 0.14419064 0.89492458 0.44610444 -0.010039452 0.0015369502
0.12648006 -0.066899903 0.14536041 -0.88647288 0.46270666 0.0082632778 0.0012577689
-0.13226333 -0.052974977 0.14609459 0.9346962 0.35536405 0.0077072289 0.0014712827
0.12964098 -0.05926881 0.14003326 -0.9058941 0.42349792 -0.0023112854 0.0014084565
0.13136405 -0.055108972 0.14532754 -0.92223513 0.38661522 -0.0033284642 0.00075899175
-0.13513795 -0.04603507 0.14572033 0.94577456 0.3248187 0.0018160184 0.0011094031
0.13532448 -0.045547586 0.14450969 -0.9508751 0.30951729 0.0059706694 0.0016668568
-0.13928756 -0.033154976 0.145199 0.97151488 0.23679233 0.0093932254 0.00213778
0.13884099 -0.035254743 0.14627762 -0.96206516 0.27279392 -0.0037587066 0.0022545611
-0.14040564 -0.024951929 0.14650318 0.9825362 0.18606333 0.0017360728 0.0018561643
-0.13994232 -0.02847122 0.14988866 0.98067296 0.19565146 0.0010320712 0.0014415071
0.14034113 -0.025324943 0.14494452 -0.98529708 0.17084543 -0.00118934 0.0007006909
-0.14180942 -0.014289197 0.14369445 0.99370104 0.11202543 -0.0029277715 0.00018678712
0.1414215 -0.017118683 0.14549117 -0.99245071 0.12264089 -0.00090231572 0.00097336021
-0.14287846 -0.006168976 0.14486234 0.99868637 0.050535001 -0.0084628155 0.0022099819
0.14298305 -0.0052574687 0.14740682 -0.99964225 0.025866922 0.0067959717 0.0019565504
-0.14322901 0.0034489185 0.14479579 0.9996292 -0.027032664 -0.0032908418 0.0023471792
0.14293526 0.0055631143 0.14447336 -0.99963522 -0.026493944 0.0052458998 0.0020915202
-0.1416119 0.015731946 0.14446607 0.99393016 -0.10999453 -0.0019986879 0.00035473364
0.14153837 0.016173527 0.14612462 -0.99185401 -0.12737881 0.00038786454 0.00093226391
-0.1406962 0.022687642 0.14557597 0.98861945 -0.15043159 -0.0013840685 0.00093942304
-0.13978593 0.029601673 0.14246786 0.97780228 -0.20941257 -0.0070084417 0.0019953339
0.14097148 0.020479526 0.14291722 -0.99040461 -0.13805899 -0.0062010144 0.0012660254
-0.13907719 0.034141604 0.1436388 0.96720022 -0.25399664 0.0030690758 0.00206171
0.13933945 0.032875996 0.1443385 -0.97090733 -0.23938908 -0.0056273653 0.0023982371
-0.13546136 0.045196939 0.14321557 0.94768959 -0.3191663 0.0041458518 0.0011662429
0.13538484 0.045344498 0.14661081 -0.95043528 -0.31089649 0.004022805 0.0016770549
-0.13118878 0.05551181 0.1442143 0.92108166 -0.3893553 0.0033183261 0.0013225183
-0.12935758 0.059932739 0.14305326 0.90807861 -0.41879982 -0.00027857363 0.0013194525
0.12952262 0.059497125 0.14611162 -0.90739018 -0.42028144 0.0025745996 0.0017899489
0.13177654 0.054055691 0.14535706 -0.92442638 -0.38133582 0.0043639434 0.00089820818
-0.12780355 0.063684471 0.14730354 0.89044553 -0.4550778 0.0032909375 0.0014429057
0.12700455 0.06557633 0.14625728 -0.88979071 -0.45635223 -0.0038957964 0.0016376782
-0.12324926 0.073193058 0.14711231 0.85602766 -0.51690519 -0.005062669 0.0018143951
-0.11904466 0.078838959 0.14519557 0.83860075 -0.54472178 0.0051857843 0.001919784
0.11964604 0.078035176 0.14433776 -0.84326184 -0.53749901 0.002094649 0.0020553311
0.12320399 0.073222771 0.14529599 -0.85399908 -0.52023655 0.0062805857 0.0020234485
-0.11397927 0.0854403 0.14382103 0.80867893 -0.5882501 -0.00044388085 0.0010407739
0.11453661 0.084693901 0.14299279 -0.81362057 -0.58139414 -0.0015479536 0.00086019025
-0.10558643 0.096378058 0.14745487 0.73944521 -0.67320752 0.0035210745 0.0020564506
0.10711665 0.094363771 0.14633338 -0.7498042 -0.66155207 0.011941741 0.0019694427
-0.1009323 0.10208337 0.14157522 0.70368153 -0.71051532 -0.00059446594 0.0023461378
-0.097149491 0.10498603 0.14689462 0.6772806 -0.73572057 -0.0025059409 0.0023693573
0.093868449 0.10749185 0.14551926 -0.64645141 -0.76291108 0.0082006659 0.0012323427
0.10082304 0.10215539 0.14735389 -0.7028054 -0.71133548 0.0081466427 0.0022771459
-0.090238214 0.11028924 0.14133619 0.62540144 -0.78030312 5.7642912e-05 0.00090700458
-0.08564347 0.11381491 0.14667529 0.60515863 -0.79609376 0.0042158826 0.00077965652
-0.079558074 0.11848439 0.14407206 0.55401093 -0.83247018 -0.0080839293 0.0015986678
0.085325569 0.11404704 0.14296627 -0.59979653 -0.80013031 -0.0059665493 0.0011533643
-0.072322987 0.12403607 0.14234126 0.49830163 -0.86700052 -0.0023803269 0.0022348994
-0.065984912 0.12682937 0.14370118 0.46987858 -0.88272911 -0.0018554972 0.0021564441
-0.059470288 0.12952781 0.14379969 0.40421948 -0.91465294 -0.0040882542 0.0010202681
0.059321407 0.12958311 0.14283384 -0.40468141 -0.91445768 0.00017538328 0.00056435011
0.066567719 0.12658158 0.14436086 -0.47349718 -0.88075316 -0.0086167352 0.0021752284
0.073374234 0.12313582 0.14534518 -0.513623 -0.85797751 0.0081259012 0.0022535382
-0.054480124 0.13159481 0.14504577 0.38852465 -0.92142487 0.0049738372 0.0012885181
-0.042782404 0.13644013 0.14380963 0.30087844 -0.953646 -0.0056127608 0.0018667332
-0.034363661 0.1390266 0.14607696 0.24471806 -0.96959114 -0.0024835791 0.002396056
-0.029578758 0.13975734 0.14142314 0.21082599 -0.97742665 -0.013766939 0.0017168721
0.029938055 0.139708 0.14143145 -0.2165923 -0.9762587 -0.0026014089 0.0018799133
0.035705898 0.13894865 0.14623056 -0.24846032 -0.96864074 -0.0016028808 0.0024292476
0.046203308 0.13501678 0.14403392 -0.31644425 -0.94861096 0.00053605606 0.0017672778
0.054917756 0.13140714 0.14629214 -0.38217178 -0.92409003 -0.0015386966 0.0010997981
-0.023137411 0.14060536 0.14396836 0.16694957 -0.98596132 -0.0028359261 0.00071633526
-0.015907012 0.14155725 0.14368252 0.11437 -0.99343395 -0.0029262886 0.00059183367
-0.0051663443 0.14297128 0.14698176 0.03335534 -0.99943322 0.0045303595 0.0023672329
0.0065749479 0.14278381 0.14778106 -0.06175746 -0.99808598 0.0032287184 0.001528722
0.017623644 0.14132921 0.14517358 -0.12728512 -0.99185115 0.0054519265 0.0010032158
0.023527808 0.14055192 0.14385876 -0.1582292 -0.9874019 0.0010136787 0.0014036407
-0.024315298 -0.1405077 0.15523431 0.1549727 0.98787445 0.0093552498 0.00070954155
-0.017233344 -0.14144005 0.15605031 0.11822613 0.99298608 0.0010877489 0.0012632334
-0.0049331267 -0.14305942 0.15141849 0.043226399 0.99904716 -0.0060189776 0.002163402
0.007059738 -0.14277741 0.15263832 -0.06901671 0.99761128 -0.0029049099 0.0016321783
0.011465858 -0.14219734 0.15759279 -0.079949141 0.99679756 0.0016197801 0.0014545025
0.023783529 -0.14057568 0.15436128 -0.1502658 0.98864293 -0.0023314294 0.0010936615
-0.054338258 -0.13171098 0.15512612 0.38097703 0.92457926 -0.0031328155 0.0012277856
-0.043205027 -0.13632251 0.15424438 0.30065027 0.95371193 0.0065518264 0.0016082049
-0.033795066 -0.13925967 0.15795948 0.24876279 0.96856326 0.0014891673 0.0022632717
-0.029121349 -0.13987496 0.15743053 0.21179071 0.97727668 0.0086620972 0.0021286921
0.034756012 -0.1390776 0.15412986 -0.25881502 0.96589971 -0.0072471383 0.002143346
0.046709787 -0.13486442 0.15445757 -0.32847136 0.94451106 -0.002303286 0.0010795726
0.055606175 -0.13117942 0.15473388 -0.40406293 0.91473114 -0.00023088859 0.00091848959
-0.074474454 -0.12239367 0.15709741 0.51820385 0.85525602 0.0013736106 0.0018668664
-0.065166205 -0.12722591 0.15616687 0.45674416 0.88950831 -0.012638055 0.0013177854
0.059559103 -0.12954207 0.1562372 -0.42982551 0.90291137 0.0010546233 0.0015823402
0.062424045 -0.12835537 0.15349452 -0.44560948 0.89522624 -0.0014498507 0.0015009387
0.072706521 -0.12361542 0.15583614 -0.5032016 0.86416906 -0.00010635182 0.0021641885
-0.090606548 -0.11006401 0.15863267 0.63597739 0.77169967 -0.0035267477 0.0010296386
-0.084464945 -0.11477663 0.15369582 0.59305018 0.80516165 -0.0025033019 0.0013269394
-0.077902496 -0.11981218 0.15145043 0.52939975 0.84836304 -0.0040126825 0.0018009719
0.079591006 -0.11850473 0.1525294 -0.55230618 0.83360797 -0.0074666957 0.0018073141
0.084185988 -0.11497886 0.15503265 -0.57357985 0.81914932 0.00072695012 0.0012369459
-0.10215764 -0.10090395 0.15535209 0.71449018 0.69964367 -0.0015356119 0.0029938505
-0.098766707 -0.10380249 0.15550059 0.68046969 0.73277611 0.0005087009 0.0029099304
0.093553819 -0.10779067 0.15492852 -0.64222759 0.76646131 -0.0089951269 0.001137269
0.10184497 -0.10101789 0.15632802 -0.70289785 0.71128565 0.0027041971 0.0027089398
-0.1056949 -0.09629409 0.15540573 0.74939311 0.66212434 0.0011499404 0.0022754727
0.10719633 -0.094317339 0.15422337 -0.76377571 0.6453734 -0.011828356 0.0011288454
-0.11601772 -0.082841121 0.15342557 0.81617844 0.57777858 -0.0049676429 0.0013140795
0.11452675 -0.084764145 0.15371592 -0.80383247 0.59485263 0.001927721 0.00091319182
-0.12482531 -0.070931956 0.15475537 0.87534779 0.48340854 -0.009080925 0.002180208
-0.11960331 -0.078168295 0.15701254 0.83210117 0.55462331 -0.00087116502 0.0017596345
0.11949726 -0.078286462 0.1513277 -0.84202313 0.53940892 -0.0059222118 0.0017189387
0.12234487 -0.074575394 0.15473741 -0.85195321 0.52360761 0.0032826329 0.0017624544
-0.12716815 -0.06527587 0.15473367 0.88930804 0.45718348 -0.010693074 0.0014223232
0.12842165 -0.062212508 0.15226091 -0.89893621 0.43806544 0.0035356036 0.0014999384
-0.13293728 -0.051347941 0.15476154 0.93946439 0.34264401 -0.0013342847 0.0013147189
-0.12978446 -0.058959499 0.15382734 0.90691984 0.42130145 -0.0012114219 0.0014174957
0.12980281 -0.058878113 0.15138984 -0.91106653 0.41225079 -0.0026686718 0.0011315424
0.13214546 -0.053222418 0.15424941 -0.92451268 0.38115123 0.00028647517 0.00086707342
-0.1359008 -0.044193406 0.15766901 0.95018238 0.31169328 0.00086356996 0.001462993
0.13483663 -0.046725374 0.15349455 -0.94598269 0.32420579 -0.0027161262 0.0011519818
-0.13896032 -0.035637606 0.1561597 0.96595162 0.2587108 -0.0024907894 0.0019869737
0.13862713 -0.03707106 0.15491259 -0.96181387 0.27360043 0.0075407042 0.0018062486
-0.14036584 -0.025254289 0.15329126 0.98083037 0.19485778 -0.0014761767 0.0015866492
-0.13988414 -0.028913138 0.15816574 0.97757298 0.21059543 0.00080222008 0.0018834212
0.13988005 -0.028827224 0.15637746 -0.97599769 0.2177348 0.0044768713 0.0018267081
0.14064966 -0.022981372 0.15297106 -0.98841548 0.15158169 0.0076082135 0.0011577258
-0.14145431 -0.016986446 0.15325566 0.9922747 0.12403584 -0.002452475 0.00050333882
0.14170942 -0.014931656 0.1571255 -0.99258226 0.12155977 0.0018840163 0.00047265581
-0.14329885 -0.0029759423 0.15350661 0.99979937 0.019454334 -0.0047852467 0.0024817241
0.14285272 -0.0062473672 0.15502347 -0.99963278 0.02554589 0.0090457648 0.0020336795
-0.14305823 0.0047461498 0.15544645 0.99897552 -0.045132939 0.0033060894 0.0016668498
0.14306787 0.0045558447 0.15520425 -0.99983144 -0.017208209 -0.0063968669 0.0022079458
-0.14157294 0.016028212 0.15432827 0.9926638 -0.12085472 0.0035536385 0.00062957703
0.14163937 0.015406347 0.15449704 -0.99441975 -0.10549621 -0.00016972182 0.00034005396
-0.14053628 0.023902267 0.15625429 0.98663735 -0.16289786 0.0033215764 0.00081090437
0.14079672 0.021806996 0.15135367 -0.98952675 -0.14431895 -0.00295908 0.0010681543
-0.13882367 0.035497516 0.15637001 0.96399546 -0.2659187 -8.1254198e-05 0.0020021021
0.13891864 0.034956463 0.15227684 -0.96490896 -0.26258159 0.001261259 0.0019050312
-0.13584691 0.044266127 0.15404789 0.95231038 -0.30511597 -0.003016744 0.0015836442
0.1352514 0.045666631 0.15300812 -0.94594139 -0.32431936 -0.0034305006 0.0014216141
-0.13216692 0.053150397 0.15277645 0.92553335 -0.37866467 0.0010549246 0.0012204584
0.12972584 0.059006527 0.15387899 -0.91625172 -0.40051976 -0.0081755621 0.00076938968
0.13194688 0.053644463 0.1545447 -0.92714423 -0.37470403 0.00069056044 0.00067647587
-0.12751305 0.064385772 0.15544806 0.88914919 -0.45761737 0.0002282671 0.0014510585
0.12742195 0.064568639 0.15569735 -0.89145315 -0.45310366 -0.0028826825 0.0015721918
-0.12303539 0.073597364 0.15632932 0.85533893 -0.51806742 0.0012568375 0.0017988561
-0.11931168 0.078490965 0.15808403 0.83717787 -0.54690915 0.0048518279 0.0018522053
0.12390267 0.072130814 0.15627646 -0.86338466 -0.50453162 0.0038274431 0.0021376729
-0.11458125 0.084655777 0.15371969 0.80079836 -0.59893268 0.0012439911 0.0010529632
0.11432163 0.084974095 0.15377487 -0.80336887 -0.59548169 0.00034197787 0.00098142272
-0.11013885 0.09044522 0.15715249 0.77146661 -0.63626981 -0.00024985327 0.00094165298
-0.10857332 0.092485465 0.15404679 0.76326263 -0.64607632 0.0039490717 0.0013067607
0.10817359 0.092986345 0.15619653 -0.77254981 -0.63493979 0.004282007 0.00090463134
-0.10093285 0.10208295 0.158933 0.70399225 -0.7101748 -0.006832893 0.0026222193
-0.095128991 0.10653642 0.15413682 0.66492945 -0.74685204 -0.0089970538 0.0018329293
0.09527576 0.10641198 0.15558273 -0.65777749 -0.7532109 0.0014447697 0.0019893351
0.10185611 0.10121945 0.15700209 -0.71969253 -0.69422835 0.0094750943 0.0023870312
-0.085514449 0.11391392 0.15388139 0.59616148 -0.80284983 0.0048695002 0.00068891409
-0.078550242 0.11925773 0.15441483 0.54194164 -0.84041291 0.0023314776 0.001855733
0.084935248 0.11434654 0.15580766 -0.59219372 -0.80576706 -0.0067842458 0.0012568706
-0.07489872 0.12205964 0.15573232 0.52330083 -0.85214627 -0.0017180955 0.0021642756
-0.067076921 0.12637705 0.15200201 0.45479909 -0.89056152 -0.0076054442 0.0015877751
-0.058975842 0.12973262 0.15605293 0.40425882 -0.9146378 -0.0035352898 0.00089735945
0.059323587 0.1295822 0.1570583 -0.41753376 -0.90866131 -0.00032094808 0.0013993186
0.064027973 0.12763359 0.15592548 -0.45289811 -0.89155519 0.0035759828 0.0018105414
0.073112413 0.1232841 0.15464795 -0.5121367 -0.85890025 -0.002518157 0.0023530959
-0.053879879 0.13184342 0.1539382 0.37630367 -0.9264949 -0.0016612487 0.00087566383
-0.04553334 0.13530067 0.1551089 0.32118538 -0.94701618 0.00060838764 0.0013006147
-0.034701742 0.13889806 0.15275975 0.26045617 -0.9654516 -0.0081105055 0.0021254958
0.028345253 0.1399177 0.15004382 -0.19894993 -0.98000717 0.0022110916 0.0017488888
0.03549483 0.13887304 0.15680207 -0.25570625 -0.96672189 0.0079429951 0.0019707654
0.046343617 0.13495867 0.15473309 -0.32050961 -0.94723541 0.0043056416 0.0015137342
0.05233983 0.13247496 0.15400887 -0.36747518 -0.93003255 -0.0011784297 0.00081628462
-0.02221523 0.14072676 0.15699725 0.14911532 -0.98881835 -0.0017307922 0.0010866486
-0.014847664 0.14169671 0.15564737 0.10619263 -0.99432921 0.0057043163 0.00040866935
-0.0043063443 0.14308451 0.15465869 0.023535129 -0.99957561 0.017168373 0.0019409532
0.0063513136 0.14281325 0.15313198 -0.050101988 -0.99858171 0.018011941 0.0018449574
0.016267275 0.14150779 0.15433092 -0.12537697 -0.99210644 -0.0023133147 0.00058224302
0.021349588 0.14083868 0.15410167 -0.14397721 -0.98958105 -0.00029066953 0.0011657391
-0.025855262 -0.14030495 0.16584687 0.16939855 0.98554724 -0.00087883946 0.00094220362
-0.016770566 -0.14150098 0.16680396 0.11474197 0.99334598 0.0099066431 0.0010795153
-0.0030484246 -0.14330754 0.16725317 0.027814629 0.99953884 0.012184544 0.0026105125
0.0043307287 -0.14313668 0.16443218 -0.037927367 0.99919194 -0.013300654 0.0020890967
0.016473068 -0.14153813 0.16505475 -0.11543576 0.99331218 -0.002332058 0.00022158459
0.024894468 -0.14042944 0.16368103 -0.16892707 0.98562777 -0.0012290712 0.0010668325
-0.055226833 -0.13134292 0.16481014 0.38547733 0.92271394 -0.0024830862 0.0013878946
-0.043523442 -0.13619062 0.16880441 0.30109403 0.95354652 0.0095580509 0.001781435
-0.035361808 -0.13901547 0.16525462 0.27354503 0.96185333 0.0033529317 0.0023184444
-0.02922388 -0.13986148 0.16199198 0.21370813 0.97689414 -0.0025818748 0.0022887525
0.028646713 -0.13993543 0.16737658 -0.20845728 0.97800982 0.0065154154 0.0017453937
0.034740057 -0.13902949 0.16485074 -0.26680866 0.96363735 0.014703713 0.0019640247
0.046254467 -0.13505302 0.1659473 -0.32840994 0.94451505 -0.0061795199 0.0012376549
0.054797113 -0.13151455 0.16414562 -0.38285014 0.92379975 -0.0044499184 0.0011964376
-0.073483787 -0.1230461 0.16482192 0.5191533 0.85466868 -0.0046192985 0.0020187446
-0.063040383 -0.12810643 0.16519777 0.44272506 0.89665717 0.00072381581 0.0014564329
-0.059846655 -0.12942934 0.16202714 0.4263145 0.90455306 -0.0063128588 0.0014195088
0.05966834 -0.12949681 0.16228876 -0.42604402 0.90469515 0.003619073 0.0017271425
0.065175973 -0.12721549 0.16575444 -0.46026438 0.88777268 0.0040408466 0.0015124824
0.072930627 -0.1235158 0.1657151 -0.50492829 0.86316043 0.0012509432 0.0024633233
-0.09049689 -0.11014816 0.16026232 0.63597798 0.77169913 -0.0035266425 0.001025056
-0.083541058 -0.11548555 0.16222911 0.57463896 0.81840616 -0.0011959004 0.0012019504
-0.079051234 -0.11893071 0.16833261 0.54855007 0.83611596 0.0017215856 0.0019148339
0.079211093 -0.11879625 0.16380808 -0.54882741 0.83593452 0.001383221 0.0019913788
0.084143795 -0.11501125 0.16467629 -0.57050771 0.82129222 -0.00034574734 0.0013427821
0.090364635 -0.11023782 0.16372782 -0.63718712 0.77070665 -0.0019749652 0.0011396164
-0.10192907 -0.10120182 0.16358148 0.70512021 0.7090714 -0.0048326803 0.0030495813
-0.095257595 -0.10649513 0.16784452 0.65050799 0.75949717 0.0018823562 0.0017558879
0.093633592 -0.10772944 0.16436212 -0.65258121 0.75771791 -0.0011703129 0.0017642537
0.10102373 -0.1020588 0.16569726 -0.69723034 0.7167896 -0.0090814028 0.003121868
-0.11011609 -0.090532295 0.16997239 0.76214135 0.64740962 -0.0011875408 0.0017106162
-0.1078881 -0.093435869 0.16476263 0.76032388 0.64953816 0.0027926133 0.0015731551
0.10674936 -0.094899848 0.1638701 -0.76352841 0.64577359 -0.00086597831 0.0011650261
-0.11502329 -0.08413709 0.16251747 0.81145704 0.58440906 -0.0019143379 0.0010541742
0.11308111 -0.086648129 0.16583577 -0.78867054 0.614815 -0.0011705183 0.0010309814
-0.12166846 -0.075476937 0.16487871 0.85142308 0.5244562 -0.0049491837 0.0022597951
0.11885562 -0.079122663 0.16970956 -0.83467644 0.55072969 0.0034785422 0.0017239911
0.12337653 -0.073048875 0.1644813 -0.85745174 0.51455212 0.0035551528 0.0017789709
-0.12700157 -0.065678038 0.16518196 0.8916375 0.45273358 0.0038505867 0.0012784976
0.12653548 -0.066766158 0.16600099 -0.88109553 0.4729346 0.0018733575 0.001613279
-0.13176651 -0.054174419 0.16384138 0.92564911 0.37838045 -0.0013506006 0.00095674727
-0.12936667 -0.059968136 0.16217873 0.90583479 0.42363042 -0.00072502054 0.0012886631
0.12948339 -0.059649259 0.1631906 -0.91297668 0.40795234 -0.0069629368 0.00075672462
0.13202178 -0.053520989 0.16548926 -0.92891288 0.37026361 -0.0050732843 0.0010502952
-0.13542882 -0.045332883 0.1666002 0.95003909 0.31212747 -0.0015156231 0.0010915599
0.13651451 -0.042674612 0.16426326 -0.95684892 0.29042068 -0.0097987885 0.0018182768
-0.13902113 -0.035468362 0.16347282 0.96593159 0.25856993 -0.010850826 0.001776031
0.13890611 -0.034401868 0.16529305 -0.9646737 0.26344514 0.0011766173 0.0018401024
-0.14053138 -0.023996811 0.16417603 0.98480314 0.17366524 -0.0017636847 0.001411118
0.14074159 -0.022283178 0.16506022 -0.98918515 0.14664286 0.0029371374 0.0010752678
-0.14177352 -0.014561783 0.16550522 0.99567109 0.092932619 -0.0016112517 0.00087216747
0.14168563 -0.015112312 0.16283633 -0.99257582 0.12161192 0.0019282488 0.00050251262
-0.14302084 -0.0050875661 0.16367133 0.99936372 0.035626117 -0.0017048509 0.0020046525
0.1431606 -0.0039090067 0.16346867 -0.99977529 0.020858021 -0.0037730802 0.002212021
-0.14308533 0.0045401636 0.16516586 0.99968493 -0.025078524 -0.0010528072 0.0020560632
0.14298512 0.0051845168 0.16380922 -0.99934047 -0.035355814 -0.008285258 0.0017742198
-0.14172921 0.014841028 0.16538137 0.99451876 -0.10453842 0.0020344444 0.0011173221
0.14156443 0.015975729 0.16527799 -0.99316943 -0.1166798 -0.00049400167 0.00085541815
-0.14051834 0.024038654 0.16479459 0.98858225 -0.15066771 -0.002108854 0.00094181736
-0.13978001 0.029646672 0.16791859 0.9785893 -0.20581776 0.001455484 0.0018066675
0.13986757 0.028864484 0.16670533 -0.97656178 -0.21515015 0.006134076 0.00196436
0.14054833 0.023693711 0.16196902 -0.98677051 -0.16212331 -5.1986222e-05 0.00097072218
-0.13904364 0.034453057 0.16485067 0.96860635 -0.24851607 -0.0064436761 0.0019039836
0.13883561 0.036180172 0.16368653 -0.96280116 -0.27018234 -0.0039240234 0.0019441987
-0.13609172 0.043675054 0.16485034 0.95190263 -0.30637452 -0.0040036645 0.001679612
0.1356314 0.044749241 0.16434105 -0.95107222 -0.30893731 -0.0044031711 0.001726956
-0.13131987 0.055195343 0.16628072 0.91993785 -0.39200273 -0.0069362028 0.0013014812
0.13091601 0.056133177 0.16686738 -0.92036587 -0.39105731 -0.00096774468 0.00090509775
-0.12797429 0.063272297 0.16541 0.89344114 -0.44917288 -0.0025747297 0.0012731836
0.12771668 0.063857093 0.16404559 -0.8970772 -0.44175494 -0.010252555 0.0015197938
-0.12171193 0.075362884 0.1657542 0.84877747 -0.52874947 -0.000921675 0.0018938768
-0.11884933 0.079093523 0.16772561 0.83419728 -0.55146277 0.0019133012 0.0017762429
0.11879976 0.07913807 0.16719857 -0.83166051 -0.55524379 0.0067212856 0.0016877754
0.12275944 0.073897257 0.16399248 -0.85186094 -0.52376777 0.00049915269 0.002189253
-0.11488914 0.084254511 0.16609539 0.816908 -0.57676667 0.00125855 0.0010778891
0.1156505 0.083242297 0.16484302 -0.81134391 -0.58456069 0.0031222668 0.00061054924
-0.11019301 0.090374656 0.16261083 0.76692146 -0.64172846 -0.0040208464 0.001072065
-0.10661378 0.095039196 0.16470487 0.75942981 -0.6505146 -0.0098554827 0.0012744277
0.10621252 0.095542058 0.16480671 -0.74695885 -0.66484588 0.0056941602 0.0023291332
0.11042054 0.090058066 0.16502649 -0.77844507 -0.62770659 0.0027783643 0.00066729356
-0.10177031 0.10135132 0.16597593 0.71355629 -0.7005834 0.0045000711 0.0024911708
-0.094438344 0.10706636 0.16644205 0.65910149 -0.75205272 0.0013775425 0.001589208
0.093791574 0.10755084 0.16833912 -0.64433098 -0.7647357 0.0041170316 0.0011577778
0.10266937 0.10015958 0.16128621 -0.72177857 -0.69210112 0.005623891 0.0022721949
-0.090333119 0.11021642 0.16726631 0.65485412 -0.75575113 -0.0025268327 0.0014033794
-0.084010772 0.11506772 0.16471292 0.57827693 -0.81583941 -0.0013679025 0.0011306041
-0.07892736 0.11896835 0.16476412 0.5537653 -0.83263904 -0.0075036688 0.0018380042
0.084959604 0.11432785 0.1629855 -0.59948337 -0.80038476 0.001973419 0.00077458564
-0.074984819 0.12199357 0.16418523 0.52234322 -0.8527317 -0.0024987303 0.0018332682
-0.06430155 0.12752664 0.16507725 0.45802352 -0.88893616 -0.0026412837 0.0012589052
-0.059115797 0.12967464 0.16026175 0.4188756 -0.9080354 -0.0038636057 0.0011494574
0.065597616 0.12698342 0.16617721 -0.45402753 -0.89098597 -0.0016773961 0.0013688367
0.075854845 0.12131419 0.16445749 -0.52649021 -0.85016668 0.0049608271 0.0019266445
-0.053420138 0.13203387 0.16476539 0.38375968 -0.92342591 -0.0036147307 0.0007997675
-0.046351757 0.13496168 0.16536096 0.31298688 -0.94973642 -0.0063291662 0.0013444338
-0.034054708 0.1391509 0.1648716 0.2519204 -0.96773088 0.0057497704 0.0018752936
-0.028899062 0.1398468 0.16694304 0.20701978 -0.9783349 0.0019195648 0.0017915918
0.028490297 0.1398986 0.16697364 -0.20474221 -0.97881544 0.00097590504 0.0018529737
0.035375223 0.13898306 0.16458561 -0.25627324 -0.96660334 0.0014532169 0.0017793874
0.043911733 0.13596597 0.16316301 -0.29565266 -0.95529461 -0.0013297587 0.0018097835
0.055593185 0.13112739 0.16749299 -0.38758326 -0.92183465 -0.00033833602 0.0007265312
-0.021589931 0.14080909 0.16514277 0.15511957 -0.98789531 -0.0009007128 0.00094655663
-0.013673443 0.14185131 0.1638767 0.095097438 -0.99546188 0.003475192 0.00090923352
-0.0031113406 0.14324184 0.16614838 0.011153339 -0.99984807 0.013394962 0.0022391663
0.0048343325 0.14301297 0.16347373 -0.029416038 -0.99956572 0.0017439387 0.0021317997
0.014867239 0.14169212 0.16468911 -0.10914765 -0.99402332 0.0021028835 0.0010182938
0.023978045 0.14049265 0.16483173 -0.1620052 -0.98676986 -0.0062884721 0.0010233825
-0.023471411 -0.1406188 0.1737368 0.14367886 0.98961937 -0.0031386632 0.0010982824
-0.014082739 -0.14185484 0.17531088 0.090266854 0.99590993 -0.0039177402 0.0011193299
-0.0034437317 -0.1432555 0.17541409 0.041309793 0.99914527 0.0014803418 0.0019250773
0.005867457 -0.14293438 0.17674822 -0.043576393 0.99904734 -0.0023523415 0.0019957719
0.015527762 -0.14166258 0.17534553 -0.10177938 0.99480277 0.0029017436 0.00077476737
0.023398139 -0.14062643 0.17536029 -0.15249699 0.98830253 0.0016392549 0.0013664837
-0.054350957 -0.13170572 0.17273167 0.3917906 0.92005378 -0.0011440754 0.0012519611
-0.045695055 -0.13529111 0.17629433 0.32702738 0.94499898 0.0054801051 0.0010164459
-0.035192695 -0.13894229 0.17580788 0.27041712 0.9627378 0.0032472906 0.00205632
-0.029297374 -0.13985179 0.17346886 0.20349221 0.97904593 -0.0077442061 0.0020782677
0.029394649 -0.13983697 0.17032132 -0.20864686 0.97798163 0.0043055336 0.0019163087
0.036102604 -0.13864054 0.17493401 -0.27172473 0.96234369 -0.0077695539 0.0018243568
0.047198128 -0.13466214 0.17527677 -0.33143327 0.94347662 0.0019677302 0.0010901588
0.054008454 -0.13184121 0.175596 -0.3751899 0.92692882 0.0059563299 0.00086391228
-0.075831279 -0.12140147 0.17270146 0.52840137 0.84899151 -0.002338931 0.0019162621
-0.064758994 -0.12739457 0.17340611 0.45681432 0.88952613 -0.007993375 0.0013751275
-0.059140887 -0.12972166 0.17127448 0.42648089 0.90449238 -0.0027342357 0.0014063084
0.059188291 -0.12969565 0.17023048 -0.42850748 0.90353614 0.0019204858 0.0016543149
0.068728961 -0.12574379 0.17307174 -0.47454202 0.88023269 0.00065866509 0.0018419952
0.074738085 -0.12218927 0.17436235 -0.52133727 0.85334826 -0.0020640236 0.0020827062
-0.09061113 -0.1100605 0.17853527 0.63392007 0.77336776 0.0068952362 0.00092706707
-0.084184691 -0.11499166 0.17475812 0.58662868 0.80985588 -0.00028617313 0.0012922124
-0.079382062 -0.11867686 0.17088926 0.55205739 0.8337872 -0.0056148376 0.0019680581
0.078905329 -0.11903086 0.17103972 -0.54199678 0.84037912 -0.0015657465 0.0020282229
0.084616609 -0.11464844 0.17378706 -0.58525807 0.81084454 0.0020322101 0.00096722035
-0.10210498 -0.10095706 0.17565233 0.71227121 0.70190436 6.7311317e-05 0.0032882765
-0.094652027 -0.1069598 0.17603172 0.64719832 0.76231718 0.0026079577 0.001679827
0.095250733 -0.10648859 0.17396401 -0.66386306 0.74783832 -0.0048607737 0.0020941389
0.10139038 -0.10172851 0.17669009 -0.70567399 0.70853668 1.1132393e-05 0.0025126929
-0.10485983 -0.097382389 0.17490096 0.74153757 0.67090857 0.0019236436 0.002547856
0.10703294 -0.094530277 0.17557096 -0.76188362 0.64765978 0.0083735371 0.0011432993
0.11040655 -0.090133704 0.17081688 -0.77042162 0.63748437 0.0080165993 0.0013338532
-0.11470564 -0.084551074 0.17363651 0.80198312 0.59730881 0.0067251269 0.00094836234
0.11497629 -0.084178306 0.17466754 -0.80383706 0.59484959 9.5251353e-06 0.001596897
-0.12102441 -0.076316282 0.17465422 0.85444683 0.51950854 0.0056187543 0.0018833486
-0.11927488 -0.078596309 0.17604215 0.83838302 0.54502946 -0.0075412383 0.0020032718
0.12158735 -0.075562611 0.1729297 -0.85180074 0.5238564 -0.0031515348 0.0019703023
-0.12806001 -0.06312272 0.17669694 0.89094371 0.45410213 0.0032511179 0.001423616
0.12739541 -0.064690076 0.17507808 -0.88890231 0.45808637 0.0030845578 0.0014089235
-0.13191938 -0.053805403 0.17555924 0.92081004 0.39000496 -0.002255623 0.0010117028
0.12952346 -0.05955255 0.17219192 -0.9092716 0.41620108 0.0013087671 0.0012190373
0.13270473 -0.051872205 0.1734132 -0.93585831 0.35229787 -0.0074487994 0.0011120237
-0.13474217 -0.046990566 0.17606333 0.9464559 0.32280922 -0.0039155502 0.0010040492
0.13474245 -0.046952743 0.17643598 -0.94867742 0.31621605 0.0043085483 0.001109858
-0.13893703 -0.034905758 0.17296256 0.96463215 0.26348132 -0.0078963479 0.0015424464
0.13907117 -0.034021612 0.17274271 -0.96954519 0.24491212 0.00030693947 0.0023632988
-0.14077586 -0.022139769 0.17676918 0.98802298 0.15429966 -0.0014773335 0.0014317497
-0.13990061 -0.028788013 0.17385451 0.97648638 0.21517441 -0.013205317 0.0017458278
0.13989311 -0.028727937 0.17671335 -0.97712952 0.21246816 0.0086636459 0.0018187201
0.1405832 -0.023486178 0.17695008 -0.98524362 0.17115091 0.0015118701 0.0014178093
-0.14173374 -0.01486405 0.17608747 0.99589968 0.09045098 0.0015715336 0.0007798734
0.14176407 -0.014516587 0.17213772 -0.99225026 0.12420801 0.0034299127 0.00038773508
-0.14300822 -0.005183524 0.17697302 0.99959326 0.028354151 -0.0030595949 0.0020967624
0.14305446 -0.0047152019 0.17600045 -0.99872881 0.05040041 -0.00072992506 0.0021973467
-0.14305776 0.0047496371 0.17514968 0.99924594 -0.038824778 -0.0003563762 0.0020129224
0.14336458 0.0023021114 0.17314403 -0.99972636 -0.022007879 -0.0079295533 0.0021819861
-0.14175606 0.014637092 0.1748151 0.99547744 -0.094871715 0.0048979805 0.00090389483
0.14157408 0.01590221 0.17557277 -0.99392492 -0.11002545 -0.0027665636 0.00036022317
-0.14057039 0.023643069 0.17413904 0.98711103 -0.1600332 0.0010731284 0.00091012102
-0.13990448 0.028701197 0.1765205 0.9782418 -0.20739064 0.0056759361 0.0019532549
0.13974513 0.029794477 0.17977872 -0.97810739 -0.20808242 -0.0027627903 0.0017739158
0.14065151 0.022910001 0.17499329 -0.98858547 -0.15065445 0.0014194553 0.00097810663
-0.13883366 0.035457369 0.17647783 0.9667927 -0.25550187 0.0055388077 0.002101586
0.13901581 0.034329686 0.17498125 -0.96687579 -0.25523838 0.002162854 0.0018201487
-0.13543212 0.0452675 0.17281123 0.94909257 -0.31496957 -0.0041672438 0.0014421529
0.13540882 0.045286562 0.1739912 -0.94639188 -0.32301778 -0.001341191 0.0012016384
-0.13176957 0.054109722 0.17495386 0.91987336 -0.39221179 0.0017011999 0.0013383392
-0.12967813 0.059158843 0.17176275 0.9068737 -0.42138013 -0.0043341708 0.0013526309
0.12968379 0.059108034 0.17666841 -0.90764308 -0.4197098 0.0052614594 0.0011684542
0.13117382 0.0555108 0.17547607 -0.92042834 -0.39090472 0.0022728753 0.0011886777
-0.12738633 0.0646917 0.17608815 0.89215732 -0.45172378 -0.0009817034 0.0012522707
0.12681814 0.06602639 0.17535998 -0.8918575 -0.45231646 -0.0001474833 0.0014626676
-0.12076652 0.076594979 0.1774991 0.84627366 -0.53273082 0.0043384726 0.0018793072
-0.11897097 0.078934982 0.176754 0.84165168 -0.53998113 0.0065483078 0.001914003
0.11975701 0.077890567 0.17470297 -0.84037703 -0.54192877 0.0089192484 0.0020147865
0.12184852 0.075164855 0.17500569 -0.8438037 -0.5365926 0.0079783825 0.0019755412
-0.11675435 0.081823744 0.17375724 0.82081133 -0.571199 0.00065239635 0.0012029205
0.11504687 0.084028937 0.17522289 -0.80949795 -0.58709753 0.0054262821 0.001171777
-0.11025688 0.090291426 0.17157514 0.76070499 -0.64909595 -0.001539637 0.0012336853
-0.10717851 0.094303228 0.17726517 0.75839078 -0.65179807 -0.0016198956 0.00116486
0.10647683 0.095197618 0.175165 -0.76087856 -0.64878219 -0.012064571 0.0015122101
-0.10121164 0.10182094 0.17444539 0.70328248 -0.71083176 -0.010574962 0.0026261464
-0.095012292 0.10662594 0.17751428 0.65778625 -0.75320405 0.00093821617 0.0016638915
0.09717264 0.10495645 0.17433929 -0.66813862 -0.74394751 -0.011527707 0.002173393
0.10277443 0.10002267 0.17150421 -0.72344828 -0.69037843 -0.00045252565 0.002579873
-0.090408891 0.11015827 0.178642 0.64732707 -0.76221144 -0.0011393214 0.0013854243
-0.08453276 0.11466718 0.17507337 0.57793671 -0.81607974 -0.0017244843 0.00095048547
-0.078879327 0.11900523 0.17600495 0.5462693 -0.83760899 0.00099607836 0.0017245527
0.078095898 0.11959456 0.17453034 -0.53118366 -0.84725368 -0.0022715447 0.002090309
0.082842715 0.1159522 0.17751956 -0.58103633 -0.81387419 -0.0023603898 0.0010002868
-0.07570792 0.12143873 0.17497233 0.52748626 -0.84956098 0.0021041171 0.0020261826
-0.06354443 0.12784024 0.17574392 0.44640753 -0.8948245 0.0030761294 0.0013387777
0.067015484 0.12639612 0.17853928 -0.4586128 -0.88863558 0.00102122 0.0015995807
0.073503174 0.12302428 0.17403543 -0.51346898 -0.85804546 -0.01037882 0.0024173635
-0.054774728 0.13147277 0.17473218 0.39578974 -0.91833878 0.0020983813 0.001107759
-0.045113977 0.13547437 0.17502259 0.30795717 -0.95139807 0.0019915416 0.0014111204
-0.037534304 0.13837662 0.17443183 0.27270314 -0.96209717 0.0013977448 0.0019470023
0.02928385 0.13979413 0.1790525 -0.19518471 -0.98076582 0.0011563256 0.0017176262
0.036847353 0.13856034 0.17757507 -0.26498646 -0.96425134 -0.0012464563 0.0019750679
0.046602532 0.13485143 0.17649668 -0.33354166 -0.94273525 0.00052390044 0.0012351016
0.054648921 0.13151851 0.17216668 -0.38120732 -0.92448777 -0.001804833 0.00097614946
-0.020248421 0.14098568 0.17703062 0.14747915 -0.98906255 0.0022455868 0.0011990721
-0.013687015 0.1418495 0.17666984 0.084399082 -0.99642164 -0.0045463815 0.0014988913
-0.0040810704 0.14311415 0.17909259 0.037834473 -0.99928105 -0.002421767 0.0020417464
0.0015937032 0.14343959 0.17591915 -0.028267223 -0.99954671 -0.010359135 0.0023151375
0.015785668 0.14157119 0.17494889 -0.099847205 -0.99499589 -0.0037151617 0.0006992555
0.025393702 0.14030628 0.17375048 -0.1649344 -0.98629898 -0.0033226684 0.00094814721
-0.024928141 -0.14042701 0.1846914 0.1643413 0.98634237 -0.010989111 0.000835641
-0.015968068 -0.14160663 0.18620414 0.11145426 0.99376923 -0.00078811421 0.0011261812
-0.0045383144 -0.14311139 0.18287049 0.019241028 0.99974912 0.011465278 0.0022241643
0.0032593368 -0.14327775 0.18615744 -0.013003652 0.99991184 0.0026930617 0.0022960941
0.012255765 -0.14209335 0.18717848 -0.07980305 0.99681032 0.00084474572 0.0013237187
0.024810731 -0.14044046 0.18549906 -0.16735148 0.98588657 0.004594625 0.00119889
-0.056972131 -0.13062 0.18589805 0.40725413 0.91329998 0.0052144583 0.00081296329
-0.044484366 -0.1357926 0.18401699 0.30839902 0.95124018 -0.0056749219 0.0015265465
-0.035065308 -0.13898234 0.18380845 0.25807366 0.96607089 -0.010248805 0.0019861804
0.036155514 -0.13875332 0.18610211 -0.26539269 0.96410936 0.0077440022 0.0018717761
0.047020134 -0.13473587 0.18449661 -0.33187208 0.94332027 -0.0027865006 0.0012412728
0.055376627 -0.13127451 0.18369786 -0.39356187 0.91928613 -0.0046873498 0.0011405991
-0.074817054 -0.12217971 0.18437235 0.52246624 0.85265642 0.0024613871 0.0018640136
-0.065152258 -0.12723169 0.18796434 0.45695278 0.88948697 0.0026622599 0.0013573671
0.05919661 -0.12969221 0.18072912 -0.41802675 0.90842766 -0.0035722535 0.0012102991
0.066615641 -0.12661916 0.1859162 -0.461238 0.88723677 0.0083869891 0.0015031787
0.073949315 -0.12283376 0.1848501 -0.51900691 0.85476959 -0.0009137395 0.0024084339
-0.085658774 -0.11386058 0.18467718 0.60014611 0.79989034 -0.00025655853 0.000788384
-0.078888535 -0.11905555 0.18216902 0.54459822 0.83869702 6.3999185e-05 0.0017060908
0.078647651 -0.11922859 0.18724546 -0.54995382 0.83519089 0.0026327108 0.0017629793
0.08332894 -0.11563651 0.18347724 -0.58810633 0.80878317 -0.0008715057 0.0011729166
-0.10053144 -0.10244837 0.1819869 0.68264103 0.73075354 -0.00073603285 0.0024548627
-0.094983853 -0.10670517 0.18465799 0.65016884 0.75978059 0.0037401218 0.0015775202
0.096218087 -0.1057463 0.18250032 -0.67520547 0.7375623 -0.0099748382 0.0021470569
0.10120633 -0.1017617 0.18377393 -0.70078021 0.71335351 -0.0058263629 0.0024654327
-0.10300869 -0.099794835 0.18956083 0.72969103 0.6837765 -0.00092344207 0.002481852
0.10584915 -0.096073017 0.185357 -0.74644268 0.66536194 -0.010810086 0.0021169311
-0.11296026 -0.086825676 0.18363194 0.79181117 0.61076456 0.0013245629 0.0011994819
0.11401941 -0.085425325 0.18560942 -0.79964018 0.60047531 0.0022531296 0.0012251516
-0.12295098 -0.073663041 0.18402678 0.8739748 0.48596555 0.0023459981 0.0016413638
-0.11931469 -0.078544423 0.18555026 0.84101391 0.54097748 0.0062336014 0.0019836461
0.1196211 -0.078125067 0.18338214 -0.8403483 0.54201365 -0.005989146 0.0020042879
0.1215776 -0.075575314 0.18368407 -0.85562861 0.51755917 -0.0056764274 0.0023729324
-0.12597349 -0.068160012 0.18491447 0.88284159 0.46963003 0.006186692 0.0014683144
0.12825142 -0.062623508 0.18331894 -0.89103335 0.45393082 0.0025301944 0.0014209137
-0.13200228 -0.053605255 0.18414919 0.92730689 0.37430021 -0.0011731004 0.0014919896
-0.12968466 -0.059200495 0.18581006 0.91023695 0.4140864 0.0010185651 0.000918028
0.12994391 -0.058537476 0.18331261 -0.91484928 0.40378132 0.0033778367 0.00083982298
0.13148691 -0.054812338 0.1850411 -0.92561257 0.37839952 0.0074330042 0.001197143
-0.13502979 -0.046296202 0.18444034 0.94365638 0.33091897 -0.0022779002 0.0011699183
0.13400212 -0.048740074 0.18709606 -0.9412604 0.33766633 0.0032133337 0.0013497891
0.1392722 -0.033124246 0.18414454 -0.97071904 0.24019441 -0.0033349746 0.0022317322
-0.14032897 -0.025534213 0.1871556 0.98073053 0.19536512 0.0001381366 0.0012486794
0.13973494 -0.029929439 0.18159604 -0.97470838 0.22347797 0.0011086065 0.0017038598
0.1405104 -0.024039214 0.18444036 -0.9868893 0.16137417 0.0028208559 0.001064301
-0.14146818 -0.016881078 0.18592612 0.99468058 0.10300571 0.00066579645 0.00033932255
0.14188626 -0.013588555 0.18557027 -0.99509901 0.098879643 -0.00096560485 0.00079078926
-0.14300531 -0.0052054534 0.18561658 0.99947309 0.032370217 0.0023571816 0.0018458536
0.14267653 -0.0075857197 0.18360306 -0.99792796 0.064197339 -0.0042956928 0.0017743538
-0.14297757 0.0053589051 0.18468717 0.99898827 -0.044875316 0.0029415693 0.0018598581
0.14329803 0.002807613 0.18716773 -0.99975121 -0.021345843 0.0064813765 0.0025421747
-0.1416263 0.015622689 0.18261476 0.99298418 -0.11820386 -0.0031884713 0.00068337278
0.14169773 0.014963125 0.18846788 -0.99541116 -0.095641613 0.0030522498 0.00081036275
-0.14073239 0.022412652 0.1855855 0.98873413 -0.14959314 -0.0051685567 0.0011890878
0.14045888 0.02437311 0.1857765 -0.98572069 -0.16838636 -0.00085039239 0.00094794703
-0.13899642 0.034887407 0.18250585 0.96914196 -0.24650051 -0.0011830651 0.0023144742
0.1384133 0.037519842 0.1841898 -0.9627353 -0.27042764 0.0031002897 0.0020188862
-0.13598788 0.043925758 0.1855984 0.95276505 -0.30367649 0.0043988465 0.0016736496
0.13523878 0.045697074 0.18571341 -0.94850552 -0.3167409 -0.003552163 0.0012543427
-0.13189983 0.053795185 0.18468349 0.91963804 -0.39267042 0.008706593 0.001100059
-0.12942794 0.059762843 0.18482412 0.90362722 -0.42828497 0.0054637901 0.0013257705
0.13196683 0.053596295 0.18437365 -0.9210065 -0.38954505 -0.0012444092 0.0012134111
-0.1262296 0.067484319 0.18363537 0.88075292 -0.47352853 -0.0067121624 0.0017046549
0.12718007 0.0651526 0.18462718 -0.89273536 -0.45057598 -0.0021886276 0.0018184505
-0.12269614 0.073996112 0.18445222 0.85554445 -0.51770693 -0.004827234 0.0018636625
-0.1189592 0.078950331 0.18550983 0.84373921 -0.53674901 -0.0021734086 0.001742581
0.11876342 0.079185426 0.18666431 -0.83769381 -0.54613984 -0.00060067797 0.002126728
0.12248701 0.074332781 0.18518783 -0.85100698 -0.52510035 -0.0075363391 0.0022788034
-0.11439992 0.084892102 0.18489744 0.8084904 -0.58849818 -0.0036437986 0.0014244183
0.11428144 0.085026465 0.18473257 -0.80361569 -0.59514046 -0.0031123576 0.00077856786
-0.11023697 0.090317354 0.18118083 0.76989073 -0.63814807 -0.0059504765 0.0012115188
-0.10698237 0.094558842 0.18523659 0.75934201 -0.65067661 0.0044416403 0.0012754112
0.10670485 0.094900429 0.18460549 -0.7607004 -0.64905035 -0.0082768211 0.0014763605
-0.095883705 0.1059573 0.18434082 0.66565973 -0.74625492 0.00082828937 0.0021123795
0.094107926 0.10730809 0.18622394 -0.652933 -0.7574051 0.003991005 0.0016751298
0.10190831 0.10115141 0.18157284 -0.70742607 -0.70677572 -0.0040649134 0.0027978951
-0.08423797 0.11489339 0.18565324 0.57895631 -0.81534541 0.0046233423 0.00093553425
-0.078751422 0.11910336 0.18222153 0.54645675 -0.83748728 0.00042994259 0.0017878063
0.079355106 0.11862833 0.18876491 -0.55185741 -0.83393562 0.0021695783 0.0019669274
0.086485371 0.11315709 0.18438886 -0.61239308 -0.79055321 0.0006972517 0.0013152285
-0.073213547 0.12317789 0.18442012 0.51517034 -0.85708386 0.0026308992 0.0022799931
-0.065723598 0.1269376 0.18779492 0.45874915 -0.88856459 0.001525447 0.0013068242
-0.059434611 0.12954259 0.18115583 0.42780682 -0.90386647 0.002594566 0.0015157134
0.059890594 0.12934735 0.18821961 -0.42577171 -0.9047792 0.0096430741 0.0014603668
0.065577537 0.12699173 0.18643744 -0.45468074 -0.89063311 0.0061654458 0.0015191418
0.076094083 0.12113061 0.18507345 -0.53193039 -0.8467108 0.011436458 0.0021105607
-0.056628168 0.13070506 0.18470438 0.40741885 -0.91324133 -3.9475239e-05 0.00072244753
-0.046537597 0.1348847 0.1846959 0.32612082 -0.9453271 -0.0013912373 0.0012345328
-0.033748925 0.1391907 0.18398993 0.24846245 -0.96861947 0.0065364586 0.0020618336
-0.027996644 0.13996561 0.18593378 0.1923117 -0.98133385 -0.00022149828 0.0014156421
0.028041922 0.13995762 0.18525732 -0.19002108 -0.98177582 -0.0028592187 0.0015807021
0.035874434 0.13876577 0.18443027 -0.26180583 -0.96512049 -0.00042021793 0.0020704132
0.044871259 0.13556853 0.18442504 -0.32040551 -0.9472788 0.0017920542 0.001251078
0.05362162 0.13194403 0.18651204 -0.38418958 -0.92320263 0.0097586671 0.00170372
-0.024416313 0.14043698 0.18588026 0.14985093 -0.98870856 0.00018449078 0.0010604737
-0.015706945 0.14158359 0.18380192 0.1161603 -0.99322915 0.0016286483 0.0002061534
-0.0066269473 0.14277899 0.18604843 0.064458467 -0.9979167 -0.0027255109 0.0017525107
0.0036508348 0.14316878 0.18164724 -0.036351528 -0.99933898 -0.00029354362 0.0023520119
0.014806747 0.14170006 0.18510236 -0.09724202 -0.99525964 0.0015200727 0.00079307979
0.025168706 0.14033589 0.18429242 -0.17282578 -0.98494196 0.0045360606 0.001702309
-0.023274928 -0.14064467 0.19576788 0.14819598 0.988958 -0.00011797597 0.00087069982
-0.014303693 -0.14182575 0.19793363 0.09852884 0.99512798 0.0035237609 0.00062410423
-0.0041150753 -0.14316712 0.19377041 0.014570453 0.99987698 -0.0058045308 0.0022987416
0.0043007219 -0.14314064 0.19627985 -0.032793507 0.99945623 -0.003426173 0.0021184676
0.016738366 -0.14150319 0.19559678 -0.1290403 0.99163932 -0.0003600753 0.00077415112
0.024094485 -0.14053476 0.19693489 -0.1550311 0.98790681 0.0023567781 0.00084951444
-0.055937447 -0.13104856 0.19421312 0.39966762 0.91665608 0.0027197073 0.00067593926
-0.04533669 -0.13543956 0.19508338 0.32165453 0.94683415 -0.0065904642 0.0010685069
-0.034892138 -0.13895519 0.19520275 0.25100905 0.96794748 -0.0084844632 0.001912673
0.028775346 -0.13991851 0.1935167 -0.20969462 0.97776687 -0.00039353495 0.0021412361
0.034670305 -0.13911523 0.19374146 -0.25874862 0.9659434 -0.001594422 0.0018988571
0.044812068 -0.13565049 0.19800483 -0.31683227 0.94848043 0.0014856859 0.0015378322
0.055994738 -0.13101847 0.19579138 -0.39181679 0.92004323 -0.0001806161 0.0011150581
-0.074188493 -0.12266202 0.19542459 0.53351831 0.84577036 -0.0055320105 0.0017304757
-0.06409961 -0.12766771 0.19478686 0.46061152 0.88759732 0.0028104077 0.00138763
0.058494125 -0.12998319 0.19884139 -0.40338773 0.91502899 0.00055891159 0.00092985394
0.065387838 -0.12712772 0.19541813 -0.45809469 0.88886273 -0.0085092774 0.0014890165
0.071739554 -0.12426139 0.19335586 -0.49134302 0.87092471 -0.0085007027 0.0021707322
-0.085687056 -0.11383887 0.1936858 0.60241836 0.79815954 -0.0057815472 0.00086596614
-0.078724682 -0.11918128 0.19605362 0.54919434 0.8356486 -0.0087816399 0.0016284101
0.0794736 -0.11859482 0.19471803 -0.54971749 0.83534211 0.0037656368 0.0018425852
0.085844249 -0.11370642 0.19568391 -0.61630201 0.78750974 -0.00048139552 0.0012339704
-0.10105564 -0.10204119 0.19703031 0.7092151 0.70499212 4.8624217e-05 0.0028667462
-0.096857369 -0.10526756 0.19420415 0.66208154 0.74943167 0.00027410148 0.0022060203
0.095502846 -0.10629512 0.19490269 -0.67019337 0.74214512 0.0078406436 0.0023315959
-0.10462885 -0.097683385 0.19206521 0.73924768 0.67339474 -0.0072467104 0.0022393221
0.10767274 -0.093696453 0.19578798 -0.75513452 0.65556663 -0.0020459013 0.0016111851
0.11015034 -0.090467602 0.19469646 -0.77681184 0.62971228 -0.0050725909 0.00060121599
-0.11413848 -0.085290194 0.19506148 0.79936755 0.60084236 -0.0002159126 0.00061844295
0.11412156 -0.085292198 0.1951312 -0.794581 0.60715348 -0.0023808272 0.0011744953
-0.12241433 -0.074504912 0.19531402 0.85548705 0.51781654 -0.002834304 0.0021161856
-0.11911912 -0.078799292 0.19664788 0.83644521 0.54804862 -0.0014944972 0.0020356388
0.11890463 -0.079058811 0.19395025 -0.84497792 0.53477812 0.0049651861 0.0016274401
0.12257103 -0.074231923 0.19404836 -0.85820347 0.51330501 -0.0021912691 0.0019976681
-0.12704597 -0.065570809 0.19414629 0.88771594 0.46035376 -0.0058948123 0.0014887486
0.12549074 -0.069288395 0.19541469 -0.87829292 0.47812265 -0.00061371014 0.0017419016
-0.1316687 -0.054410577 0.19398424 0.92072523 0.39020365 -0.0024671089 0.0013669726
-0.12957111 -0.059474558 0.19315794 0.91042268 0.41367429 -0.0020451387 0.00094752264
