# .PCD v0.7 - Point Cloud Data file format
VERSION 0.7
FIELDS x y z normal_x normal_y normal_z curvature
SIZE 4 4 4 4 4 4 4
TYPE F F F F F F F
COUNT 1 1 1 1 1 1 1
WIDTH 577
HEIGHT 1
VIEWPOINT 0 0 0 1 0 0 0
POINTS 577
DATA ascii
-0.014614552 -0.13822623 0.28724435 0.091314271 0.89827746 -0.42983633 0.00070158957
-0.0072356751 -0.13879895 0.28809378 0.034779798 0.90067184 -0.43310586 0.0013438045
0.0098465653 -0.13864826 0.2876825 -0.055995759 0.89772451 -0.43698415 0.0010072436
0.017045952 -0.137676 0.2877346 -0.11666015 0.89615619 -0.42812905 0.00086478039
0.025649976 -0.13712217 0.28650129 -0.16716287 0.8893292 -0.42561749 0.00099925138
0.036553454 -0.13532789 0.28689674 -0.24007502 0.86912125 -0.43242589 0.0019409988
0.045251667 -0.1335889 0.28340769 -0.27927873 0.86007565 -0.42693469 0.0017037126
0.050878689 -0.13091609 0.28408664 -0.33353245 0.83939332 -0.42915609 0.00091442268
-0.07318002 -0.12179487 0.28246698 0.47663233 0.7757166 -0.41362461 0.0016488304
-0.062464915 -0.12609419 0.28413177 0.39070287 0.81347626 -0.43082193 0.0013034224
-0.053685185 -0.1284412 0.28669205 0.34245533 0.83565152 -0.42943087 0.00086929975
0.056305598 -0.12831891 0.28478009 -0.36721599 0.82674938 -0.4261899 0.00072431687
0.064301305 -0.12496088 0.28482214 -0.40989074 0.80519092 -0.42855242 0.0013550025
0.073169976 -0.12080902 0.28416073 -0.48260921 0.766092 -0.42448968 0.0014047051
-0.082564645 -0.11282489 0.2854825 0.53945476 0.72759843 -0.42377964 0.00065234309
-0.074923486 -0.1180544 0.28656292 0.48692763 0.76302576 -0.42508 0.0014160612
0.076335669 -0.11651876 0.28733349 -0.4950631 0.75409818 -0.43156511 0.0011641501
0.086323366 -0.11094554 0.28376961 -0.54872537 0.72206229 -0.42133909 0.00068991678
-0.10166834 -0.10075009 0.28071526 0.66010022 0.6257273 -0.41561159 0.0014371373
-0.094013892 -0.10402805 0.28550217 0.59954399 0.67356789 -0.43226537 0.0013571829
-0.088090979 -0.10863969 0.2853882 0.56530505 0.70245874 -0.43241408 0.0008671378
0.088910095 -0.10828567 0.28492025 -0.56769687 0.70527995 -0.42461801 0.00099975895
0.094467059 -0.10457051 0.28398463 -0.61083704 0.67232293 -0.41816258 0.0014621693
0.10079956 -0.10059427 0.28240013 -0.63764751 0.64485532 -0.42138726 0.0016922217
-0.10422467 -0.09467984 0.28429782 0.67019939 0.6130017 -0.41840395 0.00147245
0.099112689 -0.099578314 0.28641808 -0.62896532 0.64715022 -0.43081236 0.0018544184
0.10346648 -0.097415604 0.28201169 -0.66763967 0.61942291 -0.41300422 0.001700117
-0.11052223 -0.082292058 0.28976646 0.72188008 0.54013073 -0.43260607 0.00073556841
-0.1077887 -0.085676238 0.2899996 0.7033934 0.55913788 -0.43886507 0.0012295013
0.10802401 -0.088643596 0.28571689 -0.69838876 0.57129258 -0.43113551 0.0010031222
0.11270287 -0.084090561 0.28369644 -0.71936065 0.55171669 -0.42205334 0.0006091533
-0.12252127 -0.070625789 0.28451988 0.7779392 0.45335397 -0.43506411 0.0014681538
-0.11639229 -0.076675043 0.28710711 0.75160843 0.49764693 -0.4329344 0.0013535781
0.11980872 -0.07279323 0.28636077 -0.76505858 0.48650289 -0.42190081 0.00151984
0.12127905 -0.070554018 0.28678334 -0.78274632 0.45070454 -0.42915446 0.0015910445
-0.12654637 -0.063595586 0.28231016 0.80829805 0.40974683 -0.42280233 0.0014516928
0.12362619 -0.0663068 0.28587788 -0.80010003 0.42255923 -0.42577398 0.0017024829
-0.1315448 -0.05167789 0.28218716 0.84298515 0.34186992 -0.41533238 0.0011448201
0.12839162 -0.056250945 0.28468642 -0.8308273 0.35574681 -0.42798373 0.00059260166
0.13174695 -0.052049316 0.2814804 -0.85119611 0.32707247 -0.41047388 0.0011750353
-0.13265817 -0.041806605 0.28809404 0.86034328 0.26935679 -0.43273121 0.0013642969
0.13522588 -0.04171373 0.28307301 -0.86916548 0.26431957 -0.4179551 0.0020236049
-0.13639575 -0.034002326 0.28530344 0.88121974 0.21438739 -0.42129534 0.0016710275
0.13671933 -0.03405568 0.28465953 -0.88058305 0.20706044 -0.42626214 0.0017723397
-0.140012 -0.022133213 0.28134039 0.9007262 0.13531174 -0.41277462 0.0006428936
-0.13861816 -0.023317307 0.28397766 0.89345932 0.16014647 -0.41962299 0.00085137348
0.1378262 -0.023742752 0.28554553 -0.89352512 0.15833445 -0.42017037 0.0010809597
0.1401408 -0.023605879 0.28065294 -0.8981868 0.15438871 -0.41161221 0.00083501288
-0.14188312 -0.012256141 0.2801244 0.90852356 0.068447948 -0.41218907 0.0010199054
-0.13839868 -0.016743915 0.28628895 0.89687675 0.1025637 -0.43022415 0.00063127343
0.13752829 -0.015329307 0.28853998 -0.89502537 0.10142528 -0.43432999 0.00089052913
0.14054826 -0.011610507 0.28314927 -0.90383947 0.072071373 -0.42175823 0.0010397315
-0.14111421 -0.0051664477 0.28375095 0.90614283 0.02843596 -0.42201486 0.0014984852
-0.13909061 -0.0048502274 0.28815067 0.89939487 0.032519899 -0.43592584 0.0013232498
0.1386694 -0.0054483586 0.28888029 -0.89625198 0.038683813 -0.44185522 0.001351575
0.14150499 -0.0048877103 0.28299659 -0.90445054 0.049266312 -0.42372406 0.0010461117
-0.1409049 0.0070756623 0.28366414 0.90663648 -0.043175805 -0.4196977 0.0013839584
-0.13855509 0.0076803742 0.28850055 0.90091795 -0.056773998 -0.43026 0.0010700548
0.13923468 0.0084423041 0.28683904 -0.90071249 -0.056929857 -0.43066931 0.0010143591
0.14166068 0.0047483654 0.28270683 -0.904145 -0.025338911 -0.42647374 0.0013853057
-0.14072478 0.013153982 0.28234309 0.90393698 -0.08098951 -0.41992703 0.00071586756
-0.13845457 0.014434385 0.28682038 0.90195483 -0.085942097 -0.42319193 0.00050058076
0.13871606 0.015062821 0.2860871 -0.89891291 -0.097300075 -0.42718646 0.00070672907
-0.13798708 0.024204774 0.28507602 0.89057016 -0.14819957 -0.43002501 0.0014743634
0.13769843 0.026219195 0.28512597 -0.888713 -0.17220254 -0.42489463 0.0009401869
-0.13571933 0.035761204 0.28655979 0.87458265 -0.21683578 -0.43369055 0.0016433299
0.13794623 0.034966547 0.28206396 -0.88353413 -0.21464448 -0.41628748 0.0015692093
-0.13220736 0.046329428 0.28527799 0.85278779 -0.29822481 -0.42873648 0.0010034798
0.12901607 0.049798492 0.28876081 -0.83671731 -0.32712677 -0.4391951 0.0011557238
0.13410446 0.040640987 0.2861895 -0.86502647 -0.25878289 -0.42983782 0.001706744
-0.13223195 0.052673228 0.28001267 0.84369743 -0.34324017 -0.41274792 0.0010005225
-0.12774794 0.055054497 0.28695631 0.8307851 -0.35780999 -0.42634276 0.0008325713
0.12889415 0.056355841 0.2836107 -0.83151221 -0.36133787 -0.42192695 0.0005064822
0.13108088 0.051843062 0.28298047 -0.83743632 -0.34672144 -0.42247444 0.00077406684
-0.12440239 0.064336203 0.2859655 0.79542494 -0.42714751 -0.4299351 0.0017856653
0.12370353 0.067277402 0.28493437 -0.79880542 -0.42683446 -0.42393649 0.0016819723
-0.12351369 0.072349846 0.28053766 0.78995711 -0.45393148 -0.41220614 0.0018396812
-0.11644485 0.078083985 0.28518751 0.74967939 -0.50349176 -0.42950779 0.0015539239
0.11707643 0.077066965 0.28544116 -0.7600078 -0.4911882 -0.42558458 0.0017044358
0.1219722 0.07173153 0.28392622 -0.77629256 -0.46393791 -0.42676872 0.001779395
-0.11346148 0.083500534 0.28318802 0.71899945 -0.5479331 -0.42756191 0.00066498603
-0.10853961 0.089152768 0.28418487 0.70857441 -0.5628618 -0.42556897 0.00059171894
0.10980434 0.085903861 0.28627872 -0.71527511 -0.55295813 -0.42733932 0.00063126872
0.11154996 0.084253997 0.2854611 -0.71524334 -0.55292666 -0.42743307 0.00060574774
-0.10717773 0.091436289 0.28351948 0.69666672 -0.57585502 -0.42783925 0.00078960194
-0.097415641 0.099433109 0.28890246 0.62354779 -0.65102899 -0.43283886 0.0019553015
0.098071471 0.099102736 0.28860775 -0.64212984 -0.63621956 -0.42766112 0.0019422641
0.10302261 0.094032146 0.28720725 -0.67458069 -0.59726256 -0.43384138 0.0015345294
-0.10111497 0.10112416 0.28097501 0.64349341 -0.64542186 -0.41151786 0.0020198645
-0.094026946 0.10508333 0.28370303 0.59921116 -0.67896265 -0.42421183 0.0013895117
0.08609505 0.10891325 0.28754967 -0.55433941 -0.7114765 -0.43186688 0.00077540538
0.093817092 0.10390905 0.28597939 -0.60354835 -0.67304301 -0.42748395 0.0014538738
-0.082817115 0.1122649 0.28612384 0.53109711 -0.73686624 -0.41828692 0.0010728707
-0.075770602 0.11776643 0.28596264 0.49204096 -0.75576782 -0.43210021 0.0013669565
0.086264558 0.11185519 0.28231272 -0.55908984 -0.71407062 -0.42133316 0.0007330802
-0.076095752 0.12011793 0.28152862 0.48184049 -0.76903033 -0.42002639 0.001566084
-0.063825987 0.12581745 0.28358167 0.40656081 -0.81341666 -0.41600671 0.0010420119
-0.056868393 0.12724276 0.28647339 0.38404998 -0.81997263 -0.42444131 0.0010919162
0.049502105 0.12980558 0.28744295 -0.32704142 -0.84092331 -0.43115181 0.0010862921
0.0577804 0.12637225 0.2874516 -0.36752018 -0.82810503 -0.42328599 0.00069209572
0.066308953 0.12389858 0.28534928 -0.42509758 -0.80082619 -0.42186427 0.0014399969
0.076131992 0.12050352 0.28082389 -0.48217133 -0.76626688 -0.42467162 0.0014794756
-0.050498262 0.13133252 0.28359252 0.33252987 -0.84232378 -0.42416343 0.0010862971
-0.046722837 0.13283598 0.28371236 0.29734728 -0.85305136 -0.42882171 0.001157399
-0.035680704 0.13602968 0.28590587 0.23403087 -0.87325764 -0.42737633 0.0018658898
-0.022923527 0.13912919 0.28301138 0.14969909 -0.89543706 -0.41926453 0.0012592771
-0.016205437 0.13966039 0.283764 0.1092463 -0.89749229 -0.42728537 0.0005661606
-0.0067391894 0.13867788 0.28851211 0.048975084 -0.90104347 -0.4309549 0.0013732855
0.0011991491 0.13917349 0.28901011 -0.00062888506 -0.90294749 -0.42975038 0.0017732215
0.015351651 0.13827366 0.28695777 -0.10758191 -0.89558542 -0.43168607 0.00064845086
0.024975993 0.13747372 0.28596258 -0.1696026 -0.88807279 -0.42727238 0.001028349
0.035841953 0.13577825 0.28567004 -0.2305136 -0.87292445 -0.42996103 0.0015969065
0.042545095 0.13516594 0.28252226 -0.26341632 -0.86695397 -0.42308703 0.0015954449
0.055394389 0.13088694 0.280451 -0.35594749 -0.8416369 -0.40613887 0.00066031195
-0.020159829 0.14043865 0.28099686 0.13068083 -0.8996262 -0.41664761 0.00096895627
-0.0054067764 0.14155613 0.282754 0.038726609 -0.90655339 -0.42031085 0.0012931431
0.0039823712 0.14162162 0.28301406 -0.031116733 -0.90833312 -0.41708833 0.0016386362
0.014957891 0.14116186 0.2809152 -0.10588536 -0.90322739 -0.41589487 0.00071609078
-0.035838928 -0.13176432 0.29406163 0.23124707 0.86043835 -0.4540602 0.001751533
-0.025946548 -0.1332829 0.29459727 0.1742979 0.87550926 -0.4506703 0.0014285927
-0.015892074 -0.13467012 0.29437295 0.093870081 0.89176673 -0.44265181 0.00053374615
-0.0063620089 -0.13501133 0.29622364 0.04060559 0.8913126 -0.45156723 0.0014277458
0.003932782 -0.13576366 0.29543743 -0.011629037 0.89246893 -0.45095894 0.001346552
0.01595895 -0.13422737 0.29538643 -0.11433571 0.88447034 -0.45237085 0.00095173548
0.024714485 -0.13321471 0.29501045 -0.17249842 0.87767577 -0.44713479 0.00116695
0.035148457 -0.13244948 0.29360324 -0.22670177 0.86613017 -0.44544899 0.0019216893
0.042232949 -0.13095693 0.29111499 -0.26342943 0.85870814 -0.43957403 0.00155814
-0.064540021 -0.12068246 0.29316881 0.4226903 0.78757423 -0.44839689 0.0018020375
-0.05466596 -0.12370089 0.29529169 0.37057847 0.81355304 -0.44811061 0.00066753867
-0.046273906 -0.12726505 0.29507628 0.30488551 0.8369987 -0.45439839 0.00083380367
-0.036422372 -0.12990925 0.29771817 0.24871744 0.85544533 -0.45426074 0.0016943043
0.037856665 -0.1291358 0.29802185 -0.25166726 0.85477227 -0.45390311 0.0018793675
0.044519171 -0.12736079 0.29625732 -0.28354958 0.8427887 -0.45750064 0.0014987707
0.055570684 -0.12350681 0.29475623 -0.36869505 0.81270593 -0.45119074 0.00067625073
0.061424404 -0.12330268 0.2905291 -0.4042818 0.80351466 -0.4369444 0.0012441737
-0.075030126 -0.11408105 0.29319695 0.49950549 0.74585068 -0.44068244 0.0010668441
-0.065085158 -0.1189306 0.29607466 0.42994067 0.78315651 -0.44924039 0.0015985549
0.064548463 -0.1180385 0.29809159 -0.42805895 0.78122127 -0.45437765 0.0015675286
0.076367788 -0.11250731 0.29412997 -0.50271934 0.74068075 -0.44571874 0.0010141827
-0.094361357 -0.10031527 0.29137689 0.61279023 0.6528514 -0.44527885 0.0014681171
-0.086459674 -0.10443997 0.29451361 0.57196033 0.68333811 -0.45377353 0.0010919258
-0.076434717 -0.10951269 0.29871994 0.5105195 0.73038501 -0.45377034 0.00086276658
0.077547006 -0.10824528 0.29932174 -0.51899725 0.7216354 -0.45813113 0.0010614737
0.085347034 -0.10429919 0.2962707 -0.56548274 0.6853627 -0.45881078 0.0008940823
0.092209011 -0.10123509 0.29262435 -0.60662121 0.65561473 -0.44964433 0.0017735726
-0.094698884 -0.096447639 0.29673779 0.62090153 0.63627619 -0.45785794 0.0015293551
0.096779115 -0.093937784 0.29705778 -0.63804102 0.61525393 -0.46299705 0.0017306714
0.1001538 -0.093293384 0.29305118 -0.65638697 0.60279 -0.45365226 0.0014510941
-0.10388543 -0.085984044 0.29607853 0.68659884 0.56868923 -0.45296195 0.0012978981
0.10715693 -0.082927652 0.29467201 -0.70519441 0.55044347 -0.44689232 0.00058316108
0.11073267 -0.080519088 0.29172695 -0.72404003 0.52693695 -0.445088 0.00088597462
-0.11350411 -0.074428156 0.29496986 0.7394495 0.49916175 -0.45172113 0.00096188317
-0.1086061 -0.079840124 0.29624033 0.71980965 0.52542514 -0.45365459 0.0011038441
0.10833302 -0.077816427 0.29889527 -0.71758026 0.5259763 -0.4565388 0.00088364928
0.11481068 -0.073519327 0.29391959 -0.74312693 0.4969779 -0.44807965 0.0012842657
-0.12223477 -0.063208982 0.29118749 0.79322529 0.41750133 -0.44326764 0.0012861645
-0.11945137 -0.062619001 0.29700559 0.7860707 0.42106339 -0.45254657 0.0015062167
0.11820848 -0.064261757 0.29800975 -0.78378338 0.42448211 -0.45331955 0.0016649591
0.1225437 -0.062630713 0.29104969 -0.80347443 0.39795527 -0.44278696 0.0012989898
-0.12296951 -0.055375688 0.29603624 0.80972457 0.37419865 -0.45201936 0.00097402121
0.12238308 -0.054957889 0.29740626 -0.8110624 0.36920229 -0.45372611 0.0008888212
-0.12653644 -0.044945125 0.29742268 0.83943737 0.29706228 -0.45508125 0.00096837315
0.12637004 -0.04560335 0.29723084 -0.83720613 0.29862228 -0.45816016 0.0010262439
0.13116859 -0.040930945 0.2917712 -0.85640901 0.26098531 -0.44547763 0.001574031
-0.1324254 -0.032163188 0.2945804 0.87353879 0.19913454 -0.44415691 0.0015724378
-0.12973072 -0.036164336 0.29820633 0.85567623 0.25044134 -0.45287684 0.0017245617
0.12902094 -0.03890549 0.29748568 -0.85358107 0.25683326 -0.45325053 0.0015906851
0.13375798 -0.035295427 0.2905823 -0.8666417 0.23010787 -0.4426991 0.001718394
-0.13320485 -0.024376808 0.29511756 0.88009417 0.14381327 -0.45249525 0.0010169229
0.13353048 -0.024424503 0.29443702 -0.87720275 0.15305239 -0.45507175 0.00095419952
-0.13454573 -0.01442642 0.2950041 0.88742274 0.090258844 -0.45203334 0.00084138854
0.13538738 -0.015195095 0.29310519 -0.88951147 0.094095677 -0.44711906 0.0010306198
-0.13591476 -0.0034648243 0.29511601 0.8929404 0.01875269 -0.44978407 0.0017147625
0.13473721 -0.007336162 0.29654208 -0.89027935 0.05300587 -0.45231971 0.0011847292
-0.13545448 0.0054937378 0.29559347 0.89243191 -0.026007073 -0.450432 0.0016657803
0.13562228 0.005389662 0.29528666 -0.8955251 -0.021583578 -0.44448721 0.0014576602
-0.13378227 0.018513475 0.29555175 0.88137037 -0.1353808 -0.45261267 0.00099065749
0.1351535 0.012598964 0.29426342 -0.89296079 -0.083169043 -0.44238445 0.0012296771
-0.133132 0.024406748 0.29525894 0.8754406 -0.15199518 -0.45880416 0.00095297297
0.13329455 0.023116246 0.29528901 -0.88041365 -0.14419536 -0.45175141 0.0012003887
-0.13207951 0.033389233 0.29479218 0.86832607 -0.20858477 -0.45000249 0.0014649397
0.13226199 0.037282821 0.29254645 -0.86256355 -0.23850982 -0.44620311 0.0016432428
-0.12768416 0.045126859 0.29511034 0.84201097 -0.29468426 -0.4518612 0.00099277892
0.12808602 0.046205387 0.29356179 -0.84007925 -0.30441701 -0.44899571 0.00087355333
0.13140419 0.040838055 0.29138803 -0.85797441 -0.26059255 -0.44268659 0.0015148502
-0.12367948 0.055305742 0.29473573 0.82022977 -0.36239684 -0.44259655 0.00056447479
0.12339848 0.054756191 0.29577982 -0.80996096 -0.370249 -0.45483944 0.0008966602
-0.12135304 0.061598435 0.29424983 0.79478747 -0.40506643 -0.45192277 0.001327651
-0.11772197 0.066993654 0.2964955 0.77638841 -0.4425137 -0.44877914 0.0015700172
0.11905339 0.069516614 0.29194751 -0.77288979 -0.45031649 -0.4470531 0.0017106603
0.12136304 0.061016861 0.29472876 -0.7955305 -0.4044387 -0.45117694 0.0013792833
-0.11538007 0.073047727 0.29359058 0.75679463 -0.47772101 -0.44614404 0.0011376354
0.10993544 0.078922652 0.29518729 -0.721802 -0.51928043 -0.45754743 0.001005168
0.11482409 0.073672213 0.29369712 -0.75692862 -0.47621384 -0.44752592 0.0017574546
-0.10591331 0.085059978 0.29396242 0.69758141 -0.55904233 -0.448165 0.00083681778
0.10543524 0.08332812 0.29692036 -0.70522505 -0.5458023 -0.45250133 0.00080525904
-0.094281718 0.098661125 0.29422712 0.60899347 -0.65204167 -0.45162874 0.001756914
0.096738145 0.096173845 0.29458767 -0.63922775 -0.62459004 -0.44863695 0.0018546162
0.1024862 0.092037119 0.29073137 -0.67381597 -0.59292489 -0.44092187 0.0013555887
-0.094693489 0.10061374 0.2904506 0.60200083 -0.6698488 -0.43462348 0.0015686611
-0.084081821 0.10571067 0.29550374 0.55826759 -0.69469225 -0.45358568 0.0012472793
0.084539175 0.10610421 0.2942895 -0.56071603 -0.69716436 -0.4467206 0.00082937279
0.092084669 0.10259376 0.2904878 -0.60854203 -0.66582471 -0.43168744 0.0017422138
-0.080261827 0.11036982 0.29269698 0.50709862 -0.73781031 -0.4455187 0.0010466693
-0.076656207 0.11408547 0.29107928 0.50266743 -0.74498945 -0.43853882 0.0010936715
-0.067445494 0.11791438 0.29566872 0.43469581 -0.77673036 -0.45577347 0.0015405151
0.065844186 0.11858317 0.29600206 -0.43454015 -0.78149247 -0.4477101 0.0015134469
0.075212814 0.11294655 0.29473895 -0.51156861 -0.73296404 -0.44839853 0.00059712847
-0.054233715 0.1245404 0.29400462 0.36417952 -0.81556964 -0.44968817 0.00096119329
0.047428291 0.12638159 0.29582593 -0.29676497 -0.83991343 -0.45439619 0.00085959211
0.057264447 0.12159486 0.29712528 -0.3697966 -0.8122285 -0.45114881 0.00071117742
-0.041066382 0.13120845 0.29159468 0.26882303 -0.85541385 -0.44272038 0.0012643372
-0.032621332 0.13284144 0.29360735 0.21675473 -0.87005955 -0.44273439 0.0014301712
-0.02704205 0.13235138 0.29604477 0.17665133 -0.87459517 -0.45152807 0.0014442247
-0.015338753 0.13538682 0.29311144 0.1056513 -0.88833779 -0.44687107 0.00052976893
-0.0064672818 0.13590361 0.29449868 0.042228393 -0.88942015 -0.45513567 0.0015165798
0.0061729252 0.13661207 0.29307193 -0.041847665 -0.90010977 -0.43364871 0.0016819631
0.014986585 0.13352649 0.29699719 -0.1094055 -0.88606042 -0.45047438 0.00056270353
0.024290837 0.13265628 0.29614162 -0.15358727 -0.87672025 -0.45582077 0.00098166789
0.034292348 0.13283928 0.2931354 -0.22083697 -0.86733663 -0.44604728 0.0016159554
0.04097905 0.13193312 0.29022783 -0.26219231 -0.85710049 -0.4434343 0.0016218759
-0.014232762 -0.13046591 0.30275965 0.083814688 0.87878948 -0.46979168 0.00099133025
0.0044025807 -0.13167448 0.30291516 -0.031993393 0.88493347 -0.46461722 0.0012822436
0.015106085 -0.13094975 0.30167159 -0.096184537 0.87904418 -0.46693671 0.0013619876
0.024051333 -0.13022152 0.30085501 -0.16622961 0.87009948 -0.46399847 0.0010825356
-0.046576064 -0.12211753 0.30378973 0.32359558 0.82017243 -0.47180828 0.0010759875
-0.03492482 -0.12789027 0.3021459 0.22494531 0.85647887 -0.46458954 0.0015642979
-0.022066483 -0.12830919 0.30480444 0.14508636 0.86716223 -0.47642377 0.0013854873
-0.014348157 -0.12970948 0.30410644 0.087328084 0.8758024 -0.47470412 0.00096115586
-0.0055266698 -0.12924372 0.30706295 0.035423901 0.8749637 -0.48289099 0.0013186873
0.0048274933 -0.12857687 0.30844182 -0.029490506 0.87592459 -0.48154581 0.0014221157
0.018004738 -0.12869424 0.30507648 -0.12329787 0.87288064 -0.47209847 0.00094088027
0.031436186 -0.12651117 0.30583012 -0.21131642 0.85219455 -0.47865424 0.0016980704
0.043362662 -0.12382843 0.30314654 -0.28546414 0.83570862 -0.46914965 0.0014998891
-0.073687315 -0.11022075 0.30075562 0.49677315 0.73711056 -0.45813155 0.0016059271
-0.064869784 -0.11479871 0.30311772 0.4466061 0.76570815 -0.46285415 0.0019503855
-0.055839349 -0.11661335 0.30661258 0.38174579 0.7933681 -0.47416997 0.0011444319
-0.043518908 -0.11975126 0.30994028 0.29815519 0.82003611 -0.48851234 0.0011988776
0.047743876 -0.11926974 0.30779245 -0.31852314 0.81827188 -0.47851241 0.00090106548
0.052538991 -0.11696867 0.30832559 -0.37187031 0.79558992 -0.47827718 0.0012479197
0.06758824 -0.11081718 0.3066929 -0.46244451 0.74957448 -0.47358537 0.0015563403
-0.08151339 -0.10020579 0.30658567 0.55557233 0.68142009 -0.47645143 0.0014402913
-0.073835656 -0.10765091 0.3043265 0.49786696 0.72794718 -0.47140381 0.0011948468
0.078292467 -0.10307023 0.30601436 -0.53605008 0.69652528 -0.47697258 0.0011844157
0.080622099 -0.10514204 0.30040294 -0.54128981 0.70022857 -0.46549457 0.00093867676
-0.094370551 -0.092354573 0.30293247 0.62659198 0.62536031 -0.46508813 0.0017118835
-0.086389989 -0.097835146 0.30459183 0.58937287 0.65740317 -0.4695324 0.0014287569
0.085903175 -0.096358694 0.30728164 -0.57015747 0.66757327 -0.47881773 0.0009686249
0.091736928 -0.093915284 0.30432579 -0.61534536 0.62869638 -0.47549012 0.0016436693
-0.10198979 -0.081378162 0.30414435 0.68237036 0.5558027 -0.47482008 0.0012270178
-0.09693829 -0.086416513 0.30586791 0.65905565 0.57969874 -0.47916064 0.0013825872
0.096735276 -0.087614417 0.30482665 -0.64743233 0.5941059 -0.47735685 0.001361408
0.10004709 -0.085886866 0.30193877 -0.66626364 0.57699835 -0.47240427 0.0012827446
-0.10465509 -0.076485083 0.30572817 0.70887274 0.52248442 -0.47382438 0.0012453508
0.1075092 -0.073407367 0.30501208 -0.72428691 0.49784863 -0.47702757 0.0011244995
0.11128266 -0.071076572 0.30212599 -0.7458601 0.47041878 -0.47159171 0.0017276009
-0.1135729 -0.064291671 0.30548126 0.7562933 0.44564006 -0.47898358 0.0014476889
-0.10790944 -0.069638893 0.30863443 0.73650026 0.46743307 -0.48895159 0.0013911519
0.10910352 -0.068341881 0.30834538 -0.74308103 0.45831725 -0.48762271 0.0014427624
0.11320166 -0.066041566 0.30470651 -0.754269 0.45337763 -0.47489682 0.0017211844
-0.1170411 -0.055445679 0.30616933 0.79807538 0.37398076 -0.47245529 0.0012594321
0.11798354 -0.055837873 0.30429858 -0.79836577 0.37669361 -0.46980214 0.00094296777
-0.12211313 -0.045711886 0.30440816 0.82740474 0.30618358 -0.47080043 0.0013486192
-0.11860861 -0.047568005 0.30904013 0.81020898 0.32772687 -0.48595941 0.0006432627
0.11987966 -0.0449192 0.30874574 -0.82339483 0.3081966 -0.4764826 0.001181885
0.1224291 -0.047341444 0.30273032 -0.82487714 0.31925458 -0.46653429 0.0011300187
-0.12637275 -0.032699116 0.30543816 0.85160226 0.21460047 -0.47824708 0.0017108604
0.1261455 -0.035261028 0.30442303 -0.85163856 0.23947343 -0.46622336 0.0013524572
-0.13109964 -0.020614019 0.30008951 0.87715691 0.13219059 -0.4616507 0.0008582428
-0.1257792 -0.027619008 0.30808103 0.8557834 0.1870674 -0.48232821 0.0015039977
0.12703089 -0.024242148 0.30661452 -0.86460865 0.16080697 -0.47601792 0.00097181153
0.13031289 -0.020425869 0.30156407 -0.87343383 0.13956264 -0.46651429 0.0011741968
-0.12749887 -0.018708702 0.3070879 0.86835891 0.13845125 -0.47621849 0.00109675
0.12939101 -0.015943084 0.30431139 -0.87741476 0.1003436 -0.46912092 0.00080409419
-0.13091747 -0.0039135814 0.30441543 0.88447386 0.022876753 -0.46602866 0.0016229443
0.12852553 -0.0011085167 0.30943263 -0.87756187 -0.0048628268 -0.47943887 0.0018383731
0.13123578 -0.0053332336 0.30349749 -0.88483459 0.034066796 -0.46465811 0.0014135168
-0.13116875 0.0040011122 0.30394033 0.88438481 -0.013548136 -0.46656182 0.0014747409
-0.12907514 0.0031221148 0.30795467 0.87787944 -0.010513048 -0.47876635 0.0014032047
0.1289539 0.0024286858 0.30834082 -0.87648338 -0.015678417 -0.4811767 0.0017149654
0.13006499 0.0091607952 0.30471158 -0.88059807 -0.050051276 -0.47121322 0.0014614968
-0.13097551 0.01395857 0.30190951 0.87940288 -0.092769116 -0.46695226 0.0008585708
-0.1299956 0.014910556 0.30346227 0.87230706 -0.11862372 -0.47435102 0.00074988953
0.12796827 0.015830567 0.30692583 -0.87118751 -0.12270143 -0.47537005 0.0010700695
0.1307746 0.011645813 0.30282778 -0.88284999 -0.071533598 -0.46417549 0.0010263686
-0.12749194 0.023107506 0.3060506 0.86532462 -0.15685853 -0.47603434 0.0011378323
0.12687193 0.025929814 0.30650204 -0.86177075 -0.17925717 -0.47457144 0.0011289488
0.13051787 0.025031868 0.30009219 -0.86907756 -0.17433912 -0.46293643 0.0011117797
-0.12516515 0.036792953 0.30540016 0.84597933 -0.25868869 -0.46626082 0.0014310494
0.12518109 0.035268657 0.30635613 -0.84535611 -0.23882668 -0.47784388 0.0015527607
-0.12358475 0.043244064 0.30365419 0.83838719 -0.27920929 -0.46813369 0.001380336
-0.11911187 0.047185685 0.30846316 0.81256551 -0.32435846 -0.48428196 0.0012175489
0.11809058 0.049511015 0.3085615 -0.80749798 -0.34618333 -0.47760251 0.0012709867
0.12160429 0.044747502 0.30595309 -0.8221575 -0.30646005 -0.47972834 0.0014767455
-0.11755353 0.05631553 0.30469862 0.79369193 -0.38256693 -0.47296461 0.00097622967
0.11702555 0.057673983 0.30463988 -0.79345697 -0.38717106 -0.46960056 0.0012272162
0.12113685 0.050510593 0.30270267 -0.80784929 -0.34692121 -0.47647157 0.0012038769
-0.1121057 0.065854862 0.30676609 0.76060688 -0.439082 -0.47820938 0.0016487782
0.1090045 0.068829 0.30795693 -0.74154729 -0.46867371 -0.48005486 0.0015597602
0.11108347 0.069980115 0.30364996 -0.74374926 -0.4720929 -0.47324976 0.0015285097
-0.10386078 0.076021835 0.30741093 0.70473164 -0.52722847 -0.47474572 0.00089163595
0.10480214 0.075278431 0.30687162 -0.72009802 -0.5035122 -0.47742471 0.0014397481
-0.10056931 0.082663737 0.3047865 0.68084437 -0.56341428 -0.46799079 0.0010165818
-0.095260948 0.087529644 0.30707595 0.64425159 -0.59400439 -0.48176628 0.0013365046
0.096103244 0.088293135 0.30499947 -0.64604551 -0.59869468 -0.47348684 0.0014926525
0.10259082 0.083743349 0.30064282 -0.67753559 -0.57447743 -0.45926163 0.0008742928
-0.092438698 0.091775917 0.30644196 0.62063849 -0.61981475 -0.48024741 0.0014652362
-0.085707024 0.098044313 0.30506414 0.57967561 -0.66061026 -0.47704315 0.0015263559
0.08813829 0.094337434 0.30774131 -0.60817182 -0.63210875 -0.4801724 0.0015832048
0.09289559 0.094086349 0.30242136 -0.62435269 -0.62675589 -0.46621954 0.001480654
-0.083289191 0.10069962 0.30390093 0.55799454 -0.68181306 -0.4730466 0.0010728517
-0.075754933 0.10409348 0.30737206 0.51958811 -0.70507854 -0.48258933 0.00097962131
0.074226566 0.10634352 0.30580574 -0.51421958 -0.71596926 -0.47219306 0.00071965827
0.081753358 0.1028798 0.30244452 -0.55258524 -0.68717289 -0.47163865 0.00089216657
-0.072656423 0.11103836 0.30073139 0.48741347 -0.74061632 -0.46251014 0.0012233711
-0.065787375 0.11423162 0.30316964 0.44772944 -0.75920463 -0.47238392 0.0011777913
-0.058770161 0.11660281 0.30459177 0.40315315 -0.78703308 -0.46695435 0.0013023245
0.057597414 0.11503577 0.3080675 -0.38657305 -0.7897405 -0.47631004 0.0011049781
0.064256549 0.11327346 0.30586627 -0.43538386 -0.76639682 -0.47231007 0.0014978948
-0.054554146 0.12069571 0.30061865 0.36904454 -0.80852282 -0.45836353 0.0010549952
-0.046127591 0.12047056 0.30690968 0.30896711 -0.8224442 -0.47762424 0.0010061577
-0.034936979 0.12464657 0.30727002 0.24625748 -0.84198928 -0.48001185 0.0014131545
-0.026234346 0.12610175 0.30783644 0.17429616 -0.8598417 -0.47988874 0.0014806475
-0.013270544 0.12850733 0.3065666 0.074462779 -0.87442434 -0.4794136 0.00094492116
-0.0023053386 0.12879752 0.30866235 0.0067832205 -0.8756907 -0.48282477 0.0017513033
0.00540725 0.1290994 0.3073718 -0.026357111 -0.87563968 -0.48224509 0.0014539406
0.015470098 0.12942374 0.30437529 -0.11055406 -0.87530667 -0.47076124 0.0012196674
0.024895836 0.12737015 0.30585194 -0.15459193 -0.86488754 -0.47756767 0.00082427467
0.036559869 0.12515979 0.30564904 -0.24732287 -0.84736192 -0.46990344 0.0011971853
0.044599567 0.12354781 0.30277106 -0.29138377 -0.83368051 -0.4691186 0.0012457138
-0.023064345 0.13024235 0.30107129 0.1412434 -0.87400824 -0.46493003 0.0010990077
-0.0028856765 0.13146421 0.30367813 0.019248085 -0.88490283 -0.46537778 0.0016334648
0.0057763229 0.13216138 0.30171993 -0.032016225 -0.88618904 -0.46221629 0.0016208638
0.020010192 0.13059449 0.30116206 -0.14135739 -0.87440735 -0.46414423 0.0008126559
-0.035723686 -0.12099697 0.31323332 0.24434887 0.83117682 -0.49943843 0.0017906487
-0.024568032 -0.1227177 0.31436571 0.17587389 0.84876627 -0.49866253 0.0014014106
-0.014719778 -0.12476311 0.31300509 0.1011242 0.86244017 -0.49595451 0.0009537533
-0.0066769738 -0.12516937 0.31419083 0.050943617 0.86574745 -0.49788165 0.0012011363
0.0032833386 -0.12414104 0.31687111 -0.0038183301 0.86511892 -0.5015524 0.0015057388
0.012216784 -0.12579553 0.31172794 -0.075981043 0.87075639 -0.48580879 0.0012831466
0.02450352 -0.12292774 0.31399956 -0.18832231 0.84690315 -0.49728236 0.0012258763
0.034955677 -0.12163874 0.31266001 -0.2368896 0.8358916 -0.49514496 0.0016380182
-0.063531727 -0.11038209 0.3117682 0.42952767 0.75825208 -0.49046886 0.0017849072
-0.055870093 -0.11310637 0.31252891 0.38971356 0.77972639 -0.49005115 0.0015478182
-0.046903055 -0.1155838 0.31462312 0.32033974 0.80802625 -0.4944452 0.0011587635
-0.03576291 -0.11806049 0.31824195 0.25021961 0.82492703 -0.50683868 0.0014859593
0.03675038 -0.11932695 0.31540573 -0.24129741 0.83251041 -0.49870023 0.0015136871
0.047636252 -0.11793308 0.31013113 -0.33562085 0.80443197 -0.4901509 0.0010777711
0.055377062 -0.11218667 0.31443188 -0.39826232 0.77904093 -0.48423377 0.0012941111
0.061184704 -0.11157676 0.31139147 -0.42629507 0.76180667 -0.48777351 0.0015953673
-0.073221423 -0.10107381 0.3145746 0.51475739 0.69819623 -0.49754068 0.0010772942
-0.0658039 -0.10649706 0.31496489 0.45335874 0.73881471 -0.49861667 0.0016891867
-0.059801377 -0.10846751 0.31762612 0.41460252 0.75901657 -0.50199467 0.001614823
0.066082306 -0.1045522 0.31748199 -0.46341789 0.72719753 -0.50638682 0.001492852
0.07335794 -0.10289217 0.31177849 -0.5103302 0.70630622 -0.49060643 0.0015185913
-0.082768351 -0.094039232 0.31415144 0.57616097 0.64932412 -0.49640381 0.0013108107
-0.076597065 -0.097832292 0.31552157 0.53282082 0.68145007 -0.50172472 0.0012150971
0.079850487 -0.097955316 0.31171298 -0.54546016 0.6793493 -0.4908745 0.0012156497
0.083915412 -0.093276277 0.31398103 -0.57961088 0.64055079 -0.50373197 0.0014090436
-0.092523955 -0.084789634 0.31410125 0.64590055 0.58148474 -0.49465936 0.001255665
-0.086999252 -0.087550484 0.31886557 0.60662794 0.6133908 -0.50572151 0.0015476696
0.087519526 -0.087494075 0.31777471 -0.60994095 0.61246729 -0.50284779 0.0014889177
0.09414278 -0.083491109 0.31319621 -0.64762372 0.58251268 -0.49118468 0.0013422813
-0.096048027 -0.077617012 0.31697959 0.66987324 0.54661709 -0.50247347 0.0015205188
0.096388251 -0.078770064 0.31519848 -0.66880119 0.54963231 -0.50060892 0.00073662703
0.1030363 -0.07194858 0.31314301 -0.70838624 0.49833718 -0.49984893 0.0013120811
-0.11101039 -0.061318029 0.31226182 0.75867224 0.42952454 -0.48982152 0.001767569
-0.10623368 -0.066266902 0.31483293 0.73425114 0.45995706 -0.49931443 0.0012844326
0.10291429 -0.068885803 0.31673738 -0.71729314 0.47677886 -0.50810671 0.0011594897
0.11033265 -0.064341903 0.31102085 -0.7476576 0.44906601 -0.4892318 0.0016056324
-0.11285635 -0.054161575 0.31415537 0.77850187 0.38912061 -0.49246326 0.0014597058
-0.1097979 -0.056550954 0.3176581 0.76281101 0.40635753 -0.50298393 0.001455367
0.10776505 -0.059869271 0.31877282 -0.75145698 0.41382948 -0.51386529 0.0015318034
0.11302012 -0.052305121 0.31518009 -0.78746498 0.35878643 -0.5011698 0.0010353465
-0.1167562 -0.044801254 0.31411701 0.81451911 0.30046129 -0.49626774 0.0013469664
0.11437394 -0.047509391 0.31625125 -0.79549211 0.34201166 -0.50022036 0.0013646045
-0.1209325 -0.035427954 0.31361964 0.82878619 0.24405164 -0.50353968 0.0014099706
-0.1187702 -0.034965396 0.31760514 0.82755959 0.2414009 -0.50682414 0.0014841327
0.11866549 -0.034659263 0.31799406 -0.83299643 0.24180989 -0.49763936 0.0012779246
0.12253435 -0.031817362 0.31297261 -0.84626633 0.22012286 -0.48515895 0.0014862516
-0.12239663 -0.024669526 0.31493267 0.84578884 0.17529455 -0.50389785 0.0014177226
0.12218364 -0.02446438 0.31536877 -0.849828 0.17556703 -0.49695936 0.0015324854
-0.12364107 -0.015853617 0.31478041 0.85728168 0.12409395 -0.49966869 0.00073623034
0.12263864 -0.01490208 0.31682837 -0.85538656 0.092634395 -0.5096398 0.0012365422
-0.12515989 -0.0061410703 0.31434411 0.86727345 0.050497662 -0.49526429 0.0016555003
0.12498965 -0.005641053 0.31476283 -0.86482012 0.046201453 -0.49995151 0.0013690692
-0.1261725 0.0024739674 0.31338376 0.86947334 -0.017642723 -0.49366471 0.0014750281
0.12386644 0.0051636323 0.31693044 -0.86506134 -0.042949717 -0.49982411 0.0016857377
-0.12286437 0.016357202 0.3160736 0.85746217 -0.11966963 -0.50043774 0.0010736616
0.12444802 0.013978489 0.31376514 -0.86190861 -0.10212664 -0.4966726 0.0013639337
-0.12288802 0.021981712 0.31468514 0.85589397 -0.14435777 -0.49659488 0.0011684578
-0.11911266 0.029681846 0.31970298 0.83835 -0.19937259 -0.50736564 0.0015726644
0.12220282 0.026244022 0.31491059 -0.84945947 -0.18491212 -0.49419245 0.0012843797
-0.12086889 0.038503163 0.31157756 0.83506399 -0.26306516 -0.48318204 0.0014416826
-0.11754127 0.037893161 0.31763959 0.8230707 -0.26543319 -0.50209552 0.0014313358
0.11802664 0.038859963 0.31613973 -0.82180119 -0.27560052 -0.49868539 0.0012559089
0.12389212 0.03013432 0.31091055 -0.84905994 -0.20733954 -0.48590901 0.0015045584
-0.11754766 0.045910005 0.31200626 0.80549622 -0.32730782 -0.49400952 0.0012248195
0.11818007 0.042095672 0.31361058 -0.81823587 -0.28997853 -0.49638942 0.001485428
-0.11280902 0.055324961 0.31342658 0.78083354 -0.37713933 -0.49806115 0.00096678588
-0.1097041 0.05833558 0.31657231 0.76205587 -0.41018763 -0.50101596 0.0015566484
0.10901405 0.057448123 0.31836307 -0.76203245 -0.40177161 -0.5078249 0.0016454001
0.11389571 0.054677457 0.31204075 -0.78416169 -0.37914577 -0.49126261 0.0015055601
-0.11054526 0.061106991 0.31320438 0.76419091 -0.41174638 -0.4964647 0.0016052772
-0.10369819 0.068343401 0.31621385 0.72801507 -0.46621603 -0.5026297 0.0013696363
0.10426512 0.066375144 0.31736746 -0.73516124 -0.45322442 -0.50410867 0.0016199711
0.11032757 0.064839154 0.31048456 -0.74838299 -0.443674 -0.4930276 0.0015353499
-0.10267943 0.071468256 0.31420884 0.72141188 -0.48392716 -0.4953579 0.0015548331
-0.09916953 0.074290708 0.31616315 0.69810987 -0.51874 -0.49350944 0.0010537239
0.096843496 0.076430023 0.31715834 -0.67999566 -0.53168648 -0.50489134 0.0009074448
0.10314181 0.071768008 0.31320208 -0.71461976 -0.49952179 -0.4896903 0.0015638114
-0.09337078 0.082481422 0.31545621 0.64585072 -0.57535565 -0.50183934 0.0017937339
-0.08938992 0.085566789 0.31780201 0.61559176 -0.59690106 -0.51454437 0.0014868565
0.088558309 0.087245636 0.31678265 -0.61955529 -0.60479951 -0.50036877 0.0018375565
0.092394829 0.082317017 0.31704843 -0.65165061 -0.57154 -0.4986918 0.0014338172
-0.085076928 0.092668332 0.31358352 0.59271586 -0.63200557 -0.49925646 0.0014413536
0.078561582 0.094623543 0.31800964 -0.54560202 -0.66613227 -0.50851369 0.0010690148
0.082614906 0.091151796 0.3185353 -0.58522034 -0.63637608 -0.50253618 0.0016265082
-0.074173823 0.1007245 0.31403434 0.52404094 -0.69055808 -0.49850836 0.00076918746
-0.065917216 0.10732362 0.31364819 0.44969672 -0.74416494 -0.49395499 0.0013671785
-0.055707324 0.10881017 0.31991363 0.39068818 -0.76353401 -0.51417762 0.0013864817
0.05981005 0.10913703 0.31650326 -0.41990688 -0.75751853 -0.49984384 0.0018193856
0.06593208 0.10675134 0.31427455 -0.45921168 -0.73635411 -0.49689758 0.0016421081
0.071652308 0.10150389 0.31571433 -0.51183969 -0.6958462 -0.50380367 0.0010792457
-0.053200763 0.11247077 0.315494 0.38136837 -0.77441627 -0.50481439 0.0012049631
-0.043795116 0.1174995 0.31357598 0.29742444 -0.82193774 -0.48575413 0.00095419213
-0.033616122 0.11905497 0.31792906 0.24208008 -0.83124459 -0.50042939 0.0015221974
0.037405476 0.11642367 0.31986594 -0.25565693 -0.82718199 -0.50040931 0.001904848
0.044023994 0.11642525 0.31523433 -0.31651142 -0.80935216 -0.49474201 0.00047046202
0.053051431 0.11184306 0.31666154 -0.36160305 -0.78256381 -0.50679088 0.0014284248
-0.033475921 0.12169971 0.313411 0.24422736 -0.83556956 -0.49211428 0.0014809337
-0.024403648 0.12321434 0.31352076 0.15345685 -0.85381871 -0.49743792 0.00099488639
-0.017696042 0.12418525 0.31336114 0.1273178 -0.85947859 -0.49506241 0.00113716
-0.0078579383 0.12234804 0.3190527 0.066804633 -0.85864496 -0.5081988 0.0013313851
0.0029694366 0.12575343 0.31403455 -0.0024078789 -0.86890364 -0.49497542 0.0016989222
0.01330259 0.12455987 0.3137314 -0.088935852 -0.86132056 -0.50021732 0.0011494249
0.025474379 0.12200313 0.31546533 -0.1775559 -0.84862733 -0.49830255 0.0013318494
0.034803782 0.12164646 0.31275457 -0.24420293 -0.83835059 -0.48737365 0.0014496493
-0.0041002533 -0.12018084 0.32331395 0.037852 0.85699135 -0.51393861 0.00099177822
0.0075425715 -0.12118705 0.32102388 -0.060744662 0.8585614 -0.50909954 0.0014928229
-0.041818894 -0.11090575 0.32524687 0.30317169 0.792579 -0.52906102 0.0015375762
-0.030587533 -0.11847529 0.32051831 0.21683969 0.83213276 -0.51042694 0.0016514534
-0.023436654 -0.11726002 0.32390261 0.17216045 0.83654702 -0.52014405 0.0014534499
-0.014665608 -0.11732841 0.3256073 0.10702349 0.84541672 -0.52327466 0.0010691573
0.0090977699 -0.1162864 0.32839268 -0.055468127 0.84637547 -0.52969027 0.0015244941
0.015371478 -0.11785462 0.32463571 -0.12708676 0.84773618 -0.51496834 0.0011367087
0.026476622 -0.11677798 0.324031 -0.18311033 0.83997321 -0.51079893 0.0010298191
0.036194656 -0.11339797 0.32500592 -0.257319 0.81153679 -0.52459019 0.001699712
0.044592604 -0.11182173 0.32222748 -0.31719208 0.79217714 -0.52138722 0.0013557153
-0.063270271 -0.10406916 0.32092339 0.45696899 0.73120028 -0.50648338 0.0018124063
-0.054025743 -0.10568414 0.32548872 0.38845333 0.75886613 -0.52271056 0.0013663721
-0.048671532 -0.10866641 0.32437083 0.33862412 0.78500271 -0.51875275 0.0013098146
0.042439204 -0.10877159 0.32799184 -0.30231348 0.79131246 -0.53144252 0.0013094429
0.054657746 -0.10581993 0.3249073 -0.39546651 0.75935775 -0.51670301 0.0015440308
0.064154908 -0.10343824 0.32085544 -0.45496064 0.73120153 -0.50828642 0.0017281974
-0.074257322 -0.09120407 0.32668015 0.54746079 0.65130436 -0.525442 0.0011479177
-0.066595636 -0.096442267 0.32748482 0.46829966 0.70374197 -0.53426826 0.0011800621
0.06538254 -0.099168994 0.32522976 -0.46672064 0.7184478 -0.51575631 0.0013293854
0.072579995 -0.096682668 0.32141694 -0.52540392 0.67535919 -0.51753336 0.0008909466
-0.085672468 -0.084515713 0.32328296 0.60697716 0.60496396 -0.51536119 0.0015118266
0.078734249 -0.088718601 0.32548749 -0.56253165 0.63905746 -0.52456045 0.0013401902
0.085415065 -0.083121508 0.32496861 -0.60080779 0.60778999 -0.51925075 0.0015256323
-0.093623467 -0.073681362 0.32419857 0.67937934 0.51597404 -0.52174163 0.0012440248
-0.08874236 -0.074716955 0.32932982 0.65205026 0.54008758 -0.53210509 0.0013103168
0.089523785 -0.074825771 0.32824373 -0.65315247 0.54766583 -0.52292818 0.0010350696
0.093130879 -0.072977491 0.32549527 -0.66922605 0.52484661 -0.52599669 0.0011077771
-0.10415691 -0.060447935 0.32372254 0.73860347 0.43281263 -0.51685411 0.0017092812
-0.097507313 -0.069397181 0.32344961 0.70143968 0.48660305 -0.52076858 0.0011471413
0.096908696 -0.069144845 0.32444435 -0.69455957 0.49490294 -0.52216673 0.0014711791
0.10148577 -0.062354561 0.32523957 -0.71934581 0.45544899 -0.52450722 0.001305226
-0.11024013 -0.050219722 0.32113615 0.7839241 0.34663191 -0.51508176 0.0015216416
-0.10412276 -0.053544801 0.32799909 0.74771953 0.39457732 -0.53406388 0.0016525279
0.10670496 -0.055409253 0.32316229 -0.75473875 0.3950136 -0.52376872 0.0012959505
-0.11221165 -0.043111112 0.32255888 0.80255932 0.30766964 -0.5111143 0.0006200971
-0.10799967 -0.046457171 0.32669127 0.77843237 0.34133098 -0.52681702 0.0014846437
0.10817309 -0.048607916 0.32513496 -0.77875072 0.35111311 -0.51987201 0.0013220683
0.11059257 -0.048391078 0.32172841 -0.7874319 0.34612659 -0.51004648 0.0010075195
-0.11330047 -0.034719031 0.32604972 0.81401706 0.25064021 -0.52398068 0.0011374399
0.10960901 -0.038861845 0.32893836 -0.7966128 0.28184655 -0.53476214 0.0017027163
0.11484338 -0.034390278 0.32391343 -0.81619853 0.25495261 -0.51847768 0.0015825087
-0.11582751 -0.022634448 0.326323 0.83025157 0.16958638 -0.53096408 0.0016759075
0.11597113 -0.024282651 0.32575712 -0.83251625 0.18784851 -0.52118087 0.0014422779
-0.12072521 -0.01214933 0.32080364 0.85625207 0.077554077 -0.51070321 0.0012403742
-0.11721635 -0.012652169 0.32620588 0.84385949 0.092331164 -0.52856046 0.00095733145
0.11717132 -0.015728654 0.32564098 -0.84349835 0.10764249 -0.52623528 0.00083070545
-0.12085792 -0.0046118372 0.32215258 0.86011875 0.023108616 -0.50957012 0.0015054579
-0.11843748 -0.0029330365 0.32629752 0.84957981 0.0084023923 -0.52739298 0.0014657348
0.1192129 -0.0042654504 0.32480553 -0.8546297 0.029838132 -0.51837993 0.001449127
0.12123776 -0.0013821172 0.32222375 -0.8598544 0.016955983 -0.51025772 0.0015880744
-0.11767428 0.0048092706 0.32710963 0.84905434 -0.042725276 -0.52657497 0.0012091313
0.11776124 0.0099356212 0.32591408 -0.84742749 -0.062081914 -0.52726883 0.0012066935
0.1219064 0.0064731925 0.3201248 -0.86058891 -0.056632575 -0.50614172 0.001217838
-0.11652497 0.013913769 0.32703221 0.84789193 -0.096165344 -0.52137458 0.0014230713
0.11716702 0.016882109 0.32541147 -0.84487396 -0.1341307 -0.51787716 0.00096571515
-0.1171419 0.025961742 0.32357517 0.83960795 -0.1782411 -0.5131166 0.0014277663
0.11792741 0.023124738 0.32292858 -0.84322304 -0.15655771 -0.51426113 0.0010488206
-0.11606605 0.034890141 0.32190815 0.81477922 -0.26694122 -0.51466227 0.0013817061
0.11650777 0.033129834 0.32232702 -0.82868814 -0.23076056 -0.50992692 0.0015243391
-0.1123631 0.042825069 0.32251674 0.80268288 -0.29946193 -0.51577401 0.0019056424
-0.10722841 0.04711451 0.32742688 0.76964062 -0.35588083 -0.53009641 0.0011756847
0.10792187 0.04163301 0.32973295 -0.78932476 -0.30307233 -0.53396022 0.00140686
0.11172838 0.042113047 0.32387608 -0.79903322 -0.29926628 -0.52152234 0.001221344
-0.1042676 0.056384597 0.32607827 0.75199866 -0.40003863 -0.5238961 0.0014680518
0.10589112 0.05585986 0.32408538 -0.75284266 -0.40483177 -0.51897895 0.0014758903
-0.10103558 0.065897368 0.32240093 0.72830224 -0.45906284 -0.50876033 0.0014216377
0.09856157 0.065670326 0.32572618 -0.70911711 -0.46477818 -0.53022075 0.0013764539
0.10355242 0.062698781 0.32232246 -0.73510486 -0.43815294 -0.51734209 0.002053896
-0.092206866 0.074398018 0.3252964 0.66281956 -0.53001362 -0.52891958 0.00097722374
-0.087972671 0.077705964 0.32742593 0.63593781 -0.55863541 -0.5324561 0.0012801662
0.089923464 0.077587023 0.32509097 -0.65306252 -0.54785162 -0.52284604 0.0011825594
0.095208697 0.074720979 0.32121593 -0.67140102 -0.53651333 -0.51124763 0.001230472
-0.084922031 0.084366508 0.32450283 0.60179323 -0.603113 -0.52354527 0.0014013769
-0.07474681 0.089853838 0.32791644 0.54800701 -0.64609694 -0.53126913 0.0010441383
0.076998696 0.088395819 0.3275775 -0.55410928 -0.64304614 -0.52863461 0.0014830119
0.08520671 0.083602965 0.32488117 -0.61127555 -0.59853834 -0.51777804 0.0015526343
0.090331256 0.081132025 0.32116327 -0.64705896 -0.57133061 -0.50487226 0.0015060005
-0.075293131 0.094201148 0.32193124 0.53718144 -0.6669153 -0.51639146 0.0014565351
-0.065139458 0.099228814 0.32540137 0.47422415 -0.71315318 -0.51625961 0.0011005126
0.072678 0.094030015 0.32466584 -0.5213927 -0.6750142 -0.52202058 0.0015242464
-0.061993096 0.10357305 0.32296112 0.44273609 -0.73646426 -0.5114736 0.0016316533
-0.056323603 0.1045145 0.32582176 0.40114206 -0.74897516 -0.52737212 0.0013261358
-0.045708477 0.10736713 0.32807991 0.33922568 -0.77550679 -0.53246146 0.0008373399
0.046459533 0.10656829 0.32879311 -0.34725469 -0.77148038 -0.53313428 0.001726557
0.054321475 0.10630558 0.32441542 -0.38503149 -0.76134473 -0.52163684 0.001793292
0.06317059 0.10285714 0.32273245 -0.45185763 -0.72474951 -0.52015656 0.001539725
-0.044764746 0.11163446 0.32241157 0.32181171 -0.79515046 -0.51397753 0.00083889387
-0.034804605 0.11365198 0.325454 0.24141243 -0.81609583 -0.52507859 0.0018940864
-0.022932447 0.11682787 0.32470047 0.15590084 -0.84124595 -0.5176875 0.0015777785
-0.011900249 0.11776823 0.32550403 0.076988131 -0.84763306 -0.52496767 0.0010766113
-0.0049076243 0.11707665 0.32803386 0.051307697 -0.84401023 -0.5338673 0.0010100256
0.0050244005 0.11861505 0.32559568 -0.044945899 -0.85046965 -0.52410036 0.0015892017
0.014987094 0.11702253 0.32603648 -0.1116382 -0.84444916 -0.52387267 0.0013395784
0.026874378 0.11676643 0.32398257 -0.19638611 -0.83849591 -0.50828838 0.0016362587
0.034633178 0.11389396 0.32524416 -0.2455157 -0.81745034 -0.52105373 0.0020094321
0.043784514 0.11131673 0.32346991 -0.3171773 -0.79334223 -0.51962155 0.0013917665
0.0032299808 0.12121933 0.32187974 -0.020121768 -0.85833448 -0.51269591 0.0018148522
0.010982241 0.1201321 0.32198429 -0.07637421 -0.85299724 -0.51629698 0.0011687336
-0.033511214 -0.11065553 0.33064461 0.25158361 0.80639976 -0.53518701 0.0017010571
-0.024833433 -0.11165259 0.33241323 0.18726678 0.81975603 -0.54123122 0.0015895496
-0.017426964 -0.11165047 0.33394662 0.13085201 0.82756162 -0.54591155 0.0016197106
-0.0056541157 -0.11221106 0.33549911 0.032768514 0.83723152 -0.54586583 0.0014132368
0.0020295777 -0.11122399 0.33779681 -0.0060707722 0.83692038 -0.54729104 0.0014219668
0.013812078 -0.11181879 0.33442932 -0.1220346 0.82938403 -0.54518789 0.0010256934
0.028077543 -0.11200938 0.33118317 -0.2143006 0.81504536 -0.53830874 0.0015971425
-0.055126958 -0.10166864 0.33069339 0.40764984 0.73824477 -0.53741634 0.0015047685
-0.045661479 -0.10377759 0.33334267 0.33077812 0.76875705 -0.54735583 0.0018776072
-0.035515547 -0.10581798 0.33650437 0.26202542 0.79434371 -0.54805177 0.0010555525
-0.017007761 -0.10897824 0.3382265 0.13594225 0.81785148 -0.55914098 0.0016402772
0.0074533899 -0.10926169 0.33975554 -0.057663877 0.82853687 -0.55695742 0.0015494114
0.019564968 -0.10785289 0.33946413 -0.1540443 0.81331199 -0.56106496 0.0018457515
0.023036901 -0.10838495 0.3379119 -0.17383794 0.81411743 -0.55406976 0.0018429835
0.03411397 -0.10734908 0.33511439 -0.24703924 0.7968272 -0.55139643 0.0016193551
0.043327995 -0.1032389 0.33554375 -0.32469019 0.76933759 -0.55017817 0.0012865843
0.055330001 -0.10052486 0.33224294 -0.40884727 0.73807871 -0.53673428 0.0015900373
-0.063537963 -0.093160242 0.33455202 0.47369099 0.6893692 -0.54807568 0.0015014224
-0.057993352 -0.095512785 0.33694029 0.42772293 0.71129191 -0.5577786 0.001347814
0.049529776 -0.098388404 0.33888012 -0.37697706 0.74142027 -0.55514342 0.0017866247
0.058022432 -0.093496919 0.33944356 -0.4350912 0.70661169 -0.55802816 0.0017847797
0.062444117 -0.092600726 0.33630854 -0.47488329 0.69122148 -0.5447005 0.0016429698
0.070500784 -0.090760484 0.33085659 -0.53028429 0.6574232 -0.53534412 0.0013092184
-0.075109445 -0.085218132 0.33337545 0.56683999 0.62782902 -0.53340709 0.0015219698
-0.069151796 -0.086276926 0.3377862 0.51995182 0.65206927 -0.5517751 0.0016782464
0.074859358 -0.084259108 0.33482063 -0.56297183 0.62636369 -0.539195 0.0014787264
-0.085932389 -0.073215574 0.33430481 0.63875574 0.54166943 -0.54642957 0.0015666857
-0.078323498 -0.079653382 0.33726621 0.58673197 0.59121865 -0.55335891 0.00116858
0.077872746 -0.078098111 0.3396534 -0.5815931 0.59191263 -0.55802232 0.0016852426
0.085247174 -0.073554903 0.3348383 -0.62957084 0.55527365 -0.54342586 0.0016005305
-0.090679184 -0.064595163 0.33665025 0.67908514 0.48579636 -0.55031377 0.0013674602
-0.089168787 -0.067468561 0.33577827 0.66614681 0.50240755 -0.55121243 0.0016845663
0.087018408 -0.068021283 0.33794588 -0.65569389 0.51209569 -0.55481851 0.0015730407
0.094219029 -0.062972151 0.33376917 -0.69936496 0.46480265 -0.54299837 0.0012455693
-0.10027459 -0.05302503 0.33400923 0.73278391 0.3989405 -0.55124784 0.0015122927
-0.096682146 -0.053988896 0.33867848 0.72405046 0.4120754 -0.5531227 0.0011922803
0.098054737 -0.054009777 0.33662167 -0.7321834 0.39974722 -0.55146134 0.0013656451
-0.10283921 -0.046120614 0.33444101 0.76313525 0.3507506 -0.54276943 0.0014901473
-0.099414907 -0.049463075 0.33742374 0.73435777 0.39315972 -0.55330288 0.0016637793
0.098606333 -0.047565825 0.33975524 -0.73989278 0.38030407 -0.55491209 0.0014118761
