# .PCD v0.7 - Point Cloud Data file format
VERSION 0.7
FIELDS x y z normal_x normal_y normal_z curvature
SIZE 4 4 4 4 4 4 4
TYPE F F F F F F F
COUNT 1 1 1 1 1 1 1
WIDTH 569
HEIGHT 1
VIEWPOINT 0 0 0 1 0 0 0
POINTS 569
DATA ascii
-0.090130687 -0.1411234 0.27910855 0.53330505 0.84587383 0.0091139013 0.0018289941
-0.084007487 -0.14555264 0.27504033 0.52442545 0.85144645 0.0041061644 0.0019959188
-0.079866275 -0.14749248 0.27477103 0.4785524 0.87800455 -0.0097757066 0.0027460149
0.076787829 -0.14876768 0.27422014 -0.45602196 0.88996238 -0.0033200122 0.0018225088
0.088584095 -0.14231017 0.27336702 -0.53336281 0.84584266 -0.0086202323 0.0016200752
-0.10210207 -0.13193741 0.2739284 0.61000431 0.79239684 0.0014049925 0.00042906575
-0.09957277 -0.13387822 0.27109227 0.60489237 0.79630643 0.0011372245 0.00024499369
0.0939968 -0.13815682 0.27844101 -0.56602925 0.82435107 0.0074947453 0.001001563
0.1002728 -0.13334106 0.27153695 -0.59570032 0.8032068 -0.00018891778 0.00054761814
-0.11463916 -0.12231734 0.27822497 0.67343676 0.73924041 0.002560837 0.0019698951
-0.1061438 -0.12883607 0.27443776 0.62860394 0.77771831 -0.0033619658 0.00078946305
0.10966796 -0.12613189 0.27601585 -0.65730166 0.75362742 0.00056895794 0.0014788287
0.11557383 -0.12160013 0.27526048 -0.68503517 0.72836637 -0.014466556 0.0022818281
-0.12324698 -0.11342797 0.27812684 0.7177785 0.69623536 0.0070887087 0.0023719834
-0.11847571 -0.11931175 0.27100566 0.7040745 0.71009654 0.0064764414 0.0024872352
-0.12680098 -0.10879643 0.27689168 0.75710899 0.65324974 0.0071215658 0.0015150836
0.12908897 -0.10581507 0.27941829 -0.76654804 0.64218372 0.0020404088 0.00094698987
0.13174281 -0.10235672 0.27405393 -0.79197073 0.61055833 0.00090513576 0.00014904079
-0.13550538 -0.097452916 0.27352506 0.81248593 0.58298045 -0.00060550158 0.00076020835
0.13949969 -0.092248276 0.27111447 -0.83043337 0.55711728 0.00084763183 0.0014858908
-0.14524825 -0.084737487 0.27838531 0.85922289 0.51158637 -0.0039342828 0.0021538665
0.14495549 -0.084718101 0.27436483 -0.84986538 0.52693957 -0.0079728784 0.0018488615
-0.15025607 -0.073195457 0.2771185 0.9084149 0.41806418 0.0021686663 0.0011645942
-0.14928861 -0.075531207 0.27293363 0.89793855 0.44007555 0.0063179005 0.0019139096
-0.15342113 -0.065554 0.27469739 0.92240745 0.38621596 0.0013310702 5.0919942e-05
0.15239967 -0.068021171 0.277246 -0.91749954 0.39770252 0.0052361679 0.00048752336
-0.15775058 -0.055101365 0.27190548 0.94417197 0.32943931 0.0030069782 0.0015216817
0.1574744 -0.05576868 0.27892011 -0.94077164 0.3389954 -0.0055530109 0.0010321896
-0.16065541 -0.048088193 0.27291018 0.94817036 0.317756 0.0020210021 0.0014443218
0.16221891 -0.043191422 0.27900076 -0.96655887 0.25624719 -0.010064749 0.0026777668
0.16315021 -0.038879927 0.27424654 -0.97596306 0.21777458 -0.008384008 0.0015522084
-0.16446164 -0.028919505 0.27878603 0.98414552 0.17735456 -0.0017185707 0.0010452277
0.16454501 -0.028286209 0.27904987 -0.98621094 0.16536616 -0.0064863893 0.00098568341
-0.16603649 -0.016958237 0.27483174 0.99367589 0.11228506 0.00056414475 0.00025059769
0.16589004 -0.018070498 0.27809289 -0.99289769 0.11894405 -0.0025469088 0.00024933016
-0.1674761 -0.0060242019 0.27648082 0.99912411 0.041495826 0.0053882748 0.0020625025
0.16776024 -0.0038658336 0.2710948 -0.99922127 0.039275076 0.0037805676 0.001697602
0.16754749 0.005482119 0.27143645 -0.99939376 -0.034733288 -0.0023806691 0.0018453031
0.16631974 0.01480775 0.27447665 -0.99330747 -0.11549313 0.0013345374 0.00020462739
-0.16521668 0.023186263 0.27226675 0.99081355 -0.13522504 -0.001632217 0.00037846141
0.16474789 0.026747124 0.27336323 -0.98597836 -0.16660058 0.009535823 0.00072082103
-0.16391876 0.033044957 0.27507457 0.98252439 -0.18601398 0.0066895466 0.0011247435
-0.16076493 0.047826394 0.27238613 0.95532495 -0.29548901 0.0063663293 0.0020844948
0.1628515 0.041151553 0.27481472 -0.97055036 -0.24081397 0.0063732178 0.002256939
-0.15777436 0.055046096 0.27250886 0.93797463 -0.34666783 0.0049991631 0.00078599952
0.15837076 0.053606678 0.27637056 -0.94521332 -0.32641286 0.0051440364 0.0016370935
-0.15193939 0.069132492 0.27481639 0.91271508 -0.40859112 -0.0021138301 0.00051606423
0.15294552 0.066704586 0.27313858 -0.9167667 -0.39940554 -0.0037440113 0.00051795563
-0.15123674 0.070828795 0.27387494 0.91196263 -0.41026706 -0.0022623858 0.00058021187
0.14804409 0.078537814 0.27047676 -0.88189542 -0.47131312 0.011156997 0.0021387285
0.15019582 0.073342994 0.2785024 -0.90096825 -0.43387255 -0.0032826357 0.0011775945
-0.14604358 0.083365798 0.27708203 0.8613897 -0.50794101 0.0019059688 0.001883398
0.14531747 0.084101975 0.27423528 -0.85505325 -0.51833427 0.014611889 0.0021391851
-0.14085113 0.090486914 0.27650049 0.83775789 -0.54595888 0.0095178531 0.0019184938
-0.13519941 0.097852781 0.2760883 0.80410588 -0.59448504 0.0011108323 0.00035266904
0.13677138 0.095804654 0.27577665 -0.81771576 -0.57561088 0.0036194816 0.00099137868
0.14076389 0.09060137 0.27650851 -0.83410716 -0.55136132 0.01631053 0.0015243646
-0.13315645 0.1005154 0.27199107 0.80199152 -0.59733206 0.0019831182 0.00025816
-0.12711671 0.10838699 0.27349052 0.76292825 -0.64637953 -0.011571216 0.0014080054
0.12752354 0.10785709 0.27083641 -0.76271671 -0.64669782 0.006717898 0.0013267006
0.13298215 0.10074306 0.27046397 -0.80281967 -0.5962103 0.0037231098 0.00032760852
-0.12262564 0.11424022 0.27420467 0.72784925 -0.68546754 -0.01922703 0.0023677358
-0.11886513 0.11907756 0.27865303 0.70862514 -0.70544839 -0.013892714 0.0023221304
0.11850482 0.11935404 0.27504867 -0.71295255 -0.70120138 0.0039165411 0.0023460449
0.12464356 0.11161046 0.27119023 -0.75462818 -0.65608311 0.0095496587 0.0013601745
-0.11243269 0.12401336 0.2731421 0.66521287 -0.74659973 -0.0089798439 0.0014889095
-0.10754623 0.1277629 0.27774501 0.64756548 -0.76200968 -0.00031623617 0.001462206
0.10726201 0.12798096 0.27415749 -0.63761002 -0.77035719 0.0018078928 0.0011664991
0.11115572 0.12499321 0.27151659 -0.66696733 -0.74506783 0.0053427089 0.0017028854
-0.1018953 0.132099 0.27713042 0.61439806 -0.78899121 0.002813977 0.00032497215
-0.09451919 0.13775891 0.2717489 0.56849658 -0.82263047 -0.0095284162 0.0010906763
0.098253019 0.13489385 0.27601999 -0.58787513 -0.80895078 -0.0012315026 0.00054424023
0.10172855 0.13222696 0.27285999 -0.60891223 -0.79323763 -5.8737351e-05 0.00037184314
-0.086052813 0.14425541 0.27374053 0.52552372 -0.85064679 -0.014994562 0.0021952211
-0.076993465 0.14868544 0.27363515 0.45911798 -0.88829553 0.011907376 0.0026373791
0.077956297 0.1482866 0.27071768 -0.45996806 -0.88791633 0.0058260504 0.0015482692
0.086750314 0.14372021 0.27434731 -0.52171129 -0.8531217 0.00087374524 0.0019617579
0.091127008 0.14036183 0.27746734 -0.5460397 -0.83775932 0.0001480518 0.0016201268
-0.0709088 0.15120593 0.27360511 0.42319426 -0.90600586 0.0077433307 0.0011672743
-0.064991102 0.15365726 0.27390811 0.37911117 -0.92535043 -0.0011316863 0.00020819656
-0.055630192 0.1575349 0.27487296 0.35654983 -0.9342314 -0.0091592325 0.00037627487
0.049873158 0.15991968 0.27757552 -0.30757543 -0.95152259 -0.0014894659 0.0018916946
0.056584597 0.15713954 0.27398163 -0.33545402 -0.94205326 -0.002468663 0.0010226264
0.064744733 0.15375933 0.27552357 -0.39091387 -0.92042452 0.0022260079 0.00060430105
-0.041632146 0.16279095 0.27515084 0.24279507 -0.97000492 -0.011871287 0.0024829798
-0.038385268 0.1632182 0.27619901 0.23941074 -0.97086024 -0.01062805 0.0021758976
-0.021082785 0.16549501 0.27269498 0.12699856 -0.99190265 0.00068415923 2.8157767e-05
-0.015529924 0.16622569 0.27545434 0.098937012 -0.99509239 0.0015911114 0.00071749761
-0.0083728433 0.16716747 0.275388 0.06037239 -0.99817497 0.0013787498 0.0015738148
0.016910031 0.16604407 0.27394965 -0.1078747 -0.99416143 -0.0024572569 0.00054406299
0.028074218 0.164575 0.27778184 -0.18069278 -0.98350376 0.0083905812 0.0013479153
0.037429914 0.16334389 0.27492809 -0.22914398 -0.97336787 0.0069310758 0.0022117186
0.043041576 0.16228053 0.27513891 -0.25902265 -0.96586674 -0.0029782506 0.0023057831
-0.044441264 -0.16204207 0.28260666 0.2550756 0.96692085 0.00069399108 0.0020484657
-0.0362694 -0.16349417 0.28936744 0.20974658 0.97775578 0.00014568232 0.0015388858
-0.02716784 -0.16469243 0.28505355 0.16097371 0.98694313 -0.0055368119 0.00080167805
-0.018066349 -0.16589071 0.28803203 0.11523375 0.99333668 -0.0018643287 0.00037210778
-0.0050406195 -0.16760559 0.28281939 0.043727983 0.99904221 -0.0016310735 0.0020066379
0.0051142178 -0.16759592 0.28586012 -0.041252404 0.99913728 -0.004797115 0.0017475663
0.016024109 -0.16615957 0.28475976 -0.11196166 0.99371004 -0.0022244663 0.00024739187
0.027686721 -0.16462412 0.28365189 -0.15587993 0.98777294 -0.002465063 0.00054100179
0.035002798 -0.16366094 0.2863608 -0.19120622 0.98154855 -0.0016131902 0.001272854
-0.066221714 -0.15314455 0.28340051 0.40499327 0.91431588 -0.0026329902 0.00061824161
-0.053626001 -0.15836218 0.28298315 0.33278689 0.94299948 -0.0022003332 0.0010648415
0.065998368 -0.15323707 0.28662449 -0.3914994 0.92017841 -5.8080415e-05 0.00026219641
0.072309598 -0.15062274 0.28643128 -0.43806133 0.89893013 -0.0051921383 0.0012789314
-0.090783276 -0.14062265 0.28532606 0.5402267 0.84149361 0.0066062193 0.0015715228
-0.08402735 -0.14552799 0.28300402 0.51504964 0.85715383 0.0033444783 0.0020307547
-0.077228196 -0.14858526 0.28614739 0.44984421 0.89310658 0.00089825969 0.0012896606
0.076261371 -0.14898576 0.28283018 -0.44307178 0.89646894 -0.0055456958 0.0013021643
0.08400736 -0.14526029 0.28559944 -0.50627857 0.86236846 -0.0016510277 0.0018531822
-0.10224187 -0.13183016 0.28500235 0.61722887 0.78678358 0.00025451623 0.00052202621
-0.096091285 -0.13654968 0.28132504 0.58294004 0.81251371 0.0015787781 0.00074838765
0.093844831 -0.13827343 0.28475305 -0.56521749 0.82493812 -0.0024978113 0.0011255204
0.10249991 -0.13163213 0.28737101 -0.61903107 0.78536463 -0.0017109617 0.00039197243
-0.11632033 -0.12102732 0.28275394 0.67769665 0.7353158 -0.0061631505 0.0019389696
-0.10484584 -0.12983204 0.28873968 0.62161344 0.78332257 -0.0015552341 0.00040300461
0.10863721 -0.12692282 0.28361017 -0.65869147 0.7524004 -0.0043811537 0.0014255733
0.11317525 -0.12344064 0.28588447 -0.67646146 0.73647791 0.00041010254 0.00188847
-0.12322783 -0.11345291 0.28578719 0.73888361 0.67376286 0.0097339125 0.0020016325
-0.11846577 -0.11938106 0.28747943 0.68691504 0.72673762 0.00021445491 0.0021934961
0.11852208 -0.11933785 0.28159857 -0.70764321 0.70653874 -0.0066432254 0.0019312364
0.12307072 -0.11365782 0.28160352 -0.74112177 0.67136949 -0.0012415267 0.0016988117
-0.12821162 -0.10695809 0.28712192 0.77833343 0.62783784 -0.0040945774 0.00055016956
0.12888694 -0.10607836 0.28472063 -0.76990759 0.63815331 -0.0016311468 0.0010534169
0.13275756 -0.10103431 0.28394637 -0.79136902 0.61133802 0.00090837368 0.00050860189
0.13635269 -0.096349329 0.2849513 -0.81315595 0.58200562 -0.0068523721 0.00085101067
-0.14646928 -0.082337998 0.28311872 0.87672234 0.48085561 -0.011651119 0.0020706682
0.14441365 -0.085844621 0.2827872 -0.85030282 0.52629286 -0.0010012633 0.0017491065
-0.14829731 -0.07792455 0.28177324 0.89201361 0.45199773 0.0031341296 0.0017156209
0.14827386 -0.077982664 0.28553039 -0.88797772 0.45987266 -0.0035553647 0.0019382205
0.1502949 -0.073102996 0.28467658 -0.90131712 0.43315965 0.00053549296 0.0014761748
-0.15522419 -0.061200887 0.28301841 0.93095571 0.36512324 -0.0025635988 0.00053586985
0.15308553 -0.066365287 0.28422168 -0.922333 0.38638106 0.0034025514 9.8912606e-05
-0.15725747 -0.056291893 0.28574306 0.93796116 0.34674031 0.00027457241 0.0012115736
0.15790842 -0.054720789 0.2854912 -0.94094682 0.33847842 0.0071700485 0.0012108798
-0.16184409 -0.044963166 0.28550178 0.96850681 0.24896003 0.0036894144 0.0021182681
0.1622944 -0.043315418 0.28383559 -0.96587473 0.25892028 -0.0068037808 0.0023544752
-0.16389611 -0.033214722 0.28401962 0.98095566 0.19421387 -0.002642944 0.0015913488
0.16339356 -0.037031736 0.28477681 -0.97859973 0.20575872 -0.0024400956 0.0015709052
-0.16559324 -0.020324761 0.28479522 0.9916628 0.12881345 -0.0034595118 0.0002252149
0.16494066 -0.025281288 0.28504518 -0.99025416 0.1392718 -3.979939e-05 8.9384164e-05
-0.16610713 -0.016421605 0.28230345 0.99295676 0.11846441 0.0017340702 0.00023651663
0.16599962 -0.017238125 0.28923887 -0.9930321 0.11779838 0.0032855605 0.00019905125
-0.16727279 -0.0075681931 0.28616226 0.99826294 0.058208391 0.0091077378 0.001631135
0.16785589 -0.0031394314 0.28719795 -0.99970913 0.022581588 0.0084673725 0.0022507277
-0.16784446 0.0032265128 0.28668621 0.99987137 -0.0081211161 0.013828175 0.002119282
0.16767728 0.0044962852 0.28747976 -0.99894154 -0.045945596 0.002172929 0.001673906
-0.16609038 0.016549898 0.28311884 0.99374092 -0.11170942 -4.293953e-05 0.00039318175
0.16643465 0.013934977 0.28587994 -0.99505121 -0.099337772 -0.002260684 0.00066596037
-0.16477996 0.02650355 0.28295499 0.98710793 -0.16004974 0.0014459408 0.00063283613
0.16470036 0.027108131 0.28554314 -0.98622268 -0.16542059 0.00093002029 0.0008178915
-0.1633577 0.037306581 0.28415334 0.97574162 -0.21892154 0.0013370609 0.0017881071
0.16333482 0.037480444 0.28720561 -0.97503531 -0.22195338 0.0065409373 0.0019863865
-0.16171999 0.045520775 0.2891196 0.96319497 -0.26861337 0.010114418 0.0022382049
-0.15776242 0.055074885 0.28521201 0.9429391 -0.33294827 0.0033516502 0.001382933
0.15704614 0.056804646 0.28431547 -0.93549007 -0.35335124 0.0010968621 0.00056226464
-0.15339899 0.065608822 0.2847701 0.91545624 -0.40239677 0.0040937024 0.00039296798
0.1539371 0.064310633 0.28452373 -0.92435038 -0.38152996 -0.0033658049 0.00027641252
-0.14795901 0.078741707 0.28415367 0.87909949 -0.4766255 -0.0035026667 0.0022982685
0.14875653 0.076817811 0.28105947 -0.89834267 -0.43922791 -0.0077068983 0.0013165679
-0.14420481 0.086034581 0.28611037 0.85783392 -0.51390821 -0.0044083064 0.0019739757
0.14392215 0.086485319 0.2894659 -0.85471797 -0.51908308 0.0031638285 0.0022192404
-0.14109133 0.090173841 0.28071225 0.83262956 -0.55382055 0.0032780271 0.001816219
-0.13661461 0.096008353 0.28645825 0.80679405 -0.59082389 -0.0032562362 0.00029188258
0.13646773 0.096200436 0.28568673 -0.8112253 -0.58473259 0.0010905077 0.00058665458
0.14008938 0.091480434 0.28569013 -0.82261986 -0.5685029 0.010051425 0.00085428823
-0.13129826 0.10293718 0.28565967 0.79556715 -0.60586506 -0.00062159874 0.0004822108
-0.12776211 0.10754585 0.28406429 0.76533216 -0.64363343 -0.0016625151 0.0011905602
0.12742977 0.1079793 0.28102925 -0.7669698 -0.64168298 0.00052469946 0.0011101025
0.13142306 0.10277496 0.28091043 -0.79515749 -0.60640287 0.0001855134 2.8133272e-05
-0.1241848 0.11220816 0.28498101 0.7561841 -0.65435874 0.00052883162 0.0013361581
-0.11796643 0.11976716 0.28317991 0.70432043 -0.70984828 -0.0069382908 0.0021139591
0.11895219 0.11901075 0.28799492 -0.70241851 -0.71171832 0.0080717644 0.0024375846
0.12197322 0.11509062 0.28429303 -0.73221999 -0.68105465 0.0043069739 0.0023591078
-0.11304709 0.12354191 0.28291145 0.67143399 -0.74105728 -0.0032394745 0.0019108526
-0.10669272 0.12841779 0.28573486 0.64299738 -0.76582998 -0.0076677427 0.0011879212
0.11106678 0.12506145 0.28152683 -0.64474428 -0.76439708 -0.0013272346 0.0013113571
-0.10147215 0.1324237 0.28722256 0.60542428 -0.79590207 -0.0012045766 3.1049909e-05
-0.099058643 0.13427565 0.28114089 0.5900296 -0.80738163 -0.00016155779 0.00049763737
0.094246045 0.13796851 0.28824443 -0.56522381 -0.82492071 0.0052853874 0.00099204399
0.10299579 0.13125457 0.28769648 -0.61647916 -0.78736615 -0.0028116913 0.00026660418
-0.08647681 0.14388281 0.28251758 0.5221647 -0.85283947 0.0029692037 0.0022404119
-0.075662985 0.14923656 0.28645658 0.4552834 -0.89034432 0.0019752206 0.0017053112
0.074651353 0.14965563 0.28087392 -0.43953317 -0.89819932 0.0069620321 0.0014360287
0.088122405 0.14266735 0.28395689 -0.53196651 -0.84676498 -0.00082639523 0.0020207297
-0.071948349 0.15077531 0.28426611 0.41681379 -0.90899122 -0.0010656526 0.0008733049
-0.064362735 0.15391755 0.28334403 0.37075779 -0.92872864 0.0013342421 0.00042013134
-0.058191072 0.15647408 0.28353864 0.35724965 -0.93400872 -0.00066416414 0.00036852359
0.055788308 0.15746941 0.28381571 -0.3408536 -0.94011438 0.0019288134 0.00097155105
0.066487461 0.15303741 0.28823858 -0.40226707 -0.91551471 0.0037472353 0.00052472512
0.072018437 0.15074627 0.28213188 -0.42107314 -0.90702641 0.00069473928 0.00080884004
-0.040980101 0.16287674 0.2848773 0.23620349 -0.97167319 0.0076812222 0.0024983448
-0.036590144 0.16345441 0.28475529 0.2154087 -0.9765172 -0.0036135151 0.0023317467
-0.026417436 0.16479301 0.28686988 0.13981491 -0.99016714 -0.0045588203 0.0001884927
-0.017941542 0.16590834 0.28578928 0.10898262 -0.99403864 -0.0031602113 0.00044734686
-0.0039417334 0.16775055 0.28243932 0.029624829 -0.99948353 -0.012450145 0.0020448833
0.0091819223 0.16706102 0.28913358 -0.059913628 -0.99817836 0.0070890565 0.0016711953
0.024219647 0.16508222 0.28806922 -0.13575871 -0.99073017 0.0048216442 0.00032210216
0.0320521 0.16405156 0.28518763 -0.1969481 -0.98040974 -0.002849733 0.0014536331
0.043808438 0.16219428 0.28477401 -0.25642186 -0.96653295 0.00786631 0.0023527774
-0.043802749 -0.16193669 0.29428473 0.25685105 0.96640438 0.0094896834 0.0021154799
-0.031410944 -0.1641338 0.29848608 0.17315063 0.98489529 0.0004446336 0.0009603558
-0.026676772 -0.16475709 0.29744071 0.15605859 0.9877435 -0.0029138569 0.00077403674
-0.015013179 -0.16629265 0.29528964 0.098562703 0.99512643 -0.0029461691 0.0010388915
-0.0044958247 -0.16767731 0.29702392 0.025826056 0.99941176 -0.022567261 0.001993479
0.002565688 -0.16793144 0.29615101 -0.013050715 0.99950182 -0.028735746 0.0022033944
0.01490118 -0.1663074 0.29440475 -0.093575545 0.99556321 -0.0098755546 0.00096539594
0.023855964 -0.16512847 0.29789993 -0.12749663 0.99183452 -0.0029886798 0.00032341326
0.035956338 -0.16353539 0.2940802 -0.19751975 0.98023814 -0.010915328 0.0015310595
0.041133367 -0.16285381 0.29498172 -0.24387914 0.96980453 -0.001442614 0.0023312648
-0.072433427 -0.15057144 0.29492497 0.43385285 0.90096992 -0.0049846717 0.0012070287
-0.06203394 -0.1548793 0.29471782 0.36987421 0.9290818 0.00022052519 0.00058432302
-0.05372658 -0.15832052 0.297111 0.31837609 0.94794941 0.0053545348 0.0016935983
0.053315166 -0.15849093 0.29210162 -0.33047163 0.94380736 0.0040127337 0.0011522411
0.061154567 -0.15524356 0.29882839 -0.36799544 0.9298259 0.0017836747 0.00060792419
0.070360497 -0.15143013 0.29306647 -0.43116927 0.90226251 -0.0039285608 0.0010550213
-0.090883143 -0.14054602 0.29002333 0.54754305 0.83677256 0.0028755893 0.0014766131
-0.084989533 -0.1447956 0.29634845 0.50226891 0.86471152 3.2875003e-05 0.0022187368
-0.076203749 -0.14900964 0.29691306 0.45034698 0.89285362 -1.651371e-05 0.0018726342
0.078444675 -0.14808136 0.29820114 -0.46900585 0.88315463 -0.0084527377 0.0019210865
0.08297085 -0.14620645 0.29395345 -0.50190508 0.86486638 -0.0098701371 0.0017089134
-0.1008767 -0.13287768 0.2964493 0.60869336 0.79340357 -0.0017615083 0.00049035333
-0.096247926 -0.13642946 0.29468349 0.57948452 0.81497407 -0.0038590869 0.00086931378
0.096078478 -0.13655949 0.2943891 -0.56659323 0.82398003 0.0053941528 0.0013634865
0.10085288 -0.13289595 0.29813355 -0.60733956 0.79444236 0.00023327209 0.00042646012
-0.11315321 -0.12345754 0.29891586 0.67002183 0.74234098 -0.00086425588 0.0021967976
0.10723215 -0.12800094 0.29329577 -0.63643229 0.77131104 -0.0057689105 0.0010509705
0.11468058 -0.12228554 0.29610953 -0.68402177 0.72927171 -0.016643953 0.0022341949
-0.12272809 -0.11410419 0.29532877 0.72767621 0.68586749 -0.0085542854 0.0025398212
-0.11922394 -0.11867076 0.2966665 0.70556432 0.70856279 -0.010853891 0.0026332636
0.12301074 -0.11373597 0.29580569 -0.72646636 0.68702132 -0.015755173 0.0020687436
-0.13256657 -0.10128274 0.29436335 0.79407686 0.60781544 0.0015698649 0.00052593264
-0.12974642 -0.10495794 0.29487592 0.77918291 0.6267966 -0.00023937861 0.00049989432
0.12717526 -0.10830896 0.29353005 -0.75873524 0.6513449 -0.0084028151 0.0010772801
-0.13768832 -0.094608098 0.298466 0.82287931 0.56821543 -0.00085652439 0.0010535192
0.13884532 -0.093101017 0.29805967 -0.82448566 0.56586707 0.0042165155 0.001180918
-0.14405987 -0.086304769 0.29632643 0.84498781 0.53477103 -0.0039448179 0.0016519219
0.14578693 -0.083987102 0.29593688 -0.86975789 0.49341828 0.0077191894 0.0025497561
-0.15004832 -0.073697068 0.29952019 0.90022701 0.43536282 -0.0071061957 0.001578521
-0.14865799 -0.077053726 0.29530954 0.88983464 0.45626393 -0.0041833716 0.0024805451
0.14985222 -0.074171826 0.29882556 -0.8997069 0.43648505 0.0028658395 0.0014432456
0.15127534 -0.070735827 0.29341844 -0.9135384 0.40674692 -0.0021136708 0.00055533444
-0.15380636 -0.064623959 0.29402733 0.92723668 0.37445861 -0.003594975 0.00026949562
0.15342632 -0.065542445 0.29487711 -0.92268378 0.38555378 0.0016730943 6.8102629e-05
-0.158819 -0.05252187 0.29596409 0.94729346 0.32031092 0.0059967637 0.0018217667
0.1570849 -0.056709092 0.29547861 -0.93649399 0.35067329 0.0026769298 0.00061439635
-0.16134262 -0.046353985 0.29356405 0.961227 0.27512175 0.018728007 0.0022062554
0.16098239 -0.047298945 0.29954731 -0.9549824 0.29662722 0.0045836936 0.0018249626
-0.16332373 -0.03756208 0.29704922 0.97472537 0.22257458 0.019262591 0.0021157931
0.16372968 -0.034478929 0.29279166 -0.98129743 0.19243734 0.0048165107 0.0015770452
-0.16500418 -0.024798831 0.29655614 0.98983997 0.14212412 0.0041784002 0.00054897618
0.16484679 -0.025994143 0.29249883 -0.99117851 0.13253316 -0.00033200125 0.00016255041
-0.16640192 -0.014182633 0.29657361 0.99546969 0.095076159 -0.00078700361 0.0009244614
0.16655883 -0.012990877 0.29536787 -0.99710071 0.075702615 0.0076980758 0.0016270943
-0.16778441 -0.0036823538 0.29617494 0.99984246 0.016690774 0.0060472535 0.0025977723
0.16760238 -0.0050648903 0.29754788 -0.99883568 0.048233364 0.00088578375 0.0017388104
-0.16778599 0.0036705155 0.29523659 0.99983633 -0.018073464 -0.000828535 0.0022404948
0.16779849 0.0035756677 0.29477486 -0.99981815 -0.018991726 0.0017045045 0.0025304819
-0.16641939 0.014050871 0.29672283 0.99615735 -0.086988196 0.010177632 0.00088968873
0.1661647 0.01598534 0.29755893 -0.99529046 -0.096900448 -0.0026866607 0.0010442274
-0.16505513 0.02441337 0.29403204 0.99126434 -0.13189003 -0.00019645783 0.000138848
0.16499893 0.024840165 0.29427761 -0.99084467 -0.13496102 -0.0035114114 0.00019978413
-0.1636257 0.035271075 0.29621795 0.98032069 -0.19739451 0.0026048375 0.0012808633
0.16351829 0.036086757 0.29415879 -0.97785151 -0.20927832 -0.0029998221 0.0017768571
-0.16176049 0.045422994 0.29747531 0.96097469 -0.27660549 0.0041290484 0.0020343438
0.16192643 0.044925898 0.29407385 -0.96556658 -0.26003733 -0.0078618163 0.0020979252
-0.15798415 0.054539587 0.29532307 0.93445945 -0.35606948 3.1187665e-05 0.00065956812
0.1580015 0.054498218 0.29186088 -0.94009906 -0.34090072 0.00072294712 0.001059366
-0.15387671 0.064455524 0.29264846 0.92091376 -0.38976449 0.0012385994 0.00060190726
0.15493518 0.061901003 0.29455233 -0.92793536 -0.37274107 0.00028968955 0.00063108571
-0.1476256 0.079546578 0.29305467 0.87794888 -0.47873458 -0.0043538944 0.0023349363
0.14776699 0.079206795 0.29511473 -0.88589138 -0.463871 -0.0044761291 0.0019643218
-0.14438131 0.084997028 0.2928043 0.85339493 -0.52124536 -0.0045149717 0.0018995933
0.14398488 0.085948333 0.29528666 -0.8518182 -0.5237627 -0.0088560786 0.0019596759
-0.14063534 0.090768144 0.2958481 0.83607972 -0.54856563 -0.0068137837 0.001934043
-0.13743567 0.094938278 0.29898807 0.81709749 -0.57647282 -0.0055408273 0.00082673487
0.13742717 0.09495002 0.29602274 -0.80614483 -0.591717 0.0012095362 0.00037075076
0.14082465 0.090522192 0.29656911 -0.82483506 -0.56537312 0.00058983255 0.0012351896
-0.13287605 0.10088083 0.29417312 0.80119693 -0.59839624 0.0023282862 0.00022073441
-0.12651885 0.10916618 0.29437914 0.75918978 -0.6508556 0.0042260704 0.0012019698
0.12912762 0.10576653 0.29577887 -0.78270119 -0.62237471 -0.0053423387 0.00037852142
0.13188937 0.10216724 0.29131377 -0.79232019 -0.61010307 -0.0016984197 0.00035182916
0.11961122 0.11816894 0.29476997 -0.718696 -0.69531101 -0.0043194885 0.0024124302
0.12268949 0.11415714 0.29758325 -0.7354039 -0.67762047 -0.0034113762 0.0022880388
-0.11254682 0.12392578 0.2960895 0.65794069 -0.75306976 0.00033024829 0.0013088536
0.10799465 0.1274188 0.29456174 -0.63691247 -0.77087075 -0.010044004 0.00084313523
0.11265046 0.12384626 0.29565147 -0.66670889 -0.74531752 -0.0010545214 0.0017283238
-0.10257285 0.1315791 0.29543212 0.61245805 -0.79049933 -0.0024450971 0.00021544559
-0.096079171 0.1365619 0.29537779 0.57723582 -0.81657541 -0.0018527741 0.00063334551
0.097110949 0.13577019 0.29683533 -0.58712959 -0.80949116 -0.0017564034 0.0006868763
0.10207548 0.13196075 0.29360926 -0.61065984 -0.79189211 -0.0011890255 0.00037160458
-0.08212547 0.14655957 0.29429758 0.49059623 -0.87134945 0.0080878884 0.0019176187
-0.074515752 0.14971179 0.29478246 0.43085569 -0.90240502 -0.0053473497 0.0013910701
0.079177059 0.14778091 0.29571143 -0.47091556 -0.88213766 -0.008465956 0.0021883943
0.081835903 0.14667952 0.2962217 -0.49308357 -0.86997736 0.00283545 0.0020744901
0.090306856 0.14099117 0.29048109 -0.54242188 -0.84010112 -0.0029345902 0.0018537448
-0.068227582 0.15231659 0.29330191 0.39894912 -0.91696966 -0.0024952386 0.0003200249
-0.057013113 0.15696205 0.29672137 0.35362703 -0.93538612 -0.00082552817 0.00045608191
0.057880271 0.15660284 0.29568103 -0.35315558 -0.93556213 0.0021644391 0.00064908457
0.064677261 0.15378727 0.29522491 -0.38946217 -0.92103839 -0.0027434055 0.00065417844
0.072035775 0.15073909 0.29644176 -0.44130197 -0.89735734 -0.001535068 0.0012279719
-0.049089398 0.16024433 0.29782298 0.30642405 -0.95188689 -0.0039554075 0.001761616
-0.037063368 0.16339213 0.2959851 0.21706297 -0.97614694 0.0045626541 0.0019708399
-0.024574213 0.16503556 0.29835725 0.13892384 -0.99030155 -0.0017494151 0.00017992499
-0.016364645 0.16611585 0.29587254 0.10876317 -0.99406618 0.0017453879 0.00048329975
0.0070207603 0.16734537 0.29288727 -0.048409432 -0.99882513 0.0022112532 0.0016935065
0.017503126 0.16596603 0.29658079 -0.12161867 -0.99256474 0.004902361 0.00020988061
0.02463058 0.16502814 0.29500186 -0.13543402 -0.99078602 0.00089136325 2.6381213e-05
0.03674151 0.16343451 0.29282379 -0.20907073 -0.97790045 -0.00024917122 0.0023179783
0.043452341 0.16226822 0.29600433 -0.25633675 -0.96654183 -0.0094037447 0.0024153136
-0.043478802 -0.16227525 0.30341771 0.2356693 0.97181088 -0.0066015385 0.0023278347
-0.034836821 -0.16368277 0.30072597 0.21973929 0.97555244 -0.0034781655 0.0019035519
-0.027061639 -0.16470642 0.30509591 0.16678953 0.98599106 -0.0017013865 0.00077606185
-0.014645477 -0.16634108 0.30708823 0.092750952 0.99568939 6.8096735e-05 0.0008987328
-0.0048787971 -0.16762692 0.30402815 0.025805686 0.99965388 0.0051191645 0.0020144016
0.0073924256 -0.16729598 0.30134678 -0.053939831 0.99854273 0.001700583 0.0019349906
0.01803419 -0.16589493 0.30554679 -0.12188376 0.99254316 0.0015550748 0.00022020738
0.023433711 -0.16518405 0.30368802 -0.12602976 0.99202597 -0.00093784957 0.00026658023
0.034268077 -0.16375765 0.30320716 -0.20782492 0.97816432 0.0018201739 0.0019433058
0.045818362 -0.16159639 0.30537012 -0.2847369 0.95850939 0.01358958 0.0022383649
-0.073030442 -0.15032414 0.3041347 0.4360933 0.89983392 0.011020675 0.001297233
-0.062343892 -0.15475088 0.30612493 0.37902659 0.92538071 0.0030828828 0.00058480137
-0.052085038 -0.1590005 0.30878228 0.31854305 0.94790506 0.0025162632 0.0017793856
0.056023657 -0.15736897 0.30494127 -0.34587321 0.93827838 -0.0023207399 0.00070634729
0.065177165 -0.15357724 0.30446965 -0.3989588 0.91696543 -0.0025220355 0.00057929824
0.072536156 -0.15052889 0.30709705 -0.42256624 0.90624428 -0.012608113 0.0010548265
-0.090197429 -0.1410722 0.30347019 0.55490756 0.83183044 -0.011652587 0.0016300036
-0.086539462 -0.14369771 0.3043023 0.51937979 0.85452926 -0.0049347668 0.0024291547
-0.076333679 -0.14895581 0.30764788 0.45440474 0.89078933 0.0032633683 0.0018951877
0.073983833 -0.14992921 0.30508786 -0.44046006 0.89774746 -0.0066612819 0.0013761307
0.087660432 -0.1430189 0.30421776 -0.52034539 0.85392475 0.0072965799 0.0020294983
0.091548614 -0.14003539 0.30351382 -0.54174125 0.84054333 0.0018611924 0.0016104002
-0.10075941 -0.13296767 0.30957934 0.60004431 0.79996568 -0.0013074816 0.0005686254
-0.094497435 -0.13777266 0.30414635 0.56287527 0.82652313 -0.0055671465 0.001322829
0.092393845 -0.13938682 0.30592102 -0.55380279 0.83264512 -0.0021116859 0.0014284395
0.10189328 -0.13209762 0.30154115 -0.6068455 0.79481292 0.0033043958 0.00043876923
-0.11260752 -0.12387627 0.30356669 0.66814119 0.74400866 -0.0062082829 0.0018878184
0.10617724 -0.12881042 0.30496725 -0.62647414 0.77943224 -0.0039346935 0.00051489804
0.11263382 -0.12385608 0.30622596 -0.65885717 0.7522608 0.0033265511 0.0014771061
-0.12153208 -0.1156628 0.30577326 0.72748709 0.68603456 -0.010909387 0.0024366279
0.1242055 -0.11217901 0.30453885 -0.74666196 0.66517156 0.0065430524 0.0014137832
-0.13252246 -0.10134022 0.30606773 0.80265296 0.59643126 0.0042411587 0.0002804462
-0.12805495 -0.10716225 0.30772287 0.76884574 0.63942373 -0.0036754778 0.0012296987
0.12979886 -0.10488999 0.3054893 -0.78091073 0.62464166 -0.0010887595 0.00038015022
0.13308129 -0.10061247 0.30158016 -0.7866767 0.61736411 -0.0011625773 0.00020480626
-0.1358403 -0.097016439 0.30645961 0.81568199 0.57843995 0.0083689196 0.00075425231
0.13666698 -0.095939741 0.30634922 -0.81845146 0.57457107 0.002309517 0.00082381367
-0.14512047 -0.084329017 0.30694991 0.84848619 0.52919573 -0.0047939071 0.001956935
0.14470635 -0.085463174 0.30175036 -0.86079919 0.50894362 -0.0010796726 0.0025955737
-0.15155122 -0.070068598 0.30388671 0.91421771 0.40522295 0.00045696777 0.00072644994
-0.14866351 -0.077040441 0.3060011 0.89081258 0.45433664 -0.0055738003 0.0019999761
0.14938131 -0.075308807 0.30969742 -0.89588326 0.44426078 -0.0050555305 0.001438533
0.15390062 -0.064397275 0.30687064 -0.92290992 0.38501543 -0.0005450513 1.992382e-05
-0.15827286 -0.05384044 0.30409408 0.94109064 0.33813471 0.0036604507 0.0012837116
0.15575595 -0.059917733 0.30821696 -0.92969084 0.36833599 0.0018684317 0.00051706965
-0.16202635 -0.044192042 0.30572355 0.96664739 0.25589925 0.010415223 0.00228008
0.1626839 -0.04242171 0.30793354 -0.96170896 0.27406579 -0.0019378 0.0017104358
-0.16325392 -0.038092315 0.30061418 0.97794747 0.20871297 0.0075918408 0.0019015896
0.16356862 -0.03570221 0.30819759 -0.97810334 0.20806724 -0.004679143 0.0019916375
-0.16476452 -0.026619058 0.30331445 0.98718923 0.15948208 0.0047773481 0.00067116407
0.16463038 -0.027637873 0.30808997 -0.98916394 0.14676495 -0.0038415233 0.0002521034
-0.16627192 -0.015169938 0.30630383 0.99294555 0.11856634 0.0010980824 0.00024909517
0.16674173 -0.01160162 0.30704975 -0.99749839 0.070648625 0.0023970662 0.0015624962
-0.16752569 -0.0056472486 0.30583751 0.99954402 0.030029194 -0.0031558576 0.0022256137
0.16773541 -0.0040545585 0.30560824 -0.99923211 0.039179746 -0.00031662837 0.0016660246
-0.167596 0.0051136673 0.30453423 0.99889797 -0.046505261 -0.0063274996 0.0018620519
0.16787675 0.0029811393 0.30348468 -0.99929333 -0.037309829 -0.0045644124 0.001797314
0.16631241 0.014863427 0.30302349 -0.99627584 -0.086222716 -0.00015573854 0.0011412286
-0.16467439 0.027305366 0.30734211 0.98665518 -0.16281903 0.0012355628 0.00084148254
0.16480204 0.026335714 0.30327153 -0.98855674 -0.15079938 -0.0038889437 0.00042195513
-0.16364655 0.03511259 0.30360359 0.98016751 -0.19817071 -0.00032268601 0.0013148984
0.16341744 0.036852729 0.30334535 -0.97472572 -0.2234017 0.0012329663 0.0022327041
-0.16189668 0.045094226 0.30542898 0.9635703 -0.26744011 0.0028464303 0.002820285
0.16114916 0.046885047 0.30629414 -0.96181214 -0.27343431 0.012295335 0.0017224961
-0.1587498 0.052691184 0.30501363 0.94349474 -0.33138508 0.0012488164 0.0016090219
0.15733308 0.056111928 0.30093989 -0.93527776 -0.35385528 0.006476088 0.00053917873
-0.15267764 0.067350283 0.30402109 0.91719204 -0.39843366 0.0030552789 0.0003396823
0.1531231 0.06627582 0.30541369 -0.9119119 -0.41038525 -0.00076346088 0.00050033565
-0.15077525 0.071942911 0.30732363 0.90370095 -0.42816415 9.3463881e-05 0.0014836995
-0.14831422 0.07788413 0.30627912 0.88887286 -0.45815346 0.00066848606 0.0019235159
0.14844078 0.077580124 0.30553457 -0.8879838 -0.45987457 0.00046702081 0.0017432276
-0.145504 0.083878562 0.30470994 0.85956919 -0.51089293 -0.011367828 0.0022025844
0.14356755 0.08674565 0.30408153 -0.85234511 -0.52297944 -0.00048020677 0.0023799818
-0.13678545 0.095785722 0.30572659 0.81753778 -0.57585627 -0.0046377452 0.00083127094
0.1345282 0.09872815 0.30703193 -0.80291426 -0.59609163 0.0018818821 0.00028632878
0.14106868 0.090204157 0.30882731 -0.82675517 -0.56254357 -0.0045437403 0.0016539323
-0.13060626 0.10383907 0.30937403 0.78732896 -0.61653173 0.0013239903 0.00032272821
-0.12765095 0.10769072 0.30501994 0.76956379 -0.63855666 0.0041256091 0.0011426661
0.12721404 0.10826045 0.30539978 -0.76944917 -0.63870746 -0.00086832239 0.0011693963
-0.12306623 0.11366601 0.3057228 0.73883444 -0.67388523 0.0015407252 0.0019074571
0.12473352 0.11149323 0.30632991 -0.75856405 -0.65156198 -0.0068874271 0.0015226234
-0.11346415 0.12322187 0.30445993 0.67016953 -0.74219799 -0.0038625596 0.00176572
-0.10666431 0.12843959 0.30540809 0.64296788 -0.76589251 -0.0010144159 0.0011097912
0.11438511 0.1225152 0.30564818 -0.67646289 -0.73645496 -0.0056545231 0.002188476
-0.095536865 0.13697802 0.30453315 0.57120365 -0.82080299 0.0029774725 0.00083165255
0.094082259 0.13809419 0.30525085 -0.56595123 -0.82439929 -0.0080587938 0.0011720671
0.10217863 0.13188159 0.30245093 -0.60823673 -0.79375201 -0.0024027927 0.00061629451
-0.090612389 0.14075673 0.30376279 0.54349369 -0.83933532 0.011438955 0.0016405403
-0.08554516 0.14438106 0.30660224 0.52269965 -0.85251236 0.002787038 0.0018010334
-0.076460458 0.14890623 0.3077803 0.44363284 -0.89620829 0.00078108069 0.0015797691
0.078081742 0.14823462 0.30163124 -0.45854104 -0.88866258 0.0043619317 0.0016658088
0.087155953 0.14340895 0.30630249 -0.52282 -0.85243183 -0.0043829214 0.0017925709
-0.06422326 0.15397534 0.30354506 0.38561618 -0.92265749 0.0018051231 0.00059529097
-0.05404726 0.15819061 0.30757582 0.33732849 -0.9413861 -0.0013468096 0.0009373519
0.054554723 0.1579804 0.30400044 -0.34323978 -0.93923056 0.0056903837 0.00084146461
0.062432587 0.15471709 0.30730781 -0.3781803 -0.925731 0.0013500224 0.00033241374
0.071336836 0.15102862 0.30461848 -0.43010864 -0.90277672 0.00088414142 0.00093961065
-0.044232164 0.16205867 0.30561432 0.25589594 -0.96661609 0.013059973 0.002154706
-0.035245609 0.16363133 0.30511272 0.1970544 -0.98036802 -0.006927554 0.0013165585
-0.02491405 0.16499086 0.30068886 0.13989797 -0.99016517 -0.0012279188 0.00020873449
-0.017002467 0.1660319 0.30412233 0.11182278 -0.99372631 -0.0019136209 0.00039151896
-0.0050240862 0.16760813 0.30230454 0.019967742 -0.99980062 -4.316165e-05 0.0022690746
0.0017573334 0.168038 0.30380461 -0.0071483837 -0.99983662 0.016597342 0.002344609
0.016608683 0.16608372 0.30678287 -0.1160308 -0.99324536 0.00065331801 0.00035633714
0.024076119 0.16510111 0.30442911 -0.12603687 -0.99202204 0.0026368229 0.00013647052
0.036019288 0.16352952 0.30512273 -0.21676841 -0.97621852 0.0029688422 0.0017258191
0.043559119 0.16233009 0.30694285 -0.24889615 -0.96847904 0.00995922 0.0021632125
-0.046530463 -0.1613014 0.31538004 0.28547719 0.95833987 -0.009354895 0.0016895902
-0.033983532 -0.16379511 0.31840542 0.19391964 0.98084038 -0.018637789 0.001046345
-0.025409451 -0.16492394 0.31541118 0.15835525 0.98737532 -0.003688118 0.00041685192
-0.015664171 -0.16620697 0.31430435 0.10377509 0.99460042 0.00093644764 0.00046203911
0.014610397 -0.16634569 0.31208009 -0.088064224 0.99610454 -0.0045203338 0.0010156285
0.027669705 -0.16462636 0.31814086 -0.15357576 0.9881115 -0.0070794956 0.00099788897
0.035740666 -0.16356376 0.315853 -0.2181938 0.9759022 -0.0025364948 0.0016436189
0.046697412 -0.16120921 0.31540269 -0.29273874 0.95618719 0.003174305 0.0020319812
-0.072074868 -0.15071997 0.31548378 0.42263371 0.90629023 -0.0043360707 0.0010256014
-0.065464437 -0.15345825 0.31152523 0.40095684 0.91609579 0.0014610055 0.0004672517
-0.05582609 -0.15745081 0.31674284 0.35169089 0.93607718 -0.0085441442 0.00072954898
0.055672556 -0.15751442 0.31480351 -0.33566707 0.94197875 0.0019195739 0.0012055511
0.060881071 -0.15535685 0.31257555 -0.35884291 0.93339801 -0.00012764064 0.0007747006
0.07196863 -0.15076399 0.31870455 -0.43243468 0.90005231 -0.05390846 0.0037084147
-0.091049805 -0.14041814 0.31807798 0.54180318 0.84047914 -0.0066481889 0.0016256956
-0.08744555 -0.14318378 0.31689242 0.52968931 0.84818697 0.0028448661 0.0020018013
-0.078009635 -0.14826156 0.31573513 0.45387149 0.89102179 -0.0089936759 0.0016155351
0.076233424 -0.14899732 0.31674886 -0.44306168 0.89622796 -0.021721536 0.002054234
0.086411402 -0.14388439 0.31483126 -0.51622826 0.85644656 -0.002788895 0.0020088567
-0.10362864 -0.13076603 0.31990823 0.62149078 0.78215235 -0.044573389 0.0052159238
0.095428936 -0.1370579 0.31603056 -0.56454855 0.82534856 -0.0091967862 0.0011217014
0.10143305 -0.13245074 0.31128839 -0.60696334 0.79472971 0.0005400615 8.8764464e-06
-0.110586 -0.12542742 0.31767642 0.64693463 0.76247501 -0.010360572 0.0014684467
-0.10849568 -0.1270314 0.31029546 0.64570254 0.76348644 -0.012516882 0.0012337849
0.10550855 -0.12932351 0.31497818 -0.62570572 0.7800566 0.0020130214 0.00040679707
0.11599521 -0.12127679 0.31299284 -0.68851179 0.72518295 0.0078335516 0.0021108401
-0.12378906 -0.11272153 0.31523785 0.7526539 0.65840405 -0.0040325858 0.0015209414
-0.11864861 -0.11908754 0.31457487 0.71075624 0.70342678 -0.0040447209 0.0023371323
-0.13149083 -0.10268465 0.31824929 0.79958701 0.60034508 -0.015700212 0.00073592068
-0.12794948 -0.1072997 0.31864485 0.76596028 0.64287663 -0.0038231898 0.0013162743
0.12793273 -0.10732184 0.3151437 -0.77509332 0.63183874 0.0031858953 0.00060932763
0.13163164 -0.10250159 0.31878805 -0.79527497 0.60360664 -0.056539819 0.0050453674
-0.13797274 -0.094237447 0.31702903 0.82622129 0.56332111 -0.0052664736 0.0011788983
0.13848542 -0.093570054 0.315292 -0.8237806 0.56686401 -0.0071339551 0.0012795902
-0.14683552 -0.081453748 0.31596109 0.87274498 0.48817334 0.0017553783 0.002368028
0.14478296 -0.084708177 0.3127439 -0.86314315 0.50494492 -0.0038142861 0.0027561551
-0.15056106 -0.072459124 0.31137371 0.89826185 0.43927544 0.012761618 0.0015863487
-0.14829008 -0.077941976 0.3171553 0.87943441 0.47600946 0.003156153 0.0024184852
0.14833136 -0.077843823 0.31925926 -0.88052911 0.47039863 -0.058254953 0.0081419721
0.1544185 -0.063146889 0.31507796 -0.92649013 0.37631699 0.0012658058 0.00037260822
-0.15803939 -0.054404095 0.31696868 0.93951535 0.34235141 -0.010315972 0.0013927488
0.15726143 -0.056282893 0.31608957 -0.93619132 0.35144809 -0.0054811067 0.0008284981
-0.16204192 -0.043219268 0.31496847 0.97098809 0.23890258 -0.010376432 0.0025588502
0.16235675 -0.043617867 0.31473866 -0.96331584 0.2682713 0.0072904574 0.0019261129
-0.16363147 -0.035224847 0.31548256 0.98112577 0.19333681 -0.0036070803 0.0011770482
0.16376735 -0.03419273 0.31050596 -0.98021865 0.1978759 -0.0040584691 0.0016383872
-0.16486849 -0.025829308 0.31694037 0.98801589 0.15370281 -0.014140641 0.00071054406
0.16503498 -0.024564805 0.31655771 -0.98992717 0.14103277 -0.012408782 0.00044460862
-0.16632456 -0.014770295 0.31652278 0.99364197 0.11220639 -0.0092341192 0.00059103558
0.16656679 -0.012930354 0.31553829 -0.99664581 0.081297904 -0.0093724253 0.0013797641
-0.1677072 -0.0042686192 0.31419936 0.99948341 0.031719733 -0.0051772851 0.0022412192
0.16696352 -0.0099170441 0.31598762 -0.99742222 0.071392596 -0.0072105355 0.0016211405
-0.16765881 0.0046367431 0.31398317 0.99848044 -0.055106964 0.00019481558 0.0018796386
0.16785522 0.0031447867 0.31619972 -0.99977493 -0.017416706 -0.01211058 0.0022344536
-0.16594012 0.017691277 0.31301296 0.99292177 -0.11875495 0.0019311523 0.00030561324
0.16612773 0.016266366 0.31457514 -0.99630231 -0.085852019 -0.0033470963 0.0011159902
-0.16522674 0.023109844 0.31144026 0.99194354 -0.12667447 0.0012829049 0.0002798049
0.16475044 0.02672774 0.31511581 -0.98795396 -0.15464945 -0.0055269869 0.0004290342
-0.16321357 0.038401291 0.31574002 0.97460037 -0.2238984 -0.0048571667 0.0020666949
0.16334096 0.037433792 0.31532526 -0.97539645 -0.22045627 -0.00090535375 0.001957539
-0.16164738 0.045696072 0.31533509 0.96328461 -0.26817575 -0.012821348 0.0029520253
0.16134389 0.046428848 0.31333065 -0.95881605 -0.28402367 0.0015078211 0.0021677518
-0.15791798 0.054699343 0.31300563 0.94278675 -0.3333548 -0.0052661477 0.0014390718
0.15885931 0.05242721 0.31294739 -0.94844711 -0.31692716 -0.0022845997 0.0017370126
-0.15368184 0.064925976 0.31359246 0.92404306 -0.38228473 -0.0016845003 0.00020191655
0.15453877 0.062858067 0.31531721 -0.92817152 -0.37215275 0.0001391643 0.00070870505
-0.14984363 0.074191935 0.31165507 0.89777613 -0.44045168 0.00055962551 0.0014754749
-0.14484 0.084871233 0.31647196 0.85059553 -0.52573168 -0.0096611539 0.0019402475
0.14641979 0.082459256 0.31664607 -0.86842775 -0.49553457 -0.016695354 0.0023113347
-0.13710515 0.095369026 0.31585261 0.81935358 -0.57326478 -0.0052075395 0.00093290483
0.13584855 0.097007371 0.31674331 -0.81068742 -0.5852586 -0.01607348 0.0012451281
0.14085412 0.090483777 0.31479132 -0.83045268 -0.55706012 -0.0056915949 0.0015933119
-0.13319705 0.10046248 0.31005433 0.79694784 -0.60404807 -0.00021642674 0.00033893535
-0.12906998 0.10584128 0.3189199 0.78121203 -0.62385082 -0.022756217 0.0016835898
0.12965904 0.10507396 0.31255418 -0.78490126 -0.61961883 -0.001587724 0.00037782756
0.13262311 0.10121098 0.3116042 -0.79215717 -0.61031687 0.00054815144 0.00048174869
-0.12411091 0.11230446 0.31025952 0.74979788 -0.66166264 -0.0023617153 0.001542886
-0.1187491 0.11915849 0.3143746 0.69924581 -0.71471912 0.015227466 0.0024270737
0.12339164 0.11324205 0.3124525 -0.74356359 -0.66857737 -0.010833738 0.002273707
-0.11523578 0.12186246 0.31598991 0.68843371 -0.72519892 0.012066676 0.0024193446
-0.10698943 0.12819013 0.31416699 0.63284451 -0.77427894 -0.0002063531 0.00081206107
0.10766318 0.12767315 0.31628445 -0.63971442 -0.76858026 0.0070557026 0.00098339864
0.11459345 0.12235534 0.31606805 -0.67955148 -0.73362631 -0.0014395429 0.0021039222
-0.096165523 0.13649565 0.31691712 0.57668281 -0.81689698 -0.010788397 0.00095180614
0.094756827 0.13757657 0.31541374 -0.56676191 -0.82382417 -0.0097342273 0.0010937086
0.10183344 0.13214648 0.31555301 -0.61173105 -0.7910592 -0.0032141332 0.00044418639
-0.08265809 0.1461024 0.31733254 0.48395163 -0.87505758 -0.0080700815 0.0019082995
-0.078011923 0.14826356 0.31558067 0.45711407 -0.88940614 -0.0018632993 0.0019869648
0.085894346 0.14404406 0.31309372 -0.51520675 -0.85705251 -0.0047970698 0.0018532641
-0.072812468 0.15041736 0.3127901 0.4272604 -0.90412784 0.0012121104 0.0014359653
-0.067246675 0.15272292 0.31556723 0.40223134 -0.91553771 0.00082781515 0.00054675457
-0.051153794 0.15938918 0.31715664 0.32456598 -0.94574887 -0.014691291 0.0016158529
0.056237072 0.15728353 0.3149116 -0.35328603 -0.93551522 -0.00055672543 0.00069621066
0.065249652 0.15355016 0.31397229 -0.38638622 -0.92233658 0.00095881853 0.00012606772
0.071951717 0.15077391 0.31301159 -0.42374039 -0.90578318 -0.00097903074 0.0011319676
-0.045614336 0.16156209 0.31437978 0.28202799 -0.95934117 -0.011164281 0.0021282684
-0.036631159 0.16344902 0.31683925 0.19326456 -0.98113698 0.0043634558 0.0011130545
-0.029010346 0.16445181 0.31758681 0.17582162 -0.98442006 -0.0019646203 0.00089791918
-0.013902142 0.16643988 0.31373119 0.091356941 -0.99581635 0.0019431409 0.00081384956
-0.007193211 0.1673227 0.3152903 0.062655874 -0.99803442 0.0012409188 0.0017688144
0.0031012963 0.16786115 0.31658781 -0.020114919 -0.99964482 -0.017480899 0.0020398183
0.014578521 0.16635089 0.31420016 -0.095019229 -0.9954645 -0.0046581123 0.00087649754
0.022891261 0.16525702 0.3126657 -0.12462232 -0.99220431 0.00016238457 0.0001472299
0.033427119 0.16387062 0.31562045 -0.1819071 -0.98330611 -0.0043570204 0.00128553
0.043289337 0.16255754 0.31452578 -0.24561158 -0.9693684 4.3726592e-05 0.002724976
-0.047539838 -0.16088328 0.32535332 0.25492084 0.95251077 -0.16654901 0.031352617
-0.025775421 -0.16487575 0.32338685 0.12985538 0.98340899 -0.12666649 0.019244496
-0.015390117 -0.16624305 0.32401711 0.11932008 0.98209155 -0.14580446 0.023929372
-0.0085626105 -0.16714191 0.32883865 0.049221408 0.94393665 -0.32643664 0.056803908
0.0075827329 -0.16727093 0.32701564 -0.015363211 0.96827519 -0.24941367 0.037572756
0.015676845 -0.16620529 0.32501236 -0.085465193 0.98695642 -0.13642851 0.019690074
0.02436717 -0.16506116 0.32790935 -0.10776589 0.94582349 -0.30627495 0.059826449
0.035742097 -0.16356359 0.32442704 -0.21410917 0.9679696 -0.13111858 0.019215092
0.04355865 -0.16230589 0.32436806 -0.2830008 0.94432378 -0.16781844 0.026833694
-0.05744753 -0.15677916 0.32974145 0.35754696 0.88719237 -0.2916331 0.061612207
0.057330344 -0.1568277 0.32185701 -0.35088727 0.92660671 -0.1351966 0.016967796
0.064847864 -0.15371366 0.32436123 -0.37079659 0.90514654 -0.20789333 0.038964573
0.072314285 -0.15062079 0.32174352 -0.43448973 0.8925572 -0.12066606 0.018819673
-0.08517649 -0.14492491 0.32386041 0.50736737 0.85818309 -0.078103781 0.011880578
-0.078885235 -0.14789887 0.32816991 0.45090863 0.86027992 -0.23790728 0.04020109
-0.10297737 -0.13126577 0.32842711 0.56265599 0.78743631 -0.25171885 0.042809352
-0.094319984 -0.13790885 0.32442701 0.55360711 0.82203543 -0.13332996 0.019771779
0.09499535 -0.13739063 0.32440391 -0.56195694 0.82075447 -0.1027928 0.016062463
0.10142195 -0.13245928 0.32871762 -0.61494702 0.75454146 -0.22914481 0.041712802
-0.11487415 -0.12213701 0.32226932 0.69788641 0.71033996 -0.091497131 0.013021129
0.11420706 -0.12264889 0.32669866 -0.65663105 0.72854859 -0.19507064 0.034892451
-0.12497021 -0.11118226 0.32714021 0.7299009 0.65271771 -0.20298876 0.035030428
0.12276468 -0.11405664 0.3259348 -0.72861069 0.64143276 -0.24018832 0.034414299
-0.13276839 -0.10101974 0.32182103 0.80101073 0.59695727 -0.044987988 0.004386133
0.1277644 -0.1075412 0.32765645 -0.79549807 0.54691273 -0.26090094 0.033726446
-0.13647652 -0.096187316 0.32316461 0.80635267 0.58370692 -0.095297053 0.011384346
0.1363897 -0.096301064 0.32531506 -0.79485285 0.5658251 -0.2192052 0.030191924
0.14105442 -0.09022221 0.32006863 -0.84381789 0.53054571 -0.080576688 0.0092194322
-0.14315917 -0.08721903 0.32635123 0.83780223 0.50587267 -0.20537817 0.031722918
0.14603798 -0.083351344 0.32361281 -0.86877006 0.48817429 -0.08321327 0.009151957
-0.1514582 -0.070293136 0.32034001 0.90182966 0.42064959 -0.098778367 0.017528277
-0.14770028 -0.079365954 0.32636145 0.84399188 0.49470773 -0.2072245 0.032185733
0.14971362 -0.074506447 0.32228431 -0.88946104 0.44970468 -0.081392638 0.009788719
0.15109694 -0.071166538 0.32847357 -0.85332912 0.44304168 -0.27485174 0.045153491
-0.15356232 -0.065213144 0.3267419 0.89320183 0.37987739 -0.24059018 0.04424452
0.153914 -0.06436494 0.32107663 -0.9173159 0.39125073 -0.073853582 0.0098725501
-0.15692456 -0.057095658 0.32430199 0.927903 0.3483147 -0.13293901 0.020485295
0.15713538 -0.056587208 0.32511976 -0.92985386 0.35643399 -0.091249831 0.010304732
-0.16220045 -0.043978922 0.32322261 0.95607746 0.27599055 -0.098717809 0.015384491
0.15993728 -0.049822271 0.32579094 -0.94218314 0.28090182 -0.18271598 0.025642985
0.16123386 -0.04669179 0.32077605 -0.95770472 0.28638661 -0.02800761 0.0030422839
-0.1634481 -0.036617406 0.32427323 0.9657461 0.21257833 -0.1488117 0.027307827
0.16362767 -0.035253618 0.32425568 -0.97438884 0.183222 -0.13036919 0.016903624
-0.1652554 -0.022890706 0.32602903 0.96375191 0.1199735 -0.23830371 0.044447254
0.16511965 -0.023921749 0.32667285 -0.96329969 0.15825687 -0.21681444 0.032652333
-0.16650876 -0.013371115 0.32578528 0.96822381 0.11770439 -0.22065426 0.038622767
