# .PCD v0.7 - Point Cloud Data file format
VERSION 0.7
FIELDS x y z normal_x normal_y normal_z curvature
SIZE 4 4 4 4 4 4 4
TYPE F F F F F F F
COUNT 1 1 1 1 1 1 1
WIDTH 564
HEIGHT 1
VIEWPOINT 0 0 0 1 0 0 0
POINTS 564
DATA ascii
0.12668604 -0.054739583 -0.40431872 -0.9207685 0.38978964 0.01579316 0.0053247968
-0.13202314 -0.044884793 -0.40609288 0.93761158 0.34740651 -0.013901056 0.0045446237
-0.12859799 -0.04406343 -0.40684152 0.93499506 0.35465911 0.0010700999 0.0043077762
0.12833481 -0.04469882 -0.40517533 -0.93987393 0.34123081 0.014091833 0.0050157462
0.13221601 -0.044419192 -0.40748924 -0.93625569 0.3511478 0.010976701 0.0051673809
-0.13427432 -0.035841707 -0.40441701 0.96472883 0.26301792 -0.010950363 0.0036524509
0.13277709 -0.036236599 -0.40540969 -0.96397251 0.26586473 0.0085434513 0.0052689728
-0.13563393 -0.029165782 -0.40669498 0.97489125 0.22266139 -0.0029779465 0.0036504427
0.13435774 -0.026485426 -0.40530714 -0.9782837 0.20548682 0.027130224 0.0035434233
-0.13790528 -0.014768726 -0.40545106 0.99197632 0.12641922 -0.0010725486 0.0028956237
0.1362218 -0.012326379 -0.40410647 -0.99347699 0.11227009 0.019971915 0.0045081945
-0.13715208 -0.0052603078 -0.40556714 0.99967867 0.023812547 -0.0086948005 0.0068184482
0.13802287 -0.0043570488 -0.40598106 -0.99925184 0.035240658 0.015930381 0.0086406963
0.14018007 -0.0012973257 -0.40522864 -0.99954122 0.014129777 0.026790053 0.0089948922
-0.14013746 0.0016210317 -0.40441465 0.99986351 -0.01548049 0.0057735415 0.0075463224
-0.13792518 0.0050991052 -0.40443566 0.99914503 -0.040947858 0.0056957426 0.0063677109
0.13813713 0.0053927894 -0.40320516 -0.99571401 -0.09242586 0.0033213154 0.0067507862
0.14021978 0.00099583599 -0.40420574 -0.99990529 -0.0062552006 0.012255449 0.009208872
-0.13648462 0.016041141 -0.4046638 0.98769087 -0.15620066 0.0082482602 0.0034792547
0.13563862 0.014471618 -0.40453228 -0.99267346 -0.12080102 0.0025747644 0.0040045804
-0.13580441 0.025649766 -0.4017309 0.97783589 -0.20799612 0.023970993 0.0032387236
0.13415781 0.024831275 -0.40411451 -0.98053467 -0.19634598 7.6968492e-05 0.0032480683
-0.13423346 0.036579087 -0.4058032 0.96308714 -0.26911044 0.0065375729 0.0045202444
0.13351163 0.034410216 -0.40623498 -0.97122693 -0.23804729 -0.0071955821 0.0048052268
-0.13226035 0.043013517 -0.40539274 0.94937766 -0.31379235 0.014713358 0.0058429674
-0.12834784 0.044667382 -0.40622008 0.94605148 -0.32378477 0.012250061 0.0055644787
0.12763241 0.046394542 -0.40142941 -0.9393459 -0.34295031 -0.0037892933 0.0042496906
0.13157935 0.045956191 -0.40284336 -0.93765485 -0.34753573 -0.004719377 0.0048146374
-0.1267166 0.054059763 -0.406838 0.91562647 -0.40199843 -0.0050402475 0.0045743673
0.12444253 0.056368206 -0.40375778 -0.91280216 -0.40839046 -0.0030953656 0.0044318382
-0.1232899 0.062332571 -0.4060083 0.8903994 -0.45466736 0.021597821 0.0064500887
-0.11887779 0.067530081 -0.40683597 0.87784499 -0.4789176 0.0051116878 0.0077870199
0.11905138 0.066904657 -0.40724981 -0.88284147 -0.4694818 -0.013332663 0.0063010785
0.12246557 0.064322628 -0.40328044 -0.88536072 -0.46485299 -0.0069336346 0.0065641478
-0.12100526 0.070882007 -0.40700313 0.86984038 -0.49328467 0.0069232201 0.007391145
-0.11487719 0.073153764 -0.40708917 0.83156884 -0.55533129 -0.010020046 0.0052163866
-0.10993117 0.079599552 -0.40585315 0.80048364 -0.5993526 -0.0015807487 0.0052962243
0.11639933 0.076068178 -0.4058325 -0.82385057 -0.56678307 -0.0052204751 0.006388017
0.12053962 0.07148882 -0.40782183 -0.87468535 -0.48459581 -0.0096185887 0.0072857211
-0.11044402 0.084645674 -0.40568638 0.79202276 -0.61047024 -0.0050950702 0.0051366631
-0.1070917 0.084728643 -0.40517846 0.79120821 -0.61154455 0.0016743486 0.0054016691
0.10636032 0.085681789 -0.4051522 -0.77403361 -0.63306314 0.010152101 0.0054553412
0.11271562 0.081685267 -0.40494335 -0.80620325 -0.59159809 -0.00692036 0.0064545223
-0.10231317 0.092384778 -0.40407166 0.73876274 -0.67396563 0.00025423808 0.0061353706
-0.095568836 0.09844242 -0.40461659 0.69904625 -0.71506143 -0.0046399962 0.0053175553
0.09661784 0.09637519 -0.40618405 -0.70481092 -0.70939517 -0.0001281548 0.003644495
0.10398579 0.093062192 -0.40638563 -0.73803514 -0.67471749 0.0077691684 0.0035087422
-0.091774367 0.10205073 -0.40553889 0.6872313 -0.72643858 -0.00025100244 0.0051186453
-0.08440768 0.10749458 -0.40557626 0.62347943 -0.78181934 -0.0056595854 0.0055614356
-0.079915404 0.1096888 -0.40468484 0.60361636 -0.79713637 -0.014864125 0.0057819393
0.087673493 0.1037358 -0.40343428 -0.65139949 -0.75873196 0.0021312006 0.0057521858
0.091692455 0.10211357 -0.40416667 -0.67469078 -0.73804462 -0.0090857139 0.0051925085
-0.081810243 0.11261972 -0.40827474 0.61305487 -0.79002315 -0.0052127829 0.0054750112
-0.073246121 0.11626796 -0.40212002 0.53712088 -0.84335053 -0.016157025 0.0067571127
0.067139111 0.11889254 -0.40460968 -0.49174687 -0.87072027 -0.0055883131 0.006651415
0.075285509 0.11587236 -0.40601134 -0.56033528 -0.82822067 -0.0086606853 0.006707611
0.083497122 0.11132533 -0.4083333 -0.61249882 -0.79042518 -0.0085482607 0.0041249003
-0.071162954 0.12078966 -0.40328333 0.49794894 -0.86705256 -0.016333463 0.0076898625
-0.062639147 0.12090367 -0.40542936 0.42870376 -0.90287858 -0.031989623 0.0075261397
-0.054880474 0.12573116 -0.40483555 0.40686902 -0.91345602 -0.0074562053 0.0047109914
-0.044868883 0.12826435 -0.40344 0.35147205 -0.93615693 -0.0088105574 0.0043862211
0.054198887 0.12523648 -0.40430915 -0.38958833 -0.92063123 -0.025673624 0.005266774
0.067309573 0.12273449 -0.4028402 -0.47623265 -0.87922728 -0.01272231 0.0061332099
0.07113184 0.12081354 -0.40187362 -0.50265455 -0.86448413 -0.0023488377 0.0062217815
-0.046617974 0.13130523 -0.4037106 0.3514747 -0.93615538 -0.0088663697 0.0043935571
-0.035433322 0.13295528 -0.40525201 0.25351182 -0.9672429 -0.013147439 0.0052377172
-0.024373405 0.13433503 -0.40416536 0.19414802 -0.98097229 -7.2848859e-05 0.0039432379
-0.013545542 0.13681318 -0.40332052 0.11299236 -0.99354678 0.0098808315 0.0041697421
-0.0059275338 0.13781612 -0.40511909 0.058008272 -0.99800569 0.024892759 0.0071618203
0.0049738027 0.13688904 -0.40618867 -0.025278183 -0.99945229 0.021356113 0.006551424
0.016980555 0.13548377 -0.40452221 -0.14923424 -0.98877412 0.0074065002 0.0023621686
0.025056317 0.13504712 -0.40556875 -0.17406368 -0.98472583 0.0041124253 0.0027106523
0.03721112 0.13356502 -0.40666884 -0.25470471 -0.96701807 -0.0012169982 0.0050176689
0.044428729 0.13221204 -0.40861914 -0.30806348 -0.95128256 -0.012583266 0.0043712077
-0.001656916 -0.14013274 -0.39010477 0.021239547 0.99977106 0.0026020082 0.0064405175
-0.045028284 -0.13133615 -0.39490655 0.31892353 0.94776762 -0.0049273819 0.0043419674
-0.034753006 -0.13398492 -0.39178675 0.23116542 0.97290432 0.0044355397 0.0042835139
-0.023894148 -0.13369638 -0.39595547 0.19271195 0.98124784 0.003831205 0.0030652699
-0.016681287 -0.13581555 -0.39391258 0.14529698 0.98929507 -0.013565697 0.0025263256
-0.0052307621 -0.13825873 -0.39301801 0.045377105 0.99896979 -0.00059842144 0.0068317018
0.0067689102 -0.13829015 -0.39570615 -0.066103384 0.99780774 -0.0031701769 0.0061166072
0.016078537 -0.13522658 -0.39610165 -0.13216059 0.99122483 0.0026215203 0.0033283494
0.024101749 -0.13542344 -0.39428279 -0.19721331 0.98030496 0.0104445 0.003168795
0.035253286 -0.1328205 -0.39475769 -0.23803359 0.97117907 0.012300703 0.0042039147
0.046849191 -0.13120946 -0.39717525 -0.33873606 0.94065899 0.020458391 0.0047714906
-0.07041344 -0.12136481 -0.39987394 0.49006087 0.87168413 -0.0026638536 0.0083854785
-0.065138601 -0.12363376 -0.39585346 0.44439274 0.89570063 -0.015344042 0.0074352063
-0.053597018 -0.12548582 -0.39414176 0.3928515 0.91959733 -0.0029000994 0.0050805719
-0.046340026 -0.127655 -0.39492425 0.33708069 0.94142032 -0.010219307 0.0044586295
0.047548935 -0.12715426 -0.39676368 -0.34924906 0.93692732 0.013868634 0.0049115685
0.053640921 -0.12538394 -0.39534488 -0.39853787 0.91695106 0.019193836 0.0049127173
0.063718125 -0.12328079 -0.39459544 -0.45861465 0.88815254 0.029286114 0.0058683543
-0.073704131 -0.1144549 -0.39743432 0.57090575 0.82096696 -0.0089341812 0.006137697
-0.066052534 -0.11948982 -0.39649338 0.46534613 0.88507813 -0.0094733015 0.0087967776
0.067606777 -0.11872596 -0.39514473 -0.49103102 0.87106413 0.011657838 0.0067977761
0.076119997 -0.11454996 -0.39489567 -0.56271482 0.8264935 0.01614086 0.0062095118
0.082911558 -0.11177466 -0.39398998 -0.60794663 0.79392207 0.0094127385 0.0042307493
-0.094090566 -0.10231973 -0.39539057 0.68583524 0.72764987 0.012477516 0.00686112
-0.089094877 -0.10264515 -0.39822191 0.65218019 0.75804383 0.0055292347 0.0052990168
0.07999967 -0.10962415 -0.3994664 -0.60556483 0.7957598 -0.0075905398 0.0044953227
0.086280271 -0.1059011 -0.39556897 -0.63610971 0.77157968 -0.0054153516 0.0043992521
0.09306398 -0.1025228 -0.39649761 -0.67246652 0.74012059 0.0032117006 0.0040517501
-0.10319617 -0.094091244 -0.39585316 0.73315287 0.68004334 0.0052849152 0.0052243508
-0.097566925 -0.098147184 -0.39585641 0.70140928 0.71269149 0.0097896447 0.0049738097
0.098597199 -0.094223417 -0.39520875 -0.72900212 0.68451023 0.0012724628 0.0047013895
0.10202885 -0.093707733 -0.39436039 -0.73684824 0.67605776 -0.00080112903 0.0048441556
-0.11138018 -0.083425649 -0.39487156 0.78781921 0.61572367 0.015007512 0.0053917416
-0.10613481 -0.085363433 -0.39565977 0.779109 0.62688369 0.0024583649 0.0053162631
0.10546188 -0.086693935 -0.39534849 -0.77595174 0.63077474 -0.0047015483 0.0042348509
0.11188929 -0.082762167 -0.39536443 -0.78888673 0.61453485 0.0021511423 0.0041068639
-0.11554452 -0.075458817 -0.39500815 0.83910215 0.54388016 0.010098011 0.0049279123
-0.10989174 -0.079650968 -0.39921153 0.8056851 0.59208244 0.017604724 0.0051302309
0.1143951 -0.074924923 -0.39471716 -0.82617557 0.56336474 0.0073588453 0.0050492231
0.12001334 -0.072174683 -0.39688167 -0.85594064 0.51690632 0.013176445 0.0067552202
-0.12323228 -0.066107847 -0.39666209 0.8747738 0.4843353 0.013792335 0.0055540758
-0.11885992 -0.067379579 -0.39617074 0.86838257 0.49558473 0.017534172 0.0060902857
0.11806931 -0.068844482 -0.39842606 -0.8703934 0.49221629 0.011767359 0.0071148803
0.12345485 -0.065570489 -0.39056489 -0.88799435 0.45983404 0.0043167304 0.0065681343
-0.12600519 -0.054218888 -0.3970544 0.91544735 0.40243673 0.00095979962 0.0043813544
0.12630962 -0.054482933 -0.39562848 -0.91730499 0.39794877 0.013719756 0.0051697427
-0.13198578 -0.042702407 -0.39907134 0.94866002 0.31614456 -0.0098401131 0.0044927932
-0.12870295 -0.046840206 -0.39315152 0.93772972 0.34658355 -0.023298277 0.0045603728
0.12916936 -0.04268403 -0.39581752 -0.94121516 0.33777374 0.0047827773 0.0060703205
0.13200602 -0.044926118 -0.39413056 -0.93784773 0.34667978 0.015964078 0.0049328255
-0.13464718 -0.03489485 -0.39559102 0.96725434 0.25251547 -0.02559101 0.0041119568
0.13414648 -0.036824897 -0.39334813 -0.96501333 0.26056993 0.029197905 0.0053974986
-0.13572764 -0.021791052 -0.39557356 0.98370498 0.17943539 -0.011292662 0.002615825
0.1363228 -0.025265848 -0.39340955 -0.98043031 0.19662574 0.0097350692 0.0030724944
-0.13716203 -0.015337762 -0.39534667 0.99048805 0.13403296 -0.031122377 0.0024682365
0.13723615 -0.012998049 -0.39589229 -0.99573809 0.0913729 0.012515679 0.0053973189
-0.14012834 -0.0016903039 -0.397677 0.99991697 0.011049738 -0.0066355467 0.0049338611
-0.13906515 -0.0097660795 -0.39204556 0.9956156 0.092072196 -0.016502259 0.0047550458
0.13789414 -0.00533487 -0.39542419 -0.99791998 0.056819268 0.030449385 0.0067228386
0.14003067 -0.0024322977 -0.39480188 -0.999632 -0.0078147883 0.025976909 0.0085161356
-0.13956527 0.0059671598 -0.39523247 0.99929684 -0.037391767 0.0027563204 0.005170133
0.13701624 0.0053402483 -0.39620772 -0.99658692 -0.082220413 0.0073635248 0.0053317011
0.14024922 0.00077207247 -0.39350942 -0.99917221 -0.038300075 0.013708873 0.0076300176
-0.13678731 0.014953574 -0.39410666 0.99139875 -0.13087523 -0.00025219057 0.0026448949
0.13656363 0.015441052 -0.39589524 -0.99227291 -0.12365215 0.010223385 0.0039502904
-0.13582702 0.025478112 -0.39321008 0.97760457 -0.20917025 0.023173727 0.0035759937
0.13444497 0.025822792 -0.39358777 -0.97915184 -0.20309994 0.0034828901 0.0032732354
-0.13237022 0.035257183 -0.39534801 0.96403378 -0.26462334 0.024764879 0.0043838155
0.1326528 0.035811517 -0.39637581 -0.96492845 -0.26240662 -0.0074732257 0.0048415666
-0.13341245 0.041530695 -0.39430106 0.954355 -0.29793808 0.020963961 0.0047977115
-0.12785293 0.045862138 -0.39555565 0.92902583 -0.36987016 0.010345465 0.004091586
0.12719151 0.047458977 -0.39492339 -0.93608552 -0.35172176 -0.005960206 0.0048107379
0.13034537 0.048935257 -0.39001328 -0.93571579 -0.3525866 0.010895438 0.0045561427
-0.1260784 0.056639411 -0.39590493 0.90881276 -0.41719902 -0.00206865 0.0050009466
0.12656556 0.05546331 -0.39429539 -0.91906321 -0.39392039 -0.012224072 0.0040386072
-0.12366889 0.062781155 -0.39653069 0.89897895 -0.43799081 0.00089934788 0.0048468024
-0.11768217 0.069498233 -0.39091796 0.86470175 -0.50228566 -0.00020098446 0.0063763782
0.11938949 0.0662947 -0.39815006 -0.88054448 -0.47388074 -0.0088550616 0.0069170459
0.12357931 0.061633836 -0.39297512 -0.89928168 -0.43715027 -0.013861092 0.0059339153
-0.1157364 0.075605601 -0.39211166 0.82814735 -0.5605098 -0.00087999192 0.0055368594
0.11685167 0.074866436 -0.39535034 -0.84648144 -0.53227389 -0.01239954 0.0072297063
0.1203285 0.071763955 -0.39062718 -0.87327421 -0.48693848 -0.016825603 0.0071286755
-0.11317533 0.081086174 -0.39568782 0.80501151 -0.59319353 0.0088306591 0.0051098331
-0.10488492 0.088080786 -0.39478397 0.76572561 -0.64292568 0.017629383 0.0060319672
0.10748632 0.08421433 -0.39329985 -0.79040849 -0.61250782 0.0094161602 0.0058376789
0.11329515 0.080929987 -0.39611828 -0.80975884 -0.5866856 -0.009515563 0.0055849613
-0.10081882 0.091474995 -0.3905924 0.74316591 -0.66865075 0.024708569 0.0051544481
-0.096922204 0.096287817 -0.39532501 0.71281195 -0.70083541 0.026999323 0.004409147
0.098073386 0.094638258 -0.39521351 -0.72252417 -0.69117826 -0.015212633 0.0049756556
0.10333714 0.093907543 -0.39528918 -0.72702283 -0.68651581 -0.011570896 0.004597235
-0.093901493 0.10334177 -0.39258799 0.67276323 -0.73962271 0.018654304 0.0051895659
-0.083678499 0.10680127 -0.39180374 0.62258691 -0.78220206 0.02335809 0.0058714366
0.079550199 0.10996903 -0.39829886 -0.60458446 -0.79651701 -0.0061947284 0.0048637963
0.088474728 0.10750588 -0.39745274 -0.63184893 -0.7750504 -0.007986214 0.0052358289
-0.076336227 0.11462764 -0.39478612 0.57093966 -0.82097173 -0.0057762777 0.0067134285
-0.069933504 0.11734819 -0.39158031 0.48249975 -0.8758896 0.0033691167 0.0068345573
0.067857064 0.11866722 -0.39501008 -0.49478018 -0.86875695 -0.021308113 0.0070129246
0.075047024 0.11422168 -0.39518973 -0.53763813 -0.84311187 -0.010371013 0.0056793736
0.08266452 0.11196421 -0.39735252 -0.60655755 -0.7949698 -0.010535677 0.0047357879
-0.070013285 0.12161458 -0.39663649 0.47210759 -0.88149703 -0.0087981215 0.0078203939
-0.064214446 0.12213385 -0.39346039 0.45514506 -0.89038593 0.0074804681 0.0072443387
-0.055697482 0.12603822 -0.39633009 0.38741875 -0.92188644 -0.0056691859 0.0041633165
-0.048014741 0.12696131 -0.39314437 0.35592544 -0.93451405 -0.00069734332 0.0040898146
0.045197386 0.12812829 -0.3934823 -0.34449518 -0.93876767 -0.0061867605 0.004734986
0.054371957 0.12715209 -0.39453715 -0.39061093 -0.91991043 -0.034466177 0.0048143868
0.064245313 0.12274864 -0.39336431 -0.45308566 -0.89138174 -0.012329351 0.0055462075
-0.035316456 0.13380747 -0.39298534 0.24753857 -0.9688589 0.0060965414 0.0038787983
-0.023991998 0.13578875 -0.39534715 0.20720243 -0.97829503 0.0024480666 0.0032422426
-0.015224314 0.13634154 -0.39482358 0.14310604 -0.9896763 -0.0078409724 0.0038120016
-0.0068621077 0.13886267 -0.39506662 0.057703834 -0.99833035 -0.0026057865 0.0063390033
0.0065009347 0.13774063 -0.39684978 -0.077524632 -0.99695647 0.0082273642 0.0058018179
0.01580324 0.13616507 -0.39507458 -0.14567317 -0.98930502 0.0074067414 0.0022636834
0.027237378 0.1344258 -0.39536914 -0.20293528 -0.97918707 -0.0031392963 0.0038811881
0.034245197 0.13290852 -0.39516354 -0.22476195 -0.97440338 -0.0044829124 0.0047475719
0.048033245 0.13071902 -0.39855921 -0.34232992 -0.93951285 -0.011218349 0.0041198842
0.00041912898 0.1402957 -0.39915821 -0.0084477076 -0.99989873 0.01145413 0.0063203801
0.0019418547 -0.14009523 -0.38195565 -0.007231392 0.99990606 0.011644565 0.0069628838
-0.04670234 -0.1312703 -0.38423359 0.34040034 0.94026661 0.0051291306 0.0048330575
-0.036584277 -0.13222833 -0.38493645 0.25127265 0.96790928 -0.003706282 0.0043857251
-0.024450844 -0.13479267 -0.38220322 0.20050661 0.97967714 0.005462484 0.0039476231
-0.015251107 -0.13600384 -0.38551319 0.12630107 0.99196255 0.0076354169 0.0032460971
-0.006624172 -0.1371396 -0.385398 0.072984599 0.99723601 -0.013916023 0.0058555966
0.0069742375 -0.13662568 -0.38269216 -0.054830812 0.9984951 0.001016652 0.0061226799
0.014953726 -0.13662779 -0.38578141 -0.13755636 0.99049127 0.0023216815 0.0028457001
0.024243459 -0.13575563 -0.38577679 -0.20269704 0.97922838 -0.0050669583 0.0026307988
0.03424491 -0.13438362 -0.38481125 -0.23056212 0.97301835 0.0087429155 0.0037654997
0.046623755 -0.13130285 -0.38473222 -0.33893618 0.94079667 0.0048737442 0.0046443106
-0.070584342 -0.12123366 -0.38582331 0.49524328 0.86871654 -0.0081044417 0.0080092428
-0.065681301 -0.12257221 -0.38641435 0.45150402 0.89220548 -0.010656545 0.0073155588
-0.055095829 -0.12704054 -0.38488194 0.38886783 0.9212929 -0.0011680978 0.0049779695
-0.044863418 -0.12826663 -0.38227373 0.3414306 0.93985695 0.0097011756 0.0043429555
0.047483712 -0.12718126 -0.3836576 -0.35872155 0.93335241 0.013120788 0.0050942842
0.055963546 -0.12649283 -0.38387799 -0.39676207 0.91790861 0.0048543587 0.0055829231
0.068708584 -0.12215502 -0.38104895 -0.48388329 0.87501854 0.01412263 0.0073815943
-0.082341582 -0.11221202 -0.3889457 0.60385251 0.7970742 -0.0059098559 0.0046598674
-0.07528653 -0.11488499 -0.38468453 0.55783159 0.82994807 0.0032036642 0.0068430146
-0.066777825 -0.11909205 -0.38709825 0.4765701 0.87905401 -0.01204243 0.0079113664
0.068063661 -0.11865678 -0.38365149 -0.48812497 0.8725428 0.02007735 0.007197211
0.07502953 -0.1160688 -0.38407546 -0.54770118 0.83660477 -0.010763276 0.0058954651
0.084378526 -0.110649 -0.38099906 -0.61715949 0.78683591 0.0018813653 0.0036247268
-0.094335124 -0.10300903 -0.38381779 0.67478079 0.73794097 0.010678551 0.0053088935
-0.085947238 -0.10631324 -0.38642064 0.61311448 0.78996056 -0.0072712083 0.004385801
0.087410256 -0.10613026 -0.38449803 -0.6366815 0.77098173 0.014961344 0.0039572087
0.092330523 -0.1030856 -0.38648105 -0.66919905 0.74301827 -0.0098239705 0.0057937624
-0.10318528 -0.092962541 -0.38577348 0.74134874 0.67103922 0.010414126 0.0057508014
-0.094376743 -0.098592259 -0.38513806 0.68398422 0.72916949 0.021853372 0.006095516
0.095635891 -0.09722282 -0.38408664 -0.70378882 0.71036571 -0.0078599099 0.0043003685
0.10309184 -0.092322402 -0.381917 -0.75132656 0.65992099 -0.0035446961 0.0043118983
-0.11374833 -0.080339424 -0.38419706 0.80780977 0.58944201 0.0012860373 0.0049884771
-0.10797834 -0.085409962 -0.38325518 0.7905677 0.61225867 0.01191874 0.0050737103
0.10753942 -0.083430864 -0.38523537 -0.78416491 0.62054199 0.0036008016 0.0039824676
0.11316559 -0.081098832 -0.38381651 -0.80656636 0.59110707 -0.0065632826 0.0049731378
-0.12092302 -0.070989184 -0.38735849 0.86694497 0.49822772 0.013252363 0.0062924759
-0.11453985 -0.074863307 -0.3865194 0.83204371 0.55470783 0.0015727883 0.0056557069
0.11601676 -0.075954519 -0.38534003 -0.81717002 0.57639664 -0.00024851918 0.0052709812
-0.12239089 -0.068139166 -0.38450935 0.88848388 0.45877662 0.010976884 0.0058020852
-0.11942041 -0.066220082 -0.38320124 0.88852251 0.45858788 0.014998675 0.0054289903
0.11835039 -0.068335757 -0.38711321 -0.8758623 0.48232964 -0.014943676 0.0066246544
0.12355221 -0.06533543 -0.38512251 -0.88535422 0.46474487 -0.012648445 0.007056742
-0.12603854 -0.057060346 -0.38592929 0.91264248 0.40873235 0.0046343799 0.0044450904
0.12548548 -0.054607838 -0.38376257 -0.91538519 0.40241298 -0.011567659 0.0044625057
-0.13312168 -0.0422327 -0.38423863 0.95639497 0.29179338 -0.012861105 0.0049803853
-0.12983426 -0.041078821 -0.38141593 0.95446271 0.29832831 -0.0010559793 0.0055309921
0.12885655 -0.043439195 -0.38755941 -0.94208264 0.33537671 -0.0016714946 0.006160141
0.13241693 -0.043934088 -0.38497496 -0.94599652 0.32416105 0.0031924809 0.0055490388
-0.13216992 -0.037193023 -0.38752592 0.96555507 0.26003492 -0.0092371618 0.0037610284
0.13398096 -0.034101415 -0.38542828 -0.96837395 0.24923818 0.011497079 0.0063778493
-0.1349078 -0.024686864 -0.38462746 0.98134637 0.19144796 -0.017522858 0.0029809419
0.13554648 -0.024055483 -0.3851549 -0.98211777 0.18750936 0.016881784 0.0030865557
-0.13626419 -0.015050376 -0.38635612 0.99010926 0.13924094 -0.017192611 0.0034460521
0.13628009 -0.015691055 -0.38501787 -0.9892444 0.14625388 -0.002314074 0.004829925
-0.13710676 -0.0046527083 -0.3840276 0.99956095 0.02962086 0.00070795818 0.0060433499
0.13818815 -0.0031015358 -0.38357425 -0.99964118 0.025048386 -0.009487737 0.0065883966
0.14016441 -0.001416472 -0.38802469 -0.99997473 -0.0052705221 0.0047767553 0.0077284337
-0.14034387 5.3185155e-05 -0.387052 0.99992931 0.004228103 -0.01111327 0.0056574433
-0.13805704 0.0067626312 -0.38486519 0.99867737 -0.051414859 -0.00013054474 0.0050485581
0.13832282 0.0054103262 -0.38351423 -0.99798197 -0.063282631 -0.0052167247 0.0067981463
0.14016958 0.001377132 -0.38376281 -0.99957573 -0.02862728 -0.0053643188 0.0074299974
-0.13692027 0.01273207 -0.38506886 0.99521792 -0.097323164 0.0083369901 0.003979262
0.13672687 0.014201142 -0.3848097 -0.99266529 -0.12028961 0.012083765 0.0044690152
-0.13666111 0.024219036 -0.38373718 0.98169959 -0.19031687 -0.0067401179 0.0043910369
0.1348701 0.026824176 -0.38486928 -0.97851717 -0.20569168 0.013964852 0.0031445527
-0.13293181 0.035491113 -0.38556632 0.96765035 -0.25202134 0.011750094 0.0051287464
0.13496262 0.032043859 -0.38297614 -0.97556931 -0.21882121 0.019538062 0.0040459582
-0.13169412 0.045679145 -0.38285381 0.92941588 -0.36857685 0.018362321 0.0043196664
-0.12864077 0.043960162 -0.38491249 0.93200946 -0.36234894 0.0078483345 0.0046714055
0.12835787 0.044643108 -0.38410148 -0.94546098 -0.32559633 0.0095186941 0.0038539274
0.13254511 0.043624625 -0.38592601 -0.94858438 -0.31650478 0.0035147278 0.0049246717
-0.12686186 0.053936362 -0.3851929 0.91461962 -0.40413678 0.012015493 0.004360714
0.12579937 0.055365078 -0.38484511 -0.91735947 -0.39805433 -0.0021180566 0.0052067759
-0.1214082 0.064451255 -0.38337788 0.88415104 -0.46710834 0.009313629 0.0061008064
-0.11899325 0.067205474 -0.38620338 0.8761152 -0.48208049 0.004527078 0.0055175405
0.1221511 0.062657721 -0.38320088 -0.88498616 -0.46558383 0.0055881999 0.0063938461
-0.11604118 0.075922698 -0.38600016 0.82324511 -0.56757522 0.011222513 0.0054392577
0.10985059 0.079704545 -0.38027954 -0.80847389 -0.58852655 0.0025336819 0.0051228264
0.11520636 0.075264543 -0.38514352 -0.8317818 -0.55502307 -0.0094082588 0.0058019836
-0.11038446 0.084723294 -0.38370925 0.7991513 -0.60104913 0.0098562166 0.0046379818
-0.10564969 0.085179284 -0.38359219 0.79288727 -0.60900611 0.021008881 0.0053495448
0.1072565 0.085942462 -0.38457575 -0.78468484 -0.61988664 0.003206037 0.0051563587
0.11169323 0.083017677 -0.38686931 -0.79826176 -0.60230368 -0.0028962905 0.0056314752
-0.10406402 0.092960238 -0.38952291 0.75226283 -0.65843606 0.023719173 0.0057552373
-0.097229846 0.095850624 -0.38670921 0.71591979 -0.69773477 0.025004329 0.0051172273
0.099090017 0.096585244 -0.38232407 -0.7287786 -0.6845333 0.01719971 0.0059531853
0.10337416 0.092226587 -0.38511381 -0.73991847 -0.67266738 -0.0062617431 0.0048205764
-0.09184438 0.10404328 -0.38427353 0.66209745 -0.74918991 0.018477019 0.0056440886
-0.086463377 0.1068568 -0.38662559 0.63654506 -0.77109694 0.01482603 0.0060010254
0.085735716 0.10814597 -0.38834897 -0.61141151 -0.79113764 -0.016648116 0.0041391039
0.094330192 0.1015512 -0.38609815 -0.699404 -0.71470058 -0.0060929996 0.0061399499
-0.083314024 0.11146583 -0.38444293 0.61015797 -0.79219222 0.011778427 0.0051218737
-0.074716046 0.11618406 -0.38660091 0.52381277 -0.85172975 0.013292155 0.0061089261
-0.066520125 0.11929613 -0.3879036 0.47198448 -0.88157111 0.0079353554 0.0069729779
0.067872621 0.11847191 -0.3834354 -0.47186089 -0.88099194 -0.034649931 0.005231936
0.074257404 0.11549195 -0.38539413 -0.54430884 -0.83863103 -0.020634701 0.0049213702
0.083514974 0.11131163 -0.3882432 -0.60600609 -0.79517651 -0.021236802 0.0043921815
-0.070659444 0.12117603 -0.38697875 0.49013644 -0.8715257 0.014460917 0.0065056048
-0.064032048 0.12158184 -0.38247883 0.46045288 -0.88746572 0.019691108 0.0065726
-0.054345146 0.12684941 -0.38632858 0.38739923 -0.92190093 0.0045336951 0.0044834809
-0.042882059 0.12908734 -0.38654292 0.31527838 -0.94889635 0.013977663 0.0048539764
0.045386031 0.12805015 -0.38402092 -0.35493797 -0.93485254 -0.0083475951 0.0046866746
0.05536693 0.12626928 -0.38494277 -0.39779532 -0.9173789 -0.013222269 0.0046612509
0.063181259 0.12350316 -0.38364771 -0.45495898 -0.89043915 -0.011424224 0.0051167477
-0.044118486 0.13234055 -0.38467515 0.31117758 -0.95033997 0.004736674 0.0044808472
-0.034581192 0.13343766 -0.38489735 0.24711397 -0.96894848 0.0085759182 0.0038470547
-0.025472203 0.13599488 -0.38531333 0.2024855 -0.97926658 0.0060507925 0.0028178818
-0.014752124 0.1356017 -0.38591117 0.12844586 -0.99171454 -0.0020202985 0.0045153135
-0.0041035255 0.13730438 -0.387398 0.042810142 -0.99907446 -0.0042086761 0.0059341132
0.0066431174 0.13697003 -0.38619789 -0.078509204 -0.99683022 0.012879397 0.0054693455
0.013980818 0.13640499 -0.38348192 -0.12358092 -0.99225283 0.012736587 0.0041393065
0.026388632 0.13560082 -0.38573381 -0.19809639 -0.98012602 -0.010532516 0.002933973
0.035720129 0.13363878 -0.38398594 -0.24848317 -0.96863306 -0.0024894718 0.0049275281
0.042822488 0.13287738 -0.38532701 -0.29697603 -0.95487326 -0.0047277356 0.0055651623
-0.00077302899 0.1402491 -0.38544852 0.00058556773 -0.99999797 0.0019521205 0.0061369706
0.002251691 0.14005443 -0.38095775 -0.03860778 -0.99903685 0.020853925 0.0054617659
-0.00062381325 -0.14026874 -0.37108803 0.0028904867 0.99999225 0.0026653376 0.0073574437
-0.043900784 -0.13243075 -0.37628525 0.3228083 0.94622475 0.021300465 0.0054998803
-0.034594461 -0.13381772 -0.37436914 0.22723822 0.97369182 0.016941652 0.0061628325
-0.026453355 -0.1358657 -0.37508559 0.20448224 0.97875017 0.015332517 0.0045284745
-0.014268374 -0.13636714 -0.37532896 0.11204084 0.99362111 0.012801355 0.0042685093
-0.0055663162 -0.13610928 -0.37611294 0.070516162 0.99685878 0.036056209 0.0056120316
0.0049906359 -0.13758859 -0.37455618 -0.041141376 0.99906456 0.0133224 0.0075840936
0.014390498 -0.13635106 -0.37633404 -0.1169644 0.99310917 0.0073115048 0.0049643894
0.027281722 -0.13475415 -0.37459573 -0.20849448 0.97798848 -0.0082745031 0.0031009517
0.038996637 -0.13195185 -0.37405622 -0.26840773 0.963274 -0.0077759414 0.0038934429
0.045116112 -0.13117427 -0.37274843 -0.34127077 0.93994486 -0.006163836 0.0043948977
-0.064983346 -0.1230705 -0.37429881 0.46578091 0.88487715 0.006370259 0.0078313574
-0.053786397 -0.12607676 -0.37498623 0.3922458 0.91981369 0.009271618 0.005206787
-0.045073051 -0.1281798 -0.3750166 0.34564269 0.93836194 0.0028137695 0.0043209456
0.046565194 -0.12756173 -0.37246525 -0.33838964 0.94094855 -0.010409809 0.0044859909
0.055114508 -0.12778586 -0.37550309 -0.37833652 0.92566621 -0.0018761205 0.004839554
0.065996297 -0.12327849 -0.37514591 -0.46752548 0.8839696 -0.0041943411 0.0080868891
0.071093395 -0.12084306 -0.37454563 -0.50527453 0.86295575 0.0022365842 0.0074162073
-0.082934305 -0.1117572 -0.37499923 0.60720074 0.79454613 -0.0018995282 0.0042362241
-0.074866325 -0.11502474 -0.37583387 0.55866492 0.82937294 -0.0058240211 0.0068210009
-0.066689089 -0.11912432 -0.37642622 0.47095126 0.88209474 -0.010667006 0.0072886902
0.068019331 -0.11867513 -0.3799063 -0.49292198 0.87002027 0.0096252766 0.0075566382
0.077141866 -0.11444795 -0.37404585 -0.58191884 0.8131246 0.014101759 0.0044149705
-0.092021152 -0.1036884 -0.37717092 0.64830416 0.76137978 0.0016009111 0.0052107037
-0.085702643 -0.10587452 -0.37552595 0.62072247 0.78403014 0.00057561271 0.0047556311
0.085134722 -0.1056839 -0.37493029 -0.62613827 0.77968037 -0.0070305299 0.0038757168
0.093972862 -0.10182538 -0.37552652 -0.6964438 0.71757394 0.0073261331 0.0042127911
-0.10252601 -0.094964623 -0.37704533 0.73039186 0.68302506 0.002169329 0.0051404987
-0.097726606 -0.096734419 -0.37504333 0.70583063 0.70836014 0.0053854031 0.0053303274
0.097535029 -0.097831734 -0.37496403 -0.71407074 0.70007354 1.8222021e-05 0.0039746384
0.10231865 -0.093602143 -0.376394 -0.73278791 0.68045235 0.0025492718 0.0039543882
-0.11065434 -0.084371589 -0.37722445 0.79468149 0.60676301 0.017891875 0.0045816833
-0.10872653 -0.086883947 -0.37703592 0.78541046 0.6188606 0.011914741 0.0056316541
0.10736801 -0.086368591 -0.37347779 -0.77093107 0.63689917 0.0049630064 0.0049360362
0.11318855 -0.081068918 -0.37325388 -0.80512023 0.59309894 0.003880667 0.004836713
-0.11720556 -0.072976634 -0.37152672 0.85273427 0.52227622 0.0084665641 0.0059825829
0.10968252 -0.0799236 -0.37975377 -0.79670644 0.60434568 0.0050184843 0.0042147487
0.11590771 -0.074668013 -0.3748478 -0.82910252 0.55909288 -0.0020643487 0.0051637753
-0.12259579 -0.064614318 -0.37415287 0.89822119 0.43936661 0.012472236 0.0050307824
-0.11814319 -0.068897471 -0.37847236 0.87414974 0.48558736 0.0081914552 0.0063805459
0.11845225 -0.068196371 -0.37662682 -0.87345749 0.48683348 -0.0080767348 0.0070665479
0.12366308 -0.064158715 -0.3753736 -0.88297552 0.46939161 -0.0050753509 0.0060076145
-0.12565863 -0.056841187 -0.37525737 0.91499275 0.4034484 0.0042075589 0.0047291438
0.1264129 -0.055831861 -0.37559053 -0.90828174 0.41833419 -0.004568221 0.0049981312
-0.1319339 -0.045100294 -0.37224102 0.94070709 0.339082 0.0096668126 0.0048842696
-0.1277326 -0.046152666 -0.37307626 0.934618 0.35564026 -0.0030383097 0.004793474
0.12853977 -0.044203978 -0.37595171 -0.93725449 0.34857249 -0.0071587786 0.0052263243
0.13173102 -0.045590028 -0.37687796 -0.93485671 0.35502264 -0.0013926039 0.0049936022
-0.13243836 -0.035724804 -0.37393087 0.97061002 0.24052408 0.0080246897 0.0047984486
0.13325627 -0.035065923 -0.37425587 -0.96661514 0.25619474 -0.0044195959 0.0064253695
-0.13451605 -0.026552089 -0.37711966 0.98100728 0.19396994 -0.00061111018 0.0038131948
0.13651408 -0.029143235 -0.37958217 -0.97727478 0.21197614 -0.00034091307 0.0043127043
-0.1364506 -0.016299628 -0.37578303 0.98864233 0.15028538 -0.00074500078 0.0030295041
0.13763072 -0.011777858 -0.37555417 -0.99617302 0.085207231 -0.019467216 0.0056957239
-0.13772888 -0.0065901554 -0.37533891 0.99820536 0.059492674 -0.0068205013 0.0063201129
0.13756976 -0.0051335255 -0.37445852 -0.99874175 0.048382953 -0.01319161 0.006934375
0.14021501 -0.0010320379 -0.37417287 -0.999919 0.0042869807 -0.011981205 0.0070122238
-0.13763075 0.0073355311 -0.37299219 0.99803185 -0.062707767 0.00043067645 0.0053999503
0.13699237 0.0055216099 -0.37474591 -0.9970361 -0.076482676 -0.0083340751 0.0051126797
0.14001256 0.0025697865 -0.37035009 -0.99903256 -0.041769292 -0.013758694 0.0068526897
-0.13719036 0.015122671 -0.37301695 0.99110776 -0.13281715 -0.0080634281 0.0024753842
0.13714913 0.017656811 -0.37577862 -0.98739213 -0.15829229 0.00061257539 0.0033408685
-0.13588101 0.023291254 -0.37558076 0.98425645 -0.17662305 -0.0065970253 0.0045127082
0.13583916 0.025385937 -0.37430561 -0.98071051 -0.19542384 0.0040571219 0.0027872194
-0.13393359 0.036408652 -0.37523666 0.96488136 -0.26202768 0.018586498 0.0057222345
0.13341157 0.035355218 -0.3744725 -0.96588999 -0.25843337 0.016390439 0.0043813302
-0.13165954 0.045762647 -0.37439534 0.93396562 -0.35684499 0.019234456 0.0054977085
-0.12799767 0.045512751 -0.37530512 0.9342078 -0.35657945 0.010336938 0.0056627505
0.12961684 0.041603714 -0.37340957 -0.94907963 -0.31490344 -0.0091491379 0.0043612602
0.13161694 0.042835314 -0.37667617 -0.94606459 -0.32397002 0.0022839741 0.0043255216
-0.12509136 0.055559356 -0.3746163 0.90847689 -0.41760847 0.016522059 0.0044522923
0.12613951 0.054543927 -0.37517819 -0.91823345 -0.39603868 -0.00074553385 0.0041615497
-0.12146775 0.063095436 -0.37615791 0.88844448 -0.45862773 0.0180849 0.0059823417
-0.11861632 0.068161309 -0.37460628 0.87801754 -0.47817513 0.020825978 0.0063422685
0.11899548 0.067245908 -0.37450969 -0.88385421 -0.46775335 0.0029245557 0.0062266686
0.12337518 0.065762833 -0.37407306 -0.88646495 -0.46278998 -0.0022873895 0.0064382572
-0.1213527 0.070429221 -0.37977323 0.87661451 -0.48105559 0.011511263 0.0063501764
-0.11421448 0.075446047 -0.3749007 0.82730848 -0.56125695 0.023479603 0.0055527026
0.10978912 0.079784654 -0.37638304 -0.80426031 -0.59418064 0.010707779 0.0047203144
0.11529073 0.074692823 -0.37421924 -0.83663034 -0.54772007 0.0072312769 0.0051609441
-0.11294452 0.081386954 -0.37815267 0.81438583 -0.58007729 0.016914256 0.0054259854
-0.10690825 0.085988164 -0.37423578 0.79901844 -0.60103029 0.018225333 0.0044160788
0.10728057 0.083768152 -0.37413606 -0.7887795 -0.61467493 -0.0013002565 0.0044671916
0.11304599 0.081254721 -0.37687588 -0.81542504 -0.57880789 0.0079670912 0.0051959157
-0.10297218 0.094383173 -0.37271568 0.73331994 -0.67984128 0.0075925076 0.0043875789
-0.098492786 0.097353898 -0.37534901 0.71513176 -0.69887877 0.012452019 0.0046466934
0.098795034 0.094112426 -0.37700635 -0.73205656 -0.68122739 -0.0047341925 0.0059588263
0.10223097 0.094396688 -0.37673628 -0.74510819 -0.66694319 -0.00068742951 0.0057597002
-0.094307736 0.10303006 -0.37405473 0.68028712 -0.73263764 0.021248316 0.0041995849
-0.085471362 0.10761801 -0.37453815 0.61791807 -0.78598893 0.019966107 0.0056470502
0.083260708 0.10821807 -0.3741152 -0.59142703 -0.80623031 0.014379017 0.0037876717
0.093827091 0.10266805 -0.37526265 -0.69160867 -0.72220612 0.0097823432 0.0067198016
-0.084760159 0.11035617 -0.3738749 0.609936 -0.79235423 0.012362308 0.005700706
-0.075196907 0.11495375 -0.3750203 0.55395871 -0.83254111 -0.0022541566 0.0050404784
-0.066816092 0.11912186 -0.37525555 0.47157291 -0.88178635 0.0084766196 0.0068498431
0.067903608 0.11850309 -0.37546507 -0.47738081 -0.8784458 -0.020987624 0.0048720841
0.07513503 0.11774179 -0.3737298 -0.53671271 -0.84370929 -0.0097001772 0.0028271419
-0.0706072 0.12121612 -0.37610161 0.49271038 -0.87016743 0.0067120027 0.0063837087
-0.063654847 0.12236565 -0.37326264 0.43671957 -0.89957267 0.0067180917 0.0054660738
-0.055929113 0.12556577 -0.37435335 0.3887226 -0.92134792 0.0035668076 0.0047516967
-0.044598028 0.12837656 -0.37171805 0.33421317 -0.94249582 -0.0017851134 0.0039295238
0.044366486 0.12847248 -0.37490571 -0.34801301 -0.9374631 -0.0070683998 0.0046061222
0.057145365 0.12619157 -0.37279993 -0.41410908 -0.91021764 -0.0042038611 0.0048043923
0.061437845 0.1226564 -0.37474287 -0.43652612 -0.8992095 -0.029447665 0.0054721339
-0.034583125 0.13343875 -0.37695307 0.24486841 -0.96953219 0.0068437709 0.0037199813
-0.027045332 0.1350359 -0.37359652 0.21120547 -0.97743809 0.002670398 0.0031404705
-0.016579114 0.13621886 -0.37635905 0.16278991 -0.98665774 -0.0024293028 0.00359788
-0.0077343602 0.13757825 -0.37281939 0.070853785 -0.99748415 -0.0022689365 0.0054740799
0.0057854932 0.13725001 -0.37625742 -0.075698696 -0.99709874 0.0079877265 0.0063214186
0.015318277 0.13716461 -0.37609553 -0.14820693 -0.98895526 -0.0014707727 0.0026167801
0.026636178 0.13567455 -0.37609962 -0.20571651 -0.97850221 0.014631069 0.0031747718
0.035012376 0.13269679 -0.37474972 -0.24102852 -0.97046924 -0.0097304424 0.0046610152
0.0435922 0.13180548 -0.37599382 -0.33711177 -0.94142926 -0.00816043 0.0051124166
0.0012927718 0.14018068 -0.37705731 0.00050151563 -0.99999136 -0.0041242316 0.0061586341
-0.00090115983 -0.14023224 -0.36484972 0.015337997 0.99980259 0.012631056 0.0076841619
-0.043833673 -0.13170548 -0.36492631 0.3342495 0.94242102 0.010945897 0.0055427989
-0.036228951 -0.13286254 -0.36406127 0.24987002 0.96824664 0.0079641324 0.0058027911
-0.026277397 -0.13618962 -0.36266962 0.20249498 0.97919917 0.012835819 0.0049490859
-0.014671244 -0.13578779 -0.36532938 0.1238617 0.99223846 0.011004359 0.0036516672
-0.0086550536 -0.13570264 -0.36501437 0.08469557 0.99637192 0.0083365934 0.0053247642
0.0053935703 -0.13730162 -0.3637757 -0.061823547 0.99808413 0.0024524184 0.0070496541
0.013136881 -0.13745178 -0.36761856 -0.086799443 0.99622548 -0.00075876946 0.0054932958
0.025342254 -0.13482152 -0.36426041 -0.20770849 0.97817814 -0.0049769464 0.0028557053
0.035033144 -0.13397983 -0.3622936 -0.24532335 0.96943492 0.0035290411 0.0053382181
0.048536733 -0.13051046 -0.36622423 -0.34134057 0.93993348 -0.0034211332 0.005429355
-0.070846461 -0.12103254 -0.36641601 0.49272853 0.87015098 0.0074734013 0.0086526098
-0.064480573 -0.12296498 -0.36401117 0.46074671 0.88752341 -0.0038437638 0.007560893
-0.054426715 -0.12597889 -0.36484674 0.39897737 0.91687393 0.012620351 0.0051535754
-0.04637916 -0.12763879 -0.36746681 0.35467294 0.93488705 0.013907328 0.0041051446
0.04681408 -0.12745863 -0.36430383 -0.33596131 0.94180393 -0.011638412 0.0052432627
0.056609742 -0.12434249 -0.36500341 -0.41020882 0.91186869 -0.014971497 0.0072768433
0.065362602 -0.12165828 -0.363392 -0.46553186 0.88503021 0.0012676065 0.0082378602
0.071077786 -0.12085504 -0.36561745 -0.49968338 0.86616188 -0.0089507913 0.0077804551
-0.081260696 -0.11304141 -0.36378261 0.59501052 0.80371797 5.8907568e-05 0.0049853143
-0.074069887 -0.11417423 -0.36182618 0.56356341 0.82602245 -0.009124334 0.0063783401
-0.0675724 -0.11862431 -0.36217558 0.48064542 0.87688744 -0.0069501689 0.0081991246
0.067809865 -0.11858913 -0.36025846 -0.47880015 0.87789655 -0.0069320747 0.0079027256
0.077036433 -0.11502998 -0.3654255 -0.58379245 0.81189543 -0.0035108167 0.0049791266
-0.096493468 -0.10135289 -0.36195523 0.67044067 0.74196321 -0.0001771805 0.0050936667
-0.085882261 -0.1062065 -0.36577576 0.62583524 0.77994061 -0.0047870446 0.005319756
0.087219 -0.10627701 -0.36369529 -0.64378625 0.76518399 0.0057200738 0.0034702586
0.091892287 -0.10378728 -0.36725464 -0.67064893 0.74174923 -0.006171606 0.0041397023
-0.10261277 -0.093218856 -0.36460635 0.72862983 0.6847629 -0.014083454 0.0049560559
-0.096701026 -0.096075073 -0.365944 0.68677711 0.72672677 -0.014330103 0.00541675
0.098321877 -0.096497484 -0.36493656 -0.71550256 0.6985423 0.0097316466 0.0041232449
0.10104278 -0.094040371 -0.36910748 -0.72918594 0.68431556 2.9543089e-05 0.0039945263
-0.11199238 -0.082627818 -0.3653661 0.79739314 0.6034162 -0.0072899605 0.004999124
-0.10418456 -0.087088704 -0.36518168 0.76890278 0.63935125 -0.0043042637 0.006827855
0.10674357 -0.086039498 -0.36473697 -0.7838378 0.62095094 0.004262358 0.0042310273
0.11260313 -0.081831858 -0.3600907 -0.8121196 0.58348 -0.0036033788 0.004666212
-0.1213389 -0.070447184 -0.36073875 0.87447703 0.48506615 0.00081222958 0.0067066737
-0.11477493 -0.076144286 -0.36369631 0.82736921 0.56165415 0.0021856092 0.0061146948
0.10974144 -0.079846814 -0.36615855 -0.80035055 0.59951913 0.0039793341 0.0044001527
0.11487107 -0.075447537 -0.36509389 -0.82950056 0.55849683 0.0031665163 0.0044651059
0.12010876 -0.07205034 -0.36979854 -0.86151314 0.50772363 -0.0034502989 0.0064844643
-0.12210731 -0.06427855 -0.36295784 0.88605207 0.46358377 0.001392334 0.0068083121
-0.11927577 -0.066569284 -0.365583 0.88062781 0.47379619 0.0034258689 0.0069848062
0.11920276 -0.066745497 -0.36616376 -0.87709057 0.4802627 -0.0077365846 0.0066768057
0.12366384 -0.062793322 -0.36518204 -0.88442153 0.46641952 -0.015855925 0.0058248714
-0.12694243 -0.0535146 -0.36445826 0.92610049 0.37727702 -0.00016016845 0.0046049338
0.12576236 -0.055454448 -0.36555341 -0.90512669 0.42496264 -0.012346885 0.0051797437
-0.13219196 -0.044477269 -0.3633537 0.94303137 0.33250675 0.011451723 0.0048184884
-0.12804224 -0.045405153 -0.36646661 0.936764 0.34969151 0.013750956 0.0046576774
0.12714516 -0.047570866 -0.36315823 -0.93536216 0.35357544 -0.0090599889 0.0055100471
0.13217044 -0.044529196 -0.36373079 -0.93902701 0.34383798 -0.0019001403 0.0062920111
-0.13423553 -0.035208143 -0.36366114 0.96493042 0.26238507 0.0079564853 0.0058846157
0.13505486 -0.034041755 -0.36656684 -0.96875471 0.24688347 -0.023723418 0.0056125456
-0.13536631 -0.024535641 -0.36573136 0.98041618 0.19654927 0.012352409 0.0040829028
0.13392086 -0.025996467 -0.36420727 -0.97889203 0.20407665 -0.01109887 0.0040453882
-0.13567594 -0.014188327 -0.36505669 0.99389821 0.10992038 0.0091575775 0.0040178527
0.13600996 -0.01298376 -0.36420313 -0.99416518 0.10661075 -0.016422596 0.0049175736
-0.14011151 -0.0018182744 -0.36010692 0.99999595 -0.0021577876 -0.0018423965 0.0065501332
-0.13796718 -0.0047801007 -0.36241663 0.99813479 0.060228027 0.0099765724 0.0048419279
0.13830251 -0.0066749672 -0.36504352 -0.99750715 0.066211253 -0.02440517 0.0068695066
0.14015563 -0.0014831554 -0.36817923 -0.99969506 0.0092215706 -0.02290684 0.007388277
-0.14014392 0.001572041 -0.36672372 0.99993277 -0.010605997 0.0046869894 0.0063617341
-0.13712876 0.0054375315 -0.36391306 0.99911731 -0.041947369 0.0022425745 0.0065616164
0.13732488 0.0063273935 -0.36544681 -0.99666023 -0.077257439 -0.026452338 0.0050948602
-0.13655397 0.0155145 -0.36458758 0.99471295 -0.10256941 0.0050599086 0.0044463496
0.13600172 0.015267197 -0.36274275 -0.99271309 -0.12017458 -0.0088736303 0.0039668255
-0.13698916 0.025534675 -0.36523974 0.98087162 -0.19453581 0.0068377866 0.0044012517
0.13494937 0.026222035 -0.36456883 -0.97923118 -0.20256783 -0.0085141519 0.0032444738
-0.13385037 0.03672266 -0.36769316 0.96589828 -0.25887394 0.0049896198 0.0054739225
0.13298959 0.037054218 -0.3649185 -0.96256763 -0.26983732 -0.025523733 0.0040497305
-0.13274324 0.043146312 -0.36644137 0.94597441 -0.32421726 0.0039577461 0.0065974034
-0.12699571 0.047931645 -0.36830303 0.92990482 -0.36763325 0.011082872 0.0051481826
0.12845156 0.044416942 -0.36019164 -0.94242769 -0.33414957 -0.013196064 0.0040777125
0.13234434 0.044109367 -0.3642444 -0.94959003 -0.31274748 -0.021626789 0.0041118772
-0.12754764 0.055689644 -0.36546656 0.90932918 -0.41572151 0.017207542 0.0056660534
0.12579063 0.056035515 -0.3643586 -0.91652435 -0.3997542 -0.013407021 0.0043444438
-0.12209056 0.064319 -0.36646467 0.8839283 -0.46736735 0.015442207 0.005497972
-0.11899458 0.066913277 -0.36597151 0.87370455 -0.48634076 0.010635413 0.0058672852
0.12257993 0.065410115 -0.36423558 -0.88745707 -0.46072957 0.012178791 0.0070714913
-0.120286 0.071819372 -0.36252424 0.8552649 -0.51790482 0.017219394 0.005382536
-0.11389451 0.076577365 -0.3659161 0.82668871 -0.56259316 0.0086437697 0.0053554578
0.11439352 0.075212717 -0.36327204 -0.83076543 -0.55655283 0.0088166362 0.0053310022
0.12062217 0.071381241 -0.36910796 -0.87001824 -0.49301767 0.0013826248 0.006623561
-0.11130299 0.083526239 -0.3652038 0.80512369 -0.59296733 0.012868095 0.0048434804
-0.10459728 0.08845564 -0.36416149 0.76392043 -0.64531028 0.00046145488 0.0048836856
0.10533608 0.086730868 -0.36652762 -0.78413218 -0.62059391 0.00016347168 0.004632439
0.11326161 0.080973715 -0.36566982 -0.80951351 -0.58708817 0.0039276453 0.005436935
-0.10282772 0.093755059 -0.36517629 0.73804098 -0.67475563 0.00062342815 0.003898832
-0.097858578 0.09709499 -0.36690521 0.71259183 -0.70157713 -0.0015818052 0.0046449243
0.098167159 0.098526604 -0.3616955 -0.70669931 -0.70735788 0.014863519 0.0059323679
0.10356994 0.093604155 -0.3652724 -0.73385078 -0.67910773 0.01660577 0.0056204214
-0.092853025 0.10414629 -0.36965412 0.66867983 -0.74353313 0.0050831041 0.0053966027
-0.086938545 0.10649219 -0.36164212 0.61798865 -0.78614962 -0.007666362 0.004114307
0.079539917 0.10997692 -0.36041772 -0.56895435 -0.82236272 -0.0032385061 0.0035031307
0.086785555 0.10660958 -0.36712638 -0.60913283 -0.7930007 0.010351452 0.0053294757
0.09300933 0.10256473 -0.36463556 -0.67953348 -0.7336328 0.0041497271 0.0047874963
-0.084509104 0.11054881 -0.36319375 0.61304647 -0.78992862 -0.013664803 0.0041951891
-0.079222634 0.11460526 -0.36410868 0.56801558 -0.82299572 0.006030099 0.0050779744
-0.067506343 0.11872061 -0.36390081 0.4715293 -0.88184631 -0.0026853071 0.0055535357
0.06639421 0.11934827 -0.36292052 -0.47540891 -0.87973708 -0.0069984053 0.0044283192
0.075835519 0.11391562 -0.36374515 -0.55007672 -0.83508372 -0.0071215411 0.0028851917
-0.065361939 0.12291367 -0.36522236 0.46150145 -0.88705474 -0.012259879 0.0059141377
-0.054159224 0.12742849 -0.3658987 0.37066895 -0.92875963 -0.0031936525 0.0042737881
-0.045680769 0.12792806 -0.36414886 0.33593079 -0.94180715 -0.012234763 0.0035539521
0.046246786 0.12769362 -0.36734 -0.36287916 -0.93181348 0.0065128133 0.0047846264
0.055932805 0.12607768 -0.36411151 -0.42093197 -0.9070785 -0.0049767471 0.0048956098
0.064642914 0.12233291 -0.36450654 -0.47186315 -0.88167107 0.0011044034 0.0047460049
-0.044079948 0.13235651 -0.36535367 0.32337359 -0.94623411 -0.0083970157 0.0037194779
-0.036146343 0.13248143 -0.36458993 0.27243677 -0.96181065 -0.026429864 0.0030668015
-0.024295498 0.13574879 -0.36581656 0.19795565 -0.98020905 -0.0019479807 0.0028602912
-0.015969573 0.13707885 -0.36615595 0.14450869 -0.98949385 0.0043773032 0.0025337962
-0.0047911191 0.13708852 -0.36427379 0.05152427 -0.99848318 0.019407146 0.0057110866
0.0091060698 0.13739765 -0.36521751 -0.0952546 -0.99543768 0.0055078375 0.0057244981
0.014081757 0.13548946 -0.36493102 -0.13817754 -0.99035567 0.010132275 0.002937637
0.025258297 0.13562204 -0.3636395 -0.20415865 -0.97881919 0.015239693 0.003385165
0.035254594 0.1317843 -0.36406568 -0.24956405 -0.96831918 0.0087053264 0.0045619966
0.044831574 0.13141762 -0.3657676 -0.35433856 -0.93510562 0.0046654879 0.0046717864
0.0018417585 0.14010841 -0.36001524 -0.022562396 -0.99974525 0.00058035675 0.0060730949
-0.00077898049 -0.14024831 -0.35466594 -0.013111645 0.99982733 0.013172443 0.0073956703
0.00095781562 -0.14022477 -0.35331592 -0.012854298 0.99984157 0.012311346 0.0078240633
-0.042039301 -0.13194667 -0.35310221 0.30698019 0.95150858 0.019864239 0.0056419978
-0.036262475 -0.13450646 -0.35291657 0.25911781 0.96568936 0.017380238 0.0061283745
-0.025653983 -0.13609627 -0.3544969 0.20172405 0.97942066 0.0065174089 0.0048708925
-0.01344424 -0.13647564 -0.35575086 0.10281688 0.99450523 0.019697594 0.0047598518
-0.0063396422 -0.13688466 -0.35444665 0.069990709 0.99754596 0.0018195324 0.0064804885
0.005844289 -0.13802199 -0.35379744 -0.049262032 0.99875033 0.0084255198 0.0080623422
0.016181653 -0.13621549 -0.35519102 -0.14622758 0.98917574 0.012200352 0.005020041
0.02411887 -0.13454399 -0.35737032 -0.20298742 0.97918051 0.0012300805 0.0031967186
0.032164976 -0.13397686 -0.3550356 -0.23986529 0.97080165 0.0029484536 0.0049148723
0.043877758 -0.1305576 -0.35263282 -0.31689781 0.94839209 0.01132247 0.004983332
-0.072080344 -0.12008574 -0.35734007 0.50219923 0.86464536 -0.013576541 0.0086703328
-0.062295802 -0.12481128 -0.35322857 0.4319919 0.90187645 -0.0013672617 0.0061212177
-0.054458987 -0.12512876 -0.35647097 0.42224404 0.90648174 -0.00089490484 0.0058846013
-0.047352966 -0.12723543 -0.3574957 0.35737285 0.93395931 0.0021964868 0.0035374495
0.044844795 -0.12827434 -0.3530364 -0.32403091 0.94602472 0.0064232536 0.0052860198
0.056582496 -0.12512396 -0.35434067 -0.40797499 0.91283077 -0.017217845 0.0054777986
0.063971326 -0.12411726 -0.35344407 -0.44079116 0.89736676 -0.02088083 0.0070083598
0.070240945 -0.12147288 -0.35404393 -0.47963426 0.87735844 -0.013898741 0.0082672127
-0.082531318 -0.11206643 -0.35615638 0.6034435 0.79735619 0.008892931 0.0047867163
-0.077069074 -0.11406533 -0.35513899 0.56407189 0.82566923 0.0096583404 0.0056886082
-0.067214735 -0.11900842 -0.35150105 0.47323996 0.88093352 0.00033985515 0.0062991735
0.06676729 -0.11919375 -0.35602647 -0.47391206 0.8805536 -0.0057189879 0.0083971517
0.075693592 -0.11457264 -0.35454604 -0.5755257 0.81764227 -0.015207788 0.0066382047
