# .PCD v0.7 - Point Cloud Data file format
VERSION 0.7
FIELDS x y z normal_x normal_y normal_z curvature
SIZE 4 4 4 4 4 4 4
TYPE F F F F F F F
COUNT 1 1 1 1 1 1 1
WIDTH 577
HEIGHT 1
VIEWPOINT 0 0 0 1 0 0 0
POINTS 577
DATA ascii
-0.029293496 -0.059866149 0.34242839 0.44374016 0.8937124 -0.066127062 0.0067651686
0.029034901 -0.059851721 0.34460455 -0.44461536 0.89430571 -0.050343171 0.0072327536
0.034815632 -0.056854457 0.34435177 -0.54937857 0.83403444 -0.05069159 0.0049490253
0.04341463 -0.050495803 0.34299183 -0.64157224 0.76394463 -0.06909246 0.0036139432
-0.052499469 -0.040820137 0.34279415 0.79244381 0.60709381 -0.058906641 0.0060324394
-0.046418596 -0.047661975 0.34590688 0.6983276 0.71217334 -0.071747161 0.0077495142
0.047782786 -0.04646682 0.34595186 -0.70827341 0.70441365 -0.046370756 0.0067426525
0.051016081 -0.042681452 0.34364232 -0.7491079 0.66066617 -0.04855356 0.0061506117
-0.056599353 -0.034640502 0.34592614 0.85516143 0.51651138 -0.043761436 0.0036945245
0.057632349 -0.033620328 0.34699088 -0.87334669 0.48484653 -0.046790157 0.0056671714
-0.061276074 -0.025505742 0.34527504 0.92106688 0.38778394 -0.035487726 0.0071306336
-0.059592262 -0.029453222 0.34614724 0.89132172 0.45170608 -0.038822841 0.0062525012
0.061848029 -0.024282595 0.34410581 -0.92722195 0.37063912 -0.053722326 0.0077933185
-0.065006785 -0.015023817 0.34387031 0.97056353 0.23667307 -0.044635486 0.0066462797
0.064803906 -0.015588204 0.34426489 -0.97105545 0.23503867 -0.042522244 0.0067613716
-0.066530973 -0.0031270836 0.34532112 0.99714011 0.061869908 -0.043402914 0.0069107898
0.065993145 -0.0069536185 0.3459751 -0.99102414 0.12047842 -0.057931527 0.0055259671
-0.066491492 0.0039268541 0.34405661 0.99828148 -0.034508836 -0.047362804 0.0054095332
0.066304922 0.0046635084 0.34577757 -0.99746633 -0.049445439 -0.051147036 0.0062022684
-0.064977661 0.014407459 0.34663185 0.97878969 -0.19926234 -0.047594178 0.0053593921
0.06490624 0.015329632 0.34567064 -0.97280806 -0.22526282 -0.053862154 0.0062217824
-0.06202963 0.023578443 0.34607601 0.92645907 -0.37288564 -0.051282603 0.0058617238
0.061498065 0.024613535 0.34791717 -0.9150511 -0.4007833 -0.045323353 0.0051913746
-0.056559369 0.035057042 0.34367007 0.82520604 -0.56161356 -0.06021034 0.0053671487
0.05710198 0.034091767 0.34663433 -0.85688227 -0.51409239 -0.038234457 0.0040430659
-0.051613923 0.041777384 0.3451156 0.78877032 -0.6120528 -0.056857999 0.0044206432
-0.046974342 0.047202799 0.34556133 0.72054511 -0.69165367 -0.049296003 0.0077079008
0.045965008 0.048165221 0.34498814 -0.69144905 -0.7209484 -0.046169724 0.0080358097
0.051152647 0.042279795 0.34628066 -0.74646491 -0.6638996 -0.045026582 0.0065895687
-0.042699095 0.051020853 0.34335983 0.63347125 -0.77128863 -0.061870858 0.0043617953
-0.036050405 0.055908211 0.34475425 0.55342811 -0.83116889 -0.053625058 0.0055509922
0.029020905 0.059824865 0.34518808 -0.44954509 -0.89202309 -0.046945468 0.0063693556
0.036229122 0.055933859 0.34380153 -0.55561817 -0.82939619 -0.058228258 0.0058532604
0.042959068 0.050782084 0.34396374 -0.63769001 -0.76871639 -0.049259227 0.0043119714
-0.023272222 0.062274218 0.34396756 0.35733426 -0.93196666 -0.06124023 0.007292266
-0.014586352 0.065075114 0.34430641 0.24599916 -0.968261 -0.044216156 0.004261754
-0.004539018 0.066139296 0.34927443 0.031596847 -0.99821383 -0.050702903 0.0069149402
0.0046531735 0.066385433 0.34425646 -0.076754726 -0.99577063 -0.050492141 0.0074232756
0.016257362 0.064709745 0.34378648 -0.25513816 -0.96540099 -0.053902905 0.0054155048
0.024493156 0.061748523 0.34432516 -0.37209013 -0.92678273 -0.051212553 0.0069241412
-0.02385886 -0.06153335 0.35288253 0.36633071 0.92878789 -0.056166999 0.006568375
-0.014548719 -0.064466558 0.35491928 0.20393214 0.97724992 -0.058260623 0.005995783
-0.0031696069 -0.06603498 0.35474378 0.064060941 0.99615711 -0.059726235 0.0074695474
0.0040873699 -0.065901138 0.35499361 -0.070824564 0.99618286 -0.051025081 0.0072149769
0.014949774 -0.064226091 0.35628885 -0.21327218 0.9762997 -0.036795933 0.0049705431
0.023650952 -0.061464719 0.35565349 -0.36625403 0.92866164 -0.058699749 0.0083766114
-0.035455044 -0.055781689 0.35487184 0.54697496 0.83497614 -0.060276728 0.0050911112
-0.029020533 -0.059310466 0.35440189 0.45198086 0.88987482 -0.061936326 0.0061387769
0.029245773 -0.0591111 0.35630119 -0.45176637 0.89085609 -0.047774676 0.0071282261
0.036515679 -0.05493873 0.35477135 -0.58245355 0.81071979 -0.059002146 0.0057660667
-0.05143505 -0.041366294 0.35271624 0.75945371 0.64722896 -0.065762691 0.0047225934
-0.046531383 -0.046878282 0.35515273 0.7010901 0.70973766 -0.068885423 0.0079496959
0.047117598 -0.046289653 0.3554619 -0.70201737 0.70953137 -0.061130188 0.0081561748
0.051281568 -0.041429337 0.35433254 -0.76215029 0.64528173 -0.052331038 0.0056164972
-0.054707408 -0.036659691 0.35687301 0.82748795 0.55891722 -0.053620484 0.0068111508
0.056516632 -0.033888575 0.35646018 -0.86618131 0.49834463 -0.037183627 0.0067513385
-0.061030727 -0.024462622 0.35740384 0.92306751 0.38240615 -0.04137557 0.0070413407
-0.059254937 -0.028704898 0.35773659 0.90332967 0.42636785 -0.046968222 0.0055693309
0.059429213 -0.028513482 0.35603616 -0.90056396 0.43294311 -0.039303776 0.0041819145
0.062416524 -0.02152653 0.35436687 -0.94052863 0.33678359 -0.04452784 0.0077154357
-0.064377084 -0.014687084 0.35746402 0.97546166 0.21288083 -0.056180812 0.0058159013
0.064806655 -0.012253037 0.35501581 -0.98608685 0.158006 -0.051641271 0.0071116756
-0.065737307 -0.0053969473 0.35482886 0.99382186 0.095704712 -0.056201983 0.0070617828
0.065453954 -0.0080100354 0.35366288 -0.98902684 0.13677691 -0.0558386 0.0060030078
-0.065665752 0.0046317722 0.35813898 0.99713051 -0.05276382 -0.054284539 0.007141388
0.06577643 0.0039542266 0.3577261 -0.99658203 -0.058965843 -0.057856653 0.0059022098
-0.064447731 0.015271774 0.35303041 0.97174203 -0.2297997 -0.053939406 0.0042898697
0.064157486 0.015693814 0.35532951 -0.97588074 -0.20931965 -0.061983436 0.0085962955
-0.061303847 0.023904536 0.35665244 0.92774016 -0.37279272 -0.017990133 0.0079837078
-0.059205595 0.028578077 0.35956016 0.88276619 -0.46753395 -0.046214946 0.0068881125
0.059966728 0.027086478 0.35699487 -0.90579128 -0.42121351 -0.046058234 0.0052047702
0.061755553 0.022918807 0.35587543 -0.9181779 -0.39372978 -0.043888651 0.0044886121
-0.055250354 0.035928644 0.3562949 0.82993209 -0.55593801 -0.046321347 0.0058321673
0.054625779 0.036791526 0.35762998 -0.82183826 -0.56770617 -0.04787166 0.0061103189
-0.050743859 0.0418307 0.35786387 0.76290286 -0.64316159 -0.06574551 0.0056413938
-0.045988783 0.047381658 0.35704455 0.70586985 -0.70564848 -0.061709072 0.0070839841
0.047990251 0.045587558 0.35437274 -0.71502155 -0.69539797 -0.071873449 0.0078109177
0.051152296 0.041199885 0.3590264 -0.7791363 -0.62411666 -0.058523033 0.0066094832
-0.042587273 0.050554067 0.3518559 0.64287102 -0.76303536 -0.067036726 0.0060169417
-0.037145633 0.054545127 0.35469207 0.56920582 -0.82001102 -0.059888504 0.0068356101
-0.028208725 0.059364632 0.35945177 0.447032 -0.89326268 -0.047373015 0.0068817898
0.027838698 0.059986383 0.35106379 -0.43624145 -0.89862698 -0.046508141 0.0065610306
0.035704091 0.055721384 0.35305548 -0.55394351 -0.83018214 -0.062802456 0.0048631914
0.041541733 0.051064406 0.35634428 -0.614869 -0.78581643 -0.066548817 0.0050847828
-0.022395836 0.061988261 0.35558715 0.34629384 -0.93776792 -0.025920758 0.0074723992
-0.014026158 0.064624369 0.35438389 0.20462908 -0.97749043 -0.051375143 0.0063589294
-0.0033338557 0.065912575 0.35667923 0.044697098 -0.99737096 -0.057037972 0.0070017423
0.0043991115 0.065941006 0.35343838 -0.064898066 -0.9965682 -0.051381901 0.0071220789
0.015386705 0.064225182 0.35635185 -0.22224067 -0.97376257 -0.048943251 0.0072399569
0.024268188 0.061205953 0.35570785 -0.36897862 -0.9285993 -0.039474886 0.0078819003
-0.022735545 -0.061370127 0.36413583 0.3531369 0.93383682 -0.056947976 0.009205726
-0.014966349 -0.063864522 0.36577949 0.22822379 0.97274417 -0.04102049 0.0041115498
-0.0052712262 -0.065131396 0.36678886 0.069308333 0.99643958 -0.04800602 0.0075409585
0.0047094366 -0.065306351 0.36484843 -0.065380007 0.99602211 -0.060542729 0.0069554998
0.017009569 -0.063331969 0.36520839 -0.27422488 0.96076763 -0.041546226 0.0045809895
0.023424977 -0.061135989 0.36321515 -0.35671142 0.9317655 -0.067601711 0.0081744473
-0.035522837 -0.055080336 0.36259514 0.56157845 0.82566279 -0.053950485 0.0057535497
-0.026744444 -0.059699006 0.36432534 0.42376089 0.90457648 -0.046563592 0.0059189145
0.027617591 -0.059260946 0.3656933 -0.40511832 0.91301513 -0.047776684 0.0054341187
0.034325562 -0.055947576 0.36433208 -0.56003016 0.82635581 -0.059179302 0.0048176958
0.040843084 -0.051098391 0.36406538 -0.63744891 0.76849014 -0.055514004 0.0055603725
-0.050848052 -0.040991392 0.3661643 0.77976143 0.62283468 -0.063631251 0.0071352436
-0.047450315 -0.045166921 0.36333838 0.72198319 0.68986225 -0.053200893 0.0074998667
0.046737593 -0.045853991 0.36615005 -0.70137864 0.71049803 -0.057100952 0.0091685196
0.051059049 -0.040565781 0.36794162 -0.7921598 0.60746223 -0.058928482 0.0053810538
-0.055486787 -0.034913417 0.36537179 0.82954323 0.55196881 -0.084784724 0.0067479759
0.05514985 -0.035112262 0.36653185 -0.84853041 0.52809155 -0.033396702 0.0082665877
-0.061276231 -0.022873694 0.36479226 0.92484015 0.37779388 -0.044074323 0.0074396967
-0.058607697 -0.029352318 0.36452371 0.89850241 0.43550763 -0.055014376 0.0054747076
0.059182733 -0.027966464 0.36450604 -0.89343727 0.44614509 -0.052195575 0.0059823943
0.061219729 -0.022938885 0.36532047 -0.93769211 0.34421447 -0.047432404 0.008905095
-0.063941002 -0.014138551 0.36572385 0.97533363 0.21690628 -0.040938277 0.0080511486
0.064288385 -0.013341691 0.36257127 -0.98204339 0.18183565 -0.050265156 0.0069282074
-0.065109409 -0.0055289487 0.36655927 0.99553818 0.085387588 -0.040157892 0.0058556851
0.064831756 -0.0076038945 0.3666451 -0.98952031 0.1380762 -0.04224465 0.0069846995
-0.06478668 0.0084200762 0.36544672 0.98513472 -0.16327599 -0.053391017 0.0060453825
0.065266415 0.0055565373 0.36347237 -0.99625528 -0.060686231 -0.061584767 0.0058940165
-0.064110018 0.013326843 0.36450931 0.98151642 -0.18247095 -0.057705913 0.0069354353
0.063882887 0.014827384 0.36660421 -0.97437888 -0.22351548 -0.025031526 0.009114773
-0.061086327 0.022955984 0.36758181 0.93676972 -0.34818295 -0.035087153 0.0082550542
-0.059262179 0.027748339 0.36470065 0.90158784 -0.43143469 -0.031676512 0.0052244258
0.0592837 0.027654847 0.36500895 -0.89489484 -0.44291124 -0.054707158 0.0074117579
0.060901176 0.023546848 0.36651483 -0.91523701 -0.40190998 -0.028453905 0.0054220315
-0.055136263 0.035180759 0.36663866 0.83249009 -0.55251694 -0.041051712 0.0078452919
0.055719517 0.034705728 0.36454907 -0.83075315 -0.55433369 -0.050630108 0.0062147849
-0.050877083 0.041257206 0.3625814 0.7521742 -0.65474457 -0.074454948 0.0056916242
-0.04567631 0.046838779 0.3659834 0.69267917 -0.71619374 -0.08521831 0.0087407557
0.04646318 0.046561375 0.36393845 -0.69750059 -0.71447921 -0.054884851 0.0091305086
0.050955579 0.040885925 0.36575502 -0.79563624 -0.6040768 -0.045324266 0.0078932755
-0.040640019 0.051477078 0.36063778 0.63727385 -0.76763362 -0.067975044 0.0059354315
-0.035214849 0.055233814 0.36463663 0.55142218 -0.83160162 -0.066123344 0.0064104074
-0.027905609 0.058959451 0.36895436 0.43674195 -0.89874971 -0.038799316 0.0069568329
0.028346363 0.059092868 0.36329681 -0.46681041 -0.88185024 -0.06654454 0.0078113088
0.035008598 0.055282939 0.36547616 -0.56811261 -0.82031435 -0.065821409 0.0055817203
0.041218743 0.05045015 0.3695991 -0.62615937 -0.7771104 -0.063434564 0.006483465
-0.020753436 0.062123656 0.36534342 0.32525775 -0.94515419 -0.029846555 0.008185111
-0.012624972 0.064198442 0.36611211 0.16968235 -0.98453343 -0.043610182 0.0080114016
-0.0045134593 0.065373808 0.36404708 0.06889049 -0.9956606 -0.062562756 0.0060619111
0.0051910011 0.065218367 0.36532003 -0.08018209 -0.995956 -0.040528495 0.0062225121
0.014979747 0.063965261 0.3630991 -0.22081864 -0.97373766 -0.055444237 0.0048801196
0.022675479 0.061374679 0.36449894 -0.32809341 -0.9433704 -0.049062658 0.0066419202
-0.022167778 -0.061052036 0.37404189 0.32309747 0.94403237 -0.066414975 0.007788409
-0.014935342 -0.063220486 0.37472293 0.25139406 0.96733427 -0.032642826 0.010085093
-0.0052845362 -0.064650819 0.37598896 0.084379151 0.99636436 0.011763485 0.013246584
0.0035290639 -0.064959019 0.37450784 -0.052360125 0.99683994 -0.059738059 0.0066467775
0.014577044 -0.063312076 0.37516949 -0.21068165 0.97588897 -0.057042927 0.0064656651
0.022905981 -0.060690235 0.37504509 -0.35916418 0.93211091 -0.046587318 0.01027191
-0.040619709 -0.050492316 0.37601876 0.60631967 0.79517746 0.0083176149 0.012287722
-0.035647422 -0.054285895 0.37457925 0.57643604 0.81653368 -0.031531271 0.00733977
-0.027787503 -0.058809482 0.37251627 0.47408342 0.8787328 -0.055440057 0.0074841408
0.027475078 -0.058908153 0.37306681 -0.42979056 0.90097129 -0.059420399 0.006190219
0.033353027 -0.05587079 0.37551463 -0.52418405 0.85155535 0.0091984458 0.011839141
-0.050622817 -0.040484257 0.37561032 0.78095704 0.62333149 -0.039547805 0.0085682767
-0.046084613 -0.045863494 0.37297216 0.69745046 0.71581936 -0.034140065 0.0091115544
0.045514371 -0.046380166 0.37595022 -0.69608968 0.7171036 0.034952115 0.016159542
0.051142033 -0.040245678 0.37044224 -0.7925297 0.60686088 -0.060138144 0.0054160454
-0.054719489 -0.035067249 0.37645122 0.83494073 0.54828268 -0.047540203 0.007813191
0.055058945 -0.034473132 0.37661961 -0.8621946 0.50571215 0.02959189 0.019044571
-0.06059425 -0.023501059 0.37235001 0.92610961 0.37689108 -0.016560713 0.013692761
-0.058574181 -0.028157046 0.37398827 0.87733793 0.47832385 -0.038527645 0.012711698
0.058761165 -0.02753694 0.37523949 -0.90045166 0.43212757 -0.049523365 0.0050162794
0.061013937 -0.021953613 0.37631211 -0.92828858 0.36843175 -0.050381821 0.0091859931
-0.063717008 -0.01350084 0.37314743 0.98262811 0.18555118 -0.003563571 0.013122946
0.062843017 -0.017342603 0.37500456 -0.95685774 0.285164 -0.05572072 0.007139104
-0.064884841 -0.0040092738 0.37471828 0.99839598 0.047602214 -0.030650873 0.0081777731
0.064586841 -0.0057504508 0.37603927 -0.9980638 0.060015511 0.016331417 0.01368917
-0.064723693 0.0061362553 0.37243414 0.99283093 -0.11191774 -0.041967005 0.0081939474
0.064732403 0.0050633783 0.37498033 -0.99850529 -0.054114975 -0.0076669864 0.011910652
-0.063394949 0.014132956 0.37514406 0.97983879 -0.19907223 0.016914647 0.013046624
0.063338205 0.015584625 0.37419608 -0.96171272 -0.27319142 -0.021795757 0.013025415
-0.060753658 0.022535421 0.37665707 0.93391997 -0.35427216 0.047798421 0.020158967
-0.058628082 0.027687272 0.37650678 0.89444697 -0.44503066 0.043731257 0.019777136
0.059057623 0.026728215 0.37592897 -0.90951991 -0.41280925 -0.048601046 0.0067630177
0.060910925 0.022329854 0.37536573 -0.93302846 -0.35978049 -0.0039915773 0.012182084
-0.055375196 0.034118135 0.37550279 0.85305595 -0.52178413 0.006073304 0.016336564
0.054809563 0.034704879 0.37565345 -0.84546787 -0.53338653 -0.026131766 0.0050300579
-0.047922827 0.044100989 0.37445292 0.73052478 -0.67730916 -0.087097429 0.007178735
0.046190858 0.045829061 0.37531075 -0.71611643 -0.69792545 -0.0087981047 0.016634408
0.051111523 0.040153634 0.37199661 -0.81143981 -0.58264738 -0.045689404 0.0068302792
-0.040663056 0.050607957 0.3737286 0.62170076 -0.78084642 -0.061376061 0.0077944733
-0.034402832 0.055022143 0.37422162 0.55804932 -0.82892185 -0.03833447 0.0076296916
-0.025945447 0.059352275 0.37645814 0.41298643 -0.90933961 0.050434809 0.016616846
0.025807062 0.059426546 0.37615457 -0.41407326 -0.91022247 0.0061870851 0.015852356
0.035630368 0.054501683 0.37323651 -0.57715046 -0.81469238 -0.056335371 0.0062999045
-0.02278896 0.060595382 0.3776103 0.34172803 -0.93819028 0.054962743 0.01731446
-0.013770478 0.063644007 0.37386739 0.22586174 -0.97243732 -0.057896886 0.0080451099
-0.0051760124 0.064693101 0.37545025 0.083423264 -0.99445361 -0.06405165 0.0058605233
0.0047287261 0.064751223 0.37546504 -0.055458874 -0.99823922 0.021039724 0.016951356
0.015348201 0.063251115 0.37382939 -0.22678225 -0.97388327 0.011009375 0.015113969
0.024769884 0.060030378 0.37303525 -0.40219903 -0.91516232 -0.026717359 0.010327158
-0.021642987 -0.060667481 0.38481909 0.35738099 0.93117803 0.072016351 0.02234433
-0.016463242 -0.062401973 0.38644451 0.29348958 0.9539777 0.061565306 0.01939036
-0.0050246143 -0.06417428 0.38580248 0.056410771 0.99257815 0.10773334 0.021245733
0.0050367555 -0.064235963 0.38458681 -0.036753271 0.99429953 0.10008831 0.018941585
0.014293442 -0.062943302 0.38567722 -0.25921598 0.96190351 0.086884335 0.019379772
0.022185501 -0.060275715 0.38781005 -0.33392492 0.93777519 0.095246658 0.022658693
-0.040042292 -0.05064258 0.38052055 0.60807842 0.78829861 0.093946174 0.019870181
-0.036815114 -0.052746933 0.38623935 0.5683068 0.81629109 0.10342253 0.019719191
-0.027070779 -0.05839631 0.38522929 0.40784249 0.90874481 0.088584423 0.018522451
0.025783638 -0.058882423 0.38607165 -0.42154092 0.90471643 0.061574001 0.022292435
0.03694417 -0.052768901 0.38368422 -0.56314808 0.82260817 0.078612849 0.020196043
0.040096439 -0.050088346 0.38840336 -0.57493365 0.81268436 0.094843917 0.020781495
-0.046345491 -0.044605486 0.38640723 0.72325557 0.67990762 0.12094241 0.022951031
0.046140045 -0.045017272 0.38482693 -0.69902503 0.70787281 0.10139081 0.024574
0.050214149 -0.040567975 0.38090605 -0.81064844 0.58085966 0.073832139 0.018785123
-0.054644056 -0.034321181 0.38451231 0.82765961 0.55653179 0.072470203 0.019270679
0.053994846 -0.035307147 0.38477185 -0.84821659 0.52371532 0.079061918 0.023344595
-0.060956299 -0.020376772 0.38903844 0.95169932 0.29385099 0.088994227 0.021237884
0.058623131 -0.026707137 0.38386491 -0.91304249 0.4009915 0.074560523 0.016378626
0.060800962 -0.021123674 0.38628042 -0.93863475 0.33488986 0.082544297 0.020182962
-0.062791638 -0.015152063 0.38422343 0.96990949 0.23463926 0.064960591 0.020942694
0.06290327 -0.014961815 0.38334331 -0.96261519 0.26358679 0.062402014 0.017839409
-0.064354748 -0.0045218579 0.38360688 0.9965716 0.027224589 0.078127891 0.020728434
0.063833781 -0.0079027442 0.38506418 -0.98462814 0.13976701 0.10475051 0.020117575
-0.064155467 0.005372284 0.38528445 0.99339062 -0.059026383 0.098442525 0.023051735
0.064413823 0.0032954242 0.38557357 -0.99248523 -0.090231173 0.082652353 0.019742623
-0.062471557 0.016674491 0.38457087 0.9679758 -0.23502487 0.088239029 0.019510619
0.062601648 0.016459085 0.38301992 -0.96572572 -0.25167516 0.063510038 0.01761861
-0.060342759 0.022281397 0.38589787 0.94078147 -0.32889366 0.082213745 0.025088159
-0.058280766 0.027464664 0.38437629 0.91444379 -0.39553306 0.085710026 0.018519409
0.05837442 0.027218401 0.3845259 -0.91143465 -0.40898895 0.044887159 0.017301608
0.060835022 0.021578634 0.38229597 -0.94608086 -0.32166898 0.038211349 0.020007698
-0.054950826 0.034232173 0.38282627 0.83836001 -0.53954703 0.077727288 0.020613158
0.053606153 0.035715979 0.38562256 -0.83683276 -0.54020542 0.088820331 0.019884532
-0.045376111 0.045917343 0.38602081 0.67941833 -0.73037124 0.070346214 0.022171998
0.045204584 0.045789335 0.38726297 -0.70725816 -0.70143634 0.088164516 0.02435701
-0.036363311 0.053245913 0.38389689 0.55497789 -0.83020103 0.052590121 0.018465998
-0.0264576 0.05872637 0.38386634 0.44630811 -0.89253527 0.064729206 0.018554371
0.026997648 0.05848904 0.38411045 -0.42740962 -0.90253592 0.052439708 0.016948845
0.033755615 0.054939449 0.38673699 -0.55991018 -0.82699364 0.050814532 0.016787719
-0.020329775 0.061233766 0.38441846 0.31928018 -0.94490749 0.072180331 0.023163235
-0.015265677 0.062720954 0.3842586 0.25311497 -0.9652878 0.064438149 0.019680636
-0.0049889232 0.064219818 0.38501713 0.07960175 -0.99053854 0.11179015 0.020677112
0.0050887065 0.064206712 0.38501659 -0.043212134 -0.99393862 0.10108787 0.020973835
0.016414339 0.062517904 0.38347685 -0.24343629 -0.9683103 0.055802956 0.016413288
0.021719659 0.060774393 0.38233536 -0.35098016 -0.93405163 0.066034198 0.019285036
-0.021752989 -0.060241669 0.39399204 0.31667641 0.94212043 0.11011368 0.02228884
-0.016754188 -0.061996169 0.39593902 0.27037606 0.95237941 0.14096178 0.021206753
-0.0039881989 -0.064006515 0.39565349 0.070604526 0.98613411 0.15018155 0.027014775
0.0050370796 -0.063860491 0.39616555 0.068405464 -0.98064858 -0.18343644 0.024962919
0.014623507 -0.062336672 0.39225641 -0.26498887 0.95729816 0.11559099 0.020603398
0.021492822 -0.060359564 0.39344487 -0.31335905 0.9447298 0.096393079 0.025424311
-0.039135609 -0.050603572 0.39303645 0.56396246 0.81479859 0.13434854 0.020807708
-0.026812278 -0.058135446 0.39509952 0.39209473 0.90875733 0.14290497 0.019444602
0.023868499 -0.059368279 0.39373785 -0.3796818 0.91937447 0.10291876 0.027149325
0.035189275 -0.053405091 0.39439145 0.56051636 -0.81150347 -0.16517726 0.022733338
-0.044955749 -0.045847088 0.39270431 0.68778592 0.71995032 0.092855513 0.027217044
0.046973173 -0.043820508 0.39300796 -0.72088325 0.68395144 0.11197238 0.025584221
-0.055108864 -0.033221308 0.39611211 -0.85074961 -0.49655727 -0.17220899 0.025130436
0.053679835 -0.034912445 0.39434096 -0.8459751 0.52179438 0.10980339 0.020918753
-0.060887292 -0.020168718 0.392162 0.94736803 0.30017948 0.11129315 0.023074668
-0.058306813 -0.026455957 0.39516169 -0.8966068 -0.40872267 -0.17041703 0.022209045
0.05870511 -0.02549828 0.39478841 -0.89963907 0.41926846 0.12191552 0.021078626
-0.062464118 -0.015090257 0.39559886 0.96601605 0.22686116 0.12388258 0.027574759
0.062493715 -0.013951286 0.3957921 -0.96781421 0.2273564 0.10791041 0.023964969
-0.063772112 -0.0057759862 0.3955127 0.98140043 0.10669705 0.15958969 0.026832512
0.063982412 -0.0041098306 0.39325216 -0.98877102 0.049025085 0.14116807 0.023983283
-0.063810848 0.0054074307 0.39380702 0.98430753 -0.11818118 0.13104203 0.026527913
0.063859791 0.0051264046 0.39416948 -0.98730344 -0.095309258 0.12707496 0.022526804
-0.062945358 0.01210262 0.39356652 0.97590637 -0.19186962 0.1038883 0.023513941
0.062240798 0.016029095 0.39477438 -0.9658078 -0.22642544 0.12628105 0.023951346
-0.060342487 0.021483915 0.39520532 0.94207114 -0.31713077 0.10922481 0.028645102
-0.059201442 0.024266666 0.39277804 0.90264493 -0.41946733 0.096329391 0.022656176
0.058584921 0.0257529 0.39511037 -0.90312976 -0.40317753 0.14766341 0.018621819
0.060332879 0.021507099 0.39481938 -0.92601168 -0.3578608 0.12015856 0.025099544
-0.05458143 0.033899643 0.39437371 0.83148837 -0.54069978 0.1275574 0.025223011
0.053885944 0.034751642 0.39494285 -0.82901055 -0.54265618 0.1351511 0.021610918
-0.046913423 0.043307677 0.39267161 0.71615219 -0.68425232 0.13756736 0.025518196
0.045340251 0.045221277 0.39371997 -0.7006169 -0.70797223 0.088945359 0.023799825
-0.036407638 0.052734423 0.39464402 0.57344157 -0.80934006 0.12701796 0.022793395
-0.026313255 0.058342092 0.3955465 0.43614167 -0.89075792 0.12779179 0.020018533
0.025187068 0.058830149 0.39367592 -0.41143325 -0.90509558 0.10735304 0.020782001
0.032313455 0.055645138 0.39647219 -0.4677588 -0.87627918 0.11548378 0.018506296
-0.022143215 0.060069382 0.39369452 0.36781695 -0.92025447 0.13357563 0.024410265
-0.01415953 0.062559776 0.39606598 -0.2090185 0.96102405 -0.18095298 0.027952269
-0.0058299545 0.063756935 0.39569834 -0.11611293 0.97992361 -0.16207264 0.024418578
0.0052284393 0.063842088 0.39367658 -0.10607917 -0.9814505 0.15969393 0.023245286
0.015034026 0.062489513 0.39450705 0.20746239 0.96325356 -0.17059277 0.02456932
-0.015203418 -0.07113003 0.40537792 0.23163 0.96185774 0.14552414 0.027607234
-0.0051067527 -0.072150096 0.40438622 0.12288443 0.97908181 0.16216742 0.026005091
0.0053893286 -0.071846381 0.40539908 0.11234468 -0.97809428 -0.17524342 0.029139547
0.015263063 -0.07120613 0.40658742 -0.21753232 0.962354 0.16295528 0.024328811
0.020537 -0.07027296 0.40480703 -0.25317162 0.95699853 0.14162584 0.030671038
-0.041051712 -0.060240783 0.40844494 0.54812449 0.83069843 0.097465754 0.027017659
-0.034734216 -0.063411564 0.40478778 0.43624756 0.8898629 0.13353699 0.024257518
-0.025407054 -0.065488905 0.40608686 0.39563757 0.91244024 0.10451622 0.026374299
-0.016003789 -0.0659528 0.40417814 0.24843916 0.95833427 0.14097323 0.02671309
-0.0075308918 -0.06708353 0.4046948 0.14219071 0.97956485 0.14224795 0.023618778
0.0053561036 -0.065876864 0.40470302 0.08906462 -0.97529173 -0.2021717 0.026708374
0.013858123 -0.065461412 0.40530625 -0.21796884 0.96524304 0.14420621 0.025352156
0.023984494 -0.0651737 0.40622187 -0.35139534 0.9278726 0.12479471 0.024919264
0.03420458 -0.063055366 0.40594041 -0.45827347 0.88206995 0.10926118 0.027615447
0.040275864 -0.060381815 0.40041468 -0.54120457 0.82490975 0.16316061 0.023367403
-0.052267302 -0.051151756 0.40440798 0.70036417 0.70035928 0.13779309 0.037305709
-0.044300023 -0.054887209 0.40452716 0.59389782 0.79212588 0.14079066 0.025805457
-0.035767142 -0.056474239 0.40383878 0.51473373 0.85032171 0.10955463 0.022762824
-0.029505646 -0.057019822 0.40974787 0.43918753 0.89453596 0.083184808 0.026802085
0.027929388 -0.058348425 0.4046948 -0.41681117 0.90193939 0.11302104 0.027982581
0.035084601 -0.057340078 0.40478745 -0.52552402 0.83917779 0.14001827 0.027305631
0.04591598 -0.054098099 0.4031879 -0.60002834 0.7828635 0.16459244 0.024780702
0.051111322 -0.052521814 0.40706226 -0.69564646 0.70770723 0.12339626 0.033803638
-0.060298651 -0.040976308 0.40628242 0.81463468 0.56031042 0.14974174 0.031182272
-0.054732546 -0.04467028 0.40537775 0.76968652 0.62108999 0.14774927 0.029529354
-0.047951717 -0.046341747 0.40577629 0.7029624 0.69923991 0.13002875 0.032687206
0.045153331 -0.0468385 0.40550146 -0.68367147 0.71379358 0.15196064 0.030608648
0.055098556 -0.044868361 0.40435642 -0.77795577 0.61923927 0.10643063 0.029786512
0.060777564 -0.040352169 0.40448609 -0.85835642 0.49861959 0.12084198 0.02406577
-0.063286282 -0.033791423 0.40556613 0.87918913 0.46049431 0.12235802 0.032019556
-0.055318519 -0.03725547 0.40469444 0.81962329 0.55993336 0.12121165 0.028530946
0.055100907 -0.035092559 0.4048695 -0.82651234 0.54950893 0.12213617 0.027785124
0.063041173 -0.035194147 0.40454054 -0.88593572 0.45282397 0.10034155 0.024162289
-0.07000754 -0.021177804 0.40056282 0.94665021 0.28933659 0.14190736 0.025605667
-0.065148547 -0.023719246 0.40612149 0.94042104 0.32142654 0.11087529 0.035008781
-0.058969479 -0.024917938 0.40652025 0.90853387 0.4034062 0.10876446 0.034713179
0.058883816 -0.026288796 0.40562624 -0.90873343 0.40466791 0.10221205 0.024059026
0.064597495 -0.024789801 0.40615407 -0.92603439 0.36479884 0.0968614 0.030033372
-0.071383543 -0.014355694 0.4044534 0.95837778 0.22640677 0.17393062 0.03067746
-0.065160193 -0.015162091 0.40742421 0.96584046 0.2409143 0.095459715 0.034654371
0.066320844 -0.01660179 0.40555081 -0.95791632 0.25293484 0.13572152 0.027002633
0.071018167 -0.014520814 0.40577391 -0.95857078 0.25062326 0.13538837 0.024039339
-0.072623052 -0.0056238514 0.40463895 0.98125094 0.11459628 0.15496555 0.031007824
-0.065786406 -0.005913896 0.40665698 0.98199069 0.13350941 0.13367707 0.033050973
0.066486992 -0.0059725484 0.40286046 -0.98559618 0.10536097 0.13228434 0.029670795
0.072231703 -0.0064059347 0.40392968 -0.98482943 0.13218527 0.11241928 0.031550273
-0.072317176 0.0055562253 0.40343803 0.98401922 -0.11485956 0.13606444 0.028064931
-0.066452555 0.0056986921 0.40163758 0.98810458 -0.081032574 0.13070193 0.025290212
0.066380017 0.0049351188 0.40278122 -0.98390156 -0.10216563 0.1466285 0.022136839
0.072469965 0.0049166996 0.40448591 -0.98047286 -0.11809739 0.15724477 0.029736629
-0.071224503 0.015184522 0.40428177 0.96277845 -0.24489205 0.11439209 0.026229536
-0.065288208 0.015295786 0.40417576 0.96938092 -0.22764507 0.092077941 0.025452249
0.065720983 0.016637612 0.40557665 -0.95353484 -0.27464268 0.1238654 0.027065357
0.070903219 0.014541992 0.40085945 -0.96209937 -0.23783985 0.13340549 0.022577422
-0.070110805 0.020928442 0.40128177 0.95690817 -0.27598196 0.090336606 0.02652744
-0.065499917 0.025234383 0.4029482 0.91884321 -0.3793059 0.10887653 0.027356951
-0.058933225 0.02754442 0.40714943 0.90995014 -0.41011447 0.061618123 0.031476103
0.058316767 0.028419215 0.40030527 -0.90179312 -0.41491997 0.12087478 0.0233205
0.065541312 0.025847074 0.40606865 -0.91509253 -0.39303577 0.090158366 0.029186575
-0.063680455 0.034217559 0.4041073 0.88475221 -0.45390266 0.10576337 0.023084689
-0.056574389 0.036184881 0.40683487 0.83377719 -0.54474175 0.089844555 0.03260126
0.053912964 0.03634347 0.40499306 -0.82691705 -0.5521611 0.10642514 0.028544109
0.063410416 0.034367904 0.40573964 -0.87757158 -0.45694208 0.14516224 0.024017796
-0.060543865 0.040656678 0.40836966 0.82783818 -0.55543303 0.078600988 0.033739619
-0.055013765 0.045056626 0.40547925 0.76252753 -0.63063657 0.14439249 0.03091047
-0.047513444 0.045972675 0.40760279 0.69813699 -0.7043348 0.12851968 0.03544208
0.047331113 0.046138085 0.4003858 -0.70036221 -0.70085514 0.13525826 0.028640529
0.055410437 0.044503704 0.40505168 -0.79384661 -0.5938099 0.13113847 0.034732115
0.060308103 0.040963925 0.40606272 -0.82250059 -0.55600268 0.11980715 0.030565822
-0.051803369 0.051649082 0.403395 0.69539523 -0.70484537 0.14006603 0.033700041
-0.044059608 0.055209849 0.40678546 0.60745597 -0.78986442 0.0843293 0.028524149
-0.036070727 0.055248953 0.40272203 0.56736749 -0.81606293 0.11016092 0.021435974
-0.028271558 0.058295488 0.40459228 0.47304901 -0.87362516 0.11403405 0.023797823
0.025586549 0.059473623 0.40897495 -0.43895748 -0.89598095 0.067337744 0.025691306
0.036769789 0.055677954 0.40412274 -0.55687302 -0.81809849 0.14355262 0.021435248
0.043882225 0.055178747 0.40381354 -0.59494388 -0.79254758 0.13382851 0.024258433
0.051988307 0.050813768 0.4027853 -0.68864673 -0.71247035 0.13472798 0.030293347
-0.035267178 0.062899448 0.40331474 0.5025298 -0.85512549 0.1273745 0.022206068
-0.024136502 0.065697938 0.4038761 0.38522258 -0.91563356 0.11497255 0.026953122
-0.015871225 0.065953411 0.40434593 0.25456184 -0.95599622 0.1458409 0.028829576
-0.0062786625 0.066492602 0.40584907 0.12558731 -0.98258871 0.13692017 0.030967066
0.0054329685 0.066768169 0.4053998 -0.086762697 -0.98612934 0.14149576 0.025854267
0.015210211 0.065410554 0.40389761 -0.24024041 -0.96170288 0.13195489 0.026763838
0.026112897 0.06557066 0.40234035 -0.43061134 -0.89469159 0.11874694 0.023550656
0.035475504 0.062458992 0.40408599 -0.50412685 -0.85643935 0.11121064 0.019054864
-0.020270506 0.070383318 0.4028742 0.27096 -0.95367748 0.13069047 0.029549796
-0.01339936 0.071508326 0.40404016 0.18452907 -0.97286397 0.13958764 0.030237162
-0.0047858963 0.07241641 0.40455705 0.10581338 -0.98188365 0.1571883 0.028455691
0.0053933929 0.072338097 0.40401632 -0.11112525 -0.98486787 0.13299043 0.026713718
0.014228804 0.071221069 0.40201482 -0.22162552 -0.96415371 0.14591043 0.021663956
-0.010143581 -0.07086499 0.41730624 0.16168779 0.97771543 0.13390091 0.041622706
-0.0055805398 -0.072630256 0.41855499 0.14487784 0.98289067 0.11373764 0.045135576
0.0021131379 -0.072309598 0.41812563 -0.076877892 0.99225426 0.097577065 0.044940136
0.01142129 -0.071907327 0.41997153 -0.14426138 0.9750604 0.16865891 0.04135358
-0.033796638 -0.061454926 0.41730627 0.46876243 0.86816829 0.16292825 0.03886456
-0.026528964 -0.063184761 0.41730624 0.39894679 0.90306807 0.1590897 0.044296514
-0.015238449 -0.063106291 0.41403168 0.24055111 0.96544123 0.10029183 0.03547594
-0.0070273867 -0.064431399 0.41292059 0.16657208 0.98275173 0.080330044 0.03255469
0.0048678494 -0.065539196 0.41509041 -0.12312043 0.98772758 0.096101798 0.041349605
0.014940159 -0.064539179 0.41537595 -0.23944016 0.96599549 0.097576775 0.032129753
0.024119014 -0.065893613 0.41730621 -0.30729264 0.94178408 0.13643266 0.037130609
0.033349376 -0.064694665 0.41850612 -0.44031906 0.882186 0.1669344 0.037411369
-0.045297943 -0.055535324 0.41788411 0.6179654 0.76929903 0.16216612 0.039035
-0.035547663 -0.054449528 0.41483974 0.55363458 0.82449108 0.11706077 0.035322487
-0.02520825 -0.058799852 0.41446689 0.39947346 0.91146278 0.098267816 0.033541922
0.025669081 -0.058608972 0.41397935 -0.40760133 0.90922588 0.084673017 0.029379522
0.036689408 -0.054596197 0.41633502 -0.5599069 0.82262939 0.098919705 0.038855333
0.045266699 -0.053257316 0.41744494 -0.65469372 0.75279599 0.068368435 0.040229693
0.052026093 -0.050841477 0.41780123 -0.71837848 0.67770094 0.15701535 0.044877086
-0.060345203 -0.040915646 0.4195345 -0.81738693 -0.54695261 -0.18089053 0.03978911
-0.055238895 -0.043537609 0.41732252 0.78584951 0.60058552 0.14743641 0.042108614
-0.045455866 -0.046471104 0.41601565 0.70137 0.70957637 0.067687526 0.045609746
0.046668474 -0.045137431 0.41476867 -0.72572827 0.68245333 0.087039411 0.03961524
0.054348733 -0.043965552 0.41807422 -0.78779244 0.60087842 0.13538192 0.044708196
-0.063965179 -0.033503592 0.41845489 0.86570019 0.47564185 0.15597455 0.041652989
-0.054288961 -0.035011098 0.41481438 0.83922309 0.5319863 0.11267259 0.036127876
0.055775907 -0.034927607 0.41581869 -0.83382779 0.53453392 0.13785742 0.041390475
0.064182386 -0.034525331 0.41859531 -0.869766 0.46277884 0.17129783 0.044172104
-0.070345409 -0.020362113 0.41892347 0.95008224 0.27469802 0.14793509 0.043920398
-0.064464107 -0.025861394 0.41750568 0.90639293 0.39412975 0.15203111 0.043724578
-0.05783328 -0.027541749 0.41038713 0.90551358 0.41862395 0.069275878 0.032071557
0.058137909 -0.026806308 0.41524953 -0.8980701 0.42544037 0.11167165 0.036961939
0.064045705 -0.024387857 0.41694248 -0.92798191 0.35222831 0.1215924 0.043104727
-0.071068682 -0.015530874 0.41877428 0.96012491 0.24499194 0.13468169 0.045678511
-0.063253038 -0.016470434 0.41455102 0.95309782 0.29358327 0.073574923 0.03816364
0.062883779 -0.015799519 0.41473034 -0.96239758 0.25302815 0.098831423 0.036171474
0.071120337 -0.017398901 0.41865194 -0.95903254 0.234575 0.15884332 0.046689108
-0.072710112 -0.0037019453 0.41829816 0.98594677 0.10790077 0.12753953 0.050393526
-0.065905467 -0.0038533895 0.41485506 0.99426562 0.090717182 0.056624942 0.040186379
0.066032812 -0.0027885474 0.41559249 -0.99274558 0.057050101 0.10583729 0.04495832
0.071473017 -0.0077563208 0.4180671 -0.97941202 0.14117965 0.14429259 0.039558921
-0.072483487 0.0053168908 0.41844207 0.98596019 -0.10208591 0.13213968 0.041745339
-0.064758696 0.0048059267 0.41494101 0.99072361 -0.1056427 0.085476771 0.034058146
0.064993963 0.0034257816 0.41492084 -0.99191958 -0.087672375 0.091701135 0.040330242
0.072334774 0.0076157879 0.41827694 -0.98463792 -0.10114723 0.1423284 0.045102838
-0.070984572 0.013601327 0.41832769 0.96536446 -0.22160025 0.13771246 0.038582411
-0.063529111 0.015741942 0.41730624 0.9597038 -0.26250368 0.100301 0.041221112
0.063968234 0.014865839 0.41545561 -0.96696675 -0.2233676 0.12280943 0.040194921
0.071724847 0.012807144 0.4185248 -0.95886415 -0.22694446 0.17051633 0.041994277
-0.06356813 0.024955081 0.41686583 0.91048431 -0.38423482 0.15291142 0.045422595
-0.059073281 0.025765708 0.41433543 0.91397029 -0.39515156 0.092268601 0.037100375
0.058977887 0.024778357 0.41307476 -0.92583364 -0.35528877 0.12884872 0.038331307
0.063557692 0.023286635 0.41699541 0.92252302 0.34337363 -0.17619812 0.043372337
-0.063977398 0.0352595 0.4183225 0.84811687 -0.50805587 0.15025651 0.044612806
-0.055294368 0.035701159 0.41441742 0.8239314 -0.55496007 0.11470104 0.042207129
-0.0499602 0.039973997 0.41211534 0.77861768 -0.62287527 0.076032124 0.039149057
0.055586252 0.035691537 0.41559002 -0.82299417 -0.55670857 0.11294305 0.037001234
0.06271749 0.037453167 0.41732532 -0.843189 -0.51105899 0.16688593 0.041064352
-0.056511138 0.043397695 0.4173975 0.80319899 -0.57527453 0.1546955 0.052420337
-0.044804037 0.047676031 0.41568914 0.67908895 -0.72950608 0.081602916 0.04334126
0.045067623 0.046563417 0.41307753 -0.69760704 -0.71236748 0.076661833 0.036019158
0.055224668 0.044434428 0.41753498 -0.7603097 -0.63475484 0.1378963 0.039897934
-0.050402023 0.053066 0.41998923 0.6614297 -0.73393863 0.15441735 0.050320771
-0.045491964 0.0546434 0.41736221 0.61722255 -0.77471995 0.13727826 0.037959628
-0.036260538 0.054186787 0.41512498 0.56646162 -0.8109616 0.14650023 0.036117177
-0.024507698 0.059089981 0.4135558 0.43812367 -0.89267397 0.10573906 0.034040999
0.026337277 0.058711719 0.41343063 -0.4222942 -0.89942116 0.11273475 0.031219276
0.035375468 0.053735577 0.41476887 -0.57012016 -0.81501961 0.10346917 0.033602484
0.042884216 0.054140478 0.41751719 -0.60476202 -0.78738576 0.11952675 0.040359605
-0.03550265 0.062963895 0.41814464 0.50034422 -0.84937084 0.1680021 0.038636409
-0.024541294 0.064356349 0.41715136 0.40872204 -0.90531808 0.11552276 0.039657675
-0.016583472 0.064993031 0.41628653 0.28308505 -0.95328903 0.10537025 0.043118421
-0.0073343376 0.065723032 0.4157103 0.13488796 -0.98551887 0.10275124 0.035978653
0.0062158825 0.065271638 0.4150708 -0.12882671 -0.98833406 0.081236079 0.035891563
0.013838178 0.064894155 0.41592002 -0.25244772 -0.95762628 0.13864335 0.037723023
0.024762988 0.063293554 0.41670468 -0.40615082 -0.907682 0.1056169 0.040751778
0.034757808 0.062848218 0.41813198 -0.47065809 -0.86722183 0.16250344 0.039987806
-0.020233881 0.07032641 0.41767389 0.30508563 -0.94091213 0.14699376 0.041614976
-0.010337652 0.07084807 0.41730624 0.13598266 -0.98008317 0.14472668 0.038742468
-0.0066320417 0.071865812 0.41742164 0.11316835 -0.98482019 0.13161349 0.041481458
0.0069362791 0.071363658 0.41730624 -0.12397455 -0.98677444 0.1044343 0.038321596
0.015115505 0.071049348 0.41806015 -0.23787624 -0.96010017 0.14704606 0.039254118
0.021144705 0.070021205 0.41780275 -0.31758106 -0.93669111 0.14748581 0.039601095
-0.01790379 -0.071050853 0.42392898 -0.24660158 -0.95320559 -0.17489035 0.044399798
-0.0053167096 -0.072227441 0.42362612 0.1162912 0.9817788 0.15028898 0.049669288
0.0054386547 -0.07205683 0.42383078 -0.10237145 0.98400766 0.14577001 0.048664067
0.012411811 -0.071776919 0.42383823 -0.20253076 0.96469051 0.1683847 0.040225994
-0.040582277 -0.060600989 0.42144766 0.54453743 0.82182801 0.16756397 0.051052455
-0.031398803 -0.063880295 0.42464709 -0.41828611 -0.88733488 -0.19409651 0.050965156
-0.024525423 -0.068620905 0.42117599 -0.33403555 -0.92491513 -0.18152747 0.038135972
-0.016497202 -0.06346073 0.42665708 -0.24682686 -0.95034981 -0.18950397 0.04978396
-0.0037256998 -0.068188675 0.42586651 0.085268438 0.98530167 0.14801973 0.049101658
0.007081267 -0.066266797 0.42622021 -0.11499728 0.98362529 0.13876896 0.051144276
0.015846936 -0.064258873 0.42688984 0.26354569 -0.94760525 -0.18052173 0.043905593
0.026604582 -0.066503175 0.42395556 -0.37203339 0.91501313 0.1560197 0.045293275
0.034279905 -0.063717559 0.42312598 -0.48225951 0.86492622 0.1390263 0.044594318
0.040732399 -0.06048581 0.42574123 -0.52646303 0.83413553 0.16448259 0.052174591
-0.050404087 -0.051733457 0.42343277 0.67899895 0.71792144 0.15345736 0.055053689
-0.044929646 -0.053733528 0.42494631 -0.62624657 -0.7608735 -0.16996056 0.041793637
-0.036045317 -0.056006506 0.42672077 -0.52610022 -0.83146745 -0.17855106 0.053431068
-0.025457906 -0.058696445 0.42872092 -0.4212727 -0.8817302 -0.21232328 0.048493452
0.029235644 -0.057131663 0.42941511 0.42837813 -0.87826705 -0.21245994 0.047269639
0.03681903 -0.053798556 0.42634529 -0.56648546 0.81526542 0.12015193 0.05593551
0.043954037 -0.056275286 0.4242993 -0.5988071 0.78910005 0.13693488 0.046592128
0.052726526 -0.050844528 0.42216802 -0.73071176 0.67057997 0.12799577 0.050526526
-0.056599982 -0.044477999 0.42335927 -0.76979715 -0.6153236 -0.16967365 0.045582071
-0.046430856 -0.045538235 0.42742467 -0.697106 -0.69913155 -0.15892844 0.053196788
0.046690118 -0.046567097 0.42625606 -0.70598316 0.69450426 0.13875008 0.052275449
0.055397883 -0.045019921 0.42354268 -0.74342299 0.65009034 0.15717787 0.049220674
-0.064294912 -0.034969304 0.42279771 0.85925692 0.48288235 0.16882576 0.039396726
-0.053361118 -0.036242504 0.42753243 -0.80732983 -0.56131178 -0.18206476 0.05329892
0.054462075 -0.036738794 0.42707914 0.80834424 -0.56080008 -0.17911698 0.054558363
0.06421788 -0.035155244 0.42292535 0.8695997 -0.45836943 -0.18355884 0.04567514
-0.067268454 -0.025250901 0.42452055 0.91976345 0.36240301 0.15066288 0.048941292
-0.058738861 -0.027014492 0.42673424 -0.9021982 -0.40210536 -0.15604398 0.051750645
0.058364242 -0.02667593 0.42656219 0.90155292 -0.39253446 -0.1819865 0.051414065
0.06379766 -0.025195479 0.42540506 0.89505053 -0.40428767 -0.18824477 0.048360985
-0.07133577 -0.015104721 0.4244706 0.95639616 0.24815531 0.15403028 0.049411159
-0.063690647 -0.014797757 0.42612687 -0.95773387 -0.24329744 -0.15346742 0.055852819
0.063557774 -0.015409763 0.42685774 0.96186221 -0.20625062 -0.1796713 0.053905897
0.071451977 -0.012781197 0.42440352 0.96312988 -0.1915586 -0.18890777 0.047247872
-0.0723309 -0.0073620975 0.42375341 0.98576629 0.11148125 0.12584443 0.051161207
-0.066470444 -0.0042992472 0.42666924 -0.97905672 -0.10901617 -0.17193995 0.051999822
0.066473424 -0.0057999226 0.42704105 0.97731125 -0.11891773 -0.17527488 0.049218185
0.07217776 -0.005039792 0.42394271 -0.98203325 0.094333157 0.16343792 0.050420307
-0.071938992 0.0040706987 0.42565662 0.9872117 -0.10132175 0.12307316 0.046868812
-0.065875284 0.0060817259 0.42646822 0.9838438 -0.11582844 0.13651082 0.052072775
0.063357592 0.0088501191 0.42776692 0.97589475 0.15156884 -0.15702334 0.056354888
0.072241239 0.0055238707 0.42562208 0.97958833 0.1078174 -0.16965286 0.049918678
-0.063712515 0.016674528 0.42708936 0.9544223 -0.26672557 0.13392395 0.04745546
0.06592939 0.015232894 0.42586651 0.95749933 0.22499311 -0.18048036 0.053505428
0.070847459 0.018500298 0.42288375 0.95817131 0.22783887 -0.17319703 0.050792489
-0.0652529 0.025939407 0.4250131 0.91323131 -0.37347934 0.16285521 0.051152475
-0.058861196 0.02595626 0.4275898 -0.89250886 0.41508487 -0.17644413 0.052205276
0.058701728 0.026322018 0.42743704 0.89095253 0.40178382 -0.2115972 0.054097984
0.065845564 0.02423773 0.42499116 0.93153733 0.32277495 -0.16749486 0.053765234
0.070287161 0.020502636 0.42141542 0.95286268 0.24267179 -0.18210709 0.046167046
-0.062631771 0.037753016 0.42344359 0.84498662 -0.50776118 0.16785739 0.050544199
-0.05484841 0.035468064 0.42638144 -0.80422175 0.57108742 -0.16457984 0.057914309
0.055116065 0.034864873 0.42660549 0.81327671 0.55440134 -0.1766925 0.054901812
0.063587226 0.03440696 0.42318112 0.86019796 0.47767353 -0.17857051 0.047633894
-0.060835853 0.040276147 0.42478698 -0.8151117 0.54155403 -0.20569937 0.052540168
-0.054015864 0.044804331 0.42479953 -0.7712273 0.61149567 -0.1768654 0.053001639
-0.045911413 0.045943964 0.4265019 -0.6710878 0.71686745 -0.18905605 0.054674618
0.044493109 0.048150185 0.42628169 -0.66247612 -0.73355049 0.1517529 0.053452205
0.054360017 0.046152256 0.42388037 0.73695415 0.65474057 -0.16796826 0.046623074
-0.051719815 0.051567256 0.42399082 0.69300514 -0.70900905 0.13057566 0.05549233
-0.042680517 0.05368454 0.42586648 -0.59861934 0.778943 -0.18682238 0.039328281
-0.034599628 0.054327875 0.42750916 -0.56466562 0.80590355 -0.17796698 0.049044181
-0.023908021 0.059338372 0.42656246 -0.39936221 0.90211803 -0.16337964 0.050828941
0.027507091 0.058004837 0.42723638 0.42336708 0.88184643 -0.2076225 0.049000092
0.036939919 0.05626459 0.42683199 0.57420456 0.7930364 -0.20342658 0.048694417
0.045449216 0.054751672 0.42501855 0.60902065 0.77375555 -0.1743452 0.042415775
0.05210726 0.051447842 0.42390758 -0.67857909 -0.7156654 0.16538897 0.056325026
-0.034388203 0.063089855 0.4248296 -0.47901589 0.85653883 -0.19205461 0.043579653
-0.025416067 0.065226264 0.42459139 -0.43291119 0.8864826 -0.1635128 0.041907188
-0.014611666 0.065407224 0.42614138 -0.24497923 0.95552748 -0.1641717 0.054205567
-0.0035751618 0.066075839 0.42655468 0.070970073 -0.98978567 0.12364238 0.049573094
0.0049311086 0.065552585 0.4265565 -0.069640346 -0.98945004 0.12703909 0.05263776
0.01661882 0.063685305 0.42722654 0.25672832 0.94959277 -0.17990018 0.047420859
0.025813123 0.065728612 0.42503354 0.36757749 0.90657026 -0.20740578 0.045200847
0.035336617 0.062871441 0.42448264 0.48093507 0.85527474 -0.19289045 0.041026723
-0.021022789 0.070071712 0.42182881 -0.2990672 0.93744349 -0.17820892 0.04217675
-0.016823556 0.070941724 0.42355293 0.24209149 -0.95862204 0.14978461 0.048647616
-0.003861639 0.072156169 0.42385831 0.093652993 -0.98858923 0.11798489 0.045235414
0.0044827019 0.072820775 0.42223194 -0.13589096 -0.98001218 0.14529157 0.04321377
0.015789725 0.071235433 0.42235693 -0.25339854 -0.95580906 0.14905806 0.045982275
0.020001289 0.070494823 0.42239326 0.2937229 0.93877965 -0.18005452 0.043931928
-0.03324252 -0.070812784 0.4396441 -0.43284851 -0.86057812 -0.26841649 0.035258282
-0.023823142 -0.073771954 0.43844417 -0.32366645 -0.90667009 -0.27053538 0.032774098
-0.01425864 -0.07322409 0.43860379 -0.20358984 -0.94392556 -0.25991482 0.033463005
-0.0045643868 -0.075533278 0.43893936 -0.067825191 -0.96410543 -0.25671086 0.038071465
0.0044124248 -0.075661197 0.43851843 0.054076467 -0.9668029 -0.24973553 0.036727205
0.014408763 -0.073687896 0.43876311 0.21908599 -0.94215298 -0.25367141 0.032412414
0.023379248 -0.072610997 0.4384442 0.29643542 -0.91678995 -0.26762342 0.032647442
-0.042046178 -0.063969836 0.43888965 -0.51145607 -0.81405419 -0.27518812 0.029628571
-0.03300387 -0.065265864 0.43844414 -0.44330266 -0.85110587 -0.28125003 0.039789576
-0.022513449 -0.064940512 0.43837938 -0.30973426 -0.90443319 -0.29336876 0.034594856
-0.014495042 -0.063708209 0.43545017 -0.19422948 -0.93093878 -0.30923754 0.048572052
-0.0041481922 -0.06468381 0.43421429 -0.056580927 -0.95918006 -0.27707788 0.050502356
0.0049281633 -0.064681061 0.43514809 0.094200939 -0.95294607 -0.28813201 0.047602203
0.014701706 -0.06382148 0.43669567 0.21916658 -0.92825073 -0.30052707 0.046119705
0.022244357 -0.065541089 0.4382326 0.2883884 -0.91171688 -0.29258272 0.032938384
0.032578852 -0.064305976 0.43844417 0.4180122 -0.86186492 -0.28714922 0.035566606
0.042178538 -0.065664075 0.43874201 0.48881254 -0.8306011 -0.26676601 0.036335509
-0.050303906 -0.055639137 0.43844417 -0.61696017 -0.73866439 -0.2715421 0.033956654
-0.046023 -0.054327182 0.43844414 -0.61187369 -0.73832935 -0.28369078 0.03713797
-0.035476644 -0.053611238 0.43458751 -0.55228025 -0.78311634 -0.28585896 0.048742797
-0.025740387 -0.058579434 0.43483007 -0.41088566 -0.85992229 -0.30283096 0.040382314
0.024319308 -0.059168063 0.43304223 0.36340371 -0.89541757 -0.2572259 0.050159752
0.035347335 -0.05530294 0.43560788 0.53361934 -0.79074001 -0.29996771 0.049017042
0.045644548 -0.054555457 0.43844414 0.61281741 -0.74703926 -0.25765711 0.033096422
0.054073639 -0.053231474 0.43844414 0.68470001 -0.67631704 -0.27162677 0.034266591
-0.063613765 -0.043777693 0.43860021 -0.80292678 -0.52874017 -0.27521339 0.037660327
-0.055363782 -0.045892552 0.43844414 -0.74216932 -0.61054271 -0.27644578 0.034196869
-0.047637213 -0.045498941 0.43720636 -0.68191212 -0.66002572 -0.31521732 0.04474223
0.046821401 -0.043890733 0.43603927 0.68694556 -0.65205353 -0.32083017 0.044300068
0.055592515 -0.043772049 0.4384442 0.7515282 -0.59712267 -0.28044611 0.035076275
0.063968368 -0.042102542 0.43877706 0.83329433 -0.47685099 -0.27970266 0.034833509
-0.070208602 -0.034701113 0.439426 -0.86142355 -0.43554062 -0.26125452 0.040735554
-0.063620538 -0.034725554 0.43844417 -0.84556234 -0.46188387 -0.26774552 0.038512524
-0.054930266 -0.03345025 0.43598595 -0.81296384 -0.49758795 -0.30248296 0.046629254
0.055689253 -0.035834543 0.4365153 0.78712833 -0.53138524 -0.31314331 0.047154788
0.066896439 -0.035008211 0.43844414 0.84588176 -0.46335319 -0.26417369 0.032780681
0.070501968 -0.033992849 0.43845552 0.85379022 -0.44463557 -0.2708163 0.031650975
-0.071849853 -0.022468558 0.43844417 -0.92647916 -0.28049281 -0.25091839 0.039291292
-0.062987655 -0.023013445 0.43762743 -0.89544892 -0.34352264 -0.28313148 0.043165021
-0.058942679 -0.024863416 0.43186447 -0.88044018 -0.3985374 -0.25689113 0.042942874
0.058773737 -0.02557618 0.43477306 0.87363273 -0.39318553 -0.28665477 0.040765956
