# .PCD v0.7 - Point Cloud Data file format
VERSION 0.7
FIELDS x y z normal_x normal_y normal_z curvature
SIZE 4 4 4 4 4 4 4
TYPE F F F F F F F
COUNT 1 1 1 1 1 1 1
WIDTH 575
HEIGHT 1
VIEWPOINT 0 0 0 1 0 0 0
POINTS 575
DATA ascii
0.049236648 -0.035032447 0.36685258 -0.79526603 0.51709026 -0.31649578 0.0060091759
0.052180685 -0.033957094 0.36128306 -0.82431936 0.48477069 -0.29239526 0.0031002499
-0.058224991 -0.021807704 0.36104608 0.87584919 0.37661943 -0.30173838 0.0062878318
-0.060563523 -0.014609691 0.36168644 0.93001145 0.23395017 -0.28345394 0.0078160278
-0.05905332 -0.018022209 0.363399 0.89835227 0.30609593 -0.31506914 0.004766732
0.057772383 -0.018272568 0.36688846 -0.90708405 0.28846753 -0.30656964 0.0065120836
0.060364112 -0.011936688 0.36356851 -0.9329406 0.19874883 -0.30020112 0.0074483505
-0.060397182 -0.0086583234 0.36492893 0.94180357 0.139493 -0.30585563 0.0072041545
0.059140131 -0.0077414429 0.36896941 -0.93349433 0.12596464 -0.33573958 0.007250784
0.061922986 -0.00096388004 0.3631784 -0.95225364 -0.018193301 -0.30476549 0.0065384069
-0.061468683 0.0017567967 0.36437282 0.95172149 0.0028424649 -0.30694976 0.0047491961
0.059887558 0.006149339 0.36745197 -0.94937009 -0.094624892 -0.2995705 0.0062212669
0.060546331 0.0075141699 0.36493403 -0.95171219 -0.091450132 -0.29305431 0.006476488
-0.058135279 0.017496716 0.36661839 0.90014136 -0.31615797 -0.29964933 0.0066536311
0.05888211 0.014754118 0.36707056 -0.91865569 -0.2375282 -0.31567699 0.0073023634
-0.056002319 0.02552712 0.36321568 0.85526812 -0.42294818 -0.29938471 0.0043038572
0.055937048 0.025057787 0.36377767 -0.88802487 -0.34809175 -0.30040646 0.0033626684
-0.047594514 0.036281686 0.36839592 0.72424334 -0.59665662 -0.34564772 0.0062675844
0.046881262 0.037747733 0.36732793 -0.73220241 -0.60097897 -0.32047462 0.005946571
0.052935492 0.031603549 0.36396196 -0.80723882 -0.49896315 -0.31527981 0.0074348799
-0.043392736 0.043430526 0.36499706 0.6649667 -0.67330331 -0.32323664 0.0085761696
-0.03974732 0.045269184 0.36764196 0.60574007 -0.7214129 -0.33562228 0.007525811
0.045675069 0.040762216 0.3647902 -0.70884854 -0.63101876 -0.31519696 0.005890226
-0.034483999 0.051099047 0.36313328 0.51813626 -0.80604982 -0.28603908 0.0055518132
-0.026175026 0.05521068 0.36476743 0.41172668 -0.85309964 -0.3204717 0.0075851264
-0.018064333 0.058697172 0.36447644 0.2816532 -0.90346187 -0.32315335 0.0071449457
-0.0046889 0.059726246 0.36844957 0.055830482 -0.94537276 -0.32117492 0.0062102037
0.015514483 0.059780318 0.36386776 -0.21504584 -0.93176275 -0.29252928 0.0054086847
0.023668462 0.05577926 0.36610985 -0.34463874 -0.88757133 -0.30568156 0.0097840754
0.031950492 0.051547803 0.366853 -0.52727777 -0.79085428 -0.31068891 0.006495249
-0.013264585 0.061228901 0.36001962 0.17027973 -0.94534415 -0.27808154 0.005802141
-0.0078217974 0.060667504 0.36436129 0.13675614 -0.94288582 -0.30374986 0.0062453537
0.0029021273 0.061208509 0.3645789 -0.028623773 -0.9521426 -0.30431083 0.0060022878
0.010297426 0.061458267 0.36057013 -0.16455889 -0.94041115 -0.29756895 0.007271626
-0.030679613 -0.050580308 0.37135988 0.47292799 0.81794405 -0.32757691 0.007181515
-0.022441152 -0.053130098 0.37457836 0.32788643 0.87807816 -0.34852424 0.0085529145
-0.019309692 -0.052369889 0.37989733 0.29317358 0.89247453 -0.34283882 0.0060098534
-0.0052068406 -0.056993663 0.37596202 0.10434777 0.93388969 -0.34199631 0.0048136748
0.0041313749 -0.057255864 0.37562674 -0.047749508 0.94033605 -0.33688 0.0063979076
0.013405157 -0.056149781 0.37515551 -0.23292208 0.91252369 -0.33622581 0.0069438661
0.026723862 -0.052549757 0.37144017 -0.45098302 0.82713085 -0.33536386 0.0056322264
-0.034260962 -0.045996469 0.37547931 0.59861892 0.72733945 -0.33560815 0.0043754959
-0.028438749 -0.048596572 0.37967145 0.47311711 0.8070516 -0.35330984 0.008148293
0.038362965 -0.044050425 0.37279189 -0.58685857 0.73116183 -0.34784979 0.0054709557
0.040876176 -0.041561406 0.37405744 -0.6761452 0.64749593 -0.35153472 0.0080364738
-0.044619352 -0.035788536 0.37596732 0.72025341 0.59820038 -0.35127103 0.0065012653
0.046155129 -0.035280623 0.37337992 -0.75998092 0.55681843 -0.33523461 0.0060653058
-0.053336985 -0.025421696 0.37078848 0.85077882 0.40898186 -0.33001378 0.0074655209
0.051911514 -0.024427883 0.37561867 -0.85310471 0.40033886 -0.33457619 0.0069993027
-0.055679951 -0.014689282 0.37509447 0.88946187 0.28690657 -0.35572779 0.0049429308
0.053415395 -0.017818712 0.37886232 -0.89378726 0.2904309 -0.34175161 0.0082434397
-0.057183657 -0.0029996529 0.37625089 0.94371313 0.025219658 -0.32980227 0.0057372781
0.057361159 -0.0063366159 0.37451053 -0.92691225 0.072911032 -0.36812708 0.0046639065
-0.056790859 0.0040741479 0.37695998 0.94033623 -0.069641851 -0.33304316 0.0045563336
0.056856718 0.0046219709 0.37653717 -0.93536717 -0.02428763 -0.35284337 0.006096974
-0.055099256 0.016206834 0.37555432 0.90267837 -0.28961888 -0.31826517 0.0069070812
0.054462112 0.018436586 0.37543744 -0.89279509 -0.28944844 -0.34516156 0.0065665175
-0.052848995 0.023288006 0.37439522 0.8549732 -0.39748564 -0.33320561 0.0077415705
0.052476574 0.026854346 0.37149054 -0.83962375 -0.42474303 -0.33856365 0.0056032324
0.046260674 0.033651859 0.37595159 -0.73892903 -0.57922685 -0.34420943 0.0051813149
-0.042151242 0.041271374 0.37204114 0.71502507 -0.61450291 -0.3333545 0.0047381995
-0.036675915 0.044333462 0.37507555 0.60695386 -0.71492612 -0.34711328 0.0063367854
0.029085597 0.048586737 0.37862173 -0.47993374 -0.80554819 -0.34749925 0.0072334022
0.033334069 0.04755516 0.37359127 -0.54367232 -0.78572911 -0.29504263 0.0079366844
-0.027777124 0.052203123 0.37120444 0.45105469 -0.83269596 -0.32119653 0.0053274296
-0.014627767 0.055697381 0.37517828 0.22892852 -0.9133963 -0.33659908 0.0070771263
-0.0043623089 0.058301151 0.37259173 0.039311294 -0.94142133 -0.33493364 0.0062715714
0.0061947461 0.057093304 0.37531897 -0.13597615 -0.93146867 -0.33745599 0.0067370003
0.01424333 0.056415271 0.37354401 -0.21174142 -0.91793162 -0.33551008 0.005650254
0.022088945 0.052804664 0.37579101 -0.31389308 -0.88772821 -0.33676365 0.0074506323
-0.013682066 -0.052259009 0.38490519 0.19500312 0.91197723 -0.36093104 0.011584435
-0.0046506422 -0.053303145 0.38548729 0.10384881 0.94324011 -0.31545752 0.0077405348
0.0045310939 -0.054006908 0.38384286 -0.027573857 0.94857079 -0.31536198 0.012157141
0.015892383 -0.051352955 0.38531488 -0.2804749 0.9087258 -0.30911377 0.011506179
-0.032593876 -0.042083554 0.38603008 0.56762433 0.75859684 -0.3198961 0.01080134
-0.02471157 -0.049335279 0.38167259 0.39725104 0.8406449 -0.36811382 0.010140186
0.015354757 -0.049654398 0.38959384 -0.28065738 0.92653507 -0.25052816 0.018400546
0.025344295 -0.046438817 0.3872965 -0.44812551 0.85079271 -0.27447262 0.014611796
0.033383194 -0.04266718 0.38375548 -0.59230435 0.72511286 -0.35126457 0.01105686
-0.041889895 -0.032383088 0.38670981 0.76411515 0.55927372 -0.3214668 0.012910739
0.036902227 -0.0388037 0.38598025 -0.6475867 0.68001467 -0.34381893 0.014555683
0.043899186 -0.031947263 0.38350654 -0.75805879 0.54644287 -0.35601556 0.0091670034
-0.048661064 -0.02521898 0.38270614 0.8318069 0.43541452 -0.34425509 0.0071487715
0.04677419 -0.025016239 0.38625887 -0.82234544 0.46074277 -0.33386245 0.0082594939
-0.052938092 -0.014669515 0.38214484 0.89911985 0.24309301 -0.36399075 0.0084290691
0.049432509 -0.018632244 0.38706446 -0.88521355 0.34016293 -0.31731069 0.013868076
0.050541393 -0.016453713 0.38660452 -0.90502375 0.28935733 -0.31177634 0.014063853
0.053413689 -0.0072169006 0.38441563 -0.93837953 0.097451068 -0.33158293 0.014527481
-0.053492859 0.0079273097 0.38400286 0.93545109 -0.15612616 -0.31710544 0.011436423
0.05280618 0.0060378169 0.38623863 -0.93032372 -0.10010505 -0.35281271 0.010106961
-0.051598594 0.014475358 0.3853769 0.91673988 -0.22191565 -0.33217674 0.013804171
0.049447313 0.018774223 0.38690054 -0.87274373 -0.34033829 -0.34998336 0.011445708
0.052917689 0.013218254 0.38332438 -0.91018856 -0.24331206 -0.33519548 0.011109633
-0.046876654 0.024916671 0.38654414 0.83636785 -0.44541737 -0.31951874 0.0091953827
0.047703043 0.020131711 0.38953304 -0.88155055 -0.36146516 -0.30366364 0.016781505
-0.04281652 0.03431252 0.38210607 0.74908382 -0.56910342 -0.33910868 0.0067009362
0.036584578 0.037123483 0.38965994 -0.68390888 -0.68444967 -0.25258139 0.017368848
0.04216709 0.032291524 0.38631406 -0.78447586 -0.53828657 -0.30796954 0.013705118
-0.033019863 0.042697392 0.38423094 0.5899359 -0.73288155 -0.33891052 0.012344269
-0.024373142 0.047633581 0.38542315 0.41117099 -0.84630191 -0.33869094 0.0077243126
0.017144447 0.049975783 0.38722709 -0.29142833 -0.91062552 -0.2929689 0.01177816
0.024241654 0.048348296 0.38425156 -0.42322502 -0.8325848 -0.35732782 0.010491964
0.033853985 0.042725347 0.38295338 -0.61777127 -0.71598274 -0.32515761 0.0082250824
-0.016019559 0.051856458 0.3836222 0.2933926 -0.89560759 -0.33437675 0.0077373395
-0.0056521134 0.052862197 0.38622609 0.11503419 -0.93942076 -0.32288659 0.013563999
0.0057751732 0.051879667 0.38853574 -0.092572197 -0.9510141 -0.29496199 0.01611916
0.016361285 0.051787965 0.38391346 -0.27060559 -0.8975209 -0.34817934 0.0072047357
0.0010081149 -0.051420249 0.39113376 -0.040413406 0.97729319 -0.2080017 0.030428184
0.010064842 -0.050050452 0.3915579 -0.26542854 0.94738036 -0.17893602 0.026663024
-0.022026747 -0.045625314 0.39241695 0.42118493 0.876755 -0.23217237 0.026830802
-0.0052590291 -0.048899096 0.39628401 0.159951 0.97978532 -0.12015156 0.027073104
0.004367786 -0.048255567 0.39887691 -0.10965227 0.99244618 -0.055016264 0.036562286
0.012266271 -0.04776758 0.39677382 -0.32472056 0.94211996 -0.08346542 0.026029425
0.02584298 -0.042756002 0.39462766 -0.50112605 0.85100305 -0.15705582 0.027974991
-0.041384839 -0.030221606 0.3908478 0.7910471 0.57408518 -0.21135445 0.032274827
-0.035641871 -0.034902263 0.39474437 0.72529083 0.67845494 -0.1168414 0.027781939
-0.029027954 -0.038932357 0.39829633 0.62120104 0.77775866 -0.09592025 0.030437564
0.036656931 -0.032513592 0.39719796 -0.72635853 0.68216908 -0.083955757 0.040001873
0.040354684 -0.030314902 0.39268112 -0.81573987 0.54261851 -0.20033371 0.032061152
-0.041208595 -0.027855262 0.39483348 0.83155453 0.55266047 -0.05552987 0.038209375
-0.037832048 -0.029983535 0.39951819 0.79445922 0.6072557 -0.0086642541 0.038822398
0.044742156 -0.023748338 0.39172235 -0.87103027 0.4513635 -0.1938486 0.024062037
-0.048097778 -0.013818714 0.39396462 0.96980077 0.23976269 -0.044724721 0.042100348
0.0463854 -0.016049236 0.39709759 -0.95770079 0.28292829 -0.05254449 0.03524911
-0.05118379 -0.0010854099 0.39167461 0.97886986 -0.032437705 -0.20189486 0.032370038
-0.049296696 -0.0052685072 0.39511675 0.98795766 0.12849438 -0.086191766 0.039564494
0.04827882 -0.0067145755 0.39756164 -0.98622477 0.16277297 -0.029423228 0.036538899
-0.050633039 0.0059046289 0.39147452 0.95105702 -0.17349248 -0.25571632 0.023659749
-0.047969803 0.0056361128 0.39942998 0.98901725 -0.13871104 -0.051031269 0.042720802
0.048774421 0.0066172527 0.39597854 -0.98751348 -0.15177883 -0.042194266 0.038597148
0.050700277 0.0069464091 0.39098606 -0.96950644 -0.13011274 -0.20767261 0.035873953
-0.047970112 0.018791743 0.39017436 0.88141316 -0.3707206 -0.29270655 0.019222783
0.0463061 0.016824499 0.39598209 -0.92446762 -0.37258363 -0.080877423 0.036358066
-0.043177497 0.024296993 0.39554152 0.84819353 -0.49890634 -0.17793345 0.029142518
-0.039299883 0.028525557 0.3983534 0.82214558 -0.56476527 -0.07153257 0.040157367
0.03823936 0.029718326 0.39881375 -0.76448059 -0.64464617 -0.00086926157 0.035175432
0.042805701 0.026475102 0.39320707 -0.81983119 -0.55410522 -0.144375 0.029375374
-0.035980552 0.033659674 0.39620653 0.70261252 -0.70364618 -0.10591408 0.030370951
-0.029160347 0.03937383 0.3966887 0.55886805 -0.82523125 -0.081608295 0.03818072
0.030252937 0.037962101 0.3983925 -0.62513638 -0.77641422 -0.079907902 0.033367019
-0.022427626 0.044548601 0.39487663 0.46071923 -0.8824724 -0.094763733 0.044737358
-0.016136548 0.046890114 0.39546186 0.36858898 -0.9260534 -0.081038967 0.043617029
-0.0043325876 0.049015988 0.39615837 0.096298583 -0.99133605 -0.089327633 0.038824443
0.0056687919 0.049688164 0.39383101 -0.12202285 -0.98260421 -0.13999771 0.032890759
0.015667342 0.046893433 0.39582637 -0.34726077 -0.92839402 -0.13226682 0.035651986
0.023989758 0.043789376 0.39488655 -0.48599932 -0.8610971 -0.14938723 0.033816792
-0.0023990227 0.050467126 0.39298019 0.077593908 -0.98782313 -0.13485087 0.041282814
0.00067912595 0.050935011 0.39239708 0.031998582 -0.98525131 -0.16809484 0.032523438
-0.017160827 -0.0445222 0.40582481 0.36301422 0.93141037 0.02637344 0.036425274
0.0077885487 -0.046996556 0.40511057 -0.1688112 0.98520172 0.029670298 0.027870763
0.016794825 -0.044589691 0.40677959 -0.38390866 0.92326099 0.01425743 0.023537375
0.023962103 -0.04152938 0.40414962 -0.45161515 0.8912465 0.041514955 0.03014306
-0.033496115 -0.034458794 0.40571064 0.71100265 0.70072824 0.058779541 0.033275016
-0.027745642 -0.038823932 0.40355504 0.61191642 0.79017204 -0.034447692 0.041015118
0.036943287 -0.030092116 0.40786994 -0.7967847 0.60115808 0.0611814 0.032452244
-0.042930156 -0.021431727 0.40285337 0.91355979 0.39827973 0.082351968 0.041745525
-0.045074251 -0.015880175 0.40921566 0.95221484 0.2914657 0.091295116 0.035682414
0.045606069 -0.01445266 0.40405303 -0.96612793 0.25659776 0.027466061 0.029040325
-0.047390621 -0.0078260526 0.40109125 0.98891968 0.14817242 -0.0091002062 0.036968403
0.047986776 -0.00080651446 0.40884852 -0.99780774 -0.017678026 0.063774541 0.030765416
-0.047558084 0.0040703374 0.40885785 0.9898771 -0.1074615 0.09271165 0.030128032
-0.046149075 0.012939135 0.40500665 0.96358299 -0.26039204 0.06085977 0.03837654
0.046692729 0.010008266 0.40543866 -0.97186136 -0.21746288 0.090528399 0.038281687
-0.042332821 0.023073765 0.40136319 0.87262982 -0.48813313 -0.015594949 0.044326682
-0.038689479 0.02819342 0.40299311 0.81502718 -0.57715362 0.051229257 0.036003854
0.039115086 0.027200742 0.40681013 -0.82176149 -0.56554437 0.06976781 0.032501604
0.041029416 0.02496239 0.40631539 -0.81942213 -0.56860811 0.07233388 0.031529687
-0.031094611 0.036307752 0.40658119 0.6607101 -0.74579972 0.085116334 0.037118807
-0.02714657 0.039191499 0.40547308 0.57417214 -0.81578809 0.069397964 0.036967397
0.026822362 0.039573807 0.40925521 -0.56760275 -0.82212847 0.043953668 0.025024839
0.033043291 0.034875885 0.40306398 -0.69508988 -0.71883428 0.011286173 0.034163933
-0.024156151 0.041732807 0.40294415 0.52753884 -0.84501177 0.087509625 0.033442851
-0.013060438 0.046019595 0.40642071 0.24492846 -0.96608478 0.08179307 0.037562639
-0.0043610008 0.047442537 0.40723884 0.13725439 -0.98867589 0.060671996 0.033796582
0.0065099606 0.047293909 0.40939352 -0.17180568 -0.98243946 0.072770827 0.034392606
0.014130403 0.045813061 0.40316039 -0.29480559 -0.9555127 -0.009229525 0.038164318
-0.00487309 -0.053272802 0.4198032 0.098468661 0.98725885 0.12499584 0.02365914
0.0020961682 -0.055032827 0.4198032 -0.0094879344 0.99592322 0.089703657 0.024258548
0.01243396 -0.0544561 0.4198032 -0.17715326 0.97664368 0.12158895 0.025764214
-0.031813256 -0.041294508 0.4198032 -0.56776547 -0.81134295 -0.13915801 0.022808632
-0.024348417 -0.044497069 0.41755792 -0.45519224 -0.87760276 -0.15037766 0.024511682
-0.015921444 -0.046435058 0.4154799 -0.29708424 -0.93497229 -0.1938241 0.025313713
-0.001713165 -0.048217118 0.41163182 0.033197019 0.99783874 0.056708746 0.032436747
0.0139584 -0.047977973 0.41784173 -0.28367862 0.95664334 0.066029213 0.026413755
0.024403943 -0.044233307 0.4166089 -0.47317052 0.8754887 0.098128252 0.023732454
0.032705396 -0.043011643 0.4198032 -0.53611457 0.83669925 0.11187313 0.026180977
-0.044712331 -0.034725022 0.4198032 0.78094041 0.61418551 0.11361428 0.020919386
-0.036123507 -0.033426233 0.41425779 0.72061384 0.68776232 0.087742791 0.028752228
0.02759055 -0.03978353 0.41340464 -0.49870604 0.86514658 0.053043306 0.022941913
0.036798779 -0.034350067 0.4177393 0.7406193 -0.6582554 -0.13484421 0.035652235
0.045819089 -0.033830822 0.4198032 -0.80881655 0.57463074 0.12496073 0.0296201
-0.051920146 -0.023264609 0.41985244 0.92884308 0.34842151 0.12590809 0.031846289
-0.044744372 -0.024969131 0.41904759 0.85164845 0.51013392 0.12024294 0.027438955
0.041041575 -0.02777411 0.41572899 0.84042829 -0.52080685 -0.14980176 0.031158252
-0.0537531 -0.011012455 0.4198032 0.98448634 0.13869996 0.10746652 0.027245415
-0.048461452 -0.012536157 0.41767383 0.97048992 0.21175745 0.1153605 0.032388974
0.04795032 -0.015828377 0.41858751 0.94435656 -0.29033452 -0.1545848 0.0313715
0.053559538 -0.012494629 0.4198032 0.96517169 -0.20783508 -0.15889668 0.032370519
-0.054834075 -0.0016384088 0.4198032 0.9964065 0.016329333 0.0831111 0.023922479
-0.048298098 -0.0038975556 0.41291249 0.99326056 -0.0046690693 0.11580907 0.027610794
0.047869693 -0.0068928334 0.41330472 -0.98713559 0.14409173 0.069288492 0.030701471
0.053595763 -0.0046250769 0.4198032 -0.98880947 0.092394143 0.11712874 0.026289364
-0.048597742 0.0050085732 0.41506591 0.98957819 -0.097384028 0.1060722 0.023071233
0.049195096 0.0041430066 0.41680866 0.98409784 0.10653733 -0.14213078 0.028542234
0.056548677 0.0080143763 0.41987354 -0.98520416 -0.11575185 0.12638943 0.029091174
-0.045132145 0.016418435 0.41135794 0.92599696 -0.36764434 0.085832916 0.033516716
0.047556564 0.015466048 0.41669074 0.94949412 0.28921804 -0.12171245 0.031799261
0.053634651 0.013893414 0.4198032 -0.96714491 -0.21910581 0.12893178 0.033212796
-0.043880206 0.024438256 0.41666266 -0.86283588 0.47797802 -0.16447252 0.028442638
0.038592845 0.02996438 0.41540325 -0.77421159 -0.63066393 0.053473156 0.02787775
0.047431149 0.025029937 0.4198032 0.84563118 0.51115441 -0.15371758 0.031839319
0.050966192 0.021545485 0.4198032 0.90947497 0.38688448 -0.15223578 0.030994115
-0.042301167 0.036003251 0.41980323 -0.7361297 0.65764493 -0.16005045 0.024815619
-0.034096271 0.03547598 0.41607431 -0.68101573 0.71191502 -0.17144874 0.023593977
-0.02837364 0.039571375 0.41455656 -0.55965149 0.80309272 -0.2045294 0.02954313
0.027370919 0.039843041 0.41300836 -0.57778597 -0.811418 0.088114142 0.023445522
0.035526916 0.034222893 0.41708741 -0.70403844 -0.70255291 0.10367902 0.02602718
0.04017771 0.033728473 0.4198032 0.74608344 0.65200055 -0.13511017 0.026763787
-0.035994228 0.040857907 0.4198032 -0.66406697 0.72911948 -0.16552867 0.023272032
-0.023332469 0.044260681 0.41855401 -0.46782938 0.86775714 -0.16772957 0.026425432
-0.019360337 0.045720421 0.41779619 -0.33856189 0.92355084 -0.18008259 0.028075993
-0.003061316 0.048402146 0.41313466 0.090686582 -0.99202728 0.087509364 0.030477446
0.0075669209 0.048341971 0.41558653 -0.12141168 -0.99062234 0.062661268 0.027168268
0.014332588 0.046960771 0.41555533 -0.34182107 -0.93518907 0.092627622 0.032297455
0.022376157 0.044065859 0.41668469 0.48013815 0.86428648 -0.14992076 0.02989365
-0.021415159 0.051397756 0.4198032 -0.33038667 0.93465173 -0.1314183 0.026003577
-0.014282647 0.05451303 0.4198032 -0.24657539 0.95760947 -0.14894484 0.029394859
-0.007411689 0.055247344 0.4198032 0.11789273 -0.98729187 0.1065644 0.025654031
0.0083723925 0.054489698 0.4198032 -0.12481698 -0.9867065 0.10407249 0.027189501
0.011620312 0.052689552 0.41980323 -0.19054206 -0.97590417 0.10632438 0.029556803
0.022839449 0.051277004 0.4198032 -0.38701031 -0.91274416 0.13084778 0.033476677
-0.023106789 -0.052245323 0.42867839 0.39552861 0.91094565 0.11719705 0.025535226
-0.015072261 -0.055291455 0.42686892 0.23712394 0.96285015 0.12919685 0.027719202
-0.0044809254 -0.051985666 0.42645806 0.055408616 0.99294734 0.10481142 0.023498522
0.0032198702 -0.052710373 0.42506933 0.082988687 -0.98709738 -0.13693653 0.029150994
0.015842075 -0.055043917 0.42566156 -0.28533047 0.95294726 0.10236233 0.026862828
-0.030359967 -0.048690796 0.42443451 -0.51989329 -0.84052408 -0.15241471 0.029304057
-0.025574565 -0.04358473 0.42437497 -0.50453657 -0.8467024 -0.16893141 0.029708233
-0.014877762 -0.048247624 0.4255645 -0.25853744 -0.95236951 -0.16171226 0.035535689
-0.0069014784 -0.04999093 0.42593682 0.11395068 0.98958451 0.087964483 0.022547787
0.008276538 -0.049809899 0.42384312 0.15687989 -0.98000568 -0.12238297 0.02616339
0.014500977 -0.048452057 0.42457452 -0.25400358 0.9610666 0.10878015 0.031156104
0.025962133 -0.045611676 0.42627645 0.51196569 -0.84842342 -0.13442045 0.02508297
0.033180874 -0.045129869 0.42591217 -0.57741404 0.81022042 0.10067736 0.027551414
0.040788367 -0.040623441 0.42641732 -0.67976493 0.72796267 0.089387223 0.035371512
-0.045101814 -0.03503722 0.42749894 0.79557592 0.59708685 0.10269532 0.025743103
-0.036417339 -0.034971535 0.42707509 0.71458298 0.69070834 0.11087491 0.029502546
0.036730733 -0.03446411 0.42657736 -0.72032952 0.6851486 0.10815237 0.035948105
0.04506911 -0.035079844 0.42463207 -0.8036263 0.58482611 0.11028683 0.034510426
-0.051794007 -0.02419637 0.42088717 0.92305654 0.36747363 0.11370862 0.031294506
-0.043151423 -0.026568729 0.42372927 -0.85102046 -0.5106262 -0.12257715 0.029211963
0.042348333 -0.027376413 0.42492658 0.8279646 -0.54500759 -0.13206553 0.032907769
0.052474365 -0.022553843 0.42969838 -0.91476774 0.3896676 0.10657957 0.02900015
-0.055258837 -0.015831498 0.42255542 0.96656322 0.243937 0.07905928 0.036910549
-0.048446447 -0.014225105 0.4234972 0.97562611 0.21038565 0.062382046 0.034523144
0.048720609 -0.013195212 0.42722589 0.96404558 -0.23576814 -0.12259482 0.033166517
0.055270258 -0.01580395 0.42509556 -0.9602598 0.25620934 0.11071558 0.029042445
-0.053448305 -0.0032729686 0.42376459 0.99470764 0.053102918 0.087959044 0.024363294
0.049748488 -0.0087431641 0.42015398 0.97304553 -0.18196511 -0.14167233 0.031964041
0.052525181 -0.0046266168 0.42360279 0.98718655 -0.088742994 -0.13261683 0.026973363
-0.055852275 0.0048167035 0.42489883 0.99054724 -0.080772087 0.11086949 0.021688543
-0.049945559 0.007246092 0.42684379 0.98853308 -0.12266717 0.088063285 0.02267798
0.049657743 0.0094324416 0.42654908 0.97891271 0.15345384 -0.13483982 0.030281471
0.052704539 0.003264277 0.42153373 -0.99195355 -0.063524045 0.1095122 0.024174372
-0.05485367 0.015991775 0.42263836 0.95347875 -0.27046824 0.13313599 0.029511724
-0.048268318 0.014932856 0.42466769 -0.956209 0.26224932 -0.1299596 0.026327787
0.048208084 0.015199644 0.4242816 -0.95431072 -0.27774769 0.11021466 0.037449904
0.055608749 0.013526042 0.42545605 -0.97265708 -0.19026895 0.13317671 0.030546077
-0.051840663 0.024083756 0.42817235 0.92653823 -0.3610774 0.10559375 0.024311658
-0.042780966 0.026579238 0.42321807 -0.85179061 0.50711709 -0.13147202 0.028671263
0.044615131 0.025660638 0.42329529 0.80524004 0.57801688 -0.13223083 0.030727111
0.051534738 0.024822351 0.42962953 -0.878564 -0.46721464 0.099175528 0.034835584
-0.043441672 0.035640959 0.42544177 0.77474225 -0.61965179 0.12572268 0.032200847
-0.035420034 0.035893507 0.42551473 -0.70426726 0.69916213 -0.12320691 0.02331035
0.03414296 0.037108 0.42650908 0.68052262 0.72259581 -0.12142575 0.020850422
0.047437169 0.031993743 0.42557761 0.7979936 0.58434361 -0.14747453 0.026953068
-0.034350242 0.043534391 0.42763901 0.60934848 -0.78499067 0.11173175 0.027161907
-0.025162691 0.043796692 0.42563748 -0.47687638 0.86921388 -0.1305992 0.032830492
-0.017121296 0.047527906 0.42558607 -0.30956465 0.94130862 -0.13456562 0.028251158
-0.0069506862 0.04998447 0.42145959 -0.11740767 0.98524362 -0.12454087 0.025452584
0.007142425 0.049959227 0.423112 -0.13583045 -0.98525274 0.10405347 0.02720839
0.015428752 0.048073441 0.42601413 0.34502032 0.92848474 -0.13739383 0.032233559
0.026768083 0.042708918 0.42392206 0.54005677 0.831451 -0.13049091 0.025578439
0.032430291 0.043750901 0.42370868 0.57071549 0.80392987 -0.16727413 0.019835524
-0.022807861 0.052369151 0.42403072 0.38535941 -0.91541642 0.11623623 0.02894526
-0.015197934 0.055294983 0.42440769 -0.25971493 0.95181358 -0.16309229 0.028809978
-0.0044961926 0.051983666 0.42425075 0.05893052 -0.99216855 0.11013097 0.026582265
0.0030735377 0.052410401 0.42531806 0.040750727 0.99132752 -0.12493625 0.028955569
0.015092569 0.055063061 0.42575505 -0.28399518 -0.94999027 0.12986584 0.031332936
0.024109537 0.05182999 0.42484832 0.41858339 0.89255923 -0.16770789 0.030594798
-0.026009824 -0.051042855 0.43432462 0.43635872 0.89793724 0.057444256 0.029086541
-0.014856089 -0.055217158 0.43368822 0.19862148 0.97786897 0.065739706 0.023899291
-0.0024501863 -0.053929083 0.43176466 0.059397176 0.99474657 0.083373524 0.02199192
0.0031660551 -0.054952215 0.43200746 -0.082129858 0.99423504 0.068929836 0.025565995
0.018178251 -0.0542868 0.43991765 -0.2984021 0.95363224 0.039265141 0.0277596
-0.033455204 -0.044640087 0.43699756 0.59786803 0.79998285 0.05080666 0.031605139
-0.028295334 -0.04599132 0.43391523 0.50672662 0.86015815 0.057931725 0.033873327
-0.013972367 -0.048671085 0.43301925 0.23114529 0.97099209 0.061206259 0.037365291
-0.0095559042 -0.04964146 0.43418869 0.12704335 0.99028373 0.056552265 0.023368968
0.0095422892 -0.049643252 0.43435234 -0.17913079 0.98158646 0.066334732 0.025413878
0.015285346 -0.048217129 0.43429917 -0.27934799 0.95718473 0.075908758 0.030398762
0.026599938 -0.042962164 0.43402457 -0.53080541 0.84486431 0.066707522 0.02736978
0.036363665 -0.044084009 0.43557459 -0.59935027 0.79840833 0.057647519 0.026934529
-0.045126937 -0.035004482 0.43214744 0.80682302 0.58601367 0.074997395 0.027467728
-0.038429454 -0.032814078 0.43482369 0.75742394 0.65194649 0.035703912 0.03618997
0.03404405 -0.037257403 0.4332439 -0.67660594 0.73430473 0.054780647 0.033543065
0.044044837 -0.032775123 0.43423811 -0.79308832 0.60671496 0.053924557 0.031959511
-0.052430816 -0.02265897 0.43575394 0.93496895 0.35452536 -0.012039094 0.028320722
-0.043456625 -0.025755268 0.43658105 0.8724494 0.48870412 -0.0005318512 0.030817207
0.043953121 -0.026312804 0.43427119 -0.84792054 0.52595496 0.066349164 0.032214351
0.05104005 -0.02601661 0.43393275 -0.87676293 0.47692502 0.061881587 0.031429537
-0.055768937 -0.013734563 0.43794268 0.98425221 0.17676988 0.00021835102 0.023822054
-0.048628721 -0.013995628 0.4356209 0.97621244 0.21677813 -0.0040582293 0.027292069
0.048355561 -0.01512837 0.43543279 -0.96246839 0.26395133 0.063121453 0.035037886
0.054926313 -0.015098173 0.4352659 -0.97391939 0.21772839 0.063838229 0.029189365
-0.051785059 -0.0034584906 0.4353025 0.99636024 0.08520551 0.0024990889 0.021373106
-0.049789831 -0.0084289238 0.43596777 0.99055386 0.13700737 0.0056635984 0.023773935
0.049758032 -0.0086706644 0.43244028 -0.98495585 0.15955633 0.066361673 0.030031363
0.054497857 -0.004495461 0.43291682 -0.99720073 0.061091602 0.043110523 0.025361953
-0.051913947 0.0050256988 0.43544674 0.99576998 -0.089970179 0.018640509 0.022985153
-0.049681824 0.0092493296 0.43375945 0.98726815 -0.15307292 0.043246992 0.02677371
0.049709193 0.0090416372 0.43181393 -0.98969454 -0.11690122 0.08269719 0.026837017
0.056803152 0.0060814745 0.43290079 -0.99675018 -0.060283627 0.053431429 0.022329124
-0.055808038 0.013523147 0.43522286 0.98155516 -0.17875078 0.067805998 0.027580231
-0.048589867 0.014272605 0.43647662 0.96735549 -0.24806128 0.051855944 0.030313902
0.048591483 0.01426204 0.43414828 -0.96244967 -0.25380337 0.096304275 0.040134512
0.055405945 0.01415064 0.43889529 -0.97895682 -0.20402053 0.004379435 0.026230857
-0.045688841 0.026682774 0.4341462 0.86464775 -0.49647903 0.076764688 0.035130564
0.044135928 0.025315452 0.43225145 -0.82347953 -0.56005138 0.090685531 0.033061724
0.052846212 0.021656159 0.43101427 -0.90863073 -0.40173459 0.11401536 0.03419752
-0.045259293 0.034832001 0.43409285 0.81367207 -0.57625329 0.076615512 0.033422127
-0.036358792 0.035335794 0.43360999 0.72269052 -0.68653703 0.079907678 0.033176873
0.03461789 0.036758881 0.43380031 -0.68144631 -0.72512138 0.099145263 0.025877381
0.045596585 0.034392439 0.43625888 -0.79342806 -0.60464251 0.069852307 0.029019292
-0.040620416 0.040779725 0.43505993 0.70166934 -0.70864582 0.074036121 0.03390966
-0.038299814 0.042598348 0.43415609 0.64333963 -0.76222765 0.071575873 0.026586672
-0.026554396 0.045448843 0.4362193 0.50830513 -0.86016464 0.041744161 0.030688323
-0.015029578 0.048335385 0.43180966 0.27994442 -0.95633858 0.08395078 0.029267365
0.015579313 0.04808132 0.4342401 -0.31626472 -0.94495273 0.083911471 0.032815613
0.026184708 0.043265715 0.43794227 -0.53010166 -0.84485924 0.072146066 0.027314903
0.03008067 0.040526893 0.43883646 -0.55395252 -0.83082759 0.053499255 0.025865205
-0.018811721 0.054024406 0.43389589 0.31149948 -0.94727683 0.075064026 0.033829663
-0.0032183435 0.051816683 0.43386585 0.059218109 -0.99663246 0.056718603 0.021361969
0.0031120579 0.052165892 0.43455246 -0.088788807 -0.99433684 0.058402479 0.023759462
0.013515806 0.055705331 0.4341763 -0.22680321 -0.97268832 0.049373645 0.03356282
0.026154326 0.050983012 0.4362981 -0.43111494 -0.90032011 0.059694819 0.026933135
-0.027397597 -0.050468024 0.4475553 0.4603368 0.88774437 -0.00011201014 0.029978128
-0.014612401 -0.055232584 0.44482976 0.19942978 0.97973281 -0.018743971 0.026331864
-0.0027811467 -0.051491134 0.4464089 0.027094807 0.99948096 -0.017426744 0.021816423
0.0041322303 -0.053707641 0.44660065 -0.060989905 0.99808979 -0.0098521691 0.022087459
0.016018283 -0.055040359 0.44310117 -0.26720154 0.96353173 0.014489232 0.029763343
0.020153141 -0.053468775 0.447467 -0.32525998 0.94555902 0.011139018 0.027192365
-0.041109283 -0.040240388 0.44684732 0.74123657 0.67039645 -0.033721428 0.030240301
-0.034238331 -0.044039171 0.44455925 0.6013875 0.79886115 -0.012407044 0.028758213
-0.028275413 -0.044651762 0.4448193 0.52288854 0.85240048 -0.00097647909 0.032370307
-0.015193637 -0.048328497 0.44332594 0.31561729 0.94882703 0.010625555 0.029716458
0.018086838 -0.047130108 0.44219053 -0.31232449 0.94929904 0.035844497 0.028574716
0.024813347 -0.044343904 0.4417783 -0.5121901 0.85803545 0.037900545 0.028115317
0.035651118 -0.044630762 0.44671139 -0.60558045 0.79552722 0.020218253 0.027286487
-0.044286657 -0.034734711 0.44573966 0.81617975 0.5756461 -0.04982128 0.026251204
-0.035668541 -0.036008447 0.44729242 0.71931529 0.69419813 -0.025969012 0.030604577
0.035668969 -0.035701044 0.44770688 -0.71185476 0.70218152 -0.014284261 0.02586678
0.042795338 -0.033363625 0.44453922 -0.78681582 0.61711723 0.0093400935 0.030108456
-0.05340552 -0.020305816 0.44623718 0.95551783 0.29481563 -0.0083376998 0.029547391
-0.043976575 -0.026393298 0.44607326 0.86990464 0.49075192 -0.04927868 0.029354304
0.044682179 -0.02542769 0.44463333 -0.84789491 0.53001601 -0.012535702 0.029064804
0.053362824 -0.020408915 0.44341072 -0.94188613 0.335926 -0.0020390796 0.02998233
-0.047596503 -0.016888971 0.4468554 0.96671647 0.25574252 -0.0074173245 0.02719399
0.04830417 -0.014984475 0.4444671 -0.95036465 0.31106856 0.0065891794 0.032973416
0.055045422 -0.01571914 0.44176447 -0.97561097 0.21925856 0.010432861 0.029041285
-0.05054386 -0.002701578 0.4411445 0.9980529 0.061870188 -0.0079085855 0.02050975
-0.049680565 -0.0092589147 0.44491237 0.98915184 0.14219555 -0.036867838 0.024090923
0.052195825 -0.0047033811 0.44622323 -0.99713653 0.070904173 -0.026296556 0.019602241
-0.050346665 0.0041994057 0.44576481 0.99889082 -0.044427782 -0.015594645 0.020779809
-0.049890038 0.0076678284 0.44446573 0.99460125 -0.099547185 -0.029305767 0.022719041
0.049979944 0.0069850758 0.44207644 -0.99398738 -0.10947299 0.0021763148 0.022097493
0.050258711 0.0048675695 0.44529372 -0.99757868 -0.066614106 -0.019979268 0.023225728
-0.055266742 0.01484536 0.44522533 0.97840929 -0.20666751 -0.0019657048 0.031558346
-0.047997683 0.015822023 0.44453883 0.96401507 -0.26537192 0.015896142 0.031897396
0.048216745 0.015305568 0.44645941 -0.96568638 -0.25906184 -0.018348927 0.029928282
0.054478094 0.017716451 0.44762543 -0.95947784 -0.28096831 -0.021425929 0.026107859
-0.051975131 0.023759134 0.44431144 0.92915308 -0.36792448 0.036140412 0.028803699
-0.043518305 0.026978316 0.44562456 0.86839551 -0.49579313 0.0088573406 0.030177744
0.045029283 0.025525441 0.44464886 -0.84727985 -0.53113389 -0.0036971518 0.034092497
0.052108768 0.023436502 0.44641703 -0.91306466 -0.40777358 0.0058020544 0.034032248
-0.04552412 0.034486871 0.44700566 0.8191672 -0.57319117 -0.020423803 0.027745433
-0.03511662 0.036335863 0.44552007 0.68280607 -0.73058981 -0.003783152 0.033595592
0.036369812 0.035144869 0.44151157 -0.69342369 -0.71841079 0.055221643 0.027276341
0.046419319 0.033320226 0.44563198 -0.80486774 -0.592893 0.025804911 0.032298487
-0.033533931 0.046255328 0.4463191 0.57883823 -0.81532675 -0.013734929 0.025597667
-0.026693586 0.044093121 0.44702435 0.52154034 -0.85317892 -0.0090271654 0.027846914
-0.015317121 0.048230477 0.44563141 0.26197845 -0.96507215 -0.0017458159 0.030494679
-0.0084377201 0.049788695 0.44628838 0.11673643 -0.99295187 -0.020470643 0.026274616
0.00795798 0.049851857 0.44497246 -0.12262269 -0.99229324 -0.017829131 0.024226708
0.013772502 0.048629027 0.44615859 -0.24904485 -0.96848714 -0.0030620946 0.034128614
0.025504149 0.043491486 0.44511324 -0.50829768 -0.86089408 0.022246601 0.034814633
0.035154749 0.043814756 0.44631687 -0.58575273 -0.81044644 0.0083870338 0.029455574
-0.02400196 0.051874541 0.44453534 0.39086697 -0.92042291 -0.0066804914 0.026775895
-0.018305171 0.054234225 0.44375509 0.28592452 -0.95814091 -0.014602281 0.029542373
-0.004027837 0.053721391 0.44541764 0.050139621 -0.99846894 -0.023361474 0.019388271
0.0043197181 0.053012539 0.44427961 -0.07850901 -0.99675995 -0.01749045 0.022933511
0.013956795 0.055647429 0.44552478 -0.1923371 -0.98125774 -0.011821209 0.025051652
0.024726341 0.051574506 0.44617558 -0.42405236 -0.90562838 0.0040980512 0.029294075
-0.025400661 -0.051295176 0.45450327 0.42621794 0.90389585 -0.036203112 0.030772554
-0.014323074 -0.055611417 0.45616174 0.21588093 0.97476858 -0.056759853 0.0257158
-0.0041752285 -0.05202591 0.45690462 0.077136196 0.99701905 -0.0017082719 0.020895373
0.0039091106 -0.052898981 0.45437825 -0.038397003 0.99922657 -0.0084879762 0.02351176
0.015971517 -0.054813545 0.45569149 -0.25804096 0.96604317 0.013248915 0.032886382
0.024047934 -0.051855505 0.45482883 -0.40196142 0.91549718 0.017084563 0.030663911
-0.034114927 -0.041620389 0.45811433 0.60456687 0.79639512 -0.015925175 0.029743021
-0.024405604 -0.044176362 0.45585233 0.49843007 0.86627907 -0.033585601 0.038989302
-0.017663125 -0.047305603 0.45739487 0.28695375 0.95708591 -0.040547561 0.029582862
-0.0087746857 -0.049744308 0.4545455 0.14678675 0.98855621 -0.034788013 0.027039064
0.0081022056 -0.049832851 0.45239168 -0.104276 0.99450797 0.0089683197 0.024263704
0.017351242 -0.047434796 0.45460668 -0.30751127 0.95150894 -0.0082220407 0.033610407
0.025331311 -0.043856733 0.45325568 -0.48656464 0.8734234 0.019658197 0.031560473
0.03257215 -0.042804219 0.45640439 -0.59037054 0.80708557 0.0086902725 0.026994782
-0.045968272 -0.033908032 0.45464253 0.8314659 0.55557513 0.0008596144 0.030414587
-0.035323571 -0.035898305 0.45521653 0.68416721 0.72928393 -0.0077546765 0.035606738
0.034961645 -0.036597762 0.45500898 -0.69266665 0.72110891 0.014658315 0.02654619
0.046219293 -0.031397145 0.45477208 -0.8227253 0.56815231 -0.01805521 0.030919172
-0.053000659 -0.02128325 0.45737985 0.93726569 0.34791565 0.022084394 0.032523241
-0.043953437 -0.025121216 0.45380792 0.87322289 0.4873206 -0.00064951199 0.036226071
0.04389767 -0.026988272 0.45521513 -0.84617329 0.532812 -0.010111884 0.031352896
0.051825117 -0.024121284 0.45427939 -0.90578657 0.4236131 -0.010134778 0.027429353
-0.04871444 -0.013603948 0.45452681 0.96932656 0.24120194 0.047197066 0.029125396
0.048856154 -0.013124348 0.45384583 -0.97406441 0.22450891 -0.028184406 0.036967095
0.055800226 -0.013050006 0.45216814 -0.99046826 0.13765839 -0.0047763856 0.026488021
-0.052142724 -0.0044453363 0.45330065 0.99739456 0.070002876 0.017429497 0.020186042
-0.049837068 -0.0080701588 0.45492721 0.99329484 0.10948017 0.037140522 0.022598911
0.049841817 -0.008034219 0.45492187 -0.99387443 0.10974102 -0.013059601 0.023555677
0.053655121 -0.0045311959 0.45523769 -0.99781775 0.065700203 0.0065705734 0.022012221
-0.052640747 0.0037487906 0.45427594 0.99879044 -0.043106955 0.023654249 0.022796843
-0.049794219 0.0083956402 0.45740962 0.9896965 -0.1321397 0.055134669 0.025877729
0.052324813 0.0044511049 0.456155 -0.9974094 -0.071752705 0.005104566 0.023595685
-0.054925613 0.01635321 0.45609108 0.97723645 -0.21200611 0.0079005379 0.034492377
-0.047688011 0.016739937 0.45439494 0.97214282 -0.23438504 -0.001393673 0.030734435
0.048494607 0.014119009 0.45275506 -0.97223341 -0.23262869 -0.02541583 0.030262543
0.055863399 0.013071542 0.4564696 -0.98105401 -0.19369236 0.0040369746 0.029317684
-0.043896765 0.026317721 0.45302069 0.87112105 -0.49070004 -0.019017145 0.031028744
0.042127471 0.027931482 0.45475301 -0.83699667 -0.54712367 -0.0096017616 0.03857642
0.052169353 0.023290247 0.45414761 -0.92475086 -0.37852013 -0.039475825 0.031633668
-0.044559266 0.033014618 0.4557429 0.8272211 -0.56104177 -0.030618425 0.030508798
-0.037075959 0.034316085 0.45523843 0.74355328 -0.66867369 -0.0020166491 0.030493079
0.035980254 0.035342697 0.45513391 -0.70439231 -0.70921063 0.029184453 0.02922231
0.043378744 0.033643205 0.45441964 -0.77258581 -0.63480973 0.011295701 0.0280705
-0.033748101 0.04609099 0.4552047 0.54044867 -0.84114248 -0.019860867 0.032405641
-0.027228028 0.042534519 0.45403376 0.51454031 -0.85746515 -0.0013663834 0.029867608
-0.01697433 0.047442567 0.45658672 0.28312132 -0.95875621 0.02507617 0.039400164
-0.0076046684 0.049898367 0.4535481 0.10866132 -0.99407697 0.001924611 0.021706142
0.0069472394 0.049984921 0.45259216 -0.12602413 -0.99202359 0.0026577187 0.025924938
0.015133264 0.048124004 0.45441112 -0.26808169 -0.96334213 0.010207746 0.033419795
0.025477467 0.043727953 0.45633778 -0.51129538 -0.85887116 0.030287756 0.032017007
0.034449242 0.045552999 0.4556466 -0.58163774 -0.81238353 0.041601527 0.030028488
0.041250281 0.040056661 0.45738867 -0.71260357 -0.70094395 0.029557182 0.029412761
-0.023571961 0.052052647 0.45525366 0.38712007 -0.92197734 0.0097891213 0.032701407
-0.014546333 0.055450808 0.45652932 0.16106582 -0.98668981 0.022383457 0.022862576
-0.0058800941 0.054147959 0.45525894 0.09223564 -0.99573654 -0.00116906 0.022390721
0.0031742281 0.052397139 0.45511702 -0.050908357 -0.99848783 0.020748178 0.020898297
0.016414709 0.055017292 0.45018741 -0.28794855 -0.95763671 0.0042032055 0.032734785
0.023089044 0.052252695 0.45439687 -0.3891899 -0.92115748 1.6410438e-06 0.031803738
-0.023274174 -0.052175995 0.46630374 0.36350915 0.93154836 0.0088787675 0.030749643
-0.012663598 -0.055863637 0.46369532 0.16715971 0.98591202 -0.0059151105 0.027527379
-0.0045419089 -0.051139608 0.46424988 0.10422631 0.99337363 -0.04843181 0.030273641
0.0056762481 -0.053504366 0.46500674 -0.079729713 0.9959383 -0.041833352 0.028351285
0.012715578 -0.055929739 0.46567592 -0.16394031 0.98565692 -0.040050305 0.029175775
0.024214612 -0.051786464 0.46799341 -0.40643233 0.91124928 -0.066613905 0.035916686
-0.036969244 -0.04361932 0.46787143 0.63224888 0.77045614 -0.081600815 0.040569104
-0.024746936 -0.043991972 0.46531111 0.51180714 0.85219502 -0.108706 0.042849541
-0.01398256 -0.048611917 0.46534726 0.23587263 0.96760464 -0.090029851 0.043847989
-0.0080203926 -0.049843621 0.46486241 0.14430749 0.98906267 -0.03050198 0.033244733
0.0091816783 -0.049690735 0.46177056 -0.15623665 0.98701042 -0.037422523 0.029333906
0.010670229 -0.049494762 0.46931532 -0.19004571 0.97874737 -0.077046603 0.0438396
0.026310887 -0.045280393 0.46643266 -0.50757605 0.86080533 -0.037159257 0.037256941
0.035677105 -0.044610817 0.4648926 -0.61007929 0.7923255 -0.0048627304 0.033210747
-0.043256998 -0.034711748 0.46804613 0.79753333 0.59985965 -0.064101078 0.03775635
-0.031627022 -0.039340306 0.46759033 0.59523314 0.79322994 -0.12838906 0.048979029
0.037454311 -0.034084924 0.46502385 -0.75832766 0.65186334 0.0036238653 0.038891077
0.044313174 -0.036065001 0.46658739 -0.78319365 0.62170154 -0.0097417133 0.03196609
-0.044387199 -0.024131635 0.46450067 0.86432439 0.49918702 -0.061283797 0.038228709
0.045515299 -0.024383618 0.46499401 -0.87734652 0.47924012 -0.024328824 0.038058743
0.05185971 -0.024037756 0.46520451 -0.91978395 0.39124513 -0.030408395 0.036859475
-0.055853125 -0.012668092 0.46593127 0.98496097 0.17225672 0.013400489 0.027271781
-0.049226262 -0.012709635 0.46182522 0.97273463 0.23190697 0.002522775 0.02699971
0.047308363 -0.017656524 0.46442887 -0.94451708 0.32722005 -0.028539563 0.037471846
0.05424713 -0.018274004 0.46433559 -0.95574951 0.29185277 -0.036943421 0.034451216
-0.050330702 -0.004320662 0.46331319 0.99609435 0.088224523 -0.0035358982 0.022494383
-0.049695473 -0.0091456631 0.46170717 0.99224907 0.12421704 -0.0034393964 0.020874154
0.049745552 -0.0087654693 0.46857619 -0.99027848 0.13501132 -0.033473834 0.039310168
0.055134971 -0.0017779237 0.46408033 -0.99909514 0.028007891 -0.032007709 0.026468497
-0.052978557 0.0060326979 0.46516782 0.99807703 -0.0604041 0.013914349 0.024280902
0.04991331 0.0074911639 0.4661485 -0.99269527 -0.11045919 -0.048526403 0.037067797
0.052954726 0.0047588437 0.46479592 -0.99797767 -0.063273594 -0.0060884282 0.030491611
-0.055370346 0.014987002 0.46396947 0.9729706 -0.23087595 -0.0049566291 0.033886146
-0.047561668 0.01704495 0.46588796 0.95360649 -0.28342548 -0.10151143 0.044989206
0.048349246 0.014813125 0.46497139 -0.9679451 -0.23255837 -0.094862327 0.051408887
0.054836243 0.016851813 0.4655492 -0.96820158 -0.25015077 0.0032184829 0.03396555
-0.052307054 0.022957785 0.46047226 0.92704177 -0.37495813 0.00010381967 0.033585105
-0.044799417 0.028152173 0.46483564 0.8344422 -0.54941142 -0.043050528 0.029318044
0.043481521 0.025744775 0.46416888 -0.86497563 -0.49610013 -0.075510174 0.044208154
0.050841838 0.026495159 0.46271595 -0.906748 -0.42153871 -0.010635749 0.032816287
-0.043033708 0.034612801 0.46384019 0.78380346 -0.61680353 -0.072149597 0.027736397
-0.036549371 0.0349329 0.46424481 0.7197001 -0.69151169 -0.061994094 0.027369607
0.033435918 0.037864603 0.46659151 -0.62346286 -0.77391225 -0.11114797 0.048144832
0.045833863 0.03408321 0.46593237 -0.80540055 -0.58903676 -0.066073298 0.036672436
-0.034509093 0.043412499 0.46622902 0.65090811 -0.7563023 -0.065767832 0.031554271
-0.025414335 0.043818042 0.46669072 0.53483844 -0.84003609 -0.09103363 0.039856475
-0.013753462 0.048675641 0.46642497 0.2374673 -0.96667308 -0.0956681 0.041527424
-0.0084747802 0.049783818 0.4696027 0.11032469 -0.98983812 -0.089715533 0.05105589
0.0099956673 0.049583592 0.46368527 -0.14844841 -0.98847926 -0.029526753 0.030758658
0.014472753 0.048372045 0.4630754 -0.24785034 -0.96844018 -0.026340311 0.031777188
0.025789848 0.043543983 0.46335071 -0.51568514 -0.85490429 -0.056633547 0.034143187
0.035312928 0.04489027 0.46270075 -0.60371029 -0.79691416 -0.021489197 0.026819531
-0.026173035 0.050975252 0.46527573 0.46085885 -0.886783 -0.034999609 0.033383921
-0.016574143 0.054951236 0.4638631 0.20476319 -0.97867721 -0.016218167 0.03225641
-0.0052190791 0.05356456 0.46382126 0.059751537 -0.99812102 -0.013572944 0.023955325
0.003713036 0.051751561 0.46364459 -0.05244597 -0.99843943 -0.019184925 0.023974504
0.01496692 0.055123575 0.46565035 -0.18468906 -0.9827612 -0.0083874306 0.031281468
0.024513833 0.051662527 0.46844169 -0.43534151 -0.89760906 -0.069106579 0.04681655
-0.023657478 -0.052017219 0.47194719 0.40946931 0.91056603 -0.056607444 0.050125051
-0.014448589 -0.055460483 0.47683382 0.23128478 0.97206706 -0.039910719 0.061342511
-0.005062005 -0.054702606 0.47566673 0.13003987 0.9892143 -0.067413941 0.060089696
0.0025115558 -0.053082973 0.47564182 -0.019601606 0.99277061 -0.11841583 0.061603926
0.014462875 -0.055463728 0.47639763 -0.27629027 0.9596405 -0.052477434 0.040699746
0.022718759 -0.052406065 0.47279358 -0.38089025 0.92443728 -0.018396934 0.040941916
-0.031676728 -0.047680408 0.47470295 0.53517574 0.83934838 -0.095295265 0.06413164
-0.023864366 -0.044595435 0.47609061 0.47981605 0.86006892 -0.17337219 0.087537445
-0.015583074 -0.04809732 0.4731006 0.27653947 0.95385104 -0.11702178 0.077735506
-0.0086012548 -0.049767148 0.47616255 0.17174555 0.96499395 -0.19821756 0.10565566
0.0088136084 -0.049739189 0.47275162 -0.17246899 0.98279119 -0.066150017 0.044067144
0.012843201 -0.048902277 0.47443983 -0.22635075 0.96828693 -0.10576275 0.060635887
0.025170706 -0.043756809 0.47207227 -0.50189996 0.86246073 -0.06525217 0.060099117
0.030802362 -0.044162221 0.47516555 -0.55014092 0.83325678 -0.055028457 0.056476872
0.040042233 -0.041261341 0.47021824 -0.68209165 0.73091847 -0.022567483 0.039047692
-0.047142424 -0.032377843 0.4764688 0.81588352 0.57491291 -0.0617196 0.065187506
-0.035181284 -0.036308046 0.47260678 0.71324486 0.68986982 -0.12394154 0.049845651
0.035220098 -0.036035948 0.47586986 -0.67188191 0.72667456 -0.14324357 0.08122392
0.043746885 -0.034983214 0.47734663 -0.79479218 0.60449094 -0.05381598 0.046465237
-0.05144155 -0.02504728 0.47486806 0.88245487 0.46969217 -0.025742684 0.052012544
-0.043311514 -0.026162056 0.47338369 0.8290534 0.54383284 -0.13006248 0.076806232
0.04372853 -0.025276626 0.47710392 -0.86820275 0.48670879 -0.096636564 0.065963477
0.050907996 -0.026335411 0.47485447 -0.88800579 0.45902538 -0.027229996 0.041675612
-0.053706609 -0.019578911 0.47374341 0.95146966 0.30327126 -0.052269071 0.058426034
-0.047762658 -0.016559701 0.47574019 0.94098955 0.31066206 -0.13426743 0.089850157
0.048456796 -0.014426684 0.47132987 -0.97133082 0.22347793 -0.081080243 0.06085268
0.056078147 -0.011588381 0.47831497 -0.98583788 0.13537662 -0.098979078 0.055141054
-0.054917414 -0.0058553121 0.47752714 0.9901737 0.11700656 -0.076587021 0.061869163
-0.049628273 -0.0096560651 0.47164246 0.98622262 0.14436427 -0.080770619 0.050137866
0.055039462 -0.0049283132 0.47393101 -0.99628985 0.073821418 -0.044237051 0.043090783
-0.053529233 0.0054873112 0.47535518 0.99455583 -0.043155354 -0.094849482 0.061647218
-0.049746953 0.0087546837 0.47130746 0.98405623 -0.16293114 -0.071320899 0.051120564
0.049743623 0.0087801209 0.47558701 -0.98085964 -0.14076801 -0.13453178 0.07491108
0.050518405 0.0028949645 0.47411746 -0.99512064 -0.04222386 -0.0891748 0.06651859
-0.054593131 0.017438697 0.47269869 0.95514894 -0.28773227 -0.070004776 0.05441511
-0.048314996 0.014734524 0.4752163 0.94307464 -0.29098818 -0.16104671 0.067532741
0.049075771 0.012533695 0.47604108 -0.97057396 -0.20216599 -0.13082486 0.079422027
0.055504471 0.01382287 0.47335157 -0.97659332 -0.20569645 -0.062884733 0.057715219
-0.051173318 0.025694888 0.47215509 0.88316333 -0.45862523 -0.098414257 0.043538254
-0.044170219 0.024503067 0.47422928 0.82521647 -0.53009504 -0.19497934 0.068679161
0.043539744 0.025741568 0.47537649 -0.84095496 -0.49877015 -0.20981683 0.093312055
0.051339999 0.025292477 0.47581187 -0.88742554 -0.4532038 -0.084156595 0.062478706
-0.04326611 0.035869751 0.47701916 0.78943336 -0.60548544 -0.10090791 0.049384955
-0.036727648 0.034740034 0.47588888 0.7187109 -0.66236615 -0.21148467 0.087137744
0.035809919 0.03549929 0.47567859 -0.67811489 -0.71022266 -0.18906061 0.079226524
0.04487434 0.035333686 0.47514597 -0.77788037 -0.62428838 -0.071875133 0.056730185
-0.035580076 0.044685278 0.47443661 0.61024219 -0.78463203 -0.10934801 0.049346615
-0.024578094 0.045695998 0.47430116 0.55300885 -0.82158941 -0.13846347 0.051915113
-0.013363144 0.048781704 0.47466475 0.24992687 -0.95230883 -0.17505553 0.078558005
0.0098284595 0.049605608 0.47672132 -0.23497921 -0.95533687 -0.17921019 0.089117646
0.01560948 0.048001599 0.47392848 -0.26893625 -0.93954796 -0.21195015 0.094380029
0.024173072 0.044344634 0.4753221 -0.51390958 -0.84317088 -0.15798667 0.093272969
0.03126435 0.043807738 0.47754511 -0.58415872 -0.78818291 -0.19371706 0.09163297
-0.02483329 0.05153019 0.47542322 0.47875914 -0.87093276 -0.11075126 0.04700708
-0.013797217 0.055657327 0.47376028 0.21529397 -0.97544426 -0.046442151 0.043725401
-0.0060211592 0.052341592 0.47525573 0.090467647 -0.98861682 -0.12021835 0.063375115
