# .PCD v0.7 - Point Cloud Data file format
VERSION 0.7
FIELDS x y z normal_x normal_y normal_z curvature
SIZE 4 4 4 4 4 4 4
TYPE F F F F F F F
COUNT 1 1 1 1 1 1 1
WIDTH 578
HEIGHT 1
VIEWPOINT 0 0 0 1 0 0 0
POINTS 578
DATA ascii
-0.0073337131 0.17681226 0.044423722 0.061696645 -0.99668288 -0.053073723 0.01957511
0.0050078579 0.17268628 0.044669565 -0.014078208 -0.99909866 -0.040046986 0.020036353
0.018806355 0.17530186 0.044962477 -0.10804228 -0.99351054 -0.035548326 0.021943903
0.023266586 0.17459989 0.046310026 -0.10777466 -0.99405617 -0.015391912 0.025121445
0.035494454 0.1729731 0.047716897 -0.18521598 -0.98256838 -0.015952425 0.022846278
0.044626839 0.17190252 0.045668535 -0.2547988 -0.96694589 0.0096555585 0.025894068
-0.044464517 -0.17134494 0.053438347 0.28189686 0.95584476 -0.083036192 0.02304332
-0.039221235 -0.17174488 0.057152834 0.22179519 0.97067267 -0.092744924 0.023318628
-0.0050306441 -0.17322266 0.055095736 0.02929258 0.99848127 -0.046658352 0.020392166
0.015086628 -0.17497417 0.056298129 -0.059709225 0.99367917 -0.095060557 0.022606133
0.026291218 -0.1733529 0.05813456 -0.14091183 0.98386884 -0.11020906 0.022691146
0.033250727 -0.17303753 0.050671637 -0.16968742 0.98506701 -0.029138448 0.023238974
0.043355931 -0.17124701 0.056558203 -0.25898373 0.96297735 -0.074846283 0.023560964
-0.072834849 -0.16016734 0.051307268 0.36447874 0.92955798 -0.05547167 0.017452147
-0.069134824 -0.16137999 0.055121318 0.37672755 0.92399728 -0.065615378 0.019055726
-0.052580386 -0.16592132 0.055569876 0.32422596 0.94017327 -0.10465039 0.021910958
-0.045432292 -0.16418722 0.055823009 0.29252061 0.94959456 -0.11270261 0.023077106
-0.034897685 -0.1663527 0.051943682 0.19818453 0.97804302 -0.064456157 0.024810383
-0.024020694 -0.16765389 0.053617042 0.1312125 0.98908454 -0.067045055 0.021634098
-0.013595596 -0.16892093 0.054767139 0.067953013 0.99601489 -0.057763971 0.019333357
-0.0055966801 -0.16983962 0.0563737 0.042689029 0.99850017 -0.034278709 0.020760825
0.016794994 -0.16833059 0.056787599 -0.080599494 0.99299532 -0.08639469 0.023329994
0.024547417 -0.16740696 0.055609681 -0.13906932 0.98787498 -0.069012664 0.025864176
0.035253454 -0.16632855 0.051653583 -0.19688159 0.97782743 -0.071351878 0.024249457
0.043863367 -0.1666168 0.056628693 -0.24976183 0.96475089 -0.082914144 0.022375006
0.055833172 -0.16476814 0.053255212 -0.36437696 0.93013805 -0.045527298 0.018739777
0.065944582 -0.16300434 0.051510293 -0.38105226 0.92173833 -0.072094396 0.018484397
-0.091109939 -0.15124865 0.056323219 0.50517738 0.86040318 -0.067098409 0.019688353
-0.082575023 -0.15576719 0.055666056 0.41379601 0.90882319 -0.053040799 0.020879408
-0.073102593 -0.15269767 0.057559092 0.39033186 0.9188264 -0.058302183 0.020453189
-0.063415349 -0.15704532 0.05356475 0.36820906 0.92788291 -0.058782343 0.018502496
-0.057094932 -0.15915073 0.058957938 0.33409247 0.93555909 -0.11450548 0.020867553
0.066075332 -0.15580639 0.055199489 -0.39955294 0.91152894 -0.097327024 0.018878939
0.073392853 -0.15286836 0.054091059 -0.43116963 0.89600819 -0.10612272 0.02090816
0.085137293 -0.15474597 0.055122323 -0.50106072 0.85697305 -0.12056296 0.024469061
0.090558603 -0.15180963 0.054929882 -0.49063605 0.86449385 -0.10920966 0.022311227
-0.10275228 -0.1423097 0.056397587 0.58779764 0.80520457 -0.078354962 0.019943938
-0.096319035 -0.146421 0.053205244 0.56432617 0.8242197 -0.04688235 0.019313933
-0.083584763 -0.14820495 0.056166559 0.46059728 0.88390839 -0.080969386 0.023086514
0.083978586 -0.14831936 0.054766446 -0.4971686 0.86046988 -0.11142256 0.023514297
0.095981374 -0.14360233 0.055439167 -0.56618261 0.82203734 -0.060760941 0.020472782
0.10093615 -0.14374611 0.055959158 -0.5734458 0.81483638 -0.084862709 0.020405076
-0.112986 -0.13484539 0.052422792 0.64710259 0.75991684 -0.061519928 0.017961318
-0.10532367 -0.13522381 0.054421473 0.6233772 0.78015971 -0.052457016 0.019558223
-0.095780969 -0.13987496 0.054609034 0.57259423 0.81758219 -0.060789015 0.021192264
0.098678097 -0.13759798 0.055161148 -0.56942952 0.81603205 -0.099205278 0.018884568
0.10408103 -0.13323784 0.056939967 -0.60899401 0.78654778 -0.10231731 0.018985407
0.1167186 -0.13201079 0.052120559 -0.65407985 0.75387549 -0.06205954 0.020310514
-0.1213167 -0.1282794 0.054200057 0.67003566 0.73985326 -0.060574543 0.020735938
-0.11489604 -0.12536867 0.052958775 0.6698848 0.74062634 -0.052221376 0.019392695
0.11562306 -0.12451407 0.055738527 -0.67660815 0.73339331 -0.065846555 0.019798877
0.12084183 -0.12833419 0.057369199 -0.68027788 0.72873789 -0.078504562 0.020523962
-0.13397595 -0.11367288 0.055718895 0.76510429 0.63929331 -0.076938823 0.019046806
-0.12476301 -0.11561792 0.053488452 0.72632033 0.6829989 -0.077274106 0.018683609
0.12682879 -0.11304893 0.052520599 -0.7471292 0.65996534 -0.079016834 0.019026605
0.13351634 -0.11428255 0.055499982 -0.74894053 0.65943432 -0.065073013 0.019512607
-0.14255112 -0.10282019 0.053392928 0.79243022 0.6073609 -0.056276932 0.022587413
-0.13290466 -0.10480834 0.05505285 0.78327417 0.61509371 -0.090229072 0.021788035
0.1290876 -0.10901193 0.059765775 -0.75632846 0.64508963 -0.10874986 0.018513223
0.13743004 -0.10532574 0.053546332 -0.79153609 0.60724741 -0.068711534 0.018658573
0.1425705 -0.10265677 0.05447828 -0.80339122 0.59024078 -0.078602627 0.018544881
-0.15117094 -0.091043323 0.05735714 0.8590886 0.5058893 -0.077735439 0.021486497
-0.14573064 -0.093933269 0.055734623 0.83965856 0.54018378 -0.056347944 0.022066843
-0.13980046 -0.095782459 0.05536006 0.80965346 0.58180553 -0.077223912 0.022455133
0.13868791 -0.097105891 0.055991523 -0.80932397 0.57901734 -0.09865956 0.019664971
0.14670976 -0.093704917 0.055174638 -0.82509208 0.55997926 -0.075141527 0.017372649
-0.15450759 -0.085616753 0.055662043 0.87683082 0.47514191 -0.073538497 0.022595372
-0.1465908 -0.086148918 0.05624358 0.859384 0.50303286 -0.091744818 0.022614082
0.14699014 -0.086536348 0.054388709 -0.85265762 0.51664412 -0.077806801 0.017683866
-0.15931824 -0.074568421 0.052869186 0.9113102 0.40580809 -0.069523767 0.020279368
0.15464112 -0.072933234 0.055467721 -0.91616845 0.39353594 -0.075926974 0.017389202
-0.16336475 -0.064335488 0.055159364 0.92653441 0.36826289 -0.076918326 0.017953439
-0.1569142 -0.064353883 0.050493412 0.92438847 0.37775278 -0.052997764 0.018121848
0.15686649 -0.063986935 0.052874327 -0.91967273 0.37881151 -0.1034594 0.018397737
0.16313317 -0.064786628 0.055640444 -0.91855866 0.38350764 -0.095770046 0.016104685
-0.16491726 -0.057090621 0.056131374 0.94267243 0.32498172 -0.075866215 0.021301057
-0.1591786 -0.057243694 0.058356605 0.93826586 0.33130115 -0.099482439 0.020953964
0.16122825 -0.053360298 0.053350169 -0.94168991 0.32599533 -0.083349153 0.01871663
-0.1714993 -0.043159023 0.053662613 0.96301037 0.25285417 -0.09314394 0.023198625
-0.16775189 -0.048652783 0.053141594 0.95394605 0.29284164 -0.065043204 0.022188624
0.16340841 -0.047631398 0.055648915 -0.95184618 0.29470876 -0.084472634 0.018566819
0.17143886 -0.045655377 0.050231062 -0.96705467 0.25252324 -0.032207739 0.022759387
-0.17305593 -0.031935159 0.052651919 0.98367256 0.16578071 -0.070035726 0.022186816
-0.16585337 -0.039086111 0.051277354 0.97391999 0.21930084 -0.058197688 0.022535305
0.16646469 -0.03327423 0.053245373 -0.97574288 0.21014565 -0.061357707 0.02402542
0.17243879 -0.032892365 0.058838956 -0.97717893 0.19149917 -0.091919981 0.022035636
-0.17379238 -0.023788458 0.056630641 0.98406118 0.14894822 -0.097149804 0.020197008
-0.16749045 -0.024811795 0.05437528 0.9886688 0.12854019 -0.077533305 0.022218533
0.16788116 -0.023270451 0.051973097 -0.98522222 0.16101857 -0.058397118 0.022643197
0.17365116 -0.024254182 0.057973471 -0.98521334 0.13585782 -0.10438982 0.021115864
-0.17523822 -0.014026314 0.054808896 0.99340063 0.053657118 -0.10137105 0.022383127
-0.16823569 -0.017384611 0.056803558 0.99016845 0.079187982 -0.11530687 0.021412604
0.16872263 -0.013812819 0.056874562 -0.99314922 0.074349657 -0.090148136 0.021726821
-0.17536056 -0.0053132656 0.054276496 0.99732995 0.022372873 -0.069515228 0.021308962
-0.16949235 -0.0077711437 0.057202667 0.99406856 0.044249043 -0.099346235 0.023439582
0.16969162 -0.0072360439 0.055817403 -0.99578679 0.064966291 -0.064715125 0.021825312
-0.17662799 0.0039062165 0.054162011 0.9978658 -0.024505287 -0.060525928 0.023116665
-0.16923115 0.0086346082 0.058776066 0.99542654 -0.035991888 -0.08849059 0.021391215
0.16946709 0.0084785633 0.056596939 -0.996207 -0.051798392 -0.069918297 0.022426365
0.17316347 0.0044371746 0.056543633 -0.99667841 -0.038110215 -0.07196971 0.019433038
-0.17510432 0.017753435 0.050332174 0.99299473 -0.09726622 -0.06708739 0.022494573
-0.1689401 0.011700288 0.057912655 0.99511033 -0.064919434 -0.074436814 0.022921823
0.16894054 0.014387988 0.053380203 -0.99401987 -0.088365421 -0.0641561 0.021374574
0.1752973 0.014588828 0.053193454 -0.99332005 -0.085975923 -0.076963909 0.021175317
-0.17400262 0.022829974 0.055675358 0.98843718 -0.11779058 -0.095485412 0.024817502
0.16735081 0.026226308 0.05377946 -0.98928702 -0.12855442 -0.069173768 0.022810724
0.17325351 0.026642034 0.058897667 -0.98997164 -0.11799241 -0.077678122 0.020054976
-0.17236869 0.034830678 0.056377504 0.97899693 -0.17802604 -0.099356487 0.022675935
0.16588986 0.035929296 0.055807143 -0.97197205 -0.21522798 -0.094589815 0.023510121
0.17260262 0.034757264 0.053698119 -0.97547334 -0.19853319 -0.095059909 0.026532665
-0.17010231 0.046919424 0.059912089 0.94949704 -0.29750302 -0.099736467 0.021484951
-0.16417415 0.046215177 0.052527219 0.95471799 -0.29172626 -0.058389459 0.02316938
0.16362354 0.046229821 0.058058809 -0.94873577 -0.3009584 -0.096563399 0.022270959
0.17163032 0.042922236 0.05238498 -0.96985269 -0.23457895 -0.066019021 0.022953823
-0.16606221 0.058373533 0.052442104 0.92494637 -0.3755306 -0.058744032 0.019093491
-0.15931913 0.057032831 0.05797442 0.93216562 -0.35201091 -0.084590971 0.021264952
0.15960027 0.056890912 0.055323858 -0.93631029 -0.34557512 -0.062456764 0.020346086
0.16524725 0.054470032 0.054274529 -0.94579452 -0.3217161 -0.044401392 0.021042075
-0.16355316 0.063852318 0.055299003 0.93639821 -0.34821126 -0.043671619 0.021739945
-0.15584634 0.065876812 0.055502255 0.91613078 -0.39276198 -0.080264837 0.02070912
0.15617225 0.064764425 0.056912147 -0.9253006 -0.36837533 -0.090102278 0.020380452
0.16358736 0.063373774 0.057254381 -0.92471468 -0.36946324 -0.091649413 0.021373397
-0.15386163 0.076145001 0.055767685 0.8975606 -0.43031365 -0.095995612 0.022274273
0.15716207 0.074839905 0.05667033 -0.92130017 -0.37344739 -0.10836565 0.020154875
-0.1548484 0.08519274 0.053676169 0.88297665 -0.45762184 -0.10456769 0.021411132
-0.14785659 0.085767552 0.051557761 0.8677184 -0.4891693 -0.088194542 0.020354889
0.14824238 0.084364891 0.055059057 -0.88406038 -0.45625332 -0.1013417 0.023891244
0.15483978 0.085100085 0.054253254 -0.89343202 -0.44159588 -0.082294054 0.022400932
-0.14742792 0.096615314 0.052209213 0.82920617 -0.55364084 -0.076804616 0.019824194
-0.13735442 0.098735996 0.056480456 0.8009333 -0.58894646 -0.10792547 0.017505907
0.13853125 0.097299807 0.056433704 -0.79682839 -0.5972569 -0.091371387 0.020690797
0.14517413 0.094751321 0.055005856 -0.80640352 -0.58491153 -0.08713077 0.021687306
0.15047497 0.091837727 0.058378797 -0.8601554 -0.5003643 -0.098834172 0.023388701
-0.14035392 0.10579103 0.052549209 0.79468405 -0.60046089 -0.089016214 0.01848812
-0.13600057 0.10383395 0.05767731 0.79101998 -0.60312521 -0.10260291 0.018102441
0.13532257 0.10420883 0.055068415 -0.77043587 -0.634422 -0.062747575 0.019282177
0.14042996 0.10474378 0.059437729 -0.79456288 -0.59809649 -0.10464445 0.019303976
-0.13482556 0.11306695 0.051989812 0.77658886 -0.62029743 -0.11018578 0.016885716
-0.12611027 0.11578691 0.054663699 0.74206465 -0.66173542 -0.10698684 0.01705315
0.12466422 0.11575899 0.053391386 -0.73153198 -0.67944932 -0.056653634 0.021219835
-0.12335838 0.12307004 0.054439448 0.70753348 -0.69600099 -0.12238887 0.01754866
-0.10957609 0.12896723 0.057259321 0.6447413 -0.75812227 -0.097770967 0.01875598
0.11461729 0.12558325 0.052951504 -0.66497314 -0.74476236 -0.056033026 0.020476462
0.12452091 0.12514967 0.056037411 -0.69209039 -0.72047824 -0.043838773 0.020424977
-0.11386889 0.13376077 0.056590732 0.63238966 -0.76873118 -0.095580608 0.016925059
-0.10632756 0.13689305 0.056605846 0.64227605 -0.75979894 -0.10093085 0.018389633
0.098257124 0.13786528 0.055536367 -0.61698622 -0.78525996 -0.051910486 0.020135673
0.10194401 0.13500635 0.055890694 -0.63041317 -0.77256083 -0.075689852 0.019858252
0.11389154 0.13408524 0.053091183 -0.66224372 -0.74725455 -0.055172846 0.020988666
-0.10438893 0.14125142 0.054194927 0.60111612 -0.79609334 -0.06996204 0.018934006
-0.093359105 0.14320581 0.059161216 0.55729598 -0.82340926 -0.10685715 0.018551921
-0.085934103 0.147019 0.054893374 0.51867646 -0.85178405 -0.073747411 0.020093482
0.085192479 0.14750727 0.054899711 -0.49426907 -0.86461681 -0.090198405 0.025597941
0.092191041 0.14498122 0.057141293 -0.52698672 -0.84412938 -0.098643251 0.023794651
0.10270718 0.14245285 0.055286676 -0.61698747 -0.7852596 -0.051903043 0.020141225
-0.0916325 0.15062048 0.058667678 0.50957906 -0.85737193 -0.072405681 0.017867651
-0.086008802 0.15448178 0.053957827 0.44556895 -0.89221269 -0.073653847 0.019845445
-0.077186815 0.15469137 0.054361004 0.40726715 -0.90709823 -0.10633048 0.019392468
-0.06299635 0.15712988 0.054625764 0.36449948 -0.92723471 -0.085883349 0.018063415
-0.058377672 0.15938076 0.050599158 0.34007999 -0.93709975 -0.078673765 0.018842334
0.064831287 0.15625593 0.055907201 -0.38031054 -0.91984844 -0.096139371 0.020721965
0.07719864 0.15432486 0.058376901 -0.42232478 -0.89501661 -0.14348242 0.020734141
0.085329391 0.15478742 0.053745236 -0.49820226 -0.86054671 -0.10608495 0.023286603
0.0917565 0.15063226 0.057573006 -0.50082511 -0.85951036 -0.10205986 0.024603121
-0.063559115 0.16376142 0.054171491 0.36720809 -0.92664415 -0.080553606 0.017629044
-0.053728759 0.16774043 0.05537089 0.34330535 -0.93724984 -0.060861371 0.019978989
-0.044415876 0.16469933 0.054964382 0.26380041 -0.96202153 -0.070170298 0.022510491
-0.033966787 0.16635925 0.053427726 0.19383289 -0.97755307 -0.082575396 0.022127423
-0.02393488 0.16777472 0.052215654 0.14114523 -0.9853723 -0.095495708 0.023366241
-0.013137631 0.16854011 0.059484355 0.098247483 -0.98815179 -0.11791292 0.023574268
-0.0089727435 0.16946381 0.055806737 0.044028103 -0.99571657 -0.081301384 0.023592783
0.0075472593 0.16956076 0.056967247 -0.030250508 -0.99313122 -0.11302815 0.021385394
0.022989091 0.16770971 0.05428829 -0.085445508 -0.99442923 -0.061721344 0.022745991
0.03425011 0.16623877 0.054491818 -0.20514454 -0.97651017 -0.06590607 0.025057578
0.049809232 0.16948214 0.053962089 -0.29455873 -0.95453137 -0.045880791 0.023834964
0.05474671 0.16386729 0.055620089 -0.35082322 -0.9326753 -0.083904199 0.020102175
0.062820449 0.16395435 0.055569291 -0.35530156 -0.93111998 -0.082318731 0.020547017
0.070733249 0.16067046 0.055687055 -0.37120256 -0.92275345 -0.10360792 0.019316545
-0.043972962 0.17128597 0.053807441 0.27844453 -0.95790511 -0.069904044 0.022750869
-0.035362754 0.17248785 0.054146305 0.19479407 -0.97603428 -0.097017199 0.022112822
-0.026570739 0.173416 0.056932952 0.15051129 -0.98492658 -0.08524096 0.019246878
-0.013674408 0.17520201 0.055952329 0.084729627 -0.99074799 -0.10601498 0.025085544
-0.0038872987 0.17513615 0.052910533 0.023292782 -0.99570429 -0.089612164 0.021950299
0.0046391152 0.17472637 0.056647785 -0.014555874 -0.99513263 -0.097463116 0.020010415
0.013400045 0.17521457 0.05597201 -0.074235328 -0.9918161 -0.10387436 0.02024151
0.026541611 0.17356777 0.055187847 -0.12984893 -0.98735863 -0.09089724 0.02365604
0.034118172 0.17220418 0.059366919 -0.17693913 -0.97751147 -0.11473368 0.025155576
0.043504663 0.17111832 0.057156026 -0.24759337 -0.96456653 -0.091153346 0.024112426
-0.040806975 -0.17025816 0.067050837 0.23674479 0.96013993 -0.14860412 0.021665525
-0.033159528 -0.17153275 0.065119542 0.18889844 0.9705599 -0.14943543 0.018423935
-0.028999975 -0.17182417 0.066967286 0.15251164 0.97684669 -0.15003575 0.018952424
-0.013932572 -0.1736687 0.067970723 0.11128041 0.98372555 -0.14106958 0.018121256
-0.0045336396 -0.17535348 0.064744189 0.0377356 0.99230641 -0.11791506 0.01975614
0.0031987831 -0.17544416 0.065357581 -0.034463115 0.99484068 -0.09541624 0.024953952
0.014219509 -0.17338899 0.069715485 -0.082969829 0.98383367 -0.15870512 0.020519776
0.023728717 -0.17319162 0.06211016 -0.12897217 0.98271435 -0.1328104 0.021970211
0.035657208 -0.17140946 0.063637309 -0.20026487 0.97161072 -0.12596226 0.024136256
0.045513928 -0.17050746 0.060783658 -0.24750403 0.9635905 -0.10116792 0.022655278
-0.064622283 -0.16233087 0.062860288 0.35246131 0.92411023 -0.14761855 0.018691063
-0.054213915 -0.16307621 0.063711047 0.32592091 0.93292844 -0.15303631 0.018938314
-0.041704372 -0.1639898 0.065177657 0.26023158 0.95432025 -0.14680755 0.020301508
-0.036878079 -0.16525716 0.060619891 0.22224973 0.96731746 -0.12207339 0.022352824
-0.025894379 -0.16591807 0.066282265 0.1529298 0.97850686 -0.13833562 0.01866948
-0.012623632 -0.16784203 0.065006837 0.11258393 0.98257047 -0.14791931 0.01692041
-0.0040811822 -0.16901515 0.064657167 0.036171474 0.99011511 -0.13551293 0.019862162
0.0048189852 -0.16884375 0.065192878 -0.028437706 0.99433136 -0.1024521 0.024293708
0.018428769 -0.1673698 0.062900715 -0.11593119 0.98660916 -0.11472676 0.021415183
0.036735214 -0.16486758 0.063565254 -0.2004815 0.973674 -0.10847181 0.020075627
0.046514682 -0.1627003 0.064250506 -0.29122812 0.94605136 -0.14203179 0.022718601
0.053679585 -0.16655037 0.06496457 -0.34877533 0.93110901 -0.10673305 0.018958101
0.064627342 -0.16229653 0.063076928 -0.3798342 0.91331506 -0.14690691 0.020062888
-0.081992231 -0.15433797 0.068223387 0.43149015 0.8904894 -0.14437751 0.020572549
-0.07692828 -0.15046951 0.062089544 0.42868292 0.89821911 -0.097125232 0.021674113
-0.065243341 -0.1548555 0.065141171 0.35753495 0.92412806 -0.13474485 0.019022103
-0.057862125 -0.15835652 0.062159821 0.3398141 0.93278193 -0.12018431 0.019307408
0.056012444 -0.1585879 0.065753743 -0.38482243 0.91577107 -0.11521773 0.019093646
0.067069396 -0.1554504 0.067616932 -0.40274093 0.90342587 -0.14704266 0.01879265
0.074755102 -0.15120167 0.063218623 -0.45516661 0.88290018 -0.11537127 0.018850798
0.080950059 -0.15548378 0.06342411 -0.4472414 0.88502717 -0.12923622 0.01994146
-0.10021557 -0.14256792 0.067151539 0.57825059 0.8076362 -0.11554256 0.017089516
-0.095681086 -0.14641277 0.065042682 0.53835899 0.834907 -0.11445493 0.0183316
-0.087849304 -0.14453846 0.064312205 0.50964016 0.85249132 -0.11629914 0.018325716
-0.079283237 -0.14947054 0.062247712 0.42744341 0.89708024 -0.11197833 0.021802852
0.078260183 -0.14930518 0.066206753 -0.4416118 0.88949794 -0.11735628 0.019800935
0.081235878 -0.14788765 0.06744983 -0.47590572 0.86568713 -0.15524006 0.017559551
0.090803593 -0.14224514 0.064464562 -0.4974952 0.85573202 -0.14220087 0.01872017
-0.11402394 -0.13252251 0.06397672 0.65617377 0.74879134 -0.093527853 0.018325265
-0.10687303 -0.13456129 0.068467602 0.62500447 0.76823759 -0.1384932 0.018489402
-0.097389132 -0.13681179 0.066658132 0.58409131 0.80265522 -0.12075596 0.017883215
0.096553519 -0.1379524 0.063775852 -0.56527817 0.81807345 -0.10590737 0.01852276
0.10706259 -0.13589458 0.066097453 -0.59698516 0.79104424 -0.13363279 0.019731227
0.11195733 -0.13397999 0.064717054 -0.62931144 0.76812226 -0.11813264 0.020112168
-0.12300473 -0.12539235 0.063425556 0.68585533 0.71686119 -0.12534897 0.017682429
-0.1148462 -0.12473684 0.064174898 0.66924888 0.73459119 -0.1117209 0.019274859
0.10771163 -0.12851243 0.068843141 -0.63498718 0.7620405 -0.12682866 0.020455375
0.11689206 -0.12498044 0.063982517 -0.66074002 0.7410593 -0.11938888 0.020604378
0.12432649 -0.12443592 0.062333167 -0.69725466 0.71191686 -0.083727583 0.019008875
-0.12298059 -0.11743422 0.066959061 0.72681171 0.66756201 -0.16157284 0.018466424
0.12271512 -0.11603601 0.065437041 -0.7359578 0.6620369 -0.14168027 0.021993145
0.13236529 -0.11396044 0.065165304 -0.75610393 0.63460237 -0.15995838 0.018721992
-0.14202204 -0.10233594 0.060912278 0.79399782 0.59868091 -0.10558748 0.021879198
-0.13695286 -0.10515277 0.066135809 0.76529574 0.62602299 -0.14972517 0.018797155
0.1279331 -0.10963346 0.063676096 -0.75160426 0.64712405 -0.12775569 0.018858667
0.13587672 -0.10441728 0.064046107 -0.78739339 0.60479116 -0.11932902 0.017210362
0.14136182 -0.10294867 0.062009156 -0.80061775 0.58090162 -0.1468485 0.01731994
-0.14731072 -0.094700195 0.064204261 0.83019727 0.54712147 -0.10691406 0.022145515
-0.13877973 -0.095200002 0.064995155 0.78894782 0.5992108 -0.13604292 0.021127023
0.13623865 -0.098133802 0.066668086 -0.80803818 0.57242095 -0.13931446 0.019742677
0.14718932 -0.094688892 0.064955018 -0.83028531 0.54148859 -0.13197125 0.016622581
-0.15355992 -0.084293403 0.066862039 0.88313836 0.4498468 -0.13305791 0.019428875
-0.14415233 -0.088279791 0.064634241 0.85677582 0.49946812 -0.12832318 0.019374646
0.14662206 -0.084736906 0.066070206 -0.86767942 0.47770691 -0.13758107 0.016596859
0.15369025 -0.084628567 0.064736724 -0.86274934 0.48082399 -0.15643507 0.017381104
-0.15574493 -0.073536016 0.066898204 0.88519579 0.44327739 -0.14118597 0.021348843
0.14957583 -0.078297406 0.064284422 -0.8932935 0.4318614 -0.12458924 0.020267855
0.15660967 -0.073938504 0.065102905 -0.92829001 0.35733017 -0.10292093 0.016131163
-0.16313794 -0.061574243 0.065921195 0.92980587 0.33550942 -0.15130943 0.018975694
-0.15495169 -0.065619029 0.063448906 0.91005194 0.39343002 -0.13045408 0.020004213
0.15554926 -0.06787049 0.068575017 -0.92845011 0.34577847 -0.13571191 0.017903145
0.16107902 -0.065949552 0.067578509 -0.92190325 0.36592317 -0.12725824 0.016922412
-0.16649255 -0.054182775 0.063952394 0.93699491 0.31052205 -0.16005218 0.02057201
-0.15838847 -0.057730071 0.062312741 0.93162447 0.33950511 -0.12966144 0.020109517
0.15912767 -0.053971268 0.06780839 -0.9346869 0.32395047 -0.14634392 0.017770939
0.16407678 -0.051374961 0.064889528 -0.95056307 0.28314582 -0.12750801 0.017428491
-0.17094073 -0.041387927 0.061576471 0.9671213 0.2354501 -0.096123613 0.021190083
-0.1660638 -0.048352402 0.064572588 0.95031387 0.26954043 -0.15572871 0.019232761
0.16266443 -0.046818916 0.063949808 -0.95203966 0.28394425 -0.11400111 0.018637111
-0.17096289 -0.038799055 0.063874833 0.96979773 0.20267631 -0.1357004 0.020995108
-0.1653485 -0.032465063 0.064151257 0.97126096 0.17696449 -0.15917175 0.019765675
0.16477761 -0.035111383 0.065755934 -0.96842515 0.19120446 -0.15998024 0.021611547
0.17137507 -0.038312729 0.061363805 -0.96701568 0.22113921 -0.12640424 0.020340025
-0.17273533 -0.024340143 0.064820372 0.98343545 0.1183769 -0.13726461 0.019753581
-0.16598395 -0.025390208 0.066285789 0.98172343 0.11928401 -0.14829142 0.018482609
0.16627528 -0.024310224 0.065210067 -0.97636348 0.15181437 -0.15384012 0.020696299
0.17311899 -0.022765541 0.063548237 -0.98403311 0.11770836 -0.13350509 0.021391995
-0.17365162 -0.012770295 0.069197364 0.98766965 0.080516659 -0.13426012 0.018932289
-0.16751422 -0.014112309 0.065957546 0.98876238 0.10114849 -0.11008149 0.021038707
0.16748841 -0.015510151 0.064816467 -0.98717946 0.095618784 -0.12780342 0.022239614
0.17330664 -0.018532675 0.066214025 -0.98702407 0.10214546 -0.12389459 0.022081323
-0.17517033 -0.0057999473 0.064862646 0.99404395 0.039731946 -0.10147913 0.022716543
-0.16872624 -0.0038443294 0.066965759 0.9918707 0.047794048 -0.1179332 0.021135623
0.16936386 -0.0026724851 0.063479915 -0.99118292 0.022452151 -0.13058428 0.021652645
0.17502311 -0.0051711109 0.066521294 -0.98892301 0.043589428 -0.14188486 0.021604773
-0.17562775 0.002959504 0.064260781 0.99324065 -0.02826551 -0.11257934 0.021135679
-0.16836821 0.0088729151 0.064773247 0.99360329 -0.052195448 -0.10014094 0.021700181
0.1689657 0.0036720743 0.065402284 -0.99094689 -0.016690411 -0.13321346 0.02347203
0.17368153 0.0038828028 0.06586279 -0.98983699 -0.0074019856 -0.14201389 0.023449412
-0.17415011 0.015132326 0.063359722 0.99096853 -0.093927808 -0.095701754 0.022379076
-0.16763347 0.016239138 0.063078135 0.99031425 -0.1044097 -0.091521941 0.020594722
0.1673751 0.015423755 0.06571573 -0.98908681 -0.07332512 -0.12779182 0.022042904
0.17337935 0.016327625 0.067783214 -0.98573387 -0.082312934 -0.14681017 0.020410059
0.16587536 0.025770379 0.066707999 -0.98260003 -0.11378419 -0.14680068 0.018193245
0.17252427 0.021246497 0.06927979 -0.97813052 -0.12483553 -0.16636324 0.019990601
0.17163198 0.032628223 0.064908355 -0.97716606 -0.17289576 -0.12350557 0.021593865
-0.16602024 0.044955168 0.067485943 0.9549126 -0.27064493 -0.12203759 0.023478681
0.17047147 0.044073153 0.062411193 -0.9522962 -0.27699012 -0.12809564 0.022380404
-0.16475706 0.058024645 0.064921021 0.92096388 -0.36741582 -0.12973517 0.019495761
-0.15883182 0.056666292 0.062294327 0.91776192 -0.38265952 -0.10623012 0.020097891
0.15827252 0.057326678 0.064214826 -0.92619348 -0.35418785 -0.12929316 0.018033681
0.16709714 0.052014876 0.065924019 -0.94860148 -0.28980854 -0.12714641 0.020199042
-0.16324048 0.063215435 0.060663462 0.92184883 -0.37586364 -0.094451793 0.019284772
-0.15529504 0.063994929 0.065662369 0.91234404 -0.3906706 -0.12249397 0.02084792
0.15503235 0.064699896 0.065465555 -0.92100751 -0.36464754 -0.13703021 0.019510671
0.1617458 0.064503461 0.067122936 -0.91807467 -0.37252873 -0.13550368 0.016371433
-0.1530305 0.073618829 0.065648146 0.89274448 -0.42921695 -0.13704047 0.021102929
0.14954728 0.077888042 0.065615728 -0.90106469 -0.4058176 -0.15295279 0.020304803
0.15641014 0.07461895 0.065576851 -0.91293031 -0.38658383 -0.13080984 0.018456455
-0.15277962 0.086133219 0.066854872 0.8634668 -0.48343089 -0.14394332 0.018704191
-0.14447561 0.087806702 0.064863443 0.86278325 -0.487385 -0.13439082 0.020016804
0.14488582 0.087801397 0.06251961 -0.84530884 -0.51269585 -0.15031968 0.022817414
0.15331264 0.085335031 0.064700596 -0.88134682 -0.45119956 -0.14016652 0.020687297
-0.14574191 0.09446682 0.065045729 0.82036477 -0.5563677 -0.13212359 0.019606728
-0.13707581 0.097340479 0.065349773 0.81499881 -0.56674397 -0.12074068 0.017801806
0.13724579 0.096926473 0.066202171 -0.79596704 -0.58605736 -0.15156935 0.022564506
0.14501539 0.094924435 0.064900585 -0.80988443 -0.56441855 -0.15974623 0.019392282
0.15010314 0.090902895 0.064904615 -0.84520286 -0.51197278 -0.15334915 0.023750536
-0.13520522 0.10599088 0.064255111 0.77731222 -0.61610395 -0.12728561 0.017855467
-0.12955269 0.10703426 0.065839395 0.78456807 -0.60332656 -0.14300339 0.01714522
0.12885773 0.10760163 0.067337558 -0.76557934 -0.63024265 -0.12916021 0.021598531
0.13938743 0.10493825 0.064592913 -0.78637266 -0.60642189 -0.11777266 0.022184765
0.14180914 0.10213272 0.06304083 -0.79848754 -0.58823001 -0.12807406 0.023693349
-0.13297123 0.11307492 0.065589689 0.75861585 -0.63626039 -0.14026678 0.017098926
-0.12440498 0.11652663 0.062757887 0.74259692 -0.65383244 -0.14509577 0.018085405
0.12543263 0.11422435 0.065481387 -0.73622119 -0.65948194 -0.15186115 0.021401342
0.13384831 0.11219375 0.064430177 -0.75711477 -0.64460385 -0.10612787 0.023123138
-0.12439743 0.1239688 0.065332018 0.7257117 -0.67357457 -0.14014226 0.016741285
-0.11381086 0.12550317 0.064979136 0.671839 -0.72407585 -0.15603395 0.016317902
0.11614132 0.12717222 0.062362924 -0.64637429 -0.758039 -0.087046757 0.022058694
0.12299995 0.12463362 0.069755569 -0.68725926 -0.71177536 -0.14508821 0.021144092
-0.1132468 0.13283917 0.065590665 0.64983118 -0.74352616 -0.15776002 0.016668798
-0.10618081 0.13432519 0.065190688 0.62432563 -0.77282792 -0.113818 0.018331198
0.096366733 0.13723092 0.068766661 -0.57219243 -0.80259323 -0.16864152 0.020158358
0.11502353 0.13181268 0.063646831 -0.6365006 -0.76524043 -0.096302234 0.021657987
-0.094380409 0.14711171 0.066768847 0.5452581 -0.82832676 -0.12871845 0.017896218
-0.077031627 0.1494249 0.068822294 0.40056983 -0.90340078 -0.1530055 0.020367185
0.086366273 0.14558531 0.064439274 -0.47832051 -0.85886949 -0.18317366 0.021542192
0.092267647 0.14863332 0.067343533 -0.50073242 -0.84059232 -0.20657109 0.0185239
0.10367278 0.14062746 0.063040607 -0.60501611 -0.78209949 -0.14925116 0.023532329
-0.086279482 0.15232849 0.068538412 0.45943704 -0.87871987 -0.1294954 0.019787015
-0.071947731 0.15621011 0.06511151 0.37133142 -0.919047 -0.13215767 0.019224767
-0.062358048 0.15560322 0.068148032 0.34458271 -0.92445719 -0.16322267 0.018873373
-0.057656813 0.15821742 0.063666351 0.37326503 -0.9199791 -0.11963139 0.018361524
0.054950263 0.15977657 0.06072218 -0.36387986 -0.92518783 -0.10779144 0.019765304
0.066927761 0.15407687 0.065684892 -0.39671755 -0.90433043 -0.15748511 0.01806513
0.074703678 0.15520392 0.064201668 -0.40718454 -0.89943063 -0.15882446 0.018478466
0.085084155 0.15302514 0.067283377 -0.4613069 -0.87005711 -0.17377155 0.01994583
-0.068730749 0.1602899 0.065139815 0.36108157 -0.92165703 -0.14201549 0.019804688
-0.052974097 0.16393489 0.061391477 0.3635602 -0.92520165 -0.10874645 0.018310176
-0.04599034 0.16401486 0.065753274 0.28248063 -0.94428319 -0.1689198 0.018743899
-0.03434287 0.16503273 0.064645633 0.18938209 -0.96928954 -0.15688278 0.021412861
-0.022766123 0.16637699 0.0659426 0.12511888 -0.98017412 -0.1536358 0.020392319
-0.014563105 0.16767603 0.064362586 0.08183749 -0.9859612 -0.14554437 0.023652555
-0.0063429414 0.16854745 0.065882757 0.059855025 -0.98619545 -0.15438911 0.023234129
0.0049626338 0.16948229 0.060451247 -0.019532971 -0.99150914 -0.12856151 0.019241819
0.018244956 0.16671574 0.067792341 -0.079853021 -0.98610008 -0.14570527 0.020417307
0.025839813 0.16606021 0.065309003 -0.11247037 -0.97959298 -0.16657741 0.021959292
0.037300788 0.16456956 0.065177619 -0.2094319 -0.96831471 -0.13603288 0.024989251
0.046664722 0.16637169 0.066204235 -0.2405616 -0.95957285 -0.14611673 0.026272725
0.056069188 0.1652136 0.067296192 -0.37344936 -0.91549528 -0.14967968 0.018327244
0.0667255 0.16131897 0.063805811 -0.37829158 -0.91505146 -0.13991524 0.019150194
-0.02426406 0.17280519 0.064388692 0.11964392 -0.98090303 -0.15334462 0.021465454
-0.01627198 0.17370598 0.065480351 0.081842348 -0.98596102 -0.14554322 0.0236624
-0.0082698101 0.17425294 0.06913358 0.060615126 -0.98485625 -0.16243134 0.022469351
0.016967904 0.17331511 0.067638613 -0.056629647 -0.98665458 -0.15266255 0.020154119
0.02835978 0.17274363 0.060943883 -0.13691358 -0.98336089 -0.11939852 0.022837238
0.03240845 0.17159073 0.065414429 -0.17659374 -0.97343069 -0.14576456 0.023515226
0.042533688 0.17065886 0.062521517 -0.25954258 -0.95718342 -0.12820897 0.023246562
-0.033505671 -0.17004292 0.074239105 0.18576832 0.96221119 -0.1990972 0.018950557
-0.025639124 -0.17112902 0.073957905 0.14315657 0.97052771 -0.19386081 0.020476596
-0.015178574 -0.17197108 0.076660395 0.13010748 0.97536349 -0.1781517 0.019509079
-0.0056287334 -0.173287 0.076367393 0.057300642 0.98254746 -0.17696634 0.019985056
0.0058808974 -0.17378028 0.073737107 -0.033622205 0.98529309 -0.16753225 0.022256663
0.015341918 -0.17300576 0.071383715 -0.095695227 0.97823125 -0.18413602 0.020434206
0.022831954 -0.17098983 0.076528907 -0.13028757 0.96986592 -0.20587683 0.020110434
-0.061940052 -0.16166578 0.073691621 0.33184779 0.92487109 -0.1857163 0.01618479
-0.057905059 -0.16355067 0.072604015 0.33556297 0.92506945 -0.17788771 0.016582303
-0.046682656 -0.16591807 0.074682705 0.30366713 0.93685174 -0.17347933 0.020619728
-0.033613611 -0.16504018 0.074899487 0.19024859 0.9663021 -0.17339453 0.01981004
-0.026364664 -0.16463734 0.073592551 0.17106397 0.96515572 -0.19801924 0.019531595
-0.014620878 -0.16604757 0.074271277 0.12938593 0.97324079 -0.18989903 0.02091839
-0.0057659806 -0.16708535 0.074910656 0.047544487 0.98392826 -0.17211857 0.021107959
0.0055850395 -0.16655205 0.077694073 -0.050472025 0.97874945 -0.19875129 0.02101534
0.016372072 -0.16504094 0.078148574 -0.097994462 0.96649957 -0.23722534 0.020028142
0.024643376 -0.1637933 0.078941517 -0.16057539 0.96414769 -0.2112696 0.019834843
0.034320079 -0.1662022 0.076716743 -0.17990229 0.96201003 -0.20535809 0.018701339
0.044635542 -0.16533926 0.075632557 -0.235385 0.94977236 -0.20621896 0.019911237
0.052193124 -0.16511869 0.07644777 -0.32515001 0.92299896 -0.20579214 0.020873653
0.062941492 -0.16006033 0.079270214 -0.3996295 0.89712948 -0.1882951 0.017331814
-0.081647389 -0.15362573 0.073061153 0.42572853 0.89292604 -0.14641792 0.020287869
-0.075547993 -0.15509476 0.07807745 0.37444079 0.91015756 -0.1772211 0.017730583
-0.066753156 -0.15435012 0.07539703 0.34361562 0.92181522 -0.17940183 0.018579878
-0.054551169 -0.15763204 0.074405178 0.32052776 0.92822117 -0.18885818 0.016634377
0.04853218 -0.15944366 0.077578075 -0.31087765 0.93076175 -0.19245152 0.021857003
0.055651885 -0.15688628 0.075754553 -0.40165868 0.89788306 -0.1802119 0.018260414
0.06891261 -0.15080488 0.078494914 -0.40724084 0.89367825 -0.18839876 0.01927924
0.073761836 -0.15278357 0.076106749 -0.4343141 0.88455772 -0.17008492 0.020230647
0.085905634 -0.15166394 0.073574878 -0.48286098 0.85816211 -0.17436485 0.018329695
-0.096117973 -0.1441967 0.074489467 0.55297893 0.81506336 -0.1728757 0.019610746
-0.087147079 -0.14815554 0.074794985 0.47955033 0.86273378 -0.16038048 0.01767184
-0.075181276 -0.14875826 0.075934574 0.38418174 0.90556198 -0.1798941 0.019359404
0.075145483 -0.14858209 0.076823771 -0.43307149 0.88479412 -0.17201293 0.020687465
0.085975759 -0.14403397 0.073898852 -0.48780736 0.85809076 -0.16038771 0.019544221
0.093706451 -0.14314063 0.075325824 -0.52812999 0.83076221 -0.17582041 0.01868668
-0.11219955 -0.13274924 0.070747167 0.64685863 0.75395167 -0.11459021 0.01890737
-0.10525964 -0.13502359 0.075031154 0.61863315 0.76685095 -0.17097534 0.020198174
-0.095152527 -0.1364245 0.076173097 0.55670929 0.80944175 -0.18675905 0.017411543
0.096047752 -0.13718837 0.070372947 -0.54924464 0.81978476 -0.16212137 0.016698116
0.10592576 -0.13561222 0.078721926 -0.59166914 0.79353529 -0.14222997 0.01644695
0.11261638 -0.13140908 0.075001009 -0.63040364 0.76332092 -0.14118163 0.018938271
-0.12166843 -0.12421443 0.075995505 0.68797308 0.70491529 -0.17259063 0.020393083
-0.11543741 -0.12528399 0.074659102 0.67268562 0.71687365 -0.18326543 0.020563414
-0.10970157 -0.12627243 0.072128005 0.63710326 0.75736868 -0.14315145 0.021694664
0.11297702 -0.125221 0.077066801 -0.6695475 0.72322369 -0.16927382 0.020466313
0.12204058 -0.12338796 0.077069595 -0.70261264 0.69030887 -0.17265339 0.020740658
-0.13221428 -0.11208683 0.073406488 0.76264429 0.62303901 -0.17377019 0.019273348
-0.12316069 -0.11274803 0.07522276 0.73683149 0.64650863 -0.19775221 0.019543344
-0.11829194 -0.1184594 0.076850049 0.70782685 0.68160909 -0.18544608 0.020458642
0.11958687 -0.11768989 0.074350357 -0.71569163 0.67316151 -0.18611601 0.020313401
0.12496097 -0.11482251 0.072445102 -0.74889237 0.63768876 -0.18031424 0.017870104
-0.14068913 -0.10107952 0.07329192 0.77435797 0.59981579 -0.20147155 0.021748256
-0.13697036 -0.1062704 0.072166681 0.77256072 0.60898817 -0.17967558 0.020557452
-0.12550774 -0.1093738 0.076190561 0.75685668 0.62302643 -0.19749954 0.018139271
0.12743211 -0.10704899 0.075628996 -0.74663025 0.64887214 -0.14665669 0.016742177
0.13564266 -0.10431071 0.075467214 -0.78282237 0.60014659 -0.16435663 0.018188605
-0.14133845 -0.099087931 0.076805569 0.78755456 0.58358318 -0.19796056 0.019902183
-0.13881037 -0.091259405 0.078577347 0.79653895 0.5618999 -0.2231463 0.020148395
0.13685711 -0.095908403 0.072124869 -0.79127574 0.59171075 -0.15414639 0.017268546
0.14357555 -0.096349224 0.076263368 -0.81762791 0.55307633 -0.15997271 0.01786433
-0.15188394 -0.085310698 0.0741992 0.85724664 0.47664753 -0.19476981 0.018706132
-0.14250828 -0.087844148 0.074270591 0.82313752 0.53618431 -0.18695189 0.022174289
0.14627101 -0.085730799 0.076052368 -0.84647238 0.50104642 -0.18010248 0.020758342
0.15028799 -0.087802604 0.075126365 -0.83236998 0.52484876 -0.17802817 0.019969787
-0.15633115 -0.07386411 0.075568609 0.8884052 0.41322345 -0.19995625 0.021222558
-0.14886567 -0.077027276 0.071874671 0.87990296 0.44248709 -0.17313562 0.020033082
0.14876528 -0.077202216 0.072004795 -0.87291384 0.45957804 -0.16373594 0.020089628
0.1559578 -0.075482205 0.07409136 -0.89329708 0.40846074 -0.18756373 0.01998576
-0.16018377 -0.065265745 0.074170694 0.90804118 0.37203142 -0.19249387 0.019887667
-0.15644105 -0.064190879 0.077535719 0.91205579 0.36189336 -0.19284038 0.019603603
0.15832841 -0.067853995 0.077859998 -0.91741258 0.36180487 -0.16568463 0.018427161
-0.16468418 -0.053526819 0.075898871 0.93374944 0.30679336 -0.18436338 0.019991226
-0.15601265 -0.058056373 0.075184934 0.9274472 0.31459415 -0.20216872 0.018009029
0.15619902 -0.058286887 0.07387276 -0.92547762 0.33676609 -0.17343532 0.018019054
0.16512837 -0.05327661 0.074303806 -0.94088954 0.29821688 -0.16060379 0.017467285
-0.16324481 -0.040658902 0.071147762 0.95687354 0.22030583 -0.18936311 0.018109448
0.15940578 -0.048192456 0.078409478 -0.94395494 0.26329055 -0.19906576 0.017740684
0.16568287 -0.045138538 0.075451218 -0.94420153 0.27563173 -0.18030725 0.017194787
-0.16742568 -0.035480645 0.075232625 0.96453112 0.19088659 -0.18232386 0.019257883
0.16452411 -0.03494291 0.076603301 -0.96451324 0.19603956 -0.17686906 0.020839693
0.17015055 -0.032242715 0.074531987 -0.96356875 0.18329822 -0.19477423 0.019899497
-0.16799197 -0.024900328 0.073970824 0.97165 0.1373864 -0.19240907 0.017792482
0.16435742 -0.025213996 0.075747713 -0.9696576 0.12990519 -0.20709577 0.020781035
0.17095919 -0.025122745 0.07517501 -0.96652973 0.13837837 -0.21603628 0.019865887
-0.17229168 -0.014772805 0.075259067 0.97866213 0.10973255 -0.17372167 0.018367201
-0.16600686 -0.013368641 0.075298324 0.98024172 0.1090772 -0.16500998 0.020918885
0.1659613 -0.012271349 0.0762477 -0.98115957 0.057765998 -0.184361 0.019894466
0.17248003 -0.013740365 0.075010777 -0.97664499 0.10135166 -0.18945277 0.020024704
-0.17373283 -0.0047195368 0.074613094 0.99034405 0.03447789 -0.13427569 0.02253318
-0.16667071 -0.0068957475 0.076239213 0.98456776 0.053972669 -0.16647324 0.023979394
0.1667877 -0.0052103191 0.076763302 -0.97970349 0.030646486 -0.19809553 0.021170402
0.17377657 -0.0049849604 0.074305132 -0.98252141 0.015083458 -0.18553737 0.020543749
-0.16747205 0.003768102 0.074292749 0.98325962 -0.018112604 -0.18130781 0.023735443
0.16743389 0.0044970652 0.074004076 -0.98291606 -0.012854024 -0.18360527 0.020460101
0.17353694 0.0069519612 0.07424821 -0.98258549 -0.013524748 -0.18531805 0.021364767
-0.17213437 0.012067867 0.077890657 0.98081678 -0.07353697 -0.18052904 0.022162611
-0.16577229 0.015031241 0.07537666 0.97552902 -0.092770055 -0.19934094 0.020907804
0.1655858 0.016106484 0.075595632 -0.97472823 -0.094361722 -0.20248641 0.018885555
0.17275609 0.014478709 0.073112316 -0.98215729 -0.076739304 -0.17169157 0.020728402
-0.17149104 0.023620814 0.073505931 0.97684789 -0.13037604 -0.16961806 0.017450731
-0.16485822 0.026989045 0.07207834 0.96943551 -0.1689828 -0.17787528 0.018554859
0.16695809 0.023770312 0.074487634 -0.97822261 -0.10469849 -0.17921707 0.018016659
-0.16416091 0.034131512 0.070864171 0.97075474 -0.18934995 -0.14758638 0.018707918
0.16760008 0.036750983 0.073525645 -0.96098733 -0.20517415 -0.18549091 0.020953516
-0.166033 0.044647746 0.075674847 0.95101631 -0.25609073 -0.17316319 0.019283185
0.16195707 0.045042414 0.072606385 -0.94964242 -0.27735329 -0.14578938 0.01975547
-0.16603199 0.052275974 0.072036132 0.93386382 -0.32402113 -0.15135612 0.019721083
-0.15796299 0.054180436 0.073579393 0.92283976 -0.3356398 -0.1889782 0.021792555
0.15664056 0.056267723 0.075710893 -0.92574084 -0.34235471 -0.16061515 0.017572349
0.16547087 0.050019983 0.078998886 -0.93536896 -0.30762577 -0.17450348 0.01707286
-0.16128734 0.062244646 0.074901596 0.90951604 -0.37030602 -0.18882269 0.021733349
-0.1534086 0.064581089 0.074726023 0.89681566 -0.3934702 -0.20224468 0.019253368
0.15338153 0.064748071 0.07453008 -0.91225004 -0.36851898 -0.17886759 0.017096031
-0.1549906 0.074651219 0.073821738 0.89344668 -0.41069159 -0.18189383 0.020048641
-0.14804831 0.075132892 0.079333112 0.87666309 -0.43282947 -0.21004863 0.018465158
0.14820608 0.077042401 0.074916288 -0.8733387 -0.44214079 -0.20442855 0.021061784
0.15704079 0.073009245 0.073909238 -0.9166472 -0.357573 -0.17860413 0.016648013
-0.15221198 0.08346422 0.076232731 0.87906593 -0.44854712 -0.16139586 0.02028529
-0.14510933 0.084441781 0.074309304 0.8524071 -0.50080925 -0.15030666 0.019110056
0.14589667 0.086004235 0.077151924 -0.82513493 -0.50918502 -0.24470975 0.021222413
0.15208757 0.08428552 0.074769497 -0.87463355 -0.43798956 -0.20780139 0.021478521
-0.14697537 0.093245141 0.072026461 0.83715725 -0.52257532 -0.16150136 0.019565407
-0.13880414 0.093504116 0.071716286 0.80470544 -0.56709391 -0.17565212 0.017881092
0.13407767 0.097769499 0.077527285 -0.80169082 -0.54980576 -0.23453248 0.020638159
0.14585608 0.094540127 0.072573423 -0.80385238 -0.55874234 -0.20403029 0.018665623
-0.13619347 0.10387252 0.074584864 0.76338834 -0.6201455 -0.18071488 0.017347237
-0.12789749 0.10582577 0.077520803 0.75321341 -0.62931448 -0.191397 0.016143467
0.12800875 0.10654804 0.074860394 -0.75662857 -0.61882585 -0.21111062 0.021543616
0.13687666 0.10410239 0.075216658 -0.77305382 -0.60747516 -0.18265176 0.020590246
0.14076583 0.10116516 0.072722562 -0.78969413 -0.58554906 -0.18307202 0.020869087
-0.13029554 0.11360954 0.076405987 0.72692388 -0.65359765 -0.21069336 0.017588787
-0.12495854 0.11046345 0.075043514 0.72199696 -0.66609496 -0.18718393 0.017870292
-0.11807392 0.11975034 0.072518863 0.68986028 -0.69882745 -0.18903132 0.017561121
0.11792194 0.11921567 0.074823238 -0.66158962 -0.72217733 -0.20188899 0.021013131
0.1267177 0.11430254 0.07558509 -0.72955185 -0.65088177 -0.21001664 0.02081077
0.13299571 0.11151167 0.071971655 -0.76232564 -0.62304085 -0.17515634 0.020389067
-0.12411718 0.12165433 0.076427557 0.71696663 -0.66638386 -0.20467398 0.018345537
-0.11578383 0.12294364 0.077561058 0.67289668 -0.7026968 -0.23114347 0.016722627
-0.10564309 0.12788534 0.078129746 0.62472075 -0.74219006 -0.24264771 0.016054044
0.10709801 0.12731461 0.075948343 -0.60610378 -0.77273732 -0.18845473 0.020043252
0.11412109 0.12258337 0.073318705 -0.64249098 -0.74122566 -0.19439608 0.021496391
0.12661706 0.12029147 0.070302986 -0.7298156 -0.66555774 -0.15621166 0.023340888
-0.1134936 0.13128731 0.072796792 0.6584475 -0.72734588 -0.19342902 0.0175415
-0.10423631 0.13417773 0.07343246 0.62949896 -0.7524491 -0.1937817 0.01588827
-0.095532209 0.13644218 0.074937642 0.59863204 -0.77163893 -0.2149722 0.019521538
0.09351328 0.13828619 0.07375896 -0.54949379 -0.81146145 -0.19896442 0.019045088
0.10514794 0.13379911 0.075388834 -0.60404474 -0.76950645 -0.20733984 0.017208876
0.11139786 0.13136116 0.078930527 -0.59888804 -0.77597135 -0.19799413 0.019208059
-0.10088072 0.14101544 0.072597161 0.60480297 -0.77893865 -0.16573468 0.018222868
-0.09506166 0.14245279 0.07390248 0.55446452 -0.81289977 -0.17822185 0.018696383
-0.084233031 0.14676656 0.07463368 0.4563539 -0.86824477 -0.19465882 0.021661274
-0.076717108 0.14841491 0.074571386 0.40241569 -0.89541268 -0.19051978 0.021037959
0.077228017 0.14802447 0.075403899 -0.43301749 -0.88217312 -0.18511178 0.018882139
0.086449146 0.14465977 0.075077571 -0.51444906 -0.83841974 -0.17998485 0.019949595
0.095597982 0.14432235 0.075560212 -0.55192578 -0.81047851 -0.19622041 0.019877806
0.1017277 0.14075731 0.070904486 -0.59413558 -0.77754325 -0.20598437 0.018152934
-0.084148802 0.15171178 0.077241279 0.41953492 -0.88638538 -0.19573316 0.021504069
-0.071739234 0.15519617 0.074154399 0.3452273 -0.92023557 -0.18434919 0.017155677
-0.064579763 0.15269721 0.078040473 0.33368436 -0.92095011 -0.20126021 0.019535895
-0.056091338 0.15706819 0.074040793 0.34835562 -0.91572618 -0.20023464 0.018464157
0.049299531 0.15941748 0.07622014 -0.32101861 -0.92403334 -0.20762783 0.020705009
0.055819102 0.15769364 0.071673378 -0.36733735 -0.91238797 -0.18058641 0.018672831
0.064281195 0.1564959 0.077106141 -0.38786614 -0.90138865 -0.19250555 0.017213516
0.070618793 0.1507583 0.075421572 -0.41332975 -0.88940704 -0.1952273 0.01940689
0.082942978 0.15303358 0.073412977 -0.44182998 -0.87670785 -0.19018292 0.020090051
-0.053617138 0.16448662 0.076644368 0.34544453 -0.91442138 -0.21095411 0.019192668
-0.046269074 0.16532391 0.073307961 0.3066974 -0.93317211 -0.18742064 0.018045401
-0.033461921 0.16770291 0.07787092 0.17944133 -0.96592814 -0.18650381 0.02016904
-0.025045795 0.16416876 0.076800957 0.1385258 -0.97499222 -0.17378402 0.020117782
-0.015878126 0.16593677 0.073997892 0.11034771 -0.98023057 -0.16422978 0.023056446
-0.00792995 0.16682178 0.074804172 0.059808351 -0.98394024 -0.16818021 0.020970423
0.0047549172 0.16688251 0.076589093 -0.023017084 -0.98633409 -0.16314211 0.021760665
0.01406515 0.16562419 0.076751977 -0.11179861 -0.96791428 -0.22504 0.018814301
0.02554385 0.16438317 0.07540217 -0.13357922 -0.96888459 -0.20837282 0.019561535
0.035565544 0.16692252 0.075533703 -0.18506038 -0.95928478 -0.21336669 0.022099083
0.044194788 0.16150764 0.075348884 -0.2815454 -0.93482649 -0.21640626 0.021514382
0.053604975 0.16456927 0.076283097 -0.32507926 -0.92057347 -0.21649015 0.021712761
-0.024553051 0.17111509 0.074654512 0.1289883 -0.97752142 -0.16677515 0.019596968
-0.016912701 0.17191847 0.075782582 0.11235295 -0.97955501 -0.16687943 0.022101389
-0.0044339672 0.17342629 0.07645721 0.027457086 -0.98457432 -0.17279917 0.018706145
0.0055777547 0.17365709 0.074551776 -0.033849914 -0.98408306 -0.17445572 0.020214148
0.017581277 0.17142028 0.0778317 -0.10364615 -0.97530097 -0.1950528 0.019191725
0.025294665 0.17124601 0.073535815 -0.13211904 -0.9687919 -0.20973019 0.019335505
0.038443591 0.17003772 0.070884518 -0.20169017 -0.9624204 -0.1818461 0.020859674
-0.015706221 -0.1702496 0.084508382 0.10821324 0.9690516 -0.2218757 0.01961966
-0.00046332646 -0.17232859 0.084025659 -0.0018630049 0.97399116 -0.22657825 0.02050712
0.0071594035 -0.17014143 0.089331955 -0.05114048 0.9677583 -0.2466343 0.019785699
0.017576788 -0.17088109 0.080528565 -0.097995862 0.96649855 -0.2372286 0.020035978
-0.044143662 -0.16056031 0.080842249 0.2825979 0.93318194 -0.22205873 0.018820349
-0.035454016 -0.16524947 0.085301496 0.19602121 0.94807029 -0.25047606 0.017609483
-0.025092114 -0.16358396 0.086514711 0.15922505 0.95622939 -0.24550512 0.018145373
-0.017500974 -0.16571143 0.088518113 0.13308519 0.95948571 -0.24834536 0.017489396
-0.0075524561 -0.16647243 0.086286999 0.060914438 0.9641552 -0.25825208 0.0187255
0.013808571 -0.16346754 0.086417891 -0.081435896 0.96392053 -0.25342724 0.020041248
0.025922801 -0.16532019 0.085768312 -0.15390727 0.95851505 -0.23991971 0.019159954
0.037688792 -0.16549881 0.083297528 -0.20200571 0.95028585 -0.23696104 0.017757276
0.045332804 -0.16638722 0.082533732 -0.25232196 0.94310367 -0.2165391 0.020583324
0.059474796 -0.1610686 0.081261255 -0.3852925 0.90458518 -0.18241516 0.01824411
0.060692087 -0.16072781 0.080500372 -0.37774497 0.90649831 -0.18859877 0.017368702
-0.080473945 -0.15248579 0.080724485 0.42239189 0.88188076 -0.20945525 0.020669309
-0.075494461 -0.15361308 0.084606461 0.39083466 0.89523119 -0.21403114 0.018080948
-0.064279184 -0.1526362 0.084574543 0.35113126 0.91285539 -0.20833156 0.018598113
-0.052404393 -0.15644024 0.083461814 0.30161798 0.93325263 -0.19510554 0.016752752
-0.048332799 -0.15831777 0.082900144 0.2913821 0.93227136 -0.21439822 0.017893726
-0.037592694 -0.15980032 0.088454612 0.23019779 0.94200844 -0.24419048 0.017249573
0.04974924 -0.15813811 0.081309125 -0.30037332 0.92497551 -0.23280062 0.020235777
0.054767441 -0.15448052 0.087151714 -0.33666009 0.91348463 -0.228486 0.022851009
0.06218148 -0.15381177 0.083576247 -0.39984593 0.89841866 -0.18156846 0.017636264
0.074709773 -0.15458933 0.082046911 -0.4162468 0.89128876 -0.17984174 0.020631196
-0.085693084 -0.14576019 0.084919915 0.46777984 0.86014497 -0.20330404 0.018009637
