# .PCD v0.7 - Point Cloud Data file format
VERSION 0.7
FIELDS x y z normal_x normal_y normal_z curvature
SIZE 4 4 4 4 4 4 4
TYPE F F F F F F F
COUNT 1 1 1 1 1 1 1
WIDTH 578
HEIGHT 1
VIEWPOINT 0 0 0 1 0 0 0
POINTS 578
DATA ascii
-0.13967389 -0.0031612804 0.16533569 0.9384371 0.019106532 -0.34492126 0.0015091088
0.13869795 -0.0039926465 0.16699341 -0.93779749 0.020191187 -0.34659523 0.0010288423
0.14083123 -0.0050745141 0.16111556 -0.94959497 0.037839774 -0.31118736 0.0012708824
-0.14037351 0.0040392508 0.162485 0.94739771 -0.02353224 -0.3191925 0.0015213476
-0.13889033 0.0053356318 0.16629545 0.93890589 -0.024873376 -0.34327388 0.000650712
0.13978329 0.0045022643 0.16522251 -0.94013822 -0.037908491 -0.33867854 0.0015605865
0.14073224 0.0054509295 0.1628007 -0.94652098 -0.033888467 -0.32085767 0.0021000733
-0.14012039 0.017180745 0.1613933 0.94016904 -0.12263437 -0.31787255 0.0020184158
-0.13896297 0.011729302 0.16523825 0.93569177 -0.076809719 -0.34435633 0.0011462392
0.13773274 0.014466384 0.16946182 -0.93219459 -0.1048928 -0.34642562 0.0019103023
0.14067166 0.015172931 0.16144517 -0.94352877 -0.10521592 -0.31413862 0.0021567638
-0.13797128 0.025793646 0.16475487 0.92600167 -0.16582294 -0.33915153 0.0020539372
0.13780846 0.025282234 0.16344042 -0.92664683 -0.16981125 -0.33539489 0.0014159702
-0.13450374 0.035760086 0.1662837 0.90561777 -0.24395968 -0.34690073 0.00088715961
0.13592173 0.033567701 0.16372013 -0.9150213 -0.21800832 -0.33942354 0.0014396926
-0.13200857 0.044580184 0.16539006 0.88831121 -0.30413282 -0.34410232 0.0009803361
0.13327417 0.044372004 0.16443783 -0.8897472 -0.29959121 -0.34437609 0.0017018412
-0.1301893 0.053976085 0.16229042 0.87370849 -0.35239971 -0.33533272 0.0021050368
-0.12858912 0.056279689 0.16448571 0.85907757 -0.36812991 -0.35562089 0.00164849
0.12809531 0.054757856 0.1663252 -0.86228472 -0.37150985 -0.3441591 0.0012393101
0.13045667 0.052700512 0.163195 -0.87635088 -0.34818873 -0.33282661 0.0019397174
-0.12496188 0.06526719 0.16254249 0.83575284 -0.44038352 -0.32799309 0.0021035916
0.12325794 0.064217567 0.16630341 -0.83311278 -0.43262622 -0.34461221 0.00057687529
-0.12031287 0.0722223 0.16289103 0.80274445 -0.49158469 -0.33755851 0.0015076062
-0.11692073 0.075789876 0.16534625 0.78661913 -0.51258105 -0.34422532 0.0010046969
0.11688411 0.076143615 0.16693495 -0.78972715 -0.50550562 -0.34755579 0.0017496687
0.12121017 0.072287455 0.16130711 -0.81894416 -0.47999427 -0.31454086 0.0020993284
-0.11288553 0.082767777 0.1642746 0.75644255 -0.55791032 -0.34136608 0.0012957775
-0.10925549 0.088559948 0.16401894 0.73398167 -0.59007514 -0.33627725 0.0022571846
0.10856213 0.085992888 0.16840772 -0.73507404 -0.5786593 -0.35329816 0.0016041606
0.11333217 0.082161531 0.16580419 -0.7514866 -0.5598318 -0.34907922 0.0019279189
-0.10472584 0.093566574 0.16436644 0.69326162 -0.63148963 -0.34728831 0.0019426667
-0.098573707 0.097751535 0.16727436 0.66086656 -0.66658723 -0.34484315 0.001228933
0.099257916 0.099992201 0.16170886 -0.65444517 -0.6786108 -0.33344993 0.0017657954
0.10099328 0.098422214 0.16107948 -0.68157095 -0.66155845 -0.31273222 0.0018113387
-0.092915744 0.10421485 0.16458863 0.63103753 -0.69400543 -0.34662387 0.0012352428
-0.087216869 0.10788816 0.16754365 0.58973938 -0.72905743 -0.34739408 0.001504762
0.089293994 0.10899702 0.16353106 -0.60594344 -0.72124684 -0.33561218 0.0019451949
0.093562692 0.10539557 0.16318372 -0.62035149 -0.7078982 -0.33770433 0.0018357661
-0.082626343 0.11316592 0.16529709 0.56652272 -0.75353724 -0.33351704 0.0016862369
-0.076146133 0.1179482 0.16438407 0.50152928 -0.79548573 -0.34010422 0.0015290341
0.076084204 0.11744913 0.16372252 -0.5175193 -0.78754061 -0.33459461 0.0009412918
0.082278863 0.1129848 0.16476423 -0.55393159 -0.76108509 -0.33750463 0.0015312542
-0.071233079 0.12049994 0.1643011 0.48347095 -0.80334228 -0.34770265 0.0015691782
-0.066978045 0.1224196 0.1649244 0.45698017 -0.82087541 -0.34253848 0.0010084172
-0.056259725 0.12795788 0.16481194 0.37120616 -0.85965747 -0.35099161 0.0015609205
0.057286531 0.1279268 0.16535023 -0.38263386 -0.85377449 -0.35307276 0.0022068538
0.063004181 0.12565848 0.16417199 -0.41500926 -0.84088898 -0.34738004 0.0022215347
0.073376089 0.1202485 0.16135168 -0.50882131 -0.80163342 -0.31382284 0.0014282668
-0.046502914 0.13279597 0.16416191 0.31311828 -0.88368523 -0.3479332 0.0016209658
-0.03465477 0.13490304 0.16578519 0.24013072 -0.90862334 -0.34167358 0.0011897788
-0.024690405 0.13682437 0.16636336 0.15836345 -0.92440873 -0.34697202 0.00086339703
-0.011641435 0.13973117 0.16593418 0.070446119 -0.93725854 -0.34144366 0.002056727
-0.0063984012 0.13916597 0.16713691 0.05807111 -0.93704402 -0.34434906 0.0020566725
0.0069102081 0.13830078 0.16766727 -0.053410288 -0.93425649 -0.35257924 0.00095762732
0.014703482 0.13838206 0.16639811 -0.11131416 -0.93071085 -0.34840575 0.0015247988
0.02500643 0.13806918 0.16499498 -0.1587245 -0.92897743 -0.33437636 0.0015956121
0.034846876 0.13569051 0.1639989 -0.23684768 -0.91392338 -0.32961667 0.0015562352
0.043726627 0.13248573 0.16487305 -0.27674878 -0.89766228 -0.34294689 0.00081615371
-0.011209166 0.14163372 0.16115141 0.072575673 -0.94486964 -0.31930262 0.0023128605
-0.0033239396 0.14127345 0.16105965 0.027952936 -0.94801837 -0.31698543 0.0020240115
0.0031329554 0.14075044 0.16159441 -0.012270489 -0.94986665 -0.31241438 0.0020699261
0.015073642 0.14023104 0.16138008 -0.1057511 -0.94102174 -0.32139516 0.0018836856
-0.041770268 -0.13046005 0.17167509 0.28558528 0.89253068 -0.3490417 0.00098596711
-0.033092167 -0.13248108 0.17366548 0.21284594 0.90990406 -0.35604951 0.001940702
-0.024782015 -0.13524449 0.17302381 0.16573435 0.92490268 -0.34217992 0.0023794342
-0.016112341 -0.13388661 0.17828727 0.12233865 0.92938149 -0.34825757 0.0018816771
-0.0049151867 -0.1354271 0.17565769 0.049070884 0.93510902 -0.35094625 0.0006108532
0.0071129506 -0.13681249 0.173557 -0.056642897 0.93239158 -0.3569839 0.0020555365
0.016582513 -0.13537718 0.17475249 -0.10982903 0.93194336 -0.3455708 0.0019194686
0.025616737 -0.13347736 0.17464349 -0.17909469 0.92018574 -0.34811383 0.0010321984
0.03328371 -0.13051598 0.17809936 -0.22496976 0.90832067 -0.3526217 0.00095283741
0.040918652 -0.13105856 0.17235693 -0.27704245 0.89544135 -0.3484714 0.0019412687
-0.061484974 -0.12060701 0.1779055 0.43699747 0.82854706 -0.35006139 0.0015355397
-0.05454484 -0.12513335 0.17476143 0.3823154 0.85474843 -0.35105538 0.0019164492
-0.045057174 -0.12760796 0.17626403 0.30431664 0.88586062 -0.35020339 0.0010617073
0.046470799 -0.12721267 0.17804439 -0.32802352 0.87853801 -0.3472341 0.0018849014
0.053254481 -0.1252978 0.17486779 -0.35724208 0.86731195 -0.34662384 0.0017034708
0.063407235 -0.12070189 0.17341761 -0.45252892 0.82028079 -0.3497957 0.00087190728
-0.075082965 -0.11351383 0.17407663 0.52268952 0.77513951 -0.3549006 0.00079112087
-0.06710963 -0.11817713 0.17518261 0.45184582 0.82095283 -0.34910131 0.0015545195
0.066645943 -0.11746825 0.17718726 -0.46890795 0.81035256 -0.35136038 0.0014259422
0.073560961 -0.11530775 0.17368899 -0.50619602 0.78631854 -0.35421565 0.0019156347
0.080072612 -0.11138891 0.17345133 -0.53745604 0.76556039 -0.35363591 0.0016188837
-0.092248015 -0.1016672 0.17267294 0.62762386 0.6965664 -0.34768301 0.0018641126
-0.084368207 -0.10747445 0.17416425 0.56631225 0.74168384 -0.35943779 0.0015604877
0.085961044 -0.10476514 0.17604129 -0.5852173 0.73000568 -0.35300478 0.0014022586
0.090739958 -0.1026587 0.1716201 -0.62752491 0.69836122 -0.34424403 0.0013364556
-0.10104381 -0.092376851 0.17188835 0.69494712 0.63114953 -0.34452701 0.00059785484
-0.095307931 -0.096977159 0.17503129 0.65583849 0.66897333 -0.3497864 0.001660601
0.089736938 -0.099856712 0.17902097 -0.62822711 0.69594866 -0.34783044 0.0018924812
0.096013553 -0.096073024 0.17524363 -0.66491324 0.65624952 -0.35668892 0.001747335
0.10160581 -0.090424933 0.17642134 -0.70367169 0.61886179 -0.34907907 0.0019644466
-0.10586628 -0.084407412 0.17664795 0.73459339 0.57804561 -0.35529697 0.0015011276
0.1056668 -0.086618692 0.17492886 -0.71859443 0.59480333 -0.36032057 0.0022428343
0.1106572 -0.080977798 0.17192349 -0.74971658 0.55713594 -0.35710588 0.0017460218
-0.11422884 -0.074671365 0.17467901 0.78470528 0.51188606 -0.34958574 0.0019845744
0.10898285 -0.079463169 0.17791849 -0.75908738 0.54662913 -0.35352939 0.0013921622
0.1134905 -0.074589796 0.1748495 -0.77128583 0.52806294 -0.35534164 0.00083388307
-0.12035191 -0.060351241 0.17800447 0.83016938 0.42621583 -0.3593868 0.0011937517
-0.11776447 -0.067234695 0.17575575 0.81881535 0.45194778 -0.35395584 0.00091544288
0.11745063 -0.066500716 0.17771332 -0.81067914 0.46807599 -0.35171601 0.0012121489
0.12112617 -0.061570272 0.17660789 -0.83110154 0.42772198 -0.35542104 0.0023164477
-0.12537174 -0.05271706 0.17535003 0.86027205 0.36574239 -0.35519633 0.0018101762
0.12386743 -0.05597233 0.17682658 -0.8483566 0.39133203 -0.35658151 0.0022649125
-0.13119639 -0.04379632 0.17036791 0.89095426 0.29062396 -0.34890985 0.0019753026
-0.1293478 -0.046122268 0.17385623 0.88086641 0.31592792 -0.35251072 0.0021100868
0.12858345 -0.046930324 0.17221968 -0.88063061 0.32024941 -0.34918472 0.00069403544
-0.13230252 -0.03280792 0.17366916 0.90672928 0.23434895 -0.35060322 0.00087765948
-0.12903588 -0.039556582 0.17844702 0.89647245 0.26864928 -0.35237026 0.0017279153
0.12981385 -0.036563575 0.17762873 -0.89828289 0.25873274 -0.35516945 0.00098812603
0.13188908 -0.033734657 0.17465083 -0.90498698 0.23176785 -0.35676637 0.0018658596
-0.13359605 -0.025043584 0.17465523 0.91815394 0.18412678 -0.35084271 0.0008883315
0.1344099 -0.024692705 0.17486449 -0.92246443 0.16373517 -0.34964293 0.0021400882
-0.13652526 -0.012967621 0.17358883 0.93494207 0.088216759 -0.34365845 0.001919463
0.13473807 -0.015604866 0.1760678 -0.92990559 0.097694837 -0.35458621 0.001091374
-0.13661563 -0.0028253992 0.17350782 0.93766415 0.012188677 -0.34732881 0.0016773572
0.13570544 -0.0040717246 0.17502356 -0.93473208 0.033972446 -0.35372555 0.0012048088
-0.13593973 0.0049829949 0.17427117 0.93473691 -0.03232684 -0.3538669 0.00087754359
0.13613696 0.0068234191 0.17533298 -0.93519533 -0.054089829 -0.34997705 0.0019581579
-0.1350451 0.015757296 0.17522234 0.93289167 -0.09883967 -0.346329 0.0015020397
0.13642493 0.014895186 0.17295036 -0.9315784 -0.11681798 -0.34426054 0.001586517
-0.13331865 0.025866212 0.17682102 0.92221129 -0.1683135 -0.34813336 0.0018700089
0.13462533 0.022225432 0.17354077 -0.924447 -0.15596485 -0.34795511 0.001191398
-0.1317393 0.036439151 0.17280136 0.90434599 -0.24893664 -0.34668279 0.0011846882
0.12975191 0.036958486 0.17803213 -0.90021932 -0.25742978 -0.35119084 0.0011813736
0.1319183 0.033657689 0.17419946 -0.90908021 -0.22675748 -0.34950587 0.00082199892
-0.13000414 0.04232467 0.17238477 0.89137417 -0.28511697 -0.35236406 0.0011012182
-0.12719715 0.046563458 0.17607224 0.87376386 -0.33197427 -0.35542902 0.0012573239
0.12772977 0.048249096 0.17518491 -0.88269109 -0.31589243 -0.34794891 0.001986559
0.13041405 0.04305632 0.17284399 -0.89094806 -0.28830022 -0.35084844 0.0018178041
-0.12529726 0.054867305 0.17408071 0.86003375 -0.37000811 -0.35133469 0.0016252854
0.12393919 0.055128075 0.17582245 -0.85796255 -0.37225881 -0.35401094 0.0013180382
-0.12096018 0.063994996 0.17344229 0.82697392 -0.43889734 -0.35140193 0.0017895034
-0.11886685 0.064476289 0.17746949 0.81888646 -0.45074958 -0.35531637 0.0013493425
0.1178247 0.066228576 0.17684576 -0.82152158 -0.45185351 -0.34775084 0.00092901604
0.1206148 0.061473764 0.175998 -0.83121401 -0.43097422 -0.35120434 0.0014135743
-0.11377277 0.073294789 0.17610271 0.78641236 -0.50779259 -0.35171336 0.0014008993
0.11288997 0.075735256 0.17698157 -0.77959257 -0.52034104 -0.34854066 0.0019147361
-0.11085886 0.081371076 0.17089352 0.7486127 -0.56504065 -0.34685448 0.001502791
-0.1061433 0.08542376 0.1754594 0.72009677 -0.59182441 -0.36222178 0.0020113629
0.10481767 0.08635138 0.17523205 -0.7200731 -0.59620291 -0.35501656 0.0014316461
-0.10122156 0.091384567 0.17520002 0.69475257 -0.62713158 -0.3521716 0.001729238
-0.096440583 0.095575616 0.17546551 0.66177446 -0.65731263 -0.36054784 0.0013935979
0.096025705 0.096180789 0.17503625 -0.66302484 -0.65965873 -0.35390458 0.0011350636
0.10071863 0.092449337 0.17240635 -0.68285036 -0.64084959 -0.3507525 0.00066874421
-0.090847105 0.10264978 0.17144457 0.62231785 -0.69993532 -0.35044405 0.0009834189
-0.086092718 0.10582698 0.17368503 0.58995473 -0.72620189 -0.35296506 0.0015880206
0.077117093 0.10999785 0.17905086 -0.53305763 -0.77280986 -0.34440455 0.00075613719
0.085697509 0.10522547 0.17730491 -0.58711499 -0.72597992 -0.35811886 0.0018782167
0.091032721 0.10232202 0.1739161 -0.61938888 -0.70605361 -0.34328663 0.0018802872
-0.080281004 0.11290599 0.17004824 0.53095412 -0.77263075 -0.34803674 0.0020267337
-0.075643755 0.11341442 0.17568538 0.52230483 -0.77913988 -0.34661037 0.0019492608
-0.066971019 0.11781912 0.17594835 0.47222683 -0.81014901 -0.34736186 0.0012131563
0.067822702 0.11650741 0.1779142 -0.47472799 -0.80546689 -0.35476255 0.0011888765
0.076327704 0.11257015 0.1743913 -0.52901226 -0.77534157 -0.34495157 0.00090358843
-0.061497483 0.12136047 0.17418346 0.43441179 -0.82890993 -0.35241264 0.0012240082
-0.05367668 0.12478771 0.17557122 0.36393818 -0.86353546 -0.349078 0.0016248213
-0.046687003 0.12881067 0.17432003 0.31946549 -0.88206774 -0.34626329 0.0017960363
0.039117567 0.12855726 0.17873748 -0.26298395 -0.89964688 -0.34853256 0.0010532647
0.045051135 0.12907743 0.17250639 -0.31469026 -0.88061297 -0.35424677 0.00067755126
0.05522665 0.12511449 0.17419143 -0.38611814 -0.85153854 -0.3546758 0.0021100002
0.062921479 0.12162002 0.1735189 -0.41859886 -0.83263737 -0.36261556 0.0020929056
-0.033237129 0.13150969 0.17551196 0.2236319 -0.91295725 -0.34131774 0.0010994289
-0.025155833 0.13331045 0.17534296 0.182895 -0.91847372 -0.3506501 0.0008604289
-0.016078856 0.13543881 0.1748751 0.10689791 -0.93364155 -0.34188649 0.0016000636
-0.0055577341 0.13579452 0.17608249 0.042390227 -0.93456173 -0.35326689 0.0021050309
0.0057223286 0.13624032 0.17336379 -0.061754052 -0.93332219 -0.35368928 0.00084884075
0.0149412 0.13557926 0.17389707 -0.1064847 -0.9323262 -0.34558496 0.0012486737
0.02421484 0.13414273 0.17559472 -0.15516382 -0.92435014 -0.34856984 0.0017443543
0.035172585 0.13105075 0.17561014 -0.2406704 -0.9072212 -0.34500366 0.0014855469
0.041143034 0.13027164 0.17267543 -0.27345091 -0.8975575 -0.34585434 0.00084774551
-0.030730492 -0.13032693 0.18113121 0.22956386 0.90589756 -0.35587925 0.0017014891
-0.024454977 -0.13109556 0.18385239 0.17500263 0.91750443 -0.35715497 0.0018149322
-0.011724323 -0.13124467 0.18597765 0.074726433 0.93222439 -0.35408124 0.00085244526
-0.0061161206 -0.13189149 0.18499587 0.061147541 0.93559992 -0.34772646 0.00078146037
0.0064676502 -0.13192476 0.18660308 -0.054123458 0.93368238 -0.35398871 0.0018352952
0.013878224 -0.1325103 0.1838218 -0.10940667 0.93048865 -0.34960133 0.0017478619
0.024923835 -0.13070516 0.18232681 -0.19428067 0.91847426 -0.34447059 0.00090931426
-0.05400151 -0.12116741 0.18530747 0.37524942 0.85951453 -0.34701943 0.0017444643
-0.04341457 -0.12514475 0.18392733 0.30224591 0.88810354 -0.34629399 0.0014042491
-0.02474493 -0.12981836 0.18737543 0.18405943 0.91411501 -0.36126971 0.0017301259
-0.015641086 -0.12986226 0.18916404 0.12361916 0.92552304 -0.35794595 0.0018302174
0.024395559 -0.12915537 0.1867018 -0.17211157 0.91965187 -0.35301274 0.00092334882
0.035583239 -0.12762009 0.18441673 -0.23999339 0.90580791 -0.34916338 0.0011488486
0.044345368 -0.12480209 0.18597312 -0.32652497 0.87756914 -0.35107532 0.0017534147
0.053466607 -0.12162819 0.18339401 -0.38240331 0.8526333 -0.3560676 0.0015937376
-0.071108341 -0.11152827 0.18436706 0.52271378 0.77736306 -0.34996709 0.0010227174
-0.065523982 -0.11425181 0.18636756 0.47204709 0.80712032 -0.35458186 0.0014759089
-0.058148764 -0.11920786 0.18593866 0.40261403 0.84471315 -0.35264945 0.0018897379
0.055070087 -0.11984047 0.18570751 -0.40169141 0.84624255 -0.35002503 0.0009310274
0.065178715 -0.11497524 0.18495636 -0.47457057 0.8079713 -0.34923512 0.0013224107
-0.085892051 -0.10208243 0.18367445 0.60524076 0.71524179 -0.34944639 0.0021293303
-0.075540036 -0.10934187 0.18283601 0.53053486 0.7715165 -0.35113382 0.00090840465
0.07775145 -0.10539857 0.1895927 -0.54501075 0.76253623 -0.34857112 0.0019048476
0.082778558 -0.10394695 0.18341708 -0.5911293 0.73106927 -0.34074032 0.0013221917
-0.093239382 -0.09499494 0.18273588 0.65779686 0.66748059 -0.34895986 0.0016591962
-0.089038342 -0.096487932 0.1884239 0.63212478 0.68962026 -0.35333011 0.0021977366
0.089599125 -0.096329413 0.18630776 -0.64463305 0.68098795 -0.34742415 0.0011230551
0.093267076 -0.093936324 0.18446341 -0.67642337 0.64857268 -0.34900543 0.001275742
-0.10332119 -0.08277148 0.18467845 0.7325027 0.58537185 -0.34753355 0.0013203888
-0.096909948 -0.088028423 0.18798393 0.70001751 0.62302679 -0.34901732 0.0008673094
0.097133994 -0.088969886 0.18739459 -0.69075251 0.62875307 -0.35711423 0.0016191235
0.10172085 -0.085384414 0.18527822 -0.71330786 0.60685617 -0.35059598 0.0018792227
-0.1130069 -0.072589025 0.18057896 0.7843926 0.51143104 -0.35095087 0.0018795631
-0.10918768 -0.075063206 0.18667381 0.76538968 0.5380792 -0.35305732 0.0019572843
0.109807 -0.073145822 0.18528114 -0.78122133 0.5138008 -0.35454476 0.0014591528
0.11141857 -0.072862796 0.18205298 -0.77975094 0.52022398 -0.34836107 0.0012401764
-0.11449566 -0.066067681 0.18501417 0.80998373 0.46854326 -0.35269478 0.0011244514
0.11512063 -0.064446464 0.18597785 -0.8127827 0.46865883 -0.34603947 0.000924066
-0.12227543 -0.05289866 0.182541 0.86003458 0.36614144 -0.35536036 0.001454792
-0.11973047 -0.054918449 0.18615694 0.85442477 0.38344213 -0.35061434 0.0012581395
0.11911524 -0.058852751 0.18511993 -0.84114647 0.4158968 -0.345691 0.0020388253
0.1211828 -0.053698115 0.18558119 -0.85388356 0.38728985 -0.34769148 0.0022893464
-0.1260819 -0.0450367 0.18252499 0.8771652 0.31439775 -0.36295342 0.0019713037
0.12285831 -0.047287662 0.18658394 -0.87248981 0.3391692 -0.35174686 0.002026774
-0.127152 -0.035469793 0.18571207 0.9039489 0.24541506 -0.35021108 0.0014043952
0.12718244 -0.03448325 0.18608412 -0.90568113 0.24223317 -0.34794357 0.0017303671
0.13047229 -0.03033736 0.1810836 -0.90907097 0.21213897 -0.35859028 0.0020084854
-0.131275 -0.021471918 0.18277904 0.92388624 0.13731021 -0.35718358 0.0016305513
-0.12926708 -0.027599191 0.18459728 0.91326237 0.20418563 -0.35250556 0.0013611889
0.12967181 -0.023702336 0.18858892 -0.9227097 0.16482785 -0.34848043 0.0022978785
0.13047065 -0.027363783 0.18354295 -0.91561884 0.19738181 -0.35026065 0.0020048814
-0.13283026 -0.012987174 0.18348382 0.9320727 0.086339012 -0.35183248 0.0019761857
-0.12968159 -0.019081648 0.18832117 0.92643929 0.12840635 -0.35386723 0.0016583449
0.12965131 -0.018699147 0.18931858 -0.92802489 0.13306729 -0.34794083 0.0020492058
0.1318365 -0.013248018 0.18418197 -0.93508732 0.092231199 -0.34220621 0.0012709772
-0.13337198 -0.0089264754 0.18304595 0.93287426 0.052173536 -0.35640359 0.0019203667
0.13070671 -0.007203592 0.18803266 -0.93545139 0.053238023 -0.34942296 0.001473836
-0.132866 0.006360448 0.18234444 0.93577772 -0.033898994 -0.35095698 0.00086507824
0.13344698 0.0038913731 0.18216562 -0.93473095 -0.016694918 -0.35496378 0.0015906744
-0.13149308 0.01627785 0.18469624 0.92966914 -0.12021981 -0.34822774 0.0017325864
-0.12989454 0.017276647 0.18885686 0.92679769 -0.1394684 -0.34870422 0.0017324655
0.1297273 0.017710915 0.18897566 -0.92527795 -0.13139981 -0.35580164 0.001629408
0.13226351 0.015095557 0.18378285 -0.92834276 -0.10341303 -0.3570511 0.0018061112
-0.13064639 0.022477256 0.18613541 0.9231503 -0.16019687 -0.34947184 0.0019672504
-0.12962462 0.026285794 0.18629555 0.91617715 -0.19507502 -0.35009319 0.0017408489
0.12820525 0.029218938 0.18647471 -0.91134089 -0.21484962 -0.35113731 0.0012325164
0.13050571 0.021184493 0.18496487 -0.92450607 -0.14495042 -0.35253057 0.0015312751
-0.13052227 0.031169213 0.18026882 0.91316378 -0.21119317 -0.34861067 0.0016282619
-0.12690905 0.035653561 0.18581787 0.90165257 -0.25253439 -0.35106844 0.00063623034
0.12679458 0.035029553 0.18690103 -0.90279037 -0.25299501 -0.34779751 0.001250438
-0.12380032 0.044780161 0.18624224 0.88380706 -0.30756393 -0.35254705 0.0013778493
0.12479178 0.044826262 0.18539144 -0.88405257 -0.30797848 -0.35156834 0.0019246897
-0.12163313 0.05410672 0.18403772 0.85363317 -0.38310596 -0.35290259 0.0017555238
0.11690669 0.058391154 0.18865813 -0.84057677 -0.40825695 -0.35602954 0.0011276122
0.12251303 0.051719647 0.18341844 -0.85953522 -0.36854041 -0.35408649 0.0015556001
-0.11524689 0.063418299 0.1871939 0.8176254 -0.44984081 -0.35934922 0.0015765371
0.11651281 0.063549057 0.18327396 -0.81824589 -0.45864418 -0.34658214 0.00085518218
-0.1114143 0.072822019 0.18212217 0.77990538 -0.5225507 -0.34451187 0.00076429913
-0.10639767 0.076998942 0.18735826 0.75089806 -0.55450219 -0.35871917 0.001589115
0.10659946 0.076381296 0.18922025 -0.7601037 -0.54857373 -0.34829465 0.0023289362
0.11185554 0.073480658 0.18224201 -0.78179729 -0.52032942 -0.34358463 0.0022266954
-0.10286666 0.084871605 0.18360719 0.72279263 -0.59827906 -0.34587985 0.0021602174
-0.098165482 0.088514313 0.18644217 0.68404055 -0.63884497 -0.3520875 0.0016501986
0.10206363 0.084395431 0.184257 -0.72109884 -0.59960896 -0.34711027 0.0011600193
-0.095084623 0.092212461 0.18462302 0.67084932 -0.65391701 -0.3497909 0.0013577674
-0.086842157 0.098137222 0.18767594 0.62523043 -0.69456995 -0.35589254 0.0014243339
0.087141573 0.09909828 0.18749782 -0.60999697 -0.70688307 -0.35807839 0.0022408639
0.09181466 0.094779052 0.18596821 -0.65710324 -0.66836524 -0.34857318 0.0015033225
-0.083487898 0.10302937 0.18396784 0.59383595 -0.72272056 -0.35360131 0.0014966656
-0.077780165 0.10740038 0.18549657 0.54980308 -0.75671709 -0.35368881 0.0019017197
0.079077475 0.10748863 0.18185797 -0.54866046 -0.76165223 -0.34475705 0.0011247073
0.084829256 0.10260593 0.18411891 -0.59652227 -0.72252142 -0.34946224 0.0017220851
-0.07356026 0.11102267 0.18413858 0.52901554 -0.7697199 -0.35731474 0.0019688674
-0.066243164 0.11420451 0.18549599 0.47121802 -0.80623066 -0.35769492 0.0013497365
-0.058091458 0.11814374 0.18606377 0.42528588 -0.8290562 -0.36303955 0.001233784
0.058870938 0.119325 0.18461943 -0.39755908 -0.84950948 -0.34681463 0.0020868469
0.065699466 0.11487106 0.18471207 -0.46777308 -0.81109017 -0.35117111 0.00117535
0.071143582 0.11126965 0.18489996 -0.49268869 -0.79455805 -0.3548736 0.0012117857
-0.055413891 0.12151953 0.18126547 0.38588119 -0.85361063 -0.34992093 0.0012045536
-0.043563247 0.1258775 0.18437837 0.30631658 -0.88822639 -0.34237981 0.0021082307
-0.034538895 0.1272947 0.18586285 0.26060808 -0.90055233 -0.34797862 0.0017184195
-0.026754424 0.12817565 0.18794554 0.18954886 -0.91865784 -0.34661081 0.00073885592
0.016522557 0.12962182 0.18969131 -0.13541974 -0.92852145 -0.34570119 0.0017466686
0.028032791 0.12908439 0.18654008 -0.20142408 -0.91840065 -0.34054157 0.001643777
0.035775356 0.12751742 0.18415955 -0.25846496 -0.90290898 -0.34344023 0.0010662316
0.04493691 0.1236886 0.18639886 -0.32600525 -0.87867707 -0.34877956 0.0014557954
0.056244224 0.1213779 0.18276967 -0.39031819 -0.85023564 -0.35320118 0.002172498
-0.030920209 0.13026386 0.18009838 0.21094052 -0.91482884 -0.34437254 0.0011393697
-0.023335259 0.13142586 0.18132904 0.16304417 -0.92121452 -0.35324275 0.0008829151
-0.01581276 0.13187851 0.18439019 0.11308732 -0.92718571 -0.35712454 0.0020385415
-0.0041858768 0.13223699 0.18545645 0.036624033 -0.93418157 -0.35491335 0.0017461288
0.0045052902 0.13203864 0.18481763 -0.037425034 -0.93474066 -0.35335428 0.00095665909
0.01320157 0.13121635 0.18585458 -0.092010871 -0.93029404 -0.3550874 0.0014042364
0.025806459 0.13093354 0.18353049 -0.18608233 -0.91989809 -0.34519696 0.0013557365
0.031776302 0.13022184 0.18053676 -0.21933006 -0.91286242 -0.34434935 0.0016954032
-0.04171142 -0.12086195 0.19629973 0.30463508 0.88503623 -0.35200629 0.0019243367
-0.03279449 -0.1244452 0.19448721 0.22377606 0.90886486 -0.35197863 0.0017746112
-0.025674567 -0.12742609 0.19258499 0.20005643 0.91329449 -0.3547821 0.0018954072
-0.014110161 -0.12753546 0.19562249 0.10705908 0.92886382 -0.35461289 0.0017890225
-0.0034925353 -0.12789719 0.19608212 0.020537207 0.93816745 -0.34557194 0.0018802504
0.0043169786 -0.1287476 0.19485001 -0.042547483 0.93387496 -0.35505962 0.0013641391
0.013718358 -0.12820473 0.19523713 -0.10142773 0.93189025 -0.3482717 0.0021050349
0.024824211 -0.12564455 0.19569403 -0.17927173 0.91908002 -0.35093236 0.0010231407
0.035461541 -0.12312681 0.19630416 -0.2625078 0.89895117 -0.35067981 0.0011312307
0.042980861 -0.12198269 0.19442938 -0.31075948 0.8853144 -0.34590009 0.0019065529
-0.063646592 -0.11159836 0.19510463 0.46118245 0.81571311 -0.34917474 0.0014863396
-0.05362197 -0.11789323 0.19406697 0.39038783 0.85276794 -0.34696406 0.0021563636
-0.04912249 -0.11874803 0.19559334 0.3448391 0.87463444 -0.34073544 0.0013671209
0.047985375 -0.1182635 0.19817433 -0.34999642 0.86966246 -0.34812319 0.0016384757
0.054972731 -0.11551882 0.19617467 -0.40521812 0.84445775 -0.35027051 0.0008179202
0.064514592 -0.11152714 0.19402714 -0.47524473 0.81012648 -0.34327477 0.0012263658
-0.077487007 -0.10295045 0.19443475 0.55745566 0.7519713 -0.35182714 0.0012551578
-0.065950774 -0.10832562 0.19913495 0.49171841 0.79777253 -0.34895837 0.0011901117
0.06659849 -0.10955314 0.1961973 -0.48680577 0.80325192 -0.3432295 0.0014864068
0.075237937 -0.1048839 0.19475345 -0.54408771 0.76809484 -0.3376371 0.0019755061
0.082485393 -0.10050803 0.19080779 -0.59519219 0.72536612 -0.34581849 0.00099806499
-0.090892956 -0.092266038 0.19234233 0.65679377 0.66874361 -0.34843063 0.0012235745
-0.08530473 -0.09634304 0.19574322 0.61628932 0.70374495 -0.35345513 0.0019032641
0.085366562 -0.095519669 0.19556165 -0.6218524 0.69903493 -0.35305777 0.001546936
-0.10120959 -0.080685668 0.1926558 0.74134594 0.5761252 -0.34421769 0.0016494263
-0.09222737 -0.08769612 0.19792683 0.67918789 0.64211285 -0.35552058 0.00077441591
0.095606603 -0.086194642 0.19559637 -0.69558299 0.63129061 -0.34298164 0.001688859
-0.10494095 -0.074920423 0.19516718 0.75686663 0.55295938 -0.34840906 0.0019373404
0.10436013 -0.074991599 0.19489338 -0.75456381 0.55453676 -0.35088819 0.0015792307
-0.1117768 -0.062118724 0.19636843 0.82833892 0.43752718 -0.3498922 0.0014034018
0.10769524 -0.068446793 0.19691451 -0.80109364 0.48724017 -0.34762922 0.0010742403
0.11126693 -0.065351412 0.19336407 -0.80109066 0.48723826 -0.3476387 0.001059658
-0.1149528 -0.056830149 0.19525142 0.8397103 0.40983754 -0.35625821 0.0013696796
0.11579879 -0.056390021 0.1961177 -0.8419928 0.40677169 -0.35437956 0.0017532783
-0.12166829 -0.04597896 0.19221571 0.87835407 0.31816804 -0.35673967 0.0019563797
0.11870499 -0.04723442 0.19726248 -0.87075216 0.34756416 -0.34783599 0.0014944524
0.12129901 -0.045969095 0.19166522 -0.87503457 0.33007771 -0.35406664 0.0014755259
-0.12392325 -0.035588775 0.19413739 0.89212948 0.27237678 -0.36043829 0.0016171013
0.12348859 -0.034993667 0.19512084 -0.90612268 0.24154212 -0.34727383 0.0015041546
-0.12548986 -0.026410891 0.19520414 0.91559035 0.19481452 -0.35176918 0.00087640499
0.12651287 -0.02501099 0.19536033 -0.91427016 0.19201839 -0.35670573 0.0018236914
-0.128415 -0.013154377 0.19496286 0.93255836 0.091717415 -0.34917438 0.0018747047
0.12764917 -0.014440829 0.19527234 -0.93192381 0.09788508 -0.3491942 0.0013785263
-0.13006638 -0.0039941533 0.19126296 0.93577033 0.019695198 -0.35205957 0.0014763686
-0.12838028 -0.0031200387 0.1956756 0.93673909 0.015302876 -0.34969375 0.0014441202
0.12789381 -0.0064285514 0.19569531 -0.93680102 0.056178942 -0.34532276 0.0017263035
-0.13000798 0.0057476582 0.19010642 0.9365381 -0.035609815 -0.34875271 0.00095234532
-0.12882145 0.005092951 0.19338286 0.9377414 -0.033272196 -0.34573695 0.00090171094
0.12863418 0.0052803727 0.19528466 -0.93478507 -0.034049619 -0.35357812 0.0016201076
0.13042626 0.0095127271 0.19104007 -0.93433475 -0.063987538 -0.35060558 0.0020432207
-0.12809007 0.015754938 0.19391052 0.93213415 -0.10703451 -0.34593272 0.0014881359
0.12774397 0.015312776 0.19554783 -0.930143 -0.10153581 -0.35288024 0.0018727944
-0.12703903 0.024794519 0.19403177 0.92338413 -0.1707195 -0.34382653 0.0019962618
0.12575842 0.025421916 0.19505668 -0.91735601 -0.19505833 -0.34700173 0.00072361983
-0.12286042 0.037227944 0.19488451 0.89446044 -0.2825219 -0.34658599 0.0012255089
0.12291541 0.035298061 0.1969526 -0.89892274 -0.25731885 -0.354577 0.001181941
-0.12113826 0.045434885 0.19251791 0.88059729 -0.32291272 -0.34680805 0.0011849952
-0.11953159 0.046561643 0.19570148 0.87678778 -0.33316594 -0.3467617 0.0010217504
0.11862793 0.046759982 0.19880494 -0.87193936 -0.34212625 -0.35024479 0.0015542713
0.12187679 0.044853952 0.19336408 -0.88044721 -0.32147899 -0.34851697 0.001861704
-0.11708413 0.055233512 0.19403566 0.84471041 -0.40731347 -0.34721747 0.0015601795
0.11584555 0.054527234 0.19593884 -0.84859401 -0.40130019 -0.34474099 0.00150887
-0.11243796 0.062908292 0.19428563 0.82248986 -0.45123798 -0.34625837 0.0014723826
-0.10842427 0.066656433 0.19788159 0.80635065 -0.47943318 -0.34632701 0.0010809842
0.10884506 0.068335965 0.19576135 -0.79933167 -0.48962897 -0.34832788 0.0014937744
0.11133034 0.063093349 0.19624181 -0.80754274 -0.4766289 -0.34741843 0.0013964933
-0.1040554 0.07492426 0.19568028 0.7563765 -0.55655944 -0.34370938 0.0015121438
0.099693894 0.07885538 0.19898307 -0.73720306 -0.58019638 -0.3462714 0.0022988918
0.10459334 0.075789176 0.19474056 -0.7565639 -0.55775291 -0.34135431 0.00185396
-0.10139197 0.08253333 0.19058737 0.71730268 -0.59920853 -0.35556439 0.0021302048
-0.096665077 0.085780844 0.19429834 0.70339215 -0.61444944 -0.35733926 0.0018774503
0.095034547 0.085349396 0.19656061 -0.68907064 -0.63207102 -0.35449672 0.0013825831
-0.090473548 0.091029011 0.19530568 0.64444506 -0.67895532 -0.35172465 0.0010996414
-0.085260727 0.095710769 0.19537137 0.6279977 -0.6945979 -0.35093126 0.0018853205
0.079288937 0.099795654 0.19893195 -0.57398731 -0.73864138 -0.35347894 0.0017434648
0.085770339 0.095079258 0.19748668 -0.63297987 -0.68486542 -0.36096528 0.0018201479
-0.080819219 0.10134694 0.19214077 0.58313566 -0.73256433 -0.35114428 0.0017031593
-0.077240929 0.10346997 0.19436216 0.56129867 -0.74696153 -0.35635981 0.0017105169
-0.06782677 0.1087937 0.19650896 0.49283937 -0.79306859 -0.35798258 0.0017013699
0.06567274 0.10912116 0.19774336 -0.48045716 -0.80535078 -0.34723341 0.0012010663
0.07527148 0.10461964 0.19389834 -0.55133033 -0.75662792 -0.35149541 0.0013693324
-0.063660644 0.11190865 0.19416121 0.47131151 -0.8061797 -0.35768655 0.0015070336
-0.055439569 0.11484237 0.19722165 0.41770411 -0.83869469 -0.34944889 0.0011918184
-0.044431761 0.11966113 0.19918716 0.34199563 -0.87291515 -0.34793416 0.0017919207
0.045195155 0.11939625 0.19717623 -0.33865654 -0.87524378 -0.34534049 0.0014545429
0.056744151 0.11505423 0.19696981 -0.41741958 -0.84049433 -0.34544191 0.0019097019
0.062175684 0.11361711 0.19269106 -0.45904443 -0.81739902 -0.34804749 0.001881721
-0.042605639 0.12281821 0.1928492 0.30680618 -0.88842952 -0.3414132 0.0023228298
-0.035846464 0.12378022 0.19436796 0.25664389 -0.90318507 -0.34407932 0.0015230569
-0.024234699 0.12647168 0.19385163 0.17837234 -0.92062473 -0.34732312 0.00040399047
-0.014192048 0.12805475 0.19536382 0.11400495 -0.93093157 -0.34694269 0.0017807222
-0.0036646542 0.12855545 0.19527838 0.021539951 -0.94125086 -0.3370204 0.0014406049
0.0064626033 0.12753654 0.19665073 -0.067712538 -0.93377054 -0.35140806 0.0010953071
0.016683711 0.12717162 0.19625315 -0.13821484 -0.92627364 -0.35059071 0.0018673973
0.024260581 0.12693299 0.19463347 -0.17415535 -0.92091596 -0.34868836 0.0017902807
0.035225894 0.12287436 0.19650181 -0.26138723 -0.89803255 -0.35385618 0.0015465076
0.04469084 0.12107146 0.19330326 -0.32320192 -0.8826099 -0.34138 0.0016724718
-0.010163704 0.13010025 0.19200376 0.074671589 -0.93461406 -0.34773648 0.002203421
-0.033076204 -0.12119224 0.20258385 0.24116004 0.90202081 -0.3580507 0.0015706929
-0.024456849 -0.12353865 0.20357645 0.19094208 0.914684 -0.35622233 0.0015225117
-0.014709201 -0.12364251 0.20600194 0.11456104 0.92577887 -0.3602905 0.001761282
-0.0052774572 -0.12417802 0.20583469 0.052588914 0.93423361 -0.3527633 0.0012509822
0.0063212947 -0.12564564 0.20345512 -0.049543567 0.93554372 -0.34971893 0.001630567
0.016835285 -0.12379993 0.20506132 -0.13508123 0.92530245 -0.3543565 0.0017811641
0.025396833 -0.1226536 0.20323746 -0.20512864 0.91486424 -0.34777233 0.0011228112
0.036780056 -0.1205911 0.20222862 -0.27094218 0.89673853 -0.34992912 0.0013680668
-0.054066848 -0.11346685 0.20443292 0.41541168 0.83750963 -0.35497987 0.0019264411
-0.044592105 -0.11560453 0.20738289 0.34238485 0.869313 -0.35646531 0.0018453783
-0.037204586 -0.11891773 0.20499907 0.27772513 0.89476097 -0.34967342 0.0012660138
0.027663751 -0.11960166 0.20998374 -0.21810399 0.91208225 -0.34718367 0.0012052733
0.034774572 -0.11941408 0.20645806 -0.26117876 0.90171897 -0.34451208 0.0015995393
0.044629689 -0.11664101 0.2060415 -0.33478796 0.87508655 -0.34948608 0.0020195227
0.053663909 -0.11299597 0.20382091 -0.3942894 0.8502875 -0.34863588 0.0015627217
-0.074421734 -0.10120662 0.20285109 0.56064111 0.75293845 -0.34462339 0.0013496999
-0.064945653 -0.10646804 0.20479997 0.49213639 0.79727906 -0.34949669 0.0015517609
-0.057879306 -0.10951984 0.20822282 0.43307751 0.82950252 -0.35266057 0.0019922692
0.056125313 -0.10992191 0.20816197 -0.42764723 0.83451885 -0.3474133 0.0011307473
0.065281585 -0.10558406 0.20731629 -0.49636683 0.79668832 -0.34482998 0.0015687012
0.072079659 -0.10243616 0.20561858 -0.52609944 0.77617013 -0.34753329 0.0019337743
-0.084789507 -0.092344142 0.20437965 0.63466823 0.68963003 -0.3487215 0.0017880256
-0.078178309 -0.098051965 0.20449373 0.5838356 0.73350847 -0.34799603 0.0018546341
0.077690817 -0.09565527 0.20914297 -0.5918088 0.72460896 -0.35313487 0.0015431009
0.083152555 -0.093132235 0.20432079 -0.63012278 0.69580251 -0.34467986 0.0012902674
-0.092222154 -0.084253602 0.20414971 0.68661422 0.63743776 -0.34961975 0.00091443822
-0.088836722 -0.088666134 0.20294166 0.65883577 0.6631099 -0.35527545 0.0017809153
0.086651072 -0.087576665 0.20909229 -0.65551722 0.66851985 -0.35125265 0.0014796134
0.095238827 -0.08243116 0.20358638 -0.70856464 0.61213011 -0.35104546 0.0016871938
-0.1024611 -0.072137401 0.20543766 0.76169789 0.54359382 -0.35259354 0.0019893814
-0.097894557 -0.076977305 0.20596257 0.74310404 0.57063657 -0.34952852 0.0018530188
0.097407572 -0.078104541 0.20605747 -0.73521441 0.58165687 -0.34804472 0.0019321862
0.10103045 -0.074022956 0.20383148 -0.74620134 0.56655765 -0.34956545 0.001513638
-0.10605011 -0.065961517 0.20536631 0.78879064 0.50878239 -0.34489107 0.0018875763
0.1049704 -0.067294829 0.20475364 -0.7905702 0.499933 -0.35364628 0.001459534
-0.11127392 -0.055724513 0.2054164 0.83852184 0.42118329 -0.34566718 0.0012833314
-0.10890201 -0.059021626 0.20705101 0.82776868 0.44042918 -0.34759313 0.0019282816
0.11243325 -0.054527737 0.2057956 -0.83640367 0.4210701 -0.35089713 0.00182365
-0.11636277 -0.046158951 0.20496598 0.86732072 0.35199279 -0.35193142 0.0015623604
0.11610338 -0.044581406 0.20611444 -0.87104726 0.34203631 -0.35254493 0.001525433
-0.12149811 -0.034543704 0.20110691 0.89273453 0.28276756 -0.35080993 0.0015365253
-0.11907139 -0.031623319 0.20914051 0.90390378 0.25649995 -0.34229478 0.0020586497
0.11822075 -0.034436658 0.20906912 -0.8966369 0.27080464 -0.35029572 0.00077935436
0.12048636 -0.034173008 0.2034857 -0.90145063 0.25345859 -0.35092098 0.0011995158
-0.12175156 -0.024496438 0.206119 0.91819918 0.1851764 -0.35017121 0.0015262417
0.12262942 -0.023805687 0.20605305 -0.91557562 0.17644325 -0.36137116 0.0018345275
-0.12379698 -0.015194065 0.20599672 0.92785573 0.1041958 -0.35808793 0.0016897537
0.1242177 -0.015044161 0.20441127 -0.92764843 0.11346868 -0.35579959 0.0012835237
-0.12514104 -0.0045625092 0.20457378 0.9348197 0.028610505 -0.35396841 0.0016802176
0.12420739 -0.0040402804 0.2059226 -0.93411118 0.015781073 -0.35663337 0.0012748532
-0.12465146 0.0037178483 0.20477289 0.93601555 -0.021267178 -0.3513155 0.0010501822
0.12449902 0.0058095185 0.20646703 -0.93241459 -0.037576575 -0.35943133 0.0018210142
-0.12410712 0.015805917 0.20460564 0.92574966 -0.1308033 -0.35479313 0.0016859894
0.12562221 0.015442595 0.20105532 -0.92862415 -0.11247331 -0.35356331 0.0014335384
-0.12279126 0.025758766 0.20423292 0.91103065 -0.19709744 -0.36218184 0.0016001968
0.12234493 0.024816044 0.20437765 -0.91420281 -0.19112316 -0.3573586 0.0013940446
-0.12015464 0.03506124 0.20360163 0.89994091 -0.25145498 -0.3561976 0.0011767893
-0.11788941 0.037269961 0.20757811 0.89199889 -0.28522241 -0.35069373 0.0016058995
0.11889232 0.035834193 0.20723155 -0.90140587 -0.26489237 -0.34249023 0.0012094781
0.12144285 0.032316986 0.2025108 -0.90499121 -0.24137275 -0.35032862 0.0016416654
-0.11697866 0.043701041 0.20460017 0.87422597 -0.33518013 -0.35125959 0.0017342005
0.11594907 0.046296131 0.20567486 -0.87061512 -0.35028499 -0.3454414 0.0020490782
-0.11189163 0.055328853 0.20618233 0.83646482 -0.42622381 -0.34447038 0.0015102619
0.11194681 0.053776812 0.20619449 -0.84025127 -0.41675517 -0.34683272 0.0016076339
-0.10663357 0.064793274 0.20464845 0.80382699 -0.48157844 -0.34920508 0.0016407187
0.1060326 0.06691093 0.20424357 -0.79091531 -0.49710169 -0.35685134 0.0017509243
-0.10152431 0.072819017 0.20447361 0.74587667 -0.5649057 -0.35291585 0.0016502701
-0.097806588 0.077776417 0.20563503 0.72351223 -0.59155458 -0.35579926 0.0018784632
0.097902343 0.076606169 0.20661676 -0.7417978 -0.57166344 -0.35062367 0.0023604131
0.10223129 0.072899602 0.20466821 -0.76480687 -0.535694 -0.35791385 0.0023281844
-0.0927618 0.084583543 0.20403688 0.6880182 -0.6334343 -0.35410723 0.0015505011
-0.08771418 0.087014906 0.20829466 0.66650218 -0.65464836 -0.35666561 0.0018148419
0.087432273 0.087741345 0.20741285 -0.65809619 -0.66148001 -0.35965753 0.0018680617
0.09285704 0.084291942 0.20281371 -0.69466138 -0.63229775 -0.34299433 0.0016170166
-0.081724681 0.094920292 0.20332985 0.62123609 -0.70187277 -0.34848288 0.0012403487
-0.078000896 0.096229568 0.2074375 0.59547681 -0.72042042 -0.35553035 0.0012785901
0.078031845 0.097411141 0.20615558 -0.58180332 -0.73123425 -0.3560918 0.0021000095
0.083518028 0.09320952 0.20533662 -0.62435871 -0.69804573 -0.3505829 0.0020461329
-0.075253472 0.10023247 0.20440856 0.56285959 -0.75069803 -0.34589243 0.0015686606
-0.066556901 0.10634193 0.20393723 0.5089618 -0.78442824 -0.35444337 0.001851992
0.05855174 0.1091499 0.20807682 -0.43456951 -0.83017814 -0.34921858 0.002151473
0.067662157 0.10478346 0.20463963 -0.50357503 -0.78682756 -0.35681167 0.0012655697
0.072534695 0.10137781 0.20521981 -0.5580523 -0.74961394 -0.35588846 0.0015012205
-0.052970983 0.11403367 0.20218629 0.39281031 -0.85028547 -0.3503066 0.0014485166
-0.043159198 0.11817835 0.20397501 0.32979372 -0.87816161 -0.3465088 0.0022432515
-0.037961062 0.11811315 0.20807888 0.27728364 -0.89662021 -0.34523317 0.0018729962
0.036342356 0.11833553 0.20720172 -0.27030164 -0.89623082 -0.35172048 0.00094100484
0.046268422 0.11610863 0.20470808 -0.34656754 -0.87023818 -0.35010928 0.0013630236
0.055507682 0.11314191 0.20320065 -0.40752691 -0.83989221 -0.35847318 0.0022944016
-0.035000496 0.12143159 0.20102371 0.25162017 -0.90218329 -0.35036072 0.0014514147
-0.025190715 0.1219324 0.2052509 0.19393006 -0.91230094 -0.3606911 0.0012116677
-0.01438082 0.12385289 0.20630929 0.10527384 -0.93091083 -0.34974632 0.0022351609
-0.0060763587 0.1244483 0.20663925 0.046727233 -0.93622792 -0.34827286 0.0022360603
0.0053079166 0.12408004 0.20609386 -0.055486809 -0.93427128 -0.35221913 0.00091514876
0.015398866 0.12421352 0.20437466 -0.10211782 -0.92998892 -0.35311815 0.0015305751
0.027094366 0.12082183 0.2084713 -0.20939845 -0.91022372 -0.35727441 0.0016629485
0.033106405 0.12133873 0.20218378 -0.24578683 -0.90130007 -0.35671723 0.0017157609
-0.013894999 -0.12143213 0.21205091 0.10770075 0.92889249 -0.35434341 0.0013936808
-0.0049323346 -0.12149795 0.21308246 0.027708042 0.93461347 -0.35458416 0.0010769925
0.0050286031 -0.1215567 0.21426761 -0.050694797 0.93583256 -0.34877989 0.001694416
0.013759803 -0.12210966 0.21124552 -0.09550377 0.93098181 -0.35235226 0.0019038045
-0.046161782 -0.11199746 0.21532278 0.36842492 0.85981232 -0.35353339 0.0016483514
-0.035107508 -0.1152518 0.21611719 0.26289287 0.89693218 -0.35552782 0.0013767688
-0.025601832 -0.1176186 0.21790552 0.20204625 0.91362625 -0.35279503 0.0013166044
-0.016997723 -0.11920526 0.21761608 0.14355119 0.92506266 -0.35164201 0.0015395476
-0.0074507361 -0.11958531 0.2178821 0.061469171 0.93486047 -0.34965333 0.0021187521
0.016049188 -0.11929502 0.21735492 -0.12487036 0.92837632 -0.3500354 0.0018160632
0.025074527 -0.11914654 0.21264426 -0.21214373 0.91465193 -0.34410295 0.0010817179
0.034283832 -0.11605494 0.21557097 -0.2677595 0.89805269 -0.34900746 0.0019218334
0.044452846 -0.1142726 0.21206351 -0.34644818 0.87078178 -0.3488737 0.0021565941
0.051720548 -0.11044133 0.21232168 -0.39436212 0.85273296 -0.34252724 0.0014822514
-0.066144697 -0.10133757 0.21464169 0.51121163 0.78591454 -0.34785205 0.0014964829
-0.056331504 -0.10769214 0.21461277 0.438651 0.83133876 -0.34126389 0.0020439622
-0.049783349 -0.10961433 0.21843463 0.39356518 0.85090482 -0.34794733 0.0017571229
0.048006728 -0.10977259 0.21847866 -0.37931475 0.85625249 -0.35064515 0.0016780123
0.055266559 -0.10664005 0.21707344 -0.44104096 0.82882512 -0.3442843 0.0015135623
0.065289102 -0.10196766 0.21596614 -0.50695109 0.78950804 -0.34594437 0.0020041133
0.07072752 -0.10131959 0.21040714 -0.5184648 0.77837956 -0.35400498 0.0018094659
-0.080929428 -0.092022806 0.21266156 0.61011779 0.70990503 -0.35183963 0.002040612
-0.07257656 -0.097043775 0.21495169 0.56998718 0.74502677 -0.34648192 0.001584352
-0.067984924 -0.09795247 0.21960339 0.53421676 0.76873231 -0.35165766 0.0020301861
0.067513973 -0.099791571 0.21844727 -0.51389503 0.78394741 -0.3483364 0.0021740359
0.07307189 -0.096798301 0.21519774 -0.55255878 0.75600624 -0.35090372 0.0021749686
0.080570199 -0.091911301 0.21141711 -0.61933035 0.6999113 -0.35574436 0.0017003455
-0.091662109 -0.080742419 0.21160354 0.70484132 0.61632079 -0.35120845 0.0014282092
-0.083816707 -0.086304881 0.21721931 0.64841223 0.6745773 -0.35285559 0.0014771587
0.085396603 -0.084735669 0.21702483 -0.66921794 0.65591663 -0.34917155 0.0018772295
-0.095900752 -0.075129405 0.21327558 0.74265122 0.57072049 -0.35035315 0.0016899054
-0.089638963 -0.079268299 0.21830057 0.70302069 0.61730111 -0.35313064 0.0016329996
0.08965186 -0.079495236 0.21980187 -0.70244491 0.61686957 -0.35502547 0.0020109832
0.095497973 -0.076740019 0.21216615 -0.73072082 0.5836578 -0.35410565 0.0022694948
-0.1034164 -0.063670389 0.21448301 0.79125017 0.50216222 -0.3489359 0.0018445558
-0.099753276 -0.069063045 0.21653618 0.77058423 0.5365085 -0.34403259 0.0020873912
0.098294184 -0.069677055 0.2163603 -0.75967818 0.54458797 -0.35540539 0.0020278802
0.10448708 -0.061480086 0.21433665 -0.81193787 0.46567655 -0.35199741 0.0014659666
-0.1108512 -0.051432144 0.21169406 0.85558623 0.38819915 -0.34245232 0.0022001793
-0.10728829 -0.054770399 0.21612997 0.83963442 0.4202306 -0.34412241 0.0014670318
0.10824744 -0.055978335 0.21387376 -0.83393228 0.4257597 -0.35112047 0.0016590446
0.11122556 -0.053398509 0.21091169 -0.84408069 0.40454215 -0.35195661 0.0019894398
-0.11394891 -0.044355556 0.2129579 0.8738277 0.33508676 -0.35233775 0.0020037682
0.11264781 -0.042909067 0.21634324 -0.87383628 0.32902676 -0.35798261 0.0022017879
-0.11709503 -0.035287723 0.2122678 0.89595914 0.27538264 -0.34845608 0.0019935833
0.11528764 -0.035924673 0.21535075 -0.88813233 0.29764423 -0.35018402 0.0015352501
-0.1185024 -0.024726858 0.21453504 0.91584855 0.19393617 -0.35158241 0.0015841618
0.11822813 -0.026594575 0.21552514 -0.91260785 0.20291202 -0.35492784 0.0017031211
0.12028919 -0.02557442 0.21109012 -0.91226065 0.20334004 -0.35557473 0.0015865401
-0.12114038 -0.015850428 0.21261337 0.93071294 0.11674414 -0.34661818 0.0017481166
-0.11932385 -0.016223753 0.21718042 0.9295851 0.12303951 -0.34746626 0.0020641158
0.11882704 -0.017800782 0.21852404 -0.92426145 0.1581728 -0.34745103 0.001911098
0.12092873 -0.015263086 0.21321908 -0.92373246 0.12301996 -0.36274573 0.0020391629
-0.12117597 -0.0062147453 0.21545053 0.93540651 0.06016688 -0.34841713 0.0016942371
0.11985059 -0.0049777441 0.21750271 -0.93716246 0.027840098 -0.34778082 0.0011611331
0.12118231 -0.0040876432 0.21404442 -0.93545771 0.024730889 -0.3525725 0.001003455
-0.12067238 0.0073244162 0.2149782 0.93528682 -0.0667082 -0.34754658 0.001434803
-0.11957722 0.0034641486 0.21844132 0.93593013 -0.01331025 -0.35193413 0.0016819879
0.12102334 0.006055193 0.21583912 -0.93702716 -0.046716828 -0.34611794 0.0015694707
-0.12163484 0.011893786 0.21177606 0.92848265 -0.083576865 -0.36184928 0.0020047978
-0.11965957 0.015857434 0.21654911 0.92682672 -0.13704361 -0.34958735 0.0015101306
0.11893573 0.017801151 0.21730968 -0.92571682 -0.1459157 -0.348937 0.0014787504
0.12071167 0.014599902 0.21444781 -0.9275589 -0.11158112 -0.35662878 0.0018979614
-0.12026986 0.023801835 0.21260315 0.91602981 -0.19256927 -0.35186154 0.0019249509
-0.11753514 0.025559591 0.21815412 0.91415411 -0.2019656 -0.3514713 0.0015858666
0.11798759 0.02639666 0.21494541 -0.90725392 -0.23207983 -0.3507553 0.0015718977
0.12043256 0.021686196 0.21117677 -0.9218424 -0.1565616 -0.35453513 0.0015336634
-0.11572731 0.036533162 0.21372256 0.89232022 -0.27374664 -0.35892534 0.0018472342
0.1158575 0.035889793 0.21518262 -0.89281839 -0.27696982 -0.35519436 0.0015567662
-0.11330497 0.044230122 0.21356981 0.86440039 -0.35373381 -0.35732952 0.0017597514
-0.10977932 0.047567114 0.21984203 0.85896814 -0.37010679 -0.35382855 0.0015201881
0.1087732 0.049652629 0.21885258 -0.85135239 -0.39218879 -0.34840643 0.0016228671
0.11310893 0.044758439 0.21447492 -0.86956346 -0.34542724 -0.35290125 0.0021448771
-0.11097635 0.050423779 0.21441835 0.85459638 -0.38272521 -0.35097924 0.002048586
-0.10689069 0.056886863 0.21561277 0.82949966 -0.43707752 -0.34769773 0.0016912277
0.10820415 0.053905215 0.21499836 -0.8417806 -0.41344056 -0.34709111 0.0016464647
0.11084503 0.050799485 0.21248493 -0.85360628 -0.39006016 -0.34526718 0.0022441826
-0.10156438 0.065186605 0.21552821 0.78652596 -0.51211524 -0.34513041 0.001709556
-0.0987572 0.067206219 0.21892211 0.76951057 -0.53754801 -0.34481227 0.0023080001
0.098910674 0.069621526 0.21720958 -0.77649486 -0.52400136 -0.34996912 0.0020513267
0.10238948 0.063646287 0.2169714 -0.79320419 -0.49872041 -0.34943527 0.0022219943
-0.094274357 0.075689115 0.21646252 0.72085851 -0.59585375 -0.35400763 0.001979728
0.096328028 0.073421292 0.21550556 -0.75521177 -0.55004603 -0.35651731 0.0019840507
-0.084044002 0.085984439 0.21697406 0.65589267 -0.66668826 -0.354022 0.0016729326
-0.079962336 0.089343145 0.21763828 0.62986088 -0.69239002 -0.35195348 0.0013030879
0.085061893 0.085462697 0.21625461 -0.65688562 -0.66974223 -0.34633315 0.0020227488
0.090199709 0.082010686 0.21223271 -0.68462968 -0.64113879 -0.34673217 0.0011580586
-0.081127621 0.090257943 0.21371013 0.6325869 -0.68977767 -0.35219377 0.0015577711
-0.075601302 0.094565183 0.21508884 0.59603822 -0.72126871 -0.35285956 0.0015517187
0.067712717 0.098022372 0.21984291 -0.53150308 -0.77201444 -0.34856576 0.0022121002
0.074196927 0.095929638 0.21510302 -0.56901169 -0.74751335 -0.34270927 0.0018029803
-0.065185875 0.10316486 0.2132262 0.51155436 -0.78646225 -0.34610602 0.0018759141
-0.054673571 0.1077028 0.21525621 0.43238768 -0.82997918 -0.35238549 0.001434969
0.048586842 0.1094667 0.21980053 -0.38614625 -0.85455632 -0.34731042 0.0022082413
0.056315895 0.10766047 0.21470714 -0.42617178 -0.83520281 -0.34758279 0.0018435072
0.064406805 0.10333747 0.21266051 -0.49994534 -0.79411304 -0.34559962 0.0016245076
