# .PCD v0.7 - Point Cloud Data file format
VERSION 0.7
FIELDS x y z normal_x normal_y normal_z curvature
SIZE 4 4 4 4 4 4 4
TYPE F F F F F F F
COUNT 1 1 1 1 1 1 1
WIDTH 553
HEIGHT 1
VIEWPOINT 0 0 0 1 0 0 0
POINTS 553
DATA ascii
-0.16573665 0.015933545 -0.07641501 0.99444801 -0.10522464 -0.000928197 0.00035899444
0.16617523 0.012602386 -0.07776998 -0.99707806 -0.076385386 0.00074999128 0.001078301
-0.16465922 0.024117289 -0.074169382 0.98923606 -0.14632872 4.4454748e-05 0.00037720901
0.16468835 0.023896664 -0.074336551 -0.9899177 -0.14164123 0.00082894968 0.00046942229
-0.16329254 0.034498189 -0.075737461 0.98216558 -0.18800327 -0.0023489969 0.0011952232
0.16354237 0.032601397 -0.072871551 -0.98344326 -0.18121153 -0.0013481684 0.0012574593
0.15953808 0.049661506 -0.072286755 -0.95507509 -0.29633713 -0.0039887992 0.00217639
0.16215342 0.04315174 -0.074460022 -0.96771801 -0.25199747 -0.0043767672 0.0023067277
-0.15647997 0.057044029 -0.074204363 0.93617058 -0.35152459 0.0038867088 0.00064078253
0.15703288 0.05570953 -0.074947238 -0.93813092 -0.34627247 -0.0024100386 0.00090347574
-0.15301517 0.065408722 -0.074961767 0.91777557 -0.39709541 -0.0018066292 0.00026527309
0.15357992 0.064045675 -0.078664258 -0.92150795 -0.3883591 -0.00057545118 8.2742183e-05
-0.14845003 0.076429904 -0.072810978 0.88797647 -0.4598707 -0.004097356 0.0017183011
0.14723195 0.079370916 -0.077350631 -0.87916774 -0.47648004 0.0055534733 0.0021366077
0.15003204 0.07261093 -0.07170549 -0.90416282 -0.42718384 0.0018725949 0.0011650457
-0.14244795 0.087697499 -0.075023837 0.84893864 -0.52848846 0.0018153867 0.002098246
0.14333029 0.086476631 -0.075925827 -0.8523432 -0.52297443 0.002962573 0.0021151218
-0.14065601 0.090032794 -0.074010774 0.83494717 -0.55029911 0.0058346521 0.0016274513
-0.13717435 0.09457019 -0.073360607 0.81874043 -0.57415038 0.0039329729 0.00091011485
0.13576491 0.096407175 -0.075645223 -0.81280214 -0.58253813 -0.0014497349 0.00072546041
-0.13220166 0.10105076 -0.076770611 0.79856861 -0.60189241 -0.0036993062 0.00047666096
-0.12813377 0.10635213 -0.076835364 0.77672994 -0.6298306 -0.0019984301 0.00074656669
0.12891085 0.10533959 -0.076616362 -0.77966601 -0.62619555 -0.00032388017 0.00054038875
0.13097234 0.102653 -0.077286981 -0.7891084 -0.6142503 -0.0021130764 0.00036513043
-0.12328306 0.11267373 -0.071705014 0.74255222 -0.66977733 -0.0038031822 0.0018425466
-0.118756 0.11844847 -0.078010216 0.69871056 -0.7153976 -0.0031130563 0.0024325778
0.11862922 0.11851536 -0.073068321 -0.70684701 -0.70726329 0.012080829 0.0022979167
-0.11436263 0.12198713 -0.076465987 0.68897092 -0.72478867 -0.0006765693 0.0023106756
-0.10942297 0.12577748 -0.076126859 0.6563018 -0.75449181 -0.0031702928 0.0014870545
0.10679449 0.12779446 -0.075899079 -0.62021708 -0.7844193 0.0041266647 0.0003261611
0.11316194 0.12290854 -0.075201795 -0.68382078 -0.72960985 0.0076529458 0.0019944401
-0.10002033 0.13299239 -0.077995852 0.59696943 -0.80226302 -0.001200555 0.00027511988
-0.097514249 0.13491538 -0.076180398 0.58517671 -0.81090564 0.00049347605 0.00057982543
0.095858768 0.13618574 -0.075703718 -0.5738942 -0.81892556 -0.0025178224 0.00093527336
0.10361701 0.1302326 -0.079246596 -0.61822081 -0.78600055 -0.0024862436 0.00033316671
-0.090594873 0.14022483 -0.078859605 0.5391252 -0.84220326 -0.0061416472 0.0017374473
-0.08513616 0.14404796 -0.075135827 0.52210414 -0.85285562 0.006672862 0.0019822787
-0.076055989 0.14860503 -0.072848611 0.4664498 -0.88453287 0.0051165535 0.0021534755
0.077836566 0.14786749 -0.076111868 -0.45328912 -0.89136332 0.00053751533 0.0016058348
0.085346885 0.14400953 -0.073383629 -0.53187752 -0.84677655 -0.0087073017 0.0017003601
-0.065176979 0.15311125 -0.076625533 0.3946006 -0.91885072 0.0019125461 0.00030192986
-0.053468153 0.15796119 -0.074800029 0.34683824 -0.93792295 0.0019337871 0.00086678111
-0.048644342 0.15995927 -0.079079166 0.29869756 -0.95434332 0.0029645215 0.0021163782
0.052895736 0.1581983 -0.074279524 -0.33008549 -0.94393826 0.0049081454 0.0015741169
0.065925874 0.15280104 -0.075758822 -0.38627768 -0.92238253 -0.00031115493 4.2218344e-05
0.070088685 0.15107676 -0.07439515 -0.40550223 -0.91409373 0.00081749435 0.00080106955
-0.043963127 0.1615715 -0.075626343 0.26385537 -0.96454138 0.0063375793 0.0023362932
-0.036603291 0.16301541 -0.076010525 0.20070207 -0.97964418 -0.0039833258 0.0012836491
-0.022440488 0.16487998 -0.070874862 0.13476092 -0.99087214 -0.0034381757 0.00052746729
-0.015369494 0.1658109 -0.076653011 0.10093907 -0.99489254 -0.00040980417 0.00078950921
-0.0061488193 0.16702484 -0.073119543 0.032244071 -0.99947995 0.00026644985 0.0023341088
0.0032477602 0.16740677 -0.072172634 -0.015228882 -0.99987084 -0.0051301988 0.0024575011
0.013331562 0.16607919 -0.074541993 -0.076389819 -0.99706256 0.0055570556 0.0014188361
0.023093849 0.16479397 -0.071412489 -0.12954141 -0.99157399 0.00036979705 0.00043216767
0.035920694 0.16310529 -0.074782848 -0.20527609 -0.97869068 0.0051242337 0.0016336013
0.044783864 0.16143981 -0.078148261 -0.28252184 -0.95923257 -0.0073621902 0.0022279627
-0.046885047 -0.160688 -0.065514773 0.29050449 0.95687366 -1.1389712e-05 0.0022396275
-0.034599882 -0.16327915 -0.064335965 0.21307588 0.97703564 0.00015311656 0.0018757117
-0.024873341 -0.16455968 -0.064823523 0.14696833 0.98914099 0.00065912661 0.00018147418
-0.016394064 -0.165676 -0.065159269 0.090779588 0.99586785 -0.0024835386 0.00070020481
-0.004108055 -0.1672935 -0.06572558 0.020341335 0.99972671 -0.011521273 0.0020276483
0.0062143812 -0.16701618 -0.064241983 -0.050379153 0.99873006 0.00023643719 0.0014477539
0.015202056 -0.16583294 -0.065410733 -0.098901957 0.99509674 -0.00094137265 0.00074897829
0.026740417 -0.16431387 -0.066345081 -0.16629013 0.986076 0.0013375494 0.00079792977
0.037890848 -0.16284589 -0.063237838 -0.21789137 0.97597289 -0.00051449443 0.0020583663
0.04458528 -0.16156806 -0.066193216 -0.25012305 0.96819276 -0.0064292131 0.002526073
-0.071403161 -0.15053228 -0.063802011 0.42765236 0.90389502 0.009339462 0.0012517289
-0.062624164 -0.15416864 -0.064962894 0.37166241 0.92836767 0.00069072656 0.00049510947
-0.054701373 -0.15745036 -0.065405391 0.34260839 0.93947732 0.0013764896 0.0010142641
0.054549824 -0.15751314 -0.06580095 -0.3394945 0.94060761 0.00092185335 0.0011702214
0.06474445 -0.15329039 -0.063244469 -0.38020578 0.92490172 0.0006371123 0.00018988634
-0.085175693 -0.14428417 -0.064138159 0.51487553 0.85723776 0.0068281372 0.0022567408
-0.078086935 -0.14776377 -0.065145306 0.44871521 0.89367181 0.0023306808 0.0014918722
0.074694827 -0.14916882 -0.064930424 -0.44427076 0.89588046 0.0046461616 0.0014124713
0.086650811 -0.14303537 -0.063687943 -0.52666175 0.85006928 -0.0031021396 0.0017473227
-0.1030609 -0.13065928 -0.063524231 0.61737311 0.78667039 0.00031058441 0.00030507258
-0.095973298 -0.13609779 -0.062095284 0.58164126 0.81344295 0.0019965498 0.0007936795
0.094767354 -0.13702318 -0.064430326 -0.57124186 0.82077646 -0.0029431733 0.0007704483
0.10099202 -0.13224684 -0.065121964 -0.61278498 0.79024869 -0.0011771824 0.00029791033
-0.11162309 -0.12408926 -0.064517647 0.66287267 0.74873096 -0.0013508059 0.0017608353
-0.10624528 -0.12821582 -0.069913812 0.62199295 0.78301603 0.0032673629 0.00037696396
0.10674319 -0.1278338 -0.065156482 -0.63986093 0.7684834 -0.0033456129 0.00096757786
0.11362179 -0.12255569 -0.063632205 -0.68599826 0.72757417 0.0065067345 0.002255792
-0.12227269 -0.11399049 -0.068116508 0.74048293 0.67206752 -0.0032081257 0.002292658
-0.11897884 -0.1182625 -0.067621395 0.70365918 0.71053207 -0.0028178273 0.0022253811
0.11913437 -0.11808059 -0.061773092 -0.71292043 0.70124495 -0.000101132 0.0024732715
0.12157895 -0.11489475 -0.065248445 -0.72638637 0.6872856 -0.0011669318 0.0022785722
-0.12829612 -0.10614055 -0.068019047 0.77693522 0.62957919 0.0013155222 0.00082059088
0.12699178 -0.10784058 -0.063843995 -0.76242787 0.64707267 0.00083214324 0.0014126904
0.13225403 -0.10098267 -0.064677723 -0.79730576 0.60357559 0.00015297355 0.00046290288
-0.14000405 -0.090882428 -0.062115058 0.84221804 0.53907394 0.0082530687 0.0016893859
-0.13750038 -0.094145305 -0.064992867 0.82746118 0.56152195 0.0010260609 0.0012364277
0.13671504 -0.095168971 -0.064532369 -0.81105787 0.58496302 0.0018619716 0.00060862716
0.14023291 -0.090584368 -0.064492196 -0.84100819 0.5409134 0.010860662 0.0017129534
-0.14450847 -0.084562883 -0.063659981 0.85661477 0.51586193 -0.0098821307 0.0019638224
0.14367774 -0.085804299 -0.062447131 -0.85342574 0.5212087 0.0024587365 0.0017572524
-0.15002142 -0.072636247 -0.066825114 0.90319061 0.42920518 -0.005449967 0.0011082034
-0.14968963 -0.073437244 -0.060277533 0.89832801 0.4393253 0.00038568344 0.0011791443
0.14855942 -0.076166138 -0.064471625 -0.88943464 0.45706123 0.0010650593 0.00201242
-0.15316686 -0.065042518 -0.065940328 0.91572136 0.40180388 -0.0028122698 0.00047658166
0.15289932 -0.065688729 -0.064429462 -0.9176172 0.39746481 0.00064180477 0.00033627747
-0.15728104 -0.055110082 -0.062058106 0.93683481 0.34977207 -0.00024756353 0.00080604735
0.15706453 -0.055633135 -0.064724825 -0.94003695 0.34106949 -0.001463773 0.0009972679
-0.16121615 -0.045048144 -0.065351963 0.96228391 0.27201498 -0.0041705589 0.0023702453
0.15967895 -0.04932142 -0.064317234 -0.95173866 0.30672836 -0.010549643 0.0022203559
0.16177925 -0.043082532 -0.064097844 -0.96728903 0.25348336 -0.0099039655 0.002378921
-0.16337258 -0.033890367 -0.063819617 0.98213947 0.18809344 0.0047907131 0.0011155452
0.16347049 -0.033147343 -0.064267755 -0.98375303 0.17951493 -0.0020794056 0.0012039103
-0.16440758 -0.026028704 -0.06448549 0.98873097 0.14955196 0.0067296396 0.00049390749
0.16455889 -0.024880124 -0.063517816 -0.98930448 0.14586441 0.00052257749 0.00016825681
-0.16566725 -0.016460501 -0.067231059 0.99435997 0.10599373 -0.0036903843 0.00063808559
0.16568252 -0.016344881 -0.065299846 -0.99345219 0.11423492 -0.0017607887 0.00042918025
-0.16709974 -0.0055796504 -0.067106158 0.99794239 0.064113855 0.00061162713 0.0015481402
0.16716711 -0.0050681261 -0.066923372 -0.99889249 0.046301212 -0.0083705671 0.0014523545
-0.16736501 0.0035647776 -0.063808747 0.99959111 -0.028399384 0.003338211 0.0022298854
0.1671042 0.0055460972 -0.063213192 -0.99875021 -0.049976401 -0.00061705231 0.0017070363
-0.16600226 0.013915863 -0.06533388 0.99477935 -0.10204785 0.00061094493 0.00043087977
0.16600701 0.013880241 -0.066220365 -0.99581403 -0.091394372 0.0012586328 0.00082527054
-0.16449757 0.025345216 -0.065529205 0.98756117 -0.15722468 0.0018173769 0.00056756247
0.16455221 0.024930699 -0.064161696 -0.98781627 -0.15561348 0.0018585316 0.00053814414
-0.16335443 0.03402818 -0.064913832 0.98166132 -0.19053377 0.006156994 0.0013890453
0.16324286 0.034876414 -0.066052228 -0.98209584 -0.18836199 0.0027331684 0.0011941167
-0.16136436 0.044685967 -0.066338643 0.96056283 -0.27797484 -0.0069997967 0.0020742686
-0.15969412 0.049284421 -0.063719213 0.95208198 -0.30584282 0.00035275202 0.0021146224
0.16155142 0.043981299 -0.061497554 -0.9662199 -0.25769329 -0.0036300465 0.002087252
-0.15781257 0.053826869 -0.064687856 0.94386923 -0.33026758 -0.0058601694 0.0015147732
0.15808687 0.053164959 -0.065493301 -0.94838297 -0.31682849 -0.0137635 0.0017932535
-0.15342312 0.064423852 -0.064676777 0.92106599 -0.38939989 0.0022654354 0.00013838794
0.1532483 0.064846277 -0.067596227 -0.91866487 -0.3950361 0.0011261472 0.00027453384
-0.14749384 0.078738332 -0.066314705 0.88186163 -0.47146958 -0.0060451902 0.0018786967
0.14814296 0.077171519 -0.064288244 -0.88438153 -0.46675533 -0.0029460981 0.0020743925
-0.14401484 0.085555956 -0.064912349 0.84787083 -0.53012067 -0.0093368068 0.0019997496
0.14487149 0.084129184 -0.062862672 -0.85682529 -0.51558012 0.0052430015 0.0019361022
-0.13537553 0.096914478 -0.064005174 0.80667597 -0.590994 0.00021609556 0.00050195295
0.13685513 0.094986387 -0.064976409 -0.82120699 -0.57062995 0.00064899947 0.00088292494
0.14053246 0.090193979 -0.066837549 -0.83520621 -0.54992241 0.0039931014 0.0014382983
-0.13203555 0.10126722 -0.068512209 0.79450071 -0.60726321 0.00020022799 0.0002325524
-0.12595928 0.10918601 -0.067014106 0.76664072 -0.64207566 -0.00079883909 0.0011388469
0.12710093 0.10769834 -0.06316483 -0.77128065 -0.63649338 0.001545677 0.00094126718
0.13163158 0.10179386 -0.064257972 -0.79190916 -0.61063534 -0.0021175488 0.00043014518
-0.12260392 0.11355881 -0.065848887 0.72804785 -0.68549651 -0.0063934033 0.0020550916
-0.1183193 0.11883528 -0.067221507 0.70030862 -0.71380389 -0.0071957107 0.0022957656
0.1178145 0.1193385 -0.068399847 -0.69578618 -0.71820956 0.0075194645 0.0022745279
0.12251086 0.11368024 -0.068990812 -0.73606503 -0.67689341 0.0048485086 0.0019472023
-0.11183041 0.12393019 -0.062752873 0.66994691 -0.74239749 -0.0041339155 0.0016910601
-0.1064833 0.12803318 -0.064353637 0.62879092 -0.77757245 0.0017532731 0.00085169758
0.10770334 0.12709707 -0.068472408 -0.63813728 -0.76991868 -0.0024765155 0.00088621519
0.11358091 0.12258705 -0.06646578 -0.68738723 -0.72624815 0.0078944881 0.0022816693
-0.10187668 0.13156797 -0.067389958 0.61996102 -0.78463221 0.0007884989 0.00052519306
-0.09655872 0.13564858 -0.066576667 0.58552819 -0.81065142 0.0010232453 0.00055619067
0.09694998 0.13534841 -0.063855991 -0.59119731 -0.80651158 0.0049893684 0.00038749838
0.10164019 0.13174948 -0.064354554 -0.61159915 -0.79116714 0.0010219577 0.00020169151
-0.08468499 0.14455813 -0.065982804 0.52079231 -0.85367572 0.0036175535 0.0018731217
-0.076644734 0.14836118 -0.064685784 0.44184935 -0.89708203 0.0036050889 0.0016540911
0.076463096 0.1484364 -0.064707458 -0.44185907 -0.89708084 -0.0025557566 0.0018273336
0.082868703 0.14551994 -0.064277053 -0.51115215 -0.85946763 0.0062415479 0.0017991535
-0.070382483 0.15095507 -0.063304648 0.4093402 -0.91238183 -0.00017368322 0.00074569712
-0.067102395 0.15231372 -0.064729288 0.39615169 -0.91818368 0.0016372825 0.00027697679
-0.054359015 0.15759219 -0.06550961 0.33847988 -0.94097233 -0.0015705369 0.0013160758
0.048868962 0.15986624 -0.064335316 -0.30751789 -0.95153254 0.0043134862 0.00212911
0.053853232 0.1578017 -0.065536365 -0.33796072 -0.941113 -0.0094291158 0.0012639333
0.067395762 0.15219221 -0.06598337 -0.39559531 -0.91840303 -0.0063363151 0.00037716152
-0.045788426 0.16105923 -0.06488543 0.28638387 -0.95809066 0.0068217064 0.0021953981
-0.034992222 0.16322753 -0.065955572 0.18299446 -0.98311067 -0.00253896 0.0010446328
-0.02561059 0.16446264 -0.06503284 0.15497479 -0.98791838 -0.00024493141 0.00065534638
-0.013547403 0.16605078 -0.063664317 0.080967508 -0.99671572 -0.0014362661 0.0012822798
-0.0043208166 0.16726547 -0.061880827 0.018305238 -0.99980181 0.0078275641 0.0023396281
0.0060071209 0.16704348 -0.063246593 -0.043647517 -0.999044 0.0024567507 0.0024882455
0.015428904 0.16580307 -0.065357223 -0.10348409 -0.99462873 0.0021855852 0.00084647653
0.021865349 0.16495571 -0.068663634 -0.12847371 -0.99171287 -0.00021616345 0.00040171042
0.033886299 0.16337311 -0.064937808 -0.18151213 -0.98335743 -0.0078357719 0.0011929524
0.043474324 0.16176996 -0.063429967 -0.26308665 -0.9647696 -0.002235211 0.0026815699
-0.044464923 -0.16131486 -0.055219434 0.27587235 0.96114188 -0.010033138 0.0021293752
-0.03511988 -0.16321069 -0.056155633 0.20049074 0.97966558 -0.0076616923 0.0013879645
-0.024649154 -0.1645892 -0.054784369 0.14222322 0.98983383 -0.0012552839 9.3392409e-05
-0.014299539 -0.16595176 -0.056496337 0.086857438 0.99621236 0.0040797391 0.0010161326
-0.0028584183 -0.16745801 -0.054711729 0.016932122 0.99984139 -0.0055200532 0.0020340909
0.0062624183 -0.16700986 -0.056149565 -0.041145358 0.99915284 0.00075452501 0.0015182996
0.012620822 -0.16617277 -0.058962476 -0.079573132 0.99682301 0.0034619425 0.0013102471
0.024391303 -0.16462314 -0.056767721 -0.13480511 0.99087089 -0.0015714905 0.00031224161
0.036617879 -0.16301349 -0.055226445 -0.21356335 0.9768948 -0.0082058711 0.0017974661
0.044446733 -0.16152382 -0.055531777 -0.26910248 0.96302336 -0.013030175 0.0017548813
-0.071718372 -0.15040171 -0.051479679 0.41701874 0.90889746 -0.00089165452 0.00092184526
-0.064655356 -0.1533273 -0.055582132 0.38642171 0.92232078 0.001638364 6.3625128e-05
-0.054341063 -0.15759961 -0.056779888 0.35344005 0.93545514 -0.0019511083 0.00069492048
0.054379396 -0.15758374 -0.05581836 -0.35310164 0.9355799 -0.0030660674 0.00070452993
0.063085899 -0.15397739 -0.053270284 -0.3755697 0.92679316 0.0013346932 0.00035939951
0.072625935 -0.15002578 -0.059712417 -0.43281454 0.90148193 -0.0013744972 0.0012267876
-0.084262103 -0.14494868 -0.054323066 0.51308805 0.85831386 0.006163341 0.002260708
-0.079604372 -0.14713523 -0.050570533 0.47816098 0.878254 0.0056656925 0.0022252162
0.07623072 -0.14853264 -0.053040661 -0.44584852 0.89510065 0.0037359258 0.0015592014
0.080140673 -0.1469131 -0.050058357 -0.48444384 0.87481153 0.004358097 0.0022341956
-0.10350148 -0.1303212 -0.056867495 0.61469525 0.78876036 -0.0026185794 0.00043410549
-0.093118645 -0.13828826 -0.054542232 0.56926221 0.82215434 -0.0016514523 0.0010516214
0.096680105 -0.13555548 -0.054924894 -0.58139753 0.81361943 0.00042481298 0.00076333509
0.10177264 -0.13164784 -0.051907118 -0.61226898 0.79064882 0.0010866432 0.00031646289
-0.11405522 -0.12222304 -0.054990746 0.67766315 0.73536569 -0.0031657279 0.0021643024
-0.10847279 -0.12650658 -0.05103441 0.64546359 0.76379102 -0.0003192263 0.0011406926
0.10677617 -0.12780851 -0.05667999 -0.64105421 0.76749557 8.1678649e-05 0.0010676311
0.11219414 -0.12365117 -0.056522876 -0.66125911 0.7501443 -0.0044592577 0.0018444305
-0.12196944 -0.1143857 -0.055138655 0.73234344 0.68092954 -0.0028500909 0.0023691384
-0.11905182 -0.11818799 -0.054281481 0.71909362 0.69490963 0.0022334501 0.0022118562
0.11888926 -0.11831434 -0.053277612 -0.71224934 0.70188218 0.0078951092 0.0023774945
0.12234674 -0.11389413 -0.051151499 -0.73643225 0.67649972 0.0039491914 0.0020634311
-0.1326825 -0.10042409 -0.051792763 0.79256183 0.60979056 0.0010993549 0.00033371767
-0.12734288 -0.10738286 -0.058036678 0.77665675 0.62992388 0.00052266777 0.00080648216
0.1264457 -0.10855227 -0.053710666 -0.76679927 0.64188606 0.0011055755 0.0013822227
0.13199618 -0.10131871 -0.057047933 -0.78506792 0.61940819 -0.0013741248 0.00041802545
-0.14013684 -0.090709396 -0.056603551 0.83485365 0.5504669 -0.0023432863 0.0017164892
-0.13691325 -0.094910443 -0.055039451 0.8203274 0.5718841 0.0034110297 0.0011748588
0.13572696 -0.096456632 -0.055668719 -0.80933845 0.58734149 -0.00112691 0.00060753914
-0.14399801 -0.085541688 -0.057366777 0.85618412 0.51666862 -0.0014618182 0.001652511
0.14388983 -0.08543136 -0.053901508 -0.85269326 0.52239561 -0.0041107913 0.0018168642
-0.1504256 -0.071660481 -0.054355562 0.90388638 0.4277592 -0.0033973472 0.00099455891
-0.14779976 -0.077999771 -0.055926625 0.88527566 0.46500915 -0.0073199458 0.0014725127
0.14884631 -0.075473502 -0.057104997 -0.8980487 0.43985841 -0.0057605146 0.0013589129
-0.15301226 -0.065415747 -0.056370188 0.91581351 0.40159971 -0.0017925872 0.00050234149
0.15335868 -0.064579777 -0.056354742 -0.92123151 0.38901439 -0.00051066815 0.00012407104
-0.15716042 -0.055401254 -0.054031432 0.93823534 0.34599695 -0.00070094987 0.00087549986
0.15732037 -0.055015482 -0.054727308 -0.93823278 0.34595886 -0.0056381691 0.00068168616
-0.16122915 -0.045578532 -0.056605835 0.95976341 0.28080976 -0.00010522718 0.0020982695
-0.15939979 -0.049994968 -0.059033535 0.95423871 0.2990118 0.0045145005 0.0021920986
0.16166323 -0.043800272 -0.055089194 -0.96683538 0.25533366 0.0058351271 0.0025532644
-0.16308567 -0.03606965 -0.051446296 0.98100078 0.19395682 0.0042717843 0.0011809105
0.16330971 -0.034368657 -0.054368854 -0.98280144 0.18457462 0.0057939501 0.001351246
-0.16447519 -0.025515128 -0.055296995 0.98838085 0.15198018 -0.0023243348 0.00028916003
0.16478084 -0.023194088 -0.054460339 -0.99089891 0.13460337 0.00108999 0.00037474613
-0.16588254 -0.014825268 -0.055442084 0.99531662 0.096668132 -0.00027952818 0.0005479508
0.16571088 -0.016129484 -0.055537175 -0.99375159 0.11160112 -0.0017226695 0.00039494821
-0.16714367 -0.0052459873 -0.055822209 0.9988277 0.048398662 0.00090570567 0.0015950167
0.1672008 -0.0048122173 -0.057114884 -0.99828553 0.058524042 0.00095838355 0.0014302296
-0.16705108 0.0059492923 -0.054581184 0.99903238 -0.043537244 0.0062367758 0.0017090552
0.16706936 0.005810665 -0.055864595 -0.99942899 -0.033676524 -0.002771114 0.0017493551
-0.16641042 0.010815607 -0.058327861 0.99747819 -0.070894264 -0.0033517571 0.0014915501
0.16586816 0.014934829 -0.059118774 -0.99423629 -0.10720893 0.00062464981 0.00048743529
-0.16450249 0.025307829 -0.054933544 0.98883277 -0.14902344 0.0013323389 0.00026405382
0.16443571 0.02581571 -0.056151085 -0.98722512 -0.15927784 0.004146215 0.00057287177
-0.16385111 0.030255513 -0.05384016 0.98399544 -0.17815852 0.0035407343 0.0011744853
0.16322307 0.035026819 -0.055113722 -0.98163134 -0.19072124 0.0050337226 0.0015372171
-0.1620197 0.042633373 -0.056774836 0.96814913 -0.25037214 -0.0010084365 0.0021693825
-0.1599409 0.04868865 -0.059062 0.95481414 -0.29719839 -0.0017673899 0.0021374575
0.16118777 0.045678835 -0.054318279 -0.95839822 -0.28542286 0.0025840534 0.0020847591
-0.15713578 0.055460759 -0.05449168 0.93757862 -0.34763873 0.0096837562 0.0010342562
0.15728319 0.055105243 -0.055148751 -0.93893629 -0.34409097 0.00018522859 0.0009404642
-0.15271936 0.066122875 -0.052957226 0.91940856 -0.39330292 -0.00084578607 0.00027613068
0.15374652 0.063643456 -0.055322003 -0.92229646 -0.3864831 0.00031101285 5.5832581e-05
-0.15067232 0.071064875 -0.053905003 0.9031474 -0.42928484 0.0062682214 0.0011168059
-0.1489684 0.075178482 -0.058831498 0.89821118 -0.43956304 0.0010327644 0.0014733091
0.14881639 0.075545751 -0.05308653 -0.88902295 -0.4578546 -0.0027078055 0.0018034766
0.15001668 0.072648033 -0.059649155 -0.9049902 -0.42543203 -0.00045394051 0.0010148671
-0.14499427 0.083791174 -0.055165771 0.857903 -0.51374161 -0.0084817065 0.0020243768
0.14444493 0.084952854 -0.055367861 -0.8528809 -0.52205575 -0.0072045727 0.002147495
-0.14055602 0.090163097 -0.052926965 0.83511114 -0.55008101 -0.00048543399 0.0015317132
-0.13618885 0.095854521 -0.054760426 0.81980181 -0.57263243 0.0041335993 0.0010360498
0.13666458 0.095234714 -0.052965496 -0.82083631 -0.5711562 -0.0028930902 0.0010819987
-0.13006866 0.10383052 -0.053325098 0.78088742 -0.62467164 -0.00041323729 0.00039216757
-0.12710516 0.10769266 -0.055347741 0.77237099 -0.63516217 -0.0034787224 0.00099065795
0.12716049 0.10762072 -0.055070356 -0.76664042 -0.64207649 -0.00057339505 0.0010828655
0.13235757 0.10084773 -0.059178658 -0.7920509 -0.61045355 0.0013783601 0.00040756597
-0.12229605 0.11396003 -0.057013143 0.72828293 -0.68524849 -0.006203582 0.0022219135
-0.11905319 0.11818621 -0.054996114 0.71859092 -0.69536066 -0.010037419 0.0021404999
0.1182963 0.11887905 -0.055515599 -0.70501852 -0.70918852 0.00068688701 0.0023918552
0.12379073 0.11201228 -0.050195739 -0.74729264 -0.66448522 0.0036351634 0.0016061908
-0.11453344 0.12185606 -0.052369427 0.68111044 -0.73214126 -0.007591628 0.0021761148
-0.10579934 0.12855799 -0.054032456 0.63524908 -0.77230161 -0.0029664373 0.00083027332
0.10872194 0.12631547 -0.059352852 -0.64300913 -0.76585853 -0.00011328991 0.0011930834
0.11466205 0.12175748 -0.052573659 -0.68871909 -0.72502428 -0.002397456 0.0024589363
-0.10110918 0.13215689 -0.05758369 0.61703092 -0.78693759 0.0014590038 0.00027903772
-0.094891079 0.13692823 -0.056869019 0.56605983 -0.82435918 0.0028729727 0.0010536319
0.096654743 0.13557495 -0.05473185 -0.59083503 -0.80678123 0.0042431741 0.00041765074
0.10271083 0.13092795 -0.058385573 -0.61926663 -0.78518075 0.00014600293 0.00042619379
-0.084099464 0.14479674 -0.054034084 0.52121812 -0.85342246 0.0013298912 0.0019923437
-0.076031543 0.14861515 -0.055334367 0.44046685 -0.89773494 -0.0078036492 0.0014374657
0.077299118 0.14809009 -0.057811372 -0.45810345 -0.8888728 -0.0068092882 0.0017325904
0.085706852 0.14383887 -0.053134602 -0.52419555 -0.85159612 0.001757429 0.0017823071
0.090734795 0.14011748 -0.055319585 -0.54661542 -0.837372 0.0044464227 0.0014769903
-0.071820796 0.15035929 -0.058027741 0.41060263 -0.91181433 -0.00025968571 0.0007769225
-0.062994152 0.15401541 -0.055788409 0.38602102 -0.92248863 -0.0015849991 7.0257309e-05
-0.054663993 0.15746586 -0.05315293 0.34794563 -0.93750709 -0.0037489971 0.00091742992
-0.049391374 0.15964986 -0.05950414 0.30397105 -0.95267791 0.002555232 0.0024292027
0.053576756 0.1579162 -0.055438023 -0.33776796 -0.94121778 0.0046705604 0.0013518705
0.067489423 0.15215342 -0.055005938 -0.39602146 -0.91823745 -0.0026546633 0.00039840752
0.07002113 0.15110475 -0.059598301 -0.39992172 -0.91654748 -0.0018106992 0.00035071524
-0.04547634 0.16121241 -0.055194646 0.27021676 -0.96278727 -0.0048523638 0.0029355024
-0.034179322 0.16333453 -0.053672146 0.19537289 -0.98072833 -0.0011544806 0.0011675336
-0.024933595 0.16455175 -0.056002825 0.14334822 -0.98967147 0.0012828943 0.0004374196
-0.015898112 0.16574129 -0.05604744 0.11351606 -0.99353176 -0.0029630694 0.00047365262
-0.0021380393 0.16755284 -0.055343211 0.0099839689 -0.99992239 -0.007446602 0.0025434711
0.0042215465 0.16727854 -0.057968508 -0.023135079 -0.99973154 0.001270124 0.0025683269
0.017298538 0.16555692 -0.053313792 -0.12109779 -0.99263996 -0.0010682751 0.0001848361
0.027133724 0.1642621 -0.055482168 -0.16339865 -0.98655999 -0.00047513502 0.00098840508
0.030778266 0.1637823 -0.057213601 -0.17596938 -0.98439544 0.00061392452 0.0010214915
0.042062085 0.16225389 -0.054921649 -0.24187922 -0.97029209 0.0052647037 0.0027880128
-0.043912981 -0.16158718 -0.046085052 0.25782162 0.96619171 -0.0012970193 0.0022090995
-0.035078607 -0.16321611 -0.046235871 0.19199483 0.9813959 0.00034335305 0.0012545821
-0.024501557 -0.16460864 -0.044593193 0.13939415 0.99023628 0.0011017097 6.6080094e-05
-0.01570867 -0.16576622 -0.042967431 0.11111463 0.99380392 0.0026851334 0.00038770365
-0.0070231482 -0.16690971 -0.047394492 0.048913505 0.99880302 -0.00011532901 0.0019187133
0.0067651272 -0.16694367 -0.046437372 -0.047732916 0.9988572 0.0024063531 0.0018250145
0.014406609 -0.16593765 -0.045638945 -0.10854426 0.99409097 0.0011053999 0.000325406
0.022532877 -0.1648678 -0.043821167 -0.1303069 0.9914732 0.0010062207 0.00049477501
0.033888005 -0.16337287 -0.044737756 -0.17975593 0.98370343 -0.0039349012 0.0011732135
-0.066672862 -0.15249161 -0.044992555 0.40174821 0.91574883 -0.0015430073 0.00060799543
-0.055160485 -0.15726021 -0.04841904 0.35019127 0.93667758 -0.001097276 0.00066193793
0.049353208 -0.15966564 -0.043945961 -0.30450356 0.95250964 -0.0016984302 0.002235644
0.052927911 -0.15818496 -0.043675102 -0.34881508 0.93718958 -0.0019279502 0.00075402786
0.0661688 -0.15270042 -0.042985931 -0.39370254 0.91923743 0.00091013435 0.00030421015
0.070402317 -0.15094684 -0.042810678 -0.42130658 0.90691817 0.00022217318 0.0012363062
-0.084194936 -0.14478922 -0.04524773 0.52469784 0.85128671 0.001771601 0.002055713
-0.078065783 -0.14777254 -0.044132609 0.46164438 0.8870393 0.0067685521 0.0020309673
0.076761231 -0.1483129 -0.043531112 -0.44938633 0.89331263 0.0066704652 0.0017980547
0.082410619 -0.14590165 -0.0450745 -0.49308696 0.86997426 -0.003165473 0.0021919974
0.09014003 -0.14057386 -0.048504479 -0.55029523 0.83496809 0.0018518238 0.0014147694
-0.10263872 -0.13098323 -0.045908391 0.61216521 0.79072934 -0.0009401468 0.00057976012
-0.092662036 -0.13863862 -0.044314168 0.55943751 0.82885605 -0.0052365353 0.0015345467
0.093769096 -0.13778917 -0.04407208 -0.56390274 0.82582152 0.0057097324 0.0010825957
0.10247315 -0.13111033 -0.048187826 -0.61338747 0.78978157 -0.00092989969 0.00034161803
-0.11547834 -0.12113103 -0.04500873 0.68127656 0.73200202 0.0059323711 0.002435304
-0.10812964 -0.12676987 -0.04492322 0.63801992 0.76999426 -0.0062736948 0.0011525715
0.10881473 -0.12624428 -0.045197275 -0.65167916 0.75848472 0.0038865216 0.0013852518
0.11504904 -0.12146052 -0.043334555 -0.6862098 0.72734547 0.0092065921 0.0023099405
-0.12276123 -0.11335377 -0.044726849 0.73351777 0.67966884 0.0013900974 0.0024005906
-0.11852861 -0.11872084 -0.046371408 0.70431232 0.70987248 -0.0050193584 0.0022516092
0.12033757 -0.11651254 -0.047187801 -0.72284847 0.69100165 -0.0026237168 0.0024817875
-0.13149849 -0.10196717 -0.045672961 0.78865951 0.61482626 0.0022033982 0.00017033212
-0.12691462 -0.10794095 -0.046719562 0.76860297 0.63972604 0.00028357052 0.0010513953
0.12738308 -0.10733062 -0.042913482 -0.76909047 0.63913178 0.0032181977 0.001148103
0.13169307 -0.10171372 -0.042296696 -0.79142475 0.61126643 0.00038879341 0.00011440064
-0.13510732 -0.097264014 -0.044871151 0.80576694 0.59222239 -0.0034918087 0.00047575444
0.13659509 -0.095325291 -0.045309622 -0.82438874 0.5660212 -0.0017640882 0.0010413219
-0.14203602 -0.088234328 -0.046549838 0.84919506 0.52800882 -0.0086239027 0.0019171321
0.14384118 -0.085294783 -0.04678246 -0.85106653 0.52505022 -0.0028297114 0.0020050067
-0.14877605 -0.075642809 -0.045542151 0.89697963 0.44206026 0.0031932034 0.0014111348
0.14843471 -0.076467171 -0.042865247 -0.89162356 0.45276162 0.003795618 0.0013958669
0.15106331 -0.070121244 -0.041549418 -0.90544796 0.42445156 0.002190585 0.0010939647
-0.15355849 -0.064097054 -0.046490956 0.91931587 0.39351934 -0.00090271625 0.00021143818
0.15284099 -0.06582959 -0.046084199 -0.91893721 0.39440313 -0.00079614308 0.00033298356
-0.15705292 -0.055660795 -0.045993906 0.93617815 0.35148764 0.0051840818 0.00077049091
0.15729554 -0.055075407 -0.04403292 -0.93651879 0.35061738 0.00023819679 0.00064106984
-0.16191196 -0.042796627 -0.043048371 0.96755469 0.25258979 0.0060191406 0.0022471845
-0.15984452 -0.048921339 -0.041615322 0.95130181 0.30810323 0.0098590869 0.0018801896
0.16125245 -0.045339588 -0.043269437 -0.9576745 0.28773594 0.0082206968 0.0021716054
-0.16319823 -0.035214577 -0.045431416 0.98155111 0.19119993 4.1596333e-05 0.0012295499
0.16298716 -0.036818814 -0.046951916 -0.98119688 0.19300622 0.0011606254 0.0012956831
-0.16451836 -0.025187308 -0.046661485 0.9895792 0.14398032 0.0016168405 0.00037366661
0.16450532 -0.025286967 -0.044675276 -0.99046785 0.13773033 0.0019722225 5.5743207e-05
-0.16601856 -0.013792057 -0.046871077 0.99613172 0.08786542 0.0011335241 0.0011164899
0.16580366 -0.015424885 -0.045681752 -0.99556053 0.094116881 -0.0010771212 0.00079051621
-0.16709533 -0.0056131901 -0.044636916 0.99827123 0.058328528 0.0072373995 0.00135989
0.16680151 -0.0078452425 -0.044646949 -0.9980765 0.06195217 -0.0022644072 0.00146742
-0.16728391 0.004180856 -0.04790426 0.99946874 -0.032589935 -0.0003370679 0.0021889003
0.16693072 0.0068635796 -0.045654692 -0.99839878 -0.056536846 -0.0018364801 0.0016802681
-0.16574945 0.015836304 -0.045139056 0.99497241 -0.099967316 0.0060336888 0.00085936743
0.16599713 0.013955214 -0.044354152 -0.99623311 -0.086702153 -0.0015004644 0.0010633051
-0.16456339 0.024845243 -0.046994768 0.98883665 -0.1489948 -0.0016131583 0.00022177989
0.16471945 0.023660472 -0.043339927 -0.98958284 -0.14393745 0.0027847677 0.00018800329
-0.16320199 0.035186067 -0.046784885 0.97840524 -0.20668535 0.0020940737 0.0017225912
0.16341755 0.033549681 -0.044671763 -0.98175198 -0.18991646 0.0097344499 0.0012312398
-0.16218914 0.042526305 -0.04482929 0.97028381 -0.24196859 -0.0007251174 0.0024255179
0.15950012 0.049753115 -0.041743491 -0.94948184 -0.31368044 0.0094236005 0.0019958916
-0.15669423 0.056526732 -0.045789808 0.93697613 -0.34938526 -0.0024041738 0.00097223336
0.15654993 0.056875467 -0.045777284 -0.9358899 -0.35228696 -0.0020173956 0.00067259348
-0.15391897 0.063226826 -0.045739371 0.92602408 -0.37746197 -0.0013662692 0.000357276
0.15372688 0.063690856 -0.045913786 -0.92169201 -0.38792256 -0.00014769619 8.5346001e-05
-0.15006961 0.072519906 -0.047977537 0.90300983 -0.42961308 -0.0024237779 0.0013357695
-0.14869727 0.075832985 -0.046872783 0.89454728 -0.44696787 0.0022126331 0.0016458804
0.14885202 0.075459719 -0.04423175 -0.89068443 -0.45457107 -0.0068071689 0.0018171921
0.15055659 0.071344569 -0.043020517 -0.90658087 -0.42203146 -0.00068084127 0.0010356434
-0.14341274 0.086380556 -0.044652551 0.851125 -0.52489817 -0.0082517592 0.0021372265
0.14429827 0.084858276 -0.0430802 -0.86025017 -0.50986737 0.0021915131 0.0020908241
-0.13705033 0.094731808 -0.043751631 0.82572943 -0.5640614 0.0024089008 0.0010457491
0.13504297 0.097348034 -0.046823163 -0.80953491 -0.58706993 -0.0014786484 0.00072216988
-0.13190739 0.10143425 -0.045375794 0.78589183 -0.61836261 -0.0012720189 0.00028418424
-0.12844396 0.1059479 -0.046227597 0.77995116 -0.62583953 0.00098772882 0.00045782703
0.12718157 0.10759323 -0.040266838 -0.76647627 -0.64227259 3.5715675e-05 0.0012027187
0.13291402 0.10012254 -0.048913755 -0.79793048 -0.60274833 -0.0011784612 0.00081642438
-0.123269 0.11269205 -0.044588063 0.74383402 -0.66836423 -0.00048443134 0.0019772686
0.11806227 0.1191484 -0.043347612 -0.69840014 -0.71570158 -0.0029213065 0.0023318466
0.12177575 0.11463826 -0.045608934 -0.73290378 -0.68033189 0.00080305542 0.0020852636
-0.11377192 0.12244041 -0.042952117 0.68342751 -0.73000574 0.0042917202 0.002271224
-0.10592691 0.12846009 -0.04635914 0.62548065 -0.78023279 0.0032678363 0.00054677716
0.10712555 0.12754042 -0.045734018 -0.63852185 -0.76960373 0.00017653003 0.0012846122
0.11349478 0.12265314 -0.048422702 -0.66965908 -0.74266577 -0.0020801204 0.0019368452
-0.10191454 0.13153891 -0.046765395 0.62249714 -0.78262192 -0.00045053693 0.00045188519
-0.094676316 0.13709301 -0.043414604 0.58138883 -0.81362063 0.0029048345 0.00056791637
0.098277785 0.13432954 -0.043462753 -0.58844769 -0.8085348 0.00090469496 0.00050061342
0.1011375 0.13213521 -0.041687734 -0.60532492 -0.79597789 0.00099023816 0.00034590767
-0.085839972 0.14368467 -0.044809967 0.52096498 -0.85355234 0.0066315094 0.0019767466
-0.076495804 0.14842285 -0.04527187 0.43704325 -0.8994199 -0.0060823616 0.0013377211
0.07719586 0.14813288 -0.043538705 -0.46304408 -0.88631624 0.0058062645 0.0021671224
0.08667817 0.14309144 -0.047368694 -0.52497643 -0.85111672 0.00025567616 0.0020056546
-0.064624399 0.15334013 -0.042320248 0.38974747 -0.92092115 -0.0010596868 0.00012232411
-0.05357853 0.15791547 -0.044135749 0.33321109 -0.9428522 0.00035489828 0.0013888201
-0.049292978 0.1596906 -0.048713759 0.3048012 -0.95240974 0.0034387992 0.0025356868
0.054303605 0.15761514 -0.045193691 -0.33181787 -0.94334233 0.0014634086 0.0012691013
0.065108448 0.15313965 -0.046178229 -0.38143289 -0.92439598 -0.0010025151 0.00027549051
0.071425438 0.15052307 -0.047978781 -0.40985656 -0.91214961 -0.00080101681 0.00044870234
-0.043539837 0.16168892 -0.046295065 0.2426534 -0.97009021 -0.0066508767 0.0024598169
-0.036193661 0.16306934 -0.0446437 0.19751154 -0.98030049 0.00045592414 0.0012722216
-0.02557954 0.16446672 -0.044772208 0.15980604 -0.9871366 0.0048304768 0.00061640964
-0.016262325 0.16569336 -0.045917906 0.11062287 -0.99386239 -0.00034592731 0.00039751601
-0.0034743284 0.16737692 -0.047043279 0.025715813 -0.99966866 -0.0011356304 0.0022992212
0.0074433987 0.1668544 -0.046486873 -0.051877197 -0.99865282 0.001114 0.0017174208
0.014153603 0.16597097 -0.049351715 -0.11936957 -0.99284983 -0.00044938657 0.00016549777
0.024536638 0.16460402 -0.045893975 -0.1320837 -0.99123764 -0.0013755673 0.00014831519
0.03747287 0.16290094 -0.045315791 -0.21536428 -0.97652835 -0.0032799365 0.0018191376
0.043252077 0.16187176 -0.046391644 -0.25259858 -0.96752983 -0.0089434208 0.0023709279
-0.045861926 -0.16111177 -0.037641287 0.28955206 0.95716125 -0.001363546 0.0019566312
-0.0350243 -0.16322328 -0.033674136 0.19371705 0.98105448 0.0024078388 0.001182752
-0.024474533 -0.16461219 -0.034186009 0.14437065 0.98952293 -0.0012011915 0.00050348078
-0.015966052 -0.16573235 -0.035908628 0.11283767 0.99361342 0.00020075598 0.00029107384
-0.0020562229 -0.16756362 -0.035638608 0.011552438 0.99992728 -0.0034593167 0.0021224932
0.0043637785 -0.16725981 -0.032765716 -0.02050519 0.99977535 -0.005365625 0.002095738
0.014230813 -0.16596079 -0.034386318 -0.1031991 0.99465454 -0.0035105438 0.00043156592
0.02188067 -0.16495368 -0.03455545 -0.13450009 0.9909122 0.0016946647 0.00037208499
0.034437004 -0.16330059 -0.033786774 -0.19410354 0.98097897 -0.0020394402 0.0011570056
0.045160096 -0.16138539 -0.034366794 -0.28771865 0.95771086 0.0028165111 0.0021512604
-0.071392551 -0.15053666 -0.037470479 0.41291463 0.91076857 -0.0014443368 0.00072189019
-0.064150833 -0.15353628 -0.033765953 0.39247659 0.91976184 0.00047464971 0.00035476193
-0.055100806 -0.15728493 -0.035359625 0.34958935 0.93687981 0.0065967548 0.00069434819
0.056079388 -0.15687957 -0.03719731 -0.35350418 0.93542081 0.0047475155 0.00071516779
0.064355947 -0.15345131 -0.036791895 -0.38556284 0.92268091 -0.0011118879 7.0907234e-05
0.071340397 -0.15055826 -0.035972763 -0.42877311 0.90340495 -0.0036020644 0.0012247498
-0.090688765 -0.14015278 -0.032105792 0.5428077 0.83983392 0.006218764 0.001952765
-0.085506335 -0.14387053 -0.035808668 0.53044903 0.84770644 -0.0041828062 0.002137281
-0.074480295 -0.14925767 -0.035158362 0.4463152 0.89487565 0.00056546793 0.0016914818
0.076913483 -0.14824983 -0.036208939 -0.44318253 0.89641589 -0.0052751149 0.0013692155
0.083538055 -0.14528787 -0.033573899 -0.51636177 0.85633576 0.0077170897 0.0019393087
-0.10334137 -0.13044406 -0.039946392 0.62062871 0.78409719 0.0034233376 0.00039779322
-0.097071476 -0.13525514 -0.034743942 0.58997613 0.80741948 -0.0014001526 0.00048827269
0.095192261 -0.13669714 -0.035561271 -0.56807703 0.82297289 0.0019980404 0.0011258433
0.10204739 -0.13143703 -0.031238832 -0.61643708 0.78740329 0.0012026614 0.00031904332
-0.11244728 -0.12345684 -0.033438686 0.66195834 0.74952954 0.0040817978 0.0020029931
-0.10539398 -0.12886904 -0.032773037 0.62826473 0.7779994 0.00057768065 0.00085550314
0.10711838 -0.12754592 -0.034564696 -0.63852406 0.76958889 0.0044624438 0.0012778251
0.11244112 -0.12346166 -0.033944905 -0.6708256 0.7416144 0.0010356641 0.0020093233
-0.12324924 -0.1127178 -0.034875762 0.73331922 0.6798681 -0.0047251158 0.0024180217
-0.11899552 -0.11813846 -0.033870701 0.70291448 0.7112453 0.0064433319 0.0026079656
0.11739308 -0.11966189 -0.033104327 -0.69929701 0.71483094 0.00073278509 0.0024022674
0.12237633 -0.11385558 -0.037096635 -0.73384553 0.67931217 -0.0023695806 0.0022314661
-0.13113633 -0.10243912 -0.036669582 0.78425539 0.62043726 -0.0010599206 0.00037721696
-0.12672989 -0.10818172 -0.03500174 0.76168019 0.64795238 0.00098931673 0.0016246735
0.12796979 -0.106566 -0.036684308 -0.76866716 0.63964885 0.00022254437 0.0011966632
0.13158055 -0.10186035 -0.035291966 -0.78573191 0.61856699 -0.00046451003 0.00033143823
-0.1404077 -0.090356395 -0.034381289 0.83884442 0.54436588 -0.002411687 0.001871623
-0.13740388 -0.094271086 -0.035021249 0.81705058 0.57655823 -0.0030019337 0.00077260367
0.13726363 -0.094454013 -0.034783222 -0.82575637 0.5640251 0.0014417634 0.0010657058
-0.14258754 -0.087515563 -0.032528199 0.84869885 0.52885377 0.0048938175 0.0018027988
0.1411112 -0.089439765 -0.036998004 -0.84254819 0.53861713 -0.0020496757 0.0014540026
-0.15021415 -0.072170965 -0.034466024 0.90583944 0.42360228 -0.003986049 0.00099361129
-0.14793603 -0.07767082 -0.034173548 0.89085042 0.45429662 -0.00020418109 0.0013894032
0.14862354 -0.076011315 -0.036254056 -0.89646453 0.44311556 0.00023313479 0.0013000082
0.15007794 -0.072500147 -0.039245568 -0.90043944 0.43497986 0.0011772105 0.001296546
-0.15255782 -0.06651286 -0.033878855 0.91682041 0.3992967 -0.0015697289 0.00036807024
0.15276279 -0.066018388 -0.035171196 -0.91909969 0.394021 0.001793293 0.00031228922
-0.15807804 -0.05318594 -0.034089025 0.94133967 0.33745879 0.0010539299 0.0012607573
-0.16125554 -0.045477249 -0.032469422 0.95799071 0.28677514 -0.0037251001 0.0020945438
0.1624385 -0.040986273 -0.033713046 -0.97086459 0.23952076 0.007187692 0.0024870993
-0.16337967 -0.033836454 -0.034457687 0.98130983 0.19242649 0.0017775297 0.0012565557
0.16318566 -0.035310995 -0.033193931 -0.98135597 0.19218017 0.0026847168 0.0013240246
-0.16442102 -0.02592651 -0.030966835 0.98747545 0.15776901 0.0010914125 0.00050833105
0.1644417 -0.025770202 -0.033453681 -0.98861372 0.1504284 -0.0037630994 0.00029669204
-0.16595383 -0.014283679 -0.033736002 0.9959296 0.090134211 0.00019673081 0.00086739968
0.16588797 -0.014784494 -0.035342414 -0.99406832 0.10868269 0.0040425328 0.00027584884
-0.1672013 -0.0048082629 -0.035604514 0.99923998 0.038021624 -0.0085897539 0.0019430432
0.16722864 -0.0046008429 -0.033249784 -0.99891722 0.046193462 0.0055378983 0.0015314996
-0.16731322 0.0039581051 -0.034124013 0.99961078 -0.027065203 -0.0067602284 0.0018046902
0.16729262 0.0041147294 -0.034655433 -0.99929905 -0.037316464 0.0029956584 0.0015980444
-0.16589369 0.014740472 -0.034412947 0.99565589 -0.093108878 -2.8414594e-05 0.00083367125
0.16578172 0.015591427 -0.032572851 -0.9939748 -0.10960731 0.00055777689 0.00042273005
-0.1647045 0.023773326 -0.035720885 0.98946089 -0.14476548 -0.0031762873 0.00045643642
0.16444929 0.025712604 -0.035778068 -0.98831677 -0.15241285 -0.00051299424 0.00042822189
0.16307814 0.036127608 -0.0373092 -0.97769004 -0.21004601 -0.0016804143 0.0015665091
-0.16115949 0.045550037 -0.035207763 0.95895088 -0.28351498 -0.0057043727 0.0020912336
-0.15981062 0.049003169 -0.033158652 0.95580477 -0.29397845 0.0037328238 0.0019849171
0.16167772 0.044464827 -0.034888126 -0.96204877 -0.27287737 0.00027527113 0.0025520641
-0.15896398 0.051047161 -0.031431578 0.94787878 -0.31854591 -0.0073775747 0.0018394359
0.15710859 0.055526759 -0.035217784 -0.93739647 -0.34822568 0.0051618177 0.00077085121
-0.15334436 0.064614005 -0.034904961 0.91933477 -0.39347506 -0.00094762299 0.00025151842
0.15336238 0.064570852 -0.035225797 -0.91677582 -0.39940062 -0.0010691977 0.00029691917
-0.15072501 0.070937641 -0.034405023 0.90418392 -0.42714331 -0.00031827422 0.0013370321
-0.14818624 0.077066757 -0.034316704 0.88717049 -0.46143535 -0.0024483798 0.0017715766
0.14865877 0.075926252 -0.032476123 -0.89966303 -0.43658486 0.0002275867 0.0013981047
0.15049908 0.071483433 -0.036492273 -0.90765083 -0.41957068 -0.011424226 0.00093572005
-0.14473495 0.084154852 -0.033409528 0.85692769 -0.51543611 -0.00072831503 0.0019616212
0.14369614 0.085958943 -0.036502041 -0.84995544 -0.52677053 -0.0094142556 0.0019944627
-0.1363029 0.095705897 -0.035607707 0.82140899 -0.57031322 0.0054839109 0.0010244506
0.13714841 0.094604172 -0.035217799 -0.82556051 -0.5642997 -0.0039631226 0.0011404329
0.14040647 0.090358175 -0.03803644 -0.83531171 -0.54973692 -0.0066129835 0.0013882586
-0.13195932 0.10136656 -0.036258481 0.79127491 -0.61146057 5.6109668e-05 0.00045649815
-0.12801495 0.10650699 -0.034676302 0.77630103 -0.6303618 0.00087340758 0.00077575317
0.12625146 0.10880537 -0.031738438 -0.76543957 -0.64350706 -0.00098061271 0.0010784919
0.13156611 0.10187917 -0.035470188 -0.78926897 -0.61404765 -4.0823481e-05 0.0001467118
-0.12254808 0.11363157 -0.034468509 0.73884171 -0.67383248 0.0079181595 0.0021717176
0.11771123 0.11941774 -0.037407856 -0.70109534 -0.71305603 -0.0040396247 0.0022269862
0.12339201 0.11253192 -0.035334367 -0.74650919 -0.66535974 -0.0045058117 0.0019138438
-0.11475031 0.12168965 -0.036564674 0.69139683 -0.72247434 0.001136908 0.0020728454
-0.10618803 0.12825975 -0.033009633 0.62450367 -0.78102088 0.0012014309 0.00047920339
0.10725975 0.12743744 -0.034161337 -0.64230603 -0.76644748 -0.0011160406 0.0011912035
0.11392313 0.12232446 -0.034335651 -0.67644364 -0.73642969 -0.0097577712 0.0021683332
-0.094545089 0.13719371 -0.035784274 0.57376081 -0.81901908 0.0025136264 0.00090137718
0.096901648 0.1353855 -0.036785286 -0.58173084 -0.81337577 -0.0030208598 0.00074621075
0.10097972 0.13225627 -0.032866791 -0.61092782 -0.79166025 -0.0064324099 0.00051256269
-0.090668231 0.14016853 -0.03163258 0.54208004 -0.84031826 0.0037952457 0.0015337162
-0.087237462 0.14280108 -0.031839825 0.52288407 -0.8524034 0.0007859593 0.0019315182
-0.076069273 0.14859952 -0.036359277 0.43876001 -0.89859951 -0.0029141891 0.0011961745
0.075158648 0.14897673 -0.035491262 -0.4499557 -0.89305025 -0.0010697183 0.0017490212
0.086470895 0.14338928 -0.03498964 -0.52555841 -0.85075182 -0.0031107229 0.0020539335
0.090353653 0.14040995 -0.035977788 -0.54895985 -0.83575404 -0.012581952 0.0015688061
-0.065579087 0.15294468 -0.034263533 0.39693305 -0.91784739 0.00038989473 0.00034507536
-0.055311263 0.15719774 -0.034840249 0.34840995 -0.93734068 0.0017342808 0.00088466582
-0.049266122 0.15970173 -0.038105626 0.29954395 -0.95394284 -0.016321605 0.0020307458
0.055756055 0.15701352 -0.035673223 -0.35294035 -0.93559963 -0.0092969388 0.00054542493
0.066513442 0.15255767 -0.033961046 -0.39502257 -0.91866595 0.0031543185 0.00032927122
0.071527414 0.15048082 -0.034772959 -0.42467281 -0.90534341 0.0025002665 0.0014519527
-0.042772874 0.16220318 -0.037844572 0.25196156 -0.96771806 -0.0060939398 0.002448
-0.033596866 0.16341121 -0.035199266 0.19776943 -0.98024648 0.0020343736 0.0011669042
-0.023610288 0.16472597 -0.036550932 0.13692032 -0.99058026 0.0019003818 0.00048980553
-0.016417122 0.16567297 -0.033540431 0.099591196 -0.99502784 -0.0011305191 0.00070422544
-0.0032559081 0.16740568 -0.033519089 0.0092698345 -0.99995643 -0.001062587 0.0023779371
0.0040293885 0.16730386 -0.038849816 -0.025638349 -0.99966919 0.0020325414 0.002249863
0.013883142 0.16600658 -0.032852441 -0.098683126 -0.99511272 -0.0035138794 0.00081810745
0.024761198 0.16457444 -0.033334225 -0.13272522 -0.99114907 -0.0027642311 0.00018278777
0.033787176 0.16338617 -0.031533614 -0.19493786 -0.98081559 4.1115663e-06 0.0013566065
0.045215782 0.16121842 -0.03474433 -0.28180379 -0.95936054 -0.014629338 0.0019809757
-0.042026225 -0.16213349 -0.023276821 0.23980626 0.97079897 0.0064972821 0.0021871324
-0.035312466 -0.16318533 -0.025134301 0.19140595 0.98151028 -0.0011481461 0.0011672636
-0.024769202 -0.16457339 -0.023332661 0.14663298 0.989187 0.0027975342 0.00048373023
-0.015965721 -0.16573238 -0.024255056 0.1146 0.99341166 0.00018510759 0.00024597772
-0.0047351778 -0.16721094 -0.025257826 0.02078703 0.99977952 0.0029792539 0.0021115043
0.0038889733 -0.16732232 -0.02431279 -0.021724995 0.99974322 0.0064444658 0.0020733143
0.015386674 -0.16580863 -0.024032339 -0.11401877 0.99347711 -0.0017449276 0.00029992554
0.023497332 -0.16474083 -0.027211573 -0.13625307 0.9906714 -0.0022972142 0.00036701301
0.034650672 -0.16327246 -0.024560329 -0.19910184 0.97994268 0.0084068226 0.0011250525
0.044818725 -0.16151176 -0.024621325 -0.26214698 0.96501642 0.0047256877 0.0027235816
-0.071546711 -0.15047282 -0.026826873 0.42378551 0.90576243 0.000405425 0.0011750786
-0.064704895 -0.15330678 -0.025568575 0.39915243 0.91688418 -0.00086112105 0.00053368823
-0.052518077 -0.15835471 -0.028402504 0.31854865 0.94790548 -0.0013340332 0.0018967513
0.055387877 -0.15716602 -0.023521891 -0.34648445 0.93804818 0.0037425961 0.00089195912
0.067993164 -0.15194474 -0.023125518 -0.39702427 0.91779739 -0.0044238563 0.00028035819
0.071787596 -0.15037304 -0.023891028 -0.42206824 0.90654123 -0.0064363698 0.0011034061
-0.090240993 -0.14049636 -0.022261754 0.5495674 0.83544642 0.0022049521 0.0015400527
-0.083010994 -0.14538531 -0.02273104 0.51039618 0.8599233 -0.0052619525 0.0022573082
-0.077183306 -0.14813808 -0.023365255 0.45441473 0.89078963 0.0010385453 0.0017319362
0.077460729 -0.14802314 -0.024878005 -0.45185181 0.89203507 -0.010165324 0.0017368828
0.084986649 -0.14419486 -0.024702046 -0.52014709 0.85399467 -0.011838891 0.002164915
0.090424903 -0.14035524 -0.022529861 -0.55216092 0.83373111 0.003278557 0.0013697146
-0.10215529 -0.13135418 -0.025500905 0.61682689 0.78709853 0.00070753769 0.00040011507
-0.097189486 -0.13516459 -0.024612755 0.58237451 0.81291926 0.0014589338 0.00083195604
0.094638266 -0.13712224 -0.024061734 -0.56988239 0.82172173 0.0027250717 0.00090548652
0.10333712 -0.13044739 -0.024858896 -0.61989051 0.78468645 0.0017216511 0.00037305962
-0.113389 -0.12273423 -0.027137509 0.67293245 0.73967177 -0.0069093667 0.0022313769
-0.10780674 -0.12701766 -0.025991727 0.6412465 0.7673226 0.0043502739 0.0011019432
