# .PCD v0.7 - Point Cloud Data file format
VERSION 0.7
FIELDS x y z normal_x normal_y normal_z curvature
SIZE 4 4 4 4 4 4 4
TYPE F F F F F F F
COUNT 1 1 1 1 1 1 1
WIDTH 585
HEIGHT 1
VIEWPOINT 0 0 0 1 0 0 0
POINTS 585
DATA ascii
0.08495459 0.09529306 0.095346831 -0.6359452 -0.72942764 0.25200996 0.0017313199
-0.074648663 0.103654 0.09433344 0.57171047 -0.77602506 0.2663312 0.0022613213
-0.064409539 0.10865324 0.091601804 0.49574369 -0.83199143 0.24905509 0.0023345009
0.067325473 0.10845574 0.096032657 -0.51163036 -0.82187599 0.25050795 0.0014251142
0.075368173 0.10307349 0.094048597 -0.57238972 -0.77776682 0.259709 0.001787737
-0.060615469 0.11204886 0.09527424 0.43638799 -0.86029828 0.26353815 0.0015003047
-0.054623686 0.11540963 0.094989739 0.41204962 -0.87226272 0.26338756 0.0014506874
-0.044895113 0.1195433 0.094187967 0.35473162 -0.89857262 0.25832659 0.0018679518
0.045876473 0.11898459 0.093732528 -0.36268154 -0.8990947 0.2451344 0.0026157659
0.05540058 0.11480599 0.094216809 -0.42717952 -0.86794639 0.25335091 0.0021296146
0.063020796 0.11093387 0.095913939 -0.49870279 -0.8287921 0.25377008 0.0013469142
-0.044423074 0.12153232 0.099695921 0.34280413 -0.90284705 0.25952354 0.0017839541
-0.035198491 0.12257618 0.095619604 0.27691957 -0.9256351 0.25790548 0.0020228119
-0.026168536 0.12493269 0.095611043 0.19111952 -0.94828874 0.25342003 0.0014063348
-0.01305748 0.12701374 0.093727246 0.10436274 -0.96203685 0.2521776 0.0026177482
-0.0064409426 0.12782043 0.09653493 0.070372373 -0.96400106 0.25641713 0.0020320672
0.0009733527 0.12723732 0.094707608 -0.0062782997 -0.9673956 0.25319213 0.002301191
0.011279645 0.12651032 0.092730008 -0.088189811 -0.96472472 0.24804983 0.0022075204
0.026136206 0.12581697 0.097963773 -0.190643 -0.94793457 0.25509876 0.0014187767
0.033346083 0.12279972 0.094699211 -0.25357184 -0.93100584 0.26254416 0.0011360979
0.043801781 0.12047853 0.096542858 -0.3474499 -0.89946795 0.26502073 0.0020643431
-0.017736172 -0.13039027 0.10506419 0.13351944 0.95799243 0.25381726 0.002519151
-0.0034023712 -0.13047127 0.10508845 0.028179375 0.96480209 0.26146266 0.0016247934
0.015096652 -0.13067232 0.10563993 -0.1191624 0.96092498 0.24984714 0.0021325699
-0.044395115 -0.1230367 0.10508956 0.32693526 0.91022986 0.25415543 0.0014588838
-0.034198128 -0.12550056 0.10378935 0.26679087 0.92983884 0.25342146 0.0008320866
-0.026505288 -0.12838121 0.10648359 0.21038572 0.94466281 0.25169432 0.0014820613
-0.012309357 -0.12993854 0.10336514 0.079026066 0.96377718 0.25473213 0.0018344674
-0.0088772755 -0.12923551 0.10115287 0.065233104 0.96503842 0.25386095 0.0018578692
0.0066586905 -0.12927428 0.1009663 -0.06418021 0.96355158 0.25971001 0.0015321246
0.025163844 -0.12709887 0.10128593 -0.18470775 0.94932508 0.2542932 0.001443364
0.034020092 -0.12598853 0.10517237 -0.24348782 0.93585092 0.25474831 0.0012734761
0.043658089 -0.12328643 0.10458186 -0.32604337 0.91159147 0.25039315 0.0019887174
0.050496724 -0.12182443 0.1066837 -0.36258042 0.89803225 0.24914558 0.0019151944
-0.063542686 -0.11334157 0.10333183 0.4875792 0.83555663 0.2532028 0.0011440879
-0.056219853 -0.11787233 0.1036907 0.41183773 0.87658328 0.24898064 0.0018464269
0.056477137 -0.11763392 0.10402026 -0.41608849 0.87460923 0.24885547 0.0015200935
0.066669539 -0.1122334 0.10542522 -0.49380946 0.8315087 0.25445157 0.0012064405
0.070162043 -0.1106717 0.10681349 -0.52246636 0.81545198 0.24913266 0.001718741
-0.081968039 -0.10195757 0.10320158 0.61533761 0.74834853 0.24765719 0.0021462513
-0.075660355 -0.10730832 0.10664376 0.55949777 0.79297739 0.2411412 0.0017827668
0.077672288 -0.10456949 0.10149173 -0.58212912 0.77202231 0.25516129 0.0022359539
-0.091838583 -0.092523746 0.10468003 0.69044453 0.67899835 0.24949464 0.0011391543
0.085598402 -0.097418889 0.1016834 -0.63407552 0.7300393 0.25493297 0.0016774216
0.092117146 -0.09369652 0.10910806 -0.66993356 0.70132089 0.24359405 0.00070681091
-0.10005933 -0.085602447 0.10888704 0.7358821 0.63019478 0.24765325 0.0014222011
-0.09752845 -0.08661861 0.10448918 0.72841668 0.63853842 0.24834996 0.0020136132
0.096838035 -0.087820061 0.10548302 -0.72254539 0.64453721 0.25000006 0.0017582797
0.10363456 -0.081779152 0.10759228 -0.75751561 0.60541767 0.24421211 0.0019408684
-0.10402924 -0.079239778 0.10276753 0.77000958 0.58796716 0.2477494 0.0023135191
0.10550394 -0.075933248 0.10153961 -0.78371447 0.56569391 0.25648019 0.0019479031
-0.11410892 -0.063023053 0.1048037 0.8449977 0.46999472 0.25511521 0.0014505769
-0.10904756 -0.069510922 0.10073888 0.81569678 0.52007252 0.25330475 0.001495978
0.10952243 -0.069413282 0.10206098 -0.81799626 0.51551002 0.25520867 0.001127832
0.11308727 -0.064652517 0.10481944 -0.8317731 0.49397489 0.25326332 0.0013834711
-0.11756507 -0.055063251 0.10153342 0.87284976 0.41807202 0.2516925 0.0014699098
0.11845972 -0.05596666 0.10524258 -0.87692708 0.40981734 0.25109479 0.0019655218
0.12187184 -0.051051505 0.10776514 -0.88973165 0.38093364 0.25152975 0.0019065678
-0.12323193 -0.045354411 0.10592702 0.91222727 0.32733268 0.24636294 0.0017779502
0.12285739 -0.044953737 0.10507759 -0.90998363 0.3283644 0.25319284 0.0020398668
-0.12580064 -0.034295458 0.10489126 0.92911148 0.26371914 0.25923759 0.00069721264
0.12595214 -0.034391712 0.1054582 -0.93536156 0.24912916 0.25106448 0.0010983564
-0.12859733 -0.021838255 0.1034743 0.95783395 0.15155572 0.24410044 0.0019667482
0.1275816 -0.027997117 0.10478225 -0.94559377 0.21130088 0.24739537 0.0016439363
-0.13118777 -0.015655527 0.10845462 0.95932764 0.13252218 0.24925552 0.0021950814
-0.12982568 -0.019594952 0.1053521 0.95501113 0.14659259 0.25780684 0.0021594451
0.13069837 -0.016765706 0.10742922 -0.95837808 0.13957579 0.24905837 0.0019987205
-0.13073239 -0.0037371311 0.10598813 0.96854824 0.020131405 0.24801017 0.0012948061
0.12942347 -0.0090431273 0.10172958 -0.96372843 0.082022727 0.25396803 0.0017745822
0.13081181 -0.0050577442 0.10660402 -0.96621341 0.062112074 0.25014725 0.00139899
-0.13070083 0.004593845 0.10608786 0.96744752 -0.036259655 0.25046074 0.0012472072
-0.1298925 0.0037028883 0.10305579 0.96748662 -0.028115399 0.25135469 0.0015941961
0.12943335 0.0072099869 0.10144079 -0.96535105 -0.066473588 0.25234595 0.0022068045
0.13137661 0.0054683387 0.10885526 -0.96960872 -0.04850205 0.2398051 0.001469917
-0.13054766 0.015058721 0.10580119 0.96131098 -0.10575161 0.2543577 0.0016618739
0.13068315 0.015909869 0.10631768 -0.95854753 -0.12897058 0.25407338 0.0018844609
-0.13025242 0.021354169 0.10847232 0.95731288 -0.15025383 0.24693272 0.0019058642
-0.12793602 0.025480213 0.10385945 0.9518019 -0.1789763 0.24907963 0.0017701705
0.12738173 0.02568412 0.10252184 -0.94809639 -0.18581241 0.2580446 0.0014852802
-0.12642065 0.032925069 0.10585223 0.93689793 -0.24104394 0.25321934 0.0015582185
0.12535675 0.035540875 0.10448024 -0.92875266 -0.26557595 0.25862712 0.0016812906
-0.12237122 0.046371926 0.10451267 0.90171653 -0.34100702 0.26574716 0.001316971
0.12328766 0.043702103 0.10458213 -0.91288561 -0.32254675 0.25020689 0.0016972964
-0.11832657 0.055740107 0.10432412 0.88301575 -0.39740357 0.24970697 0.0016362325
0.1188437 0.056042012 0.10743246 -0.87302738 -0.41901976 0.24949065 0.0013505585
0.12029897 0.051360156 0.10319763 -0.89306152 -0.37501708 0.24860287 0.0018619016
-0.11182444 0.067184381 0.10511301 0.83016926 -0.49542651 0.25567877 0.0012205013
0.11486861 0.062948033 0.10722762 -0.84933138 -0.4655962 0.24870956 0.0010694978
-0.10647041 0.076165624 0.10511255 0.78422552 -0.5643307 0.25791705 0.0018214306
0.10848227 0.073400736 0.10546111 -0.79966104 -0.5461657 0.2494899 0.0016514267
-0.10162666 0.082873374 0.10506167 0.74284136 -0.6193257 0.25420913 0.0016696969
-0.097420543 0.085420817 0.10097338 0.72150886 -0.64249676 0.25811407 0.0019592589
0.098172128 0.085186183 0.10243534 -0.73633832 -0.62717146 0.25389329 0.0016558439
0.10472491 0.080693558 0.1083051 -0.76842892 -0.59337777 0.23962429 0.0020341333
-0.086892091 0.097848773 0.10586577 0.64651275 -0.72206044 0.24627209 0.0015684961
0.087880567 0.095481731 0.10215826 -0.64390957 -0.72286928 0.25067988 0.0017569967
0.0905644 0.093792468 0.10524118 -0.66416043 -0.70392591 0.25175247 0.0014238617
-0.08079315 0.10428178 0.10719379 0.59315968 -0.76372778 0.25471851 0.002007134
-0.076322243 0.10636381 0.10454302 0.56757927 -0.78264731 0.25557148 0.0021208359
0.068546407 0.10927819 0.10008091 -0.51150978 -0.82125318 0.25278634 0.0014471594
0.071229242 0.10825172 0.10151701 -0.5281108 -0.81289172 0.24557291 0.0014849608
0.082395159 0.10286088 0.10707948 -0.59911555 -0.76073867 0.24967423 0.0016478737
-0.065713942 0.11287249 0.10568536 0.49094763 -0.83555287 0.24662092 0.00098470366
-0.055145513 0.11789117 0.1025224 0.41580248 -0.87265915 0.25607458 0.0012944428
0.054847915 0.11831707 0.10275719 -0.40212891 -0.8786425 0.25744849 0.0020822056
0.066399835 0.11252179 0.10623313 -0.50248814 -0.82619941 0.25475514 0.0014164419
-0.043120079 0.12383722 0.10621358 0.32517621 -0.91102308 0.25356922 0.0017041477
-0.035357371 0.12596413 0.10675959 0.26511952 -0.93065184 0.25218788 0.00074087369
-0.025557904 0.12788542 0.10435762 0.17550685 -0.94686025 0.26954237 0.0014284409
-0.014369357 0.12939923 0.10162154 0.11199118 -0.95952135 0.25841194 0.0022807876
0.0087514743 0.12976596 0.10276873 -0.073559128 -0.96277732 0.26009402 0.0016291132
0.017676625 0.12992072 0.10341611 -0.14168899 -0.95884824 0.24603727 0.0017659438
0.028798226 0.12662858 0.10250395 -0.20128404 -0.94620121 0.25335366 0.0015509198
0.036135279 0.12609312 0.10805023 -0.25351033 -0.93411821 0.25130805 0.00096832949
0.045669042 0.12259652 0.1048227 -0.35069275 -0.90218627 0.25114644 0.0022368263
0.051602997 0.12203456 0.10903662 -0.38009027 -0.89088899 0.24869311 0.0022279467
-0.013021454 0.13057406 0.10500059 0.10288619 -0.9614017 0.25518823 0.0021941515
-0.0052049644 0.13082968 0.10644038 0.047744658 -0.96628594 0.25300565 0.0011568015
0.0038999359 0.13031945 0.10455199 -0.025907321 -0.96772122 0.25068799 0.0015371025
-0.023691799 -0.13115859 0.11523549 0.18390012 0.95776588 0.22105519 0.001611833
-0.017347837 -0.13212143 0.11295089 0.12667993 0.96393716 0.23404559 0.002416247
-0.0049928566 -0.13255928 0.11451622 0.058993313 0.97066718 0.23307723 0.0015589311
0.0069213766 -0.13367611 0.11922717 -0.056458674 0.97333139 0.22234742 0.0014626845
0.014356656 -0.1325172 0.11376207 -0.10566571 0.9648326 0.24069233 0.0019476294
0.025303112 -0.13109732 0.1174548 -0.19385839 0.95352674 0.23066373 0.0010271068
-0.054103989 -0.12234742 0.11634473 0.38472548 0.89164001 0.23867218 0.001837811
-0.045177132 -0.12528855 0.11538962 0.32708955 0.91425604 0.23905739 0.0013640587
-0.034039158 -0.12843978 0.11578228 0.24820116 0.93946272 0.23623282 0.0012716256
-0.026045462 -0.12952051 0.11090694 0.20260789 0.94912785 0.24105269 0.0015246161
0.027263781 -0.12892343 0.11017168 -0.20791429 0.94726765 0.2438353 0.0010636183
0.035323318 -0.12800935 0.1153864 -0.2569885 0.93874514 0.22959635 0.0010510312
0.042193294 -0.12635885 0.11601323 -0.30791399 0.92399436 0.22676741 0.0016579377
0.054492965 -0.12171441 0.115199 -0.40163442 0.88764322 0.22534287 0.001935725
-0.073006839 -0.11082646 0.11424811 0.55062819 0.8012141 0.23423207 0.0014822978
-0.064841367 -0.1159261 0.11547907 0.48113349 0.84481466 0.23409134 0.0010258479
-0.058700442 -0.11929457 0.11458087 0.42772174 0.87253475 0.2360872 0.0016309376
0.066005155 -0.1151033 0.11495127 -0.48307893 0.84203482 0.24002519 0.0017612338
0.074393705 -0.11044736 0.11540594 -0.54716784 0.80385429 0.23329321 0.0016291381
-0.084206112 -0.10355041 0.11489902 0.61330527 0.75366533 0.23631607 0.0020881123
-0.079158425 -0.10728246 0.11448479 0.57125574 0.7865243 0.23461975 0.0016956743
0.078672849 -0.10809863 0.1157416 -0.5775404 0.78170508 0.23533854 0.0021857927
0.083446659 -0.10397408 0.1146449 -0.61989927 0.75152975 0.22567223 0.0017426191
-0.094590828 -0.093410447 0.11610556 0.6926626 0.68274391 0.23254935 0.0011397097
-0.088052154 -0.098942585 0.11263356 0.6436848 0.72633183 0.2410645 0.0018783956
0.08960852 -0.098092362 0.11529398 -0.64981699 0.72304606 0.23439755 0.0017019453
0.090885915 -0.098223068 0.11977969 -0.66358703 0.71530557 0.21906686 0.0008777086
-0.10283331 -0.084973343 0.11594001 0.7478292 0.6221751 0.23162405 0.0017454815
0.098870233 -0.088655092 0.11434664 -0.72215623 0.64644253 0.24617574 0.0018884151
0.10368667 -0.08453545 0.11657888 -0.74873012 0.62223154 0.22854127 0.0017232627
-0.11144716 -0.072046511 0.11408608 0.80397862 0.54215491 0.2443081 0.0014995406
-0.10816026 -0.078155167 0.11482517 0.7891593 0.56880623 0.23170464 0.002276303
0.1072334 -0.078349441 0.11244074 -0.7830717 0.57710737 0.23183145 0.0017726966
0.11206877 -0.071326397 0.11525481 -0.82101125 0.52437973 0.22575749 0.0017246013
-0.11553399 -0.065800287 0.11618809 0.84252316 0.48429975 0.23581429 0.0010409746
0.11496162 -0.065716185 0.11371327 -0.83683038 0.4927122 0.23864126 0.0010485629
-0.12264547 -0.051945388 0.11326262 0.88785183 0.39562148 0.23495258 0.0017858142
0.12194382 -0.053485449 0.11334959 -0.88714975 0.39457282 0.23932728 0.0020015123
-0.12509967 -0.044074304 0.1126472 0.91828871 0.31264347 0.24289922 0.0013719532
0.12521531 -0.044462182 0.11421148 -0.91487455 0.3265664 0.23740043 0.0022320126
-0.12813458 -0.035168592 0.11575816 0.93693161 0.25977322 0.23383127 0.00055667723
0.12719917 -0.033819444 0.11010066 -0.93806583 0.24372494 0.24623284 0.0010128841
-0.13172577 -0.020914448 0.11518807 0.95993876 0.14796543 0.23795764 0.0023385929
-0.12972778 -0.026745943 0.11310405 0.95218468 0.1953906 0.23487628 0.0012397069
0.13190481 -0.021669278 0.11606655 -0.95939797 0.15678535 0.23446484 0.0017948907
-0.13316229 -0.015204283 0.11764407 0.96796119 0.12220808 0.21935429 0.0020577679
0.13293034 -0.015717641 0.11650907 -0.96452814 0.12001793 0.23511958 0.0017865048
-0.1325644 -0.0051131179 0.11424499 0.97035372 0.028087938 0.24005143 0.00096875947
0.13276148 -0.0039988793 0.11540303 -0.97209054 0.024898401 0.23328121 0.0010935714
-0.13308086 0.0038176952 0.11684423 0.97212958 -0.033167679 0.23208617 0.0012391388
0.13297902 0.0041105533 0.11615199 -0.97389358 -0.03277158 0.22462706 0.00099851645
-0.13236821 0.014694236 0.11393348 0.9646976 -0.12033604 0.23426005 0.0020318467
0.13282986 0.014990971 0.11534273 -0.96478993 -0.11132841 0.23829874 0.0017253915
-0.13104716 0.024977891 0.11629255 0.95565248 -0.18854141 0.22623089 0.0013254134
-0.12871344 0.028646339 0.11050434 0.94665158 -0.20568429 0.24808209 0.0016309434
0.12937716 0.027267497 0.11216421 -0.94814384 -0.19943267 0.24748704 0.0010354351
0.13121147 0.024158716 0.11664584 -0.9583329 -0.16573344 0.23265991 0.0019134916
-0.12738606 0.035882484 0.11339313 0.93261409 -0.27159885 0.23762353 0.00069797051
0.12799719 0.0338111 0.11360306 -0.9391613 -0.24023262 0.24548808 0.001010415
-0.12591013 0.043401044 0.11597223 0.91561121 -0.32648411 0.23465747 0.0014930484
0.12530026 0.044377677 0.11387326 -0.91705692 -0.32194337 0.23528536 0.0015347876
-0.12219774 0.054330409 0.11615515 0.88736296 -0.39229515 0.24226326 0.0015597666
-0.11710704 0.063984148 0.11813086 0.85600448 -0.46638373 0.22303021 0.0010106445
0.11759686 0.062361103 0.1166079 -0.86120731 -0.45400077 0.22848468 0.0010856228
-0.11132157 0.073640555 0.11763375 0.80651051 -0.5431813 0.23344143 0.0011983631
-0.10836603 0.07614737 0.11182453 0.7995097 -0.54978585 0.24190836 0.0013259591
0.10816619 0.07729283 0.1129175 -0.78218353 -0.57810259 0.2323492 0.0023778875
0.11121231 0.071730487 0.11245388 -0.81052232 -0.53426456 0.24003105 0.0014182468
-0.1057826 0.081939861 0.11558332 0.76657659 -0.59785885 0.23436122 0.002029852
-0.098041274 0.088468038 0.11110617 0.71796882 -0.65049714 0.24773826 0.0012502909
0.098440997 0.088179499 0.11187085 -0.71504307 -0.65771693 0.23690048 0.00066190655
0.10394165 0.083859928 0.11585543 -0.76219833 -0.60348541 0.23422022 0.0022519927
-0.094530098 0.093338363 0.11563134 0.69633293 -0.67993116 0.22981286 0.001087377
-0.088034734 0.099106081 0.11355378 0.65022528 -0.72200972 0.23645085 0.00092227157
0.088439316 0.098936297 0.11386137 -0.63964933 -0.73092526 0.23790088 0.0016716562
0.093753494 0.09386564 0.11485516 -0.68318981 -0.69079399 0.23676024 0.0017428749
-0.085855104 0.10213873 0.11639285 0.62681109 -0.74299109 0.2346745 0.0018671351
0.074144885 0.10980608 0.11286657 -0.54593521 -0.80311668 0.23865962 0.0011217534
0.085834615 0.10181737 0.11463344 -0.62782115 -0.74306172 0.23173226 0.0015582698
-0.07070218 0.11240413 0.11484314 0.50584918 -0.82835901 0.24070331 0.0009077409
-0.062907927 0.11676812 0.11456986 0.46350735 -0.85346794 0.23822977 0.0010276305
-0.058456521 0.11876701 0.11247125 0.42432258 -0.87279975 0.24118671 0.0011756251
0.057828974 0.11970638 0.11419459 -0.4257682 -0.8757149 0.22769469 0.0015638513
0.064986639 0.11583213 0.11544444 -0.48562628 -0.84222555 0.23414384 0.0010455352
0.072450109 0.11019512 0.1105063 -0.54680562 -0.8032124 0.23633324 0.0011614955
-0.052590124 0.12329269 0.11731862 0.36393505 -0.90264237 0.22975652 0.0019387811
-0.044621073 0.12511182 0.11332595 0.33609796 -0.91129273 0.2378732 0.0015618787
-0.036611281 0.12699406 0.11241074 0.27417541 -0.93127596 0.23990175 0.0010010403
-0.028391942 0.12914614 0.11243828 0.21796864 -0.94509745 0.24347574 0.0010273255
0.026443049 0.12956974 0.11159919 -0.19700807 -0.95056576 0.24002594 0.0012426419
0.035851337 0.128234 0.1170588 -0.25451234 -0.9411633 0.22234012 0.00071677042
0.0453794 0.12542902 0.11624585 -0.3248975 -0.91720837 0.23058699 0.0016144298
0.051315039 0.12370563 0.11584836 -0.37390861 -0.8964265 0.23793264 0.0024150028
-0.024385357 0.13152245 0.11826787 0.17796315 -0.95776761 0.22585487 0.0018891966
-0.018148273 0.1328439 0.11692325 0.14102833 -0.96305776 0.2294137 0.0018735284
-0.0063432408 0.13279967 0.11527477 0.045349713 -0.97213012 0.23001415 0.0017630571
0.0036221871 0.13268538 0.11504741 -0.032393735 -0.97051597 0.23885033 0.0013638963
0.013744538 0.13319233 0.11763821 -0.097381391 -0.96873564 0.22818418 0.0014716974
0.023400659 0.13136201 0.1157744 -0.17245534 -0.95870286 0.22615916 0.0018274708
-0.031071659 -0.13233981 0.12925187 0.22318794 0.95537144 0.19352673 0.0014513049
-0.023531199 -0.13409652 0.12787272 0.18584864 0.96461487 0.18702531 0.0014266548
-0.018759452 -0.13494723 0.12649897 0.13018674 0.97277582 0.19172557 0.0019062171
-0.0041635991 -0.13509084 0.12595727 0.02949949 0.97889251 0.20223545 0.001139938
0.0068459106 -0.13507277 0.12555465 -0.042798083 0.97769004 0.20564654 0.0011427966
0.01772055 -0.13478465 0.12513442 -0.13150665 0.96925032 0.20798972 0.0019821974
0.024160821 -0.13325226 0.12559122 -0.17488337 0.96560687 0.19240348 0.0016133927
0.032084402 -0.13171519 0.12792045 -0.22895452 0.95347852 0.19610848 0.0011069704
-0.054259408 -0.12397888 0.12290931 0.38581944 0.89647239 0.21790038 0.0017093853
-0.044143446 -0.128133 0.12657073 0.32253665 0.92456716 0.20284401 0.0014741815
-0.038289219 -0.12886488 0.12274004 0.28842279 0.9326129 0.21689959 0.00088015333
0.036608517 -0.1293852 0.12288591 -0.27278835 0.93705791 0.21796539 0.0007130637
0.043956149 -0.12799492 0.12519939 -0.32433712 0.92513853 0.19729169 0.0017092099
0.054304153 -0.12416756 0.12443353 -0.39862525 0.89298326 0.20899501 0.0018276848
0.060616124 -0.12078121 0.12523632 -0.43222943 0.87925571 0.20021762 0.0015472518
-0.071078055 -0.11420478 0.12303288 0.52396387 0.82405537 0.21539403 0.0012966456
-0.064985126 -0.11784784 0.12331758 0.45712218 0.8635419 0.21291952 0.001282474
0.066401944 -0.11717286 0.12398702 -0.48479602 0.85122335 0.2009764 0.0013031069
0.075178161 -0.11224604 0.12424343 -0.556431 0.80425858 0.20869289 0.0019430474
-0.091577277 -0.10049514 0.1289351 0.6653682 0.71952313 0.19892596 0.0011223642
-0.085144624 -0.10636477 0.12687868 0.62064189 0.75900728 0.19675282 0.0022663907
0.079273798 -0.10927543 0.12171997 -0.57941288 0.78576756 0.21644905 0.0020998004
0.084515467 -0.1056564 0.1234678 -0.61812639 0.75654835 0.21343452 0.0020116279
0.090397216 -0.10067989 0.12614313 -0.65507823 0.72786713 0.20268698 0.0013743532
-0.094731569 -0.096208975 0.12546358 0.68171817 0.70192939 0.20628953 0.0014386679
0.096479416 -0.094349548 0.12509282 -0.69982326 0.68315685 0.2086723 0.0017797517
-0.10480563 -0.085195906 0.12289084 0.74945569 0.62563723 0.21655059 0.0018991316
0.10503639 -0.085500598 0.12422778 -0.75539458 0.62054336 0.21048711 0.0022150131
-0.11256774 -0.075322635 0.12583345 0.80805486 0.55284429 0.20349567 0.0021379311
-0.10856608 -0.079883337 0.12029244 0.77496976 0.59057403 0.22504285 0.0020532894
0.10864037 -0.079895198 0.12147787 -0.77932948 0.58747745 0.21798141 0.0020973324
0.11341813 -0.073001198 0.12436235 -0.82438517 0.52557272 0.21014889 0.001354499
-0.11863663 -0.06459102 0.12569442 0.8623575 0.46205232 0.20699555 0.00107126
0.11743455 -0.066986024 0.126284 -0.85782397 0.47425061 0.19805145 0.0011851172
-0.12352369 -0.055918757 0.1256149 0.88582641 0.41657159 0.20440045 0.0014046534
0.12412131 -0.054933976 0.12558363 -0.89292443 0.40235108 0.20198877 0.0017661606
-0.12758903 -0.044055149 0.12353401 0.92235774 0.3187612 0.21828301 0.0017318475
0.12715873 -0.046521664 0.12517054 -0.91694707 0.34556714 0.19947793 0.0017594979
-0.13104415 -0.034177031 0.12737387 0.95403969 0.23100899 0.19090086 0.00076492439
-0.12917684 -0.038325019 0.12393651 0.93982983 0.26832795 0.21147113 0.0010662888
0.12948075 -0.039530177 0.12691893 -0.93706429 0.28583464 0.20052184 0.0013040476
0.13077955 -0.032682322 0.12437133 -0.950477 0.23637287 0.20179497 0.00078018568
-0.13261101 -0.025867134 0.12473322 0.95973998 0.19209771 0.20493323 0.0010746897
0.13177408 -0.025592208 0.12020427 -0.95696992 0.18736097 0.22159506 0.001294135
-0.13502723 -0.013728 0.12514801 0.97448272 0.098070182 0.20190506 0.0020743981
0.13482499 -0.014758097 0.12506174 -0.97143251 0.12412086 0.20226932 0.0019852775
-0.13433684 -0.0061519356 0.12224207 0.97545087 0.052169498 0.21394835 0.001249211
0.13490626 -0.0025859878 0.12507528 -0.97985673 0.003861072 0.19966419 0.001064074
-0.1345128 0.0070902659 0.12342462 0.97623777 -0.054929454 0.20962471 0.0014360809
-0.13482812 0.014382804 0.12506515 0.9738149 -0.092520535 0.20766446 0.0018026036
0.13493972 0.01557785 0.12502925 -0.97370815 -0.10917352 0.19993395 0.0015976414
-0.1328869 0.024398861 0.12363172 0.96198583 -0.1778357 0.20726258 0.0016315595
0.13327983 0.024915319 0.12657511 -0.96397126 -0.1747181 0.20058158 0.0016187975
-0.13061419 0.031812273 0.12260501 0.95230782 -0.22479628 0.20634069 0.0013987013
-0.12914246 0.038679481 0.12442066 0.93357253 -0.28946799 0.21130654 0.0013450535
0.12941234 0.035865236 0.12215439 -0.9363904 -0.27856332 0.21348426 0.001052689
0.13056208 0.03516366 0.12639008 -0.94317025 -0.26857829 0.19569241 0.00099205296
-0.12797348 0.044778056 0.12663582 0.92277902 -0.32513168 0.20680472 0.0012948387
0.12734492 0.046078134 0.12477854 -0.91899431 -0.33432648 0.20898636 0.0014863735
-0.1242937 0.054799825 0.12555484 0.88588762 -0.40714908 0.22233456 0.0018104888
0.12384505 0.055978514 0.1269131 -0.88901943 -0.41049516 0.20282558 0.0017063119
-0.12029156 0.061194595 0.12418742 0.86632639 -0.45057383 0.21555007 0.0013810415
-0.11704226 0.067851856 0.12673351 0.84936547 -0.4897027 0.19690013 0.0014883014
0.11759666 0.066474088 0.12581702 -0.84888202 -0.4889524 0.20081039 0.00092000712
0.12036964 0.061112046 0.12472661 -0.86776817 -0.45101067 0.20872906 0.0015576099
-0.11174438 0.076670855 0.12622437 0.80767971 -0.55354643 0.20307596 0.0018154887
0.10969204 0.078224689 0.12101096 -0.79570234 -0.56461561 0.21924189 0.0018454748
0.11238553 0.073151261 0.12025391 -0.80733943 -0.5490368 0.2162443 0.001760224
-0.11045919 0.080420621 0.12978816 0.797189 -0.57429028 0.18622661 0.0020914325
-0.10482051 0.085700952 0.12477453 0.75893086 -0.6173147 0.20723528 0.0022414448
0.10543296 0.084790021 0.1238111 -0.75832808 -0.61476302 0.2168064 0.0021788427
-0.10049902 0.090310588 0.12486486 0.72224051 -0.66094071 0.2037795 0.0012134146
-0.09794388 0.092748664 0.1245928 0.71475977 -0.66980332 0.20120116 0.0007906931
0.094129957 0.096066467 0.12307116 -0.68482262 -0.69780272 0.20997456 0.0013825282
0.10172359 0.090080112 0.12849803 -0.74141389 -0.6423732 0.19406725 0.0015867482
-0.086267613 0.10406384 0.12443476 0.6168012 -0.75725418 0.21476118 0.0024340183
-0.079843856 0.10932778 0.12320264 0.58099514 -0.78512913 0.21451543 0.0023795236
0.078907877 0.10956416 0.12282705 -0.56543303 -0.79636908 0.2146668 0.0013376095
0.08520253 0.10535213 0.12490851 -0.61412561 -0.76100063 0.20911194 0.0019540589
-0.074817337 0.11262915 0.12494373 0.54649276 -0.81127566 0.20779224 0.0017591255
-0.065094136 0.11783449 0.12366319 0.47396138 -0.85409904 0.21418554 0.0010397813
0.064801008 0.11714117 0.12013457 -0.4727608 -0.85406607 0.21695262 0.0012439803
0.074105449 0.11309393 0.12562387 -0.54137158 -0.81446284 0.20872739 0.001338038
-0.062410191 0.12052823 0.12825777 0.44994211 -0.87175381 0.19390008 0.0015714085
-0.055445112 0.12326984 0.12361819 0.3963874 -0.89149165 0.21936193 0.0017515688
-0.046165671 0.12775214 0.12666319 0.33266842 -0.92146224 0.20059678 0.0016374711
-0.035379544 0.12982967 0.12342754 0.27158117 -0.93749851 0.21757826 0.00091235858
0.037675239 0.12867562 0.12117658 -0.27541497 -0.93706268 0.21461594 0.0015092319
0.047164634 0.12686928 0.12467831 -0.33685851 -0.92004216 0.20012212 0.0016001652
0.055156045 0.12352844 0.12301882 -0.40925944 -0.88889176 0.20585981 0.0019311315
-0.03236834 0.13110678 0.12557909 0.22390825 -0.95466959 0.19614062 0.0011235034
-0.026268195 0.13207282 0.12283368 0.18758985 -0.9592728 0.21120076 0.0016445629
-0.013704831 0.13584656 0.12885931 0.10239358 -0.97564751 0.19397809 0.0018693387
0.0025937611 0.1350361 0.12566356 -0.009667024 -0.97912717 0.20301828 0.0013783461
0.010632225 0.13511674 0.12626299 -0.089547433 -0.97519815 0.2024103 0.0015258067
0.025315888 0.1331659 0.12595081 -0.18386434 -0.96172088 0.20319176 0.0013469514
0.032791968 0.13125739 0.12658995 -0.23747765 -0.95036143 0.20104094 0.00058380747
-0.041421868 -0.13060468 0.13409795 0.30111682 0.93553984 0.18464552 0.0017047161
-0.035388231 -0.1322954 0.13430978 0.26396322 0.94681132 0.18404247 0.00045936223
-0.027133903 -0.1348366 0.13542894 0.20813972 0.9629516 0.17147049 0.0013831891
-0.016081546 -0.13692313 0.13480935 0.12693189 0.97446066 0.18524221 0.0021708091
-0.00457827 -0.13723001 0.1358168 0.028386196 0.98426127 0.17442434 0.0011064592
0.0056340843 -0.13716723 0.13512607 -0.055258337 0.98285311 0.17591546 0.0014442886
0.016291039 -0.13706078 0.1353136 -0.12967356 0.97537255 0.17841843 0.0017872509
0.025019467 -0.13537581 0.13599925 -0.17719592 0.9688186 0.17318244 0.0015061487
0.035584755 -0.13246621 0.13521597 -0.26654944 0.94767427 0.17568411 0.00088344206
0.042593509 -0.13092259 0.13646986 -0.30783439 0.93599468 0.17073956 0.001573514
-0.060027592 -0.12447949 0.13788007 0.41143563 0.89514846 0.17155166 0.0018447231
-0.055547182 -0.12648346 0.13561378 0.38144806 0.90710098 0.1779474 0.0022665607
-0.044514302 -0.12951751 0.13306201 0.3151328 0.93127364 0.18281318 0.0015534981
0.046783309 -0.12930407 0.13417058 -0.33148223 0.92583209 0.18153332 0.0017681292
0.055347148 -0.12591086 0.13393524 -0.39796802 0.90044695 0.17554675 0.0018665759
-0.081757322 -0.11164097 0.13746674 0.59114271 0.78821599 0.17107217 0.0019660825
-0.073360793 -0.11549532 0.13330251 0.53816897 0.82201964 0.18616635 0.0015832819
-0.068074517 -0.11988088 0.13833553 0.47645929 0.86328894 0.16648996 0.0010592964
0.066402763 -0.11898889 0.13113797 -0.47771677 0.8590135 0.184072 0.0010075331
0.074684806 -0.11469381 0.13277486 -0.542355 0.81966102 0.18440923 0.0013582048
-0.091760352 -0.10163198 0.13314232 0.66630167 0.72131771 0.18905748 0.001285247
-0.086973891 -0.10735974 0.13615829 0.62453687 0.76108313 0.17523161 0.002232997
0.087231085 -0.10670517 0.13558097 -0.6227206 0.76385552 0.16954038 0.0020247209
0.091118582 -0.10268389 0.13492993 -0.65136927 0.73734713 0.17898974 0.0014345977
-0.10198356 -0.091674671 0.13440955 0.72682327 0.66073608 0.18749891 0.0013867511
-0.096563153 -0.096858226 0.13343263 0.69734573 0.69208246 0.18636204 0.0013640467
0.096890479 -0.096586205 0.13360955 -0.68919635 0.70014292 0.18656972 0.0011857138
0.10110483 -0.092343174 0.1333435 -0.72984356 0.65807235 0.1851193 0.0015537497
-0.11099816 -0.082641318 0.13604257 0.7844491 0.59681898 0.16866125 0.0023738851
-0.10736458 -0.086300232 0.13465217 0.76421016 0.61986661 0.1781805 0.0022910114
0.1052016 -0.088560283 0.13418636 -0.7447201 0.64311504 0.1783116 0.0016514463
0.1108093 -0.082842797 0.13670231 -0.78319395 0.59780186 0.17099759 0.0021597301
-0.11424482 -0.076556958 0.13521467 0.81567264 0.55339998 0.1686018 0.0019926839
0.11575998 -0.073826201 0.13543281 -0.82553774 0.53624457 0.17586695 0.0019100741
-0.11867987 -0.067426428 0.13221371 0.85223091 0.48967111 0.18418671 0.0011702473
0.11851735 -0.06923677 0.13566864 -0.85402018 0.4882586 0.17959101 0.0012869826
0.12141591 -0.062909663 0.13250788 -0.86880523 0.45893139 0.18590158 0.00097498641
-0.12647372 -0.05583071 0.13693054 0.90095687 0.39953128 0.16926792 0.0019236684
0.12691848 -0.054784209 0.13657631 -0.90025389 0.4019599 0.16724575 0.0018800691
-0.13115795 -0.043230861 0.13842984 0.93295062 0.32041129 0.16413333 0.0019830721
-0.12849581 -0.04866736 0.13278405 0.92059773 0.34374341 0.18531156 0.0017740484
0.1289565 -0.047233932 0.13387646 -0.92042118 0.34730196 0.17946078 0.0018523305
0.13034096 -0.042055752 0.133707 -0.93420255 0.3058027 0.18371253 0.0016890432
-0.1327707 -0.035168365 0.13607392 0.95571876 0.24071544 0.16928566 0.00093057379
0.13252379 -0.034695495 0.13440497 -0.9551329 0.23901211 0.17491232 0.00088892865
-0.13508132 -0.027036127 0.13702385 0.96488333 0.20521986 0.16396675 0.00074998545
0.13531113 -0.025320262 0.13540089 -0.97021955 0.16987449 0.1726748 0.0016138725
-0.13719369 -0.013788405 0.13500623 0.97904438 0.09491314 0.18017644 0.0019426923
0.13763154 -0.015221156 0.13798134 -0.97964591 0.10769221 0.16939944 0.001821566
-0.13675441 -0.0075926282 0.13314886 0.9805842 0.067427546 0.18414176 0.0015532559
0.13702756 -0.0056100497 0.13485801 -0.98218888 0.055519745 0.17950645 0.0011667151
-0.13702691 0.0055964477 0.13478933 0.98191559 -0.054071389 0.18143347 0.0012376331
0.13715996 0.0045938832 0.13507503 -0.98353052 -0.028759528 0.17843923 0.0013495365
-0.13690057 0.015032194 0.13446994 0.97747451 -0.10425098 0.18350874 0.0017219457
0.13729826 0.014158702 0.13542067 -0.97915918 -0.099215113 0.17721078 0.0018457713
-0.135589 0.024951098 0.13609484 0.965029 -0.19274737 0.177672 0.0012576866
0.13576308 0.024516229 0.13705951 -0.97117913 -0.16926387 0.16781203 0.0017489783
-0.1324458 0.034498386 0.13382789 0.95420659 -0.23393984 0.18644604 0.0010512578
0.13340351 0.033629619 0.13721164 -0.95882446 -0.22947919 0.16731714 0.00098771218
-0.13047522 0.045183562 0.13808487 0.93033206 -0.32220608 0.17511585 0.0017050869
-0.12839776 0.049033079 0.13359599 0.9232409 -0.33616078 0.18607065 0.0018302224
0.12794511 0.049494289 0.13131684 -0.92277312 -0.33262071 0.1945589 0.0016170485
0.1302979 0.04667474 0.13840139 -0.92696559 -0.33037928 0.17771959 0.0017794559
-0.12612648 0.056417435 0.13783173 0.89607227 -0.4098869 0.17043243 0.0020934171
0.12557817 0.056192853 0.13421586 -0.8932147 -0.40904948 0.18667081 0.0019724949
-0.12145074 0.064573832 0.13657223 0.86805207 -0.46443468 0.17545927 0.0013831048
-0.11989865 0.065943941 0.13352659 0.86011511 -0.47346616 0.18982014 0.0009524108
0.11780983 0.068518505 0.13123411 -0.85044152 -0.49319991 0.18303861 0.00078376726
0.12248504 0.062359452 0.13599546 -0.87104696 -0.45807809 0.17731769 0.0012177253
-0.11542746 0.075922228 0.13918346 0.82170755 -0.54606521 0.1631241 0.0015610593
0.11393607 0.07710325 0.1352073 -0.81364226 -0.5567764 0.16729107 0.0016042992
-0.1111353 0.081008881 0.13377705 0.79573363 -0.57864898 0.17881094 0.002233726
-0.10702652 0.086008035 0.13236222 0.76005733 -0.62025583 0.19389558 0.0023730793
0.10723079 0.08611685 0.13363746 -0.77958405 -0.60146099 0.17462336 0.0021456673
0.11203142 0.08035934 0.13526864 -0.80701041 -0.56595773 0.16860038 0.0016750131
-0.10158922 0.091236159 0.13131684 0.72329593 -0.66363907 0.19085667 0.0013549699
-0.095728718 0.098899089 0.13752544 0.69267589 -0.70060861 0.17131169 0.0010209439
0.097720765 0.095620841 0.13322647 -0.6993342 -0.68958122 0.1881742 0.0010881459
0.10056093 0.093704253 0.13628213 -0.72297299 -0.66723531 0.17918478 0.00096745969
-0.092047825 0.1026673 0.1378006 0.66832554 -0.72436565 0.16922002 0.0014522065
-0.086431921 0.10728314 0.13480866 0.61507016 -0.76752752 0.18052773 0.0023876335
0.088114142 0.10553595 0.13381232 -0.63645637 -0.7497198 0.18122792 0.0017264694
-0.082414113 0.11084224 0.13492003 0.5923757 -0.78525454 0.18018389 0.0022860966
-0.077520221 0.11364432 0.13499247 0.54827493 -0.81843036 0.17194851 0.0015198257
-0.069227166 0.11832324 0.13484201 0.49670094 -0.84986514 0.17611779 0.0013325453
0.068140179 0.11906285 0.13528936 -0.47283053 -0.86290073 0.1784198 0.0010859921
0.076108016 0.11490721 0.13739136 -0.55596584 -0.81156713 0.17961302 0.0018436022
0.082264632 0.1117852 0.1397292 -0.60063678 -0.78154808 0.16857606 0.0017777908
-0.06345439 0.12152626 0.13452487 0.45359856 -0.87352169 0.17665841 0.0010203334
-0.055531513 0.12682395 0.13781576 0.40882751 -0.89619964 0.17229702 0.0017996161
-0.048807424 0.12891385 0.13477618 0.33796638 -0.92245001 0.18672086 0.0018037931
0.044255737 0.12973367 0.13369569 -0.3285237 -0.92591673 0.18641444 0.0014471964
0.05362609 0.12710141 0.13495332 -0.38223061 -0.90636742 0.17999424 0.0019316884
0.062540986 0.12219965 0.13472629 -0.4562315 -0.87041217 0.18502849 0.001342481
-0.042319391 0.13046457 0.13414909 0.30737987 -0.93287688 0.18777205 0.0018174165
-0.036981866 0.13198332 0.1346982 0.26885554 -0.94572181 0.1825567 0.0012368854
-0.024839511 0.1351033 0.13457178 0.17308593 -0.96965748 0.17264315 0.0017281645
-0.016225377 0.13612615 0.13005207 0.1198028 -0.97492886 0.18751276 0.001549578
-0.0040675648 0.1368119 0.1335796 0.038956665 -0.98247224 0.18229285 0.0013824371
0.0036627806 0.13709436 0.13511766 -0.020212278 -0.98387891 0.17769003 0.00090613862
0.014751531 0.13703224 0.13505815 -0.10770562 -0.97785807 0.17942427 0.0019500951
0.027573306 0.13450161 0.13449353 -0.19698155 -0.96368366 0.18031132 0.0012653439
0.033855837 0.13251585 0.13336258 -0.23912986 -0.95360667 0.18289696 0.00075790036
0.043320514 0.13080454 0.13724968 -0.31213436 -0.93399632 0.17384779 0.0015470207
-0.045194466 -0.13136542 0.14492214 0.31869826 0.93689847 0.14371049 0.001351274
-0.034669433 -0.13428293 0.14512514 0.25461516 0.95656615 0.14195892 0.00065275945
-0.025045738 -0.13730085 0.14819205 0.1835862 0.97324049 0.13819903 0.0017291161
-0.01507779 -0.13842838 0.14387126 0.10538175 0.98272604 0.15213235 0.0023957205
-0.0044451882 -0.13861004 0.14483777 0.018651197 0.98787236 0.15414427 0.00078294822
0.0036255729 -0.13869177 0.14509216 -0.014403635 0.98867947 0.1493504 0.0010860803
0.014116009 -0.13893393 0.14658259 -0.092763104 0.98429114 0.15021932 0.0017347016
0.024382658 -0.13696238 0.14521384 -0.1704881 0.9734183 0.15294008 0.0016791599
0.033679668 -0.13422763 0.14267445 -0.24354355 0.95648038 0.16072279 0.00095105771
0.045422256 -0.13132593 0.14402762 -0.3308228 0.9318105 0.14928283 0.0019473203
-0.065951854 -0.12180588 0.14313067 0.46891734 0.86925954 0.15653855 0.0012260765
-0.054877505 -0.12801038 0.14298771 0.38507611 0.90907776 0.15904038 0.0017349941
-0.049988523 -0.12982538 0.14309283 0.35292274 0.92278033 0.15466751 0.0018874404
0.055201966 -0.12800218 0.14484815 -0.39273894 0.90585011 0.15871887 0.0016961085
0.064453781 -0.12295479 0.14574739 -0.46701306 0.87206757 0.14627708 0.000961432
-0.085454479 -0.11119077 0.14911298 0.60608751 0.78142005 0.14846124 0.0020976262
-0.077900261 -0.11474731 0.14270887 0.56254381 0.81239295 0.15349987 0.0017300464
0.075645261 -0.11643308 0.14459093 -0.53060251 0.83353359 0.15389183 0.0010866582
0.081171557 -0.11303239 0.14268267 -0.59153163 0.79060388 0.15822721 0.0017594567
-0.093071051 -0.10326923 0.14610508 0.66989446 0.73057383 0.13229968 0.0019020204
-0.088121422 -0.10797155 0.14423841 0.62301725 0.76791286 0.14886042 0.0026626231
0.086617894 -0.10934359 0.14509727 -0.61416793 0.77468878 0.15051603 0.0020198592
0.092083119 -0.1040374 0.14563876 -0.65454757 0.74209994 0.14441355 0.001443762
-0.10229082 -0.093730524 0.14490868 0.72302806 0.67375159 0.15260805 0.0011568365
-0.0984274 -0.097503744 0.14406821 0.70724237 0.69061196 0.15120637 0.0010287924
0.098804824 -0.09727598 0.144876 -0.71722573 0.68225837 0.14181238 0.0012072332
0.10257389 -0.09354797 0.14483273 -0.72470909 0.67300606 0.14784946 0.0012920221
-0.11164244 -0.08372283 0.14446864 0.78869104 0.59686273 0.14738128 0.002304598
-0.1076472 -0.088198163 0.14426951 0.76095712 0.63315821 0.14161573 0.002011514
0.10850658 -0.087796628 0.1454735 -0.7725808 0.61827374 0.14441741 0.002089998
0.11187911 -0.083421782 0.14541206 -0.78848296 0.59876597 0.14062008 0.0020707599
-0.11537793 -0.077375278 0.14406359 0.81501383 0.5606209 0.14648102 0.0021687516
0.11729451 -0.074415468 0.14642854 -0.83001906 0.53889138 0.1437514 0.0013440355
-0.12198894 -0.066367298 0.14665656 0.87000877 0.47291556 0.13941187 0.0010548453
0.12230445 -0.065591857 0.1452481 -0.8733952 0.46454537 0.14621356 0.0010893671
-0.1303045 -0.051209703 0.14806855 0.91884238 0.36769688 0.14327489 0.0023495641
-0.12549683 -0.059750844 0.14476097 0.8909418 0.4287411 0.14967857 0.0018414925
0.12775609 -0.05620344 0.14613155 -0.90290666 0.40213609 0.15180941 0.0017693219
-0.13217327 -0.043124877 0.14607148 0.94440609 0.29570755 0.14371528 0.0014169209
0.13142021 -0.045663316 0.14643322 -0.93335843 0.32824644 0.14524592 0.0015262637
-0.13513093 -0.032754172 0.14813691 0.96166188 0.23259106 0.14528523 0.00097928382
0.13348386 -0.036876556 0.14354169 -0.95529991 0.25315106 0.15269759 0.00055604189
0.13708925 -0.024270877 0.14469886 -0.97484905 0.16772811 0.14675359 0.0017064401
-0.13874874 -0.016180659 0.14602542 0.9810006 0.12905368 0.1448549 0.001882731
0.13841112 -0.014477624 0.14369078 -0.9838776 0.085658424 0.15699565 0.0016187826
-0.13832204 -0.0073740399 0.14173192 0.98511547 0.056447264 0.16236141 0.0014916564
0.13866527 -0.003792472 0.14527287 -0.98914802 0.0083393343 0.14668566 0.00096828712
-0.13838933 0.0050829537 0.1429897 0.9879576 -0.033876117 0.15097074 0.00073554367
0.13872661 0.0054878425 0.14528707 -0.98677343 -0.034949832 0.15829307 0.0015792956
-0.13844241 0.017807031 0.14414087 0.98111826 -0.12171094 0.1503112 0.0021697001
0.13853136 0.014548166 0.14429486 -0.98509759 -0.097017027 0.14202279 0.0020150738
-0.13679108 0.024903713 0.143677 0.96636963 -0.20097992 0.16042684 0.0012093417
0.13699043 0.024698112 0.14612533 -0.97380108 -0.1772057 0.14251183 0.0015482798
-0.13417806 0.03562874 0.14643161 0.95641506 -0.25644603 0.13966256 0.00037544779
0.13413371 0.035587374 0.14601064 -0.95440954 -0.26023063 0.14622758 0.00082492374
-0.13087609 0.046819434 0.1445709 0.93445402 -0.32406327 0.14757609 0.0015584099
-0.12996002 0.049532931 0.14317028 0.9270159 -0.34111452 0.15582781 0.0016561695
0.13107589 0.048974194 0.14961863 -0.92342097 -0.35864168 0.13663782 0.0023290121
-0.1280297 0.05514992 0.14452451 0.90110195 -0.40523919 0.15426081 0.0017749041
0.12856722 0.054499958 0.14538145 -0.91045552 -0.38406229 0.15351544 0.0023734034
-0.12340361 0.063829444 0.14573729 0.87043768 -0.46968681 0.14741971 0.00085065031
0.12318313 0.063146733 0.14192723 -0.87224162 -0.4630205 0.15750115 0.0013463256
-0.11505254 0.077477962 0.14313421 0.81278652 -0.56132317 0.1558667 0.0020116125
0.11755535 0.074202515 0.14682803 -0.83241272 -0.53448731 0.14632963 0.0012947357
-0.11193135 0.083323024 0.14537059 0.78476101 -0.60377723 0.14001137 0.0022895364
-0.10902049 0.087346405 0.14582026 0.77650183 -0.61412603 0.14104626 0.0025199887
0.1084356 0.087359719 0.14403079 -0.7829563 -0.60255802 0.1546071 0.0021370579
0.11152772 0.083727837 0.14390703 -0.78833836 -0.59613866 0.15212284 0.0020027582
-0.10522813 0.090919524 0.14478338 0.73779333 -0.66106528 0.13657889 0.0012711911
-0.097551227 0.098752096 0.1463244 0.70132905 -0.69743198 0.14739808 0.001070296
0.099034451 0.096856616 0.14387512 -0.70563096 -0.69115776 0.15615982 0.0013520262
0.10329641 0.09292081 0.14616096 -0.72881299 -0.6706121 0.13824268 0.0016291545
-0.092458643 0.10354035 0.14487174 0.65807539 -0.7368117 0.15506524 0.0016066849
-0.088106722 0.10804175 0.14611709 0.62978125 -0.76391727 0.14073373 0.002161812
0.086969174 0.10910756 0.14405173 -0.61406809 -0.77240771 0.16219325 0.0021132901
0.092913501 0.10351625 0.14662918 -0.6586358 -0.73757964 0.14891335 0.0013315578
-0.083030313 0.11230125 0.14523868 0.57976282 -0.80237031 0.14169292 0.0022829561
-0.076848119 0.11572047 0.14438027 0.55350345 -0.82051587 0.14278504 0.0019115818
0.069293827 0.11986099 0.14322905 -0.48389918 -0.86032528 0.160256 0.0013936982
0.073904864 0.11727314 0.14406863 -0.5309611 -0.83477318 0.14571911 0.001099841
0.081540681 0.11340709 0.14854614 -0.58118522 -0.80130035 0.1419208 0.0020491036
-0.064715803 0.12293691 0.14672036 0.47440687 -0.86793405 0.1470668 0.0010475008
-0.050709367 0.12978438 0.14269625 0.35841227 -0.92104554 0.1523671 0.0025220804
0.056582745 0.1276539 0.1457669 -0.41239518 -0.89812309 0.15266034 0.0018965664
0.063470334 0.12338155 0.14402579 -0.46735296 -0.87007904 0.15666431 0.00094960909
-0.050282113 0.13049094 0.14760855 0.35463035 -0.9245221 0.13962863 0.0024954786
-0.047742896 0.13110375 0.14719492 0.32886219 -0.9324742 0.1494706 0.0018095718
-0.034368116 0.13457602 0.1470343 0.23579721 -0.96185696 0.13867581 0.00080794439
-0.026914077 0.13608874 0.14345731 0.20158258 -0.96765423 0.1516894 0.00090323569
-0.012547798 0.13877335 0.14529856 0.0811719 -0.98471624 0.15409447 0.0015981721
-0.002403626 0.1386618 0.1449036 0.020327428 -0.98978126 0.14113751 0.00091610639
0.0047878488 0.1386219 0.14495787 -0.037228532 -0.9882006 0.14857185 0.00069706421
0.012903722 0.13851982 0.14453226 -0.096772604 -0.98413712 0.1486913 0.0018735863
0.023293747 0.13707803 0.14239717 -0.15676606 -0.97395301 0.16382891 0.0017072202
0.0344874 0.13432923 0.14509431 -0.24908485 -0.95744479 0.14579549 0.00057279255
0.04331632 0.13178386 0.14411777 -0.32419828 -0.93270266 0.15799157 0.0015785624
-0.015263385 -0.1402446 0.1593778 0.10186749 0.98905063 0.10677917 0.0020273917
0.0071638133 -0.14023575 0.15807144 -0.042803816 0.99348384 0.10562965 0.0013015154
0.013474278 -0.14021814 0.15757491 -0.079074599 0.99011707 0.11582448 0.00203129
-0.052830927 -0.13072485 0.15692055 0.36293671 0.92460495 0.11568341 0.0018818099
-0.040910963 -0.1336206 0.15378997 0.28695753 0.95017028 0.12178617 0.0013301888
-0.037114151 -0.13475421 0.15453066 0.26525107 0.95560569 0.12829502 0.00096359302
-0.023505539 -0.13834263 0.1532802 0.17024839 0.97695816 0.12871759 0.0016306863
-0.012555838 -0.1397322 0.15485729 0.095551528 0.98878664 0.11476428 0.0020130947
-0.001190544 -0.13927577 0.15033922 -0.0025183049 0.99160451 0.12928353 0.00076693727
0.017838668 -0.1393697 0.15315354 -0.14090681 0.98082042 0.13467163 0.0019869253
0.023586676 -0.13863941 0.15734333 -0.17568268 0.97691447 0.12154701 0.0018935183
0.036663067 -0.13463137 0.15243763 -0.25188428 0.95930815 0.12760146 0.000439283
0.045626204 -0.13244012 0.15366545 -0.32376391 0.93798637 0.1239294 0.0020152477
0.051911879 -0.13102989 0.15557052 -0.37533703 0.91996348 0.11308995 0.0024317179
-0.064913265 -0.12368649 0.15249492 0.46008196 0.87780595 0.13334669 0.001675771
-0.059266184 -0.12784581 0.15875514 0.41997477 0.90063381 0.11171365 0.0021543738
0.057610571 -0.12814704 0.1553874 -0.40954927 0.90391487 0.12331796 0.0016028101
0.066138022 -0.1229082 0.15250693 -0.46695757 0.87425441 0.1327776 0.00085765956
0.070821807 -0.12062076 0.15530096 -0.50210619 0.8556121 0.12576711 0.0013524757
-0.084345542 -0.11289871 0.15690269 0.59048235 0.79874623 0.115478 0.0021822515
-0.072467066 -0.11936256 0.15324797 0.52185839 0.8444435 0.12074363 0.0011932247
0.075069554 -0.11813513 0.1547856 -0.53945166 0.83335233 0.120481 0.0015694505
0.083906569 -0.11285959 0.15385862 -0.59970641 0.79055715 0.12398253 0.0020499236
-0.094982415 -0.10238357 0.15240185 0.67913717 0.72369683 0.12261957 0.0013590973
-0.088548489 -0.10964823 0.15688218 0.62100601 0.77438641 0.12114968 0.0021297974
0.088680372 -0.10918462 0.15649527 -0.61197007 0.78114522 0.12371277 0.0017710885
0.094189078 -0.1034914 0.15494734 -0.6638056 0.73852104 0.1181049 0.0017687414
-0.10173376 -0.096080653 0.15561384 0.72333235 0.68126154 0.11257424 0.00085677393
-0.098526746 -0.098573193 0.15108217 0.70153803 0.70064402 0.13016303 0.00073067209
0.09826763 -0.099970058 0.15801421 -0.68686354 0.71903002 0.10589751 0.00092722016
0.10295415 -0.094746709 0.15439101 -0.73336357 0.6702655 0.11367567 0.0014809938
-0.11278459 -0.084299445 0.15581012 0.79102641 0.60069162 0.11596047 0.0023571751
-0.10798435 -0.089270279 0.15274337 0.76497895 0.63289046 0.11940157 0.0023313025
0.1132169 -0.083773196 0.15677617 -0.79414171 0.59781533 0.10934249 0.0017963055
-0.12120536 -0.070715502 0.15918814 0.86185563 0.49583635 0.1065421 0.0011752998
-0.11824735 -0.075078495 0.15565552 0.84198904 0.52623492 0.11887506 0.0014955682
0.11739162 -0.075817518 0.15319127 -0.83160949 0.54046488 0.12776265 0.0015291342
0.12002483 -0.072458863 0.15808812 -0.85083032 0.51398253 0.1091314 0.00073051167
-0.12390085 -0.065210059 0.15595421 0.87701827 0.46556523 0.11869237 0.00099500292
0.12420843 -0.064809643 0.15589043 -0.87779558 0.46518934 0.11434061 0.0010728088
-0.13120688 -0.050299373 0.15355624 0.92752296 0.35683712 0.11121351 0.0025350689
-0.12817749 -0.056929648 0.15274072 0.9031148 0.4086242 0.13194679 0.0019959731
0.12951894 -0.055589154 0.15521078 -0.90732443 0.40267307 0.1209002 0.0018876302
0.13041323 -0.052802525 0.15429261 -0.91960227 0.37161204 0.12742096 0.0021159921
-0.13214941 -0.046904944 0.15402146 0.93920654 0.32382187 0.11415158 0.0021223705
0.13270839 -0.043846399 0.15292282 -0.94124311 0.31232548 0.12850784 0.0012736368
-0.13505229 -0.036076128 0.15464777 0.96029252 0.24693419 0.12985274 0.00090703811
0.13518542 -0.033769373 0.1505146 -0.962834 0.23626582 0.13087834 0.00070067588
-0.1381502 -0.024170266 0.15456238 0.9772647 0.17232808 0.12351806 0.0019327773
0.13832077 -0.025148697 0.15681601 -0.97708768 0.1755929 0.12027764 0.0016752197
-0.1403026 -0.018154467 0.15936609 0.98500299 0.13142169 0.11179203 0.0020163516
-0.13959128 -0.014563626 0.15238743 0.98650736 0.1025595 0.12761149 0.0019387633
0.13971971 -0.014134876 0.15483724 -0.98796147 0.097945251 0.11974476 0.0017184702
0.14012331 -0.010525549 0.15808274 -0.99228752 0.062529892 0.10703076 0.0012188086
-0.14019606 -0.0047020339 0.15786791 0.9945389 0.024266023 0.10150661 0.00072793732
-0.13994549 -0.0075641265 0.15557301 0.99086392 0.056490995 0.12246414 0.0019503365
0.14028478 -0.0079663256 0.15931995 -0.99228883 0.062528573 0.1070192 0.0012157247
-0.13951218 0.0049235472 0.15256129 0.99133241 -0.026087495 0.12876093 0.0008032003
0.13952188 0.0056829676 0.1520617 -0.99048036 -0.055344831 0.12603807 0.0013701167
0.14004642 0.0044565815 0.15660456 -0.99314529 -0.030772584 0.11276285 0.001342028
-0.13987762 0.016506432 0.15631491 0.98790056 -0.10074003 0.11791489 0.0018522545
0.13982777 0.01326365 0.15426315 -0.98908049 -0.07848946 0.12473644 0.001835164
0.14010516 0.016159127 0.15729326 -0.98770285 -0.11301257 0.10803322 0.0019854105
-0.14001156 0.02018391 0.15949993 0.98602468 -0.13266566 0.10077377 0.0023034406
-0.13761801 0.026433459 0.1539395 0.97283322 -0.19259873 0.12845698 0.0018245344
0.13653715 0.0293875 0.15249026 -0.96924222 -0.20895129 0.13003404 0.0012517837
-0.1354268 0.03531076 0.15598635 0.95683044 -0.2665765 0.11581231 0.00046570701
0.1355246 0.034926273 0.15606849 -0.96325088 -0.24181221 0.11693814 0.00085477362
-0.1321158 0.046742912 0.15459733 0.93847668 -0.32572514 0.11473745 0.0015515789
0.132309 0.046636038 0.15475953 -0.9343524 -0.33658087 0.11704239 0.0021624314
