# .PCD v0.7 - Point Cloud Data file format
VERSION 0.7
FIELDS x y z normal_x normal_y normal_z curvature
SIZE 4 4 4 4 4 4 4
TYPE F F F F F F F
COUNT 1 1 1 1 1 1 1
WIDTH 557
HEIGHT 1
VIEWPOINT 0 0 0 1 0 0 0
POINTS 557
DATA ascii
0.098627798 0.075039916 -0.14346617 -0.803774 -0.59493381 0.0010577426 0.0035318278
0.1003724 0.072020099 -0.14712837 -0.8143329 -0.58039796 -0.00031951608 0.0029997961
-0.093083069 0.082371414 -0.14548488 0.73855674 -0.67414963 0.0074970988 0.0035427979
-0.088972546 0.085821308 -0.14373177 0.72186834 -0.69196332 0.0096359486 0.0029398827
0.086747058 0.087689131 -0.14510693 -0.69309968 -0.72082955 -0.0041814288 0.0019685894
0.092725895 0.08266364 -0.14500453 -0.73974097 -0.67287922 -0.004096007 0.0037007241
-0.081745043 0.091887251 -0.14703079 0.66813332 -0.7440384 -0.002155738 0.0012926533
-0.076062992 0.096656114 -0.14457828 0.61578572 -0.78791308 -0.00091120374 0.0011326846
0.075589709 0.097053334 -0.14546609 -0.61101788 -0.79161668 -0.0003652786 0.00083823781
0.081279628 0.092277877 -0.14420645 -0.65701669 -0.75386184 0.00463208 0.0013407512
-0.070709452 0.10114926 -0.14945123 0.58316725 -0.81235063 0.001509444 0.0027612131
-0.064655602 0.10594666 -0.1459156 0.53251767 -0.84633958 0.011583571 0.003454745
-0.058558315 0.109513 -0.14515345 0.47110876 -0.88199639 0.011787708 0.004411032
0.057406902 0.10993209 -0.14602028 -0.47036716 -0.88244975 -0.0060888743 0.0041066459
0.065933615 0.10507572 -0.14549521 -0.55487704 -0.83188426 -0.0089461869 0.0033162781
0.070526637 0.10130271 -0.14627054 -0.58473623 -0.81122297 0.00088742049 0.0020727259
-0.052880112 0.11157977 -0.14706372 0.43635726 -0.89973617 0.0081951311 0.0035745206
-0.04457207 0.11460378 -0.14657931 0.36668879 -0.93033189 0.0046741264 0.00079667696
-0.03448401 0.11827567 -0.14452268 0.29145169 -0.95658469 0.0013095277 0.0016018337
-0.029858029 0.11995947 -0.1450707 0.25213835 -0.96769089 -0.00084254722 0.0030966583
0.035200778 0.11801478 -0.14482699 -0.30761549 -0.95151055 -0.00063940667 0.00088701199
0.044584416 0.11459929 -0.14579841 -0.36843228 -0.92965454 0.00014956837 0.0009895484
0.054560535 0.11096813 -0.14650457 -0.44521737 -0.89541906 -0.0025134271 0.0036142261
-0.024311282 0.121889 -0.14465922 0.18709001 -0.9822892 -0.0102624 0.0041157966
-0.015754793 0.12293242 -0.14529879 0.1030672 -0.99467188 0.0022362492 0.0025129304
-0.0056383116 0.12293242 -0.14462665 0.049647965 -0.99876654 -0.00069447252 0.0014468575
0.0053506889 0.12293242 -0.14678308 -0.014994431 -0.99988711 -0.00098340376 0.00041852245
0.015060144 0.12293242 -0.14305905 -0.1006171 -0.99491924 0.003453979 0.0025306705
0.025516413 0.12153976 -0.14387371 -0.21249384 -0.97714257 0.0062255156 0.0031444314
-0.025444372 -0.12148601 -0.13596076 0.20776033 0.97816402 -0.005548019 0.0041958154
-0.0132549 -0.12293242 -0.13454655 0.093245573 0.99561679 -0.0072454936 0.0024475148
-0.0053326525 -0.12293242 -0.13437116 0.05330798 0.99857497 0.0025235543 0.0014398617
0.0040694908 -0.12293242 -0.13335927 -0.029128255 0.99957019 0.0033019844 0.0012592517
0.017304599 -0.12293241 -0.13713764 -0.14259291 0.98977882 -0.0022378569 0.0037822565
0.026376635 -0.12122665 -0.13505 -0.2253029 0.97428644 0.0021349923 0.0033428075
-0.052584704 -0.1116873 -0.13455433 0.4075872 0.91316497 0.0015534249 0.0028703669
-0.045962933 -0.11409753 -0.13525514 0.36725116 0.93012047 0.0015440998 0.00093756197
-0.033692069 -0.11856394 -0.13497221 0.28464419 0.95861298 0.0062351278 0.002309296
-0.029829882 -0.11996971 -0.13055158 0.24761358 0.96885359 0.0031918762 0.0030869355
0.033608563 -0.11859433 -0.13380834 -0.2681222 0.96336919 -0.0055056703 0.0027464374
0.044251062 -0.11472063 -0.13523827 -0.36139446 0.93240559 0.0037227962 0.0011277521
0.054359779 -0.11104121 -0.13741991 -0.43562487 0.90012473 -0.002529742 0.0030232924
-0.071194097 -0.10074252 -0.13448445 0.59306067 0.80515784 -8.1418235e-05 0.0019941253
-0.063315801 -0.10708563 -0.13495591 0.53372556 0.84558421 0.011151895 0.0035325515
-0.058215722 -0.1096377 -0.13497518 0.45874274 0.88845092 0.014496733 0.0034711037
0.058203202 -0.10964227 -0.13306834 -0.46324205 0.88618749 0.0088649178 0.0037666045
0.066360839 -0.10472588 -0.13390073 -0.55181044 0.8339166 0.0093958788 0.0032401572
0.070148274 -0.10162027 -0.13310584 -0.58788484 0.80887622 0.010519133 0.0019821646
-0.082229406 -0.091480747 -0.13569024 0.67506993 0.73775285 0.0010675271 0.0012365754
-0.072995275 -0.099230826 -0.13088869 0.60606003 0.7954163 0.0020459364 0.0011837882
0.075470611 -0.097153306 -0.13456503 -0.6107285 0.79183632 0.0024325016 0.00090240408
0.081200987 -0.092343889 -0.13682449 -0.6657548 0.74617046 -0.00029185746 0.0012836426
-0.09384381 -0.081732936 -0.13393201 0.74315727 0.66910875 0.0032869091 0.0044917078
-0.085652471 -0.088607818 -0.13772753 0.68256676 0.73082238 0.0011714306 0.0016367602
0.085776322 -0.088503875 -0.13403876 -0.69018841 0.72362858 -0.0012957348 0.0018678656
0.090859801 -0.084237374 -0.13540597 -0.71452665 0.69960821 -0.00012190018 0.0028757779
-0.1007039 -0.071446322 -0.13665093 0.8123613 0.58314431 -0.0034335507 0.003001058
-0.097660497 -0.076714262 -0.13607308 0.79958338 0.60055351 0.0013898613 0.0036821496
0.09812025 -0.075918444 -0.13389866 -0.80184799 0.59748465 0.0071983519 0.0032302714
0.10057753 -0.071665034 -0.13319018 -0.81448042 0.58007973 0.011359104 0.002501701
-0.10515523 -0.063741349 -0.13506645 0.85784924 0.51389867 0.0017121325 0.00034958494
0.10447847 -0.064912789 -0.13593832 -0.84413218 0.53610045 0.0060987268 0.0012301584
-0.11193535 -0.05200541 -0.13572209 0.90452278 0.42638201 -0.0060654059 0.0029313038
-0.10899118 -0.057101581 -0.13247833 0.88393855 0.46757469 0.0051504015 0.0014078413
0.10835314 -0.058205992 -0.13839813 -0.8857404 0.46418014 -0.00086268579 0.001001916
0.11033339 -0.054778311 -0.13806251 -0.89557731 0.44489911 -0.0024459846 0.0019264158
-0.11638039 -0.044311333 -0.13688126 0.93590236 0.35217524 -0.0077027944 0.003280927
0.11593436 -0.044965539 -0.13588841 -0.92978001 0.36810765 -0.0024463299 0.0030326464
-0.1186727 -0.034985915 -0.13455619 0.9602766 0.27898505 0.0060138693 0.0025443991
0.11882007 -0.034149513 -0.13317725 -0.96024668 0.27898803 0.0095949303 0.0030348368
-0.12059963 -0.024048029 -0.13487104 0.98166817 0.19059809 -0.00014039068 0.0011115882
-0.11962833 -0.02956143 -0.13535996 0.96968544 0.24431305 0.0046262722 0.0020837006
0.11971211 -0.029085938 -0.13225006 -0.970384 0.24152014 0.0047858604 0.0016913791
0.12067959 -0.023594139 -0.13527706 -0.98174232 0.19016826 -0.0042497972 0.0011021603
-0.12201551 -0.016010882 -0.13390693 0.9909519 0.13419802 0.0022962657 0.0011978729
0.12240663 -0.013790848 -0.13467535 -0.99034518 0.13861902 -0.0011021511 0.0005350869
-0.12438816 -0.002542984 -0.13641384 0.99883199 0.048224598 -0.0030080832 0.003695915
0.12377754 -0.0060090944 -0.13664502 -0.99816412 0.060564548 0.00067420397 0.003871094
-0.1238322 0.0056988117 -0.13387339 0.99921906 -0.039315816 0.003951008 0.0039202147
0.12390178 0.0053038369 -0.13478032 -0.99832004 -0.057886511 0.0024904374 0.0035560168
-0.12242092 0.013709666 -0.13509683 0.99288118 -0.11910886 0.00012497253 0.0015881775
0.12196294 0.016309407 -0.13684456 -0.98920906 -0.14651036 0.0003582729 0.00070611789
-0.12059393 0.024080342 -0.13645808 0.98029155 -0.19755578 0.00029439374 0.00094986754
-0.11978873 0.028650925 -0.13409121 0.97404617 -0.2263325 0.0027881169 0.0014090521
0.11975699 0.028831163 -0.13504721 -0.97382921 -0.22724764 0.0038954047 0.0014318383
0.12072593 0.023331081 -0.1359309 -0.98174441 -0.19019698 0.0017580675 0.0011115194
-0.11862247 0.035271049 -0.13301903 0.95586056 -0.2938208 7.1220391e-05 0.0026244579
0.11885367 0.033958726 -0.1355103 -0.96102452 -0.27640611 0.0056147403 0.002874275
-0.11530811 0.045896515 -0.13483983 0.9273212 -0.37419024 -0.0075557656 0.0026866051
0.1158263 0.045204002 -0.1337648 -0.93081719 -0.36543012 0.0063385922 0.0035483774
-0.11173758 0.052347716 -0.13797663 0.90463108 -0.42619535 0.00021571528 0.0031534736
-0.10910664 0.056901705 -0.13396108 0.87699002 -0.48050591 -0.0015955598 0.0006490529
0.10910765 0.05689998 -0.13501005 -0.8818056 -0.47160068 0.0034205257 0.00096417463
0.11274455 0.050604738 -0.13983478 -0.91279626 -0.40839782 0.0037745808 0.0034114842
-0.10495058 0.064095572 -0.13636197 0.85232943 -0.52300286 0.0016208602 0.0011601949
0.10469072 0.0645454 -0.13384804 -0.84714001 -0.53136837 -0.0012177605 0.0011455122
-0.10046086 0.071866997 -0.13963641 0.81532437 -0.57899171 -0.0038358374 0.0030840575
-0.098272234 0.075655371 -0.1367721 0.80275553 -0.59628987 -0.0046680262 0.0034209818
0.097705714 0.076635979 -0.13202868 -0.78833526 -0.61516434 0.010018053 0.0038532345
0.10098814 0.070954308 -0.13323982 -0.82198626 -0.56950235 0.0023604382 0.0028222646
-0.094619721 0.081081718 -0.13228464 0.76194382 -0.64764076 0.0017334596 0.004311596
-0.087765142 0.086834654 -0.1343213 0.71212292 -0.70205462 0.00060637284 0.002640473
0.087057263 0.087428786 -0.13732083 -0.70408875 -0.71011138 0.00091603887 0.0022280344
0.092732452 0.082644992 -0.13544883 -0.73433512 -0.67878717 -3.8271268e-05 0.0030673367
-0.082625315 0.091148458 -0.13561146 0.67649019 -0.73645163 0.00012730669 0.0012598494
-0.075054817 0.097502261 -0.13565393 0.60416383 -0.79685956 0.00090697972 0.0011912581
0.07647147 0.096313283 -0.1347575 -0.61903632 -0.7853539 0.0036463116 0.0010139676
0.081756637 0.09187752 -0.13405415 -0.66736442 -0.74473113 0.00044153101 0.0011131744
-0.063642487 0.10686279 -0.1343893 0.53597081 -0.84419882 -0.0079823416 0.0037170425
-0.058445711 0.10955397 -0.1346103 0.46495923 -0.88531542 0.0054312227 0.0038644697
0.059774354 0.10907038 -0.13851653 -0.48998925 -0.87172836 -0.00037169107 0.00419957
0.063552737 0.10685438 -0.1346966 -0.53180993 -0.84686375 0.00024018496 0.003101835
0.071067259 0.10084896 -0.13531849 -0.59226108 -0.8057453 0.001177477 0.0020233439
-0.053146243 0.11148291 -0.13529025 0.43939754 -0.89826065 0.0075807893 0.0038015784
-0.044038385 0.11479804 -0.13456546 0.34542954 -0.93844432 -0.00081579562 0.0005220059
-0.034897048 0.11812533 -0.13589522 0.30786541 -0.95142931 -0.0010827897 0.00086827052
0.03266038 0.11893946 -0.13389985 -0.30540314 -0.9522118 0.004657771 0.00095869147
0.044995837 0.11444952 -0.13378188 -0.36707205 -0.93019223 -0.00078192167 0.0010129011
0.054898653 0.11084505 -0.13429117 -0.44781154 -0.89412439 0.0025005573 0.0033887699
-0.024494963 0.12184539 -0.13602954 0.19988261 -0.97979593 -0.0068421219 0.0037016692
-0.016104279 0.1229324 -0.13326354 0.11995526 -0.99275506 0.0069407779 0.0032207337
-0.0051732594 0.12293243 -0.13646372 0.024883078 -0.99968266 0.0039211959 0.00069307402
0.0028439683 0.12293241 -0.13493954 -0.0011365223 -0.99999774 -0.0018143593 0.00044369136
0.013562104 0.12293241 -0.13512541 -0.072006382 -0.99740356 0.0010933186 0.0024595561
0.023464916 0.12225161 -0.13552381 -0.19398794 -0.98099643 0.0038339475 0.0041696406
-0.025236204 -0.1216035 -0.12432961 0.21090657 0.97749794 0.0040401989 0.0033761619
-0.01571944 -0.12293241 -0.12744382 0.11474028 0.99333674 -0.010811991 0.0032301736
-0.0049778861 -0.1229324 -0.12675652 0.045804147 0.99891222 -0.0087357406 0.0016556602
0.00584338 -0.12293242 -0.1251312 -0.053323068 0.99857432 0.0024386633 0.001790881
0.012361857 -0.12293242 -0.12294181 -0.067190014 0.99769413 0.0095821777 0.0022154741
0.024320483 -0.12187198 -0.12499742 -0.19641256 0.98052126 0.00029365747 0.0037702075
-0.053659867 -0.11129595 -0.12639318 0.41907418 0.90792948 -0.0063961702 0.0033782711
-0.043684348 -0.1149269 -0.12582551 0.34442452 0.93881291 0.0014736957 0.00049691735
-0.034496158 -0.11827126 -0.12519765 0.29402918 0.95579445 -0.0019587115 0.0020644928
-0.02996682 -0.11991987 -0.12376035 0.25416234 0.96714693 0.0053309235 0.0035412509
0.034299459 -0.11834285 -0.12565696 -0.29108357 0.95667636 -0.0063856645 0.0018550903
0.043628961 -0.11494706 -0.12462044 -0.35616463 0.93441111 0.0047498844 0.00032194649
0.055172842 -0.11074527 -0.12500162 -0.45134762 0.89217365 0.017652022 0.0029676789
-0.071855336 -0.10018755 -0.12845191 0.60456681 0.79654914 0.0029040554 0.0011760623
-0.065570302 -0.10546249 -0.12300978 0.55047125 0.83484453 0.004002613 0.0037353442
-0.058951117 -0.10937003 -0.12250993 0.47712335 0.87882537 0.0043835775 0.0045999107
0.058297228 -0.10960803 -0.12205313 -0.47153997 0.88168269 0.016902233 0.0038057449
0.064659804 -0.10608447 -0.12515229 -0.54510605 0.83835357 -0.0047660265 0.0037660038
0.071602687 -0.1003996 -0.12673779 -0.60428673 0.79675901 0.0035545197 0.0012344565
-0.082109623 -0.09158127 -0.12465451 0.67112923 0.74134034 -8.5081359e-05 0.0014936103
-0.075040065 -0.097514652 -0.12377034 0.60963064 0.79267502 0.0041038259 0.0011023991
0.075072005 -0.097487845 -0.12334412 -0.6129117 0.79014921 0.0019031676 0.00083529996
0.082075238 -0.091610134 -0.12454068 -0.67039347 0.74200523 -0.00097227236 0.0015840225
-0.092144974 -0.083158754 -0.12420428 0.71545887 0.69865012 0.0025676396 0.0030461787
-0.087321639 -0.087206893 -0.12534678 0.70182508 0.71233332 -0.0047627981 0.00241244
0.087537013 -0.087026142 -0.12505022 -0.70081311 0.71333569 0.0036386142 0.0023698553
0.092600763 -0.082776211 -0.12550737 -0.7354455 0.67753774 -0.0079091247 0.0034216254
-0.10081092 -0.071261086 -0.12399404 0.80921954 0.58750629 -0.00023395581 0.0028651874
-0.098265678 -0.075666718 -0.12568788 0.80390471 0.59475648 0.0013411888 0.0032205612
0.098013237 -0.076103672 -0.12483452 -0.80344719 0.59537446 0.0013837167 0.0031723748
0.10099211 -0.070947461 -0.12483927 -0.81907833 0.57366085 -0.0049012601 0.0029478853
-0.10365985 -0.066329747 -0.12433915 0.84618354 0.53287894 -0.0036766434 0.0012124117
0.10293363 -0.067586817 -0.12344618 -0.8397361 0.54292548 0.0086774752 0.0015147703
-0.1109883 -0.053644698 -0.12670936 0.89641446 0.44319347 -0.0045494358 0.0018268012
-0.10868923 -0.057624221 -0.12445822 0.87944067 0.4760077 -0.00085462024 0.0010051801
0.10862011 -0.057743888 -0.12718228 -0.87895936 0.47687918 -0.0040818215 0.0010979099
0.11226168 -0.051440582 -0.12861958 -0.91098505 0.41243777 -0.0011704756 0.0027826191
-0.11590176 -0.044956654 -0.12506787 0.93699414 0.34925386 -0.0079825688 0.0036336582
0.1158384 -0.045078248 -0.12462058 -0.93085247 0.36539304 -0.0012790641 0.0034767529
-0.11844935 -0.036253743 -0.12533833 0.95913565 0.28290695 -0.004748187 0.0029914263
0.118769 -0.034439415 -0.12450511 -0.95558172 0.29453453 0.010625103 0.0025661949
-0.12096344 -0.02198286 -0.12433274 0.9862349 0.16535002 0.00025069006 0.00063243805
-0.1197693 -0.028761195 -0.12482763 0.97354496 0.22848961 0.0016713542 0.0015961011
0.11980761 -0.028543826 -0.12696391 -0.97577059 0.21871498 -0.0059621618 0.0011583354
0.12065226 -0.02374929 -0.12457541 -0.9806686 0.19567296 0.0010561936 0.0010112727
-0.12193558 -0.016464725 -0.12597786 0.98907793 0.14737849 -0.0021134054 0.00066039065
0.12201979 -0.015986687 -0.12475526 -0.98891133 0.14849611 0.0018553967 0.00064114813
-0.12342118 -0.0080319447 -0.1244114 0.99662244 0.082049742 -0.0034000545 0.002797324
0.12397337 -0.0048975204 -0.12586842 -0.99914598 0.041261747 -0.0021563116 0.0040608859
-0.1241813 0.0037171883 -0.1235559 0.99941725 -0.032658454 -0.0099307643 0.0041135484
0.12426815 0.0032241987 -0.12523869 -0.99937838 -0.034396607 0.0077220234 0.0040631364
-0.12205263 0.015800208 -0.12474038 0.98936504 -0.14543362 -0.0024288092 0.00076936203
0.12229607 0.014418444 -0.1232154 -0.98959482 -0.14387719 0.0011855591 0.0005353475
-0.12050164 0.024604311 -0.12306961 0.97991425 -0.19940758 0.0021877433 0.00075271749
0.11968193 0.029257229 -0.12478195 -0.97310507 -0.23034529 -0.0027507585 0.0013424548
0.12074976 0.023195885 -0.12688677 -0.98409903 -0.17761151 -0.0017840299 0.00051398779
-0.11858029 0.035510462 -0.12307069 0.95541239 -0.29515195 0.0085146008 0.0032905962
0.11848196 0.036068726 -0.12637581 -0.95457751 -0.29782879 -0.008930142 0.0023357128
-0.11674802 0.043091677 -0.12673329 0.93771297 -0.34738603 -0.0041550077 0.0034415431
0.11554844 0.045466773 -0.12480304 -0.93460512 -0.35563216 -0.0062466874 0.0028471942
-0.11240264 0.051196538 -0.12245872 0.90910608 -0.41656396 0.00078240072 0.0031456107
-0.10826065 0.058366068 -0.12707031 0.87732589 -0.47987413 0.0044779475 0.00063626404
0.1086472 0.057696998 -0.12605447 -0.88048798 -0.4740679 0.00070194306 0.0011366612
0.11152582 0.052714303 -0.12592 -0.89921534 -0.43745965 -0.0063881273 0.0019923567
-0.1050544 0.063915871 -0.12464701 0.85820204 -0.51330829 -0.0019637027 0.00038936021
0.10463385 0.064643823 -0.12535402 -0.85192925 -0.52365673 -0.00053917145 0.00066100201
-0.10094015 0.071037374 -0.12385655 0.81139994 -0.58427262 -0.015992483 0.0027258352
-0.098039389 0.076058395 -0.1234723 0.80838096 -0.58864111 -0.0046678451 0.0031564205
0.098193586 0.075791501 -0.12524699 -0.79572493 -0.60557574 -0.00998805 0.0037821587
0.10022043 0.072283164 -0.12943538 -0.81409705 -0.58072251 -0.0026950915 0.0029552889
-0.090672344 0.084394693 -0.12546061 0.72325552 -0.69053477 -0.0079515204 0.0033021732
-0.085427277 0.088796794 -0.12484741 0.6789251 -0.73420036 -0.0032544171 0.0015489474
0.087727778 0.086866036 -0.12457766 -0.71019864 -0.70396399 0.0072530638 0.0029954829
0.092746347 0.082654014 -0.12558596 -0.73572057 -0.67725682 0.0061926171 0.0038832296
-0.082759418 0.091035903 -0.1249216 0.67187572 -0.74066281 0.0013013817 0.0016384287
-0.075743392 0.096924342 -0.12596528 0.60886002 -0.79327714 0.00086363946 0.001152151
0.076854087 0.095992163 -0.12238441 -0.61908412 -0.78532398 0.0010293559 0.0012265481
0.081881672 0.091772579 -0.12555023 -0.67181998 -0.74070996 0.0025533324 0.0015492619
-0.07068184 0.10117245 -0.12384474 0.58915693 -0.80801815 -0.00093416247 0.0022982981
-0.06544061 0.10548263 -0.1261548 0.55312103 -0.83310038 -0.00093714223 0.0031677831
-0.059546761 0.10915321 -0.12635554 0.49373326 -0.86958992 -0.0063963975 0.0041628578
0.058400311 0.1095705 -0.12708943 -0.47804019 -0.87832135 -0.0054038176 0.0040993369
0.064824268 0.10599482 -0.12498394 -0.5536446 -0.83274949 0.0024538268 0.0031534368
0.071276188 0.10067362 -0.12209103 -0.59295642 -0.80523252 0.0017843244 0.0019945537
-0.052607629 0.11167896 -0.12378529 0.4239901 -0.9056142 -0.0097656259 0.0032358253
-0.044383388 0.11467245 -0.12557417 0.36301619 -0.93177885 -0.0027161594 0.00072813424
-0.035689369 0.11783694 -0.12285935 0.30899397 -0.95105118 -0.0049407696 0.00082039845
0.034031022 0.11844056 -0.12597166 -0.30480024 -0.95240068 -0.0054606842 0.00093771185
0.045522433 0.11425786 -0.12551774 -0.36624417 -0.93051374 -0.0030526172 0.00088717462
0.053713724 0.11127636 -0.1251877 -0.44349036 -0.89627814 -0.0013442226 0.0032517833
-0.024847431 0.12166926 -0.12416998 0.19281749 -0.98122615 -0.0040761083 0.0040716506
-0.014047232 0.1229324 -0.12510748 0.086079992 -0.99628776 0.00094072585 0.0024211246
-0.0058660908 0.12293243 -0.12547809 0.041111145 -0.99910933 -0.0095022516 0.00091827562
0.0042703305 0.12293242 -0.12469688 -0.010040111 -0.99994099 0.0041480418 0.00033061183
0.015591127 0.12293242 -0.12475353 -0.091394864 -0.99579191 0.0067454139 0.0026378422
0.024166211 0.12201612 -0.12609379 -0.20885137 -0.97794276 -0.00301331 0.003434659
-0.024785278 -0.12175407 -0.11606009 0.20284398 0.97921026 0.0012469043 0.0032739101
-0.016104713 -0.1229324 -0.1138622 0.11272522 0.99359733 0.0075737778 0.003339475
-0.0046962895 -0.12293242 -0.11669788 0.042518772 0.99909192 0.0027349312 0.00097573537
0.0057031 -0.12293242 -0.11612013 -0.044156052 0.99902153 0.0024816797 0.0013723117
0.013967784 -0.12293243 -0.11499471 -0.10602756 0.99435717 0.0034786088 0.0023469504
0.025386356 -0.1215871 -0.11274315 -0.21101686 0.97747135 0.0046477281 0.0028455025
-0.055127483 -0.11076177 -0.11667485 0.43482009 0.90049368 0.0065370151 0.0033678985
-0.043939929 -0.11483387 -0.11357009 0.34493515 0.93862331 0.0024556245 0.00039586847
-0.034496866 -0.118271 -0.11677925 0.30892572 0.9510811 -0.0031046327 0.00090578402
-0.029916627 -0.11993814 -0.11540569 0.25234118 0.96763462 -0.0026804607 0.0031998162
0.034186907 -0.11838382 -0.11624352 -0.28858793 0.95743304 -0.0062351003 0.0019214844
0.044149056 -0.11475775 -0.11584098 -0.35212338 0.93595344 -0.00045193074 0.00022443848
0.053934604 -0.11119596 -0.11426894 -0.44191301 0.89701784 0.0084821824 0.0033757533
-0.070909418 -0.10098145 -0.11400941 0.59991699 0.80005926 0.0021732007 0.0014223913
-0.064186119 -0.1066142 -0.11600307 0.53365308 0.84562528 -0.011496483 0.0036072894
-0.059094973 -0.10931766 -0.11178987 0.48112819 0.87661529 0.0078277932 0.0041002878
0.058482945 -0.10954043 -0.11506142 -0.47159293 0.88177079 0.0089650629 0.0039638928
0.063691802 -0.10688085 -0.11405439 -0.53033906 0.84776771 0.0055256076 0.0032156038
0.071212478 -0.1007271 -0.11872705 -0.60506594 0.79617453 -0.0011465424 0.0010402893
-0.081608437 -0.092001915 -0.11477854 0.65691769 0.75396127 0.0013109915 0.0015778242
-0.074761972 -0.097748064 -0.11760603 0.61640471 0.78742903 -0.00087748823 0.001062724
0.075839356 -0.096843824 -0.11242561 -0.61637473 0.78745103 -0.0017220185 0.0011150237
0.082178593 -0.091523387 -0.11572452 -0.66622114 0.74575037 0.0024221253 0.0012917825
-0.092896044 -0.082525536 -0.1150812 0.74105811 0.67143774 0.0020572841 0.0038944981
-0.08679761 -0.087646708 -0.11782308 0.69684452 0.71722227 -0.00023751883 0.0023862594
0.087083615 -0.08740668 -0.11454894 -0.70771575 0.70649725 -0.00024495248 0.0026721775
0.092077076 -0.083215736 -0.11308664 -0.7353723 0.67762429 0.0072707771 0.0036735297
-0.10072605 -0.071407974 -0.11516301 0.81176883 0.58396554 -0.0039522583 0.0034448982
-0.096942246 -0.077957496 -0.11444741 0.78666466 0.61733693 0.0073268823 0.0043051764
0.096911497 -0.078010701 -0.11475082 -0.78174871 0.623375 -0.016507696 0.003989941
0.10095727 -0.071007766 -0.11628842 -0.81073236 0.58541673 0.00040192742 0.0029084599
-0.103555 -0.066511236 -0.11615542 0.84248608 0.53871757 -0.00077533489 0.001586845
0.10485705 -0.064257517 -0.11302982 -0.85125548 0.52475005 -0.0012086573 0.00092384429
-0.1117103 -0.052394945 -0.11683773 0.90580219 0.42370081 0.0003267861 0.0027551083
-0.10824839 -0.058387294 -0.11425526 0.87623799 0.48187834 0.00050547195 0.0011232407
0.10831179 -0.058277562 -0.11448342 -0.87725234 0.48001865 -0.0032210962 0.0014422787
0.11141953 -0.052898291 -0.11621006 -0.902403 0.43083352 0.0071613532 0.0023358767
-0.11578354 -0.04511968 -0.11640193 0.9323312 0.3615934 -0.0029629143 0.0031283575
0.11613245 -0.043979678 -0.11435991 -0.93567204 0.35282746 0.005545584 0.003451624
-0.11900634 -0.033092093 -0.11340531 0.96152812 0.2746405 0.0060210922 0.0027378215
0.11864438 -0.035146773 -0.11389276 -0.95752889 0.28833729 0.00041186888 0.0028527237
-0.12053093 -0.024437921 -0.11489032 0.98048294 0.19659097 0.0022824458 0.0011102823
-0.11999184 -0.027498027 -0.11266799 0.9743979 0.22467183 -0.0084455032 0.0014538595
0.11969391 -0.029189289 -0.11627245 -0.9735117 0.2286292 -0.0018884556 0.0014912094
0.12085913 -0.022575041 -0.11741346 -0.98433042 0.1763335 -0.0003230788 0.00056648644
-0.12237649 -0.013961937 -0.11478497 0.99228114 0.12400224 0.0012344695 0.0014331009
0.12218709 -0.015037083 -0.11510883 -0.98887986 0.1487148 -0.00071155006 0.00054682337
-0.12381208 -0.0058129961 -0.11389981 0.99717349 0.075133048 3.5065739e-05 0.0027965649
0.12428939 -0.0031036593 -0.11431656 -0.99946123 0.030392928 0.012387153 0.0037838274
-0.12387539 0.0054536304 -0.11275433 0.99891514 -0.046566006 0.00048704006 0.0042168377
0.12386299 0.0055240053 -0.1137161 -0.99835682 -0.057014592 0.005746867 0.003585536
-0.12215509 0.015218675 -0.11479052 0.9916442 -0.12900144 -0.0005900723 0.0013930019
0.1221389 0.01531055 -0.11308204 -0.99138635 -0.13091524 -0.0037784507 0.0010203187
-0.12055907 0.024278129 -0.11570677 0.97976094 -0.2001525 0.0027266764 0.00067919301
-0.11974304 0.028910251 -0.11260349 0.97433543 -0.2250789 0.0031738374 0.0015313721
0.11969896 0.029160585 -0.11646215 -0.97272909 -0.23179977 -0.008182006 0.0014595081
0.12081628 0.022818286 -0.11630726 -0.98364526 -0.18011649 -2.3534913e-06 0.00060107611
-0.11878409 0.034353547 -0.11206969 0.96082127 -0.27712715 -0.004793806 0.0030144437
0.11869224 0.034875099 -0.1149722 -0.96069044 -0.27757338 -0.0051860642 0.0027154523
-0.11683965 0.043063521 -0.11462987 0.94348913 -0.33132726 0.0071053384 0.0035201665
0.11591315 0.044838037 -0.11440744 -0.93030536 -0.36678597 0.00030131979 0.0026895399
-0.11140468 0.052923948 -0.11516956 0.89634663 -0.44334975 -0.0018893256 0.0018953475
-0.10908292 0.056942753 -0.11704747 0.88461554 -0.46628684 0.0056565087 0.00087460398
0.10889111 0.057274789 -0.11122865 -0.88454247 -0.46645889 0.00084143819 0.0010138393
0.11170226 0.052408878 -0.11289783 -0.89858663 -0.43874475 0.0067128851 0.0022089682
-0.10640208 0.061583113 -0.11588522 0.86385089 -0.50373799 0.0031148975 0.00066069805
0.10462147 0.064665273 -0.11495767 -0.84789002 -0.53016758 0.0021684701 0.0011268929
-0.10082208 0.071241744 -0.11370639 0.80994719 -0.58640367 0.010783463 0.0027859453
-0.097318284 0.077306591 -0.1150052 0.78795457 -0.61573297 -0.00069579261 0.0035678342
0.098010674 0.076108113 -0.11373683 -0.7954672 -0.60599375 -0.001889552 0.0042426731
0.10062134 0.071589224 -0.11389604 -0.81592274 -0.5781433 -0.0045034587 0.0033309853
-0.092808627 0.082601748 -0.11643339 0.73034084 -0.6830802 -0.0019298566 0.003388864
-0.08636824 0.08800707 -0.11595898 0.67886055 -0.73426718 0.00019046213 0.0014154284
0.086785883 0.087656543 -0.11442306 -0.69698882 -0.71706653 0.004704053 0.0021897221
0.092832789 0.082581468 -0.11416793 -0.72602022 -0.68749923 0.01547392 0.0031152098
-0.081492893 0.092098877 -0.11572507 0.66088796 -0.75048405 0.00086831243 0.0016587103
-0.076421387 0.096355319 -0.11476228 0.61445737 -0.78894329 -0.0032452184 0.0012513744
0.076369397 0.096398965 -0.11671855 -0.61762118 -0.78647363 -0.0018188274 0.0013474635
0.081962481 0.091704756 -0.11769117 -0.66944277 -0.74286211 -0.0015003347 0.0013421307
-0.070759848 0.10110696 -0.11669464 0.5862056 -0.8101601 0.0018922354 0.0022295753
-0.063910678 0.10672052 -0.11690463 0.54161274 -0.84062666 -0.0015795028 0.0037064161
-0.058036134 0.10970305 -0.11505606 0.4672035 -0.88397467 0.017599767 0.004250681
0.058829919 0.10941413 -0.11199442 -0.4818491 -0.87624282 0.0044795754 0.0045812693
0.064404637 0.10637774 -0.11538693 -0.53788346 -0.84301448 0.0028070246 0.0038173629
0.070181876 0.10159205 -0.11211977 -0.58717108 -0.80945319 0.0039623724 0.0020345578
-0.053691119 0.11128458 -0.11614233 0.43004265 -0.90280569 -0.0022655521 0.0036933993
-0.044780731 0.11452783 -0.1167189 0.36720228 -0.93013889 0.0020227481 0.00083307736
-0.032365423 0.11904681 -0.11487334 0.26549941 -0.96410728 -0.0026790795 0.0027661503
0.032925434 0.11884297 -0.11214401 -0.2784307 -0.96045166 -0.0030053682 0.0028227875
0.044826653 0.11451111 -0.1176171 -0.36398834 -0.93140352 -0.0001178596 0.00075127906
0.053458653 0.11136919 -0.1136869 -0.44363129 -0.89617926 0.0073427628 0.0036417949
-0.027435096 0.12084138 -0.11333095 0.25155982 -0.9678095 0.0079049543 0.0028936134
-0.015350165 0.12293242 -0.11556531 0.11085515 -0.99382412 -0.0049795262 0.002382905
-0.0049065473 0.12293242 -0.114839 0.030804139 -0.99950463 -0.0064555784 0.0011130399
0.0038153045 0.12293242 -0.11418906 -0.033879686 -0.99942535 -0.0010551413 0.0010581204
0.015137089 0.12293242 -0.11675954 -0.090856589 -0.99586213 -0.0019241401 0.0023481997
0.024018029 0.12201662 -0.1149139 -0.18948893 -0.98187387 -0.0042111827 0.0040186429
-0.02417488 -0.1219798 -0.10494234 0.19235086 0.98127902 -0.0096237259 0.0038179622
-0.014774708 -0.12293242 -0.10607009 0.09781225 0.99519706 -0.0039355834 0.0023619349
-0.0047240397 -0.12293242 -0.10469376 0.029382216 0.99956793 0.00084066653 0.00058141095
0.0053490619 -0.12293242 -0.10356773 -0.026794942 0.9996357 -0.0032394673 0.0014313326
0.014704418 -0.12293241 -0.10578811 -0.098633774 0.99512327 -0.00098451728 0.0027439771
0.022028362 -0.1227532 -0.10414891 -0.17139436 0.98518062 -0.006573379 0.0041636345
-0.053933226 -0.11119647 -0.10564115 0.43006304 0.90279102 -0.0037505527 0.0033031181
-0.043736305 -0.11490799 -0.10534562 0.36485121 0.93106258 0.0024672283 0.00073591608
-0.035161097 -0.11802923 -0.10611816 0.31167135 0.95017439 -0.0054486333 0.00072725548
0.034195222 -0.11838081 -0.10180876 -0.28462595 0.95863867 -0.00025115657 0.0023592319
0.044821214 -0.11451309 -0.10451544 -0.36783016 0.92989284 -0.00054154667 0.00092715991
0.053683624 -0.11128732 -0.10249122 -0.4513925 0.89232469 -0.0012056528 0.0037116217
-0.070052356 -0.10170078 -0.10080624 0.57434803 0.81860512 -0.0031707047 0.0026051586
-0.064112425 -0.10646637 -0.10488875 0.53662401 0.84382117 0.00066540297 0.0033539142
-0.058584955 -0.10950331 -0.10760006 0.48858392 0.87251031 0.0033715647 0.0040369928
0.059084497 -0.10932148 -0.10638136 -0.48317221 0.87540877 -0.014286628 0.0044869096
0.065465517 -0.1055104 -0.10508294 -0.5581224 0.82970661 -0.009288827 0.0033759456
0.070911221 -0.10097993 -0.10686842 -0.59147823 0.80627173 -0.0089047663 0.0020869216
-0.081780426 -0.09185756 -0.10523412 0.6653825 0.74650067 0.0016807129 0.0015223636
-0.075633436 -0.097016662 -0.1038032 0.6185528 0.78574097 0.001882128 0.0009997033
0.076237924 -0.096509308 -0.10444987 -0.62096047 0.78384113 -0.0010834963 0.0012566013
0.082775064 -0.091022782 -0.10600243 -0.67219347 0.74037486 -0.00098414393 0.0016092502
-0.093268514 -0.082215779 -0.10436261 0.75852758 0.65161526 0.0057859477 0.003688501
-0.086922534 -0.087541871 -0.10377458 0.69895738 0.71508062 0.010878631 0.0026178348
0.087544858 -0.087019555 -0.10189784 -0.70099092 0.71315753 0.004246972 0.0025814089
0.093226656 -0.082250915 -0.10626016 -0.75351304 0.65741354 -0.0050488701 0.0038492922
-0.10116021 -0.070656478 -0.10111989 0.81945938 0.5731371 0.00053483137 0.0029504583
-0.09750434 -0.07698454 -0.10533687 0.7869662 0.6169523 0.0073573561 0.0040283045
0.098079942 -0.075988211 -0.10340057 -0.80025196 0.59959859 0.0088526458 0.0038650325
0.1008395 -0.071211606 -0.10351775 -0.82107615 0.57081854 0.00032276416 0.002503966
-0.10512278 -0.063797504 -0.10374954 0.84862673 0.528992 0.00034552295 0.00097947835
0.10396609 -0.065799683 -0.10794449 -0.84488153 0.53494394 -0.0031972181 0.0013147622
-0.11051483 -0.054464206 -0.10525461 0.8994022 0.43711916 -0.001600283 0.0022443866
-0.108787 -0.057454985 -0.10358603 0.87949097 0.47591045 -0.0022030333 0.0011087637
0.10883425 -0.057373203 -0.10570379 -0.88034779 0.47431755 0.0032605564 0.0012629965
0.11159424 -0.052595865 -0.10423497 -0.90153807 0.4326306 0.0077436925 0.0021437316
-0.1162442 -0.044302959 -0.10653248 0.93744457 0.34813091 -0.0015760581 0.0030253753
0.1151777 -0.046393126 -0.10329612 -0.92573678 0.37816396 0.0018436965 0.0031200938
-0.11863586 -0.035194959 -0.1061945 0.95609111 0.29299861 -0.0064499704 0.0025402147
0.11907337 -0.032711674 -0.10622314 -0.96419811 0.26515394 -0.0039234022 0.0025456976
-0.12083542 -0.02270953 -0.10782912 0.98560065 0.16907467 -0.0022771026 0.00069917378
-0.11971562 -0.029065931 -0.10667729 0.97296667 0.23091128 -0.0039713169 0.0015956343
0.1197762 -0.028722094 -0.1032957 -0.97357941 0.22832847 0.0030499313 0.0014886148
0.12102072 -0.021657759 -0.10425451 -0.98615265 0.16583997 0.00019341309 0.00066445203
-0.12197154 -0.016260508 -0.10487739 0.98869348 0.14994828 0.00087350915 0.00044055705
0.12273463 -0.011929075 -0.10426948 -0.99487799 0.10108242 -0.00035031291 0.0021957962
-0.12404422 -0.0044952789 -0.10551935 0.99772727 0.066289544 0.012081373 0.0028048388
0.12382776 -0.0057240538 -0.10239096 -0.99729002 0.072993681 0.009195949 0.0025375909
-0.12394083 0.0050822087 -0.10522028 0.99878615 -0.048400514 0.0091398433 0.0039398791
0.12394457 0.0050609489 -0.10443855 -0.99809754 -0.061648581 0.00084029749 0.0035226867
-0.12204887 0.015821561 -0.10695913 0.98880953 -0.14916098 0.0025917599 0.00082545076
0.12209229 0.015575185 -0.10443624 -0.99191612 -0.12685025 -0.0033711393 0.0010835443
-0.12030169 0.025739158 -0.10462908 0.97927117 -0.20246801 -0.0058896397 0.00079087296
0.11979777 0.028599679 -0.1049425 -0.97223037 -0.23402122 -0.0014481934 0.0016925526
0.12054367 0.024365662 -0.10575134 -0.979276 -0.20252974 0.0005137588 0.0010074046
-0.11844239 0.036293246 -0.10461256 0.9578433 -0.28728193 -0.0022916358 0.0030353651
0.11896695 0.033315692 -0.10678343 -0.96324652 -0.2684474 -0.0096037183 0.0025983532
-0.11650746 0.043839015 -0.10546813 0.93577194 -0.35242108 -0.0114108 0.0033631329
0.11449271 0.047578819 -0.10409532 -0.92013723 -0.39159495 0.00088818884 0.0031330124
-0.11192326 0.052026309 -0.10474513 0.90332144 -0.42886797 -0.0090920618 0.0023661302
-0.10881929 0.057399102 -0.10433298 0.87970829 -0.47549319 -0.0044151582 0.0011383033
0.10898925 0.057104938 -0.10622004 -0.8806814 -0.473708 0.0010159692 0.0012678732
0.11163344 0.052528013 -0.10317755 -0.90832961 -0.41815123 0.0093250731 0.0028402153
-0.10448488 0.06490168 -0.10319517 0.84801769 -0.52996707 -0.00093321758 0.0011526441
0.10485581 0.064259619 -0.10479131 -0.85388505 -0.52043474 -0.0052853804 0.00060833857
-0.098663576 0.074977964 -0.10452026 0.80933827 -0.58731192 0.0060260561 0.0031186743
0.098359287 0.07550469 -0.1065984 -0.80501926 -0.5932405 -0.0031232098 0.0035590138
0.10031325 0.072122514 -0.10937128 -0.82050985 -0.57162613 -0.0026939292 0.0029737668
-0.093157642 0.082308829 -0.10500979 0.75362986 -0.65719491 -0.01169856 0.0041857287
-0.086871818 0.087584428 -0.10732972 0.70387232 -0.71030968 -0.004891023 0.0020923214
0.086368538 0.088006809 -0.10346842 -0.68002844 -0.73314816 0.0074292808 0.0012936847
0.093086816 0.082368262 -0.10455847 -0.73877859 -0.67393386 0.0044048843 0.004047445
-0.082252972 0.091460951 -0.10245094 0.67221713 -0.74035317 -0.0011507402 0.001198607
-0.07489311 0.097637989 -0.10427075 0.61032176 -0.79215312 -0.00089797343 0.0010008528
0.075815305 0.096863985 -0.10516959 -0.60976517 -0.79257768 -0.0026163647 0.00099597196
0.081404679 0.092172913 -0.10838142 -0.66090119 -0.75046712 0.0029399644 0.0012357343
-0.071353808 0.10060845 -0.1051181 0.58221048 -0.81302166 -0.0051652784 0.0024121923
-0.063242748 0.1069592 -0.10430213 0.53401399 -0.84538293 0.01252342 0.0034731545
-0.058384866 0.10957613 -0.10470311 0.4483158 -0.89387518 6.5031061e-05 0.0038547628
0.058455739 0.10955033 -0.10632451 -0.47656131 -0.87908733 -0.0097317798 0.0040917126
0.06440112 0.10630459 -0.10466518 -0.53949875 -0.84185869 0.014669381 0.0035617484
0.070575543 0.10126166 -0.10663933 -0.58926535 -0.80789858 -0.0081442185 0.0017230191
-0.053649224 0.11129982 -0.10307903 0.42613792 -0.90460628 0.0096917208 0.0033799356
-0.044938333 0.11447046 -0.10470254 0.36717635 -0.93015027 -0.001405379 0.00095800968
-0.034303654 0.11834132 -0.10340275 0.28760427 -0.95774895 0.00081671029 0.0018764703
0.034670498 0.1182078 -0.10398649 -0.28383863 -0.95885134 -0.0063111316 0.0019586505
0.041647837 0.11566815 -0.10355601 -0.32945454 -0.94417137 -2.7354847e-05 0.00089580484
0.053847816 0.11122754 -0.10523493 -0.44554421 -0.89525682 -0.0023535758 0.0033514993
-0.025778949 0.12138896 -0.10555692 0.22146137 -0.97515225 -0.0057497704 0.0029924556
-0.014676958 0.12293242 -0.10485893 0.09226539 -0.99567777 -0.010628064 0.0023936587
-0.0049521774 0.12293242 -0.10621543 0.0483169 -0.99882817 -0.0027803734 0.0015832406
0.0064628506 0.12293242 -0.10408858 -0.049864843 -0.9987421 0.0052619241 0.0016918513
0.013970473 0.12293243 -0.10447956 -0.10294014 -0.99467993 0.0038919719 0.0033906109
0.023291774 0.1222711 -0.10533469 -0.16592921 -0.98613763 0.0001685024 0.0047040796
-0.023850992 -0.12206179 -0.096943349 0.19608371 0.98058462 0.0022269632 0.0039347555
-0.016165242 -0.12293242 -0.09542644 0.10977982 0.99394393 0.0048926333 0.0027500647
-0.0052649407 -0.12293242 -0.094103172 0.034404572 0.999403 0.0031519528 0.0011307623
0.0073452401 -0.12293242 -0.095935538 -0.055682804 0.9984479 -0.0010916966 0.0019317189
0.014375103 -0.12293241 -0.096330523 -0.11167572 0.99372393 -0.0064335386 0.0025671371
0.025922921 -0.12134226 -0.09573435 -0.21754923 0.97603625 0.0050624805 0.0030618072
-0.052911989 -0.11156819 -0.093650922 0.44395986 0.89601511 -0.0075153741 0.0035169898
-0.045225359 -0.11436601 -0.094465032 0.37769538 0.92590976 -0.0061034323 0.0012621792
-0.034020875 -0.11844424 -0.092802547 0.29605502 0.95517075 0.00036580005 0.0017894052
0.03474256 -0.11818157 -0.094960749 -0.29203087 0.95639956 0.004229778 0.0017016778
0.045427606 -0.11429238 -0.095042467 -0.36831141 0.9297024 8.1403829e-05 0.00084287958
0.054525148 -0.11098102 -0.095988691 -0.43862614 0.89866596 -0.0025463365 0.0035421925
-0.066369034 -0.10464232 -0.0945049 0.56152016 0.82745212 -0.0042499425 0.0031414281
-0.05910369 -0.10931449 -0.094618425 0.46944541 0.88286614 -0.012977872 0.0041640988
0.05908107 -0.10932273 -0.095435105 -0.47179201 0.88166982 -0.0083990106 0.0040834439
0.065816499 -0.10525586 -0.09442272 -0.55257267 0.83330572 -0.016282286 0.0034663749
0.071191028 -0.1007451 -0.095980495 -0.58724332 0.80939454 -0.0050820964 0.0020771381
-0.081325509 -0.092239372 -0.096429132 0.66483241 0.74699056 -0.0017163919 0.0011840798
-0.076255761 -0.096494347 -0.093214482 0.60992855 0.79245561 -0.0011214929 0.0011150227
0.076914653 -0.095941342 -0.094837822 -0.61793476 0.78621495 -0.0047657229 0.0012276752
0.081623048 -0.091989651 -0.097157866 -0.66131866 0.75009966 0.0028514436 0.0012834525
-0.094021551 -0.081583776 -0.094514631 0.76294518 0.64642709 -0.0068309922 0.0042212419
-0.088532366 -0.08619076 -0.095373631 0.71144915 0.70269918 -0.0073440704 0.0031914508
0.088445239 -0.08626388 -0.09492521 -0.71371496 0.70042354 0.0042334194 0.0030220624
0.092431553 -0.082918227 -0.094130516 -0.73862481 0.67404824 0.0096109305 0.0035174703
-0.10039249 -0.071985334 -0.094292536 0.81278485 0.58256179 -0.0016120062 0.0034800628
-0.098342128 -0.075534381 -0.094048716 0.80403358 0.59458375 0.00040908076 0.0034870822
0.097957619 -0.076199956 -0.095318921 -0.80113012 0.59848994 -0.00054397073 0.0037064794
0.10049298 -0.071811393 -0.094237879 -0.81704956 0.57651544 0.0077436939 0.0024569209
-0.10505676 -0.063911796 -0.094993755 0.85411149 0.52008986 0.00012013402 0.00064726506
0.10493311 -0.064125843 -0.095405318 -0.84614092 0.53295833 0.00090981921 0.00124079
-0.11187432 -0.052111048 -0.09543591 0.90756947 0.41989723 -0.0019563511 0.0026235681
-0.1086947 -0.057614751 -0.091804437 0.87496161 0.48418611 0.0024389126 0.00081157999
0.10785432 -0.05906941 -0.095357463 -0.87335789 0.48707539 -0.0018775446 0.0010394403
0.11209639 -0.051726669 -0.093157388 -0.90658504 0.42202249 0.00075688254 0.0027652255
-0.11499745 -0.046705119 -0.093943432 0.92519635 0.37942782 0.0067919744 0.0032918397
0.11668789 -0.043744747 -0.095126808 -0.934789 0.35513607 -0.006917384 0.0037083803
-0.11851428 -0.035885163 -0.096139498 0.95696902 0.29008633 -0.0077576977 0.0026807254
0.11864229 -0.035158664 -0.094545163 -0.96025866 0.27911174 -0.00015248609 0.0028733069
-0.12060016 -0.024044953 -0.096231125 0.97967058 0.20057508 -0.0039049734 0.00094797678
-0.11989993 -0.028019756 -0.095427513 0.97222161 0.23405142 -0.002247639 0.0018304766
0.11986291 -0.028229974 -0.093140841 -0.97391123 0.22692831 -0.00071222568 0.0015563876
0.12061986 -0.023933223 -0.093708992 -0.98046529 0.19666976 -0.0029742792 0.0011551536
-0.12198281 -0.016196534 -0.095090702 0.99160594 0.12929551 0.00055810064 0.0010961614
0.12209786 -0.015543488 -0.095027447 -0.99126482 0.13188481 -0.00061328249 0.0011605666
-0.12393592 -0.0051100473 -0.094273083 0.99833071 0.055724885 0.015186633 0.0034308962
0.12380837 -0.0058340728 -0.094838284 -0.99717963 0.075040653 0.0012912116 0.0029396927
-0.12427014 0.0032129157 -0.095665537 0.99969864 -0.024052327 -0.0049110302 0.0044712978
0.12402726 0.0045915274 -0.094911538 -0.99940318 -0.034257311 0.0044536795 0.0039110165
-0.12263453 0.012497195 -0.093569733 0.99275625 -0.11998873 0.0061410395 0.0016836122
0.12263107 0.012516806 -0.096641965 -0.99476898 -0.10213039 -0.0020404519 0.002209825
-0.12051485 0.024529256 -0.094915316 0.98100996 -0.19394961 -0.0017469549 0.0011933495
-0.1196429 0.029478718 -0.098762423 0.97246277 -0.23305474 -0.0012679592 0.0018521998
0.11972091 0.029035961 -0.095390975 -0.9691394 -0.2464992 -0.0026303837 0.0020697669
0.12040631 0.025145406 -0.094956845 -0.97510439 -0.22170703 0.0041623604 0.0013492109
-0.11899044 0.03318233 -0.093311489 0.9580676 -0.28653347 -0.0022397407 0.0027666234
0.11878328 0.034358241 -0.096191093 -0.95658624 -0.29144409 0.0017147525 0.0025250646
-0.1159623 0.044749085 -0.094833404 0.92926502 -0.36941132 0.0013670139 0.0024935999
0.11578882 0.045032553 -0.096324623 -0.93225366 -0.36175638 -0.0059454171 0.0026800886
-0.11159336 0.05259737 -0.09239918 0.9033078 -0.42898953 -0.0016989572 0.0025266083
-0.10838778 0.058145996 -0.098009594 0.87915903 -0.47652844 -5.6787587e-05 0.0013604067
0.10943903 0.056326382 -0.091578335 -0.89025557 -0.45542312 0.0059043937 0.0014906888
0.11114752 0.053369101 -0.096007824 -0.90449631 -0.42648131 -0.0003931892 0.0026294678
-0.10447069 0.064926244 -0.094942041 0.84767431 -0.53050613 -0.0033954994 0.00099014444
0.1056781 0.062836319 -0.094915979 -0.85384738 -0.52052283 -0.00077316142 0.00070893532
-0.100894 0.071117245 -0.091109946 0.82288605 -0.56817877 0.0056142709 0.0026181291
-0.098561279 0.075155035 -0.094023131 0.8009513 -0.59872949 -4.7888927e-05 0.0039487234
0.097496442 0.076998211 -0.094944827 -0.79883713 -0.60154486 0.0017406801 0.004226828
0.10060137 0.071623802 -0.09396407 -0.82610601 -0.56350017 0.0040506702 0.0023755655
-0.092117094 0.083182134 -0.095826834 0.73108315 -0.68223423 -0.0086014532 0.003626219
-0.088715985 0.086036637 -0.094592839 0.72157484 -0.69233513 0.0013537465 0.0028384542
0.088190787 0.086477429 -0.096100509 -0.70715541 -0.70705223 0.0029061388 0.0030055181
0.09364938 0.081896111 -0.096528783 -0.73967534 -0.67292041 -0.0076460782 0.0033286803
-0.082369067 0.091363527 -0.094889633 0.66797847 -0.74417633 -0.0025083793 0.0014230699
-0.076995261 0.095873669 -0.094962247 0.61934 -0.78511697 0.0030476984 0.0013567976
0.076639168 0.096172534 -0.094511718 -0.61668068 -0.78721267 -0.0010746159 0.0011100776
0.082111537 0.091579653 -0.094553687 -0.66601962 -0.74593341 0.0011500074 0.00074874802
-0.064090334 0.10643186 -0.095327303 0.52409536 -0.85165656 -0.0022658738 0.0034501106
-0.059066739 0.10932793 -0.093092807 0.47984067 -0.87735367 -0.0018673604 0.0047919801
0.057314768 0.10996562 -0.092193201 -0.45724106 -0.88932443 -0.0057075461 0.0034093633
0.063837111 0.10670973 -0.094116628 -0.51289701 -0.8583777 -0.011151707 0.0039631482
0.072075322 0.10000291 -0.097376138 -0.59700173 -0.80222708 -0.0045256577 0.0017640264
-0.052726328 0.11163574 -0.095992297 0.41732848 -0.90875256 -0.0024101273 0.0034517313
-0.046483926 0.11390789 -0.095881954 0.37796432 -0.9258163 -0.0026560719 0.0013529975
-0.033573952 0.11860692 -0.096555606 0.30448472 -0.95250583 -0.0046488885 0.00099723542
0.036058158 0.11770272 -0.094265617 -0.30033991 -0.95382911 0.0024576813 0.0017936268
0.047371518 0.11358482 -0.096313804 -0.38886976 -0.92125666 -0.0081498614 0.0017791805
0.05391676 0.11120245 -0.095287211 -0.44385538 -0.89605749 -0.0085672392 0.0035617675
-0.025381081 0.12158901 -0.093462124 0.21464175 -0.97665864 0.0081694778 0.0033194295
-0.014120691 0.12293241 -0.095021017 0.08134041 -0.99662948 0.010648927 0.0022332615
-0.0030965912 0.12293242 -0.093867213 0.01255945 -0.99992031 0.0012352306 0.00057422993
0.0073250043 0.12293242 -0.095037408 -0.073422536 -0.99730092 5.176943e-06 0.0024802815
0.013536923 0.12293242 -0.096851408 -0.10027083 -0.99495327 0.0037161349 0.003529981
0.024030149 0.12204361 -0.094628982 -0.19880387 -0.98003751 0.0018718825 0.0040057525
-0.025531746 -0.12150837 -0.084122948 0.21197087 0.97721452 0.010961453 0.0035282599
-0.015925232 -0.12293241 -0.086944468 0.11102034 0.99381429 -0.0027461196 0.0037210139
-0.0052254489 -0.12293242 -0.084765986 0.032014072 0.99947697 -0.0045679905 0.0010580019
0.0052666953 -0.12293242 -0.085274465 -0.029280668 0.99954534 -0.0071969246 0.00069292332
0.014045256 -0.12293241 -0.08608228 -0.098026231 0.9951663 -0.0059183086 0.0025961695
0.023913596 -0.12211801 -0.085047223 -0.18043511 0.98358035 0.0035863153 0.0040536569
-0.053836763 -0.11123158 -0.085605703 0.43458143 0.90062249 -0.0042585316 0.0030518211
-0.044479337 -0.11463755 -0.085190676 0.36004597 0.93292969 0.0030079291 0.0011329815
-0.035510104 -0.1179022 -0.086041801 0.31234184 0.94996971 0.00025097586 0.00070446503
0.0359548 -0.11774033 -0.085704044 -0.30659571 0.95183986 -0.00029511572 0.0010362861
0.043343127 -0.11505109 -0.084837288 -0.3554723 0.9346866 -0.00067917106 0.00031571146
0.053405154 -0.11138868 -0.086327411 -0.43480691 0.90045208 -0.011355316 0.0034046124
-0.070511818 -0.10131516 -0.086198039 0.58026564 0.81442636 -0.00123681 0.0026299637
-0.065070026 -0.10581654 -0.084922053 0.54316926 0.83960974 -0.0047627124 0.0034357752
-0.058636151 -0.10948467 -0.085308656 0.48038384 0.87704992 0.0038554464 0.0039845482
0.058330823 -0.10959581 -0.087087907 -0.4642584 0.88565594 -0.0088139465 0.0040560719
0.064601101 -0.10604684 -0.084850445 -0.52878773 0.8486107 -0.015605311 0.003330651
-0.081610918 -0.091999829 -0.083786048 0.66727757 0.74480301 0.0030229159 0.0013466356
-0.076060526 -0.0966582 -0.083028056 0.61519909 0.78836715 0.0026966995 0.0012099749
0.074002057 -0.098385841 -0.087752923 -0.60611939 0.79537076 -0.0021449905 0.0011445233
0.080899678 -0.092596769 -0.081918314 -0.65345019 0.75696909 -0.00075769686 0.001115885
-0.093292043 -0.08219073 -0.085384496 0.7464965 0.66537929 -0.0036654449 0.0043096463
-0.086642057 -0.087777279 -0.084640175 0.69128227 0.72253788 0.008231461 0.0021737076
0.088126235 -0.086531617 -0.085429884 -0.72379118 0.6900152 0.0022968296 0.0027709615
0.092821456 -0.082590975 -0.083366044 -0.75196928 0.65919411 -0.0023236317 0.0038737389
-0.10080236 -0.07127589 -0.082437664 0.82215822 0.56925327 0.0025734 0.0025773337
-0.097553737 -0.076899029 -0.080992684 0.78638005 0.61773849 -0.0023591942 0.0040621888
0.097673088 -0.076692455 -0.084424235 -0.79622054 0.60499513 0.0037100359 0.0034302974
0.10060838 -0.071611673 -0.080045938 -0.81514055 0.57924652 -0.0043922933 0.0031122272
-0.1041236 -0.065527029 -0.085784853 0.84144026 0.54034823 -0.0014635165 0.001457514
0.10364217 -0.066360377 -0.084567778 -0.84463978 0.53533328 0.0013769445 0.0012473392
-0.11067495 -0.054187059 -0.08569745 0.89689016 0.44224775 0.0021990079 0.0020438021
-0.10880027 -0.057432018 -0.084795833 0.87661552 0.48118961 -0.0013354754 0.0010365603
0.10853875 -0.057884723 -0.083805591 -0.87864101 0.47748041 0.0015754113 0.0010776611
0.11177979 -0.052274663 -0.084744751 -0.897407 0.44102541 0.012542443 0.0020368744
-0.11552828 -0.04578628 -0.087048404 0.92941356 0.36901098 -0.0046306527 0.0037101549
0.11632508 -0.044045169 -0.085175015 -0.93436176 0.35627398 -0.0060812337 0.0031565987
-0.11832458 -0.036961973 -0.084036693 0.95348626 0.30143574 0.00062757166 0.0024619326
0.11886527 -0.033892855 -0.084922224 -0.96114331 0.27598345 -0.0060600387 0.0030722173
-0.12061163 -0.023979826 -0.084946223 0.98394835 0.17844984 0.0011039989 0.00047423682
-0.11978751 -0.028657842 -0.082527265 0.97300458 0.23078352 0.0010530798 0.0015586159
0.11978003 -0.028700419 -0.082279548 -0.97387612 0.22704692 0.0038755222 0.0013917009
0.12082972 -0.022742018 -0.084086791 -0.98596907 0.16691774 -0.0018800853 0.00067968684
-0.12189318 -0.016705357 -0.084407493 0.98687381 0.16148806 0.001278417 0.00044124029
0.12233148 -0.014217443 -0.087811202 -0.99387705 0.11047118 -0.00211256 0.0018159045
-0.12395491 -0.005002216 -0.082514882 0.99667007 0.0814998 -0.0025644323 0.0025810685
0.12389745 -0.0053284597 -0.084737428 -0.99856526 0.05244559 -0.01081425 0.0035772447
-0.12408695 0.0042527243 -0.08458361 0.99917036 -0.038495757 -0.01329327 0.0040577948
0.12391873 0.0052076108 -0.084823407 -0.99863917 -0.050153505 -0.014296614 0.0036015415
-0.12227269 0.014551084 -0.084916517 0.98943585 -0.14494781 -0.0026065551 0.00042613671
0.12211299 0.015457678 -0.087627202 -0.99271929 -0.12040986 -0.0031285142 0.0014070998
