# .PCD v0.7 - Point Cloud Data file format
VERSION 0.7
FIELDS x y z normal_x normal_y normal_z curvature
SIZE 4 4 4 4 4 4 4
TYPE F F F F F F F
COUNT 1 1 1 1 1 1 1
WIDTH 586
HEIGHT 1
VIEWPOINT 0 0 0 1 0 0 0
POINTS 586
DATA ascii
0.15035284 -0.20070893 -0.46101958 -0.54227847 0.62615079 0.56024039 0.17670149
-0.1615165 -0.19199722 -0.46442086 0.33625513 0.79512942 0.50467992 0.21078615
-0.15031037 -0.19856812 -0.4633837 0.50642329 0.62810713 0.5907765 0.21331789
-0.14328091 -0.19588834 -0.46590912 0.021409139 -0.14181265 0.98966193 0.21136437
-0.13437814 -0.19681442 -0.46590912 0.047595765 -0.16992773 0.98430645 0.15541263
-0.12390822 -0.19581014 -0.46590915 -0.012193285 -0.1055007 0.99434447 0.046618357
-0.11389865 -0.19616069 -0.46590918 -0.024193553 -0.054276939 0.99823278 0.0073984726
-0.10600606 -0.19645016 -0.46590915 -0.0040000286 0.0012586741 0.99999124 0.00080503069
-0.084118105 -0.19535738 -0.46590915 -1.1290591e-05 -6.4612665e-05 1 0.00027423314
-0.076844223 -0.19633555 -0.46590918 -6.4170534e-05 -5.6925026e-05 1 0.00024700508
-0.064953469 -0.1924897 -0.46590915 -3.8651153e-05 -6.9262904e-05 1 0.00017200843
-0.05537064 -0.1954904 -0.46590915 -3.7123114e-05 -7.4175565e-05 1 0.0002043086
-0.041932292 -0.19655442 -0.46590918 -1.8444291e-05 -6.5651308e-05 1 0.00015843587
-0.036153782 -0.19008712 -0.46590915 8.1799853e-06 -0.00014063166 1 0.00020091012
-0.021432372 -0.19517834 -0.46590915 8.2494375e-07 -0.00014537309 1 0.00024501124
-0.015590233 -0.19415008 -0.46590915 -1.5687603e-05 -0.00011703069 1 0.00016080616
-0.0082584871 -0.19043869 -0.46590912 -3.11238e-05 -0.00010078148 1 0.00027982832
0.0011283268 -0.19026183 -0.46590915 2.0303509e-05 -0.00015909396 1 0.00028329075
0.016864754 -0.19729151 -0.46590912 2.2217746e-06 -1.0631924e-07 1 0.00023003883
0.025631689 -0.195425 -0.46590918 1.1453615e-05 -3.8432423e-05 1 0.00020538409
0.044829145 -0.19558397 -0.46590918 2.8856195e-05 -0.00013194139 1 0.00029987853
0.054126669 -0.19738612 -0.46590915 4.2022017e-05 -0.00012689804 1 0.00031693248
0.067229889 -0.19861038 -0.46590915 3.6464389e-05 -7.9691551e-07 1 0.00035558507
0.076376736 -0.1959188 -0.46590918 1.7912151e-05 -0.0001659056 1 0.00033562331
0.08981213 -0.19468203 -0.46590915 2.3367975e-05 -0.00015481569 1 0.00034307575
0.094261199 -0.1972629 -0.46590918 3.6223479e-05 -4.0161274e-05 1 0.00032990237
0.10520591 -0.19531603 -0.46590918 -0.0059245853 0.0099584945 0.99993283 0.00054288015
0.11201145 -0.19701248 -0.46590915 0.01209877 -0.016226523 0.99979514 0.0027944706
0.12303615 -0.19349284 -0.46590915 0.0036598886 -0.044485584 0.99900335 0.021849621
0.13601637 -0.19529712 -0.46590918 0.073750943 -0.039246567 0.99650419 0.15390748
0.14551745 -0.19322725 -0.46590915 0.0048442138 -0.28880328 0.95737624 0.19083795
0.15709165 -0.19518289 -0.46599734 -0.58944535 0.80717438 0.031996451 0.22026531
-0.17309177 -0.1833277 -0.46851122 0.6820237 0.69452882 0.22907092 0.19097269
-0.16466463 -0.1861959 -0.46479893 0.40721643 0.7230624 0.55799258 0.20463985
-0.15724368 -0.18691367 -0.46590915 -0.31859094 -0.21869904 0.92231804 0.20598511
-0.14184631 -0.18247814 -0.46590915 0.029925091 -0.016359413 0.99941826 0.058794163
-0.13494462 -0.18544461 -0.46590912 0.053193342 0.0092317918 0.99854159 0.025159089
-0.12516347 -0.18474703 -0.46590918 0.020483004 0.016312916 0.99965709 0.00065370026
-0.1138033 -0.18241413 -0.46590915 -2.8157589e-05 -0.00011247811 1 0.00018589546
-0.10190587 -0.18673581 -0.46590915 -3.3510496e-05 -5.6212655e-05 1 0.00018613646
-0.094075821 -0.18506153 -0.46590915 -1.436068e-05 -0.00010411993 1 0.00013751283
-0.085065685 -0.18483752 -0.46590912 -5.863942e-05 -8.5963002e-05 1 0.00018437639
-0.066825598 -0.18354064 -0.46590915 -2.1398433e-05 -9.5834286e-05 1 0.0001629317
-0.054851916 -0.18856452 -0.46590915 -1.8514334e-05 -9.2115515e-05 1 0.00020441839
-0.035398368 -0.1858315 -0.46590912 -5.6198273e-06 -3.1680363e-05 1 0.00013614152
-0.027450353 -0.1862078 -0.46590912 -3.4435232e-06 -3.7468373e-05 1 0.00020129867
-0.0026790483 -0.18451178 -0.46590915 -6.829215e-07 -3.0142974e-05 1 0.00031291303
0.0060621835 -0.18565953 -0.46590918 3.867267e-06 -2.961517e-05 1 0.00025062001
0.015890766 -0.18612158 -0.46590918 1.8858714e-06 -3.6867114e-05 1 0.00011919984
0.026093133 -0.18705544 -0.46590915 -2.4957396e-07 -6.916804e-05 1 0.00019864636
0.035908226 -0.18602538 -0.46590915 -6.047766e-06 -0.0001017991 1 0.00022144953
0.049607597 -0.18546726 -0.46590912 2.258944e-05 -9.9765268e-05 1 0.00024387281
0.058895115 -0.18180081 -0.46590915 2.7422822e-05 1.7241427e-06 1 0.00025370665
0.06428609 -0.18317226 -0.46590915 3.0216292e-05 -0.00010523043 1 0.00026648719
0.073578648 -0.18639189 -0.46590915 6.7709661e-05 2.0703176e-06 1 0.00032328453
0.085952431 -0.18648948 -0.46590918 -3.2856504e-05 -9.5839401e-05 1 0.00032691003
0.103641 -0.18552113 -0.46590915 2.2915881e-05 -6.3330059e-05 1 0.00024224141
0.11738205 -0.1886932 -0.46590912 -0.00073037576 0.0024285016 0.99999672 0.00026907327
0.13369645 -0.18221954 -0.46590915 -0.0075776828 0.024513993 0.99967074 0.0083590467
0.15261126 -0.18617591 -0.46590915 0.2438408 -0.084556989 0.96612197 0.18927573
0.16479993 -0.18617462 -0.46390235 -0.54379451 0.57046515 0.61551362 0.21612263
0.17103888 -0.18361658 -0.46722418 -0.57295591 0.63150042 0.52242583 0.20632759
-0.18126479 -0.17366153 -0.46542978 0.74234462 0.53651994 0.40133631 0.17697544
-0.17618673 -0.17711338 -0.46409044 0.67867941 0.60078108 0.42244089 0.20142308
-0.165924 -0.17564629 -0.46590915 -0.041677434 -0.021942889 0.99889016 0.2067222
-0.15563396 -0.17482874 -0.46590921 -0.097732812 0.03334916 0.99465376 0.068305187
-0.14805555 -0.17161559 -0.46590915 -0.0075809974 0.031501699 0.99947494 0.015347786
-0.13829955 -0.17327116 -0.46590915 0.015088679 0.014774197 0.99977702 0.00073866878
-0.12592421 -0.17318964 -0.46590918 -3.5740559e-05 2.1705324e-05 1 0.00013859013
-0.11542302 -0.17433652 -0.46590915 1.6899564e-06 -0.00011194762 1 0.00017095287
-0.095159911 -0.1751077 -0.46590912 -4.8000038e-05 -2.8123468e-05 1 0.00013289125
-0.086843267 -0.17639402 -0.46590918 -1.170567e-05 -8.1467238e-05 1 0.00013687693
-0.075786583 -0.17537093 -0.46590912 -5.2943833e-06 -4.2594624e-05 1 0.00015329399
-0.066568546 -0.17143629 -0.46590915 -1.204169e-05 -3.4281773e-05 1 0.0001701298
-0.057926483 -0.17339337 -0.46590912 -7.3872269e-07 -3.6406022e-05 1 0.00015628902
-0.043745775 -0.17395221 -0.46590915 -1.5734782e-05 -5.7500976e-05 1 0.00025196077
-0.032462537 -0.17486903 -0.46590918 -2.0446223e-05 -6.925995e-05 1 0.00029324892
-0.025337543 -0.17545913 -0.46590915 -8.2043971e-06 -0.00011149069 1 0.00027384787
-0.015816489 -0.17510538 -0.46590915 6.3159782e-06 -0.00012415877 1 0.00025927884
-0.0058558602 -0.17487176 -0.46590915 5.0636572e-06 -0.00013677552 1 0.0003203759
0.0067379172 -0.1713668 -0.46590915 3.9430656e-06 -6.8955662e-05 1 0.00022617928
0.016667757 -0.17060934 -0.46590915 4.3081363e-06 -2.9521036e-05 1 0.00032574942
0.020006727 -0.1714772 -0.46590915 1.1286391e-05 -5.9819318e-05 1 0.00032146083
0.036263734 -0.17803958 -0.46590918 8.7079383e-07 -2.9520337e-05 1 0.00022533449
0.045268163 -0.17500547 -0.46590915 3.6077977e-06 4.234285e-05 1 0.000139885
0.055151302 -0.17756335 -0.46590918 -9.5164393e-07 -0.00011788823 1 0.00021068641
0.067108817 -0.1771547 -0.46590915 4.2897864e-05 -4.0698673e-05 1 0.00025259182
0.072431713 -0.17475969 -0.46590915 6.1266408e-05 -8.4109131e-05 1 0.00022297302
0.085592926 -0.1735931 -0.46590912 1.5808722e-05 -1.5673162e-06 1 0.00027296194
0.093313172 -0.1739125 -0.46590918 5.8483522e-05 4.6865539e-06 1 0.00031391004
0.10438816 -0.1773731 -0.46590915 6.8505709e-05 3.8369479e-05 1 0.00024267627
0.11522774 -0.17490081 -0.46590912 1.7112332e-05 3.1759744e-06 1 0.00017454574
0.12279855 -0.17495152 -0.46590912 7.2314324e-05 -0.00010309221 1 0.00016551062
0.13570018 -0.17730595 -0.46590915 0.0020696605 -0.0020152864 0.99999583 0.0043132603
0.14417779 -0.1763649 -0.46590918 0.050876029 -0.038508791 0.9979623 0.015842764
0.15370589 -0.17426835 -0.46590915 0.0415233 -0.072235778 0.99652284 0.060753509
0.16231774 -0.17395017 -0.46590912 0.057751574 -0.10570294 0.99271929 0.12207005
0.17657356 -0.17488231 -0.46588358 -0.64971304 0.53106654 0.54391295 0.19530645
0.18270718 -0.1740635 -0.46550182 -0.67905194 0.60990924 0.40853307 0.19386426
-0.19102876 -0.16294605 -0.46815276 0.77038878 0.58761621 0.24740335 0.20350185
-0.18570843 -0.1648484 -0.46456891 0.55976433 0.4289017 0.70901847 0.17026867
-0.17876835 -0.16265053 -0.46590912 0.23951827 0.12735601 0.96250266 0.14804882
-0.169707 -0.16125871 -0.46590915 0.066180944 -0.044937085 0.99679524 0.092058465
-0.15361226 -0.1655256 -0.46590918 0.004905201 0.009123195 0.99994636 0.0063230898
-0.14525908 -0.16489971 -0.46590918 0.0038683992 0.0040544984 0.99998432 0.00033838436
-0.13633674 -0.16300637 -0.46590915 -0.00011277592 -8.5715372e-05 1 0.00022384644
-0.12860969 -0.16431063 -0.46590915 -3.0027151e-05 -9.3056085e-05 1 0.00021520624
-0.095507383 -0.16440885 -0.46590915 -2.4234601e-05 2.911616e-05 1 0.00020597194
-0.083768725 -0.16289854 -0.46590912 -1.8172259e-05 -6.6984692e-05 1 0.00024594448
-0.074377455 -0.16286868 -0.46590918 -4.407395e-05 -3.3830656e-05 1 0.00030703173
-0.065188408 -0.16701396 -0.46590915 -3.1933705e-05 -3.2951222e-05 1 0.00014703613
-0.056492716 -0.16147017 -0.46590915 -1.9422061e-05 -7.4573756e-05 1 0.00016861288
-0.045790486 -0.16184974 -0.46590912 -1.5433572e-05 7.1938715e-08 1 0.00030551048
-0.031432711 -0.16050932 -0.46590912 5.0855856e-06 -9.5432668e-05 1 0.0002877645
-0.023472164 -0.16459842 -0.46590918 -9.7156772e-06 -2.6856684e-05 1 0.00031751773
-0.017362662 -0.16511923 -0.46590912 -1.0423541e-05 -8.7834342e-05 1 0.00028081067
-0.0052677477 -0.16374837 -0.46590918 -4.9427172e-06 -6.5721739e-05 1 0.00031865982
0.0091569759 -0.16096464 -0.46590918 2.6857599e-05 -0.00014451529 1 0.00033209409
0.015783852 -0.16539678 -0.46590915 1.1559964e-05 -9.1303453e-05 1 0.00027183656
0.028859589 -0.16163704 -0.46590912 -4.1912726e-06 -9.5303498e-05 1 0.00027221817
0.037426617 -0.16486381 -0.46590915 1.1465702e-05 -3.8724771e-05 1 0.00020325802
0.053569093 -0.16719434 -0.46590918 2.3066583e-05 -6.117981e-05 1 0.00022641382
0.067283854 -0.16302696 -0.46590918 3.5323126e-05 -0.0001102792 1 0.00029042384
0.075094715 -0.1648725 -0.46590915 1.862558e-05 3.4542314e-05 1 0.00022813343
0.087066919 -0.16444911 -0.46590921 3.1669213e-05 -5.414006e-06 1 0.0002116292
0.096570581 -0.16476426 -0.46590915 4.2531443e-05 -3.9838273e-05 1 0.00024415654
0.10631485 -0.16381665 -0.46590918 3.2406399e-05 -7.5443815e-05 1 0.0002506811
0.11410706 -0.16583671 -0.46590912 -2.6002874e-06 -3.66575e-05 1 0.00017136059
0.12455743 -0.16670199 -0.46590915 0.00012995533 -8.1315397e-05 1 0.00024951005
0.13470611 -0.1657798 -0.46590915 5.75415e-05 -5.325134e-05 1 0.00030212826
0.14408623 -0.16654672 -0.46590915 -0.0087085096 0.0065758317 0.99994045 0.00048204971
0.1537306 -0.16229157 -0.46590912 -6.8790985e-05 0.0030076671 0.99999547 0.00061893108
0.16016199 -0.16016012 -0.46590915 -0.00096037553 0.004073374 0.99999124 0.00060462317
0.17968659 -0.16064331 -0.46590915 -0.047451586 0.020105293 0.99867117 0.18483046
-0.20085421 -0.15069124 -0.46888143 0.69393229 0.71142489 0.11105239 0.22667351
-0.1934803 -0.15771343 -0.46273896 0.47890106 0.4991751 0.72213435 0.19517748
-0.18323858 -0.15444723 -0.46590915 -0.074182093 -0.028239042 0.99684483 0.15104119
-0.17388244 -0.15421748 -0.46590915 0.013716019 -0.039709274 0.99911714 0.06258446
-0.16392548 -0.15490821 -0.46590915 0.010622149 -0.0076156696 0.99991453 0.0021325536
-0.15439741 -0.15639262 -0.46590912 -7.6750912e-05 -0.00014091915 1 0.00034690701
-0.14442191 -0.15183653 -0.46590918 -0.00011051707 -3.7418085e-05 1 0.00028396785
-0.13645071 -0.15269478 -0.46590915 -0.00014907375 -8.496595e-06 1 0.00023502886
-0.12546568 -0.15064099 -0.46590918 -3.8121787e-05 -6.3318621e-05 1 0.0002223
-0.10016328 -0.15233313 -0.46590918 -3.457588e-06 -3.4973888e-05 1 0.00020685825
-0.09852466 -0.15863037 -0.46590915 -6.656137e-05 -6.4400879e-06 1 0.0001501893
-0.084090889 -0.15185475 -0.46590915 -5.8384063e-05 -0.00010694679 1 0.00017556785
-0.071581364 -0.15845555 -0.46590915 -5.4240172e-05 -0.00012645868 1 0.00027380342
-0.052288812 -0.15501848 -0.46590915 -3.8596845e-05 1.1540556e-06 1 0.00017465836
-0.045305893 -0.15534543 -0.46590915 -6.9115067e-06 -0.00012121365 1 0.00027267635
-0.032775633 -0.15495968 -0.46590918 -2.6748659e-05 -0.00011698798 1 0.00035329547
-0.024805615 -0.15540305 -0.46590915 -1.5882913e-05 -7.9220226e-05 1 0.00033953896
-0.01462013 -0.15650234 -0.46590915 -8.0556074e-06 -8.7794542e-05 1 0.00027236008
-0.0054455805 -0.1548517 -0.46590918 1.3473008e-05 -0.00014462793 1 0.00032377068
0.0016714685 -0.15610854 -0.46590912 8.0862474e-06 -0.00011846782 1 0.0002866867
0.012649309 -0.15606926 -0.46590915 4.8665197e-06 -9.1229063e-05 1 0.00028341173
0.027609192 -0.15342778 -0.46590912 7.3728161e-06 -0.00013932331 1 0.00027951723
0.033842586 -0.15251362 -0.46590912 1.1882715e-05 -6.7104484e-05 1 0.00030493262
0.04377722 -0.15342669 -0.46590912 5.5917706e-05 -3.3143949e-06 1 0.00026233587
0.05343907 -0.15787002 -0.46590915 -5.5872979e-06 -3.1469746e-05 1 0.00016075515
0.077421725 -0.15575969 -0.46590915 -9.3164061e-07 -4.0708383e-05 1 0.00014884092
0.084950298 -0.15588526 -0.46590915 3.4452907e-05 -3.32093e-05 1 0.00017786305
0.096730687 -0.15472712 -0.46590915 3.9809729e-05 -4.3327636e-05 1 0.00023478606
0.10328779 -0.15455763 -0.46590912 7.4982461e-05 -7.3637224e-05 1 0.00028024861
0.11548872 -0.15567744 -0.46590912 5.7034951e-05 -4.152548e-05 1 0.00026120211
0.12702192 -0.15646817 -0.46590915 6.7739165e-05 -3.7930731e-05 1 0.00030848689
0.14500676 -0.15478964 -0.46590918 4.3784821e-06 -3.0592233e-05 1 0.00027394769
0.15237504 -0.15614629 -0.46590912 -2.6872684e-05 -7.9600832e-05 1 0.00017991355
0.16370438 -0.15267156 -0.46590915 -0.0014722801 0.0018589634 0.9999972 0.00021225435
0.17698045 -0.15181133 -0.46590915 0.021479337 -0.049026825 0.99856645 0.10167117
0.18635668 -0.15467229 -0.46590918 -0.079505689 0.31819788 0.94468462 0.22506881
0.19645053 -0.15299101 -0.46344969 -0.64084238 0.59430826 0.48592049 0.18065478
-0.20396778 -0.14375828 -0.4652712 0.62643635 0.4659552 0.6248706 0.18448046
-0.19690754 -0.1485426 -0.46476853 0.40911436 0.24352117 0.87938786 0.24409062
-0.17513362 -0.14577793 -0.46590918 0.025807463 -0.0099737681 0.99961722 0.011379424
-0.16614734 -0.14721312 -0.46590915 0.0080650328 0.0032230618 0.99996227 0.0014515861
-0.1559566 -0.14527179 -0.46590915 -0.00010441589 2.9805677e-05 1 0.00032800878
-0.14598581 -0.14410883 -0.46590918 -6.0551658e-05 -5.5537494e-05 1 0.00028586894
-0.13444497 -0.14269026 -0.46590912 -3.1705044e-05 -5.993207e-05 1 0.00025234229
-0.12474224 -0.14634392 -0.46590915 -1.78875e-05 -0.00010360557 1 0.00016228957
-0.10544538 -0.14718066 -0.46590915 -4.638702e-05 -7.4868083e-05 1 0.00015818584
-0.096202299 -0.14435571 -0.46590915 -5.0145052e-05 -1.4206463e-05 1 0.00020516901
-0.085917369 -0.1458331 -0.46590915 -7.8502773e-05 -0.00010767606 1 0.0002953551
-0.075234517 -0.14266506 -0.46590915 -2.6853193e-05 -3.3330238e-05 1 0.00016227282
-0.064281538 -0.14674763 -0.46590915 -1.8972036e-05 -3.6544418e-05 1 0.0001510266
-0.053761054 -0.14269301 -0.46590915 -4.3826876e-06 -3.564715e-05 1 0.0001685279
-0.043173868 -0.14571628 -0.46590915 -1.0249217e-05 -5.6045423e-07 1 0.00025604042
-0.034472838 -0.14255083 -0.46590915 3.8505309e-06 -0.00010130647 1 0.00034339461
-0.025312562 -0.14219007 -0.46590912 -5.7712896e-06 -6.4221611e-05 1 0.00032396027
-0.010899168 -0.14102061 -0.46590915 4.8043703e-06 -3.2836931e-05 1 0.00031039008
-0.0047262195 -0.14355677 -0.46590915 2.0232329e-07 -3.5712292e-05 1 0.00027733773
0.0065701399 -0.14596486 -0.46590915 -6.9870789e-06 -6.281009e-05 1 0.00033835977
0.013518342 -0.14395742 -0.46590915 4.3505333e-06 -8.5326814e-05 1 0.00029998025
0.02200463 -0.14423914 -0.46590918 1.8627254e-05 -3.5315526e-05 1 0.00031819678
0.03253749 -0.1460416 -0.46590912 1.8034223e-05 -0.0001115069 1 0.00032555166
0.045121174 -0.14110175 -0.46590912 2.5940904e-05 -0.00010057163 1 0.00027606272
0.057614475 -0.1451464 -0.46590912 7.5566941e-06 -3.619511e-05 1 0.00015743192
0.066432491 -0.14476351 -0.46590915 3.7027348e-05 2.3372133e-06 1 0.00020740941
0.079427995 -0.14233512 -0.46590915 -8.9388714e-06 -3.953874e-05 1 0.0001698509
0.087954246 -0.14753592 -0.46590912 -0 -0 1 0.00024218128
0.10706263 -0.14405474 -0.46590915 -3.2560492e-05 3.7709069e-05 1 0.00016643948
0.11521719 -0.14519501 -0.46590915 5.4421103e-05 -3.9362287e-05 1 0.00016692752
0.12495701 -0.14470375 -0.46590915 6.9516733e-05 2.9320303e-05 1 0.0002675532
0.13660359 -0.1410954 -0.46590915 5.9514896e-05 -2.756679e-05 1 0.0002787461
0.14115691 -0.14258757 -0.46590912 6.33522e-05 -5.9938644e-05 1 0.00028412414
0.15196159 -0.14330909 -0.46590915 4.2104835e-05 -7.3356598e-05 1 0.00033621673
0.16136383 -0.14669286 -0.46590912 -2.4757443e-07 -5.9176742e-05 1 0.00030471204
0.17639953 -0.14579494 -0.46590912 -0.00019705048 -0.01258952 0.99992073 0.029504402
0.19388527 -0.14619699 -0.46590915 0.028470419 0.17821062 0.98358041 0.2625455
0.20342152 -0.14231157 -0.46627754 -0.69940561 0.5927667 0.39932373 0.19580568
-0.20743521 -0.13656524 -0.46641284 0.70279884 0.43711194 0.56125486 0.19130856
-0.19154614 -0.13628891 -0.46590915 -0.047236029 -0.018647876 0.99870962 0.086314522
-0.18664169 -0.13506249 -0.46590918 -0.10913237 0.013360308 0.99393749 0.041803829
-0.17544347 -0.13554063 -0.46590918 0.0029525277 0.0057502249 0.99997908 0.0016645429
-0.16590306 -0.1334299 -0.46590915 -3.4477409e-05 -4.3305598e-05 1 0.00030553527
-0.15327291 -0.13526179 -0.46590915 -0.00013638449 -4.3670574e-05 1 0.00033712809
-0.14143057 -0.13645513 -0.46590915 1.0440227e-05 -6.9094291e-05 1 0.00033841384
-0.13174984 -0.1348819 -0.46590915 -5.1854975e-05 -7.732174e-05 1 0.00032626186
-0.12591611 -0.13406613 -0.46590918 -6.0063783e-05 -6.7677647e-05 1 0.00028464608
-0.11543694 -0.13891992 -0.46590915 -5.1645253e-05 1.1055156e-06 1 0.00023947841
-0.10488252 -0.13740596 -0.46590918 1.125745e-05 -7.1759037e-05 1 0.00021384605
-0.097824603 -0.1347298 -0.46590912 -6.6407658e-05 -4.1471856e-05 1 0.00017741063
-0.083187848 -0.13967624 -0.46590912 -3.8385042e-05 -3.5085483e-05 1 0.00020984467
-0.068113379 -0.13954744 -0.46590915 -2.109213e-05 -2.8705959e-05 1 0.00016129299
-0.052003555 -0.13384302 -0.46590915 -4.054403e-05 -6.2812236e-05 1 0.00026302628
-0.04570635 -0.13192515 -0.46590912 -3.4810262e-05 -5.3505999e-05 1 0.00026329988
-0.03098456 -0.13636337 -0.46590915 -1.077102e-05 -6.4869302e-05 1 0.00033353645
-0.02405088 -0.13618124 -0.46590918 -4.9723176e-06 -0.00013857134 1 0.00035168402
-0.012994022 -0.13849206 -0.46590915 1.9141964e-06 -8.4126892e-05 1 0.00030414111
0.0056106043 -0.13673051 -0.46590915 5.4437801e-06 -3.5996964e-05 1 0.00032478711
0.018234853 -0.13668591 -0.46590918 1.2277997e-05 -6.8779758e-05 1 0.00033231775
0.023904899 -0.13545516 -0.46590915 -1.6670776e-06 -3.6262827e-05 1 0.00019128161
0.03613016 -0.13441646 -0.46590912 4.2794431e-06 -7.3752824e-05 1 0.00030765109
0.054102167 -0.13582607 -0.46590915 2.7719154e-05 -0.00011841526 1 0.00014726113
0.068273917 -0.13660133 -0.46590915 -1.5512621e-06 -3.5175421e-05 1 0.00020691872
0.075308383 -0.13316965 -0.46590912 -1.8414143e-07 -3.7057634e-05 1 0.00020756717
0.082768664 -0.13434286 -0.46590918 2.7085573e-05 -4.5641635e-05 1 0.00028077423
0.093967415 -0.13490161 -0.46590915 4.4039589e-05 -8.326082e-05 1 0.00023872011
0.10502326 -0.13451721 -0.46590915 2.598539e-05 -9.0846021e-05 1 0.00026806846
0.1157891 -0.13723248 -0.46590918 -2.5604073e-05 3.6591431e-05 1 0.00016539937
0.12458754 -0.13758127 -0.46590915 4.0105751e-05 3.3760043e-05 1 0.00023866215
0.13966434 -0.13195023 -0.46590912 6.3881955e-05 -6.8082561e-05 1 0.00029658509
0.14693148 -0.13478523 -0.46590918 3.2689586e-05 -3.0768293e-05 1 0.00030000895
0.15515383 -0.13563938 -0.46590915 0.00013124458 -5.2187079e-05 1 0.00035639136
0.16211776 -0.13765284 -0.46590912 0.00010891157 -2.4248951e-05 1 0.00028975727
0.17470725 -0.13569897 -0.46590915 -0.0059563681 0.0053020003 0.99996817 0.0006732957
0.18663651 -0.1336543 -0.46590915 0.049876601 -0.0062928069 0.99873555 0.040653341
0.19415618 -0.13754155 -0.46590915 0.18053666 -0.0434696 0.98260719 0.163702
0.20936415 -0.1394771 -0.46858647 -0.86200744 0.47948968 0.16441631 0.13525508
0.21209498 -0.13257426 -0.46440163 -0.82450634 0.43321449 0.36402544 0.17001088
-0.21593261 -0.12737502 -0.46362725 0.66889113 0.34300306 0.659495 0.16072433
-0.20328681 -0.12694827 -0.46590915 -0.006397597 -0.021123264 0.99975634 0.13987905
-0.19308043 -0.1252237 -0.46590912 -0.025097473 -0.038940087 0.99892628 0.034629188
-0.18569741 -0.12964457 -0.46590912 -0.0064848294 0.027145954 0.99961042 0.012747127
-0.17890853 -0.12623283 -0.46590915 0.0038823406 0.0038455389 0.9999851 0.00034701164
-0.16571301 -0.12481407 -0.46590915 -0.0001058653 -9.4300871e-05 1 0.00033889199
-0.15532666 -0.12414763 -0.46590912 -2.6735449e-07 -5.0047543e-05 1 0.00030773997
-0.14516184 -0.12402842 -0.46590918 -8.7376895e-05 -2.954338e-05 1 0.00031865211
-0.13425253 -0.12317625 -0.46590915 -4.1941406e-05 -7.8939251e-05 1 0.00033338147
-0.12543054 -0.12373601 -0.46590918 -6.9806636e-05 -7.5199125e-05 1 0.00032541691
-0.11444569 -0.12458241 -0.46590915 -9.0088342e-06 -0.00010673665 1 0.00033127947
-0.10458267 -0.12744778 -0.46590915 -3.4548044e-05 -2.5089694e-05 1 0.00027533169
-0.095184743 -0.12540609 -0.46590918 -2.0516079e-06 -3.0137409e-05 1 0.00023390625
-0.08439067 -0.12813458 -0.46590915 -7.7522978e-05 -2.4519164e-05 1 0.00013802793
-0.06547755 -0.12844625 -0.46590912 -2.0143088e-05 -1.5456089e-05 1 0.00018526797
-0.053438887 -0.1225585 -0.46590912 -3.09608e-05 -8.1420876e-05 1 0.00028615977
-0.045822147 -0.12247945 -0.46590915 -4.3543412e-05 -5.6962825e-05 1 0.00027403672
-0.037319914 -0.12616074 -0.46590915 -3.1136813e-05 -2.1957787e-05 1 0.00026206253
-0.022456152 -0.12607819 -0.46590918 -3.5094802e-06 -1.8229357e-05 1 0.00022317182
-0.015023557 -0.12551628 -0.46590918 -7.0682709e-06 -7.2382609e-05 1 0.00024138464
-0.0048614461 -0.12533689 -0.46590915 -2.4243841e-06 -9.0877002e-05 1 0.00029878088
0.009689521 -0.12325211 -0.46590918 1.0128255e-05 -6.2959632e-05 1 0.000310237
0.013257554 -0.12618636 -0.46590915 1.3471924e-05 -8.6999622e-05 1 0.0003114451
0.022837069 -0.12462619 -0.46590918 1.2173386e-05 1.6888571e-05 1 0.00031343772
0.033250824 -0.12885873 -0.46590915 1.7523669e-05 -1.6024283e-05 1 0.00033355373
0.046573717 -0.12730303 -0.46590912 3.1743391e-05 -7.8614867e-05 1 0.0002722865
0.054722212 -0.12588577 -0.46590915 3.7471949e-05 -3.6293706e-05 1 0.00026970118
0.063745409 -0.12507519 -0.46590915 3.1549072e-05 -1.8949444e-05 1 0.00025432926
0.074218184 -0.12361455 -0.46590915 -5.4068977e-07 -4.7755733e-05 1 0.00032805014
0.095553383 -0.12441151 -0.46590918 1.5966221e-05 -5.6981717e-05 1 0.00019615477
0.11671156 -0.12520728 -0.46590915 9.1113507e-05 -6.3723717e-05 1 0.00030681357
0.12468947 -0.12429538 -0.46590915 6.9429647e-05 -5.8207417e-05 1 0.00031685794
0.1329079 -0.12366989 -0.46590918 4.4560245e-05 -3.3556313e-05 1 0.00028109507
0.1461335 -0.12659638 -0.46590915 2.6049083e-05 -5.4490771e-05 1 0.000298723
0.15610977 -0.12290097 -0.46590912 4.1967574e-05 9.4578454e-06 1 0.00019157867
0.16855159 -0.12587574 -0.46590915 0.0001042616 -7.0446797e-05 1 0.00027365898
0.17391293 -0.12435932 -0.46590915 6.2517538e-05 -5.1286755e-05 1 0.00027247058
0.19555035 -0.12374877 -0.46590918 0.0038987156 -0.051721163 0.99865401 0.05481695
0.20341522 -0.12303928 -0.46590915 -0.060959656 -0.050923992 0.9968403 0.10711953
0.21549022 -0.12572442 -0.46495277 -0.66952771 0.31154042 0.67429602 0.17350557
-0.22044452 -0.11927661 -0.46301144 0.67516786 0.38623977 0.6284641 0.18138562
-0.21670872 -0.11643871 -0.46590915 0.85580796 0.40474316 0.3221423 0.26089457
-0.20226471 -0.11832184 -0.46590915 0.019314175 -0.049763013 0.99857426 0.092550941
-0.19414327 -0.11472484 -0.46590915 0.0027523367 -0.0044986014 0.99998605 0.0027221693
-0.18519729 -0.11103961 -0.46590915 4.1700783e-05 1.8738685e-05 1 0.00030301843
-0.17418435 -0.11477101 -0.46590915 -6.950806e-05 -7.0319897e-05 1 0.00034652898
-0.16733384 -0.11508407 -0.46590912 -2.9584391e-05 -3.3650573e-05 1 0.00031741752
-0.15233853 -0.11590531 -0.46590918 -9.6466965e-06 -7.1623246e-05 1 0.00033771674
-0.1418198 -0.11613742 -0.46590915 -3.1219777e-05 1.6723241e-05 1 0.0003246165
-0.13077277 -0.11394715 -0.46590918 -6.9029978e-05 -7.049882e-05 1 0.00033362952
-0.1289854 -0.11274494 -0.46590915 -0.00010217752 -0.00010098182 1 0.00030955736
-0.11412777 -0.11179657 -0.46590915 -7.8125442e-05 -3.5512203e-05 1 0.00031816566
-0.1053644 -0.11613178 -0.46590915 -4.3613709e-05 -8.1385268e-05 1 0.00031035321
-0.097405553 -0.11520609 -0.46590915 -1.731362e-05 -5.6817167e-05 1 0.00026175441
-0.086875848 -0.11375085 -0.46590912 -1.4764565e-05 -2.9064697e-05 1 0.00019879037
-0.073203065 -0.11531333 -0.46590918 2.6456005e-06 -6.4941036e-05 1 0.0001499075
-0.052529261 -0.11322179 -0.46590912 -3.1032054e-05 -5.0507555e-05 1 0.00019060125
-0.045808058 -0.11275199 -0.46590918 -2.5904168e-05 -2.1697335e-05 1 0.00027169657
-0.033442527 -0.11752857 -0.46590915 -1.3823874e-05 -9.2309121e-05 1 0.00032355473
-0.025191477 -0.11521851 -0.46590918 -2.0208545e-05 -0.00010048265 1 0.00032340808
-0.016528899 -0.1166832 -0.46590915 -4.0749828e-06 -6.8267465e-05 1 0.00028971524
0.0039749192 -0.11648612 -0.46590915 3.8819371e-06 -7.79334e-05 1 0.00025683382
0.015212002 -0.11445507 -0.46590915 -4.6671494e-06 -5.1948329e-05 1 0.00023081637
0.024686739 -0.11553594 -0.46590918 1.5999702e-05 -1.6861593e-05 1 0.0003273623
0.034380578 -0.11490371 -0.46590915 1.6404712e-05 -7.9748017e-05 1 0.00031388225
0.046553042 -0.11553643 -0.46590912 8.5777519e-06 3.6816729e-07 1 0.00017632668
0.052771445 -0.11478236 -0.46590915 -1.4856197e-07 -6.7490764e-05 1 0.00031548121
0.063173033 -0.11687426 -0.46590915 5.2367883e-05 -3.709209e-05 1 0.00019184867
0.074231908 -0.11776611 -0.46590918 3.4715267e-06 -5.2684187e-05 1 0.00027614526
0.086805739 -0.1115596 -0.46590915 2.9888834e-05 -5.4755004e-05 1 0.00032096429
0.093342856 -0.11077721 -0.46590912 2.2377864e-05 -5.6972458e-05 1 0.00021520793
0.10445662 -0.11536489 -0.46590918 9.3201688e-06 -6.8658119e-05 1 0.00027600164
0.11321304 -0.11383826 -0.46590915 1.575072e-06 2.1015996e-05 1 0.00022622525
0.12573835 -0.11393798 -0.46590918 0.00011944304 -4.8368674e-05 1 0.00030463564
0.13402957 -0.11467085 -0.46590915 5.7944577e-05 -7.9892598e-06 1 0.00029082215
0.14470863 -0.11494258 -0.46590915 3.8330971e-05 -2.6700944e-05 1 0.00032530207
0.1566453 -0.11806827 -0.46590915 3.7087768e-05 -1.984787e-05 1 0.00029419642
0.16060959 -0.11804426 -0.46590912 8.3429375e-05 -4.2991058e-05 1 0.00028217255
0.17477521 -0.11499833 -0.46590915 2.8883944e-05 -5.8053756e-05 1 0.00024318226
0.18568549 -0.11717097 -0.46590918 2.2990257e-06 -4.3804524e-05 1 0.00019278179
0.19570383 -0.11287695 -0.46590915 -0.0026671938 -0.016444186 0.9998613 0.0033847585
0.20346601 -0.11289614 -0.46590915 -0.012331309 0.041186776 0.99907529 0.036961515
0.21608105 -0.11516652 -0.46526989 -0.70152056 0.40139943 0.58885264 0.22352441
0.22352096 -0.11454078 -0.46399051 -0.76285356 0.39357078 0.51298773 0.17767124
-0.2274078 -0.10245818 -0.46469754 0.84380549 0.43836892 0.30955616 0.14790499
-0.21381117 -0.10362314 -0.46590915 -0.046480324 0.00184237 0.99891758 0.11405415
-0.20366247 -0.1046525 -0.46590915 -0.0047646859 -0.011515481 0.99992234 0.021419644
-0.19632785 -0.10650202 -0.46590915 0.021510068 0.015500637 0.99964845 0.00093793438
-0.18437269 -0.10587133 -0.46590912 -9.6677773e-05 -1.0204014e-05 1 0.00033981449
-0.17419185 -0.10540757 -0.46590915 -0.00013016656 -2.6482669e-05 1 0.00032796856
-0.1642216 -0.10874105 -0.46590918 -1.7744673e-06 -2.9014758e-05 1 0.00033454056
-0.15514478 -0.10593009 -0.46590918 -3.4536017e-05 1.6940452e-05 1 0.0002583444
-0.14605306 -0.10202533 -0.46590915 -6.1571831e-05 -3.7844024e-05 1 0.0003110758
-0.13391638 -0.1052705 -0.46590915 -5.0793431e-05 -5.8782436e-05 1 0.00027107098
-0.12428434 -0.10265549 -0.46590915 -6.5061606e-05 -4.5252014e-05 1 0.00026980659
-0.11693396 -0.10725302 -0.46590912 -5.1310381e-05 -4.7533009e-05 1 0.00032257885
-0.10431167 -0.10464671 -0.46590915 -1.8691804e-05 -9.3145398e-05 1 0.00034503671
-0.095425248 -0.10678053 -0.46590918 0 0 1 0.00024046769
-0.086838722 -0.10270899 -0.46590915 -3.4900691e-05 -1.4625382e-05 1 0.00017967884
-0.073938109 -0.1053637 -0.46590912 -1.608146e-05 -5.4300734e-05 1 0.00021218028
-0.064786829 -0.10992326 -0.46590918 -4.2933814e-05 -5.9469672e-05 1 0.0001599637
-0.055311371 -0.10507371 -0.46590915 -1.9931738e-05 -5.666904e-05 1 0.00025128154
-0.046460051 -0.10215618 -0.46590915 -3.4337856e-05 -7.6924422e-05 1 0.00029825067
-0.035934955 -0.10431478 -0.46590915 -7.9711326e-06 -4.826568e-05 1 0.00032211837
-0.024211213 -0.10528299 -0.46590915 -9.0308158e-06 -3.077128e-05 1 0.00025617419
-0.011657708 -0.10875239 -0.46590915 -5.1789275e-06 -5.250948e-05 1 0.00019553973
-0.0066915541 -0.10637911 -0.46590915 6.6337168e-07 -1.7088894e-05 1 0.00022335979
0.0035351554 -0.1037715 -0.46590915 2.3636917e-06 -2.9847975e-05 1 0.00024727776
0.014943752 -0.10408354 -0.46590915 1.2417389e-05 -4.7585083e-05 1 0.00032962591
0.026073687 -0.10135623 -0.46590915 1.8948382e-05 -2.9887307e-05 1 0.00032762164
0.030688535 -0.10195634 -0.46590918 2.941393e-05 -4.3993397e-05 1 0.00032290997
0.045705911 -0.10394779 -0.46590915 2.9357148e-05 -2.6440175e-05 1 0.00034128412
0.0574499 -0.10597952 -0.46590915 1.5091192e-05 -3.1235701e-05 1 0.00027761931
0.065525912 -0.10227424 -0.46590912 1.1202111e-05 -3.5725065e-05 1 0.00031933541
0.076341517 -0.10734857 -0.46590915 2.1113497e-05 -5.4182288e-05 1 0.00026848525
0.087468088 -0.10672724 -0.46590915 6.0647271e-05 -7.5153039e-05 1 0.00031169681
0.095294572 -0.10411536 -0.46590915 8.3023286e-07 -3.7293274e-05 1 0.00023029068
0.10559895 -0.10677991 -0.46590912 3.1079166e-05 6.9344369e-06 1 0.0001821864
0.1132273 -0.10287244 -0.46590915 -8.2700089e-06 -8.6072709e-05 1 0.00032307624
0.12657692 -0.1051968 -0.46590915 3.6696609e-05 -1.1550188e-06 1 0.00018153685
0.13083841 -0.10468028 -0.46590918 4.948648e-05 -3.4731562e-05 1 0.00035491507
0.14558935 -0.10107411 -0.46590912 8.9449808e-05 -3.621979e-05 1 0.00028736878
0.15479316 -0.10728181 -0.46590912 5.9376576e-05 -3.0217499e-05 1 0.00030910043
0.16500647 -0.1074443 -0.46590918 8.1336133e-05 1.1140825e-05 1 0.00014324534
0.17741902 -0.10583525 -0.46590915 3.2105891e-05 -1.9084433e-05 1 0.00031324735
0.18066047 -0.10550443 -0.46590918 -5.9439546e-05 -7.2329407e-05 1 0.00023451308
0.19441751 -0.10479169 -0.46590915 -0.0053201471 0.0042880885 0.99997658 0.00022420099
0.20402323 -0.10138211 -0.46590915 0.079197049 -0.020700952 0.99664402 0.014537533
0.21541026 -0.10433318 -0.46590912 -0.11063649 0.38502735 0.91624969 0.18859708
0.22280887 -0.10664856 -0.46578819 0.0030508533 0.0016634404 0.99999392 0.28193751
-0.23132856 -0.093361743 -0.46688643 0.84646875 0.36663803 0.38609228 0.1931545
-0.22419803 -0.097256921 -0.46541092 0.47289905 0.40716091 0.78140032 0.26162508
-0.21746944 -0.095238417 -0.46590915 -0.036360651 -0.13893233 0.9896341 0.1805135
-0.20604172 -0.096745506 -0.46590915 0.040802315 0.035472751 0.99853742 0.023200866
-0.19599797 -0.096884586 -0.46590915 0.0022739298 0.00015551035 0.99999744 0.00018908248
-0.18586428 -0.09310773 -0.46590918 -9.7077784e-05 -2.1943712e-05 1 0.00031953209
-0.1706083 -0.099304967 -0.46590918 -6.4366395e-05 -3.1268901e-05 1 0.00029301806
-0.16474214 -0.095554806 -0.46590918 -4.4843171e-05 3.167055e-06 1 0.00024443155
-0.15565194 -0.092449583 -0.46590915 -0.00014385434 -6.7457993e-05 1 0.00029363137
-0.14356118 -0.09520907 -0.46590915 -0 -0 1 0.00029762264
-0.12313852 -0.091800936 -0.46590912 -5.2536641e-05 -1.9062361e-05 1 0.00034687045
-0.11444712 -0.093982637 -0.46590912 -4.2094438e-05 -3.985126e-05 1 0.00029969701
-0.10399614 -0.094372019 -0.46590918 -2.9286787e-06 -2.2130655e-05 1 0.0002838189
-0.096038722 -0.092086732 -0.46590915 -3.6856232e-05 3.877557e-06 1 0.00027601936
-0.086211443 -0.09542498 -0.46590915 -1.8130033e-05 -8.2193881e-05 1 0.00023444426
-0.06568259 -0.095663406 -0.46590915 -1.239785e-05 -6.7298184e-05 1 0.00025109752
-0.056076754 -0.094021924 -0.46590915 -8.7088523e-07 -4.5269033e-05 1 0.00031255835
-0.045512009 -0.094081245 -0.46590915 -2.4537636e-05 -4.724985e-05 1 0.00030018057
-0.035783742 -0.09328232 -0.46590912 -5.6053273e-06 -6.2166415e-05 1 0.00018395203
-0.026351832 -0.093472511 -0.46590912 -2.772488e-06 -6.9981048e-05 1 0.00023783906
-0.014010112 -0.096925788 -0.46590915 -4.1163244e-06 -4.5682344e-05 1 0.00027370092
0.0056880321 -0.097417422 -0.46590918 6.0333568e-06 -4.389184e-05 1 0.00026385763
0.013167928 -0.095085628 -0.46590915 1.1907963e-05 -5.5618249e-05 1 0.00027110294
0.024960201 -0.092697322 -0.46590915 1.0808751e-05 -5.397616e-05 1 0.00036725047
0.038265806 -0.094285488 -0.46590918 -5.5580513e-06 -5.6466961e-05 1 0.00032107564
0.04373537 -0.092736937 -0.46590918 -5.2593055e-07 -3.8404436e-05 1 0.00027328974
0.05809449 -0.098582119 -0.46590918 2.8633982e-05 -6.2633349e-05 1 0.00027867415
0.064146437 -0.096625052 -0.46590912 2.9709179e-05 -2.9239465e-05 1 0.00029006274
0.076575197 -0.097946882 -0.46590915 2.1358217e-05 -5.1116356e-05 1 0.00028537103
0.08578226 -0.094384968 -0.46590915 5.4532928e-05 -4.4834764e-05 1 0.00028823488
0.09436135 -0.094432764 -0.46590915 -1.334083e-06 -2.0212514e-05 1 0.00023015564
0.10763695 -0.093217365 -0.46590915 1.0496577e-05 -3.8694401e-05 1 0.00024075028
0.11520897 -0.098081864 -0.46590912 1.6585371e-05 -5.1979699e-05 1 0.00029242045
0.12709084 -0.096088275 -0.46590915 6.5555243e-05 -1.4093194e-05 1 0.00028743487
0.13729265 -0.094722301 -0.46590912 6.8551344e-05 -4.3481068e-05 1 0.00029746318
0.14751747 -0.093808606 -0.46590918 6.9967798e-05 -3.516021e-05 1 0.00026822809
0.15696447 -0.092924774 -0.46590915 0.00010634262 -4.842268e-05 1 0.00031658713
0.16632284 -0.097974218 -0.46590915 -1.0187547e-06 -1.4926959e-05 1 0.0003245007
0.17245352 -0.094795898 -0.46590915 0.00010537971 -1.9411709e-05 1 0.0003045034
0.18608928 -0.092782274 -0.46590918 0.0001201747 -5.9116235e-05 1 0.00024535111
0.20510224 -0.094681412 -0.46590915 0.024041446 -0.0011631546 0.99971032 0.0049491264
0.2158531 -0.093286358 -0.46590915 0.11091316 -0.00030722952 0.99383008 0.098494694
0.22896293 -0.097342074 -0.46599874 -0.69710666 0.49297515 0.5205937 0.18818022
0.2309024 -0.094682008 -0.46584845 -0.70666796 0.39009792 0.59029144 0.22229747
-0.23582041 -0.083673567 -0.46475855 0.89720386 0.22431628 0.3804045 0.1875305
-0.22617614 -0.088595837 -0.46590918 -0.030430228 0.06604901 0.9973523 0.19531299
-0.21707624 -0.082317062 -0.46590912 -0.085796587 0.078627989 0.99320519 0.076635338
-0.20412114 -0.082572252 -0.46590915 -0.0022415668 -0.00068162277 0.99999726 0.00024696035
-0.19509411 -0.082989879 -0.46590918 -4.2051266e-05 -2.9021836e-05 1 0.00030347033
-0.18430956 -0.08696723 -0.46590915 -6.6351953e-05 -1.3454687e-05 1 0.00031496907
-0.17785624 -0.082826778 -0.46590915 -6.7253997e-05 -1.3625122e-05 1 0.00031873031
-0.16229275 -0.086514756 -0.46590915 -7.0617636e-05 -4.4035849e-05 1 0.00024470061
-0.15779749 -0.084155507 -0.46590915 -6.5135304e-05 -1.8502784e-05 1 0.00031988966
-0.14315891 -0.086770386 -0.46590912 -6.5494918e-05 -2.5139116e-06 1 0.00028613277
-0.13009 -0.082135662 -0.46590918 -3.3466116e-05 -5.5009994e-05 1 0.00031763021
-0.12620619 -0.082425751 -0.46590915 -4.2622683e-05 1.7841558e-07 1 0.00025221027
-0.11670607 -0.083054133 -0.46590915 -3.2477765e-05 -2.6677803e-06 1 0.00032207181
-0.10052166 -0.085213855 -0.46590912 -2.3060709e-05 -5.5401695e-05 1 0.00030825246
-0.093963347 -0.086450778 -0.46590918 -3.8226142e-05 -5.9715061e-05 1 0.00031973061
-0.088446215 -0.086073928 -0.46590912 -4.6008008e-05 -2.9953007e-05 1 0.00032831574
-0.07205385 -0.086620823 -0.46590918 -3.6945301e-05 -0.00012143286 1 0.00024313842
-0.065245524 -0.083402641 -0.46590915 -2.0776417e-05 -3.2051386e-05 1 0.00024735313
-0.053552404 -0.088749275 -0.46590915 -1.9340787e-05 -3.424802e-05 1 0.00028709957
-0.046324 -0.087553911 -0.46590918 -4.8061269e-05 -4.9309707e-05 1 0.00028093846
-0.035940193 -0.083525024 -0.46590915 -1.3754458e-05 -1.6698581e-05 1 0.00026964536
-0.021167167 -0.08383134 -0.46590915 -1.3827347e-05 1.8438792e-05 1 0.0001420429
-0.015403136 -0.081995726 -0.46590912 -4.925465e-06 -6.2966541e-07 1 0.0003072102
-0.0066406606 -0.083933294 -0.46590915 2.4515775e-06 -3.4320547e-05 1 0.00026549323
0.0050999541 -0.082960278 -0.46590912 -5.8439146e-06 -8.6660795e-05 1 0.00027907619
0.011061748 -0.082452297 -0.46590915 -3.013711e-06 -8.7276996e-05 1 0.00028032865
0.025452774 -0.084417954 -0.46590915 1.2013424e-05 -1.9249721e-05 1 0.00033665099
0.038429566 -0.089276612 -0.46590918 2.5409706e-06 -7.303532e-05 1 0.00033021715
0.044201247 -0.085365996 -0.46590918 4.1928265e-06 -4.2235475e-05 1 0.00035217032
0.052973427 -0.082443297 -0.46590912 2.2855156e-05 -3.8607279e-05 1 0.00034385751
0.063806705 -0.084181435 -0.46590915 2.6229653e-05 -2.3350554e-05 1 0.00034990758
0.074109465 -0.086255096 -0.46590915 4.564671e-05 -3.4472192e-05 1 0.00035039824
0.084077522 -0.080718063 -0.46590912 1.769455e-05 -1.5449075e-05 1 0.00028253175
0.095693715 -0.085231915 -0.46590918 2.2927334e-07 -4.0708157e-05 1 0.0003121898
0.1019233 -0.080466941 -0.46590918 1.9665711e-05 1.6612037e-05 1 0.0002616157
0.13795295 -0.083488151 -0.46590918 0.00014705553 -3.0221745e-05 1 0.00028294147
0.14478223 -0.085125104 -0.46590912 4.1217656e-05 -6.2878739e-06 1 0.00028102269
0.15644771 -0.087321699 -0.46590912 8.1618193e-05 -4.6807902e-05 1 0.00032695686
0.16161919 -0.080109023 -0.46590912 3.2705124e-05 -5.0645063e-05 1 0.00031992403
0.17477013 -0.083672553 -0.46590909 0.00015466264 -7.5047363e-05 1 0.0002641544
0.18746895 -0.081918627 -0.46590912 0.00012000753 -3.3505876e-05 1 0.00016080133
0.19228792 -0.08155825 -0.46590915 2.1594738e-06 -3.1302083e-05 1 0.00015841349
0.20629807 -0.085798912 -0.46590915 -0.00014874004 0.00024298453 1 0.00019681815
0.21622959 -0.081816182 -0.46590912 0.12195893 -0.031222211 0.99204391 0.060480833
0.22212565 -0.086183079 -0.46590915 0.21987045 -0.08046747 0.97220469 0.12209877
-0.24021354 -0.074360535 -0.46571839 0.79547942 0.25998095 0.54737777 0.13777255
-0.23685327 -0.075233787 -0.4660815 0.59030086 0.13224687 0.79627615 0.15161847
-0.22768708 -0.076133221 -0.46590915 -0.01888323 0.055843599 0.99826092 0.13041468
-0.21513657 -0.07467825 -0.46590915 -0.046436567 -0.0023039598 0.99891865 0.017925825
-0.20648415 -0.074570097 -0.46590915 0.0015866953 0.0019821008 0.99999672 0.00020041844
-0.19464286 -0.073874749 -0.46590915 -3.7732898e-05 -4.1445172e-05 1 0.00023776419
-0.18208462 -0.070302919 -0.46590918 -3.0043555e-05 -2.4233555e-05 1 0.00031649237
-0.17544064 -0.076607138 -0.46590912 -0.00011440383 -4.6915055e-05 1 0.00031450574
-0.16402511 -0.073946409 -0.46590915 -3.3010758e-05 -1.3453096e-06 1 0.00033356962
-0.15590864 -0.074014619 -0.46590918 -0.0001060401 -3.3870849e-05 1 0.00030697678
-0.14441618 -0.072783455 -0.46590918 -2.6649586e-06 -3.7491624e-05 1 0.00034266507
-0.13633968 -0.071496077 -0.46590912 -5.6598452e-05 -5.1873543e-05 1 0.00034006554
-0.12049666 -0.077247173 -0.46590918 -3.3843156e-05 -3.1384784e-06 1 0.00033886248
-0.1168354 -0.077545471 -0.46590915 -2.3244656e-06 -1.5261818e-05 1 0.00031724258
-0.10435921 -0.077119596 -0.46590912 -8.6794367e-05 -2.3310105e-05 1 0.00035762673
-0.094713897 -0.076224007 -0.46590921 3.3536087e-06 -3.5813897e-05 1 0.00018450133
-0.082354002 -0.076751627 -0.46590915 -1.3490931e-05 -4.7807567e-05 1 0.00031243465
-0.077586748 -0.073577896 -0.46590915 -1.63404e-05 7.7481775e-07 1 0.00032566389
-0.064068608 -0.072986603 -0.46590918 -4.1340492e-05 -5.3011103e-05 1 0.00033614351
-0.055382643 -0.075847685 -0.46590915 -3.9441682e-05 -6.1115621e-05 1 0.00027950373
-0.047086123 -0.073432542 -0.46590909 -3.8424882e-06 -5.9363509e-05 1 0.00028139679
-0.033224504 -0.076987728 -0.46590912 -1.4286572e-05 -3.0160465e-05 1 0.00032529407
-0.026290085 -0.079443485 -0.46590915 -1.1801303e-05 -3.4231045e-05 1 0.00034353082
-0.017047301 -0.073540308 -0.46590915 -1.4912367e-05 -1.8901363e-05 1 0.0002911585
-0.0053430875 -0.075510286 -0.46590915 -9.1933208e-07 -3.3240449e-05 1 0.0003287578
0.0024850261 -0.077789128 -0.46590912 -9.2685411e-07 -1.6727805e-05 1 0.00029702359
0.01717991 -0.07554689 -0.46590915 6.8099439e-06 -3.0180205e-05 1 0.00028848377
0.024004906 -0.07836891 -0.46590915 4.045995e-06 -3.4707507e-05 1 0.00034199705
0.035452273 -0.0760585 -0.46590915 0 0 1 0.00032456819
0.043429401 -0.076017402 -0.46590915 2.8332302e-05 -1.3421581e-05 1 0.00032858117
0.05752562 -0.076939359 -0.46590918 2.4309373e-05 -2.7154825e-05 1 0.00029975746
0.061992392 -0.07701619 -0.46590912 3.6499878e-05 -3.7100279e-05 1 0.00029327528
0.074853316 -0.073693275 -0.46590915 1.6775375e-05 -3.3539854e-05 1 0.00028367012
0.084483117 -0.07637164 -0.46590918 1.5601034e-05 -1.8178895e-05 1 0.00031111107
0.09536925 -0.074593335 -0.46590915 1.7838714e-06 -3.0762207e-05 1 0.00017308477
0.10704992 -0.076374508 -0.46590915 -0 -0 1 0.0002080983
0.11585206 -0.076069772 -0.46590915 4.0020073e-05 -4.728233e-05 1 0.00012990492
0.12488055 -0.075817674 -0.46590912 6.4889624e-05 -1.1056659e-05 1 0.0002188026
0.13344787 -0.075927183 -0.46590915 0.00010259049 5.0249246e-06 1 0.00016902359
0.14506352 -0.074242346 -0.46590915 2.8539264e-06 -3.9584305e-05 1 0.00025308147
0.15400325 -0.075360268 -0.46590915 8.8136156e-05 -6.9370326e-05 1 0.00035325132
0.16509067 -0.074392304 -0.46590912 8.6904049e-07 -5.0407529e-05 1 0.00029275395
0.1712497 -0.071589395 -0.46590912 6.6348519e-05 -3.1623807e-05 1 0.00034065713
0.18573309 -0.074672759 -0.46590915 0.00010274464 -5.0733415e-05 1 0.00028279462
0.20289084 -0.071457461 -0.46590915 9.2546892e-05 -4.1192761e-05 1 0.0002809682
0.21047819 -0.073412672 -0.46590918 -0.013307295 0.0010910084 0.99991089 0.00055814168
0.22546196 -0.075069673 -0.46590915 0.13356456 -0.12073205 0.98365867 0.10300937
0.23758051 -0.075842194 -0.46347338 -0.59156752 0.051405028 0.80461508 0.22716838
0.24081716 -0.072761692 -0.46331614 -0.82072437 0.17704889 0.543199 0.2108428
-0.24171519 -0.064593211 -0.46624666 0.76556641 0.23524143 0.59880668 0.20280187
-0.23362254 -0.065246619 -0.46590915 0.038743295 0.0032950712 0.9992438 0.17519836
-0.22674149 -0.066652022 -0.46590915 0.022545397 -0.13468279 0.9906323 0.12091078
-0.21892178 -0.062365454 -0.46590912 -0.034290161 -0.013912395 0.99931508 0.0069847526
-0.20903599 -0.065616734 -0.46590912 -0.00076286652 -0.00029827101 0.99999964 0.00021005767
-0.19611746 -0.064987838 -0.46590918 -6.8159337e-05 -3.0568764e-05 1 0.00033167377
-0.18684945 -0.068604954 -0.46590918 -3.6603225e-05 -1.2173922e-05 1 0.00025935032
-0.1781435 -0.061790723 -0.46590918 -4.4225658e-07 -7.5617831e-06 1 0.00026613125
-0.16529314 -0.065014154 -0.46590915 -3.4230947e-05 -1.5945465e-05 1 0.00030300647
-0.15331408 -0.066122442 -0.46590918 -5.1652383e-05 -4.540995e-05 1 0.00031515057
-0.1418598 -0.060443856 -0.46590915 -3.1527969e-05 -2.3631677e-05 1 0.00032911202
-0.13288641 -0.064986587 -0.46590912 -3.9369224e-05 -3.9540355e-05 1 0.00037386513
-0.12657937 -0.0662314 -0.46590918 -7.6114397e-05 -7.6723936e-06 1 0.00035250292
-0.11511162 -0.065731414 -0.46590918 -8.4801744e-05 -5.2000189e-05 1 0.00030032324
-0.10627704 -0.062003054 -0.46590918 -4.7265636e-05 -2.384393e-05 1 0.00032018163
-0.092046902 -0.063670158 -0.46590915 -4.7896177e-05 -3.4076631e-05 1 0.00031649164
-0.085522093 -0.064844295 -0.46590909 -1.4390461e-05 -3.03545e-05 1 0.00032863783
-0.072251484 -0.062711537 -0.46590918 -3.3107066e-05 -6.2546482e-05 1 0.00027949436
-0.064159438 -0.066159539 -0.46590915 -3.0526287e-05 -3.5086203e-05 1 0.00027060762
-0.053559359 -0.065349773 -0.46590912 -1.9200839e-05 -1.6390635e-05 1 0.00026113869
-0.042560518 -0.061675671 -0.46590912 -2.4976256e-05 -4.0930743e-05 1 0.00030270396
-0.036618449 -0.062118769 -0.46590912 -1.6077673e-05 -2.3472725e-05 1 0.00028188265
-0.020405838 -0.063967079 -0.46590918 -1.5755513e-05 -4.2593692e-05 1 0.00029665453
-0.014882993 -0.065901116 -0.46590918 -9.7911734e-06 -6.4457265e-05 1 0.00034279187
-0.0082309283 -0.066457123 -0.46590915 -9.9300144e-07 -1.1129557e-05 1 0.00036354281
0.0058737178 -0.063950494 -0.46590915 1.7853862e-06 -3.1604191e-05 1 0.00034906177
0.014282987 -0.064811692 -0.46590918 7.1533013e-06 -2.0766394e-05 1 0.00019252552
0.02591457 -0.067151934 -0.46590915 -8.6128443e-07 -2.1525611e-05 1 0.00026101689
0.031108391 -0.067009047 -0.46590912 7.0516321e-06 -1.3659306e-05 1 0.00028159216
0.059264421 -0.066982836 -0.46590915 1.9303312e-05 -4.7879978e-05 1 0.00026208375
0.064278103 -0.066524372 -0.46590915 -1.0764799e-06 -2.876243e-05 1 0.00018707733
0.079040945 -0.067204148 -0.46590912 3.0404033e-05 -3.5514928e-05 1 0.00033770379
0.085171022 -0.064738005 -0.46590915 6.4828708e-07 -9.0016965e-06 1 0.00027547788
0.098908514 -0.062935978 -0.46590912 3.664512e-05 -3.3625689e-05 1 0.0003270896
0.10455659 -0.061724924 -0.46590915 6.2136722e-05 -1.3080479e-05 1 0.0001827063
0.11669579 -0.062832013 -0.46590918 -1.7233786e-05 -2.1735932e-05 1 0.00017422863
0.13819629 -0.066880502 -0.46590912 7.3253846e-05 -2.1901258e-05 1 0.00030441643
0.14436001 -0.063698538 -0.46590915 6.1878352e-05 -2.4097832e-05 1 0.00030759588
0.15592726 -0.064731151 -0.46590915 5.3122279e-05 -5.3779397e-05 1 0.00027137317
0.1653325 -0.066342466 -0.46590915 3.7953232e-05 -2.5496429e-05 1 0.00031290841
0.17252721 -0.065496139 -0.46590915 6.2835839e-05 -4.1797532e-05 1 0.0003016663
0.18613419 -0.065507859 -0.46590915 6.1996267e-05 -3.7092916e-05 1 0.0003053415
0.19803956 -0.065722957 -0.46590912 2.470518e-06 -5.2084968e-05 1 0.0002927348
0.20579924 -0.062727265 -0.46590915 0.0001808925 -2.875869e-05 1 0.00033844559
0.2142089 -0.063800566 -0.46590915 -0.016627476 0.0092440853 0.99981898 0.00085772853
0.22231236 -0.063445523 -0.46590912 0.012718184 -0.016528675 0.99978244 0.039412361
0.23268889 -0.064400956 -0.46590915 0.10851431 -0.1350316 0.98488122 0.13451011
0.24298194 -0.06212984 -0.46596903 -0.84439665 0.22340348 0.48691398 0.22841278
-0.24430192 -0.052442346 -0.46367642 0.78229171 0.38276473 0.49143764 0.1891416
-0.23574601 -0.053839847 -0.46590918 0.29460591 0.13065445 0.94664502 0.17723036
-0.22228315 -0.05896426 -0.46590918 0.033075191 -0.016160851 0.99932218 0.028539659
-0.21624887 -0.055467851 -0.46590915 0.0078772809 -0.0025082107 0.99996585 0.0005358631
-0.20598787 -0.057867963 -0.46590915 -0.00012905865 -3.2896448e-06 1 0.00025754125
-0.19599411 -0.054522768 -0.46590912 -9.790004e-05 -3.1791082e-05 1 0.0003222911
-0.18369377 -0.053269908 -0.46590912 -0 -0 1 0.00022296235
-0.1738129 -0.054434352 -0.46590915 3.4436835e-05 -5.8541671e-05 1 0.0003070994
-0.16684501 -0.056477606 -0.46590912 -0.00017355484 -4.189619e-05 1 0.0003210736
-0.1531174 -0.054978918 -0.46590915 -7.8384306e-05 -1.6178072e-05 1 0.00033305457
-0.1468477 -0.056446649 -0.46590915 1.277035e-06 -2.0123862e-05 1 0.00025337088
-0.13105327 -0.054633889 -0.46590918 -7.4908545e-05 -3.1693824e-05 1 0.00034576748
-0.12238702 -0.055143524 -0.46590915 -3.3977482e-05 -2.0077921e-05 1 0.00034852437
-0.11575232 -0.053972136 -0.46590915 -5.6430075e-05 -2.1154723e-05 1 0.00034602763
-0.10494771 -0.054276891 -0.46590918 -1.4947849e-05 1.5415952e-06 1 0.00031070889
-0.094684303 -0.053127632 -0.46590912 -3.2860138e-05 -4.3533149e-05 1 0.00032857014
-0.080331162 -0.058368564 -0.46590915 -2.4330979e-05 -4.3039076e-05 1 0.00029080798
-0.073329613 -0.054636702 -0.46590915 -2.7496777e-05 -2.2147366e-05 1 0.00019082248
-0.067350246 -0.053503666 -0.46590915 -3.4295976e-05 -3.7290643e-05 1 0.00026671693
-0.055430442 -0.05469957 -0.46590915 -1.4927246e-05 3.5398721e-06 1 0.00027248284
-0.032751482 -0.054622412 -0.46590915 -2.5563491e-05 -4.091725e-05 1 0.00029373911
