# .PCD v0.7 - Point Cloud Data file format
VERSION 0.7
FIELDS x y z normal_x normal_y normal_z curvature
SIZE 4 4 4 4 4 4 4
TYPE F F F F F F F
COUNT 1 1 1 1 1 1 1
WIDTH 660
HEIGHT 1
VIEWPOINT 0 0 0 1 0 0 0
POINTS 660
DATA ascii
-0.18484509 -0.14288767 0.36486483 -0.0008651684 0.076258846 -0.99708772 0.0077281869
-0.17586854 -0.14742592 0.36486486 0.042210106 0.20227204 -0.97841924 0.036219999
-0.16584089 -0.14770551 0.36486486 -0.01086705 0.14320795 -0.9896329 0.02092389
-0.1533341 -0.14456578 0.36486486 0.0075781792 0.042051163 -0.99908668 0.0028921929
-0.14869809 -0.14320154 0.36486486 0.010491259 0.034608521 -0.99934584 0.002597309
-0.13663028 -0.14808699 0.36486486 -0.0022144641 0.094919227 -0.9954825 0.014315371
-0.11335911 -0.14561051 0.36486489 1.5754091e-05 1.8597206e-05 -1 0
-0.1052589 -0.14495623 0.36486486 -0.0023483091 0.0066581955 -0.99997509 0.00010419489
-0.098757051 -0.14608759 0.36486486 -0.0016014186 0.00715718 -0.99997318 0.00011069188
-0.088251606 -0.14435029 0.36486483 4.4318444e-06 -1.793718e-05 -1 0
-0.054656334 -0.14458366 0.36486486 1.2906809e-05 4.2791584e-05 -1 0
-0.045898575 -0.14777108 0.36486486 2.3357245e-05 1.7268483e-05 -1 0
-0.025664214 -0.14491114 0.36486489 -1.8991167e-06 9.1430695e-05 -1 0
-0.01302444 -0.14061499 0.36486486 -3.3281387e-06 1.9269286e-05 -1 0
-0.0077629634 -0.14187917 0.36486486 1.4546875e-06 1.9290845e-05 -1 0
0.005830653 -0.14224294 0.36486486 3.5443384e-06 4.7325342e-05 -1 0
0.016370505 -0.14422537 0.36486486 -2.5146965e-06 5.6763998e-05 -1 0
0.026486516 -0.14224407 0.36486486 7.8740923e-06 1.7950584e-05 -1 0
0.032575075 -0.14439861 0.36486483 -1.0290903e-05 -5.5344231e-07 -1 0
0.055809509 -0.14615442 0.36486483 0.00045653441 0.0037977379 -0.99999267 0
0.062024396 -0.14284034 0.36486486 1.3259123e-05 6.4911896e-05 -1 0
0.098127708 -0.14735393 0.36486489 -0.0013996136 0.0080833966 -0.99996632 0.00010243089
0.10985024 -0.14483814 0.36486489 -1.6452641e-05 -2.0569856e-05 -1 0
0.11707826 -0.14304429 0.36486486 2.4365714e-05 -5.9674272e-05 -1 0
0.12418 -0.14416976 0.36486486 3.7091856e-06 -6.1831408e-05 -1 0
0.13218875 -0.14273377 0.36486486 -4.7032714e-05 7.077698e-05 -1 0
0.14930451 -0.14288585 0.36486483 1.4767029e-05 1.367379e-06 -1 0
0.1596473 -0.14857027 0.36486486 -0.019445792 0.14189658 -0.98969048 0.015913835
0.17595866 -0.14470427 0.36486483 0.0055798464 0.11367483 -0.99350238 0.013949816
0.18340816 -0.14287207 0.36486486 -0.015615623 0.090891175 -0.99573845 0.010830343
0.1939628 -0.14594659 0.36486486 -0.021405453 0.14638753 -0.98899567 0.026425039
0.20693028 -0.14446029 0.36486483 -0.035383068 0.22293003 -0.97419208 0.038567763
0.21639994 -0.14435646 0.36486486 -0.030715942 0.2504698 -0.967637 0.038764447
0.22358829 -0.14490642 0.36486486 -0.043749753 0.22716552 -0.97287291 0.031924948
0.2364599 -0.14020583 0.36486486 -0.074605383 0.2030295 -0.97632629 0.024494344
0.24381082 -0.14058788 0.36486483 -0.032185648 0.21204387 -0.97672993 0.025929926
0.25291908 -0.14376959 0.36486486 -0.013456542 0.2569257 -0.96633738 0.031671528
0.26616722 -0.14610395 0.36486486 -0.038282853 0.41746089 -0.90788811 0.061954774
0.27632347 -0.14890373 0.36486489 -0.042779092 0.45235839 -0.89080966 0.071095794
0.28270343 -0.14355172 0.36486486 -0.094827712 0.44407994 -0.89095491 0.068494
0.29377395 -0.14672068 0.36480778 -0.18542723 0.61574692 -0.76581496 0.066402361
0.30601251 -0.14486279 0.36336917 -0.16212411 0.74787229 -0.64374125 0.086993791
-0.36384839 -0.13312355 0.36295772 0.31570753 0.67592561 -0.66592282 0.10417889
-0.35160685 -0.13519973 0.36339146 0.091952264 0.38486254 -0.91838211 0.040303774
-0.34376207 -0.13803856 0.36413443 0.042235501 0.5997746 -0.79905367 0.080102287
-0.33524013 -0.134946 0.36486486 0.093811631 0.57506746 -0.81270957 0.099725917
-0.32235685 -0.13343525 0.36486486 0.015026665 0.43460086 -0.90049773 0.084019355
-0.31480852 -0.13609195 0.36486486 0.094761379 0.46368763 -0.88091654 0.080388516
-0.29199937 -0.13375455 0.36486486 0.050282165 0.35620078 -0.93305558 0.075239182
-0.28085637 -0.13805187 0.36486489 0.13722484 0.31703994 -0.93843228 0.06720487
-0.27279496 -0.13352549 0.36486486 0.043134119 0.16688806 -0.9850319 0.014614205
-0.25607586 -0.13673878 0.36486486 0.041053068 0.11387824 -0.99264616 0.010197705
-0.24648404 -0.13642085 0.36486486 0.0080328966 0.11013613 -0.99388403 0.011359203
-0.23373573 -0.13580474 0.36486486 0.016986046 0.092606977 -0.9955579 0.010564256
-0.2232096 -0.13653077 0.36486483 0.014705276 0.074681304 -0.99709898 0.011497234
-0.21473414 -0.13572061 0.36486486 0.0028388691 0.017616335 -0.9998408 0.00054620404
-0.20726256 -0.13263427 0.36486486 -3.481824e-05 6.0750648e-05 -1 0
-0.19576071 -0.13208236 0.36486483 3.5833866e-05 1.6156155e-05 -1 0
-0.18294249 -0.13309167 0.36486489 3.6119742e-05 3.1570813e-05 -1 0
-0.17531723 -0.13690262 0.36486486 3.1030999e-05 4.0112005e-05 -1 0
-0.16071597 -0.13137698 0.36486486 2.685153e-05 8.2608101e-05 -1 0
-0.15659638 -0.13633937 0.36486486 -7.9239777e-05 4.4444109e-06 -1 0
-0.14470121 -0.13526677 0.36486483 3.8609909e-05 3.1154006e-05 -1 0
-0.13845044 -0.13488328 0.36486489 6.2777894e-05 2.3033892e-05 -1 0
-0.12477183 -0.13548659 0.36486483 2.590795e-05 6.4671425e-05 -1 0
-0.11856654 -0.13410549 0.36486486 2.2705574e-06 2.0312031e-05 -1 0
-0.10335112 -0.13811086 0.36486486 -9.3504508e-07 -1.4692336e-05 -1 0
-0.096277997 -0.13573171 0.36486486 1.4268898e-05 -4.8732494e-05 -1 0
-0.085311733 -0.13567694 0.36486486 -8.3692667e-06 -3.5177043e-05 -1 3.7343081e-05
-0.070447728 -0.1355515 0.36486486 -2.4264502e-05 9.984152e-07 -1 0
-0.064272061 -0.1376715 0.36486489 -2.2233635e-06 1.9358795e-05 -1 0
-0.043637175 -0.13428859 0.36486486 -6.5681534e-06 1.4265657e-05 -1 0
-0.031008311 -0.13575332 0.36486483 3.0142701e-06 1.5306223e-05 -1 0
-0.021798711 -0.13701463 0.36486486 0.023730481 0.0351776 -0.99909931 0.050554387
-0.019165033 -0.13713497 0.36486489 0.017045075 0.038332812 -0.9991197 0.055717684
-0.0025486073 -0.13598205 0.36486483 -0.020638023 0.061010089 -0.99792379 0.058507662
0.0080333892 -0.13090014 0.36486486 -0.00858586 0.07207077 -0.99736261 0.0087628048
0.018180195 -0.13199069 0.36486483 0.00084837171 0.0071393005 -0.99997419 0
0.028699785 -0.13645406 0.36486486 0 0 -1 0
0.035365116 -0.13208623 0.36486486 -1.3525429e-05 4.0410589e-05 -1 0
0.043699551 -0.1358092 0.36486486 -1.1174243e-05 8.8384091e-05 -1 0
0.053104371 -0.13508922 0.36486483 -9.3421249e-07 2.1330125e-05 -1 0
0.067584127 -0.13479373 0.36486486 1.9701538e-05 -3.9182241e-06 -1 0
0.075868003 -0.13269062 0.36486483 -7.5032849e-06 3.2326796e-05 -1 0
0.087017834 -0.13374178 0.36486483 0 0 -1 0
0.10138425 -0.13577488 0.36486486 4.0077517e-05 5.8330506e-06 -1 0
0.12456704 -0.13713174 0.36486483 4.1425232e-05 -2.2493703e-05 -1 0
0.13361213 -0.13571705 0.36486486 1.6396843e-05 -5.825562e-05 -1 0
0.14965636 -0.13417047 0.36486486 1.4639022e-05 1.5542495e-05 -1 3.1302967e-05
0.15750675 -0.1346828 0.36486489 -6.3205895e-05 9.8896126e-06 -1 0
0.16188043 -0.13917509 0.36486486 -0.0013038663 0.0037553096 -0.99999207 0
0.17004877 -0.13943666 0.36486483 -0.00087389833 0.0041150739 -0.99999118 0
0.18384592 -0.13558297 0.36486483 -0.00011514962 0.0013110592 -0.99999911 0
0.19940139 -0.1345311 0.36486489 -5.6906065e-05 8.5573287e-05 -1 0
0.20410538 -0.13640361 0.36486489 -0.0001054494 0.00010864255 -1 0
0.21492335 -0.13611257 0.36486483 -0.0046196408 0.015008364 -0.99987668 0.00090680621
0.22473307 -0.1355764 0.36486486 -0.036636449 0.082869492 -0.99588674 0.0080526685
0.23702437 -0.13899739 0.36486489 -0.031150535 0.2046071 -0.97834837 0.026542872
0.24390839 -0.13617124 0.36486483 -0.018057419 0.1442802 -0.98937213 0.018048724
0.25789073 -0.13278434 0.36486486 -0.0023566422 0.17716616 -0.98417813 0.032799151
0.26143259 -0.1307207 0.36486483 -0.026378771 0.078612402 -0.99655622 0.012005855
0.27290365 -0.1346011 0.36486483 -0.086645879 0.25318718 -0.96352929 0.05155642
0.29404983 -0.13839267 0.36486486 -0.1458288 0.37320703 -0.9162153 0.064991511
0.30963504 -0.13301927 0.36486489 -0.10822141 0.30195951 -0.9471581 0.046203822
0.31733495 -0.13551961 0.36486483 -0.13091528 0.42275587 -0.89673781 0.053711023
0.32501021 -0.13673498 0.36486486 -0.09051127 0.50483185 -0.85845935 0.064323477
0.33492774 -0.1345492 0.36486486 -0.13568786 0.54137665 -0.82975912 0.066184938
0.34571093 -0.13694566 0.36267936 -0.18084262 0.64490187 -0.7425614 0.079297736
-0.39390433 -0.12108859 0.36087716 0.25988001 0.71739763 -0.64637691 0.067002386
-0.38535002 -0.12463191 0.36234236 0.31321537 0.67163032 -0.67142302 0.088677928
-0.37788877 -0.12327714 0.36456683 0.20013335 0.57597923 -0.79258734 0.090738967
-0.36705974 -0.12419222 0.36486486 0.25233847 0.47245502 -0.84445935 0.076667719
-0.35310474 -0.12775414 0.36486486 0.093830332 0.28916004 -0.95267117 0.049612191
-0.34443626 -0.12597311 0.36486486 0.027571509 0.21971896 -0.97517347 0.027820015
-0.32376567 -0.12313851 0.36486483 0.061527278 0.31598246 -0.94676787 0.068734355
-0.31428185 -0.12612264 0.36486486 0.061536115 0.26363328 -0.96265823 0.046911933
-0.29752526 -0.12812039 0.36486486 0.011320591 0.2501964 -0.96812892 0.042228553
-0.28534716 -0.12005618 0.36486486 -3.3390403e-05 -3.3380404e-06 -1 0
-0.27420804 -0.12611382 0.36486486 0.031999592 0.068184301 -0.99715948 0.007650774
-0.26258227 -0.12687457 0.36486483 0.0087263891 0.039896723 -0.99916571 0.0021255519
-0.25488073 -0.12291822 0.36486486 -0.00011053051 -4.5653478e-06 -1 0
-0.23800983 -0.12827396 0.36486486 3.5681634e-05 3.7210437e-05 -1 0
-0.21517417 -0.12388414 0.36486486 3.1592906e-05 -1.4519168e-05 -1 0
-0.20781577 -0.12969925 0.36486486 -5.4986917e-06 7.7334313e-05 -1 0
-0.19245851 -0.12262428 0.36486486 6.138e-05 8.3456507e-06 -1 0
-0.18556169 -0.12295165 0.36486486 6.1789091e-05 6.0839015e-05 -1 0
-0.17932764 -0.12445135 0.36486489 3.3708544e-05 4.2535266e-05 -1 0
-0.16259912 -0.12471151 0.36486483 2.6973716e-05 6.43198e-05 -1 0
-0.15277229 -0.12442039 0.36486486 3.5765508e-05 5.5059409e-05 -1 0
-0.14471738 -0.12595116 0.36486483 -3.8356167e-05 -2.6665778e-06 -1 0
-0.13735154 -0.1276699 0.36486483 1.8207806e-05 4.9817816e-05 -1 0
-0.12687388 -0.1249449 0.36486492 3.0488745e-05 3.6041278e-05 -1 0
-0.11819516 -0.1284322 0.36486483 4.7801837e-05 5.1533094e-05 -1 0
-0.10006938 -0.12081748 0.36486486 4.2508054e-05 2.7030952e-05 -1 0
-0.086534008 -0.12431379 0.36486486 -1.6296181e-05 2.8299696e-06 -1 0
-0.073146813 -0.12550224 0.36486486 -1.6545651e-05 1.0172197e-06 -1 0
-0.068262517 -0.12318486 0.36486486 0 0 -1 0
-0.055824846 -0.12954406 0.36486483 -1.3067111e-06 -1.8151793e-05 -1 0
-0.043920133 -0.1217823 0.36486486 0.040380303 0.074955381 -0.99636894 0.11976667
-0.033417925 -0.12703417 0.36486486 -0.018355351 0.067116424 -0.99757624 0.090660192
-0.011441004 -0.12017244 0.36486486 -0.085727848 0.35995409 -0.92902309 0.16338342
-0.004625143 -0.12824897 0.36486486 -0.093808912 0.14741035 -0.9846167 0.092966922
0.0037959313 -0.1240726 0.36486486 -0.10347148 0.18741119 -0.97681659 0.10150588
0.017305432 -0.12091701 0.36486486 0.071396336 0.28697553 -0.95527357 0.075303584
0.023906931 -0.1239075 0.36486486 0.1090056 0.19890045 -0.97393864 0.13547535
0.044282705 -0.12714005 0.36486486 9.3934987e-06 1.9774583e-05 -1 0
0.054305989 -0.12386734 0.36486486 -5.7967159e-06 3.2526601e-05 -1 0
0.06251578 -0.1299544 0.36486486 -2.0528441e-05 4.9463972e-05 -1 0
0.078270495 -0.12126376 0.36486489 -8.4550293e-06 1.7482852e-06 -1 0
0.088254541 -0.12852009 0.36486486 -1.2311037e-05 -3.5320852e-05 -1 0
0.095383689 -0.12232854 0.36486486 0 0 -1 0
0.1132276 -0.12470731 0.36486486 -7.8782864e-07 -1.609356e-05 -1 0
0.13433525 -0.12386687 0.36486483 -1.8095287e-06 -2.9363538e-05 -1 0
0.16667658 -0.12638006 0.36486486 -1.9952851e-05 1.3722421e-05 -1 0
0.17663522 -0.12393302 0.36486483 -0 -0 -1 0
0.18581748 -0.12228011 0.36486486 3.0526531e-05 3.9116778e-05 -1 0
0.19893265 -0.12477294 0.36486486 2.5393119e-06 1.9174144e-05 -1 0
0.20678802 -0.12160552 0.36486486 -7.3147115e-05 -3.3243934e-06 -1 0
0.21486819 -0.12734555 0.36486486 -2.525428e-05 1.635527e-05 -1 0
0.22690344 -0.12984195 0.36486486 -8.5580738e-05 3.2333628e-06 -1 0
0.23483253 -0.12126923 0.36486483 -0 -0 -1 0
0.24361429 -0.12452474 0.36486486 -0.00010941993 4.6511279e-05 -1 0
0.2558496 -0.12374499 0.36486483 -0.00023154556 0.00405727 -0.99999171 0
0.26207849 -0.12805694 0.36486489 -0.022006474 0.075869441 -0.99687493 0.01130653
0.27199605 -0.12446067 0.36486486 6.0301118e-05 -5.573839e-05 -1 0
0.28438351 -0.12342879 0.36486486 -0.032799896 0.066627435 -0.9972387 0.0087057408
0.31366906 -0.12173589 0.36486486 -0.031979926 0.19530302 -0.98022133 0.034561392
0.32841915 -0.12041394 0.36486486 -0.015084387 0.1980194 -0.98008209 0.031631
0.33697042 -0.12183173 0.36486486 -0.12219028 0.30768117 -0.94361115 0.059350546
0.34541693 -0.12630707 0.36486486 -0.10479543 0.38405621 -0.91734332 0.079736479
0.3534044 -0.1285979 0.36486486 -0.092210755 0.61699235 -0.78154826 0.070820987
0.36260355 -0.12617674 0.36486486 -0.080538027 0.53934002 -0.83822787 0.055026118
0.37293085 -0.1285885 0.36486486 -0.30339909 0.77477407 -0.55468374 0.069544077
0.38806453 -0.12350752 0.36141148 -0.34818318 0.63235444 -0.69202334 0.10063421
0.39346454 -0.12121525 0.36367103 -0.30643702 0.6083504 -0.73212439 0.091989189
-0.40142709 -0.11656688 0.36315548 0.39050472 0.73746115 -0.5510509 0.069842666
-0.39629671 -0.11309004 0.36486483 0.26891896 0.59631759 -0.75636494 0.06390129
-0.37731227 -0.11703159 0.36486486 0.17527688 0.55606127 -0.8124494 0.078594804
-0.36423743 -0.11497448 0.36486489 0.092047967 0.18612726 -0.97820443 0.044485845
-0.35100117 -0.11026041 0.36486486 0.017049666 0.084471345 -0.99628007 0.010989103
-0.34584278 -0.11529281 0.36486486 0.045129288 0.11133838 -0.99275738 0.012502133
-0.33014688 -0.11526505 0.36486486 0.0090025365 0.10118224 -0.99482715 0.010330121
-0.3230654 -0.11647104 0.36486486 0.016126057 0.088681549 -0.99592948 0.0084771542
-0.31525877 -0.11982398 0.36486486 0.028704436 0.10970138 -0.99355006 0.015751602
-0.30518651 -0.11363816 0.36486483 5.5242108e-05 6.8842593e-05 -1 0
-0.29534328 -0.11341274 0.36486492 2.8813907e-05 2.7168878e-07 -1 0
-0.28492069 -0.11669192 0.36486483 -3.4423909e-05 1.9040208e-05 -1 0
-0.27582014 -0.11604015 0.36486486 0.00014108741 4.5562203e-05 -1 0
-0.26687717 -0.11317772 0.36486486 3.3013333e-05 -3.006227e-06 -1 0
-0.24502097 -0.11698265 0.36486489 9.3996744e-07 1.8398856e-05 -1 0
-0.23566002 -0.11534171 0.36486483 9.0913301e-05 2.1948015e-05 -1 0
-0.22754438 -0.11820352 0.36486483 -4.2906016e-05 -3.4238074e-05 -1 0
-0.21467248 -0.1101138 0.36486489 0 0 -1 0
-0.20728239 -0.11441076 0.36486486 1.0402162e-05 6.2465268e-05 -1 0
-0.19189619 -0.1131418 0.36486486 5.9215188e-05 1.4641022e-05 -1 0
-0.18454766 -0.11789002 0.36486486 4.8608043e-05 -2.7042774e-05 -1 0
-0.1738342 -0.11354367 0.36486483 5.5155544e-07 1.6971142e-05 -1 0
-0.16552675 -0.11244058 0.36486486 6.133422e-05 6.2971478e-05 -1 0
-0.1467732 -0.11755988 0.36486483 2.0457037e-05 -1.1659772e-06 -1 0
-0.13984561 -0.11605134 0.36486486 1.6802967e-05 -5.0820114e-07 -1 0
-0.12602152 -0.11479043 0.36486486 -1.5035947e-05 -1.7249076e-05 -1 0
-0.11484315 -0.11559115 0.36486486 -4.4397766e-06 -3.6998841e-05 -1 0
-0.10638805 -0.11413914 0.36486486 4.2832358e-05 4.0526153e-05 -1 0
-0.092824452 -0.11303651 0.36486486 -3.3335797e-05 -1.4508443e-07 -1 0
-0.080671072 -0.11158875 0.36486486 9.8409046e-06 1.7247548e-05 -1 0
-0.073397085 -0.11382973 0.36486486 0 0 -1 0
-0.062627032 -0.11441603 0.36486486 0.02359047 0.097016215 -0.99500322 0.072638199
-0.053979822 -0.11593755 0.36486489 0.19611321 0.077336766 -0.97752672 0.17192519
-0.04135574 -0.11076412 0.36486486 0.32438022 0.15428104 -0.93326032 0.21342981
-0.033443958 -0.11401007 0.36486486 0.19397973 0.42282709 -0.88520575 0.22079644
-0.029340237 -0.11072215 0.36486489 0.25336882 0.42377177 -0.86961019 0.19032489
-0.015665852 -0.11442971 0.36486483 -0.012332947 0.5423727 -0.84004748 0.15011393
-0.0050062845 -0.11977661 0.36486486 -0.095966153 0.41857195 -0.90309912 0.16337016
0.0018271839 -0.1187772 0.36486486 -0.16273393 0.33020115 -0.92977679 0.11825655
0.015580316 -0.11789009 0.36486483 0.082148641 0.35335782 -0.93187433 0.10206539
0.023777019 -0.11700974 0.36486486 0.025340131 0.33196169 -0.94295239 0.15226428
0.03910939 -0.11916841 0.36486489 0.022196548 0.17434818 -0.98443389 0.10353353
0.040929105 -0.11328174 0.36486486 -0.070554748 0.34143874 -0.93725216 0.14726995
0.066001713 -0.11809555 0.36486486 -1.0084078e-05 5.1254618e-05 -1 0
0.07792265 -0.113093 0.36486483 -0.053070616 0.079234399 -0.99544227 0.070133507
0.085601456 -0.11794287 0.36486486 -0 -0 -1 0
0.096318126 -0.11358538 0.36486489 6.7110515e-05 -7.50345e-06 -1 0
0.10364379 -0.11060631 0.36486483 5.4036491e-06 -2.0647019e-05 -1 3.4604171e-05
0.11492818 -0.11630308 0.36486486 -2.980828e-05 -1.6221255e-05 -1 0
0.1273918 -0.11429098 0.36486483 -1.3668284e-05 1.3533749e-05 -1 0
0.13476598 -0.11186893 0.36486483 1.8582947e-05 -1.6654147e-05 -1 0
0.1428206 -0.11812551 0.36486489 -1.8229935e-05 -1.2021246e-06 -1 0
0.15265647 -0.11765072 0.36486486 1.9562838e-05 3.2422246e-05 -1 0
0.16542211 -0.11400498 0.36486486 8.0096834e-05 -3.7825962e-06 -1 0
0.17831138 -0.11168464 0.36486483 -0 -0 -1 0
0.18766932 -0.11634056 0.36486486 3.2210319e-05 -9.3184428e-07 -1 0
0.1981045 -0.11319936 0.36486486 -4.0414907e-05 1.4245861e-05 -1 0
0.23476543 -0.11648197 0.36486483 -3.1857187e-05 1.4970604e-05 -1 0
0.24330424 -0.11859201 0.36486486 -0.00014818931 2.6610256e-05 -1 0
0.26741412 -0.11338914 0.36486489 -7.2006937e-05 4.0754035e-06 -1 0
0.28482267 -0.11322107 0.36486486 -3.8559618e-05 2.8717373e-05 -1 0
0.29811627 -0.11950285 0.36486486 -0.014133836 0.036034975 -0.99925059 0.0036882646
0.30429071 -0.11462896 0.36486483 -5.3420936e-06 -3.8671482e-05 -1 0
0.31354266 -0.11501689 0.36486483 5.8369496e-05 -6.8970876e-06 -1 0
0.3254348 -0.11514194 0.36486486 -0.023025816 0.085610889 -0.99606252 0.013816675
0.33523092 -0.11420576 0.36486486 -0.016338697 0.091815419 -0.99564207 0.019180337
0.34546593 -0.11433178 0.36486486 -0.042967826 0.10054732 -0.99400401 0.01805206
0.37282708 -0.11142837 0.36486486 -0.04932335 0.20808421 -0.97686648 0.03803381
0.3842383 -0.11624712 0.36486489 -0.2994349 0.40874568 -0.86212856 0.088295259
-0.42419443 -0.1019073 0.36108878 0.61400616 0.66368157 -0.42722729 0.060207997
-0.4151538 -0.10884441 0.36335295 0.45924172 0.75424522 -0.46926656 0.074943051
-0.38688651 -0.10517196 0.36486483 0.10828548 0.20837162 -0.97203678 0.042680278
-0.37552482 -0.10613732 0.36486489 0.086400293 0.1810613 -0.97966921 0.045751221
-0.36730745 -0.10808033 0.36486486 0.043906055 0.17680848 -0.98326552 0.032128457
-0.35570243 -0.10452557 0.36486486 0.0042967633 0.009118367 -0.99994916 0.00017180007
-0.34740847 -0.10007338 0.36486486 0.00021429775 5.20496e-06 -0.99999994 0
-0.33320612 -0.10591133 0.36486486 0.00024635528 6.7839595e-05 -0.99999994 0
-0.32375085 -0.10679273 0.36486489 -0 -0 -1 0
-0.31259087 -0.10566202 0.36486486 -6.0152201e-05 7.2065006e-07 -1 0
-0.2914905 -0.10614919 0.36486486 0.00011227116 8.9752084e-06 -1 0
-0.28755587 -0.10235054 0.36486486 0.00011805488 8.7031713e-06 -1 0
-0.27586788 -0.10003559 0.36486483 3.3010758e-05 3.2836764e-05 -1 0
-0.26466358 -0.10290905 0.36486486 4.7202684e-05 4.1578383e-05 -1 0
-0.25709057 -0.10634134 0.36486486 6.4630614e-05 -2.3527937e-05 -1 0
-0.24612969 -0.10217115 0.36486486 -1.5630667e-06 3.1299405e-05 -1 0
-0.23522317 -0.10386795 0.36486489 9.7286866e-05 2.8523153e-05 -1 0
-0.22847885 -0.1031022 0.36486489 3.2012001e-06 4.1095587e-05 -1 0
-0.21903485 -0.10772087 0.36486486 -6.7320587e-05 3.0160194e-05 -1 0
-0.1906552 -0.10412009 0.36486486 1.7292737e-06 1.5680642e-05 -1 0
-0.1858253 -0.10312214 0.36486483 4.4196746e-05 -5.5917062e-06 -1 0
-0.17587048 -0.10636045 0.36486486 4.5943445e-05 1.5908927e-05 -1 0
-0.16708493 -0.1066235 0.36486483 5.5660472e-05 7.2489158e-05 -1 0
-0.15414457 -0.10346287 0.36486483 -1.666452e-05 -1.7990775e-05 -1 0
-0.1458436 -0.10501665 0.36486483 -2.0986974e-05 -4.0771254e-05 -1 0
-0.13129999 -0.10143182 0.36486483 1.0662415e-06 -1.7745278e-05 -1 0
-0.12952521 -0.10603775 0.36486486 3.5718997e-05 1.9395311e-05 -1 0
-0.10460656 -0.10692412 0.36486486 3.1331143e-05 1.4567135e-05 -1 0
-0.086263239 -0.10414676 0.36486489 5.2552547e-05 3.5255769e-05 -1 0
-0.07448002 -0.10420129 0.36486489 0.075772628 0.021626631 -0.99689054 0.13164783
-0.068107203 -0.10352205 0.36486486 0.10604549 0.058652189 -0.99263 0.12430289
-0.052537613 -0.10546824 0.36486489 0.16540328 0.26260206 -0.95062184 0.13137563
-0.045874201 -0.10011689 0.36486486 0.48259673 0.52304626 -0.70251191 0.16006869
-0.026077507 -0.10458209 0.36486486 0.28224167 0.80054182 -0.52865148 0.13832307
-0.0059130518 -0.10433513 0.36569607 0.026569692 0.85411531 -0.51940459 0.099145204
0.0050898218 -0.10367598 0.3665323 -0.12122162 0.76008189 -0.63842058 0.098330744
0.012413975 -0.10671775 0.36486489 -0.07834807 0.67534143 -0.7333318 0.092782319
0.022367001 -0.10342408 0.36637604 -0.18991905 0.77258652 -0.60583895 0.13030826
0.046411175 -0.10514439 0.36486486 -0.31079146 0.41554528 -0.85482794 0.18237504
0.055111483 -0.10514814 0.36486483 -0.31535158 0.16455074 -0.93459958 0.16453043
0.065570593 -0.10184056 0.36486483 -0.12213098 0.10163807 -0.98729622 0.16623628
0.076147459 -0.10433067 0.36486486 -0.071394466 0.13966228 -0.98762202 0.1273727
0.083973527 -0.1049639 0.36486486 -0.061782319 0.01249804 -0.99801141 0.055068612
0.092986993 -0.10571576 0.36486483 -3.3603424e-06 4.0462979e-05 -1 0
0.10495057 -0.10565242 0.36486486 -0 -0 -1 0
0.11290256 -0.10367452 0.36486486 -1.5626711e-05 2.3737261e-05 -1 0
0.13168722 -0.10315327 0.36486483 1.8454939e-05 -4.4830362e-05 -1 3.2977732e-05
0.14516036 -0.10757123 0.36486483 -1.7188791e-05 1.2755456e-05 -1 0
0.15292943 -0.10630225 0.36486489 -4.1571962e-05 4.0854615e-05 -1 0
0.16441472 -0.10914767 0.36486483 -1.0126779e-06 -3.6836864e-05 -1 0
0.17201543 -0.10215779 0.36486486 2.7063257e-05 1.739357e-05 -1 0
0.19572304 -0.10495374 0.36486486 4.1015923e-05 -1.8273104e-06 -1 0
0.20546548 -0.10317817 0.36486486 0.000112477 -3.7881749e-05 -1 0
0.212855 -0.10641915 0.36486489 0 0 -1 0
0.22465466 -0.10589523 0.36486486 -8.1496582e-05 2.4658464e-05 -1 0
0.23701122 -0.10408713 0.36486486 4.1535972e-05 -3.5348836e-05 -1 0
0.24701104 -0.10199524 0.36486486 -9.474312e-07 1.5731604e-05 -1 0
0.25267074 -0.10757621 0.36486486 -3.7316036e-06 -1.6167054e-05 -1 0
0.26290751 -0.10984246 0.36486483 -0 -0 -1 0
0.28720188 -0.10624205 0.36486486 -0 -0 -1 0
0.29748887 -0.10069422 0.36486486 -3.5365654e-05 -3.6834258e-06 -1 0
0.30533186 -0.10335657 0.36486483 6.3977961e-05 -3.2598367e-05 -1 0
0.32802439 -0.10491374 0.36486486 -0.00011853909 2.8592878e-05 -1 0
0.33565083 -0.10123691 0.36486489 0.00011386315 1.3460938e-06 -1 0
0.34740365 -0.10869444 0.36486486 -0.0010063989 0.011373406 -0.99993479 0.00032138126
0.37706327 -0.10599792 0.36486486 -0.045218445 0.16375531 -0.98546404 0.032758337
0.3858237 -0.10548279 0.36486486 -0.22241883 0.244389 -0.94382405 0.048869409
0.39429674 -0.10349563 0.36486486 -0.16272238 0.30904421 -0.93702352 0.054157156
0.41804704 -0.10642929 0.36275738 -0.38340786 0.57978952 -0.71891767 0.072078548
0.42301229 -0.10252619 0.36486486 -0.2887339 0.57717675 -0.76387155 0.070409447
-0.43759331 -0.091625988 0.36343414 0.63685936 0.60131985 -0.48251891 0.061367605
-0.42597315 -0.098044604 0.36377046 0.60235202 0.62389928 -0.49791738 0.068656765
-0.40646005 -0.098255277 0.36486486 0.2131089 0.28504109 -0.93452454 0.070140503
-0.39414838 -0.096298024 0.36486486 0.1642974 0.11328229 -0.97988439 0.024682177
-0.36130002 -0.09159451 0.36486486 8.2020044e-05 -4.0537384e-06 -1 0
-0.3552638 -0.092116497 0.36486486 0.00017230262 2.8282109e-05 -1 0
-0.34530678 -0.094269834 0.36486486 8.2293715e-05 -1.8517319e-05 -1 0
-0.33545995 -0.093808547 0.36486486 7.1769347e-05 9.4653733e-06 -1 0
-0.31261355 -0.091695055 0.36486483 -2.8809154e-05 -1.6636837e-05 -1 0
-0.30121911 -0.095607027 0.36486483 -7.2302282e-05 -1.36114e-05 -1 0
-0.28953487 -0.099180236 0.36486489 3.8888269e-05 3.5736537e-07 -1 0
-0.27513611 -0.097685419 0.36486486 8.2884486e-05 5.6513858e-05 -1 0
-0.25238386 -0.098265879 0.36486489 3.665033e-05 -2.4700415e-05 -1 0
-0.24742985 -0.093433581 0.36486492 3.2962111e-05 -1.1795914e-06 -1 0
-0.23570935 -0.09538801 0.36486486 3.0439583e-05 6.8206814e-06 -1 0
-0.22431481 -0.094384991 0.36486486 -3.7947786e-05 -1.9513827e-06 -1 0
-0.21606807 -0.096369907 0.36486486 3.7746773e-05 -1.6988533e-05 -1 0
-0.20650087 -0.093576983 0.36486486 -2.7557848e-05 -4.9185237e-05 -1 0
-0.18419474 -0.093258977 0.36486486 0 0 -1 3.9520946e-05
-0.17099768 -0.093061619 0.36486486 6.8848574e-05 1.3453988e-05 -1 0
-0.16603023 -0.094516784 0.36486486 -4.3079458e-06 1.926088e-05 -1 0
-0.14357692 -0.094303101 0.36486486 1.407517e-05 1.6681273e-05 -1 0
-0.13471267 -0.095915869 0.36486486 -1.9338462e-05 1.6785536e-05 -1 0
-0.1252661 -0.095510848 0.36486489 2.826949e-06 3.4729077e-05 -1 0
-0.11671899 -0.09579277 0.36486486 -1.9286819e-05 -2.7745959e-05 -1 4.0977622e-05
-0.10914253 -0.097169206 0.36486486 1.637244e-05 -1.7037992e-06 -1 0
-0.096128106 -0.094287604 0.36486486 4.5443892e-05 1.6741064e-05 -1 0
-0.08559823 -0.093605496 0.36486489 0.07540077 0.029066322 -0.99672961 0.067934819
-0.050322808 -0.094215333 0.36486483 0.48504135 0.57391661 -0.65981406 0.15589935
-0.042938061 -0.094385251 0.36634207 0.54087716 0.59620643 -0.59328711 0.13974802
-0.038080666 -0.094391219 0.36586869 0.55505919 0.66335577 -0.50186491 0.12634674
0.027136168 -0.098862767 0.36610124 -0.28881451 0.7836377 -0.54999828 0.10599801
0.038318515 -0.094673499 0.36696941 -0.36970532 0.82305855 -0.43115264 0.1141272
0.045431316 -0.09661366 0.36486486 -0.38516444 0.53631449 -0.75100935 0.14635313
0.066822201 -0.093267858 0.36486486 -0.07546825 0.2575331 -0.96331787 0.20463805
0.07500343 -0.093151361 0.36486483 -0.13820432 0.027836984 -0.99001247 0.14961353
0.094840854 -0.097264595 0.36486483 -1.821699e-05 1.8785073e-05 -1 0
0.10498195 -0.095130555 0.36486486 -1.6832932e-05 6.1376369e-07 -1 0
0.11393237 -0.096323483 0.36486486 -4.1767606e-05 3.6905574e-05 -1 0
0.12674969 -0.097043395 0.36486486 -7.5953147e-05 2.938662e-05 -1 0
0.13242511 -0.09334182 0.36486489 -3.155832e-05 2.061982e-05 -1 0
0.14755492 -0.094932131 0.36486492 -1.0802332e-05 5.1860687e-05 -1 0
0.15396349 -0.092355803 0.36486489 -8.1504935e-05 3.1939293e-05 -1 0
0.18466482 -0.091090731 0.36486486 6.9667774e-05 -7.7974337e-06 -1 0
0.19564153 -0.093771033 0.36486483 1.3466897e-06 -1.6683833e-05 -1 0
0.2062844 -0.09198828 0.36486483 2.7971128e-06 1.8186814e-05 -1 0
0.21574086 -0.095137104 0.36486486 3.5802153e-05 -2.3726188e-05 -1 0
0.2289778 -0.092539631 0.36486486 3.1257452e-05 3.1266443e-06 -1 0
0.23455679 -0.096288793 0.36486489 4.3918294e-06 3.7714839e-05 -1 0
0.24738632 -0.095931083 0.36486486 -0.00012101697 1.8215071e-05 -1 0
0.25108561 -0.091525987 0.36486486 -6.3554595e-05 3.3841779e-06 -1 0
0.27610907 -0.092962109 0.36486486 -0 -0 -1 0
0.28661582 -0.097485572 0.36486486 0.00012232485 1.168963e-05 -1 0
0.295468 -0.09583053 0.36486483 -1.1383821e-06 -1.5845324e-05 -1 0
0.31224298 -0.095124722 0.36486486 -3.1152609e-05 1.2660743e-05 -1 0
0.32539648 -0.092006296 0.36486483 -0.00013839865 3.0553962e-05 -1 0
0.33845258 -0.099673383 0.36486486 -0.00015664968 1.7567692e-05 -1 0
0.34945235 -0.09560027 0.36486486 -7.3007129e-07 2.1083399e-05 -1 0
0.35223702 -0.096111044 0.36486483 -5.9224723e-05 6.4465253e-06 -1 0
0.36687401 -0.09464179 0.36486486 5.0858667e-05 2.2327331e-06 -1 0
0.37429428 -0.097320788 0.36486483 -0.0068957931 0.025233936 -0.99965781 0.0010190003
0.38306507 -0.097104348 0.36486492 -0.013205281 0.048061628 -0.99875706 0.0030991698
0.39458051 -0.09688364 0.36486483 -0.10594004 0.17818752 -0.97827697 0.03165435
0.4020099 -0.095664792 0.36486489 -0.18416736 0.2787562 -0.94253772 0.045733821
0.41689512 -0.093348235 0.36486486 -0.15101555 0.33859631 -0.928734 0.043439746
0.42848289 -0.098616645 0.36103067 -0.53567028 0.64189786 -0.548657 0.086444825
-0.44384798 -0.084223367 0.36057711 0.6636318 0.53353781 -0.52433795 0.084117085
-0.42714292 -0.082926057 0.36486486 0.32358772 0.26819253 -0.90739399 0.065247215
-0.41363788 -0.086529404 0.36486486 0.11582583 0.2771188 -0.95382887 0.050593089
-0.40077141 -0.081652015 0.36486486 -6.9845169e-05 -7.6652923e-06 -1 7.3431605e-05
-0.39312059 -0.081019506 0.36486483 2.4972064e-06 -1.8605688e-05 -1 0
-0.37416339 -0.083628699 0.36486489 6.2352381e-05 -2.2268503e-05 -1 0
-0.36299336 -0.08380881 0.36486486 -8.7096087e-05 -5.0775659e-05 -1 0
-0.34566271 -0.083881624 0.36486483 -7.7623212e-05 6.7663341e-06 -1 0
-0.3312178 -0.083796501 0.36486486 -3.8305687e-05 -3.2540182e-05 -1 0
-0.32390541 -0.085226104 0.36486483 -7.6314493e-05 -6.9873768e-06 -1 3.8794398e-05
-0.30263904 -0.086278871 0.36486489 9.874226e-07 -1.6158692e-05 -1 0
-0.29272193 -0.08584889 0.36486483 5.1658313e-05 -3.2585325e-05 -1 4.0676816e-05
-0.28433618 -0.082137704 0.36486489 3.3504573e-05 6.7647288e-06 -1 0
-0.26339957 -0.084769651 0.36486483 2.7354681e-05 -1.7269589e-05 -1 0
-0.25522619 -0.085262835 0.36486483 0.00010294713 1.2972033e-05 -1 0
-0.24550903 -0.080680728 0.36486486 4.2986012e-05 1.5135976e-06 -1 0
-0.23440483 -0.081692122 0.36486489 0.00015287241 2.7944048e-05 -1 0
-0.22307378 -0.088250503 0.36486489 3.1199637e-05 4.1752068e-05 -1 0
-0.21612081 -0.089977279 0.36486486 -4.0589061e-05 -1.3728794e-05 -1 0
-0.19498861 -0.083836801 0.36486492 -5.3164263e-07 -7.9603906e-06 -1 0
-0.18143192 -0.089846849 0.36486486 4.4064611e-05 -5.7206925e-08 -1 0
-0.17689976 -0.085099049 0.36486489 5.2605333e-06 3.3164677e-05 -1 0
-0.16515034 -0.084617704 0.36486486 6.362464e-05 9.5468922e-06 -1 0
-0.15268952 -0.08785899 0.36486486 5.7952013e-05 1.57953e-05 -1 0
-0.14893009 -0.085083656 0.36486486 3.6060428e-05 4.3382552e-05 -1 0
-0.13719895 -0.084763333 0.36486483 -6.1823826e-05 -7.3644655e-06 -1 0
-0.11909989 -0.084716484 0.36486486 1.278867e-05 -9.1509664e-06 -1 0
-0.1065946 -0.086125828 0.36486486 3.7291265e-06 -1.9156321e-05 -1 0
-0.094368368 -0.088174336 0.36486489 1.7362901e-05 1.4485212e-05 -1 0
-0.088988751 -0.084178507 0.36486483 0.16557567 0.11854012 -0.979047 0.14035757
-0.0734853 -0.085347578 0.36486483 0.30421418 0.23368731 -0.92349547 0.16492105
-0.065790907 -0.083326876 0.36486486 0.30375794 0.47737476 -0.82452685 0.16783524
-0.04988974 -0.086284623 0.36736512 0.59115493 0.67322057 -0.44419557 0.095722295
0.04871618 -0.08755894 0.36607873 -0.54447323 0.66274828 -0.51411444 0.10230246
0.056430999 -0.085845925 0.36486486 -0.55800146 0.55000442 -0.6213932 0.13303158
0.065052822 -0.084081978 0.36486483 -0.453825 0.47677547 -0.75281334 0.17441839
0.081101097 -0.089542665 0.36486483 -0.18542941 0.037138887 -0.98195559 0.11971437
0.096916035 -0.08527191 0.36486483 -5.675248e-05 2.632147e-05 -1 0
0.10677823 -0.086018592 0.36486486 -6.4607637e-05 4.1489751e-05 -1 0
0.11105253 -0.084954649 0.36486486 -3.715387e-05 1.7182552e-05 -1 0
0.12552156 -0.087143533 0.36486486 -1.5948564e-05 -1.7406228e-05 -1 0
0.13833188 -0.08286424 0.36486486 2.3972957e-06 2.038505e-05 -1 0
0.14578924 -0.083581544 0.36486489 3.2216652e-05 -2.7523443e-05 -1 0
0.15699413 -0.088769555 0.36486483 0 0 -1 0
0.16202939 -0.084906645 0.36486486 1.5161256e-05 1.5746768e-05 -1 0
0.1854745 -0.085269295 0.36486483 3.026961e-05 -1.5961608e-05 -1 0
0.1948853 -0.085212663 0.36486486 -4.0125913e-05 -3.0308374e-06 -1 0
0.20413072 -0.084325083 0.36486489 -1.8851215e-06 -7.2771131e-06 -1 0
0.21402562 -0.081949234 0.36486486 -0.00010064254 1.0528625e-05 -1 0
0.22139782 -0.089335203 0.36486483 -8.2231163e-05 -7.9929132e-06 -1 0
0.24092107 -0.082847625 0.36486489 -4.0247218e-05 1.2271881e-05 -1 0
0.25601548 -0.087116271 0.36486489 0 0 -1 0
0.27515158 -0.081532285 0.36486486 -0.00020125489 -1.1849863e-05 -0.99999994 0
0.28080875 -0.087967008 0.36486489 -9.5594602e-05 1.2048555e-05 -1 0
0.29467985 -0.082417116 0.36486489 -7.0313334e-05 3.8438196e-05 -1 0
0.30389646 -0.087002628 0.36486486 -0.00016137953 9.9797035e-06 -1 0
0.31708527 -0.084769391 0.36486486 2.7634529e-05 2.3221646e-05 -1 0
0.3232336 -0.087348819 0.36486486 -9.4473073e-08 -1.707826e-05 -1 0
0.33574265 -0.089030087 0.36486483 -0 -0 -1 0
0.34165943 -0.084832817 0.36486486 -7.3180126e-05 1.6303751e-05 -1 0
0.36215806 -0.08486174 0.36486486 -0.00012287642 3.9059596e-05 -1 0
0.37728548 -0.089316808 0.36486486 2.0050798e-06 1.855162e-05 -1 0
0.3880713 -0.08704184 0.36486483 -7.2029274e-05 3.6721191e-05 -1 0
0.39477909 -0.085338384 0.36486486 -0 -0 -1 0
0.40461534 -0.08573927 0.36486483 -0.087894775 0.1112949 -0.9898929 0.014509696
0.41519973 -0.08534009 0.36486486 -0.14432716 0.24158835 -0.95958567 0.041921832
0.4233636 -0.083836153 0.36486486 -0.13877098 0.22153768 -0.96522731 0.041390885
0.43702772 -0.084041841 0.36486486 -0.48250759 0.31257644 -0.81821901 0.055562776
0.44447371 -0.082592167 0.36283636 -0.54824036 0.48091674 -0.68421608 0.063803025
-0.44745168 -0.07545317 0.36431503 0.51296216 0.43454808 -0.74029577 0.093902268
-0.43172121 -0.075392492 0.36486486 0.205191 0.2757296 -0.93907928 0.070248663
-0.4231405 -0.075631119 0.36486489 0.14117302 0.15660535 -0.97751975 0.038663875
-0.39357734 -0.078940451 0.36486486 4.5080063e-07 -1.9489298e-05 -1 0
-0.38409078 -0.078571297 0.36486486 7.0213253e-05 -2.5018455e-05 -1 0
-0.37642011 -0.071068116 0.36486486 6.2523432e-05 -4.7149365e-06 -1 0
-0.36459306 -0.076573193 0.36486483 -6.0745457e-05 1.1847898e-05 -1 0
-0.35615292 -0.077012062 0.36486483 3.1444545e-06 1.7932467e-05 -1 0
-0.34462315 -0.0765315 0.36486483 -7.5824071e-05 -8.0537046e-07 -1 0
-0.33586848 -0.074226707 0.36486483 7.3267678e-05 -6.8183831e-06 -1 0
-0.32259691 -0.074507296 0.36486486 -0.00017979078 -8.6817645e-06 -1 0
-0.29340917 -0.076151185 0.36486483 -9.8387864e-05 3.2918442e-06 -1 0
-0.28647116 -0.073687017 0.36486486 2.3499889e-07 -6.6554376e-06 -1 0
-0.27714723 -0.073607549 0.36486486 6.9107431e-05 6.1889568e-06 -1 0
-0.26553303 -0.078565449 0.36486486 -3.3999931e-05 -1.147721e-06 -1 0
-0.25542027 -0.07570833 0.36486489 -7.7862205e-07 3.4929926e-05 -1 0
-0.2434053 -0.072815202 0.36486486 6.8190238e-05 3.8026352e-05 -1 0
-0.23227543 -0.077576891 0.36486483 -1.8876931e-06 2.2093727e-05 -1 0
-0.21439604 -0.071174078 0.36486486 -6.9557728e-08 -8.8660763e-06 -1 0
-0.20346752 -0.077334948 0.36486483 5.1113475e-05 4.3698401e-05 -1 0
-0.19135648 -0.076347642 0.36486489 9.4542662e-07 1.915577e-05 -1 0
-0.18267906 -0.073597848 0.36486486 3.8533533e-05 6.6555781e-06 -1 0
-0.17589025 -0.075491816 0.36486483 3.0523599e-05 1.3608181e-05 -1 0
-0.15667459 -0.072853096 0.36486483 -8.3024993e-08 9.8282371e-06 -1 0
-0.14697567 -0.073979922 0.36486483 -1.8392522e-05 1.0444554e-05 -1 0
-0.13813475 -0.071451396 0.36486486 2.1753785e-05 1.1447545e-05 -1 0
-0.12385371 -0.073998474 0.36486483 3.2624033e-07 -1.2889343e-05 -1 0
-0.10373707 -0.079145536 0.36486486 -5.7844491e-06 2.7145672e-05 -1 0
-0.093039513 -0.076283179 0.36486486 0.079085506 0.043292988 -0.99592733 0.11228817
-0.083605394 -0.079746157 0.36486486 0.31231809 0.083525516 -0.94629854 0.17250544
-0.073757358 -0.078273535 0.36486486 0.32600507 0.27789441 -0.90360141 0.20151934
-0.061116014 -0.076301306 0.36773762 0.6182673 0.66664398 -0.41633081 0.12279807
-0.05859128 -0.078546502 0.36534527 0.68942988 0.60782254 -0.39400277 0.11408579
0.064697824 -0.073311388 0.36648723 -0.68445528 0.51740438 -0.51362795 0.11865655
0.075870484 -0.076932564 0.36486486 -0.38039985 0.216288 -0.89917487 0.16295648
0.08729858 -0.074621037 0.36486483 -0.19658919 0.16933902 -0.96575207 0.11627232
0.095178984 -0.075478531 0.36486483 -0.11307757 0.044726722 -0.99257898 0.09805353
0.10853695 -0.073903449 0.36486486 3.386343e-06 3.0607087e-05 -1 0
0.11653356 -0.071174994 0.36486486 -3.0297488e-05 3.1134725e-05 -1 0
0.12928742 -0.072335377 0.36486486 4.8735121e-08 -7.4946329e-06 -1 0
0.13559629 -0.076313257 0.36486486 1.5202026e-05 9.6381302e-07 -1 0
0.14240699 -0.075046629 0.36486483 -2.2329536e-05 -1.0745443e-05 -1 0
0.15348022 -0.075280011 0.36486483 6.579297e-05 -7.4139271e-06 -1 3.9115715e-05
0.17477989 -0.073217593 0.36486486 -3.4629149e-05 1.7761912e-06 -1 0
0.19236676 -0.076073743 0.36486486 -4.7631562e-05 -6.4379446e-06 -1 0
0.20455842 -0.074373119 0.36486486 -6.7499877e-07 9.7376151e-06 -1 0
0.2167666 -0.076314636 0.36486483 3.0819407e-05 4.3529549e-06 -1 0
0.23573796 -0.07403598 0.36486483 3.3858312e-05 2.096813e-06 -1 0
0.24524005 -0.076648355 0.36486483 -5.5637258e-08 7.4516997e-06 -1 0
0.25572863 -0.07456205 0.36486483 -3.3270786e-05 1.1367879e-05 -1 0
0.26323289 -0.078911424 0.36486486 0 0 -1 0
0.27803072 -0.073883414 0.36486486 -3.7858601e-05 -1.5376769e-06 -1 0
0.28473151 -0.074599013 0.36486486 -0.00011593543 -3.050963e-06 -1 0
0.29332137 -0.073797852 0.36486486 -0.00012073381 2.0695357e-05 -1 0
0.3104139 -0.072608709 0.36486489 3.3846049e-05 2.2614138e-05 -1 0
0.32341596 -0.073107764 0.36486489 -0.00011514978 7.3238439e-06 -1 0
0.33601156 -0.07605534 0.36486486 -0.00011109481 -5.6376434e-06 -1 0
0.34541783 -0.076132528 0.36486486 -1.1331085e-06 8.7970357e-06 -1 0
0.35523358 -0.072008267 0.36486486 -0.00022567791 -1.8656956e-05 -0.99999994 0
0.36405632 -0.078137048 0.36486486 -0.00012892295 1.9514697e-05 -1 0
0.37553161 -0.071640566 0.36486483 8.7182947e-05 -1.1616003e-05 -1 0
0.38067684 -0.073821925 0.36486489 -8.3040824e-05 -4.6579837e-05 -1 0
0.39541823 -0.079298273 0.36486486 7.3808769e-05 -8.8708775e-06 -1 0
0.40590802 -0.074088655 0.36486486 -6.8843568e-05 6.5976001e-06 -1 0
0.42595091 -0.074566878 0.36486486 -0.14645377 0.14425272 -0.97864318 0.030558189
0.43469355 -0.073587283 0.36486486 -0.23206536 0.24009039 -0.94260401 0.05834382
0.44350034 -0.071002886 0.36486483 -0.35208857 0.33488572 -0.87400526 0.077485956
-0.46085054 -0.06206527 0.36063713 0.71624786 0.51078266 -0.47548929 0.081528589
-0.45481664 -0.067420572 0.36486483 0.53951442 0.36313835 -0.75964123 0.07033249
-0.44562489 -0.064938411 0.36486486 0.36928216 0.26936415 -0.88942319 0.069535211
-0.43907803 -0.060899086 0.36486486 0.10606515 0.14389901 -0.98389184 0.035972781
-0.42671257 -0.061562564 0.36486486 0.010950486 0.020027336 -0.99973947 0.0013285016
-0.41716945 -0.062989548 0.36486486 0.00017697984 1.3001349e-05 -1 0
-0.40505153 -0.064172439 0.36486486 0.00012455102 -5.9676557e-07 -1 0
-0.39371026 -0.064419709 0.36486489 7.0057889e-05 1.128951e-05 -1 0
-0.37458861 -0.066896349 0.36486483 -8.5039042e-05 -2.4262601e-05 -1 0
-0.36656076 -0.06770733 0.36486486 0.0001032518 2.5973006e-05 -1 0
-0.35514194 -0.064047158 0.36486489 0.00020696688 -1.2825063e-06 -1 0
-0.34465277 -0.062864989 0.36486483 0.00013952503 2.9401931e-06 -1 0
-0.33776832 -0.064427629 0.36486489 3.1884178e-05 -1.1518438e-05 -1 0
-0.32447356 -0.064341657 0.36486489 3.1893822e-05 4.1612875e-06 -1 0
-0.31706908 -0.066017129 0.36486483 -2.9132778e-05 9.9151903e-06 -1 0
-0.29492491 -0.066058077 0.36486483 -3.2004264e-05 1.1098651e-05 -1 0
-0.28465551 -0.064729564 0.36486483 3.5773712e-05 9.6521162e-06 -1 0
-0.26620936 -0.069111459 0.36486486 -3.0252068e-05 3.1874126e-05 -1 0
-0.25368059 -0.064614415 0.36486486 0.00020415298 3.9951323e-05 -1 0
-0.24940825 -0.060522199 0.36486489 0.00010689659 1.4008333e-05 -1 0
-0.23882747 -0.064682677 0.36486486 5.7632365e-05 3.0899213e-05 -1 0
-0.22476904 -0.062790975 0.36486486 -3.0943447e-05 1.0004799e-05 -1 0
-0.21894585 -0.061672188 0.36486486 -8.4219108e-05 1.2215919e-05 -1 0
-0.20894828 -0.062115051 0.36486486 5.3942735e-05 5.4716793e-06 -1 0
-0.1759793 -0.065939702 0.36486492 6.7681176e-05 1.9585414e-05 -1 0
-0.16465855 -0.066104732 0.36486486 5.0504914e-05 1.61507e-05 -1 0
-0.15326539 -0.062686101 0.36486486 -2.1327734e-05 1.5406386e-05 -1 0
-0.14940697 -0.060527183 0.36486486 7.2774557e-05 1.3450696e-05 -1 0
-0.1360278 -0.067717731 0.36486489 1.9462112e-05 2.8357243e-05 -1 0
-0.11538687 -0.064338803 0.36486489 -4.7690282e-05 -2.0451496e-07 -1 0
-0.10147095 -0.062831797 0.36486486 0.074454986 0.056733187 -0.99560928 0.10978962
-0.093842208 -0.066979155 0.36486486 -0.046437021 0.17186849 -0.98402482 0.19533242
-0.087978981 -0.064827263 0.36486486 0.11270367 0.23370233 -0.96575415 0.17745849
-0.078175157 -0.067581475 0.36486486 0.5124315 0.30918029 -0.80113763 0.16622168
-0.066482306 -0.06817124 0.36793217 0.68262917 0.44771576 -0.57755345 0.13156097
0.068385869 -0.065824121 0.3679691 -0.63411266 0.44730076 -0.6307323 0.12532637
0.074116334 -0.066178828 0.36486486 -0.56733769 0.29365852 -0.76934564 0.14670534
0.085095555 -0.063188054 0.36486486 -0.2643272 0.11892717 -0.95707232 0.18914193
0.094109744 -0.065607607 0.36486483 -0.28299394 -0.0049145729 -0.95910913 0.17150104
0.10400387 -0.06452363 0.36486486 -0.088820696 0.0074561639 -0.99601978 0.1036734
0.11439534 -0.064598307 0.36486483 -1.4351654e-05 2.7589664e-05 -1 0
0.12518391 -0.060832072 0.36486486 -2.0355857e-05 -9.8278797e-06 -1 0
0.14420924 -0.06463296 0.36486486 -3.4213983e-05 5.8659389e-06 -1 0
0.16329737 -0.065886542 0.36486486 5.2548701e-05 -1.5530788e-05 -1 0
0.1786731 -0.067763194 0.36486486 -1.3159465e-07 8.8938968e-06 -1 0
0.18370068 -0.065055311 0.36486486 0 0 -1 0
0.1964931 -0.067231856 0.36486492 -4.8659371e-05 -4.6415448e-06 -1 0
0.20904291 -0.062131483 0.36486486 -6.2461731e-05 -1.6363324e-06 -1 0
0.21450828 -0.062651813 0.36486489 -1.9583435e-06 1.4295319e-05 -1 0
0.22731388 -0.061179653 0.36486486 6.6534858e-07 -8.0487607e-06 -1 0
0.23525801 -0.066194974 0.36486486 -4.1818549e-07 -1.6707858e-05 -1 0
0.24565096 -0.065596774 0.36486486 8.4513173e-05 3.1711457e-05 -1 0
0.25233361 -0.064005218 0.36486486 -0.00015960904 -1.4145561e-05 -1 0
0.26970881 -0.069884658 0.36486486 -2.7446835e-05 2.1904661e-05 -1 0
0.27226999 -0.061099023 0.36486486 4.0326199e-07 2.6960946e-05 -1 0
0.2890822 -0.063445792 0.36486486 -5.284773e-07 3.9402137e-05 -1 0
0.29653826 -0.06280943 0.36486486 -0.00010053987 3.2363037e-05 -1 0
0.30691722 -0.06565436 0.36486486 -6.7326648e-05 -2.1228266e-06 -1 0
0.31828347 -0.066515878 0.36486483 -8.1217047e-05 7.0807137e-06 -1 0
0.33569169 -0.066922978 0.36486483 -2.910687e-06 1.5750955e-05 -1 0
0.34676203 -0.064420253 0.36486486 -5.5825334e-05 1.5500651e-05 -1 0
0.35703379 -0.063691534 0.36486486 4.1289491e-07 -1.7963468e-05 -1 0
0.36689821 -0.065063663 0.36486486 0 0 -1 0
0.37586927 -0.066492714 0.36486486 -2.1594146e-06 -3.1837546e-05 -1 0
0.38918063 -0.065666236 0.36486489 7.4988457e-05 -3.7026966e-05 -1 0
0.40876257 -0.062798485 0.36486486 0.00012927919 -3.8409949e-06 -1 0
0.42752194 -0.066439897 0.36486486 -0.093034968 0.075755261 -0.99277669 0.016473297
0.43638146 -0.062074073 0.36486483 -0.12779875 0.16352785 -0.97822607 0.039731175
0.44770005 -0.06035874 0.36486489 -0.288939 0.22524104 -0.93047333 0.071714781
0.45478666 -0.063551061 0.36486486 -0.47562209 0.39376256 -0.78659689 0.082613453
0.46179494 -0.060834456 0.36442295 -0.58450603 0.4722679 -0.65978462 0.071287327
-0.45492071 -0.057246044 0.36486486 0.3972418 0.2475545 -0.88369441 0.067953445
-0.44487277 -0.052998219 0.36486486 0.26666558 0.12684354 -0.95540577 0.061361868
-0.43629801 -0.054253895 0.36486489 0.021918923 0.0072085653 -0.99973381 0.0014251331
-0.42646027 -0.055576697 0.36486486 0.0019264853 0.0021101942 -0.99999595 0
-0.41325974 -0.052876137 0.36486486 -6.0354119e-05 1.2788159e-05 -1 0
-0.40349251 -0.055681515 0.36486483 -3.1243329e-07 9.2104092e-06 -1 0
-0.39432278 -0.056947462 0.36486483 0.00020767824 2.3957646e-05 -0.99999994 0
-0.38617331 -0.055059973 0.36486483 -0.00020872288 -6.4062784e-05 -0.99999994 0
-0.37459624 -0.053982671 0.36486486 0 0 -1 0
-0.36235544 -0.053154603 0.36486489 8.06034e-05 -4.5709512e-06 -1 0
-0.35306442 -0.053934414 0.36486486 0.00021201113 2.5930733e-06 -1 0
-0.34294084 -0.055234641 0.36486486 -7.1413531e-05 -5.6237259e-06 -1 0
-0.32289237 -0.051930111 0.36486483 -0.00014462424 -3.5016726e-06 -1 3.2931966e-05
-0.31267923 -0.054313589 0.36486486 3.1934731e-05 -1.7048076e-06 -1 3.6662972e-05
-0.29650855 -0.054844677 0.36486483 -0.00012792088 -2.4409437e-05 -1 0
-0.28675565 -0.052291144 0.36486486 4.0402523e-05 1.294949e-05 -1 0
-0.27690434 -0.056268416 0.36486483 -0 -0 -1 0
-0.26569456 -0.055262424 0.36486483 7.9657089e-05 8.7631834e-06 -1 0
-0.25762317 -0.053440891 0.36486489 3.3539171e-05 2.1276672e-05 -1 0
-0.24499615 -0.053312987 0.36486483 7.147601e-05 -6.3374387e-06 -1 0
-0.232428 -0.057415701 0.36486489 -8.1387276e-05 1.5723248e-05 -1 0
-0.22113225 -0.05345967 0.36486486 -0 -0 -1 0
-0.19938377 -0.054549236 0.36486486 -0 -0 -1 0
-0.18472916 -0.058160625 0.36486486 6.4407977e-05 1.9645868e-05 -1 0
-0.17111602 -0.053073276 0.36486486 8.7019296e-05 3.4606222e-05 -1 0
-0.16215812 -0.058198992 0.36486486 8.3855302e-05 4.239826e-05 -1 0
-0.15826336 -0.057411008 0.36486486 3.1931308e-05 2.3677674e-05 -1 0
-0.14607842 -0.05841741 0.36486486 -4.6269147e-07 -9.1725051e-06 -1 0
-0.13260849 -0.053894609 0.36486489 1.4187516e-05 3.1930256e-05 -1 0
-0.12381065 -0.055303525 0.36486483 1.2776882e-05 2.8830102e-05 -1 0
-0.10342886 -0.052722801 0.36486486 0.10364327 0.052728418 -0.99321592 0.09728875
-0.0967668 -0.051709406 0.36486486 0.18686621 0.10663226 -0.9765811 0.12119772
-0.085057735 -0.050317694 0.36486489 0.64848572 0.30304947 -0.6983031 0.17669864
-0.073710576 -0.055762365 0.36587229 0.65078551 0.36155841 -0.66764784 0.11474315
0.075483203 -0.055629265 0.36638251 -0.71361339 0.21870184 -0.66552645 0.14982732
0.08640781 -0.05299085 0.36486483 -0.38749823 0.1541357 -0.90889347 0.15487435
0.095003515 -0.055680539 0.36486486 -0.19130111 -0.0084695322 -0.9814949 0.11948991
0.10275652 -0.052806616 0.36486489 -0.14745086 -0.090105608 -0.98495644 0.14989419
0.11320417 -0.056015041 0.36486486 -3.0683845e-05 -4.6216123e-06 -1 0
0.12227432 -0.054001197 0.36486486 -1.5574142e-05 -2.4568883e-06 -1 0
0.13550428 -0.050131261 0.36486489 -2.1084916e-05 -5.8512655e-06 -1 0
0.14256103 -0.052537389 0.36486489 -1.6557831e-05 8.9114601e-06 -1 0
0.17476237 -0.053885136 0.36486486 0 0 -1 0
0.18360469 -0.05052612 0.36486486 -6.9298745e-05 -9.9369972e-06 -1 0
0.1925685 -0.057139333 0.36486489 4.2596046e-05 1.5547112e-05 -1 0
0.20507891 -0.055764008 0.36486486 -0 -0 -1 0
0.2264832 -0.055079069 0.36486489 -2.922195e-05 2.0292779e-05 -1 0
0.23158458 -0.051721688 0.36486486 -0.00013165055 2.6731568e-05 -1 0
0.24704763 -0.053801805 0.36486483 -7.7392564e-05 5.9184827e-06 -1 0
0.25289631 -0.054011662 0.36486486 -3.2911939e-05 4.6594152e-05 -1 0
0.26821706 -0.053476289 0.36486486 6.1136641e-05 3.6222991e-05 -1 0
0.27892947 -0.055604376 0.36486486 -3.8955714e-05 4.1875981e-05 -1 0
0.28638074 -0.053824909 0.36486489 -0.00015085957 4.3875589e-05 -1 0
0.29609361 -0.055974692 0.36486483 3.0692194e-05 4.0914438e-06 -1 0
0.30423042 -0.053570319 0.36486486 -6.6078726e-05 8.9841451e-06 -1 0
0.31471699 -0.052743383 0.36486483 -0.00019456631 2.6693058e-05 -1 0
0.32583305 -0.052150134 0.36486483 -3.2452284e-05 1.723951e-05 -1 0
0.33631787 -0.051558722 0.36486486 0.00010421006 1.8191322e-06 -1 0
0.34576872 -0.051784385 0.36486486 -1.4455463e-06 -8.5859992e-06 -1 0
0.36772335 -0.056967888 0.36486486 -7.1817012e-05 5.6366298e-06 -1 0
0.38705844 -0.057090063 0.36486483 2.2741514e-07 8.4880621e-06 -1 0
0.40801546 -0.056192033 0.36486483 0.00011743338 9.7122384e-06 -1 0
0.41353822 -0.058348715 0.36486486 0 0 -1 0
0.4244706 -0.056815889 0.36486486 -8.7212662e-05 1.9966876e-05 -1 0
0.43812653 -0.055471063 0.36486486 -0.10991739 0.1213563 -0.98650432 0.036942434
0.45999318 -0.050430603 0.36486486 -0.42558539 0.24348132 -0.87154686 0.072436243
0.46662781 -0.052457791 0.36486483 -0.57715517 0.32295284 -0.75006229 0.071938328
-0.46849665 -0.047771085 0.36394688 0.63880461 0.37087628 -0.67407674 0.078556947
-0.45331949 -0.041863028 0.36486486 0.25718951 0.13215573 -0.95728177 0.052695673
-0.44680229 -0.044237256 0.36486492 0.18952936 0.039384004 -0.98108482 0.036284272
-0.43174917 -0.040827416 0.36486486 -1.1147882e-06 9.7313214e-06 -1 0
-0.42488915 -0.042981669 0.36486486 6.5748529e-05 3.9157425e-05 -1 0
-0.41267133 -0.041667402 0.36486483 1.0138632e-06 2.046963e-05 -1 0
