# .PCD v0.7 - Point Cloud Data file format
VERSION 0.7
FIELDS x y z normal_x normal_y normal_z curvature
SIZE 4 4 4 4 4 4 4
TYPE F F F F F F F
COUNT 1 1 1 1 1 1 1
WIDTH 585
HEIGHT 1
VIEWPOINT 0 0 0 1 0 0 0
POINTS 585
DATA ascii
0.024573162 0.067332037 0.014207368 0.18999706 -0.055083483 -0.9802382 0.047226548
0.034525152 0.063647635 0.013097711 0.0004562242 -0.028652946 -0.99958932 0.01256276
0.040534552 0.066750914 0.0122214 -0.11767288 -0.039057329 -0.99228406 0.00010140239
0.053839941 0.064923868 0.010617874 -0.12475549 -0.038380083 -0.99144489 0
0.10899325 0.063503817 0.015688229 -0.93787158 -0.3282589 -0.11244123 0.099870622
-0.10527275 0.077080213 0.015873455 0.95820463 -0.27550018 -0.077093914 0.097388312
-0.045076102 0.074752033 0.010646918 0.13629532 -0.038590264 -0.98991627 0
-0.031369098 0.076816097 0.012454169 0.054122649 -0.031045759 -0.99805152 0.010688063
-0.026196241 0.076002344 0.01319806 -0.083596565 -0.051031355 -0.99519217 0.046566933
-0.010765607 0.077835865 0.015251144 -0.27978837 -0.043424275 -0.95907915 0.097500227
-0.009142112 0.07266473 0.013521817 -0.32038862 -0.11666184 -0.9400751 0.11825459
0.011584971 0.073943436 0.014244859 0.16590667 -0.006455915 -0.98612028 0.12333947
0.024004744 0.074798748 0.013989849 0.1829361 -0.052424043 -0.98172611 0.04994785
0.032853108 0.074890181 0.012872897 0.0074579334 -0.066241644 -0.99777567 0.014301627
0.047032997 0.076080531 0.011042523 -0.12475684 -0.038380675 -0.99144477 0
0.053573418 0.072044909 0.010375747 -0.12475447 -0.038379155 -0.99144512 2.1383902e-07
0.10534887 0.074930511 0.01387178 -0.93476009 -0.32520661 -0.1430531 0.1235066
-0.10263669 0.084028423 0.015715307 0.92870384 -0.35879883 -0.093662441 0.11178467
-0.043132991 0.084433004 0.010537867 0.13630399 -0.038573962 -0.98991573 1.3220004e-07
-0.034319859 0.083044887 0.011805318 0.079902813 -0.034144752 -0.99621767 0.0080475314
-0.023945242 0.084033199 0.013195206 -0.14982887 -0.054710776 -0.98719704 0.056105081
-0.015789516 0.086130634 0.014236401 -0.18946485 -0.1186053 -0.97469783 0.082014501
-0.0094844587 0.084697932 0.014956268 -0.30025619 -0.050178885 -0.95253783 0.097899161
0.010132613 0.085090071 0.011067069 0.23631132 -0.033300724 -0.97110659 0.16375642
0.022294722 0.089964911 0.013617927 0.2733331 -0.01733342 -0.96176326 0.054033075
0.034381669 0.086427353 0.012233936 -0.003420681 -0.016871966 -0.99985176 0.014258571
0.043294936 0.084730446 0.011178045 -0.12475629 -0.038380187 -0.99144483 0
0.051996835 0.081505597 0.0102079 -0.12475608 -0.038380228 -0.99144483 0
0.10112361 0.085974634 0.014382255 -0.92224789 -0.360695 -0.13913302 0.11795561
-0.10062358 0.090629004 0.013049629 0.91920745 -0.38368759 -0.088552356 0.1031444
-0.098223008 0.094754376 0.017308855 0.92292917 -0.37666231 -0.079543881 0.10349602
-0.042283013 0.094849795 0.010249197 0.13630831 -0.038577508 -0.98991507 0
-0.037256319 0.094000287 0.010974355 0.12663074 -0.04053637 -0.99112135 0.00041871888
-0.024690513 0.095946863 0.012628606 -0.14016928 -0.015825761 -0.99000108 0.058499724
-0.014896216 0.096348256 0.013961454 -0.24621592 -0.15167835 -0.95727289 0.095952958
0.011135546 0.096326336 0.014319407 0.14570361 -0.063920118 -0.98726118 0.13159068
0.02895188 0.095125012 0.012580485 0.078060776 -0.043779247 -0.99598688 0.032990787
0.035459075 0.095036916 0.011765078 -0.018362993 -0.033498928 -0.99927002 0.012288454
0.045328546 0.0921956 0.010633167 -0.12475535 -0.038379189 -0.991445 1.3449552e-07
0.097310498 0.095181026 0.015490228 -0.93450737 -0.32800022 -0.13824567 0.14051959
-0.094837166 0.10552796 0.013759078 0.93110627 -0.34713402 -0.11197788 0.12438033
-0.035622794 0.10638189 0.010717043 0.075789571 -0.04461211 -0.99612534 0.0063691675
-0.027981436 0.10410675 0.011857714 -0.019764101 -0.026866669 -0.99944365 0.031279016
-0.014136696 0.10489254 0.013733258 -0.28219813 -0.10055888 -0.95407134 0.11657418
-0.0090598371 0.10260511 0.011955339 -0.2945179 -0.099223696 -0.95048082 0.13999437
0.013870577 0.1060039 0.013521483 0.32702538 0.065308139 -0.94275624 0.11226842
0.022441432 0.10551193 0.012997624 0.22435938 0.027282193 -0.97412455 0.057226159
0.035125159 0.10479926 0.011429184 -0.010045668 -0.018918613 -0.99977058 0.013891824
0.042179327 0.1052737 0.010523172 -0.11997077 -0.039052673 -0.99200904 3.3474866e-05
0.094566688 0.10129615 0.017694727 -0.91508782 -0.37568823 -0.14653543 0.10996041
-0.092308901 0.11353046 0.011580248 0.91758198 -0.37437344 -0.13374536 0.11935899
-0.088987663 0.11793459 0.017500017 0.93361354 -0.34811705 -0.084736116 0.12496193
-0.035781879 0.11063549 0.010529477 0.072421394 -0.038229313 -0.99664122 0.0061155972
-0.023040665 0.1195706 0.011935703 -0.18576571 -0.012488443 -0.98251468 0.055810422
-0.018127486 0.11641488 0.012735052 -0.31455806 0.019886618 -0.94902992 0.088066198
-0.009227654 0.11645176 0.012475642 -0.21383761 0.044541389 -0.9758532 0.13387573
0.013925458 0.11415474 0.01314625 0.23618293 -0.051035997 -0.97036737 0.089921944
0.024677724 0.11584988 0.01231603 0.22171485 -0.056096926 -0.97349662 0.051167522
0.033463046 0.11431664 0.011269903 -0.037195913 -0.035409 -0.99868047 0.0098881712
0.089623682 0.11526829 0.014913506 -0.90254045 -0.38630742 -0.19022949 0.12796476
0.091557816 0.11241424 0.012908565 -0.89441782 -0.3959471 -0.20794849 0.10961214
-0.086726271 0.12676316 0.014359713 0.93104935 -0.32622454 -0.16347693 0.10502983
-0.032887407 0.1249889 0.010368979 0.047856152 -0.035599191 -0.99821967 0.012039537
-0.025126491 0.12460838 0.011452325 -0.12119304 -0.023739051 -0.99234509 0.047697622
-0.0093485275 0.1260715 0.012157659 -0.23636411 0.011110204 -0.97160101 0.13116807
0.013203914 0.12806049 0.012565208 0.28600162 0.019235715 -0.95803601 0.11842991
0.025487583 0.12516789 0.011853414 0.13319331 -0.040782593 -0.99025065 0.03624735
0.035550393 0.12655123 0.010533634 -0.054837968 -0.043383911 -0.99755228 0.0069219866
0.086693227 0.12268002 0.015930494 -0.93816161 -0.32000178 -0.13210534 0.13438973
-0.083558977 0.13361531 0.015521739 0.94909823 -0.26866269 -0.16441636 0.15157992
-0.025324883 0.1365668 0.010959272 -0.092671186 0.015640801 -0.99557394 0.045320172
-0.0197959 0.13955639 0.011604071 -0.22848786 -0.0076432703 -0.97351676 0.069372229
-0.0090522356 0.1356501 0.010831527 0.33476055 -0.11118799 0.93572026 0.15199876
0.014316306 0.13429059 0.012905975 0.28057492 -0.092668854 -0.95534819 0.10309819
0.037542626 0.13136624 0.01009655 -0.061040584 -0.033903509 -0.99755931 0.0057902294
0.08157967 0.13526717 0.01636927 -0.94511682 -0.27144349 -0.18185858 0.1457466
-0.08131846 0.14304672 0.013044938 0.93942589 -0.26820627 -0.21341144 0.11238977
-0.07914409 0.14503615 0.017471138 0.94031215 -0.3003304 -0.16004604 0.14302364
-0.024968391 0.14385885 0.010724357 -0.098310947 -0.0089612594 -0.9951154 0.04752386
-0.014779115 0.14784586 0.011971939 -0.25797933 0.026130429 -0.96579695 0.088926785
-0.0091693969 0.14313833 0.011441425 -0.21345533 -0.042624455 -0.9760226 0.12003163
0.014205615 0.14606722 0.01198408 -0.21410657 -0.05979399 0.97497851 0.12333903
0.024547199 0.14685704 0.011132133 0.18608965 -0.012146896 -0.9824577 0.044350546
0.032417241 0.14222381 0.010321183 -0.012877497 -0.026853574 -0.99955648 0.010533334
0.077265613 0.14623812 0.018951952 -0.93890953 -0.25632659 -0.22966419 0.1300713
0.080412805 0.14369527 0.012860969 -0.9097442 -0.31286821 -0.27290836 0.11852875
-0.080191821 0.15104148 0.010847986 0.96605909 -0.13691016 -0.21905601 0.11678004
-0.077374257 0.15660594 0.014770529 0.97015369 -0.027656242 -0.24090843 0.13689724
-0.026770806 0.15110317 0.010194061 -0.049658969 -0.012530707 -0.99868762 0.034367468
-0.015726563 0.1544016 0.011586174 -0.29667589 -0.016400052 -0.95483744 0.093625054
-0.0092970822 0.15621938 0.011947013 -0.23196149 0.054548759 -0.97119421 0.11394782
0.016547518 0.15675145 0.011755731 0.21696109 -0.035917081 -0.97551924 0.098421983
0.022534257 0.15640579 0.011015785 0.27235022 -0.018529719 -0.96201974 0.064957149
0.076344103 0.15471354 0.016088339 -0.96768886 -0.023481723 -0.25105163 0.1294502
-0.075812243 0.16555703 0.015082871 0.97134596 0.019566169 -0.23686312 0.10930587
-0.022308299 0.16363126 0.010320541 -0.22068541 -0.021125278 -0.97511625 0.087163866
-0.014876172 0.16384479 0.01133548 -0.27829632 -0.036669392 -0.959795 0.091364771
-0.0098419152 0.16135843 0.012125432 -0.20890924 -0.089325227 -0.97384697 0.11701331
0.014607201 0.16545027 0.011631238 0.21713118 -0.054825008 -0.97460157 0.11606131
0.023637269 0.16480502 0.010551846 0.23582654 -0.0029249722 -0.97179073 0.057809032
0.074671872 0.1640054 0.016138071 -0.9445926 -0.094113961 -0.31446356 0.14061049
-0.077915348 0.17890759 0.014879102 0.97278714 0.056656852 -0.22466676 0.11799116
-0.016356923 0.17402491 0.010735132 -0.2509506 -0.069422834 -0.96550721 0.096045613
-0.0092923641 0.17613737 0.010913104 -0.26462477 -0.050663125 -0.96301967 0.12040108
0.013734997 0.17772363 0.011297781 -0.18845662 -0.05957998 0.98027259 0.11896827
0.022523256 0.17565155 0.010272144 0.2632494 -0.026065335 -0.96437567 0.062222365
0.076963693 0.17633574 0.013782134 -0.94518179 0.087252155 -0.31467181 0.11982494
-0.080386072 0.18891868 0.012869576 0.96604967 0.15016794 -0.21023226 0.11941902
-0.078734092 0.18635362 0.015844354 0.97304606 0.076737963 -0.21746863 0.12392911
-0.013860104 0.18324073 0.010719975 -0.29848304 -0.14110497 -0.94392651 0.097138166
-0.009518981 0.18432197 0.01127555 -0.23436834 -0.059607081 -0.97031879 0.12045339
0.018116333 0.18236923 0.01056663 0.22732747 -0.062964082 -0.97178072 0.096377537
0.078337334 0.18392517 0.013394408 -0.9416039 0.145207 -0.30380407 0.12267075
-0.081153996 0.19155915 0.011124697 0.97719181 0.10081586 -0.18690202 0.12592277
-0.078503288 0.19261295 0.018471828 0.97400945 0.075354204 -0.21360575 0.12209854
-0.011296283 0.1927941 0.010700895 -0.18508194 -0.08687716 -0.9788754 0.12179273
0.015373299 0.19332398 0.010487722 0.26015946 -0.081537634 -0.96211678 0.10977683
0.078360222 0.19343224 0.016691126 -0.9670198 0.11653066 -0.22648029 0.12149555
0.08063069 0.19469275 0.010584794 -0.95333207 0.16542521 -0.25257167 0.13509043
-0.08194346 0.20484415 0.01322999 0.98254955 0.081886835 -0.16700555 0.10865406
0.011632957 0.201253 0.010651438 0.29601917 -0.14619415 -0.94392794 0.098680988
0.079072267 0.20395583 0.017743956 -0.9758752 0.028308894 -0.21648607 0.089023083
0.081180543 0.20260416 0.01179719 -0.96627688 0.095071323 -0.23931248 0.11627603
-0.083736703 0.21607968 0.01087627 0.99331808 0.066238329 -0.094506472 0.11673445
0.011472796 0.21575789 0.01011009 0.27795935 0.0051477393 -0.9605791 0.11004426
0.07973519 0.21394785 0.018775379 -0.98897523 0.040569488 -0.14241569 0.11052001
0.082534708 0.21600053 0.012557394 -0.97941226 0.027834298 -0.19994225 0.11294591
-0.08385925 0.2269104 0.01365499 0.99148226 -0.0039842813 -0.13018093 0.080407351
0.083330438 0.22733705 0.01270409 -0.98539573 0.02848029 -0.16788128 0.089060366
-0.083269536 0.23507586 0.01441947 0.99202919 0.02089647 -0.12426333 0.085878871
0.082403675 0.23539481 0.014272669 -0.98353457 -0.0033361132 -0.18068883 0.091958888
-0.083055452 0.24084045 0.013358853 0.98771846 -0.068489909 -0.14043279 0.079774387
0.081544861 0.24417435 0.014132761 -0.98830396 -0.039929412 -0.14717624 0.13374914
-0.081902757 0.25616732 0.013822262 0.99460256 -0.086892828 -0.056704413 0.09872549
0.07892859 0.25613195 0.018667649 -0.98537433 -0.06921158 -0.15571482 0.10892101
0.080285907 0.25495768 0.015622765 -0.99264055 -0.063099436 -0.10335981 0.14906679
-0.081237622 0.26584321 0.013516641 0.99367505 0.010697572 -0.11178273 0.10443871
0.078526452 0.26719743 0.017452545 -0.98705727 -0.012256974 -0.15989886 0.09783721
0.081142075 0.26394176 0.011021626 -0.98715937 -0.067922689 -0.14457825 0.12579142
-0.081321999 0.27182049 0.012132134 0.98648173 -0.14290497 -0.080199569 0.12286206
-0.079057053 0.2758562 0.016802967 0.98925894 -0.14274178 -0.031490721 0.11376956
0.079383895 0.27523509 0.013794699 -0.98845255 -0.031571787 -0.14820527 0.13468967
-0.080184832 0.28140676 0.012983779 0.98660594 -0.14484636 -0.075021192 0.12906232
-0.079794057 0.28506938 0.013203649 0.98502487 -0.13921322 -0.10171434 0.11027247
0.078255169 0.28542241 0.014339933 -0.98297614 -0.089305505 -0.16056915 0.12043238
-0.078219712 0.29689404 0.014668548 0.98602545 -0.14156626 -0.08782272 0.10746504
0.076196954 0.29308343 0.017962772 -0.98121744 -0.074993968 -0.17773084 0.096850052
-0.077220105 0.30435139 0.015354651 0.99053311 -0.11786395 -0.070372216 0.11317845
0.076035962 0.30667424 0.015229187 -0.98028284 -0.077951893 -0.18157367 0.11021119
-0.076045051 0.31490293 0.014624468 0.99157298 -0.10847159 -0.070830852 0.1275931
0.075880945 0.31308106 0.013400581 -0.9778114 -0.095239714 -0.18658583 0.13110992
-0.075692274 0.32007673 0.013865119 0.98122865 -0.16803171 -0.094633996 0.11085366
0.073635608 0.32374188 0.015247281 -0.97610146 -0.10451157 -0.1905338 0.099961229
-0.072485596 0.33469763 0.016655358 0.99259275 -0.048374325 -0.11144305 0.099613406
0.072765715 0.33503419 0.013523218 -0.96755171 -0.20248073 -0.15114635 0.12917317
-0.071658246 0.34374547 0.015588689 0.98874652 -0.077475756 -0.12797603 0.10486431
0.069792092 0.34540281 0.017190853 -0.98503649 -0.13645127 -0.10528146 0.11381597
0.071274184 0.34851426 0.012559062 -0.98241645 -0.15101546 -0.10978268 0.11877287
-0.071420617 0.35210216 0.013332379 0.98624116 -0.080934837 -0.14414547 0.10943453
0.068838954 0.35745925 0.015408986 -0.98512083 -0.14055701 -0.098897636 0.12420995
0.070855089 0.35264853 0.012170757 -0.98292553 -0.13119063 -0.12902053 0.15018974
-0.07008335 0.3654331 0.012046309 0.9793449 -0.15288974 -0.13231932 0.11942826
-0.068286292 0.36411437 0.016831385 0.96075583 -0.19472945 -0.19755676 0.082765028
0.067447349 0.36459938 0.016350586 -0.98668849 -0.12484247 -0.10421237 0.12589723
-0.066955231 0.37377062 0.016774723 0.97872913 -0.10741266 -0.17479087 0.10066867
0.067046247 0.37272415 0.014567505 -0.97693795 -0.18248513 -0.11086643 0.13948123
-0.06490095 0.38582709 0.017651258 0.97328728 -0.14711404 -0.17626482 0.083342642
0.065468974 0.38462666 0.014344587 -0.99299127 -0.0014697387 -0.11817839 0.12536515
-0.065542631 0.39575624 0.013456029 0.99605733 -0.038234197 -0.080049627 0.11257148
0.063616998 0.39312601 0.016263796 -0.97215164 -0.11618613 -0.20352359 0.094431818
-0.066069424 0.40650201 0.010769065 0.98137861 -0.051831845 -0.18495792 0.07738401
0.062027618 0.4049902 0.018384026 -0.96391213 -0.021598769 -0.26534304 0.081948355
-0.063814886 0.41487712 0.015109001 0.98611474 0.047834452 -0.15902665 0.095298246
0.064168967 0.41190648 0.012303505 -0.97948623 -0.033353761 -0.19873175 0.095407635
-0.06367138 0.42461443 0.014173083 0.98705411 0.12234085 -0.10371566 0.10979049
0.061893985 0.42587581 0.015956085 -0.9679274 0.094655067 -0.23271661 0.0939399
-0.065449014 0.43412751 0.013960323 -0.96984988 -0.23992093 0.042768478 0.11188621
0.063471444 0.43222865 0.014068645 0.92807436 -0.328771 0.1748933 0.12533003
-0.06917616 0.44073001 0.013309712 -0.89836621 -0.42946544 0.092182375 0.09064997
0.069381006 0.44385189 0.014420217 0.87467384 -0.44098565 0.2011898 0.060321771
-0.074943684 0.45372942 0.015820801 -0.91423619 -0.38491911 0.12652838 0.051728226
0.076798394 0.45632201 0.012227019 0.93706942 -0.32310554 0.13230175 0.090613894
-0.080667444 0.46440625 0.012441567 -0.97085267 -0.18265706 0.15518183 0.040005323
-0.078421123 0.46588692 0.017864674 0.96761823 0.15639575 -0.19812968 0.041118916
0.080142543 0.46495247 0.010324905 -0.97620726 0.16864401 -0.13630295 0.074584536
-0.079850532 0.47956198 0.014413774 0.96813005 -0.1706567 -0.18330432 0.040559765
0.07797391 0.47404215 0.016602457 -0.97776562 -0.081702814 -0.19312973 0.060238782
-0.078427255 0.48401585 0.017849881 0.89558434 -0.38379517 -0.22501093 0.057264477
0.077564768 0.48283961 0.017590197 -0.91075492 -0.34795251 -0.22238357 0.056627277
-0.075758763 0.4930326 0.015278003 0.83180326 -0.52958077 -0.16627561 0.057399098
-0.065253735 0.49789199 0.014536147 0.42880243 -0.90252811 -0.039642457 0.047857977
-0.054681927 0.4992449 0.014401207 0.16227756 -0.98543394 0.050853051 0.035625264
-0.046357214 0.4997499 0.014129599 0.0081292531 -0.99000776 0.14077796 0.037740689
-0.034335423 0.49703476 0.016204856 -0.055018209 -0.97038943 0.23519634 0.048286412
-0.02385455 0.49772751 0.015045406 -0.030335667 -0.95753825 0.28670591 0.055655796
-0.01429219 0.49690828 0.015665419 -0.044195369 -0.96666664 0.25219527 0.045018926
-0.0068934201 0.49655658 0.014984651 -0.0078731971 -0.95285422 0.3033264 0.065763667
0.0047088657 0.49662885 0.013785104 0.020633383 -0.94759309 0.31881273 0.065536536
0.01376093 0.49534202 0.014172351 0.011301077 -0.93588156 0.35213348 0.058022879
0.024628144 0.49633288 0.014781481 0.027758788 -0.97645169 0.21394275 0.044548303
0.035805441 0.49667901 0.013909238 0.052100025 -0.93809682 0.34243232 0.067906335
0.044738445 0.49811581 0.014859813 0.001090153 -0.98302305 0.18347858 0.046739798
0.05422597 0.4990631 0.016608264 -0.13286327 -0.98481071 0.11178236 0.034978155
0.064568266 0.49780566 0.015486997 -0.39958605 -0.91583234 -0.039774891 0.063536316
0.074001655 0.49263 0.017814405 -0.75825405 -0.59935218 -0.25656933 0.061064869
-0.11079253 -0.49169254 0.023756182 0.41684017 0.85836399 -0.29909119 0.1442136
-0.10473144 -0.49360049 0.02536628 0.35336953 0.92784387 -0.11931334 0.13562493
-0.0930029 -0.49488989 0.025271578 0.19868286 0.97888047 -0.048147265 0.11438367
-0.083803669 -0.49535972 0.023943815 -0.0025993867 0.99185145 -0.12737364 0.092902422
-0.075502753 -0.49493954 0.025556641 -0.012202303 0.99680239 -0.078969158 0.14044081
-0.063224077 -0.49653512 0.025374202 0.045162987 0.9771263 -0.20780884 0.12246151
-0.053332362 -0.4967972 0.024715982 0.047988094 0.97977787 -0.19424853 0.090295523
-0.045064483 -0.4967953 0.024560334 0.1134992 0.96711373 -0.22761564 0.10278722
-0.03578281 -0.49719062 0.026994057 -0.0091956006 0.96704942 -0.25442228 0.10839452
-0.026371539 -0.49744388 0.026153527 -0.11178835 0.95727116 -0.26671192 0.12711805
-0.013912675 -0.49691093 0.025518874 -0.080827244 0.93371952 -0.34876204 0.14033735
-0.0077330023 -0.4953371 0.024842756 -0.16829982 0.96067852 -0.2208437 0.17651165
0.0069485805 -0.49669981 0.024684228 0.13746017 0.96889693 -0.20577523 0.15817101
0.016372863 -0.49766803 0.027537365 0.12597863 0.98719615 -0.097842842 0.12705152
0.026360407 -0.49696484 0.025921779 0.15701573 0.96709806 -0.20016842 0.11854577
0.035380665 -0.49726635 0.024955258 0.057944793 0.95265132 -0.29849249 0.083433852
0.044555444 -0.49701536 0.025394166 -0.013579506 0.95744693 -0.2882897 0.11071239
0.054824546 -0.49603888 0.024953971 -0.047739953 0.96420401 -0.2608285 0.11377179
0.065258346 -0.49627915 0.023469072 -0.037860908 0.97754139 -0.20731494 0.1152143
0.075919881 -0.49459437 0.026510542 0.032597605 0.98401338 -0.17508568 0.16827893
0.084247991 -0.49477339 0.027385242 -0.0028716442 0.99541497 -0.095607437 0.094063498
0.093536742 -0.4948625 0.024452588 -0.1008637 0.98585379 -0.13386172 0.089871161
0.10626256 -0.49331155 0.024766451 -0.39865014 0.88322997 -0.24694717 0.15183745
0.11192693 -0.4932327 0.024915505 -0.50794309 0.82861233 -0.2353622 0.099539965
0.12224683 -0.49026182 0.020524371 -0.74543339 0.59040397 -0.30943865 0.085912682
-0.12174535 -0.4859266 0.021921733 0.74656266 0.581882 -0.32257944 0.098263398
-0.11657102 -0.48608452 0.026555687 0.74069566 0.61827052 -0.26289079 0.13145442
-0.10436834 -0.48529017 0.024295555 0.5224762 0.82336444 -0.22156194 0.17837919
-0.096297413 -0.48555052 0.025416899 0.10707178 0.9906733 -0.084273614 0.1910373
-0.084951997 -0.48779216 0.027066238 -0.074252442 0.99566329 -0.056046758 0.20376836
-0.075688049 -0.48285374 0.028149365 -0.11595432 0.079260007 0.99008709 0.25201648
-0.065113574 -0.48166737 0.029559052 -0.14434062 0.13144882 0.98075837 0.20160349
-0.0081558367 -0.48450378 0.024365714 -0.34175983 0.28740686 -0.8947612 0.23657499
0.0086709876 -0.48515052 0.025619373 0.24953613 0.18520701 -0.95048934 0.2323263
0.075382963 -0.48475674 0.029185817 0.25106126 0.96432763 -0.083907098 0.26851842
0.095481209 -0.48487043 0.026661202 -0.17438762 0.96339947 -0.20359379 0.18483961
0.10563814 -0.48369551 0.025337642 -0.67430222 0.65526503 -0.34050584 0.15764706
0.11688729 -0.4870944 0.025237843 -0.77789545 0.5159725 -0.35867956 0.13100629
0.12056687 -0.48080802 0.023617864 -0.84249848 0.39947158 -0.36141226 0.098799244
-0.12567236 -0.47343481 0.021029115 0.92268783 0.26314837 -0.28178036 0.065667182
-0.10816755 -0.47403297 0.0233336 0.47985917 0.20327157 -0.85347283 0.19448841
-0.095336035 -0.47450751 0.02511918 -0.14662907 0.14991727 -0.9777652 0.15598164
-0.085617818 -0.47623819 0.026524585 -0.16895419 0.11051737 0.9794082 0.12543115
-0.0710342 -0.47096637 0.028327137 0.16195209 -0.047077615 -0.98567498 0.033997081
-0.063250147 -0.47777706 0.029664097 -0.13468689 0.11172146 0.98456979 0.12610121
-0.0085620377 -0.47535956 0.027024074 -0.25549075 0.0036834166 -0.96680444 0.1421272
0.0085093947 -0.47425976 0.023832742 0.39360932 -0.036176141 -0.91856569 0.19356684
0.074807957 -0.47438097 0.02885651 -0.074268356 -0.041775204 -0.99636286 0.099016897
0.085256301 -0.47327852 0.027499089 -0.084467746 -0.05803277 -0.99473482 0.072438955
0.094923735 -0.47569999 0.026376352 0.026380697 0.016993409 -0.99950755 0.20155543
0.10339309 -0.47150105 0.025148083 -0.12531169 0.042661272 -0.99119979 0.18213011
0.11641426 -0.47245976 0.023546711 -0.87421548 0.26466522 -0.4070622 0.10595931
0.12258846 -0.47422117 0.024946963 -0.86424798 0.31036478 -0.39591545 0.097837858
-0.1248879 -0.4652591 0.021896388 0.93621463 0.18362114 -0.29964229 0.067560308
-0.11653314 -0.46244949 0.021731159 0.83685488 0.14579964 -0.52765173 0.14661275
-0.10843913 -0.465947 0.022980683 0.3256909 -0.012741324 -0.9453904 0.18516129
-0.093840688 -0.4669092 0.025029134 0.071133472 0.10732634 0.99167591 0.050717793
-0.083241925 -0.46335077 0.026349783 0.13629992 -0.038549431 -0.98991728 0
-0.071179003 -0.4683452 0.028205117 0.13321252 -0.047426276 -0.98995215 0.0068493537
-0.063515641 -0.46268702 0.029039845 0.13628992 -0.038555954 -0.98991847 0
-0.057682242 -0.46165657 0.029802853 0.13629141 -0.038547281 -0.98991853 0
-0.0081724674 -0.46255279 0.023776855 -0.58318782 -0.0050310274 -0.81232172 0.2083142
0.0088659488 -0.46499237 0.026245723 0.24140687 -0.012657344 -0.97034144 0.16293533
0.067213982 -0.46772313 0.02955435 -0.11882923 -0.034142505 -0.99232757 0.0082907779
0.07452134 -0.46625775 0.028578117 -0.12508835 -0.023525689 -0.99186665 0.0006373371
0.081951186 -0.46357185 0.027539227 -0.12475909 -0.038364712 -0.991445 0
0.098486297 -0.46482706 0.025507158 -0.096198119 0.089163564 0.9913606 0.10646541
0.10628099 -0.46582291 0.024564883 -0.2438049 0.0218437 -0.96957815 0.15894985
0.11855973 -0.46026132 0.022804523 -0.81987637 0.16039886 -0.54961348 0.12721744
0.12331265 -0.46532029 0.023748146 -0.90531254 0.18386392 -0.38288796 0.091263026
-0.12640594 -0.4557786 0.0232697 0.94697905 0.14017969 -0.28910273 0.077979989
-0.11696951 -0.45462421 0.021366315 0.85365659 0.21719718 -0.47338754 0.17149137
-0.10592487 -0.45699745 0.022979047 -0.091190994 0.2009124 0.97535557 0.16972707
-0.09595231 -0.45433268 0.0242486 -0.03573218 0.068090931 0.99703908 0.025233928
-0.082785755 -0.4561035 0.026130334 0.13629867 -0.038542811 -0.98991776 0
-0.074553929 -0.45498312 0.027220055 0.1362891 -0.038565513 -0.98991817 0
-0.067139022 -0.45375645 0.028193165 0.13629231 -0.038552742 -0.98991823 0
-0.0085570989 -0.45461044 0.026317218 -0.27155775 0.0010363577 -0.96242154 0.10187489
0.0082057398 -0.45401573 0.020485561 0.84720814 0.066672236 -0.52706081 0.21959594
0.067891896 -0.45364594 0.028924106 -0.12475619 -0.038398638 -0.99144411 0
0.073924512 -0.45338157 0.028154768 -0.12475477 -0.038380489 -0.991445 6.7157345e-07
0.083983973 -0.4560321 0.026991565 -0.12475666 -0.038372669 -0.99144506 0
0.10472192 -0.45468453 0.024329886 -0.087063663 -0.018567281 -0.99602968 0.14888421
0.11578304 -0.45800605 0.023066618 -0.81410331 0.17968126 -0.55222321 0.13804583
0.12556115 -0.45563224 0.021991175 -0.91707742 0.20220827 -0.34362897 0.079889819
-0.12688254 -0.44526437 0.02600543 0.93230146 0.11448544 -0.3430846 0.13105722
-0.11645035 -0.44568157 0.021089509 0.87319314 0.04173097 -0.48558444 0.1719759
-0.10683279 -0.44595459 0.022424132 -0.19229661 0.12745512 0.97302479 0.16874029
-0.097202696 -0.44656187 0.023773802 -0.030436983 -0.03539614 -0.99890971 0.04478978
-0.084042996 -0.44515979 0.025531022 0.13629305 -0.038551308 -0.98991817 5.2218161e-07
-0.07573764 -0.44260803 0.026575122 0.13628703 -0.038564093 -0.98991847 5.9889351e-07
-0.06613601 -0.44302893 0.027913464 0.13629256 -0.038547087 -0.98991847 2.7219465e-07
-0.05553804 -0.44538942 0.029464522 0.1362917 -0.038555909 -0.98991817 2.4128576e-07
-0.008429681 -0.44485924 0.025075279 -0.35658944 -0.0071461075 -0.9342339 0.15146771
0.0086346716 -0.44378415 0.023430482 0.29213443 -0.021213407 -0.95614195 0.15540166
0.059200946 -0.44131884 0.029540513 -0.12475505 -0.038376562 -0.99144506 0
0.065177418 -0.44479156 0.02892291 -0.12475588 -0.038373046 -0.99144512 0
0.076744638 -0.44344935 0.027415417 -0.12475471 -0.038386032 -0.99144477 0
0.084079936 -0.44716492 0.026636232 -0.12475836 -0.038388401 -0.99144429 0
0.095870197 -0.44559026 0.025091672 -0.090326838 0.042373523 0.99501032 0.051371969
0.1056514 -0.44677314 0.023906669 0.069909297 0.1826231 0.98069441 0.14291586
0.11480197 -0.44551703 0.022706602 -0.77664083 0.040057056 -0.62866873 0.14826804
0.12612095 -0.44416603 0.0228114 -0.92952055 0.14576007 -0.33874121 0.078951135
-0.12834913 -0.4357146 0.024547243 0.93676478 0.15519089 -0.31366798 0.099607959
-0.11523891 -0.43388155 0.020796733 0.41452333 -0.067503624 -0.90753168 0.1961115
-0.10449057 -0.43487692 0.022315325 0.0095388154 0.072630256 0.99731326 0.12382941
-0.094273195 -0.43143308 0.023587929 0.13629617 -0.038553338 -0.98991764 0
-0.082768083 -0.43416452 0.02527833 0.13629088 -0.038563523 -0.98991799 2.7252548e-07
-0.075014785 -0.43641934 0.026433619 0.1362924 -0.038548026 -0.98991835 5.1076813e-07
-0.067191921 -0.43281269 0.027370201 0.13629179 -0.038550857 -0.98991835 2.8380097e-07
-0.057052933 -0.43765706 0.028954804 0.13629191 -0.038557734 -0.98991811 0
-0.0086657926 -0.43176639 0.026369005 -0.25215411 -0.051999342 -0.96628892 0.10737021
0.0087849544 -0.43300354 0.02413181 -0.25068769 0.061115079 0.96613693 0.15818617
0.057439715 -0.43706381 0.029597415 -0.12475424 -0.038389385 -0.99144477 0
0.066757113 -0.43335792 0.028281523 -0.12475535 -0.038391564 -0.99144447 0
0.074131012 -0.43284667 0.027333852 -0.12475464 -0.038390033 -0.99144465 0
0.083601333 -0.43712673 0.026307866 -0.12475651 -0.038378064 -0.99144495 0
0.10585792 -0.43256855 0.023330804 0.077216692 0.11417488 0.99045533 0.10651466
0.11352012 -0.43538776 0.022475787 -0.62043369 0.004091558 -0.78424823 0.18483257
0.124899 -0.43413123 0.022290923 -0.91271007 0.20842682 -0.3514522 0.11305667
0.13213316 -0.43498924 0.02011824 -0.90876281 0.23913559 -0.34200022 0.078870974
-0.13150102 -0.4246074 0.022406841 0.88524377 0.29830047 -0.35687581 0.13978134
-0.11687022 -0.42370147 0.020175662 0.24304835 0.13335745 -0.96080351 0.17165619
-0.1090579 -0.42152783 0.021166112 0.11678182 -0.025743162 -0.9928239 0.095927171
-0.09207648 -0.42746907 0.023735985 0.1362959 -0.038549669 -0.98991787 0
-0.087896578 -0.4234418 0.024154631 0.13629571 -0.038558424 -0.98991752 0
-0.075664043 -0.42677531 0.025968628 0.13629259 -0.03855307 -0.98991823 0
-0.066560671 -0.42455205 0.027135396 0.13629243 -0.038549006 -0.98991835 3.5336819e-07
-0.058833137 -0.42275989 0.028129522 0.13629121 -0.038566638 -0.98991787 4.2080481e-07
-0.049231481 -0.42131424 0.029395174 0.13629243 -0.038551286 -0.98991829 3.9916074e-07
-0.0084379259 -0.42248619 0.02441179 0.38148674 0.077767164 0.92109728 0.18448889
0.0087481905 -0.42464134 0.023455085 -0.26827517 0.073847122 0.96050769 0.15079181
0.056497864 -0.42574245 0.029277669 -0.12475646 -0.038382672 -0.99144471 0
0.064000122 -0.42173728 0.028178593 -0.12475726 -0.038368281 -0.99144512 1.8024902e-07
0.074227378 -0.42195559 0.026900124 -0.12475979 -0.03838785 -0.99144411 0
0.081672497 -0.42314419 0.026009297 -0.12475455 -0.038388085 -0.99144471 2.1980102e-07
0.096073061 -0.42490363 0.024265341 -0.12475666 -0.038384937 -0.99144465 0
0.10311283 -0.42281836 0.023298789 -0.013067937 0.14030142 0.9900226 0.055043679
0.11722965 -0.42409134 0.021571711 -0.47279266 -0.00024900993 -0.88117367 0.22142942
0.12719409 -0.42807356 0.028057897 -0.90647238 0.23141399 -0.35320735 0.13530159
0.13177523 -0.42097446 0.024278201 -0.87249058 0.33945888 -0.35146526 0.12403682
-0.13511309 -0.41621378 0.024834577 0.8673771 0.43935928 -0.2337101 0.11041393
-0.11521764 -0.41728389 0.020153245 0.13363805 0.031886879 -0.99051708 0.13620926
-0.10344216 -0.41543874 0.021702588 -0.068911731 0.087906837 0.99374217 0.031411927
-0.096381865 -0.41349569 0.022599012 0.13629638 -0.038552068 -0.9899177 0
-0.086265087 -0.41424721 0.02402116 0.13629599 -0.038551547 -0.98991781 2.1999819e-07
-0.072295994 -0.41283655 0.025889482 0.13629317 -0.038550008 -0.98991823 0
-0.067621261 -0.41154301 0.026482718 0.13629273 -0.038549554 -0.98991829 0
-0.052745473 -0.41446847 0.028644752 0.13629188 -0.038543023 -0.98991865 3.3234468e-07
-0.0085825203 -0.41303414 0.025157694 0.28829798 0.09931241 0.95237666 0.15067872
0.0089747012 -0.41566133 0.024845973 0.22720407 0.0071811816 -0.97382069 0.13553743
0.048761975 -0.41439655 0.029811885 -0.12475649 -0.038377274 -0.99144489 0
0.054781057 -0.41270107 0.028988853 -0.12475685 -0.038382258 -0.99144471 0
0.062756829 -0.41507304 0.02807706 -0.12475713 -0.038376898 -0.99144483 0
0.073913291 -0.41383982 0.026625475 -0.12474959 -0.038396791 -0.99144506 1.2756207e-07
0.082262561 -0.41501242 0.025620256 -0.12475707 -0.038375963 -0.99144489 0
0.094491415 -0.41778627 0.024188843 -0.12475658 -0.038388833 -0.99144447 0
0.10524581 -0.4135623 0.022672076 0.024499906 0.12351643 0.99204004 0.034027137
0.11504464 -0.41652274 0.021553665 -0.20792055 0.024664773 -0.9778347 0.19751976
0.12289682 -0.41804984 0.020624721 -0.5895099 0.18995526 -0.78510833 0.19422118
0.134331 -0.41636658 0.02350994 -0.87686759 0.36604711 -0.31162894 0.12357427
-0.14109379 -0.4041028 0.025378389 0.86829782 0.45662755 -0.19377851 0.13803723
-0.13921951 -0.40849602 0.023499416 0.87825507 0.42567083 -0.21788149 0.12740332
-0.10491052 -0.40543392 0.021109791 0.1363046 -0.038562477 -0.98991615 0
-0.094218105 -0.40297127 0.022487035 0.13630223 -0.038570732 -0.98991621 2.0936562e-07
-0.084143162 -0.40434122 0.023927502 0.13629542 -0.038552165 -0.98991781 1.7920914e-07
-0.073090412 -0.40521821 0.0254834 0.13629076 -0.038560428 -0.98991817 2.8471209e-07
-0.065760911 -0.40476561 0.026474899 0.13629195 -0.03854873 -0.98991841 2.4490424e-07
-0.05179552 -0.40780815 0.028516144 0.13629302 -0.038553689 -0.98991805 0
-0.046285383 -0.40308133 0.029090684 0.13629171 -0.038549822 -0.98991841 4.7449441e-07
-0.0083413161 -0.40438265 0.023123816 0.41107491 0.19675921 0.89011419 0.18379641
0.0088144373 -0.40605551 0.023128921 -0.55933917 0.15943858 0.81346118 0.20067897
0.044060294 -0.40311152 0.029966652 -0.12316512 -0.038306426 -0.99164665 6.5953659e-06
0.052519381 -0.40664712 0.029039092 -0.12475624 -0.038373511 -0.99144506 4.3828851e-07
0.065537483 -0.4040724 0.027301317 -0.12475762 -0.038382083 -0.99144459 0
0.074703135 -0.40624472 0.026232071 -0.12475692 -0.038387224 -0.99144453 0
0.085057735 -0.40751806 0.024978414 -0.12475599 -0.038382135 -0.99144483 0
0.094269082 -0.40559626 0.023744933 -0.12475591 -0.038391087 -0.99144447 2.259633e-07
0.10461845 -0.40402439 0.022381796 -0.12475532 -0.038380191 -0.99144489 0
0.11373681 -0.40478727 0.021263937 -0.0082076928 0.1230691 0.99236423 0.085378692
0.12206807 -0.40805873 0.020342238 -0.28817749 -0.017755091 -0.9574123 0.2038704
0.13865641 -0.40707713 0.024992779 -0.88328457 0.35584792 -0.30525491 0.13801822
0.14148208 -0.40155682 0.024667017 -0.89221722 0.38158092 -0.24154575 0.110475
-0.14533204 -0.39351618 0.0252629 0.94181877 0.29590207 -0.15943447 0.091786899
-0.10455368 -0.39427128 0.02072503 0.13630866 -0.038557768 -0.98991573 4.0390231e-07
-0.094017692 -0.39596081 0.022241594 0.13630493 -0.038572438 -0.98991573 2.6828474e-07
-0.084728748 -0.39299005 0.023404796 0.13631269 -0.038561873 -0.98991513 0
-0.074283868 -0.39572543 0.024949381 0.13629052 -0.038552653 -0.98991847 6.6174465e-07
-0.063469134 -0.39684632 0.026482003 0.13629276 -0.03856606 -0.98991764 0
-0.055746034 -0.39352325 0.0274159 0.13629085 -0.038560715 -0.98991817 6.2096206e-07
-0.046567161 -0.39597616 0.028775176 0.13629287 -0.038545143 -0.98991841 0
-0.039153211 -0.39059225 0.029586244 0.13629286 -0.038556993 -0.98991799 0
-0.0085532181 -0.39419225 0.024335328 0.45597297 0.065410785 0.88758665 0.16469131
0.0094805937 -0.39508587 0.027928542 -0.2650649 0.10337501 0.95867312 0.12418331
0.041896373 -0.39409715 0.02988999 -0.12343903 -0.037895441 -0.99162829 7.2485159e-06
0.053932499 -0.39082181 0.028248658 -0.12475475 -0.038384195 -0.99144483 0
0.066989392 -0.39349717 0.02670924 -0.12475581 -0.038393773 -0.99144435 0
0.07438004 -0.39363542 0.025784606 -0.12475581 -0.038384732 -0.99144465 1.3985102e-07
0.084178388 -0.39391235 0.024562374 -0.1247544 -0.038378239 -0.99144512 1.517047e-07
0.094002642 -0.39193711 0.023249701 -0.12475499 -0.038389016 -0.99144465 0
0.10756546 -0.39640751 0.021716109 -0.12475838 -0.038392141 -0.99144411 0
0.11318512 -0.39444911 0.020933159 0.014365952 0.079720601 0.9967137 0.026381621
0.14355615 -0.39696369 0.024820831 -0.91997015 0.32539827 -0.21856548 0.090751246
-0.14690717 -0.38602784 0.025767639 0.97514063 0.18619597 -0.12013314 0.1004651
-0.10443299 -0.3842746 0.02035249 0.13631034 -0.038569558 -0.98991513 3.907889e-07
-0.097298548 -0.38469183 0.021351004 0.13630667 -0.03856007 -0.98991597 0
-0.083913982 -0.38606814 0.023247389 0.13631552 -0.038554434 -0.98991501 0
-0.072760619 -0.38231897 0.024636969 0.13629009 -0.038551617 -0.98991859 7.0407856e-07
-0.065298147 -0.3859528 0.025805926 0.1362934 -0.038557995 -0.98991787 9.237575e-08
-0.055560745 -0.38590646 0.027144764 0.13628818 -0.038567349 -0.98991823 5.0412098e-07
-0.044654675 -0.3849268 0.028608156 0.13629089 -0.038555317 -0.98991829 0
-0.038281515 -0.38447934 0.029468188 0.10498751 -0.032190934 -0.99395239 0.0040359376
-0.0087067802 -0.38535005 0.025166169 0.35841107 0.099955872 0.92819732 0.12554768
0.0094113071 -0.38334408 0.026837688 -0.28935614 0.086598523 0.95329624 0.13892183
0.046136916 -0.38388017 0.028960878 -0.12475558 -0.038383327 -0.99144483 0
0.056757212 -0.3844026 0.027644722 -0.12475693 -0.038379073 -0.99144477 1.271505e-07
0.065911256 -0.38400763 0.026477555 -0.12475444 -0.038390309 -0.99144465 0
0.075362504 -0.38878265 0.025473127 -0.12475679 -0.038379785 -0.99144477 0
0.085662685 -0.38711262 0.024112375 -0.12475546 -0.03838703 -0.99144471 0
0.096744351 -0.38313374 0.022563912 -0.12475441 -0.038392317 -0.99144453 2.9983366e-07
0.10575879 -0.38421702 0.021471538 -0.12475672 -0.038385555 -0.99144459 0
0.11270887 -0.38941142 0.02079807 -0.1247531 -0.038384851 -0.99144506 0
0.14593746 -0.38622984 0.025452977 -0.94634706 0.2449275 -0.21080275 0.091129571
-0.1486693 -0.37467688 0.029914178 0.98528963 0.15693596 -0.067642443 0.10882181
-0.10259905 -0.37227523 0.020137655 0.13632381 -0.038559735 -0.98991364 0
-0.093428768 -0.37316751 0.021434966 0.13631003 -0.038551819 -0.98991585 0
-0.082551055 -0.37503335 0.023005277 0.13631654 -0.038555399 -0.98991477 0
-0.074505627 -0.37178493 0.023986457 0.13628887 -0.038559366 -0.98991847 1.6096577e-07
-0.066294499 -0.37580609 0.025273575 0.13629134 -0.038553972 -0.98991829 3.8781448e-07
-0.054151621 -0.37623659 0.02696217 0.1362932 -0.038558207 -0.98991787 0
-0.043163322 -0.37602454 0.028466776 0.1362893 -0.03854664 -0.98991889 4.1239588e-07
-0.036963902 -0.37446091 0.029259413 0.089400873 -0.04386574 -0.99502927 0.0056778067
-0.008961048 -0.37410426 0.026651667 0.37806633 0.065997839 0.92342305 0.12988012
0.0096687321 -0.37278742 0.028402278 0.31357574 -0.024657628 -0.94924295 0.13182591
0.044497386 -0.37679145 0.028892772 -0.12475561 -0.038384527 -0.99144477 2.5801498e-07
0.055785138 -0.37322664 0.027334407 -0.12475719 -0.038379416 -0.99144477 0
0.064197004 -0.37581101 0.026375959 -0.12475497 -0.03838503 -0.99144477 0
0.072666459 -0.37737617 0.025370819 -0.12475312 -0.038384639 -0.99144506 5.3583608e-07
0.084047019 -0.37471503 0.023835756 -0.12475376 -0.038397204 -0.99144447 4.5914953e-07
0.09506651 -0.37570652 0.022487527 -0.12475514 -0.038373269 -0.99144524 4.5657774e-07
0.10578804 -0.37475252 0.021101477 -0.12475724 -0.03838551 -0.99144447 0
0.11347927 -0.3754124 0.020159211 -0.12475782 -0.038379919 -0.99144465 0
0.14831038 -0.37433517 0.025799895 -0.96400696 0.20729797 -0.16648757 0.091587894
-0.15163887 -0.36425129 0.023460094 0.9859426 0.14356551 -0.085475735 0.13261792
-0.09331616 -0.3655698 0.021154569 0.13631085 -0.038565967 -0.98991513 0
-0.084457614 -0.3624745 0.022253662 0.13631919 -0.038547959 -0.98991472 0
-0.071103252 -0.36097035 0.024033708 0.13629042 -0.038558878 -0.98991823 0
-0.066475332 -0.36464763 0.024814093 0.13629226 -0.038559336 -0.98991799 0
-0.056091439 -0.36355424 0.026201166 0.13629231 -0.038561586 -0.98991787 4.5517046e-07
-0.044350442 -0.36423594 0.027844213 0.13628379 -0.038555201 -0.9899193 0
-0.037391167 -0.36445919 0.028811058 0.098680146 -0.03770816 -0.99440449 0.004353479
-0.028979838 -0.36371636 0.029940201 -0.067317493 -0.044864368 -0.9967224 0.040516868
-0.0087039685 -0.36604986 0.024521634 -0.3949388 -0.038907364 -0.91788322 0.13894065
0.0091002053 -0.36582994 0.023556599 -0.38144583 0.068468764 0.92185199 0.15755945
0.033712897 -0.36468422 0.029781129 -0.055619631 -0.043126516 -0.99752021 0.0070992224
0.044408992 -0.36598635 0.028485617 -0.12475621 -0.038381986 -0.99144477 2.7138555e-07
0.056638174 -0.36163336 0.026778277 -0.1247561 -0.038382828 -0.99144471 0
0.06569986 -0.36559713 0.025791463 -0.12475978 -0.038378976 -0.99144441 0
0.073020704 -0.36863598 0.024987899 -0.12475573 -0.038388982 -0.99144453 0
0.08427877 -0.36472553 0.023419891 -0.12475527 -0.038375523 -0.99144506 4.0918778e-07
0.093049906 -0.36309266 0.022252982 -0.12475297 -0.038391374 -0.99144483 6.5648675e-07
0.10453016 -0.36784658 0.020992421 -0.12475172 -0.038387906 -0.99144506 3.5874243e-07
0.11269766 -0.36884964 0.020003511 -0.12475704 -0.038381767 -0.99144471 0
0.14993595 -0.36922565 0.021344015 -0.97149676 0.16067028 -0.17429581 0.088026918
0.15097496 -0.36260912 0.023670785 -0.97064728 0.1609486 -0.17871584 0.094636925
-0.15254462 -0.35520446 0.024841135 0.99444824 0.10244937 0.024018683 0.17309617
-0.09446653 -0.35809135 0.020704931 0.13631643 -0.038564779 -0.98991442 0
-0.084198266 -0.35686308 0.022070825 0.1363171 -0.03855462 -0.98991472 0
-0.077299416 -0.35483104 0.022941519 0.1363074 -0.038554493 -0.98991615 0
-0.065543696 -0.35489953 0.024562713 0.13629258 -0.038553011 -0.98991817 0
-0.046215758 -0.35261309 0.027134731 0.13628076 -0.038553901 -0.98991978 2.4693318e-07
-0.033128783 -0.35315838 0.028957782 0.013230932 -0.03611498 -0.99926001 0.020646958
-0.029109068 -0.35651159 0.029641809 -0.06244193 -0.04672743 -0.9969542 0.03856644
-0.0087177763 -0.35245565 0.024182482 0.4211399 0.094551697 0.90205383 0.1507277
0.0096354131 -0.35402787 0.027275484 -0.25910345 0.13916983 0.95577043 0.12514806
0.036126003 -0.35676384 0.029170875 -0.053269114 -0.045121174 -0.99756026 0.0078951223
0.047665931 -0.35631821 0.027701523 -0.12475594 -0.038388193 -0.99144459 1.2079917e-07
0.05317634 -0.35305098 0.026881658 -0.12475345 -0.038382705 -0.99144512 6.3517916e-07
0.064660043 -0.35766309 0.025615171 -0.1247574 -0.038380243 -0.99144471 0
0.074615024 -0.35323191 0.024190973 -0.12475667 -0.038381446 -0.99144477 0
0.085619055 -0.3542591 0.022846071 -0.12475537 -0.03837081 -0.9914453 3.7010656e-07
0.092344321 -0.35586196 0.02206186 -0.12475552 -0.038382836 -0.99144483 0
0.10791421 -0.35478544 0.020060983 -0.12475341 -0.038374383 -0.99144542 3.8037709e-07
0.15184292 -0.3544414 0.023461271 -0.98614025 0.086805314 -0.14139397 0.087358192
-0.15285872 -0.34472978 0.02311375 0.99367088 0.093077593 -0.062887542 0.14988148
-0.092479259 -0.34235361 0.020365613 0.13632423 -0.038548809 -0.98991394 0
-0.086339302 -0.34582096 0.021346003 0.13632561 -0.03857236 -0.98991287 1.5000842e-07
-0.075175121 -0.34431669 0.022824496 0.13629551 -0.038544346 -0.98991811 0
-0.064435862 -0.34251019 0.024232723 0.13629191 -0.038558446 -0.98991811 0
-0.05518182 -0.34815404 0.025726622 0.13629192 -0.038552489 -0.98991829 0
-0.043836404 -0.34431589 0.027139178 0.13628459 -0.038546927 -0.98991954 1.2641428e-07
-0.034226961 -0.3460663 0.028530378 0.075207345 -0.033145439 -0.9966169 0.0062780348
-0.027906222 -0.34477013 0.029350132 -0.084979154 -0.022276578 -0.99613363 0.041372105
-0.0089211045 -0.34574971 0.025444314 -0.43853614 0.042679675 -0.89769959 0.12633081
0.0092879198 -0.34654558 0.024165394 0.39022768 -0.045813538 -0.9195779 0.14734225
0.034371164 -0.3417353 0.028809922 -0.012242138 -0.037225056 -0.99923187 0.017695725
0.044005301 -0.34648713 0.027781582 -0.12475763 -0.038384467 -0.99144447 0
0.05457418 -0.34450254 0.026374841 -0.12475557 -0.038383186 -0.99144483 3.342621e-07
0.063826159 -0.34455279 0.025212588 -0.12475579 -0.038376361 -0.991445 2.8566373e-07
0.07564465 -0.3422409 0.023635939 -0.12475573 -0.038380291 -0.99144483 0
0.084112965 -0.34487811 0.022672437 -0.12475351 -0.038382374 -0.99144506 3.4299427e-07
0.094981112 -0.34453094 0.021291429 -0.12475449 -0.038385633 -0.99144483 2.6942413e-07
0.10074497 -0.34898889 0.020738717 -0.12475518 -0.038383689 -0.99144489 3.7818822e-07
0.15122691 -0.34896132 0.028140295 -0.98407519 0.089272328 -0.15370905 0.081530377
-0.15292051 -0.33820045 0.022644261 0.99895358 0.025592554 -0.037904326 0.13455492
-0.085495926 -0.3339608 0.021000208 0.13632743 -0.038555566 -0.98991334 0
-0.073514633 -0.33852625 0.022827599 0.13629414 -0.038553651 -0.98991793 0
-0.065485887 -0.33475336 0.023786057 0.13629079 -0.038552824 -0.98991847 2.9218259e-07
-0.057875257 -0.33391419 0.024801202 0.13629328 -0.038553167 -0.98991805 0
-0.044999558 -0.33408952 0.026580753 0.13629054 -0.038560171 -0.98991823 0
-0.039062779 -0.33410537 0.02739875 0.12238871 -0.038769174 -0.99172485 0.0008320465
-0.0253438 -0.33750668 0.029420041 -0.11093988 -0.0044708364 -0.99381709 0.041383736
-0.0093180342 -0.33420667 0.02795768 -0.32754213 0.03521366 -0.94418019 0.11889154
0.0093344105 -0.33430222 0.023973225 0.33127162 0.050008997 -0.94220918 0.16668902
0.023037231 -0.33434168 0.029949883 0.2415133 -0.046418417 -0.96928668 0.065974176
0.034042355 -0.33294466 0.028511001 -0.0020442007 -0.031105902 -0.99951398 0.020286769
0.04569684 -0.3331441 0.027052203 -0.12475647 -0.03837778 -0.99144483 0
0.053490136 -0.33454815 0.026125904 -0.12475546 -0.038375042 -0.99144518 3.5830047e-07
0.061772507 -0.33408865 0.025065925 -0.12475423 -0.038388226 -0.99144477 1.5578459e-07
0.075003147 -0.33599368 0.023474826 -0.12475667 -0.038385835 -0.99144459 0
0.085986868 -0.33618355 0.022100061 -0.12475666 -0.03838006 -0.99144477 0
0.097095132 -0.33384416 0.020611718 -0.12475332 -0.038380794 -0.99144518 6.7427101e-07
0.15121554 -0.33377647 0.028226672 -0.99330682 -0.031598162 -0.11109979 0.085127175
-0.15233028 -0.32460552 0.027127674 0.99683321 -0.045110978 -0.065487452 0.093863212
-0.083875999 -0.32288754 0.020791978 0.13635716 -0.03854654 -0.98990953 0
-0.074454427 -0.32782075 0.022281269 0.13629231 -0.038554806 -0.98991817 0
-0.064785033 -0.32335463 0.02343861 0.13629325 -0.038548101 -0.98991829 0
-0.057767607 -0.32491392 0.024465498 0.13629171 -0.038555954 -0.98991823 0
-0.044708978 -0.32758 0.026367245 0.13628802 -0.038556859 -0.98991865 2.4232062e-07
-0.036381397 -0.32789665 0.027526114 0.094044559 -0.044649158 -0.99456626 0.0062772548
-0.022513486 -0.3250519 0.029324647 -0.21266355 0.05325241 -0.97567326 0.068900026
-0.019595381 -0.32214031 0.029613016 -0.28223237 0.028547376 -0.95892125 0.083850533
-0.008404756 -0.32389203 0.02098245 -0.59305251 0.001995197 -0.80516136 0.19300716
0.0088979434 -0.32859629 0.020236373 0.41298681 0.024345353 -0.91041154 0.19633681
0.019035973 -0.32145745 0.029954609 0.25131574 0.039587129 -0.96709526 0.074720182
0.026458329 -0.3248865 0.029153377 0.11700372 0.026115905 -0.99278808 0.041839778
0.035060924 -0.32475501 0.028065801 0.021285625 -0.016936347 -0.99962997 0.025774853
0.041590571 -0.32631153 0.027304413 -0.12397304 -0.037965246 -0.99155909 3.0778806e-06
0.053357352 -0.32073531 0.025607903 -0.12475618 -0.038381211 -0.99144483 9.4917141e-08
0.064884134 -0.32176 0.024197124 -0.12475572 -0.038381398 -0.99144483 9.398353e-08
0.073545873 -0.32650879 0.023291025 -0.12475546 -0.038391195 -0.99144447 0
0.084070958 -0.32325259 0.021840574 -0.12475649 -0.03838101 -0.99144477 0
0.094935298 -0.32538989 0.020556223 -0.12475685 -0.038382489 -0.99144465 0
0.15159081 -0.32527617 0.025376162 -0.99431163 -0.080491342 -0.069753073 0.13724531
-0.15225582 -0.31604701 0.02769319 0.99787039 -0.058137137 0.029575678 0.11437712
-0.084428802 -0.31536168 0.020422766 0.13635954 -0.038545925 -0.98990929 1.9165233e-07
-0.065908946 -0.31566197 0.022984272 0.13629101 -0.038553648 -0.98991841 0
-0.054694917 -0.31393906 0.024461119 0.13628843 -0.03856013 -0.98991853 3.7399724e-07
-0.043207776 -0.31538463 0.026098965 0.13628758 -0.038553134 -0.98991889 2.6688232e-07
-0.02490285 -0.31151998 0.028467625 -0.18380153 -0.031087961 -0.98247164 0.062535107
-0.018138902 -0.31694448 0.029611185 -0.27150956 -0.022329627 -0.96217662 0.075752139
-0.0092393626 -0.31577119 0.026789436 -0.38694531 -0.055453576 -0.9204337 0.13283716
0.009370965 -0.31694639 0.023467166 -0.22000681 0.083659448 0.9719044 0.16889778
0.015971158 -0.31198928 0.029973742 0.213833 -0.029896881 -0.97641265 0.10601928
0.023669101 -0.31209382 0.029009134 0.29071587 -0.051809974 -0.95540571 0.064065441
0.043786149 -0.31530428 0.026602032 -0.12475752 -0.038382165 -0.99144459 0
0.05464907 -0.31492332 0.025220374 -0.12475482 -0.038385142 -0.99144477 0
0.0645971 -0.31778032 0.024079183 -0.12475763 -0.03838487 -0.99144453 0
0.076897956 -0.31751519 0.022521071 -0.12475526 -0.038383074 -0.99144483 9.0361844e-08
0.08614704 -0.31459969 0.021244371 -0.12475587 -0.038377505 -0.99144495 0
0.092425928 -0.31716064 0.020553419 -0.12475391 -0.038379919 -0.99144512 4.5052727e-07
0.15214929 -0.31814712 0.021134228 -0.98886335 -0.011377198 -0.1483909 0.15468629
-0.15299962 -0.30536398 0.022043426 0.99708641 0.075945988 0.0071362667 0.1522422
-0.08208625 -0.30457941 0.020325359 0.13633534 -0.038553368 -0.98991227 3.8547009e-07
-0.072181836 -0.30394733 0.021664381 0.13629122 -0.038561769 -0.98991805 0
-0.066175744 -0.30271107 0.022443151 0.13629067 -0.038555115 -0.98991829 2.5493858e-07
-0.054974645 -0.30471826 0.02406349 0.13629103 -0.038553812 -0.98991835 0
-0.023309151 -0.30316466 0.028362675 0.2988162 0.097596511 0.94930702 0.070876218
-0.016666964 -0.30641133 0.029403614 0.26837641 0.12554097 0.95509869 0.085727066
-0.0088513242 -0.30359128 0.023573628 -0.43286496 0.011412357 -0.90138644 0.15200421
0.0096861701 -0.30170399 0.025276557 0.19916412 -0.058852937 -0.97819728 0.14341307
0.025693195 -0.30365768 0.028427865 0.16666655 -0.052417029 -0.98461908 0.053949181
0.03582136 -0.30310118 0.027131869 -0.030978641 -0.053359035 -0.9980948 0.014275844
0.044969529 -0.30532721 0.026066899 -0.124757 -0.038380004 -0.99144477 9.6245067e-08
0.054821808 -0.30437818 0.024790423 -0.12475698 -0.038381595 -0.99144465 0
0.066726923 -0.30683675 0.023387546 -0.12475504 -0.038379032 -0.991445 1.2140552e-07
0.072836317 -0.30366343 0.022495944 -0.12475536 -0.038380049 -0.99144495 2.2130149e-07
0.08381933 -0.30315647 0.021094292 -0.12475515 -0.038382903 -0.99144477 2.0718522e-07
0.15146013 -0.30469993 0.0263687 -0.9993251 -0.0029443458 -0.036616553 0.12104701
-0.15244466 -0.29555228 0.026258813 0.99796236 0.0079243574 -0.063311785 0.079346023
