# .PCD v0.7 - Point Cloud Data file format
VERSION 0.7
FIELDS x y z normal_x normal_y normal_z curvature
SIZE 4 4 4 4 4 4 4
TYPE F F F F F F F
COUNT 1 1 1 1 1 1 1
WIDTH 606
HEIGHT 1
VIEWPOINT 0 0 0 1 0 0 0
POINTS 606
DATA ascii
-0.044273306 0.057060014 -0.5 -0 -0 1 0
-0.03533924 0.056520119 -0.5 0 0 1 0
-0.025432508 0.054722223 -0.5 0 0 1 0
-0.01588927 0.055181693 -0.5 0 0 1 0
-0.0033638775 0.056290343 -0.5 0 0 1 0
0.0035901342 0.054429282 -0.5 -0 -0 1 0
0.015514923 0.055134036 -0.5 0 0 1 0
0.025384737 0.056676049 -0.5 -0 -0 1 0
0.035948709 0.055206396 -0.5 0 0 1 0
0.045873336 0.055521153 -0.5 -0 -0 1 0
0.056033436 0.055207487 -0.5 0 0 1 0
0.066264018 0.054205377 -0.5 0 0 1 0
0.075880364 0.05526356 -0.5 -0.002270757 -0.0029094578 0.99999315 6.3217412e-05
0.085620672 0.054114968 -0.5 -0.059083115 -0.034146626 0.99766886 0.0048088678
0.094137914 0.056371361 -0.5 -0.19917029 -0.15925382 0.9669382 0.029360002
0.10536189 0.051714439 -0.5 -0.33469808 -0.17324688 0.92626274 0.031496357
0.11403934 0.05392722 -0.4966296 -0.59588426 -0.28860116 0.74942064 0.049569361
-0.11251733 0.062982783 -0.49198538 0.70150501 -0.39394668 0.59388268 0.038316485
-0.10730806 0.065580875 -0.4982338 0.59010345 -0.35715628 0.72402847 0.039960913
-0.093649879 0.065693662 -0.5 0.27648321 -0.16893134 0.94605458 0.03472764
-0.086274371 0.065320984 -0.5 0.19249149 -0.14895098 0.96992809 0.024680048
-0.074577361 0.066636033 -0.5 0.030258156 -0.026737025 0.99918449 0.001582625
-0.063405037 0.064695105 -0.5 -0 -0 1 0
-0.055412199 0.064146899 -0.5 0 0 1 0
-0.043909658 0.064593151 -0.5 -0 -0 1 0
-0.035056211 0.065708168 -0.5 0 0 1 0
-0.025184786 0.065922983 -0.5 -0 -0 1 0
-0.016207596 0.064648665 -0.5 0 0 1 0
-0.0071413801 0.063898183 -0.5 -0 -0 1 0
0.006877427 0.065637685 -0.5 0 0 1 0
0.015331326 0.065726563 -0.5 -0 -0 1 0
0.023658713 0.066938363 -0.5 -0 -0 1 0
0.033244852 0.067093924 -0.5 -0 -0 1 0
0.045229848 0.066185303 -0.5 -0 -0 1 0
0.053338684 0.064853884 -0.5 -0 -0 1 0
0.066507466 0.0634524 -0.5 -0.00019962263 -0.00031247342 0.99999994 3.3967357e-05
0.076824754 0.065837003 -0.5 -0.046653081 -0.030598402 0.99844241 0.0038139191
0.086218379 0.0656984 -0.5 -0.16738877 -0.13935938 0.97599179 0.019884758
0.094505571 0.067134224 -0.5 -0.31866628 -0.22369547 0.92109287 0.040021181
0.10541799 0.064387992 -0.49930817 -0.50966609 -0.31253263 0.80160081 0.03691275
0.11249315 0.063180678 -0.49240828 -0.64777917 -0.39979029 0.64849812 0.042219471
-0.10441108 0.073828317 -0.49364713 0.65752786 -0.39622676 0.64082867 0.043685369
-0.097277842 0.076129116 -0.4985128 0.48480013 -0.37275013 0.7912181 0.044363812
-0.086110488 0.077150203 -0.5 0.23877919 -0.22867087 0.94376588 0.033402607
-0.07382568 0.074425027 -0.5 0.058774859 -0.067476861 0.99598819 0.0064203427
-0.063504636 0.076020762 -0.5 0.020817263 -0.029623622 0.99934435 0.0018566642
-0.054316901 0.073134601 -0.5 0.00071713689 -0.00070953369 0.99999952 3.3711327e-05
-0.046143107 0.074040271 -0.5 0 0 1 0
-0.034541275 0.075209655 -0.5 -0 -0 1 0
-0.026056979 0.075995885 -0.5 0 0 1 0
-0.012581095 0.075817779 -0.5 0 0 1 0
-0.0067282855 0.075784862 -0.5 0 0 1 0
0.0045478242 0.07477776 -0.5 -0 -0 1 0
0.012556994 0.074515991 -0.5 -0 -0 1 0
0.026627654 0.077675506 -0.5 -0 -0 1 0
0.033474039 0.074661024 -0.5 -0 -0 1 0
0.045061033 0.073949739 -0.5 -0 -0 1 0
0.056883853 0.074047409 -0.5 -0.0011490786 -0.0016846746 0.99999791 0
0.065256126 0.075631171 -0.5 -0.029603712 -0.043853752 0.99859923 0.0035518599
0.074937597 0.077249542 -0.5 -0.15044317 -0.15141718 0.97695434 0.023920862
0.085574657 0.073261619 -0.5 -0.20874925 -0.19302848 0.95873022 0.029214494
0.095699638 0.076972544 -0.49929518 -0.458635 -0.34390667 0.81937915 0.045435369
0.1039551 0.074030295 -0.49373105 -0.53710651 -0.40718523 0.73872644 0.044127807
-0.094150126 0.08505974 -0.49537435 0.50231421 -0.4963119 0.7080642 0.044950679
-0.084674358 0.08586923 -0.5 0.37349486 -0.38354385 0.84462756 0.040137995
-0.075623445 0.084408596 -0.5 0.20504771 -0.23067518 0.95118058 0.034972157
-0.065841049 0.08420863 -0.5 0.13230783 -0.14665905 0.98029882 0.022400577
-0.055635557 0.085052751 -0.5 0.024146058 -0.049493391 0.99848253 0.0037805503
-0.045446046 0.085307159 -0.5 0.0058592372 -0.0048433389 0.99997103 0.0002462439
-0.036100361 0.086303465 -0.5 0 0 1 0
-0.025828643 0.084861726 -0.5 0 0 1 0
-0.015103695 0.085581131 -0.5 -0 -0 1 0
-0.006335998 0.084494069 -0.5 0 0 1 0
0.0040442692 0.085002989 -0.5 0 0 1 0
0.015041727 0.083961561 -0.5 0 0 1 0
0.023733811 0.084711075 -0.5 -0 -0 1 0
0.03557878 0.085257515 -0.5 -0 -0 1 0
0.043314174 0.085954428 -0.5 -0.0061211302 -0.011707576 0.99991274 0.00019890881
0.054177739 0.081717111 -0.5 -0.0045513618 -0.0077668461 0.99995947 0.0002043931
0.064927615 0.085148729 -0.5 -0.092071854 -0.1252721 0.98784089 0.014693198
0.076862551 0.087928779 -0.5 -0.25101945 -0.30408162 0.91897964 0.038825426
0.08516629 0.085611999 -0.49991915 -0.35662112 -0.37896797 0.85393476 0.044878278
0.094101422 0.086839572 -0.49455678 -0.50702542 -0.48078418 0.71538228 0.039398536
-0.090840966 0.092922993 -0.49044791 0.55887711 -0.57779318 0.59482062 0.037253164
-0.086143173 0.092923172 -0.4968248 0.42661858 -0.46081132 0.7782349 0.042537447
-0.073068783 0.094974384 -0.49978584 0.30224279 -0.38885564 0.8703106 0.045611855
-0.064694904 0.094064042 -0.5 0.15729421 -0.24798466 0.95590907 0.026693871
-0.056396309 0.091918446 -0.5 0.099485219 -0.19308577 0.9761253 0.024272731
-0.04441601 0.096374325 -0.5 0.045183554 -0.12124667 0.99159354 0.0099801142
-0.035077728 0.095383011 -0.5 0.023534942 -0.063523673 0.99770278 0.0041090157
-0.025246521 0.094724856 -0.5 0 0 1 0
-0.014967114 0.095536977 -0.5 0 0 1 0
-0.0045968965 0.094759136 -0.5 0 0 1 0
0.0044359765 0.09628211 -0.5 -0 -0 1 0
0.013727936 0.094651654 -0.5 -0 -0 1 0
0.024688745 0.093559407 -0.5 -0.0032246888 -0.003712191 0.9999879 5.1479106e-05
0.034972917 0.096214488 -0.5 -0.023071222 -0.071956329 0.99714088 0.0069027888
0.045879703 0.09530741 -0.5 -0.028456416 -0.073646553 0.99687833 0.0065921186
0.055862512 0.09564849 -0.5 -0.13557921 -0.22888832 0.96396488 0.031229729
0.063165911 0.093538888 -0.5 -0.18305109 -0.22905086 0.95604801 0.034934565
0.075852595 0.095253289 -0.49961475 -0.32193667 -0.43123868 0.84284633 0.046506286
0.086011633 0.094117872 -0.49461412 -0.47840333 -0.51032209 0.71463388 0.037329994
0.092292204 0.090372726 -0.49224007 -0.56745368 -0.55962205 0.60400289 0.037692752
-0.074739181 0.10277171 -0.4949916 0.41305175 -0.54750073 0.72775763 0.043659341
-0.0663727 0.10427525 -0.49856868 0.32495138 -0.50223988 0.80134994 0.050081383
-0.054659139 0.10425071 -0.5 0.22356597 -0.38952973 0.89346784 0.041475896
-0.047913205 0.10821681 -0.5 0.1874439 -0.43167594 0.88233817 0.039704707
-0.035274886 0.10569827 -0.5 0.08151684 -0.24804802 0.965312 0.023774544
-0.0243262 0.10541323 -0.5 0.057181198 -0.18772444 0.98055583 0.019141078
-0.015178221 0.10500292 -0.5 0.022192676 -0.16371194 0.98625851 0.016200379
-0.0039811097 0.10422932 -0.5 0.013228763 -0.095343418 0.9953565 0.0066039711
0.0041886931 0.10503997 -0.5 -0.019435626 -0.16108024 0.98674995 0.012692163
0.014322288 0.10393006 -0.5 -0.015558534 -0.13149601 0.99119467 0.011485877
0.023807289 0.10417157 -0.5 -0.022253197 -0.17315166 0.98464382 0.016183469
0.033356596 0.10657924 -0.5 -0.039431311 -0.23166396 0.97199637 0.028560659
0.045431733 0.10339816 -0.5 -0.12853476 -0.26578379 0.95542538 0.035161979
0.05176707 0.10601804 -0.5 -0.18015829 -0.37661186 0.90868396 0.040234469
0.065153293 0.10622139 -0.49843228 -0.29598784 -0.55809695 0.7751897 0.045645256
0.074662052 0.10291417 -0.49433815 -0.42183825 -0.59755445 0.68189538 0.039256845
-0.063286379 0.11195578 -0.49332207 0.38541511 -0.63895309 0.66572821 0.043850996
-0.054143406 0.11489195 -0.49563786 0.2911385 -0.631275 0.71883965 0.038010944
-0.045146447 0.11784394 -0.49607432 0.24778143 -0.61993921 0.7444998 0.035746962
-0.033432264 0.11608449 -0.5 0.11475889 -0.47841686 0.87060201 0.042804223
-0.02030145 0.11319504 -0.5 0.057898697 -0.35575601 0.93278366 0.031190202
-0.015218593 0.114902 -0.5 0.049360108 -0.41009745 0.91070503 0.037116461
-0.0040337439 0.11355269 -0.5 -0.0030798195 -0.31511936 0.94904709 0.026440406
0.0022373088 0.11542995 -0.5 -0.00094090821 -0.37040776 0.92886883 0.025105571
0.016556609 0.11367692 -0.5 -0.036981739 -0.31734121 0.94759005 0.029252907
0.025377098 0.11243702 -0.5 -0.065416358 -0.36708131 0.92788577 0.03187494
0.035432402 0.11817112 -0.49998268 -0.14244436 -0.55818915 0.81739497 0.040377304
0.044993538 0.11419145 -0.49877721 -0.20769015 -0.52694738 0.82413065 0.045184024
0.053919971 0.11436765 -0.49638242 -0.28668517 -0.64150316 0.7115373 0.033746168
0.063231587 0.1115425 -0.49385419 -0.39211848 -0.66385341 0.63682163 0.03151327
-0.041233987 0.12085512 -0.49379718 0.21494545 -0.66675168 0.71361089 0.035122253
-0.03513182 0.12282063 -0.4945147 0.16363925 -0.65696967 0.73594356 0.039296746
-0.024264779 0.12462337 -0.49561846 0.11253648 -0.69615519 0.70901597 0.030866947
-0.015480136 0.12536009 -0.49613705 0.076244764 -0.65454334 0.75217003 0.035439171
-0.0040559834 0.12588467 -0.49677637 0.057764761 -0.62672436 0.77709711 0.034363385
0.0046304888 0.12713155 -0.49473995 -0.018609507 -0.66788471 0.74403214 0.031381201
0.014643833 0.12500434 -0.49737442 -0.070766971 -0.65277678 0.75423765 0.038515553
0.025556603 0.12529668 -0.49345979 -0.14575273 -0.75903833 0.63452107 0.041612066
0.034300931 0.12334865 -0.49439839 -0.19415468 -0.67204541 0.71460402 0.036120858
0.041984648 0.12224609 -0.49090058 -0.24391818 -0.71354389 0.65677929 0.0380865
-0.024639271 -0.130505 -0.48164621 0.16927162 0.93419611 0.31404582 0.019378047
-0.015911624 -0.13028359 -0.48528299 0.080169812 0.87923843 0.46958768 0.025787465
-0.0040976987 -0.13201743 -0.48514748 0.025726262 0.8900727 0.4550921 0.030061457
0.0037473515 -0.13234057 -0.48347542 -0.02643751 0.94133323 0.33644155 0.018433832
0.0145606 -0.1312376 -0.48327154 -0.10318547 0.92584074 0.36355412 0.01886796
0.022276005 -0.13082285 -0.48225334 -0.15942831 0.92687857 0.33982158 0.018431854
-0.052201252 -0.12128289 -0.48328748 0.36278135 0.86080056 0.35694826 0.024274763
-0.045201149 -0.12417503 -0.483684 0.31041354 0.86648417 0.39095858 0.024780795
-0.035180125 -0.12755269 -0.48441124 0.24977362 0.86469179 0.43579945 0.037469361
-0.024946498 -0.12857829 -0.4860279 0.16994418 0.85632443 0.48767549 0.032312714
-0.014289197 -0.12871379 -0.48952264 0.086644106 0.80462903 0.58742225 0.039576486
0.0079266615 -0.12950122 -0.48905355 -0.040069379 0.81568414 0.57710814 0.039124791
0.017320767 -0.12815787 -0.48977923 -0.088243507 0.80087 0.59230095 0.039880775
0.025180275 -0.12910156 -0.48553935 -0.18182488 0.85040444 0.49371254 0.028075797
0.034318548 -0.12839937 -0.48313665 -0.23989697 0.87301481 0.42461097 0.030468939
0.045065288 -0.12351396 -0.48467457 -0.29229584 0.84033763 0.45650387 0.020283045
0.052714918 -0.12128426 -0.48302707 -0.3769486 0.86718315 0.32542765 0.016757425
-0.072350167 -0.11184395 -0.48215061 0.4862051 0.80275095 0.34524706 0.023950888
-0.063987657 -0.11484625 -0.48592114 0.45074949 0.78231764 0.42988852 0.026449533
-0.056490235 -0.11770087 -0.48695275 0.37189886 0.78676581 0.49263659 0.035418846
0.055721838 -0.11814552 -0.48735121 -0.35076264 0.76850265 0.53513473 0.036792692
0.06458851 -0.11475489 -0.48600018 -0.43283105 0.77445704 0.46138233 0.024982687
0.071064442 -0.11131939 -0.48386881 -0.48228851 0.78269768 0.39342359 0.022118341
-0.081915155 -0.10425594 -0.48200247 0.57599854 0.74428278 0.33803678 0.023084451
-0.077373363 -0.10624973 -0.48503399 0.49830467 0.69889581 0.51306635 0.032548796
0.069833457 -0.1093455 -0.48933956 -0.45489475 0.705172 0.54387802 0.032246165
0.076796398 -0.10601374 -0.48595676 -0.49535868 0.71104634 0.49903196 0.035425864
0.082663693 -0.10274173 -0.48398942 -0.59551388 0.72601843 0.34389007 0.020710649
-0.094037816 -0.093228988 -0.4840965 0.63888294 0.63102925 0.44003478 0.030079365
-0.087063201 -0.098427713 -0.48513225 0.53807974 0.60806775 0.58371544 0.032875285
0.087277576 -0.098701119 -0.48523253 -0.62117308 0.67614299 0.39620027 0.024041522
0.093798697 -0.094398141 -0.48258525 -0.65895152 0.67001647 0.34184909 0.020054087
-0.10396186 -0.080703832 -0.4844048 0.71862197 0.54177088 0.43596643 0.035350654
-0.097955517 -0.087262556 -0.48667112 0.63928843 0.55615544 0.53103799 0.035499774
0.097407535 -0.087772816 -0.48596263 -0.64343977 0.60460514 0.46950805 0.028876672
0.102718 -0.082180955 -0.48444024 -0.70535988 0.53819537 0.46131688 0.027424455
-0.11164546 -0.07082615 -0.48358142 0.78929543 0.49541283 0.36273798 0.022496615
-0.1065982 -0.076116689 -0.48579416 0.70183712 0.51218122 0.49507079 0.032900508
0.10758245 -0.075386748 -0.48551244 -0.70650262 0.4938584 0.50691015 0.032401178
0.11042592 -0.074662179 -0.48134911 -0.79834181 0.52465397 0.29561555 0.015645562
-0.11511666 -0.065566145 -0.48378339 0.79605901 0.45138589 0.40316349 0.028740281
-0.10924893 -0.069504097 -0.48998281 0.69333893 0.43510303 0.57442719 0.040678214
0.11370442 -0.066481918 -0.4858436 -0.76830113 0.43931302 0.4655292 0.024773249
-0.12119871 -0.053651005 -0.48241386 0.86453938 0.39509723 0.31059593 0.016391659
-0.11870021 -0.053679395 -0.48788038 0.7648465 0.35435444 0.53799886 0.04388921
0.11912932 -0.057117876 -0.48327294 -0.83805245 0.40655947 0.36383718 0.025458001
0.12072023 -0.053972185 -0.48282218 -0.85219008 0.36712378 0.37281674 0.0233548
-0.12369356 -0.044677783 -0.48461154 0.84983897 0.31242055 0.42446116 0.025735762
-0.11978127 -0.048909001 -0.48958772 0.74074465 0.28633463 0.60770869 0.047876544
0.12196367 -0.045797579 -0.48789287 -0.78896743 0.27970085 0.54708129 0.03477744
-0.12770763 -0.034209333 -0.48471507 0.85158682 0.23292571 0.4696227 0.033442486
0.1278358 -0.034915928 -0.48393664 -0.86559927 0.24406698 0.43722904 0.033120986
-0.13038933 -0.024382627 -0.48272622 0.89736128 0.17448519 0.40533653 0.031464778
-0.12862033 -0.024525257 -0.48683652 0.83059454 0.1464251 0.53728241 0.034341499
0.12798405 -0.025268922 -0.48729786 -0.81113702 0.16704224 0.56049412 0.041171212
0.1306468 -0.023478579 -0.48173064 -0.93021798 0.15186182 0.33411446 0.021463944
-0.13160142 -0.014801805 -0.48235637 0.93220788 0.10162279 0.34736323 0.023154207
-0.12918408 -0.014970257 -0.48797989 0.80319935 0.12124754 0.58324069 0.038429126
0.12900828 -0.01447316 -0.48877037 -0.79532504 0.070897609 0.60202301 0.043547522
0.13173112 -0.015687801 -0.48198852 -0.9354043 0.11245055 0.33522195 0.018173207
-0.13172983 -0.005388381 -0.48448384 0.91824538 0.032220058 0.39469892 0.024200641
-0.12978946 -0.0051620039 -0.4890911 0.7934283 0.019376477 0.60835522 0.038353302
0.13193937 -0.0052346359 -0.48524076 -0.92868572 0.029885978 0.36966157 0.018439129
-0.13173407 0.0052994504 -0.4855186 0.91272634 -0.062112235 0.40382257 0.022907879
0.12954266 0.0082628038 -0.48886964 -0.82263196 -0.033337709 0.56759608 0.038692292
0.13168313 0.0064620581 -0.48431632 -0.93003124 -0.025193861 0.36661592 0.021187896
-0.13048247 0.012239335 -0.4861325 0.86969268 -0.077695101 0.48744032 0.029300278
-0.12903777 0.013547788 -0.48903248 0.81131583 -0.088483162 0.57787311 0.037579861
0.12861951 0.018863779 -0.48829898 -0.80082244 -0.12530234 0.58564728 0.044346977
0.13127659 0.015517465 -0.48293325 -0.9353016 -0.094656385 0.34095615 0.025102742
-0.1305168 0.022148252 -0.48250937 0.93760252 -0.16511163 0.30600601 0.011161515
-0.1293429 0.024432728 -0.48442912 0.90757579 -0.18379541 0.37752539 0.021404758
0.12818858 0.022625122 -0.48833889 -0.8032738 -0.16028878 0.57363647 0.039490938
0.13102508 0.02590288 -0.48084366 -0.93953949 -0.17858382 0.29218698 0.019611316
-0.12710349 0.036730811 -0.48478964 0.85343832 -0.24595584 0.45950925 0.03172167
0.12721919 0.038991325 -0.48173076 -0.87974781 -0.30070513 0.36826658 0.026823459
0.13035232 0.031916551 -0.48053649 -0.92400354 -0.23425765 0.30222642 0.017724413
-0.12367425 0.045616973 -0.48437074 0.86107677 -0.31504273 0.39911765 0.024866646
0.12290341 0.045254771 -0.48585421 -0.83323538 -0.31288183 0.45587698 0.021885484
-0.12053512 0.052274682 -0.48483244 0.81015098 -0.35445604 0.46692213 0.029654987
-0.11913987 0.055612981 -0.48467791 0.82107943 -0.37804663 0.42767897 0.033119395
0.11867289 0.056754205 -0.48530859 -0.80262953 -0.39973104 0.44272 0.023806592
0.12311909 0.05076766 -0.48066151 -0.87410218 -0.36935335 0.31547335 0.017204145
-0.11564903 0.065096937 -0.48321763 0.80629426 -0.4604955 0.37125945 0.029309163
0.11410765 0.065280743 -0.48635665 -0.77693206 -0.43442225 0.45569056 0.025128672
-0.11231661 0.071312726 -0.48281139 0.79187518 -0.49900728 0.3520304 0.027181061
-0.10777718 0.075328365 -0.48524025 0.72388196 -0.50993574 0.46471536 0.031684011
0.10686611 0.076277614 -0.48506019 -0.73904985 -0.47938702 0.47327945 0.028862325
0.11126308 0.072328851 -0.48221129 -0.79366821 -0.48354104 0.36915961 0.023067117
-0.10340408 0.082508571 -0.48269448 0.7226662 -0.56871825 0.39282703 0.026405694
-0.098299891 0.086315557 -0.4864704 0.66199541 -0.57564974 0.47998905 0.027196731
0.097412497 0.088322759 -0.48622391 -0.64754254 -0.59775203 0.4726322 0.033736303
0.10200015 0.084776081 -0.48245135 -0.72952718 -0.603001 0.32276902 0.021551413
-0.093575627 0.094225995 -0.48319748 0.65209407 -0.6710946 0.35271138 0.017903879
-0.087535977 0.09814173 -0.48593548 0.56264228 -0.66851825 0.48633021 0.031009033
0.087423824 0.09843681 -0.48458347 -0.59587854 -0.67079771 0.44154191 0.032905154
0.093964018 0.092700034 -0.48513877 -0.64856148 -0.62663388 0.43208566 0.031403832
-0.083601356 0.10115659 -0.48569459 0.56266218 -0.66811311 0.4868637 0.031246312
-0.074838132 0.108136 -0.48465475 0.49821976 -0.72000474 0.48308414 0.038023084
0.075532064 0.10791597 -0.48468435 -0.51141399 -0.72825336 0.45618293 0.029852854
0.081988573 0.10418675 -0.48202148 -0.56796306 -0.74628305 0.34710178 0.018611278
-0.070974313 0.1108844 -0.48482159 0.47662264 -0.77589637 0.41329861 0.024770245
-0.065440394 0.11354772 -0.48711306 0.47229478 -0.75601828 0.45318216 0.028179884
-0.055355322 0.11822202 -0.48749679 0.39590624 -0.75080192 0.5287292 0.038053177
0.05682113 0.11865547 -0.48457757 -0.40518433 -0.8021614 0.43859187 0.023271309
0.065908402 0.11439804 -0.48495126 -0.44130433 -0.75398231 0.48658112 0.026184957
-0.044030394 0.12367183 -0.48521346 0.29556227 -0.85866815 0.41872644 0.021854334
-0.035620954 0.12748946 -0.48402157 0.22617464 -0.86855441 0.44097412 0.03572851
-0.024936058 0.12857388 -0.48683941 0.15694599 -0.81927168 0.55150878 0.046005938
-0.016273947 0.12902083 -0.48802632 0.096305422 -0.81696904 0.56858307 0.035706814
-0.0045514833 0.12955804 -0.48979104 0.027494507 -0.77240449 0.63453543 0.043584947
0.0086757792 0.12952627 -0.48963571 -0.058822796 -0.81610858 0.57489705 0.037824292
0.015866026 0.12912375 -0.4880031 -0.06782984 -0.78615367 0.61429745 0.045501068
0.026148964 0.12873602 -0.48523027 -0.21769708 -0.84739918 0.48427534 0.039156038
0.034848839 0.12767096 -0.48440394 -0.224149 -0.89007401 0.39689475 0.026406104
0.044840802 0.12404142 -0.48431432 -0.31480044 -0.8532148 0.41584271 0.029379433
0.053961229 0.12149671 -0.48115605 -0.39390767 -0.87116337 0.29310617 0.018855197
-0.031105328 0.13014387 -0.48156738 0.21485467 -0.92900711 0.30130264 0.021033069
-0.0251616 0.13120179 -0.48062062 0.16989641 -0.93413681 0.31388465 0.021249115
-0.01525632 0.1314116 -0.48268414 0.097354494 -0.91612196 0.38889927 0.025191037
-0.0055660559 0.13181509 -0.48423812 0.047737949 -0.91213226 0.40710679 0.024438808
0.005114506 0.13160832 -0.48586071 -0.02127713 -0.89669174 0.44214377 0.024243416
0.014344152 0.13070786 -0.48485437 -0.062396083 -0.88114285 0.46871522 0.023245502
0.022519592 0.13085045 -0.48159879 -0.17472252 -0.93809479 0.29908237 0.019570807
-0.033849236 -0.13091271 -0.47379059 0.25735012 0.95375025 0.15534301 0.0054578865
-0.024192102 -0.13222679 -0.47413358 0.16857794 0.97043341 0.17274411 0.0059110271
-0.01506564 -0.13365895 -0.47494671 0.10590976 0.97741681 0.18286474 0.005144279
-0.0046422444 -0.13502732 -0.47571915 0.031192243 0.98268527 0.18263777 0.0052215387
0.0060468712 -0.13468774 -0.47455248 -0.033139866 0.98249793 0.18330182 0.0059599159
0.012364444 -0.13400078 -0.4743332 -0.085106559 0.9792465 0.18393818 0.0053213481
0.025116168 -0.13248514 -0.47350106 -0.19056413 0.96811157 0.16262005 0.0059229303
0.033244092 -0.13130651 -0.47396949 -0.23948851 0.9572745 0.16208252 0.0054312125
-0.060977813 -0.12017161 -0.47040656 0.45193726 0.88186449 0.13441651 0.0050676302
-0.054571912 -0.1228241 -0.47430581 0.39899111 0.90263945 0.1613943 0.005261525
-0.043322306 -0.12783046 -0.47534621 0.31298184 0.9251163 0.21494696 0.008094117
-0.039335597 -0.12963715 -0.47410741 0.28597873 0.93736756 0.19889267 0.0085582398
0.038124491 -0.12911621 -0.4749015 -0.2808612 0.93920463 0.19751361 0.0091012949
0.045243248 -0.12665208 -0.47501463 -0.33114669 0.9231723 0.19517857 0.0098228697
0.055551667 -0.12268264 -0.47537312 -0.41165295 0.89217347 0.1859259 0.006089468
0.061057597 -0.1206135 -0.47349072 -0.44806534 0.87892425 0.16349204 0.0057562832
-0.073279388 -0.11362991 -0.47431383 0.53069681 0.83247495 0.15920551 0.0058195256
-0.062975921 -0.11929366 -0.4739514 0.46619293 0.86744499 0.17379132 0.0055273413
0.065770581 -0.11797477 -0.47617644 -0.47057897 0.84753287 0.24544567 0.010817691
0.072509401 -0.11336416 -0.47660357 -0.53578734 0.81694978 0.2133656 0.0081060976
-0.085523948 -0.10367463 -0.47585505 0.61658299 0.75649422 0.21804145 0.0077520935
-0.078956865 -0.10901526 -0.47537664 0.56452799 0.8029182 0.19139083 0.0081715239
0.079033107 -0.10889341 -0.47016889 -0.58896512 0.79811627 0.12700573 0.0040421137
0.084671825 -0.10467151 -0.4737606 -0.62219381 0.76420552 0.16989669 0.0065433225
0.090843044 -0.10022455 -0.47212538 -0.65424001 0.74432099 0.13400106 0.004712461
-0.096040659 -0.095181465 -0.47579661 0.69621897 0.67885131 0.23332404 0.0086608594
0.095166489 -0.09561792 -0.47664908 -0.692608 0.68569297 0.22387347 0.0062175482
-0.10379003 -0.085625328 -0.47531819 0.7558201 0.61821586 0.21574363 0.0075200489
0.1042205 -0.085062839 -0.47440273 -0.75744265 0.62683851 0.18263105 0.0056223841
-0.11227135 -0.074431233 -0.47371227 0.82136607 0.54248363 0.17626484 0.0053513087
-0.10902998 -0.078847066 -0.47430256 0.80008739 0.56920063 0.18939579 0.0080290157
0.10933374 -0.078728244 -0.47455436 -0.80045575 0.57060945 0.18350856 0.0063672224
0.11176179 -0.075699724 -0.47369802 -0.82013917 0.55080944 0.15485743 0.0054811239
-0.12027923 -0.061915878 -0.47169232 0.88058215 0.44888848 0.15190144 0.0055694203
-0.11799911 -0.066285618 -0.4748868 0.85667533 0.47860047 0.19248092 0.0063412711
0.11778717 -0.0661387 -0.47492993 -0.8569746 0.48654708 0.16990153 0.0060416344
0.12042171 -0.060408603 -0.4733547 -0.88037771 0.44317684 0.16890633 0.0061566848
-0.12309214 -0.054330271 -0.47458923 0.89856267 0.40907276 0.1588852 0.004725581
0.12294368 -0.054075897 -0.474967 -0.89776039 0.40132859 0.18155345 0.0057682986
-0.12610376 -0.046432823 -0.47659662 0.91430026 0.33724391 0.22432455 0.0077457558
0.1273841 -0.044064511 -0.4746879 -0.92122561 0.3224439 0.21765405 0.0080715446
-0.13064131 -0.03531085 -0.47395653 0.94881147 0.27091786 0.16235851 0.0059335637
-0.12892176 -0.03833124 -0.47661904 0.93080711 0.29504544 0.21574578 0.0087382486
0.12964928 -0.035881739 -0.47962111 -0.92465228 0.25679222 0.28120449 0.01444453
0.130761 -0.03436261 -0.47388944 -0.95153576 0.25732854 0.16840924 0.0083344756
-0.13260747 -0.023678971 -0.47626397 0.95950115 0.1786688 0.21779591 0.012321927
0.13182512 -0.02575497 -0.47614169 -0.96043164 0.19540167 0.1984669 0.009043863
-0.13375285 -0.01318532 -0.47624043 0.9767502 0.089311928 0.19489101 0.0055161007
0.13341677 -0.016783839 -0.47498986 -0.98318315 0.10188931 0.1515567 0.0055608028
-0.13466848 -0.0045943549 -0.4759858 0.97862422 0.022546101 0.20441683 0.0059953644
0.13487943 -0.0061697508 -0.4761928 -0.97582489 0.039201383 0.21500918 0.0062044491
-0.13523065 0.004909113 -0.47465357 0.98249215 -0.03428179 0.18312265 0.0060108542
0.13467894 0.0050363154 -0.4760792 -0.98328066 -0.038496606 0.1779809 0.0050238757
-0.13361964 0.015823735 -0.47417641 0.9802624 -0.1044607 0.16784976 0.0055965171
0.13361974 0.01478729 -0.47443494 -0.98161787 -0.10883862 0.15678151 0.005927044
-0.13217202 0.024906447 -0.47388211 0.96786672 -0.18523902 0.17006031 0.00591269
0.13267498 0.023755543 -0.47505173 -0.96864313 -0.18583953 0.1649064 0.0062334705
-0.13087876 0.033883665 -0.47465935 0.94657063 -0.24726212 0.20703958 0.0078719566
-0.12974882 0.03805925 -0.47488219 0.94126499 -0.26790795 0.20553707 0.007994636
0.1292593 0.038859218 -0.47206113 -0.94411021 -0.29286548 0.15128034 0.0066283308
0.13090529 0.034544952 -0.47466764 -0.95130241 -0.24588777 0.18591113 0.0068303198
-0.12674274 0.044862438 -0.47778314 0.9192552 -0.32545871 0.22146451 0.0082526365
0.12715907 0.044251621 -0.47306275 -0.93113571 -0.32665557 0.16211869 0.0069146897
-0.12232754 0.055802792 -0.47487378 0.89122891 -0.42285785 0.16401926 0.0061918944
0.1230798 0.054685988 -0.47413686 -0.89964682 -0.40567428 0.16144311 0.0056397184
-0.12027787 0.060735974 -0.47646326 0.87016225 -0.44603592 0.20945069 0.0093400218
-0.11868352 0.064261593 -0.47445631 0.86730486 -0.47552428 0.14716963 0.0051190867
0.11713322 0.067171969 -0.47469449 -0.85529488 -0.48719046 0.17639768 0.0062591503
0.12075344 0.060698304 -0.47003883 -0.88819677 -0.44391266 0.11852475 0.0043074219
-0.11336994 0.073482119 -0.47480568 0.82130927 -0.54392523 0.17203602 0.0064827064
-0.10973471 0.078228116 -0.4745785 0.80724227 -0.56177127 0.1810329 0.0058184392
0.1090979 0.078043312 -0.47652766 -0.79257405 -0.56336141 0.2333459 0.012573346
0.11304308 0.073344409 -0.47433981 -0.83180076 -0.5296433 0.16608867 0.0061836867
-0.10279461 0.086101785 -0.47623125 0.7406131 -0.63312709 0.22503838 0.0076166093
0.10556943 0.083084792 -0.47580767 -0.76791716 -0.61443359 0.18103737 0.005838451
-0.094935656 0.096411712 -0.47367015 0.69955683 -0.70232153 0.13177489 0.0044990196
0.089350119 0.099418141 -0.47993597 -0.63804054 -0.71969849 0.27374879 0.013908936
0.095801406 0.095320396 -0.47461057 -0.69811028 -0.68975669 0.19203584 0.0073700645
0.10072179 0.090165615 -0.47465456 -0.73912036 -0.65306771 0.16493547 0.0065857326
-0.09006948 0.10079236 -0.4753094 0.66477895 -0.72389472 0.18451387 0.0082481196
-0.085697383 0.10386434 -0.47586086 0.62002969 -0.75360781 0.21826228 0.0086394325
-0.07814274 0.10913592 -0.47456551 0.57456535 -0.79495972 0.19471431 0.0086548384
0.078514285 0.10907511 -0.47537589 -0.56762201 -0.79805702 0.20226313 0.0071121925
0.085386701 0.10394115 -0.4744055 -0.62983549 -0.75785595 0.17018116 0.0065704584
-0.073758803 0.11257709 -0.47578621 0.54978496 -0.80752736 0.21362609 0.0090924036
-0.066182636 0.11794174 -0.47481963 0.48054129 -0.85695297 0.18631101 0.006726854
0.065161139 0.1181248 -0.47562811 -0.47932968 -0.85827821 0.18330748 0.0067758053
0.074389413 0.11277208 -0.47538313 -0.54502052 -0.81623101 0.19162345 0.0081562949
-0.061347906 0.12031364 -0.47671813 0.43571007 -0.86246914 0.25749493 0.013129076
-0.054909036 0.12269732 -0.47661543 0.39299348 -0.88591117 0.24640924 0.01318436
-0.046303317 0.12609947 -0.47754058 0.34425434 -0.90734363 0.24128093 0.010683966
-0.038499516 0.1289306 -0.47683492 0.29106271 -0.93416828 0.20642699 0.0081260158
0.034368567 0.12979552 -0.47982126 -0.25479826 -0.93026572 0.26397648 0.012491697
0.046156235 0.12634319 -0.47573853 -0.32741478 -0.92412734 0.19694731 0.0075930273
0.055864722 0.12226341 -0.47485697 -0.41221246 -0.89088601 0.19079593 0.0070419009
0.060729101 0.12028089 -0.477063 -0.44397572 -0.86566567 0.23131903 0.011351001
-0.030766524 0.13197573 -0.47204039 0.21750815 -0.96589863 0.14046372 0.0059928969
-0.023659689 0.13254908 -0.47635233 0.15903893 -0.96964437 0.18573216 0.0067212824
-0.014919936 0.13354255 -0.47650203 0.10720935 -0.96809328 0.22649866 0.013769411
-0.0050918176 0.13463123 -0.47568563 0.033832487 -0.9799372 0.19641422 0.0045776414
0.0067183995 0.13486566 -0.47411478 -0.045553189 -0.98229039 0.18174312 0.0053293048
0.015467595 0.13366644 -0.47534448 -0.11302684 -0.97796285 0.17553793 0.0052821459
0.024592083 0.1323507 -0.47277501 -0.18217672 -0.97321343 0.14023991 0.0046503693
0.032014657 0.13082261 -0.47655013 -0.23711792 -0.9525519 0.19084017 0.0059398124
-0.031379767 -0.1313096 -0.46180359 0.23188274 0.97159463 0.047269158 0.0030974976
-0.024331557 -0.13239066 -0.46601126 0.15920274 0.98403913 0.07950756 0.0030840449
-0.015235101 -0.1337859 -0.46454573 0.11794649 0.9905892 0.069437556 0.0022973723
-0.0047419732 -0.13536915 -0.46499497 0.034043144 0.99637699 0.077935167 0.0041131075
0.0060540796 -0.1346952 -0.46672314 -0.052750692 0.99386287 0.097231708 0.0036944926
0.017193543 -0.13346936 -0.46470964 -0.12896371 0.98927039 0.068647355 0.0026929539
0.0250278 -0.13260724 -0.46587026 -0.17130506 0.98140007 0.086652175 0.0040738937
0.035357237 -0.13062322 -0.46500149 -0.26887056 0.96108353 0.06345924 0.0031358399
-0.055663753 -0.12250655 -0.46442696 0.42137912 0.9051308 0.05637363 0.0022044147
-0.04363 -0.12779404 -0.4660331 0.31746325 0.94464284 0.082867585 0.004369759
-0.03933895 -0.12967949 -0.46551368 0.30132991 0.95102078 0.068990618 0.0035704048
0.044192877 -0.12718195 -0.46619332 -0.32407448 0.94226843 0.084296785 0.003279041
0.055615488 -0.12273309 -0.4649156 -0.41779941 0.90539396 0.075533859 0.0035966593
0.060802545 -0.12071285 -0.46706855 -0.44824275 0.88954586 0.088241994 0.0041410634
-0.072110057 -0.11463974 -0.46395946 0.52206743 0.85065299 0.061926972 0.0033029662
-0.066237614 -0.11786052 -0.46303409 0.48686811 0.87180418 0.054009356 0.002724448
0.066840887 -0.11767905 -0.46414509 -0.50380766 0.86033565 0.077462517 0.0041531846
0.072761819 -0.11349674 -0.46523842 -0.54586202 0.83257633 0.094080962 0.0037194677
-0.084237941 -0.10491645 -0.46663788 0.61964059 0.78060615 0.081850655 0.0038036131
-0.079001322 -0.1091148 -0.46829391 0.56960785 0.81535059 0.10368383 0.0041168309
0.077542916 -0.10998727 -0.46833935 -0.57113534 0.81436193 0.10304902 0.0035462414
0.086215891 -0.10362101 -0.46480227 -0.64364725 0.76131791 0.078187071 0.0032359087
0.090741448 -0.10029912 -0.46312642 -0.65714377 0.75064135 0.068553925 0.0032072496
-0.095221318 -0.095826842 -0.46688291 0.70644057 0.70127046 0.095715702 0.003361654
0.096407562 -0.094813861 -0.46565595 -0.71772504 0.69129837 0.083530195 0.0037931411
0.10029183 -0.090006262 -0.46867293 -0.74122059 0.66318673 0.10380423 0.0042039119
-0.10301261 -0.087044746 -0.46163961 0.76332033 0.64376831 0.053892359 0.0022826879
0.10423108 -0.085092835 -0.46470553 -0.76709139 0.63814664 0.065876037 0.002585487
-0.11289601 -0.07358022 -0.46553445 0.82392269 0.56064737 0.0826189 0.0034664373
-0.10956389 -0.078119688 -0.46531987 0.81299865 0.57660621 0.080983765 0.0030935272
0.112729 -0.074493304 -0.46551064 -0.83063674 0.54990327 0.087458052 0.0037973064
-0.12022992 -0.062042475 -0.46059972 0.8928076 0.44758475 0.050620295 0.0029935394
-0.11796669 -0.066426314 -0.46482402 0.86604404 0.49232233 0.08710058 0.0042008176
0.11782596 -0.066316292 -0.46508434 -0.86467552 0.49739814 0.070223935 0.0030138686
-0.12220111 -0.056981366 -0.46685228 0.89969695 0.42316204 0.10714195 0.0043385439
0.12315066 -0.054197825 -0.46538815 -0.9040615 0.41838568 0.087328799 0.002456689
-0.12686923 -0.044995766 -0.46238342 0.9403438 0.33253703 0.071920753 0.0031597426
0.12627855 -0.047079053 -0.46593031 -0.93390083 0.34874201 0.078791782 0.0036160587
-0.1310361 -0.034072794 -0.4656058 0.96159989 0.25798211 0.093653321 0.0045393053
-0.12978584 -0.037507296 -0.46488306 0.95573109 0.28072101 0.088168994 0.0041094571
0.12984227 -0.038968422 -0.4664405 -0.94978189 0.29693335 0.098716654 0.0046004658
0.13069029 -0.035357315 -0.46519271 -0.95724607 0.2791228 0.075964138 0.0047873016
-0.13251506 -0.025865406 -0.46592826 0.97975719 0.18139006 0.084696539 0.0038743783
0.13224718 -0.025267102 -0.46530363 -0.98489529 0.16149916 0.062444456 0.0028600001
-0.13344032 -0.017457442 -0.46551031 0.98784399 0.13920422 0.069183677 0.002818872
0.13372298 -0.015645215 -0.46593931 -0.99123055 0.11068065 0.072192386 0.0026915702
-0.1349701 -0.0035561945 -0.46406999 0.99708515 0.02967993 0.070287228 0.0032444133
0.13515629 -0.0056884033 -0.4647336 -0.9968214 0.024207979 0.075901784 0.003393803
-0.13524823 0.0052862782 -0.46396384 0.9958896 -0.046511032 0.077722013 0.0034067861
0.13490142 0.0041802716 -0.46254984 -0.99783111 -0.03157464 0.057759166 0.0023589979
-0.13378552 0.015237527 -0.46556658 0.98932958 -0.12017794 0.082366407 0.0026436276
0.13367151 0.015356593 -0.46414852 -0.99039519 -0.11883763 0.070675209 0.0026917402
-0.13238297 0.024381824 -0.46485922 0.9852255 -0.15625985 0.070097178 0.0026261786
0.13280967 0.023188323 -0.46212497 -0.98626179 -0.15818737 0.047587156 0.0025162073
-0.13105416 0.033045206 -0.46308303 0.96902609 -0.24389414 0.038782261 0.0027282715
-0.12942596 0.039915968 -0.46445805 0.95004863 -0.30611691 0.060827162 0.0027529653
0.12919572 0.039022453 -0.46305442 -0.95315951 -0.30018476 0.037093692 0.0023283917
0.13184039 0.031519644 -0.46535325 -0.97256744 -0.22308487 0.065922543 0.0037053504
-0.12739158 0.044545963 -0.46514478 0.94013983 -0.33559701 0.059259709 0.0028264285
0.12712261 0.044345271 -0.46631894 -0.94231147 -0.32877785 0.062883586 0.0031022909
-0.12293386 0.054691233 -0.46442237 0.90557152 -0.42032892 0.057130203 0.002229475
0.12314323 0.054562449 -0.46366164 -0.90728158 -0.41766232 0.048972823 0.0022179622
-0.12002721 0.061306469 -0.46390051 0.8809275 -0.46854255 0.066593342 0.0030038687
-0.11755703 0.066928305 -0.46577016 0.86878914 -0.48866004 0.080104485 0.0033312587
0.11859676 0.065428235 -0.46404174 -0.87853813 -0.47357598 0.062421899 0.0030673803
0.12053421 0.061261188 -0.46727532 -0.88716668 -0.45347953 0.085391581 0.0031881605
-0.11285858 0.074331693 -0.46535859 0.83525813 -0.5433023 0.084655322 0.0041850344
-0.10859343 0.079651631 -0.46619034 0.80150574 -0.59336799 0.074181966 0.0029452057
0.10946789 0.078250483 -0.46304488 -0.81302691 -0.58044982 0.045446347 0.0020867807
0.11261777 0.073959284 -0.46379068 -0.83199209 -0.55264831 0.048672192 0.0023749948
-0.10459948 0.084633306 -0.46445131 0.77944642 -0.62444997 0.050253563 0.0025243014
0.10374037 0.086053297 -0.46580589 -0.76384425 -0.64097619 0.075442098 0.0028791707
-0.10017093 0.090157062 -0.46895811 0.73825932 -0.66460818 0.11519184 0.0041918955
-0.095535725 0.09576381 -0.46562937 0.70767486 -0.70365268 0.063790508 0.0030566878
0.093940288 0.09702383 -0.46484414 -0.69478935 -0.71589088 0.069050752 0.0027962711
-0.090725526 0.1003108 -0.4651199 0.67281705 -0.73642337 0.070695318 0.0036992705
-0.084325023 0.10500897 -0.46679837 0.6148476 -0.78299111 0.094272472 0.0038642026
-0.078594416 0.10921544 -0.46360645 0.58248562 -0.81084341 0.056951504 0.0026643542
0.078400239 0.10959671 -0.46568424 -0.56739581 -0.82010722 0.07406842 0.0037734169
0.086097702 0.10342544 -0.46442989 -0.64508373 -0.76251209 0.049420513 0.0020446351
0.090244174 0.10010109 -0.46185851 -0.68062788 -0.73116547 0.046290703 0.0022981656
-0.07422477 0.1124229 -0.46608299 0.55559564 -0.82712662 0.084705189 0.0035036372
-0.066665798 0.11788875 -0.46609661 0.50001669 -0.86298573 0.072379597 0.0038495793
0.06624569 0.11785698 -0.46529704 -0.48884857 -0.86898273 0.076786518 0.0034869642
0.074933492 0.11237611 -0.46509716 -0.55662715 -0.82833892 0.063410439 0.0025416813
-0.061512291 0.12043642 -0.46418241 0.45197621 -0.8900286 0.059720315 0.0033406473
-0.054692671 0.12309251 -0.463236 0.40930948 -0.9102968 0.06184997 0.0025755193
-0.046334881 0.12634769 -0.46455899 0.34214702 -0.93802905 0.055108648 0.0020035112
-0.03859219 0.12936333 -0.46389771 0.27708164 -0.95985144 0.043714348 0.0027464076
0.044409372 0.12745157 -0.462208 -0.31670293 -0.94660169 0.060369447 0.0027127175
0.055386055 0.12262857 -0.46284264 -0.41901478 -0.90698558 0.042471051 0.0015646843
-0.034400579 0.13099584 -0.46178791 0.2624909 -0.96362907 0.050175622 0.0028889054
-0.02484291 0.13262761 -0.46439239 0.17676099 -0.98230135 0.061964229 0.0031234098
-0.01390422 0.13383134 -0.4654516 0.10014397 -0.99227697 0.073195681 0.0027709603
-0.0039898888 0.13492237 -0.46613076 0.022875136 -0.99539614 0.093076691 0.0031738337
0.004037207 0.13536006 -0.46576726 -0.015334493 -0.99629843 0.084583156 0.0033860782
0.015823415 0.13369566 -0.46511051 -0.11763423 -0.99015146 0.0759091 0.0027535032
0.022805888 0.13262467 -0.46467057 -0.16220039 -0.98336679 0.081735961 0.0033465161
0.035403956 0.13069117 -0.4617677 -0.26987058 -0.96181452 0.045636252 0.0026117738
-0.035214122 -0.13072149 -0.45487604 0.26710686 0.96345794 0.020066086 0.0025918179
-0.024274539 -0.13239941 -0.45396084 0.17127047 0.98518181 0.0091224285 0.00096888735
-0.015979052 -0.13367178 -0.45531464 0.12147639 0.99255633 0.0086782696 0.00082339946
-0.0023454013 -0.13551356 -0.45846185 0.023591217 0.99948275 0.02185392 0.0024832257
0.003134873 -0.13501646 -0.45486724 -0.0084063867 0.99986464 0.014142538 0.0023101401
0.014475068 -0.13376851 -0.45587587 -0.12051529 0.99244446 0.023020964 0.0010556858
0.023258222 -0.13280196 -0.45454577 -0.15740526 0.9874506 0.012838625 0.0014535725
0.03333468 -0.13131346 -0.45450711 -0.25152722 0.96763283 0.02051048 0.0020228713
-0.060153898 -0.12053363 -0.45906636 0.45102406 0.89161575 0.039983302 0.0022350561
-0.05305681 -0.12365201 -0.45415124 0.40972012 0.91212809 0.012322663 0.0010775808
-0.04582468 -0.12682973 -0.45500061 0.34788465 0.93716097 0.026563806 0.0019350901
-0.039271243 -0.12970924 -0.45377898 0.29598761 0.95516807 0.0067290692 0.0027383515
0.037379488 -0.12983561 -0.45304418 -0.29293662 0.95610875 0.006646595 0.0018768091
0.045512516 -0.12666798 -0.4545207 -0.33788288 0.94112617 0.010802675 0.0010530247
0.054799255 -0.123051 -0.45567137 -0.41466749 0.90975773 0.019792633 0.0017119121
0.061498981 -0.12044159 -0.45464674 -0.46033308 0.88766086 0.012317238 0.0024077399
-0.073727094 -0.11334331 -0.45467559 0.54909474 0.83567798 0.01172058 0.0021172184
-0.065038033 -0.1183876 -0.45398179 0.48073176 0.87683237 0.0078717312 0.001865237
0.065187931 -0.11874119 -0.45465085 -0.47370553 0.88068336 -0.00014374939 0.002569454
0.074152432 -0.11247599 -0.45525813 -0.55491608 0.83185351 0.0093738213 0.0013226465
-0.083748452 -0.10530891 -0.45238817 0.62578815 0.77992159 0.010559824 0.001542207
-0.079029791 -0.10909198 -0.45356643 0.56670874 0.82381755 0.012878127 0.0018252888
0.078018814 -0.10963794 -0.45385602 -0.57838035 0.81576198 0.0029292197 0.0014772024
0.085517526 -0.10413366 -0.45418331 -0.63550758 0.77193576 0.015662136 0.0018952172
0.090822726 -0.10023946 -0.45549342 -0.6722821 0.74004585 0.019207411 0.0023337044
-0.09643738 -0.094943926 -0.45526928 0.71505803 0.69892311 0.014092287 0.0022887967
0.096948296 -0.094136849 -0.45601422 -0.71287924 0.70122123 0.0095901005 0.0021997956
0.10014984 -0.090183355 -0.45400453 -0.73626441 0.67668205 0.0040109213 0.0014131659
-0.10396197 -0.085751414 -0.45571554 0.76616061 0.6423766 0.018716926 0.002369697
0.1039563 -0.085435539 -0.45404404 -0.77593178 0.63078439 0.0064017153 0.0014240125
-0.11301677 -0.073415697 -0.45454526 0.83561611 0.54920965 0.010699855 0.0014143593
-0.10900526 -0.078880735 -0.45399091 0.8200537 0.57228529 -0.0011870607 0.0012815536
0.10949939 -0.078521624 -0.45370701 -0.81317014 0.58200759 0.0046336064 0.0017933447
0.11302521 -0.074117824 -0.45239729 -0.83100694 0.55620182 0.0081909513 0.0014604094
-0.12099766 -0.06007126 -0.45629054 0.90343457 0.42802873 0.024442017 0.001908252
-0.11784856 -0.066590354 -0.4557122 0.87414122 0.48520416 0.021311792 0.0029202239
0.11857372 -0.064614452 -0.45461002 -0.87613511 0.48179734 0.016081475 0.0019657253
0.12023731 -0.060828276 -0.45449784 -0.89252013 0.45051366 0.021102378 0.0015128332
-0.12307696 -0.054732598 -0.45554218 0.90858883 0.41733429 0.017275374 0.0015923057
0.12275305 -0.055102717 -0.4540762 -0.90649486 0.42195946 0.014741401 0.0011787344
-0.12751967 -0.043325778 -0.45471343 0.9495126 0.3135559 0.01041752 0.0017758511
0.12754747 -0.044191163 -0.4541387 -0.94011909 0.34071156 0.0095772818 0.0014766888
-0.13161002 -0.032547638 -0.45605105 0.96973515 0.24317513 0.021899063 0.0026981931
-0.12917247 -0.039082132 -0.45466653 0.95270747 0.30363095 0.012515677 0.0017868436
0.12979725 -0.039070893 -0.45330828 -0.95480317 0.29700807 0.011714588 0.0025018305
0.13068816 -0.035337005 -0.4553633 -0.9672575 0.25292507 0.021019919 0.0025509889
-0.13273257 -0.023888715 -0.45297694 0.98595625 0.16671261 0.0098548504 0.0014825437
0.13212532 -0.026061479 -0.45563427 -0.98289347 0.18308498 0.020007748 0.0010979899
-0.13373566 -0.014773656 -0.45392993 0.99137825 0.13076009 0.0084232017 0.0011622391
0.13387598 -0.014647799 -0.45500019 -0.99444294 0.1041121 0.015618167 0.0013441881
-0.13489777 -0.0042132493 -0.45528936 0.99927801 0.033485238 0.017947881 0.0021094356
0.13522571 -0.0058479239 -0.45608658 -0.9987281 0.047462884 0.017013205 0.0023113224
-0.1351496 0.0051515508 -0.45580071 0.99907368 -0.041633755 0.010880478 0.0024710887
0.13489641 0.0042256815 -0.4550384 -0.99890512 -0.043140527 0.018093714 0.0014514349
-0.13370773 0.015744803 -0.45593423 0.99229586 -0.12278414 0.016522037 0.00096730032
0.13380334 0.01415872 -0.45366761 -0.99325639 -0.11519144 0.013139115 0.0012492383
-0.13223293 0.025359929 -0.45560536 0.98223275 -0.1871307 0.014174983 0.0022142453
0.13258888 0.025194624 -0.4553684 -0.98363137 -0.1797269 0.012943648 0.0014211736
-0.13101962 0.033270415 -0.45248079 0.97092921 -0.23935212 0.0026824716 0.0019932939
0.12929437 0.038769174 -0.45552668 -0.95358032 -0.30078584 0.014577049 0.0020509227
0.13071533 0.034844421 -0.45479566 -0.96481186 -0.26285008 0.0069312882 0.0023875199
-0.12700804 0.0454189 -0.45528182 0.93990231 -0.3411918 0.0131085 0.0013306179
0.12709434 0.044417854 -0.45597968 -0.94203895 -0.33530176 0.011631375 0.00094677944
-0.1233722 0.053693626 -0.45355576 0.91811955 -0.39629751 0.0021665767 0.001770699
0.12258966 0.055983771 -0.45371562 -0.90674585 -0.42149475 0.012413632 0.0017076042
-0.12007892 0.06118878 -0.45537356 0.88412374 -0.46667966 0.023135148 0.0018756487
-0.1189786 0.06369298 -0.45463091 0.87580132 -0.48259073 0.0088499831 0.0017922196
0.11837804 0.065621816 -0.45233065 -0.87719548 -0.48008689 0.0066809841 0.002471647
0.12012206 0.062319417 -0.45386556 -0.89020896 -0.45536172 0.013179428 0.0024594953
-0.11305439 0.074087463 -0.4553811 0.83082128 -0.55635512 0.014318858 0.0019083675
-0.10914252 0.078966744 -0.4572781 0.81153721 -0.58400559 0.018571131 0.002274279
0.10960779 0.078059882 -0.45813522 -0.81253809 -0.58226538 0.027363578 0.0016224015
0.11228732 0.074409455 -0.45319965 -0.8270486 -0.56204766 0.0096481442 0.0011402279
-0.10449903 0.084758595 -0.45621666 0.78349775 -0.62122142 0.014674496 0.0017339579
0.1038905 0.085848778 -0.45569387 -0.77265835 -0.63468564 0.013160413 0.0018103285
-0.094746858 0.09651114 -0.45419925 0.69885409 -0.71513408 0.013650225 0.0023450172
0.096453562 0.09493582 -0.4557122 -0.71360129 -0.70029151 0.019105427 0.0022464667
0.10045443 0.090529859 -0.45784721 -0.74183404 -0.66996521 0.028790724 0.0020501362
-0.090349779 0.10058662 -0.45489675 0.67179239 -0.74064422 0.01188417 0.0025105651
-0.085282974 0.10430582 -0.4553647 0.63738012 -0.77054477 0.0027066527 0.0021761507
-0.079346754 0.10866319 -0.45188645 0.58331281 -0.81224132 0.0031846191 0.00069231668
0.079025798 0.10909519 -0.45662937 -0.57929403 -0.81489664 0.01902483 0.0020218452
0.08569023 0.10375211 -0.45576274 -0.64313114 -0.76557064 0.016849972 0.0015838025
-0.074326709 0.11234806 -0.45595089 0.56002671 -0.8282308 0.02009343 0.001625804
-0.066208847 0.11818328 -0.4546974 0.50230193 -0.8646546 0.0080736885 0.0022553853
0.066589311 0.11770598 -0.45429844 -0.48563054 -0.87413728 0.0068564191 0.0018814845
0.073659293 0.11337889 -0.45460364 -0.55413818 -0.8323949 0.0070471023 0.0017332108
-0.061720949 0.12035514 -0.45510247 0.45955855 -0.88804644 0.013395574 0.0023222829
-0.05469761 0.12309059 -0.45320749 0.42058149 -0.9072504 0.0028297228 0.0017539862
-0.04429948 0.12714043 -0.45490673 0.34099883 -0.94000268 0.010710924 0.00079529843
-0.038394134 0.12944044 -0.45306146 0.28461736 -0.95861542 0.0070314696 0.0019900033
0.039662559 0.12953728 -0.45242769 -0.30191505 -0.95317632 0.017382471 0.0021263529
0.045496222 0.12697403 -0.45470956 -0.33137956 -0.94327039 0.020701082 0.0018155682
0.05601063 0.12235413 -0.45472112 -0.43137521 -0.90214831 0.0066192178 0.0011078946
0.06019152 0.1205171 -0.45297033 -0.43556306 -0.90011483 0.0088341795 0.001137291
-0.031792499 0.13176587 -0.45562387 0.22493784 -0.9742232 0.017092422 0.0022997218
-0.023312015 0.13279605 -0.45554087 0.16046868 -0.98694056 0.014071641 0.0014451162
-0.013447227 0.13388163 -0.45497224 0.11707394 -0.99304521 0.012446519 0.00084665132
-0.0032009657 0.13500918 -0.45528215 0.020533914 -0.99969047 0.014042661 0.0020984588
0.0070741796 0.1350075 -0.45494023 -0.072273165 -0.99738163 0.0025449516 0.0017492662
0.017321797 0.13346583 -0.4542537 -0.15093292 -0.98848957 0.010374335 0.0013181276
0.025758514 0.13217179 -0.45492807 -0.17835838 -0.98388243 0.012795767 0.0009375831
0.034771699 0.13077401 -0.45471302 -0.25843981 -0.96579689 0.021097962 0.0021973865
-0.035487309 -0.13067958 -0.44535443 0.27792811 0.96058142 -0.0062628058 0.0025522502
-0.025106203 -0.13227187 -0.44448948 0.18291111 0.98312819 0.0015963042 0.00075426477
-0.016181149 -0.13364078 -0.4450545 0.1290296 0.99163747 -0.0025770839 0.00048359754
-0.0045350976 -0.13528796 -0.44492286 0.01927527 0.99979556 0.0061046109 0.0023256056
0.0048954706 -0.1348227 -0.44379956 -0.046053987 0.99892402 0.0054646842 0.0015402494
0.014404769 -0.13377625 -0.44249344 -0.1208538 0.9926672 0.0024831682 0.00048265513
0.024231248 -0.1326949 -0.4426876 -0.16748455 0.98587424 0.00095633115 0.0017844101
0.033877987 -0.13119499 -0.44528317 -0.25415668 0.96716201 -0.0014420537 0.0024614376
-0.054640245 -0.12295627 -0.44503513 0.41755813 0.90863854 0.0046109306 0.0010345483
-0.045926567 -0.12678497 -0.4448278 0.34959954 0.93688124 -0.0058024111 0.0016178987
0.039925348 -0.12884407 -0.44766274 -0.30084032 0.95367354 0.0013319614 0.0020034411
0.045407638 -0.12670882 -0.44545206 -0.33967119 0.94053668 0.0037798553 0.00073592825
0.055787053 -0.12266627 -0.44497246 -0.4250921 0.90513927 -0.0044269813 0.0019062727
0.061183684 -0.1205644 -0.44534487 -0.45041314 0.89279568 -0.0066309655 0.0023683116
-0.073334232 -0.11365826 -0.44643295 0.53437316 0.84523624 -0.0045862324 0.0014816575
-0.065929748 -0.11799578 -0.443903 0.49587378 0.86839396 -0.0011221485 0.0015678615
0.066783302 -0.11781941 -0.44421634 -0.49249476 0.87031537 -0.00023187618 0.0025603089
0.074298747 -0.11236858 -0.44410557 -0.55750185 0.83017558 0.00048350921 0.0011707131
-0.084273905 -0.1048876 -0.44493675 0.62937045 0.77709055 0.0048088902 0.0017632124
-0.07936126 -0.10882623 -0.44637129 0.58169407 0.81338924 -0.005470166 0.0018650584
0.078999192 -0.10891831 -0.4433966 -0.57781923 0.81615782 -0.0033822462 0.0010169307
0.083022609 -0.105965 -0.44612017 -0.60920751 0.79299682 -0.0047231107 0.0012525923
0.090556353 -0.10043498 -0.44700634 -0.67325062 0.73941356 -0.0010915586 0.0022949197
-0.1000171 -0.091125645 -0.44150642 0.73140949 0.68193853 0.00022858025 0.0021239545
-0.095097244 -0.096095115 -0.44534847 0.69100559 0.72275311 0.011796466 0.0020843095
0.096674025 -0.094448492 -0.44473514 -0.71152055 0.7024833 -0.015993483 0.0022949877
-0.10446991 -0.085059434 -0.44370541 0.77771038 0.62861717 0.0026361572 0.0018561821
0.10284721 -0.086818919 -0.44363725 -0.76368797 0.6455853 -0.00057400012 0.0016481276
-0.11187088 -0.074976787 -0.44653821 0.82573992 0.56405085 0.00040831801 0.0010282538
0.10914632 -0.078962013 -0.44373083 -0.81771219 0.57558715 0.0067957267 0.0018679041
0.1140426 -0.072854869 -0.44176811 -0.83730805 0.54671454 0.004290645 0.0016139206
-0.12087864 -0.060376868 -0.44701254 0.89288872 0.4502593 -0.0040457281 0.0024194764
-0.11780924 -0.066677153 -0.44488624 0.8765561 0.48129767 0.0014114262 0.0025065748
