# .PCD v0.7 - Point Cloud Data file format
VERSION 0.7
FIELDS x y z normal_x normal_y normal_z curvature
SIZE 4 4 4 4 4 4 4
TYPE F F F F F F F
COUNT 1 1 1 1 1 1 1
WIDTH 559
HEIGHT 1
VIEWPOINT 0 0 0 1 0 0 0
POINTS 559
DATA ascii
0.097016409 -0.065539308 -0.35564053 -0.8270191 0.56217355 0.00062751921 0.0019758302
0.10024725 -0.061328791 -0.35467556 -0.84677988 0.531941 -0.0016043874 0.0030568084
-0.10246228 -0.058019806 -0.35630742 0.8680554 0.49624726 -0.014778839 0.002805742
0.103568 -0.055339437 -0.35348177 -0.87846005 0.47781458 0.0011091492 0.0024199779
-0.10855916 -0.043300722 -0.35345754 0.92962849 0.36845741 0.0054822117 0.001990861
0.10938822 -0.041299336 -0.35446271 -0.93139309 0.36400434 0.0027758942 0.0021513856
-0.11222088 -0.034460634 -0.35549238 0.95725214 0.28917179 -0.0069269598 0.0025510727
0.11226037 -0.034335021 -0.35556307 -0.95740891 0.28873366 -0.0009291165 0.0024972444
-0.11443993 -0.02608829 -0.35543966 0.97632641 0.21618812 -0.0070385877 0.0015347485
0.11458768 -0.024966296 -0.35481295 -0.97920233 0.20257688 -0.011199018 0.0018062257
-0.11592963 -0.014772966 -0.35459852 0.99148732 0.13016039 0.00334495 0.0023095049
0.11580338 -0.015732048 -0.353398 -0.98956567 0.14401941 -0.0042703082 0.0014418256
-0.11719962 -0.0051264944 -0.35505605 0.99853116 0.053604592 0.0078724027 0.0021375343
0.11708444 -0.0060014306 -0.35580945 -0.99840367 0.056477666 0.00069006346 0.0020093783
-0.11731241 0.0042696362 -0.35629141 0.99903417 -0.042468093 -0.011277958 0.0023666725
0.11748879 0.0029299264 -0.35509387 -0.99994099 -0.010691412 0.0019097693 0.0023722549
-0.11591147 0.014910919 -0.35526031 0.9925285 -0.12181527 -0.0069484231 0.0018098071
0.11576845 0.015997333 -0.35371253 -0.98932993 -0.1456911 -0.00064144499 0.0016036369
-0.11451309 0.025532631 -0.35404012 0.97788024 -0.20913276 0.0037010924 0.0018739053
0.11466439 0.02438366 -0.35435399 -0.97860318 -0.20574795 0.0019134686 0.0019202289
-0.11265194 0.033419967 -0.35633612 0.95952344 -0.28153574 0.0072344304 0.0020957531
0.11220744 0.034461521 -0.3548539 -0.95236033 -0.30497476 0.00039101727 0.0020228226
-0.1079615 0.044743575 -0.35562786 0.91931289 -0.39351273 -0.0033884821 0.0013805896
0.10785653 0.044997163 -0.35479242 -0.92171019 -0.38786379 0.0034791222 0.0014558429
-0.10360737 0.055230912 -0.35475835 0.87272453 -0.48817992 0.0056739803 0.0025161328
0.10323557 0.055983406 -0.35593477 -0.8721025 -0.4893142 -0.0029708263 0.0023064511
-0.10061394 0.06085078 -0.35376167 0.85484415 -0.51887655 0.0029450362 0.0023370809
-0.096347123 0.066411436 -0.35490155 0.81793004 -0.57530266 -0.0041484185 0.0019694683
0.096248686 0.066539824 -0.3544099 -0.82480729 -0.56541252 -0.0012919565 0.0022713267
0.10059984 0.060869299 -0.35327441 -0.85612702 -0.51675242 0.0036759824 0.0024230713
-0.090975679 0.073411681 -0.35682118 0.76881856 -0.63946337 -0.0021376153 0.0017257486
-0.088758357 0.076301366 -0.35150328 0.76456362 -0.64454746 -0.0009952921 0.0016704304
0.088109694 0.077146746 -0.35445157 -0.75632322 -0.65419394 0.0023310333 0.0021890723
0.091271557 0.073026143 -0.35676467 -0.76736397 -0.64121056 0.00121844 0.0019933139
-0.083597481 0.082804747 -0.35500932 0.70751739 -0.70666337 0.0067825089 0.0021410545
-0.079064213 0.086638361 -0.35285279 0.6704089 -0.74198467 0.0032940884 0.002214652
0.077350602 0.087953269 -0.35690707 -0.67022943 -0.7421484 -0.0028687827 0.0025063555
0.083020367 0.083219983 -0.35474768 -0.7022022 -0.71197569 -0.0016149866 0.0023150013
-0.072132111 0.091957562 -0.35534829 0.63823724 -0.7697854 -0.0091526899 0.0014384396
-0.065463319 0.097074695 -0.3560251 0.55781847 -0.82995009 -0.0046296585 0.0017278503
0.065106846 0.097348236 -0.35559309 -0.55639201 -0.83091992 0.00018797394 0.0017175454
0.073075354 0.091233775 -0.35569018 -0.6403271 -0.76810175 0.0009271804 0.0017848359
-0.061247557 0.10030956 -0.35107014 0.527215 -0.84968811 -0.0086238477 0.0025868493
-0.056039218 0.1032288 -0.35437492 0.49220303 -0.87047863 0.001795024 0.0025454706
-0.04402208 0.10826041 -0.35510224 0.38953122 -0.9209975 0.0053828452 0.0012355506
0.044875298 0.107907 -0.35533705 -0.38884598 -0.92129338 0.0041584172 0.0013809071
0.054241948 0.10402718 -0.35418701 -0.48326278 -0.87545508 0.0059661628 0.0022857126
0.060998604 0.10050059 -0.35667178 -0.52537221 -0.85086042 0.0045463294 0.0022525592
-0.033714067 0.11252718 -0.35467684 0.27892023 -0.96028072 0.0080249198 0.0022146597
-0.024440913 0.11465682 -0.35460693 0.20620933 -0.97848135 0.0072049689 0.0019348334
-0.014138181 0.11601318 -0.35405779 0.10340288 -0.99459213 -0.0097072916 0.0022210556
-0.0061333245 0.11706704 -0.3559449 0.052649703 -0.99861276 -0.00072605588 0.0018536628
0.0041945791 0.11732227 -0.35574019 -0.0187183 -0.99982399 -0.0012726169 0.0022922112
0.015310243 0.11585888 -0.35260862 -0.10921274 -0.99401557 0.0023269767 0.0013371574
0.025237387 0.11455197 -0.35625842 -0.22095978 -0.97527915 0.0027026827 0.0018544783
0.035085849 0.11196194 -0.35612634 -0.30471957 -0.95242292 -0.0060450756 0.0021859761
-0.03595328 -0.11160263 -0.3447713 0.31785619 0.94813877 -0.00051060063 0.0018736498
-0.026011053 -0.11445011 -0.34434584 0.22730853 0.97381037 0.004916159 0.0017583448
-0.015898634 -0.11578143 -0.34648272 0.13110974 0.99135882 -0.0042397669 0.0010354767
-0.0039425837 -0.11735544 -0.34490934 0.026645442 0.9996261 0.00613828 0.0020254087
0.0052725947 -0.11718035 -0.34365681 -0.033997267 0.99942189 0.00022152159 0.0017826535
0.014872094 -0.11591657 -0.34519827 -0.13007516 0.99150372 -0.00087380671 0.00087001215
0.025468268 -0.11452159 -0.34560183 -0.20634399 0.97847921 0.00076763571 0.0022534153
0.035795726 -0.11166791 -0.34571609 -0.31968465 0.94749129 0.0078783296 0.0020716055
-0.060718585 -0.10071546 -0.34871975 0.52694464 0.84989417 -0.0030277865 0.0026497268
-0.056974344 -0.10281276 -0.3440285 0.49494633 0.86889154 0.0074526323 0.0024545521
-0.046771523 -0.10712156 -0.34541389 0.40001559 0.916502 -0.0033814965 0.0016251458
0.0455378 -0.10763258 -0.34672737 -0.3921183 0.91991484 -0.00016467556 0.0012108497
0.05530287 -0.10355567 -0.34656662 -0.49049544 0.87143129 0.0046717343 0.0022806863
-0.073316202 -0.091048963 -0.3457087 0.64299023 0.76586628 -0.0035140102 0.0017235996
-0.06704291 -0.095862627 -0.34474126 0.58601707 0.81029814 0.00098413031 0.0021857279
0.065906532 -0.096734598 -0.34632134 -0.56979334 0.82176304 0.0064163534 0.0020740987
0.072131179 -0.091958269 -0.34633517 -0.6285435 0.77777344 0.0012510669 0.0014082239
-0.083491847 -0.082682543 -0.34394801 0.71286833 0.70128864 0.0036010747 0.0024280681
-0.076844886 -0.088341311 -0.34387311 0.66103083 0.75033581 -0.0058634505 0.0020022108
0.078400187 -0.087147892 -0.34347209 -0.67777127 0.73527282 -0.00011950203 0.0022623669
0.082692832 -0.083596803 -0.34545964 -0.704992 0.70921504 0.00066595222 0.0026758928
-0.091116205 -0.073228538 -0.34457162 0.76090026 0.64886808 0.00099004211 0.0013568727
-0.088164575 -0.077075198 -0.34425035 0.74634302 0.66556144 -9.5471558e-05 0.002156772
0.086050779 -0.079829991 -0.34721842 -0.73415899 0.67897755 0.00026998937 0.0021458841
0.091642156 -0.072543174 -0.34745473 -0.76512033 0.6438725 0.0043631303 0.0018654285
-0.10088613 -0.060496062 -0.34562483 0.85525423 0.51813823 -0.0085455896 0.0029255303
-0.097012162 -0.065544739 -0.34683654 0.83022225 0.55743212 0.00068350916 0.0020997415
0.096269362 -0.066512868 -0.34505367 -0.82231659 0.56902987 -0.00065465504 0.0024142491
0.10075442 -0.060667831 -0.34600955 -0.85614228 0.51653826 -0.014443496 0.0028149819
-0.10291889 -0.056716938 -0.34623101 0.87140566 0.49055737 -0.0023759082 0.0029803338
0.10354495 -0.055406235 -0.34481817 -0.87590158 0.48248953 0.00049777888 0.002439606
-0.10791465 -0.044856694 -0.34369212 0.92080587 0.39000738 0.0032745854 0.0014073952
0.10813233 -0.044331357 -0.34519103 -0.92574859 0.37804982 0.008237428 0.0019834882
-0.11195495 -0.035102632 -0.34296432 0.9500007 0.31209582 0.0097386017 0.0018991109
0.11253591 -0.033700168 -0.343622 -0.95662975 0.2913065 -3.7704416e-05 0.0027090795
-0.11482004 -0.023201106 -0.34490588 0.98380738 0.17906478 0.0076629124 0.001981084
0.11463472 -0.024608929 -0.34442532 -0.97949445 0.20133378 -0.0074363542 0.0017005561
-0.11590996 -0.014922354 -0.3441278 0.99284136 0.11941783 0.0023401501 0.0015388699
0.11576841 -0.015997767 -0.34640291 -0.98980916 0.14239989 -0.00036983943 0.0027294445
-0.11728241 -0.004497556 -0.34621531 0.99940169 0.034554034 -0.0014883786 0.0017914873
0.11745966 -0.0031512291 -0.34601089 -0.99990433 0.013358681 -0.0035861491 0.0021745795
-0.11726187 0.0046535693 -0.34468657 0.99973071 -0.022605179 -0.0052558631 0.0023675407
0.11717436 0.0053182468 -0.3452872 -0.9986127 -0.05265101 0.00079824304 0.001800184
-0.11605342 0.013832705 -0.34444541 0.99301565 -0.1178775 -0.0049936371 0.0020611023
0.11606854 0.01371793 -0.34617534 -0.99598026 -0.089252472 -0.0075739678 0.0016544497
-0.11446923 0.025865708 -0.34552467 0.974747 -0.2232939 -0.0028492631 0.0019539315
0.1143572 0.026716925 -0.34680101 -0.97141027 -0.23737752 -0.0037446099 0.0021771034
-0.11201881 0.034948461 -0.34307605 0.94980955 -0.31277561 -0.0057696649 0.0022491573
-0.10995582 0.039928898 -0.34804928 0.94088763 -0.33856562 -0.010186225 0.0020013759
0.11286216 0.03291253 -0.3452512 -0.95927161 -0.28230819 -0.010005481 0.0022168728
-0.10796146 0.044743679 -0.34550896 0.92116714 -0.38916668 0.00061309704 0.0012667266
0.10873778 0.04286965 -0.34549919 -0.9257285 -0.3781887 0.00026527621 0.0022413034
-0.10401627 0.054268152 -0.34454969 0.87619448 -0.48194149 -0.00396648 0.0026880673
0.10418155 0.053869344 -0.34552661 -0.88175851 -0.47168982 -0.003270105 0.0027714479
-0.10037125 0.061167069 -0.34012851 0.85061258 -0.52577174 0.0047208262 0.002564854
-0.096186891 0.066620268 -0.3434557 0.81244159 -0.58304071 0.0014829203 0.0022329986
0.096653692 0.066011995 -0.34527314 -0.82521892 -0.56469333 -0.011625133 0.002024817
-0.091755018 0.072396033 -0.34419748 0.77038372 -0.63757914 0.0012860319 0.0016142779
-0.087599203 0.077812016 -0.34655589 0.75433153 -0.65649104 -0.001846778 0.0022621297
0.087596446 0.07781563 -0.34388697 -0.75305003 -0.65796262 0.00085496012 0.0023578841
0.091614738 0.0725789 -0.34451294 -0.77179366 -0.63587296 -0.00031795489 0.0019931006
-0.082769699 0.083651938 -0.34419689 0.70187789 -0.71229661 0.00095789274 0.0025265024
-0.077871941 0.087553233 -0.34532642 0.66657341 -0.74543828 -0.0012989973 0.0024786068
0.077225409 0.088049322 -0.34339663 -0.65616876 -0.75456625 0.0085074911 0.0023995086
0.082589045 0.083742939 -0.34389356 -0.69331503 -0.72063082 -0.0023610743 0.0021026805
-0.071981452 0.092073157 -0.34512883 0.62876898 -0.77758986 0.0018897908 0.0024053147
-0.066276558 0.096450679 -0.3447592 0.57169628 -0.82046235 0.0022306133 0.0021032526
0.066185012 0.096520923 -0.34728971 -0.56694722 -0.82375401 -0.00034318917 0.0019872431
0.07263007 0.091575459 -0.34476027 -0.63816321 -0.76989967 0.0014838835 0.0018201094
-0.060343847 0.10100301 -0.34442383 0.5175249 -0.855667 0.0014186415 0.0025692913
-0.056738865 0.1028696 -0.34543875 0.49776065 -0.86731333 -0.0013802807 0.002771612
-0.04671488 0.107145 -0.34645846 0.40024823 -0.91640604 -0.0011668226 0.0022034082
0.044347636 0.10812557 -0.34340271 -0.39026344 -0.92069995 0.0024291875 0.001339009
0.053299457 0.10441758 -0.34531164 -0.47220737 -0.88145763 0.0072491691 0.0022268365
0.061226219 0.10032593 -0.34062383 -0.53304803 -0.846071 0.0048576961 0.002157842
-0.037066348 0.11114157 -0.34366068 0.31562462 -0.94887877 0.0031956411 0.0020159259
-0.025499092 0.11451752 -0.34412852 0.21899681 -0.97571039 0.0054509663 0.0015315787
-0.014563764 0.11595716 -0.34557694 0.11759376 -0.9930526 -0.0042665284 0.0016728346
-0.0035458796 0.11740767 -0.34361634 0.017635832 -0.99983138 0.0051112929 0.0021654652
0.0052617313 0.11718178 -0.34398916 -0.037443299 -0.99929869 -0.000175643 0.0023269467
0.013608056 0.11608299 -0.34532449 -0.095768772 -0.99534857 0.010466121 0.001843948
0.024120541 0.11469901 -0.34571448 -0.20516264 -0.97871989 -0.0039560744 0.0021719469
0.032902189 0.11286646 -0.34436351 -0.2672604 -0.96361583 0.0040541948 0.0023508093
-0.036133565 -0.11152794 -0.33534423 0.32716766 0.94496602 -0.00074593275 0.0016611338
-0.023908585 -0.1147269 -0.33638498 0.21772911 0.97600108 0.0039932234 0.0014560972
-0.017908651 -0.11551681 -0.33548376 0.16542818 0.98619002 -0.0079210876 0.002047776
-0.0038742325 -0.11736444 -0.33547992 0.026540341 0.9996379 -0.0044451654 0.0019598582
0.0060166083 -0.11708239 -0.33564931 -0.050245836 0.99869382 -0.0092698513 0.0020034164
0.016297406 -0.11572894 -0.33487922 -0.15671863 0.98763418 -0.0042419187 0.0018073897
0.02545101 -0.11452386 -0.33627161 -0.21320377 0.97700739 -0.0008415762 0.0021380119
0.034052718 -0.11238989 -0.33537701 -0.28984314 0.95706737 0.0036001774 0.0025154471
-0.060060121 -0.10122072 -0.33421627 0.51658076 0.85621411 0.0064603346 0.0024065883
-0.05471101 -0.10380576 -0.33590934 0.49069443 0.87132174 -0.0041589942 0.0026549755
-0.046119295 -0.10739172 -0.33439291 0.38364267 0.92348152 0.00049329677 0.0022351665
0.045017205 -0.10784822 -0.33510414 -0.3778576 0.92586243 0.0015571559 0.00193047
0.054477859 -0.10390676 -0.33440104 -0.48189497 0.87620533 -0.0064442628 0.0021977033
0.061061218 -0.10045254 -0.33502102 -0.52285606 0.85233223 0.012293768 0.0026232135
-0.072482571 -0.091688648 -0.33336425 0.64080477 0.76770329 -0.00092893059 0.0017140552
-0.066964373 -0.095922895 -0.33535099 0.58059573 0.81419188 0.00035321791 0.0024499136
0.064849712 -0.097545527 -0.33517751 -0.55288231 0.83323425 0.0064706276 0.0016893044
0.071989715 -0.092066824 -0.33681223 -0.63733828 0.77057052 -0.0045874543 0.0016529679
-0.082546033 -0.083694585 -0.33788285 0.69961959 0.71450788 -0.0033168539 0.002353458
-0.077411219 -0.087906748 -0.33541343 0.65790427 0.75310141 -0.00049967231 0.0021669297
0.07564237 -0.089264035 -0.33405891 -0.64304227 0.76583022 0.00084099482 0.0017995271
0.084312044 -0.081901677 -0.33587301 -0.71717465 0.69689023 -0.0021180916 0.0023145995
-0.091544271 -0.072670683 -0.33548078 0.76740253 0.64111888 -0.0077419486 0.0015134776
-0.088104062 -0.077154078 -0.3363111 0.74411553 0.66801733 -0.0066988519 0.0022232821
0.088286266 -0.07691665 -0.33407316 -0.76110637 0.64860177 0.0057310713 0.0016857286
0.092231795 -0.071774736 -0.33472639 -0.77891839 0.62711585 0.0034320885 0.0014186212
-0.10098187 -0.06037128 -0.33856469 0.85171354 0.52398247 -0.0051357336 0.0028746857
-0.09574914 -0.067190766 -0.33678541 0.80791068 0.58925813 -0.0074306466 0.0025691239
0.09720064 -0.065299205 -0.33627287 -0.8300581 0.55764222 -0.0062289038 0.0025159691
0.10074273 -0.060683072 -0.33401093 -0.85576636 0.51735795 -0.0021455071 0.0025369688
-0.10338075 -0.055768896 -0.334434 0.87122393 0.49087358 -0.0034702867 0.0026026664
0.10344824 -0.055508509 -0.3354542 -0.87890178 0.47688216 -0.010726064 0.0022411367
-0.10816391 -0.044254933 -0.33464515 0.92667127 0.37577683 0.0085020717 0.0021773216
0.10793537 -0.044806849 -0.33482814 -0.91994828 0.39191425 0.0099157365 0.0012662271
-0.11196925 -0.035032399 -0.33674929 0.95386714 0.30022159 -0.0021245717 0.002715922
0.11149568 -0.036193151 -0.33371714 -0.94801688 0.31812233 0.0078803198 0.0018865811
-0.11482606 -0.023155404 -0.33464289 0.98036164 0.19720504 0.0011263026 0.0019970683
0.11446901 -0.025867641 -0.33858395 -0.97673261 0.21444218 -0.0028288043 0.0013297872
-0.11577716 -0.015931118 -0.33708918 0.98801601 0.15429464 -0.0041817455 0.0014793226
0.1160852 -0.01359143 -0.33632639 -0.99355233 0.1131106 -0.0077298065 0.0024516308
-0.11712813 -0.0056694285 -0.33457357 0.99796408 0.063638307 0.0042394097 0.0019142528
0.11718209 -0.0052596754 -0.33621719 -0.99924314 0.038803391 -0.002733588 0.0024852795
-0.11751691 0.0027163457 -0.33469179 0.99978507 -0.020452222 0.0034017474 0.0021566311
0.11729313 0.0044160848 -0.33281535 -0.99910551 -0.041714586 0.0069377027 0.0015948314
-0.11583483 0.015493022 -0.33459401 0.99116749 -0.13256575 0.0036623734 0.0011955008
0.11579576 0.015789887 -0.33355114 -0.99295038 -0.11852771 0.00082924566 0.0013237784
-0.1145057 0.025588753 -0.33709827 0.97586703 -0.21836509 0.0005025026 0.0018418783
0.11468475 0.02422896 -0.33537111 -0.97992665 -0.19935648 -0.00081104593 0.0022885804
-0.11274529 0.033194605 -0.3355864 0.95555669 -0.2947005 -0.0079422072 0.0017427054
0.11216216 0.034602504 -0.33415598 -0.95327342 -0.30206978 0.0048656538 0.0019585185
-0.10741603 0.046060495 -0.33563003 0.91752082 -0.39766273 -0.004464705 0.001422565
0.10757522 0.045676284 -0.33627382 -0.91915578 -0.39388508 0.0026933532 0.0015563749
-0.1029121 0.056833576 -0.33450499 0.86832243 -0.49574733 0.015835114 0.0026840179
0.10360694 0.055214886 -0.33298168 -0.87167603 -0.49003583 0.0067713871 0.002327228
-0.10071725 0.06071616 -0.33032548 0.84774482 -0.53035975 0.0068824827 0.0026423929
-0.098921634 0.063056253 -0.33529437 0.83892673 -0.54403299 0.015162171 0.0020296611
0.09655574 0.066139646 -0.33377159 -0.81622738 -0.57771921 0.0036407467 0.0024678453
0.10073166 0.060697496 -0.33378887 -0.85374534 -0.52067041 0.0046136733 0.0023347056
-0.091484606 0.07274843 -0.33432987 0.76984209 -0.63823396 0.00074631581 0.0017426371
-0.088511683 0.076622851 -0.33554322 0.75820327 -0.65201592 -0.0017336018 0.0020816519
0.087447442 0.078009829 -0.33408561 -0.74059546 -0.6718967 0.0085634449 0.0020827728
0.092077449 0.071975879 -0.33645809 -0.76874697 -0.6395486 -0.0023752393 0.0018790028
-0.084283419 0.082133241 -0.33618364 0.72308242 -0.69075722 -0.0025265017 0.0023852717
-0.078243881 0.087267824 -0.33455589 0.67042899 -0.74189925 0.010513877 0.0021979662
0.077248491 0.088031612 -0.33548316 -0.66313607 -0.74848425 -0.0046782726 0.0021934051
0.083488286 0.082925305 -0.33593592 -0.69946933 -0.71466231 -0.00065716013 0.0025907573
-0.072895639 0.091371685 -0.33372617 0.64317501 -0.76569021 0.0066665858 0.0016673369
-0.065847196 0.096780136 -0.33452761 0.5628072 -0.82658792 0.00071123353 0.0016667744
0.065554552 0.097004682 -0.3350589 -0.57233554 -0.8200193 -0.00058888859 0.0019696865
0.071797296 0.092214465 -0.33452821 -0.62756401 -0.77856481 0.000509404 0.0024978584
-0.056067761 0.10318937 -0.33456993 0.49480662 -0.86900187 0.0014863731 0.0025730529
-0.044124357 0.10821804 -0.33615425 0.38987571 -0.92086482 0.0022280675 0.0015441608
0.046250816 0.10733724 -0.33662876 -0.40372708 -0.9148789 0.0010062975 0.0020822056
0.054982994 0.10372024 -0.33376062 -0.49052256 -0.87141436 0.0049497327 0.0026541904
0.060180783 0.10112813 -0.33489487 -0.52426118 -0.8515572 -0.00081050367 0.0026771177
-0.036973577 0.11118 -0.33721599 0.3198784 -0.94745809 -0.00098584488 0.0018537672
-0.022547975 0.11490604 -0.33515611 0.18563041 -0.9826026 0.0057900762 0.0024496538
-0.014486516 0.11596733 -0.33274084 0.11817138 -0.99297589 0.0058645573 0.0016927702
-0.0039453618 0.11735507 -0.33495376 0.02496765 -0.99968666 -0.0017945215 0.0021677187
0.0054990877 0.11715055 -0.33511198 -0.039206695 -0.99919331 0.0086920932 0.002029835
0.014350246 0.11598527 -0.33665213 -0.1129997 -0.99359453 -0.00094751106 0.0018341205
0.025060007 0.11457532 -0.33518466 -0.20273419 -0.97923303 0.0012486562 0.0023550862
0.035796572 0.11166754 -0.336014 -0.31750569 -0.94822955 -0.0071385494 0.0020759406
-0.033521626 -0.11260986 -0.32511935 0.27182728 0.9623189 -0.0072275819 0.0021303275
-0.025959676 -0.11445688 -0.32676449 0.21847178 0.97584319 -0.00048590949 0.0016777704
-0.01496456 -0.1159044 -0.32650489 0.12946643 0.99157798 0.0033925951 0.00087221427
-0.0069187665 -0.11696362 -0.32560712 0.060678609 0.99815732 0.00032706824 0.0022124848
0.0044108066 -0.11729381 -0.3254905 -0.037252128 0.99930543 -0.00094684039 0.0017087648
0.015146329 -0.11588046 -0.32377997 -0.13565004 0.99075186 -0.0031304441 0.0012788943
0.025695276 -0.1144917 -0.32626918 -0.23761097 0.97135448 -0.0033945844 0.0020615759
0.034371831 -0.11225314 -0.32481921 -0.31021175 0.95065635 -0.004611196 0.0022023991
-0.061004348 -0.10049619 -0.32331705 0.53483158 0.84494621 0.0045973123 0.0021263117
-0.054489896 -0.10392321 -0.32507011 0.48562607 0.87414795 -0.0057244818 0.0026182474
-0.044327512 -0.1081339 -0.32615986 0.38263437 0.92388076 0.0059400965 0.0019760791
0.045867149 -0.10749617 -0.32318136 -0.40330583 0.91506493 -0.00080543058 0.0020127704
0.053142667 -0.10445399 -0.32502112 -0.46942413 0.88297129 0.0016794023 0.0026675332
0.061520088 -0.10010044 -0.32333386 -0.51876652 0.8549059 0.0041362555 0.0026006065
-0.072154164 -0.091940634 -0.32557759 0.64239967 0.76636815 0.0016094092 0.0016962929
-0.06633164 -0.096408419 -0.32588142 0.56790543 0.82308632 0.0035243914 0.0022648363
0.065408356 -0.097116873 -0.32332355 -0.55887979 0.8292101 -0.0080084959 0.0026967437
0.071283124 -0.092609011 -0.3237676 -0.62084013 0.78393418 -0.0021504576 0.0028019743
-0.083377294 -0.083040416 -0.3253457 0.705275 0.70893216 0.0014984756 0.0022421149
-0.077179834 -0.088084295 -0.32634342 0.66238314 0.74916148 0.0023668127 0.0028568532
0.076875553 -0.088317782 -0.326498 -0.64802808 0.76147872 -0.014479921 0.0018740352
0.084164254 -0.08216089 -0.32459158 -0.71728426 0.69677764 -0.0020713347 0.0023650555
-0.091177024 -0.073149279 -0.32257617 0.76657838 0.6421243 0.0058328123 0.0016922178
-0.088376403 -0.076799139 -0.3246004 0.75267577 0.65838557 0.0027580657 0.0021990174
0.087679446 -0.077707469 -0.32084239 -0.74747711 0.66428745 -0.00034939172 0.0023030948
0.091706142 -0.07245978 -0.32748589 -0.76736271 0.64121324 -4.0055853e-05 0.0017032368
-0.10120091 -0.060085826 -0.32606766 0.86184818 0.50714517 0.0046531842 0.002804819
-0.096574731 -0.066114813 -0.32373935 0.82050669 0.57163638 0.00074946659 0.0019820048
0.097616129 -0.064757735 -0.32368371 -0.8389107 0.54426384 -0.0024039054 0.0022763433
0.10014606 -0.061460666 -0.32815808 -0.8550458 0.51853526 -0.0042285696 0.0025303077
-0.10407107 -0.054135848 -0.32531342 0.88636643 0.46298432 0.00034199335 0.0025019539
0.10352981 -0.05541525 -0.32399532 -0.87360322 0.48663446 -0.0020589761 0.0025168578
-0.10734024 -0.046243452 -0.32419366 0.91868949 0.3949796 -0.00085228932 0.0014152386
0.10801426 -0.044616375 -0.32503283 -0.92271662 0.38547856 -0.00050313014 0.0011808998
-0.11183619 -0.035389334 -0.32482088 0.95382512 0.30033928 0.0037517119 0.0019674257
0.10994063 -0.039965719 -0.32883954 -0.9382326 0.34600514 0.00019639665 0.002368439
0.1114402 -0.036345437 -0.32339755 -0.94605327 0.32394442 0.006582757 0.001931409
-0.11405797 -0.028989559 -0.3236255 0.96702266 0.25457138 0.0077847149 0.0023620445
0.11457718 -0.025046021 -0.32465196 -0.97454494 0.22417346 -0.002897446 0.0015305202
-0.11597824 -0.014403812 -0.3255426 0.98936075 0.14535849 -0.0060126181 0.0010716669
0.11591625 -0.014874704 -0.32500082 -0.98990142 0.14175218 -0.0011980507 0.0011825132
-0.11719877 -0.0051329988 -0.32548055 0.99898469 0.04494312 -0.0030898773 0.0018354694
0.11718372 -0.0052474085 -0.32506162 -0.99906075 0.042953122 0.0057162647 0.0015637107
-0.11722489 0.0049344613 -0.32385671 0.99838442 -0.056293521 0.0077195452 0.0020790631
0.11721736 0.0049917717 -0.32430077 -0.99865937 -0.051726773 0.0019382375 0.0015410751
-0.11581687 0.015629582 -0.32464489 0.99343133 -0.11433443 -0.0046657389 0.0014135188
0.1158751 0.01518719 -0.32284099 -0.99104345 -0.13353938 -0.0003175468 0.00082133966
-0.11450684 0.025580127 -0.32444471 0.97539955 -0.22044307 0.00075924315 0.0017214464
0.11447502 0.025821952 -0.32549804 -0.97240001 -0.23316829 -0.0084132422 0.0019713913
-0.1123677 0.034106158 -0.32711187 0.95265484 -0.30388853 -0.010033705 0.0024591719
0.11202765 0.034917753 -0.32467172 -0.94983208 -0.31261724 -0.0094524417 0.0018405395
-0.10750231 0.04585214 -0.32490727 0.92026627 -0.39128551 -0.0023835616 0.0012466946
0.10698108 0.04711068 -0.32729137 -0.91692704 -0.3990064 0.0062128133 0.001522601
-0.10335586 0.055655345 -0.32511133 0.87282747 -0.48802027 0.0029039821 0.002636428
0.10457441 0.052920908 -0.32700181 -0.88741654 -0.46096218 0.0024092356 0.0023764202
-0.10057901 0.060896307 -0.32188907 0.85186118 -0.52374488 0.0048756022 0.0030526058
-0.096141055 0.066679984 -0.325966 0.80824554 -0.58883137 -0.0041030548 0.0020144647
0.097095273 0.065436527 -0.32572967 -0.82272589 -0.56843817 -0.00034772669 0.0020220124
-0.091765359 0.072382554 -0.32586515 0.77430725 -0.63280988 -0.00011464598 0.0014628207
-0.087768011 0.077592015 -0.32597587 0.74928206 -0.66214085 -0.01207658 0.0021786187
0.088439882 0.07671646 -0.32422209 -0.75385362 -0.65704167 -0.00099538441 0.0024435823
0.091384724 0.072878659 -0.32425436 -0.76845968 -0.63989812 0.00021113941 0.0019126756
-0.082396574 0.083741516 -0.32694575 0.70925981 -0.70489478 -0.0085891578 0.0025409928
-0.077925049 0.087512478 -0.32339573 0.66916561 -0.74310356 0.003816698 0.0025215012
0.077347443 0.087955691 -0.32688403 -0.66746414 -0.74464107 0.0011194638 0.0025950111
0.084207863 0.081970692 -0.3241342 -0.71628904 -0.69775963 0.0078434246 0.0023663344
-0.073089987 0.09122254 -0.32371157 0.63671237 -0.7710979 0.0023586296 0.0017922212
-0.065199524 0.09727712 -0.32478178 0.57173568 -0.82043606 0.0017352313 0.0021909694
0.06445761 0.097846404 -0.32517317 -0.55687416 -0.83051538 0.011635466 0.0018829902
0.073509529 0.09090063 -0.32564721 -0.64422882 -0.76483154 -0.0014154469 0.0019379213
-0.060115475 0.10117824 -0.32534325 0.5087049 -0.8609277 -0.0047777621 0.0026365186
-0.053874575 0.10417935 -0.32554156 0.4674139 -0.88401383 -0.0066127507 0.0025183407
-0.044913512 0.10789115 -0.32611009 0.38443696 -0.92315024 -0.0013692571 0.0013387478
0.045606695 0.10760403 -0.32698694 -0.38926095 -0.92112732 -0.00062460272 0.0014117387
0.05503713 0.10366333 -0.32437798 -0.49408469 -0.86941338 -0.00086532754 0.0024835495
0.061235283 0.10031898 -0.32696411 -0.53065097 -0.84757525 -0.0050785937 0.002596518
-0.033900604 0.11245286 -0.32812014 0.28668317 -0.95798945 -0.0083016604 0.0021341264
-0.02715061 0.11430009 -0.32548362 0.23564118 -0.97183383 -0.0034856093 0.0020207043
-0.015030235 0.11589574 -0.32471371 0.12997785 -0.99149919 0.0059149936 0.0011565477
-0.005130983 0.11719899 -0.32477224 0.053572051 -0.99856216 0.0019228798 0.0019952327
0.0055098291 0.11714911 -0.32438025 -0.039261825 -0.99922597 0.0024343685 0.0013699414
0.016259702 0.11573388 -0.32634395 -0.13608687 -0.99068731 -0.0043604961 0.0009243603
0.024939859 0.11459114 -0.32718647 -0.21863496 -0.97580504 -0.0018420223 0.0016127338
0.03619723 0.11150159 -0.32258973 -0.32005143 -0.94739568 0.0029064331 0.0018770231
-0.034191117 -0.11233255 -0.31481531 0.27136576 0.96243399 0.0090306327 0.0022441403
-0.024803896 -0.11460903 -0.31506073 0.21273139 0.97708601 -0.0069489628 0.002065676
-0.014811646 -0.11592452 -0.31450585 0.09612143 0.99536383 -0.0033716802 0.0018257463
-0.0066161677 -0.11700347 -0.31508538 0.074947454 0.99717635 -0.0047064987 0.0020649366
0.0037050098 -0.11738672 -0.3170341 -0.021971947 0.99975461 -0.0028466342 0.0020272294
0.015025217 -0.1158964 -0.3157244 -0.11893952 0.99288338 -0.005992102 0.0020143611
0.023768209 -0.11474539 -0.31371021 -0.20746858 0.9782384 -0.002535132 0.0021660994
0.035359804 -0.11184847 -0.31498864 -0.31319049 0.94968492 0.0032199358 0.0020566413
-0.055539202 -0.10342316 -0.31702366 0.48823187 0.87270308 -0.0043465476 0.0024110682
-0.044500973 -0.10806204 -0.31447467 0.39494947 0.91868836 -0.0051524141 0.0015993307
0.039863747 -0.10998288 -0.31586587 -0.349843 0.93680006 0.0039388388 0.0030261641
0.045808613 -0.10752041 -0.31587341 -0.39217523 0.91983223 0.010360288 0.0012832667
0.056638364 -0.10299494 -0.31391233 -0.48950145 0.87188327 0.014416495 0.0024688598
0.060930468 -0.10055287 -0.31823656 -0.50850129 0.86104524 0.0052531688 0.0026073374
-0.072174132 -0.091925301 -0.31573221 0.63177985 0.77514571 -0.0018196921 0.0016038882
-0.066525921 -0.096259341 -0.31500909 0.56759048 0.82328814 -0.006145305 0.0021840942
0.065569676 -0.096993089 -0.31410238 -0.5497908 0.83530229 -0.0004517005 0.0021327767
0.07201083 -0.092050627 -0.31361705 -0.63514942 0.77238894 0.00070059561 0.0016772344
-0.083098479 -0.08324223 -0.3144491 0.69955212 0.71449864 -0.010888927 0.0023575963
-0.07703694 -0.088193946 -0.31481555 0.64981514 0.76008701 -0.0028343755 0.0019533755
0.075643398 -0.089263238 -0.31376889 -0.64635116 0.76302582 -0.0046715182 0.0017803059
0.082996197 -0.0833802 -0.31359553 -0.70174021 0.71241754 0.0046881242 0.0022787719
-0.091413848 -0.072840638 -0.31523797 0.76901138 0.63922346 -0.0038655305 0.0017796932
-0.087570444 -0.077849492 -0.31472054 0.74844241 0.66316199 -0.0070844167 0.002223036
0.089597464 -0.075207874 -0.31453854 -0.75975579 0.65020066 0.0032116235 0.0019371693
0.091678157 -0.072496258 -0.31491014 -0.76568288 0.64321691 0.0012938591 0.0020271963
-0.10051017 -0.060986035 -0.31136781 0.85420823 0.51991886 -0.0035519698 0.0026807629
-0.097422324 -0.06501022 -0.31488416 0.83354473 0.55241817 -0.0061135022 0.0020426912
0.09730424 -0.065164208 -0.31354237 -0.83443987 0.55109066 -0.0030408944 0.0019516128
0.10075185 -0.060671188 -0.31501865 -0.85885018 0.51222664 -0.00050261948 0.0030298296
-0.1035701 -0.055251449 -0.31433424 0.87510145 0.48391604 -0.00476583 0.0027920622
0.10381762 -0.054747965 -0.31501454 -0.87500834 0.48409367 -0.0037009469 0.0023166083
-0.10729297 -0.046357568 -0.31443229 0.91751999 0.39763731 -0.0064572189 0.0011297726
0.10812725 -0.044343613 -0.31351322 -0.92506534 0.37980792 8.746962e-05 0.0014596743
-0.11147941 -0.036242697 -0.31600532 0.94870043 0.31612688 0.0055983453 0.0020218156
-0.10999877 -0.039825246 -0.31377152 0.94170475 0.33643866 0.0011080992 0.0024423653
0.11227766 -0.034297984 -0.31429076 -0.94981521 0.31273481 -0.0069206399 0.0017611969
-0.11454314 -0.025304386 -0.31517327 0.97688377 0.21376871 -0.0009831686 0.0020513718
0.11472847 -0.023896845 -0.31417322 -0.98073322 0.19532716 0.0030985151 0.0019855511
-0.11617462 -0.012912124 -0.31704557 0.99381471 0.11096818 0.0042935312 0.0025302626
0.11594965 -0.014621063 -0.31467944 -0.99193376 0.12650298 0.0080242837 0.0020479492
-0.11710261 -0.0058633843 -0.31378227 0.99956459 0.028524207 0.0075399592 0.0020782945
0.11739038 -0.0036776126 -0.3151575 -0.99982971 0.017891305 0.0045235166 0.0022431239
-0.11723537 0.0048548314 -0.31228393 0.99882525 -0.048453148 0.0006392512 0.0015366941
0.11722772 0.0049131196 -0.31617218 -0.99972439 -0.023471812 -0.00056077429 0.0023888233
-0.1157191 0.016372042 -0.31316051 0.991175 -0.13255808 -0.00064781122 0.0020250606
0.11588261 0.015130257 -0.31444192 -0.99313772 -0.11690657 0.0032070118 0.0017163459
-0.1147144 0.024003539 -0.31410465 0.98150694 -0.19127363 -0.0076517626 0.002541519
0.11461627 0.024749191 -0.3162587 -0.9773491 -0.21161327 0.0029184318 0.0022351865
-0.11219227 0.034529712 -0.31528914 0.94855285 -0.31660625 -0.0028303906 0.0019920436
0.11144345 0.036337584 -0.31480157 -0.95017433 -0.31171894 -9.8822966e-05 0.0018965547
-0.10720589 0.046567786 -0.31414577 0.91759276 -0.39752081 -0.00085774332 0.0014035874
0.10786232 0.044983204 -0.3152546 -0.92175728 -0.38775003 0.0036593473 0.0013976328
-0.10318816 0.056151345 -0.31323019 0.8707301 -0.49175996 0.0011357144 0.0027265123
0.10334011 0.055743463 -0.31262723 -0.87143099 -0.49048489 0.0056982921 0.002357139
-0.096444584 0.066284418 -0.31699562 0.81783026 -0.57545745 -0.0015681776 0.0024620488
0.096394531 0.06634976 -0.31422549 -0.8171432 -0.57640719 0.0056257565 0.0021457379
0.10079679 0.060612626 -0.31350896 -0.85170615 -0.52392113 0.010167004 0.002531335
-0.091560699 0.072649255 -0.31440139 0.76632953 -0.64244449 -0.0020540287 0.0016500457
-0.087603115 0.077806912 -0.31619927 0.74654764 -0.66528618 -0.0078007774 0.0025293096
0.088254951 0.076957457 -0.31671861 -0.75081074 -0.66046041 -0.008674412 0.0019321349
0.091869675 0.072246663 -0.31478944 -0.77142853 -0.63631558 -0.00073531386 0.0018402222
-0.082860097 0.083366662 -0.31562358 0.70407277 -0.71007121 -0.0089622457 0.0024603761
-0.07796149 0.087484524 -0.31450099 0.67186129 -0.74065953 0.005090774 0.0022528383
0.077108733 0.088138863 -0.31698221 -0.6556412 -0.75506073 -0.0042457976 0.002253928
0.082421139 0.083905384 -0.31460243 -0.69781739 -0.71627569 -9.4118455e-05 0.0023950601
-0.071445771 0.092484206 -0.31674254 0.62680185 -0.7791782 0.00087807112 0.0014264728
-0.065046869 0.097394243 -0.31737906 0.56795591 -0.82303584 -0.0061759274 0.002058252
0.067546196 0.095476456 -0.31369343 -0.58846396 -0.8084982 0.0063882391 0.0024306483
0.072859362 0.091399506 -0.3164058 -0.63864267 -0.76950163 -0.0016750869 0.0015540946
-0.061303478 0.10026665 -0.31300074 0.52164233 -0.8531251 0.0081765372 0.0026220547
-0.054218989 0.10403162 -0.3139053 0.48587751 -0.87390292 0.014723003 0.0022589474
-0.044404652 0.10810194 -0.31571811 0.39335877 -0.91935599 -0.007305678 0.0012468183
0.044997796 0.10785627 -0.31449994 -0.38778591 -0.92174828 0.0014869656 0.0012135173
0.054522473 0.10385673 -0.31560418 -0.48048526 -0.87700152 0.0015139044 0.00220221
0.060577635 0.10082361 -0.3107155 -0.5161283 -0.85651058 -0.0011161955 0.0027523814
-0.036042068 0.11156584 -0.31677604 0.31717137 -0.9483521 0.0055301678 0.0017967983
-0.024274252 0.11467877 -0.31460375 0.20022328 -0.97975022 0.00032098146 0.0018367625
-0.01522431 0.11587019 -0.31530625 0.11092923 -0.99381894 -0.0043184715 0.0014849696
-0.0053719478 0.11716726 -0.31385469 0.046005048 -0.99893939 -0.0018901823 0.0015859754
0.0044868886 0.11728378 -0.31580359 -0.028075932 -0.9995597 -0.0096010938 0.0019013362
0.015998265 0.1157683 -0.31591004 -0.13508043 -0.99083382 -0.0012465385 0.0010546932
0.025253575 0.11454984 -0.31622452 -0.21555816 -0.97642374 -0.011454889 0.0014640741
0.035202537 0.11191362 -0.31460476 -0.31649959 -0.94857973 -0.0049480428 0.0018566247
-0.03370801 -0.11251622 -0.30843577 0.28543228 0.95839876 0.00049639802 0.0026009141
-0.022517703 -0.11491001 -0.30246997 0.19442078 0.98091209 -0.0034706714 0.0023165012
-0.01370877 -0.11606972 -0.30618438 0.12187342 0.99250972 -0.0084439646 0.001642165
-0.0049264007 -0.11722593 -0.3056289 0.029308172 0.99955833 -0.0049159173 0.0025899757
0.0034278817 -0.11742321 -0.30362234 -0.02298698 0.99973464 -0.0014771065 0.0018549506
0.01340093 -0.11611025 -0.30435103 -0.098725297 0.9950248 0.01337291 0.0025421456
0.024852168 -0.11460268 -0.30474031 -0.21104005 0.97747165 0.0033619844 0.0021279075
0.035769124 -0.11167894 -0.30448857 -0.30267 0.95309532 -0.0003372044 0.0019749899
-0.060915783 -0.10056415 -0.30434763 0.52379096 0.85184479 0.0018571685 0.002480109
-0.054549873 -0.10388254 -0.30433631 0.48521829 0.87438697 0.0032707725 0.002533274
-0.046278886 -0.10732559 -0.30267194 0.39204681 0.91994524 -0.00014751116 0.0014619729
0.044718713 -0.10797187 -0.30456558 -0.38867545 0.92135453 0.0061062928 0.0013842274
0.054460585 -0.10393662 -0.30332807 -0.48595807 0.87397552 0.0033858365 0.0022342494
-0.073057435 -0.091247529 -0.30545068 0.63983172 0.7685104 0.0026368902 0.0017757879
-0.064579815 -0.097752638 -0.30487242 0.55055982 0.83477986 -0.0051530432 0.0020377056
0.064076163 -0.098139092 -0.30562848 -0.54636294 0.83754706 0.0015687584 0.0021472261
0.071478106 -0.092459381 -0.30701613 -0.63154548 0.77533489 -0.0024844403 0.0022377789
-0.083492115 -0.082700528 -0.30537039 0.71363181 0.70051503 0.0028777614 0.0024122659
-0.0774424 -0.087882824 -0.30643195 0.65639311 0.75441718 -0.0016801772 0.0023519304
0.077291816 -0.087998368 -0.30645344 -0.65971541 0.75151163 0.0024465122 0.0021522765
0.083506234 -0.082741179 -0.30751684 -0.71503121 0.69909203 0.00078014942 0.0021081211
-0.092146114 -0.071886346 -0.30417967 0.78631914 0.61781204 0.0032309596 0.0019235042
-0.087895632 -0.077425703 -0.30546454 0.76029998 0.64950138 0.0095937895 0.0020333487
0.088829495 -0.076208711 -0.30549112 -0.75901514 0.6510644 -0.0033277485 0.0017888201
0.091266036 -0.073033325 -0.3066892 -0.76823711 0.64015311 0.003950167 0.0018536275
-0.096567154 -0.0661247 -0.30417582 0.82096434 0.5709492 0.0058756294 0.0019040244
0.096987307 -0.065577231 -0.30545822 -0.82773376 0.56109273 -0.0056326059 0.0027533048
0.10044584 -0.061069969 -0.30143693 -0.85538077 0.5179987 -0.0010767044 0.002534068
-0.10339159 -0.055776268 -0.30517343 0.86995 0.49309176 0.0068908758 0.0025785356
0.10362883 -0.055203751 -0.30487677 -0.87705684 0.48037583 -0.0032022328 0.00233275
-0.10710118 -0.046820581 -0.30572367 0.91016179 0.41422811 -0.0045287358 0.0019015106
0.10784031 -0.045036342 -0.30644229 -0.92170048 0.38788188 -0.0039771996 0.0018633393
-0.11215025 -0.034608729 -0.30512533 0.95082486 0.30969644 0.0044942042 0.0024763977
0.11193278 -0.035156228 -0.30388823 -0.94782948 0.31867379 -0.0081380168 0.0019364714
-0.11442812 -0.026177993 -0.30430627 0.97736895 0.2113453 0.0091091013 0.002178295
0.11455116 -0.025243616 -0.30633441 -0.97803116 0.20844591 0.0023170928 0.0017547943
-0.11603355 -0.013983543 -0.30514249 0.98989719 0.14149114 0.0091495048 0.0010312657
0.11527516 -0.019744307 -0.30016029 -0.98343277 0.18125607 0.002495354 0.0021768152
-0.11732041 -0.00420905 -0.30679825 0.99983048 0.017027983 -0.0070071705 0.0023054467
0.11723633 -0.0048476597 -0.30406663 -0.99917746 0.040342987 0.0041200831 0.0016982093
-0.117485 0.0029587955 -0.30667123 0.99986422 -0.016224043 -0.0028859447 0.0025447828
0.1174024 0.0035862932 -0.30623516 -0.99992758 -0.012025234 0.00050172716 0.0023320175
-0.11572825 0.016302558 -0.30342516 0.98903418 -0.14765714 0.0029699604 0.0014694638
0.11592951 0.014773948 -0.30532092 -0.99120158 -0.13234675 -0.0019304968 0.00086726726
-0.11437443 0.026585825 -0.30450472 0.97553957 -0.2197534 0.0055662352 0.0018369685
0.11458325 0.024999885 -0.30600303 -0.97775829 -0.20964521 -0.0061380933 0.0013416477
-0.11163802 0.035867728 -0.30406114 0.94914395 -0.31483769 0.0017588119 0.0020468088
0.11176626 0.035533264 -0.30444133 -0.94777483 -0.31893271 0.0021945238 0.0020178901
-0.10858744 0.043232452 -0.30391163 0.93052006 -0.36607546 0.011006155 0.002110613
0.10748529 0.045893393 -0.30609065 -0.91703373 -0.39879453 0.003486752 0.0014275531
-0.10321418 0.056137957 -0.30642349 0.86754781 -0.49724525 -0.010394664 0.0025843948
0.10374562 0.054875255 -0.30461219 -0.87295741 -0.487786 -0.003182753 0.0024203814
-0.10072938 0.060700364 -0.30675477 0.85543418 -0.51789087 -0.0046186522 0.0027799536
-0.098061241 0.06417755 -0.30547747 0.83427328 -0.55131418 -0.0063977242 0.0020152885
0.096998297 0.065562904 -0.30529457 -0.82477313 -0.56546283 0.001045216 0.0017022819
0.10064588 0.060809281 -0.30378318 -0.85561895 -0.51756829 0.0062640542 0.0024314264
-0.091491982 0.072738819 -0.30447805 0.77005458 -0.63796562 -0.0039740903 0.0015895145
-0.087267958 0.078243703 -0.30485094 0.74516743 -0.66686195 0.0045423964 0.0022553452
0.0875002 0.077941068 -0.3052645 -0.74345183 -0.66873872 -0.0082477815 0.0025991334
0.09120626 0.073111236 -0.30302089 -0.76587325 -0.64297312 -0.0048621236 0.0018627751
-0.082765907 0.083530456 -0.3062596 0.69780028 -0.71627796 -0.0045396402 0.0024651107
-0.0760976 0.088914745 -0.30570635 0.64094687 -0.7675541 -0.0069109602 0.0018408234
0.076690443 0.088459827 -0.30478662 -0.65224642 -0.75800687 -0.00036117627 0.0018484212
0.082308404 0.083945848 -0.30533925 -0.70469183 -0.7094565 -0.0089910831 0.0025257517
-0.07103283 0.092801057 -0.30802798 0.62878084 -0.77757984 -0.0020519551 0.0017048949
-0.066406772 0.096350759 -0.3061744 0.57405841 -0.81881428 0.00042685578 0.0024184801
0.06518431 0.097288795 -0.3033092 -0.5646717 -0.82528329 -0.0073029012 0.0023862512
0.071892403 0.092141487 -0.30566689 -0.63373935 -0.77353567 0.0041210144 0.001648107
-0.060432319 0.10093512 -0.30158591 0.52866733 -0.84882885 0.00069743214 0.0023941849
-0.054637704 0.10384142 -0.30461481 0.47863743 -0.87799817 -0.0050491188 0.0021363911
-0.044494312 0.1080648 -0.30487227 0.38930631 -0.92110723 0.0014470302 0.0012361719
0.044788077 0.10794313 -0.30406356 -0.39931613 -0.91678631 -0.0070433975 0.0016370241
0.055347014 0.10356944 -0.30403635 -0.479085 -0.87776846 -0.00011722605 0.0024271291
0.060359202 0.10099123 -0.30566329 -0.51376313 -0.85784853 -0.011976097 0.0029435933
-0.035838574 0.11165012 -0.30343032 0.32449436 -0.94588447 -0.0024498028 0.002099405
-0.026062943 0.11444327 -0.30629721 0.22235732 -0.97496521 -0.00028074227 0.0015170544
-0.014931336 0.11590875 -0.30582884 0.11460944 -0.99340969 -0.0013692727 0.0014400858
-0.006163992 0.11706298 -0.30374792 0.050837718 -0.99869472 0.0049384693 0.0013929709
0.0059597874 0.11708987 -0.3060756 -0.053629365 -0.99855405 -0.0036855428 0.0020803993
0.012660238 0.11620776 -0.30611995 -0.10042189 -0.99492544 0.0062371441 0.0021910546
0.025705023 0.11449042 -0.30438066 -0.218109 -0.97592437 0.00020683215 0.0015895319
0.034949072 0.11201373 -0.30422932 -0.30090263 -0.95356661 0.012975532 0.002202529
-0.034864325 -0.11205367 -0.29414347 0.28152925 0.95954132 -0.0046694572 0.0022428099
-0.025890725 -0.11446597 -0.29580444 0.22210264 0.97495133 0.011841198 0.0017691813
-0.014756801 -0.11593175 -0.29520789 0.11229512 0.99365598 0.0061357538 0.0021845847
-0.0060052322 -0.1170839 -0.29558197 0.055819754 0.998438 0.0023761434 0.0020377757
0.0056537236 -0.11713017 -0.29544061 -0.040022556 0.99919856 0.00068874611 0.0020944863
0.014642534 -0.1159468 -0.29431778 -0.12244291 0.99247557 -0.00012507156 0.001978033
0.025025526 -0.11457987 -0.29304799 -0.2231753 0.97477359 0.0030623456 0.0014222433
0.034417879 -0.11223863 -0.29233482 -0.30023178 0.95385838 0.0038721459 0.0023672027
-0.05497377 -0.10372405 -0.2947877 0.48824701 0.87270206 0.0024380311 0.0023930953
-0.045928285 -0.10747083 -0.2958377 0.3867954 0.92215186 0.0050292239 0.0014737502
-0.039852992 -0.1099873 -0.29780582 0.34381506 0.93902898 -0.0039699269 0.0025797733
0.047848441 -0.10667548 -0.2994839 -0.40291122 0.91523379 0.0031038744 0.0017206558
0.056178313 -0.10319308 -0.2961196 -0.4890984 0.87222856 -0.00019778569 0.0020816869
0.06074211 -0.10069741 -0.29362312 -0.50988507 0.86024237 -0.00058218511 0.0026560738
-0.072887301 -0.09137807 -0.29141149 0.63211507 0.77487439 0.00051701401 0.0016148397
-0.065250605 -0.097237915 -0.29595873 0.55533135 0.83161736 0.0044387127 0.0023851588
0.066107325 -0.096580528 -0.29330084 -0.56051898 0.82813251 0.0038737422 0.0024132736
0.072989278 -0.091299832 -0.29079419 -0.63580579 0.7718482 0.0011473133 0.0015011199
-0.084531657 -0.081742875 -0.29484186 0.71275896 0.70140344 0.0027978749 0.0020994737
-0.077039115 -0.088192269 -0.29500699 0.6557591 0.75496173 0.0035792983 0.0024529682
0.076719299 -0.088437684 -0.29497266 -0.66070092 0.75064635 0.0020967231 0.0020247567
0.082807243 -0.083457828 -0.294337 -0.7028361 0.71134156 0.0038238748 0.0023984888
-0.090778343 -0.073668852 -0.2959424 0.76649445 0.6422466 -0.0023519779 0.0016446816
-0.086932719 -0.078680605 -0.29681095 0.74864674 0.66296226 -0.0030078634 0.0022386035
0.087866671 -0.07746347 -0.29372466 -0.74569923 0.66624504 0.0070750117 0.002199064
0.09104488 -0.073321559 -0.29711619 -0.76731652 0.64126271 -0.0027523087 0.0019172506
-0.10066666 -0.060782086 -0.29635277 0.85538685 0.51797307 -0.0041571818 0.0024896185
-0.095978461 -0.066891909 -0.29537544 0.81635284 0.57748806 -0.0086906925 0.0022081747
0.095381372 -0.067670137 -0.29338652 -0.81532806 0.57899326 -0.0026359011 0.0024661471
0.10090348 -0.060473569 -0.29460832 -0.85877472 0.51232946 -0.0049593169 0.0024383289
-0.10368254 -0.055022687 -0.29518422 0.87619489 0.48194429 -0.003490804 0.0025563096
0.10339174 -0.05558202 -0.29534835 -0.87243772 0.48870271 -0.0046932749 0.0025247757
-0.10837844 -0.043737013 -0.29543748 0.92433298 0.38153577 -0.0062405281 0.0024159544
0.10780349 -0.045125216 -0.29475465 -0.92300147 0.38475573 0.0055961176 0.0020118856
-0.11222582 -0.034448691 -0.29596588 0.94940299 0.31368196 -0.015413621 0.0019491017
0.10995686 -0.039926544 -0.29909825 -0.9392969 0.34306082 -0.0055296812 0.0019612282
0.1122069 -0.03447599 -0.29570472 -0.94886345 0.3156414 -0.0053497269 0.0019616564
-0.11447731 -0.025804499 -0.29462335 0.97740847 0.2113241 0.0038455527 0.002220175
0.11456338 -0.025150826 -0.29427174 -0.97756994 0.21050596 0.0066517815 0.0021363306
-0.11581796 -0.01562113 -0.29462215 0.98911464 0.14708963 -0.0040975777 0.0016201222
0.11591098 -0.01491474 -0.29209414 -0.99198145 0.12609379 0.0085460795 0.0017131004
-0.11736842 -0.0038443482 -0.29402983 0.99973369 0.022998147 0.0019203157 0.0026169703
0.11729386 -0.0044107521 -0.29510683 -0.99918067 0.040462859 -0.00084010954 0.0016825778
-0.11740185 0.00359034 -0.29583183 0.9995532 -0.029406574 -0.0053477073 0.002307205
0.11732616 0.0041653099 -0.29713702 -0.99971473 -0.0234918 -0.0043208124 0.0021622905
-0.11598031 0.014387972 -0.29448006 0.99291831 -0.11877631 0.0023267195 0.0014912807
0.1160057 0.014195269 -0.29685277 -0.99215484 -0.12464316 -0.0096418159 0.0018570275
-0.11452803 0.025419144 -0.29468682 0.97816354 -0.20776495 -0.0054679355 0.0021938796
0.11448642 0.025735382 -0.29397875 -0.97347277 -0.2285504 0.010747655 0.0016105078
-0.11230792 0.034243427 -0.29491255 0.95081538 -0.30975816 0.00020983961 0.0018746579
0.11223637 0.034390103 -0.29464871 -0.95102626 -0.30893734 0.010331578 0.0019263289
-0.10770822 0.045355059 -0.29597998 0.92330015 -0.38406751 -0.0030127973 0.0012574178
0.10823019 0.044095106 -0.29540163 -0.92266256 -0.3855983 0.0027600962 0.0013267125
-0.10382696 0.054700058 -0.29474974 0.88204986 -0.47106478 0.0092737284 0.0022730592
0.10363662 0.055184919 -0.29473904 -0.87568206 -0.48287758 0.003191212 0.0027844913
-0.10089823 0.060480285 -0.29619345 0.85696059 -0.51537824 -0.0019325701 0.0029663607
-0.09666729 0.065994181 -0.29620048 0.82424068 -0.56620765 0.0060256156 0.0021717523
0.096504785 0.066206075 -0.29470065 -0.81915867 -0.57356697 1.5162123e-06 0.0022063898
0.1003596 0.061182357 -0.29872161 -0.85084337 -0.52541506 0.0021471949 0.0031210901
-0.091957323 0.072132364 -0.29441574 0.77253002 -0.63497341 0.0024938637 0.0014941803
-0.088232026 0.076987311 -0.29503778 0.7557143 -0.65489739 -0.0023244089 0.0022738271
0.088048853 0.077226058 -0.29517803 -0.75422627 -0.65661097 -0.0021991655 0.0020280054
0.091668099 0.072509363 -0.29378495 -0.77202296 -0.63559151 -0.002001859 0.0016277921
-0.082999274 0.083399162 -0.29480997 0.69921905 -0.71490443 -0.0020998144 0.0026502397
-0.078415707 0.087135985 -0.29576597 0.67258513 -0.74001932 0.00078456511 0.0016895737
0.077928826 0.087509587 -0.2910105 -0.65977085 -0.75146461 0.001844535 0.0018034131
0.082052439 0.084259443 -0.29537344 -0.69886714 -0.71525156 0.00010591553 0.0025094296
-0.07178349 0.09222506 -0.29510829 0.63266975 -0.77439505 -0.0064230207 0.0020427483
-0.06517297 0.09729749 -0.29674876 0.55873275 -0.82930601 -0.0083269533 0.0017634472
0.067366473 0.095614359 -0.29366079 -0.57963187 -0.81483239 0.0086652087 0.0022505685
0.072390832 0.091759026 -0.29410794 -0.64331323 -0.76559019 -0.0044493182 0.0016765838
-0.06142205 0.10017567 -0.29510662 0.52887082 -0.84869915 0.0023568512 0.0023905649
-0.053454965 0.10433878 -0.29487288 0.46776518 -0.88382262 0.0073043173 0.002114635
-0.044274323 0.10815591 -0.29546589 0.3764478 -0.92643785 0.0001394304 0.0025426496
0.044721674 0.10797063 -0.2946468 -0.39071682 -0.92051035 0.0010501698 0.0012550766
0.056267429 0.10308306 -0.29595393 -0.48818743 -0.87273526 0.0024815327 0.0027351028
0.060636614 0.10077836 -0.29271212 -0.50958234 -0.86042148 0.0009121063 0.0025932407
-0.034004968 0.11240964 -0.29314497 0.28071639 -0.95979077 -0.00010039565 0.0021212057
-0.025012903 0.11458152 -0.29493114 0.21857649 -0.97581857 -0.001526084 0.0016324515
-0.015331616 0.11585607 -0.2951934 0.12847668 -0.99170244 -0.0044602053 0.0025336982
-0.0048569664 0.11723505 -0.2936098 0.0600687 -0.99819165 0.0022995579 0.0016708737
0.0056449724 0.11713133 -0.2955437 -0.054755539 -0.9984985 0.0016410897 0.0020788137
0.014029786 0.11602746 -0.2960597 -0.1219474 -0.9925338 -0.00233278 0.0021323946
0.025154721 0.11456286 -0.29462349 -0.210732 -0.97753388 -0.0044163237 0.0018542247
0.034878656 0.11204775 -0.29465079 -0.30317372 -0.95292515 0.0043969848 0.0026185354
-0.034172338 -0.11234032 -0.28563473 0.2933993 0.95598328 -0.0035770424 0.0024114372
-0.02531424 -0.11454186 -0.2846134 0.22528818 0.97426975 0.0066192928 0.0017410606
