# .PCD v0.7 - Point Cloud Data file format
VERSION 0.7
FIELDS x y z normal_x normal_y normal_z curvature
SIZE 4 4 4 4 4 4 4
TYPE F F F F F F F
COUNT 1 1 1 1 1 1 1
WIDTH 580
HEIGHT 1
VIEWPOINT 0 0 0 1 0 0 0
POINTS 580
DATA ascii
0.16479771 -0.10342027 -0.49319342 -0.51107723 0.3059043 0.80325752 0.015547943
0.17073205 -0.10122888 -0.49064785 -0.55401498 0.33176714 0.76354307 0.016185038
-0.17257231 -0.094447903 -0.49183822 0.53127509 0.27802947 0.80027896 0.018764947
-0.16679291 -0.09352988 -0.49559012 0.41532618 0.2340636 0.87904406 0.014149307
-0.15844713 -0.092221089 -0.49929902 0.27060416 0.18486914 0.94477338 0.013668397
-0.14410551 -0.095836155 -0.49990603 0.12532383 0.087660059 0.98823565 0.0090835141
-0.13570011 -0.092491254 -0.49979147 0.012629214 0.0051005422 0.99990726 0.00047009863
-0.12329256 -0.095606148 -0.4996869 -0.0030727817 -0.0011676126 0.99999464 0.00012136018
-0.11600994 -0.094318986 -0.49960056 -0.0098274983 -0.0079625817 0.99992001 1.0495143e-05
-0.1056718 -0.092092887 -0.49947485 -0.0098648369 -0.0084750289 0.99991536 0
-0.094992951 -0.095093414 -0.49939138 -0.0090503003 -0.0093668299 0.99991524 6.5747947e-05
-0.085012175 -0.093962096 -0.49929586 -0.0087828925 -0.0097221285 0.99991417 9.7402262e-05
-0.074518792 -0.096866526 -0.49924207 -0.0076740631 -0.010488964 0.99991554 8.0572783e-05
-0.065007426 -0.095936812 -0.49915621 -0.0072845174 -0.01072324 0.9999159 0
-0.05437718 -0.094570197 -0.49906161 -0.006033631 -0.011329293 0.99991763 0.00010237704
-0.045835938 -0.094064042 -0.49900827 -0.0057911454 -0.011656265 0.9999153 0
-0.035789687 -0.095921725 -0.49898028 -0.0048526223 -0.01196025 0.99991673 0
-0.024680734 -0.094055921 -0.49890831 -0.003218876 -0.012768682 0.99991333 0
-0.015647007 -0.095769316 -0.49891022 -0.0024980872 -0.012852422 0.99991429 0.00013694857
-0.0031850878 -0.093849972 -0.49886379 -0.00026411269 -0.012980949 0.99991566 0
0.0033111637 -0.095650949 -0.49888748 0.00033392003 -0.013183117 0.99991304 0
0.018369175 -0.094667934 -0.49890053 0.0026701491 -0.012789938 0.99991471 0
0.025361206 -0.096796319 -0.4989427 0.0030592312 -0.012443276 0.99991792 4.4472534e-05
0.03794292 -0.093261369 -0.49895883 0.0049872659 -0.012110596 0.99991423 0.00014362494
0.043744978 -0.094143234 -0.49899873 0.0057332464 -0.011834574 0.99991351 4.631812e-05
0.055625681 -0.093328379 -0.49905732 0.0065451204 -0.01110326 0.99991697 0
0.066030167 -0.094228171 -0.49914658 0.0074982322 -0.010719685 0.99991447 0.00023752569
0.073262498 -0.094875842 -0.49921128 0.0079207541 -0.010299545 0.9999156 0
0.086762547 -0.0946986 -0.49931756 0.0089563224 -0.0094608879 0.99991518 0
0.094067715 -0.091737114 -0.49935192 0.0092799384 -0.0089019686 0.99991733 1.5214143e-05
0.10495914 -0.096536025 -0.49950296 0.0097167129 -0.0088893287 0.99991333 0
0.11435071 -0.095660657 -0.499594 0.009993366 -0.0084086917 0.99991477 2.1026211e-05
0.1243342 -0.091074713 -0.49966148 0.0086525064 -0.0062674112 0.99994296 0
0.1346097 -0.093034834 -0.49978447 -0.0097456444 0.0085673314 0.99991578 0.00082466879
0.14552081 -0.091827571 -0.49988866 -0.14360403 0.067246072 0.9873479 0.0084670223
0.15376668 -0.093285002 -0.49981213 -0.21033335 0.12002204 0.97023433 0.011541161
0.16405746 -0.097375266 -0.49587357 -0.42317015 0.25605056 0.8691175 0.020495195
0.17343123 -0.094733723 -0.4911631 -0.56798673 0.28467846 0.77223647 0.019546686
-0.1770612 -0.084665999 -0.49145916 0.57569724 0.25421727 0.77713984 0.022077933
-0.16229926 -0.089650467 -0.49850813 0.34214181 0.19275045 0.91966641 0.01419505
-0.15392485 -0.085437201 -0.49993548 0.17302598 0.070176013 0.98241407 0.011156825
-0.14612132 -0.085598558 -0.49984869 0.076444924 0.044056568 0.99610001 0.0055857515
-0.13219628 -0.087763183 -0.49971703 6.4923021e-05 -0.00079182396 0.9999997 0.00026728518
-0.12398531 -0.081620842 -0.49958211 -0.01093434 -0.007305542 0.99991357 0.00016050223
-0.1055078 -0.082245812 -0.49939421 -0.010517715 -0.0079074306 0.99991339 0
-0.091460034 -0.081207372 -0.49923927 -0.0098427739 -0.0085816933 0.99991477 7.3399395e-05
-0.074650459 -0.084599674 -0.49911508 -0.0087063238 -0.009782617 0.99991429 0
-0.06291268 -0.085231774 -0.4990277 -0.0078078131 -0.010443456 0.999915 3.0077457e-05
-0.058378905 -0.088871017 -0.49902934 -0.0070543764 -0.01087839 0.9999159 0
-0.044072475 -0.086619847 -0.49890891 -0.0055655092 -0.011625203 0.99991691 0
-0.037101604 -0.086004533 -0.49886629 -0.005289109 -0.011867 0.9999156 4.0352963e-05
-0.025145013 -0.08439821 -0.49878681 -0.0035318411 -0.012407543 0.99991679 0
-0.013530898 -0.085269071 -0.49876961 -0.0018853509 -0.012979908 0.99991399 7.3923467e-05
-0.0045970897 -0.084893495 -0.49874938 -0.00044802495 -0.012894223 0.99991673 0
0.0047168024 -0.085035205 -0.4987514 0.0010107619 -0.012929572 0.9999159 7.2988398e-05
0.012752444 -0.083824173 -0.49874941 0.0018664682 -0.012732177 0.99991715 9.510995e-05
0.024477758 -0.084806882 -0.49878991 0.003340407 -0.012494611 0.99991637 0.0001280952
0.03442103 -0.086821906 -0.49886274 0.0047371169 -0.012102436 0.99991554 0.00011094749
0.045974225 -0.084485866 -0.49889365 0.0061062053 -0.011341187 0.99991703 0
0.054673232 -0.084313989 -0.49895215 0.0069907056 -0.010967492 0.99991548 4.3878576e-05
0.063751526 -0.083311789 -0.49901438 0.0077595394 -0.010521045 0.99991453 0.00012434085
0.074044578 -0.083119623 -0.49909478 0.008668839 -0.0097410725 0.99991506 1.8599274e-05
0.085827753 -0.085233688 -0.49921709 0.009307866 -0.0091628376 0.99991471 1.4773987e-05
0.094524406 -0.083799221 -0.49929199 0.0097973617 -0.0087701464 0.99991351 0.00013089884
0.10300978 -0.086229622 -0.49940005 0.010001875 -0.0084225526 0.99991447 0
0.11411703 -0.083188668 -0.4994916 0.010496275 -0.0077395812 0.999915 9.5793685e-06
0.12333477 -0.083570004 -0.4995909 0.010739858 -0.0074102054 0.99991488 1.9604819e-05
0.13437907 -0.084263861 -0.49971175 0.010224776 -0.006135568 0.99992889 9.0609363e-05
0.14252417 -0.083029121 -0.49978694 -0.024484139 0.019431092 0.99951136 0.0015016907
0.15479296 -0.083900049 -0.49993867 -0.16681217 0.10458217 0.98042655 0.008326442
0.16589203 -0.086467266 -0.49753019 -0.3466894 0.16027582 0.9241851 0.012245126
0.17294517 -0.086884715 -0.49369535 -0.5193544 0.23394968 0.82191151 0.017313087
-0.18128249 -0.076293088 -0.4910242 0.63682145 0.24775259 0.73012125 0.014184507
-0.17301014 -0.076539598 -0.49596399 0.38628665 0.1661592 0.90728927 0.017295463
-0.16454494 -0.074659273 -0.49946794 0.23246342 0.09087044 0.96835083 0.011449211
-0.15037353 -0.078891046 -0.4998593 0.093966208 0.043879297 0.99460793 0.0060772765
-0.14516415 -0.074981056 -0.49977627 0.028626118 0.012679775 0.99950975 0.00209566
-0.13586393 -0.074302748 -0.49966016 -0.0069716759 -0.0045352681 0.99996543 2.6273225e-05
-0.12428924 -0.074609734 -0.49953145 -0.011185219 -0.0065953899 0.99991572 1.3597399e-05
-0.11613005 -0.073457628 -0.49943471 -0.011294376 -0.0069464939 0.99991208 0.0001836812
-0.10617509 -0.074031256 -0.49933538 -0.01069275 -0.0075828247 0.99991405 0
-0.09598209 -0.075340524 -0.49923944 -0.010335607 -0.0080639506 0.99991411 0
-0.085297972 -0.074387625 -0.49912027 -0.0096931653 -0.0087279379 0.999915 0
-0.079633109 -0.076079257 -0.4990747 -0.0094236778 -0.0091410801 0.99991381 0
-0.063419685 -0.072585031 -0.4988997 -0.0084980894 -0.0099919634 0.99991399 0.00017353296
-0.055227518 -0.075354278 -0.49886298 -0.007822101 -0.010449455 0.99991482 0
-0.045968514 -0.07551074 -0.49879047 -0.0067234961 -0.01109367 0.9999159 0
-0.02481083 -0.074760512 -0.49866775 -0.0041390727 -0.012328466 0.99991542 0.00010281616
-0.012770453 -0.072909892 -0.49860704 -0.0020636171 -0.012964264 0.99991387 0.00011331097
-0.0064432286 -0.075689912 -0.49863246 -0.0010914585 -0.012821718 0.99991721 0.00024992327
0.0070859939 -0.07537327 -0.49862945 0.0015565411 -0.012846496 0.9999162 0
0.014926118 -0.075028107 -0.49863839 0.0025135758 -0.01278677 0.99991512 0.00018138113
0.028609507 -0.074924305 -0.49868888 0.004867835 -0.01197434 0.99991649 0
0.032204092 -0.076360829 -0.4987244 0.0049542817 -0.01167257 0.99991959 0
0.043591898 -0.075834177 -0.4987784 0.0062224208 -0.011354472 0.99991614 2.2186941e-05
0.054424983 -0.075100727 -0.49885392 0.0075308015 -0.010442955 0.99991715 0
0.063663274 -0.073144197 -0.49890751 0.00863076 -0.0098711187 0.99991399 3.4289892e-06
0.077047274 -0.077056386 -0.49905741 0.0093056457 -0.0092774443 0.99991375 0.00011630607
0.085486904 -0.07521832 -0.49912891 0.0097874831 -0.0087375445 0.99991393 3.9402545e-05
0.095657907 -0.076608762 -0.49924624 0.010110887 -0.0082321614 0.99991494 0
0.10613897 -0.073379248 -0.49932978 0.01080701 -0.0073533645 0.99991453 8.4619496e-05
0.11478394 -0.076204479 -0.49944267 0.010821681 -0.0069862907 0.99991703 0
0.12159845 -0.074267797 -0.49949825 0.011020907 -0.0066303136 0.99991727 0
0.13468571 -0.075451508 -0.4996514 0.01074953 -0.005727536 0.99992579 0
0.14443724 -0.076016955 -0.49977264 -0.01287578 0.013769476 0.99982226 0.0012494787
0.15543698 -0.076170973 -0.49990717 -0.11879549 0.087532371 0.98905295 0.0075424509
0.1654397 -0.073930904 -0.49936375 -0.29601005 0.13083903 0.94618142 0.014215084
0.17575681 -0.073995396 -0.49512276 -0.48114997 0.1872557 0.85640526 0.016094759
-0.18404643 -0.063701987 -0.49276161 0.55125844 0.18310066 0.81399524 0.019329464
-0.17597558 -0.065664813 -0.49689633 0.37256205 0.12230039 0.91991311 0.01169509
-0.16631998 -0.06886597 -0.49975526 0.24100229 0.086865686 0.96662933 0.011213321
-0.15911491 -0.067740887 -0.4999094 0.12020659 0.048806932 0.99154836 0.0074107843
-0.14255202 -0.063168347 -0.49968505 -0.0090246452 -0.0036270907 0.99995273 5.1879586e-05
-0.13186078 -0.068616688 -0.4995825 -0.011585633 -0.0059734466 0.99991506 0.0001843971
-0.12458192 -0.065846547 -0.49948004 -0.011537326 -0.0060636946 0.99991506 4.615348e-05
-0.11504745 -0.066173159 -0.49936822 -0.011421927 -0.0065091997 0.99991357 0.00013752126
-0.10654494 -0.068166018 -0.49929225 -0.010927322 -0.0069157733 0.99991632 0
-0.094604701 -0.06379196 -0.49913254 -0.010924443 -0.0069139837 0.99991637 0
-0.086568199 -0.066982329 -0.49907422 -0.010221288 -0.0080599478 0.99991524 0
-0.075747125 -0.064807534 -0.49894384 -0.010011142 -0.0086905044 0.99991214 0.00019373195
-0.066259347 -0.065509804 -0.49885401 -0.009411769 -0.009043023 0.99991477 4.0201106e-05
-0.054087471 -0.065619387 -0.49875227 -0.0084487088 -0.010045833 0.99991387 0
-0.043829992 -0.065143585 -0.49866509 -0.0074936007 -0.010741947 0.99991423 8.3829436e-05
-0.037123203 -0.064131238 -0.4986046 -0.0067829257 -0.011312574 0.99991304 4.6911584e-05
-0.023722462 -0.064347066 -0.49853566 -0.0043082652 -0.012055359 0.99991798 0.00011037961
-0.013165713 -0.063052721 -0.49847913 -0.0023821746 -0.012595084 0.99991786 0
-0.0039227037 -0.063988857 -0.49847549 -0.00081586681 -0.012662887 0.99991947 0
0.0052288142 -0.065330006 -0.49849522 0.0011338923 -0.012957706 0.99991542 0
0.016623147 -0.063922077 -0.49849764 0.0030467059 -0.012734406 0.99991429 0.00010773641
0.023313444 -0.061606683 -0.49850029 0.0045958902 -0.012291912 0.99991393 6.9538306e-05
0.031150397 -0.068651408 -0.4986254 0.005394272 -0.011744441 0.99991649 5.4598609e-06
0.045124747 -0.064256877 -0.4986662 0.0075342362 -0.010554386 0.9999159 0
0.05522798 -0.064580068 -0.49875054 0.0083356779 -0.0097400025 0.99991781 0
0.065305345 -0.065694064 -0.49884522 0.0091337683 -0.0092790397 0.99991524 0
0.075066581 -0.06550771 -0.49894232 0.0097517539 -0.0086110821 0.99991536 0
0.084945142 -0.063401826 -0.49902862 0.010481819 -0.0076127853 0.99991614 4.2880281e-05
0.097031184 -0.066823989 -0.49918219 0.01074688 -0.0075599821 0.99991369 0.00012633631
0.1045687 -0.06559366 -0.49925181 0.010985287 -0.0070267459 0.999915 0
0.117199 -0.06395223 -0.49938077 0.01154499 -0.0062460583 0.99991381 4.1106265e-05
0.12603775 -0.064353779 -0.49949026 0.011716368 -0.0060030632 0.99991333 0
0.1325267 -0.064028881 -0.49956751 0.011706022 -0.0057392451 0.999915 2.0250614e-05
0.14493117 -0.061876886 -0.49970746 0.0032958719 -0.0040704468 0.99998623 1.9434252e-05
0.15307665 -0.066091813 -0.49982768 -0.047361366 0.02516124 0.99856091 0.0031803211
0.1651409 -0.065293506 -0.49974409 -0.22491865 0.10076734 0.96915293 0.015126926
0.17531805 -0.066355892 -0.49699727 -0.42196727 0.17292932 0.88996583 0.0130673
0.18389674 -0.065163605 -0.49238056 -0.56332004 0.19280364 0.80342847 0.012104384
-0.18624431 -0.055680525 -0.49337593 0.53173316 0.16969223 0.82973754 0.021375563
-0.17710957 -0.052750818 -0.4985767 0.34374705 0.10197932 0.93350857 0.012174799
-0.16047221 -0.051253937 -0.49984288 0.08650545 0.023099946 0.9959836 0.003977553
-0.15520805 -0.053067796 -0.49978805 0.021893462 0.016714543 0.99962056 0.0012876263
-0.14309916 -0.058409262 -0.49966773 -0.0094815036 -0.0033693188 0.99994934 1.2964594e-05
-0.13798389 -0.053263906 -0.49957961 -0.012070222 -0.0047793738 0.99991572 0
-0.12692027 -0.057417601 -0.49946606 -0.011811498 -0.0052931784 0.99991626 6.7476765e-05
-0.11407621 -0.055575777 -0.49930063 -0.011669034 -0.0056868657 0.99991578 6.4146639e-05
-0.10385766 -0.054567058 -0.49917138 -0.011329895 -0.00611676 0.99991715 0
-0.093613476 -0.059583146 -0.4990885 -0.011075052 -0.0066906069 0.99991626 0
-0.084724069 -0.055683333 -0.49896452 -0.011074157 -0.0069631701 0.99991447 0.00014340936
-0.073204994 -0.053143844 -0.49882388 -0.010489744 -0.0074484339 0.99991727 0.00015137237
-0.064942211 -0.055442717 -0.49875602 -0.0096912151 -0.0085668853 0.99991632 0
-0.053559661 -0.052436508 -0.49861401 -0.0093894554 -0.008561329 0.9999193 0
-0.046281904 -0.055583414 -0.49858496 -0.0084223337 -0.0099280104 0.99991518 0
-0.03196498 -0.056779988 -0.49848613 -0.0060611609 -0.011427246 0.99991632 0.00017156143
-0.02660328 -0.055118039 -0.49843797 -0.0054086302 -0.011780375 0.99991602 8.6905275e-05
-0.014003324 -0.055713121 -0.49838653 -0.0029131533 -0.012284948 0.99992031 0.00010442878
-0.0060849478 -0.055220544 -0.49836478 -0.0011660623 -0.012821403 0.99991715 0
0.0026480262 -0.055202655 -0.49835867 0.00036192895 -0.012705393 0.99991924 0.00012354128
0.012872483 -0.05120967 -0.49832538 0.0026586661 -0.012234884 0.99992162 0
0.023428246 -0.052880973 -0.49839479 0.0050214659 -0.011977386 0.99991566 5.2337775e-05
0.035433087 -0.055510126 -0.49849728 0.0072144414 -0.010848431 0.99991512 9.4295865e-05
0.0464506 -0.056413297 -0.49859497 0.0081141517 -0.010100575 0.99991608 9.3395589e-05
0.053695031 -0.057456233 -0.49866387 0.0088184187 -0.0095661189 0.99991536 5.9019523e-05
0.066430263 -0.056295753 -0.49877837 0.010048291 -0.0082975151 0.99991506 0
0.071512371 -0.053315531 -0.49880758 0.010328246 -0.0076742372 0.99991721 0
0.085858293 -0.053816333 -0.49896133 0.011123227 -0.0067649521 0.9999153 0
0.093846262 -0.056099556 -0.49906582 0.011278685 -0.0065659028 0.99991482 0
0.10402692 -0.054227673 -0.49917173 0.01146817 -0.0058970382 0.99991679 0
0.11472567 -0.055156928 -0.49930638 0.011731778 -0.0058602989 0.99991393 5.187601e-05
0.12647596 -0.054843843 -0.49944767 0.011942464 -0.0052626687 0.99991482 8.2090468e-05
0.1347688 -0.05474193 -0.49954799 0.012039748 -0.005068114 0.99991471 0
0.14518313 -0.054762669 -0.49967471 0.0033306151 -0.0013978684 0.99999344 0
0.15623689 -0.055184826 -0.4998112 -0.050064608 0.019662339 0.99855238 0.0027100716
0.1634818 -0.055569816 -0.49990121 -0.13211736 0.031432733 0.99073559 0.0089635877
0.1739638 -0.056542646 -0.49884394 -0.28402472 0.12497302 0.95063752 0.016844092
0.18520194 -0.055172637 -0.49426419 -0.49876595 0.15226005 0.85325819 0.017310739
-0.18441643 -0.043314431 -0.49639949 0.40275922 0.12928914 0.90612876 0.017144872
-0.17045349 -0.042284757 -0.49993029 0.19441435 0.040660109 0.98007643 0.010358796
-0.16589564 -0.046461683 -0.49988532 0.11178055 0.02996188 0.99328113 0.0050884564
-0.15830272 -0.047934618 -0.49979982 0.059981417 0.0070165051 0.99817485 0.0032899883
-0.14448358 -0.044825401 -0.49961615 -0.012502684 -0.0038967452 0.99991429 0
-0.13505803 -0.045245718 -0.4995037 -0.012317798 -0.0043737954 0.99991459 0
-0.12353837 -0.045087606 -0.49936286 -0.012284761 -0.0046484233 0.99991375 0
-0.11429447 -0.042824376 -0.49923906 -0.012082141 -0.0047727046 0.99991566 3.004198e-05
-0.10542872 -0.043154836 -0.49913293 -0.012078023 -0.0048218183 0.99991542 4.4980847e-05
-0.095389031 -0.043833654 -0.49901429 -0.011834994 -0.0054522073 0.99991512 0
-0.083693661 -0.045912001 -0.49888447 -0.01156916 -0.0063298931 0.99991304 0
-0.074988306 -0.044255573 -0.49877125 -0.011171379 -0.0065358933 0.9999162 0
-0.063264981 -0.043922082 -0.4986462 -0.01055632 -0.007345391 0.99991733 0
-0.055900007 -0.046725243 -0.49859181 -0.0097675109 -0.0085187256 0.99991596 0
-0.044733047 -0.045624536 -0.4984726 -0.0091789234 -0.0089353612 0.99991798 0
-0.035238303 -0.045840628 -0.49839476 -0.0077521633 -0.0098219588 0.9999218 0
-0.026456943 -0.044872385 -0.49831572 -0.0065726121 -0.011113136 0.99991661 8.3318737e-05
-0.014807872 -0.043382239 -0.49823588 -0.0032464564 -0.011914546 0.99992377 0.00021991547
-0.0057522948 -0.044029493 -0.49821824 -0.0014878707 -0.012070782 0.99992603 0
0.0085881539 -0.040338714 -0.49817494 0.002698218 -0.01211815 0.99992299 9.0111229e-05
0.014859568 -0.046590824 -0.49827543 0.0030926089 -0.012077915 0.99992228 2.7199972e-05
0.023928436 -0.04509354 -0.49830538 0.0055665467 -0.011370816 0.99991989 2.1149934e-05
0.036716949 -0.045137912 -0.49839926 0.0081074089 -0.0096574649 0.99992049 0
0.04503075 -0.045241792 -0.4984737 0.0092091775 -0.0090213651 0.99991691 2.6955336e-06
0.059640311 -0.040994372 -0.49858493 0.010596073 -0.0073490092 0.99991685 7.7659701e-05
0.066383265 -0.041795671 -0.49866176 0.010916186 -0.0068252687 0.99991715 8.2135099e-05
0.073722571 -0.043236993 -0.49875006 0.011205425 -0.0064138914 0.99991661 0
0.084860303 -0.045553889 -0.49889609 0.011575361 -0.0062043671 0.99991375 0.00014260618
0.094686173 -0.045424096 -0.49901378 0.011729843 -0.005660376 0.99991512 0
0.1062308 -0.044557884 -0.49914974 0.011948886 -0.0053238189 0.99991447 9.7172167e-05
0.11377028 -0.047261994 -0.49925503 0.012023581 -0.0052461051 0.99991399 0
0.12504938 -0.044973966 -0.49938065 0.01224797 -0.0045652394 0.99991459 0
0.13528764 -0.046725281 -0.49951392 0.012347222 -0.0043833973 0.99991405 7.5766009e-05
0.14471552 -0.045508005 -0.4996224 0.010671759 -0.0029340629 0.99993873 5.4911911e-06
0.15357968 -0.045155704 -0.49972838 -0.0041834097 0.0025909019 0.9999879 0.00022337139
0.16460593 -0.043835916 -0.49985939 -0.11260979 0.029463945 0.99320233 0.0056831185
0.17432494 -0.04594031 -0.4997682 -0.26375809 0.050383672 0.96327209 0.012758343
0.18209936 -0.045031395 -0.49751824 -0.40331578 0.080124967 0.91154611 0.017497661
0.19109775 -0.04798298 -0.49170652 -0.58826643 0.15478617 0.79371518 0.014676172
-0.19158077 -0.034351774 -0.49275312 0.55410159 0.13639563 0.82119888 0.01560427
-0.18484907 -0.035837766 -0.49670619 0.36636963 0.056991179 0.92872244 0.013253044
-0.17466016 -0.035257448 -0.49986354 0.23352633 0.068966411 0.96990162 0.012412703
-0.16477042 -0.036027953 -0.49984542 0.087957352 0.033344228 0.99556601 0.0052391016
-0.15610771 -0.035723731 -0.4997319 0.021368863 0.010449449 0.99971706 0.0012938993
-0.14877707 -0.035412338 -0.49963573 -0.01214667 -0.0028630313 0.9999221 9.315231e-05
-0.1343147 -0.033884682 -0.49944615 -0.012703169 -0.0030944659 0.99991453 0
-0.12722416 -0.036583222 -0.49936613 -0.012528514 -0.0035190834 0.99991536 1.9534891e-05
-0.11566033 -0.035448734 -0.49921861 -0.012641541 -0.0034282512 0.99991417 0.00016880198
-0.10507411 -0.035682715 -0.49909103 -0.012349341 -0.004259489 0.99991465 0.00011610935
-0.096579872 -0.033884875 -0.4989787 -0.012249812 -0.0043249195 0.9999156 0
-0.084172852 -0.034969889 -0.4988333 -0.012068974 -0.0050825141 0.99991429 8.6864427e-05
-0.075111151 -0.033436414 -0.49871549 -0.011763117 -0.0052611991 0.99991697 0
-0.066406943 -0.037532996 -0.49863133 -0.011316845 -0.0064105173 0.99991536 0
-0.056187935 -0.032091126 -0.49848104 -0.011193972 -0.006271143 0.99991769 0
-0.043616962 -0.034765057 -0.49836773 -0.010146606 -0.0079970043 0.99991655 6.5799992e-05
-0.032083713 -0.035694573 -0.49826357 -0.0081994208 -0.0096145328 0.99992013 0
-0.024844097 -0.037038248 -0.49822035 -0.007075035 -0.010649619 0.99991828 0
-0.012340098 -0.035125982 -0.49812308 -0.0033272365 -0.01169821 0.99992603 8.3315645e-05
-0.0040364186 -0.036888901 -0.49812213 -0.0012280764 -0.012203641 0.99992478 0.00015867215
0.00674571 -0.038596503 -0.49814907 0.0024479863 -0.012108667 0.99992365 1.551167e-05
0.018060792 -0.033838369 -0.49813628 0.0065467646 -0.010486397 0.99992359 0
0.022187363 -0.033885002 -0.49816543 0.0065514818 -0.010495064 0.99992347 2.2571934e-05
0.035472907 -0.034140255 -0.49828163 0.0084942421 -0.0088033015 0.9999252 9.4759889e-05
0.047227271 -0.035013512 -0.49840742 0.010149824 -0.0078375554 0.99991781 6.1744795e-05
0.053777508 -0.037977923 -0.49849957 0.010636224 -0.0075790202 0.99991477 0
0.067574516 -0.031907838 -0.4986161 0.011500556 -0.0054045762 0.99991924 0
0.076056547 -0.033999257 -0.49872977 0.011829942 -0.005452028 0.99991518 0
0.082256384 -0.033751614 -0.49880388 0.012010582 -0.0050422279 0.99991518 0.00011241414
0.095640779 -0.035698935 -0.49897641 0.012252541 -0.0044165063 0.99991518 3.5551871e-05
0.10487404 -0.033037398 -0.49907526 0.012467462 -0.0037705076 0.99991518 4.0209772e-05
0.11530358 -0.035954729 -0.49921703 0.01242335 -0.0037758176 0.99991572 0.0001009591
0.12328897 -0.034098346 -0.49930573 0.012641941 -0.003402024 0.99991435 0
0.13454987 -0.034298792 -0.49944994 0.012758635 -0.0033373642 0.99991298 0
0.14594164 -0.034002405 -0.4995963 0.0126426 -0.0028753576 0.99991596 0
0.15562482 -0.035737459 -0.49972561 -0.014104965 0.0038912471 0.99989295 0.00077499944
0.16506459 -0.033810701 -0.49984545 -0.085136026 0.012820291 0.99628687 0.003599114
0.17449427 -0.039753444 -0.49997869 -0.25354654 0.052639619 0.96588987 0.013249191
0.18382874 -0.033166114 -0.49725047 -0.40652695 0.082697168 0.90988845 0.020514527
0.19165003 -0.034107134 -0.49270499 -0.54186136 0.074248202 0.83718181 0.019317487
-0.19405457 -0.024191152 -0.4918294 0.66672295 0.083335251 0.74063188 0.013392845
-0.18548146 -0.026356548 -0.49707705 0.44539794 0.060370862 0.89329505 0.015362193
-0.17674868 -0.023924807 -0.49973655 0.2547684 0.03007753 0.9665342 0.014080594
-0.16355698 -0.021932419 -0.49980536 0.031344786 0.00050543674 0.9995085 0.00124144
-0.15385449 -0.024495313 -0.49968323 -0.011576384 -0.0020611405 0.99993086 8.9471403e-05
-0.14104626 -0.028767494 -0.49952346 -0.012855476 -0.0026460562 0.99991387 0.00013187023
-0.13501333 -0.027697746 -0.49944291 -0.012922693 -0.0025407951 0.99991328 0
-0.12184734 -0.027931985 -0.49927157 -0.012786962 -0.0029419607 0.99991387 0
-0.11403739 -0.021971559 -0.49915943 -0.012694786 -0.0024092603 0.99991649 0.00012543947
-0.10586436 -0.026608573 -0.49906236 -0.012656723 -0.0032093958 0.99991477 0.00024133227
-0.095959738 -0.024673862 -0.49893069 -0.012525517 -0.0030524649 0.99991685 0
-0.082372673 -0.026785612 -0.49877024 -0.012401791 -0.0042572096 0.99991411 0
-0.079432301 -0.024179699 -0.49872288 -0.012452845 -0.0037988506 0.99991524 0
-0.064510129 -0.024919217 -0.49854365 -0.012057832 -0.0047913501 0.99991584 0.0001436966
-0.055200916 -0.023864353 -0.49842516 -0.011432608 -0.0049681598 0.99992234 0
-0.044732928 -0.022401813 -0.49829057 -0.011322923 -0.0057361787 0.99991947 6.4002947e-05
-0.036015622 -0.024570204 -0.498207 -0.010411182 -0.0069006174 0.99992204 5.1897223e-05
-0.024543598 -0.025130108 -0.49809614 -0.0080124885 -0.0091655683 0.99992591 0
-0.014078186 -0.024472207 -0.49800885 -0.0054309927 -0.0099722464 0.99993551 0.00031178977
-0.0063461596 -0.025322944 -0.49797738 -0.0025016302 -0.011727753 0.99992806 0.00013089078
0.0049490076 -0.025776131 -0.49797872 0.0013500161 -0.011168517 0.99993676 3.3297423e-05
0.014453167 -0.024786476 -0.49801204 0.0059587182 -0.0097704316 0.99993449 3.3024004e-05
0.025315387 -0.024936721 -0.49810186 0.009145678 -0.0089550419 0.99991804 0
0.035751581 -0.025011398 -0.49820775 0.01063747 -0.0071032811 0.99991816 0
0.045142248 -0.021328911 -0.49829012 0.011113524 -0.0057942136 0.9999215 5.5923007e-05
0.056655273 -0.025384583 -0.49845049 0.011659845 -0.0052775429 0.99991816 0
0.065092713 -0.026065698 -0.49855649 0.012160283 -0.0047642444 0.99991471 0
0.076287515 -0.026604181 -0.49869534 0.012224386 -0.0042752787 0.99991614 0
0.083550923 -0.0247832 -0.49877641 0.012456111 -0.0036859789 0.9999156 0
0.096345425 -0.027939865 -0.49894592 0.012501433 -0.0037990247 0.99991471 0.00010745296
0.10413621 -0.024432573 -0.4990347 0.012636865 -0.0030977067 0.99991536 7.9824684e-05
0.11280037 -0.023629997 -0.49914613 0.01288318 -0.0028959089 0.9999128 7.8077937e-05
0.12270653 -0.025932226 -0.49927932 0.012876175 -0.0028112968 0.99991316 0
0.13547182 -0.024186002 -0.49944291 0.01290871 -0.0021284532 0.99991447 0
0.14604056 -0.023560023 -0.49957967 0.012309815 -0.0018721258 0.99992251 5.380746e-05
0.1557174 -0.02418625 -0.49970698 -0.00033678705 0.0025008912 0.99999684 0.0006708877
0.16543061 -0.024608308 -0.49983442 -0.090078391 0.018279474 0.99576694 0.0047626416
0.17556955 -0.025620343 -0.4998295 -0.19442154 0.045430787 0.97986543 0.010761164
0.18630116 -0.024188353 -0.49655929 -0.43992919 0.076303266 0.89478499 0.014095353
0.19256938 -0.02356822 -0.49303097 -0.56165618 0.070034496 0.82440132 0.019719379
-0.19450265 -0.014299649 -0.49252823 0.63083571 0.051238168 0.77422285 0.011543577
-0.18644282 -0.015038939 -0.4972429 0.4149951 0.048937708 0.90850651 0.013680293
-0.17800626 -0.015430589 -0.49993506 0.24256182 0.01691662 0.96998847 0.013650101
-0.16471624 -0.014545431 -0.4998078 0.036204297 0.0059792693 0.99932653 0.0012848065
-0.15469345 -0.017352212 -0.49968189 -0.011517621 -0.0011354102 0.99993306 3.6820118e-05
-0.14608042 -0.014377158 -0.49956441 -0.013110519 -0.0012173245 0.99991328 9.6997661e-05
-0.13194968 -0.014080766 -0.49937955 -0.013012957 -0.0011346646 0.99991465 0
-0.12705706 -0.015450036 -0.49931806 -0.012932744 -0.0013951156 0.99991542 0
-0.11813676 -0.010634819 -0.49919343 -0.013042309 -0.0010841276 0.99991441 1.5489859e-05
-0.10466767 -0.015270083 -0.49902564 -0.012963035 -0.0019458202 0.99991411 0
-0.09776926 -0.016625872 -0.49893799 -0.012812916 -0.0021475037 0.9999156 7.8380588e-05
-0.084729873 -0.015630523 -0.49876618 -0.01272282 -0.0022783526 0.99991649 0
-0.076223999 -0.015626209 -0.49865517 -0.012636808 -0.0028129355 0.9999162 0
-0.063542366 -0.014788333 -0.49848878 -0.012674654 -0.0028144966 0.99991572 8.0602484e-05
-0.054917514 -0.015607724 -0.49838501 -0.012392173 -0.0032987692 0.99991775 6.0974595e-05
-0.04961475 -0.016712625 -0.49832126 -0.012015363 -0.0039039752 0.99992019 0.00011053975
-0.037125781 -0.014230639 -0.49815691 -0.011559227 -0.0038720663 0.99992573 8.5357213e-05
-0.023876011 -0.013677032 -0.49799663 -0.010494875 -0.0049191145 0.99993283 2.0264244e-05
-0.017447982 -0.011743582 -0.49791098 -0.007921597 -0.0058286046 0.9999516 0
-0.0070863687 -0.014027716 -0.49784017 -0.0036039713 -0.0071587018 0.99996787 3.5382192e-05
0.0052182968 -0.014749738 -0.49784121 0.0026757354 -0.007652082 0.99996716 3.2638964e-05
0.011993855 -0.010938074 -0.49784675 0.0056874133 -0.0061631864 0.99996483 0
0.02400084 -0.016082067 -0.49801475 0.010077134 -0.0075768582 0.99992049 0
0.034756806 -0.012789047 -0.49812084 0.011646782 -0.0036624819 0.99992549 0.00015569464
0.041135833 -0.016387643 -0.49821654 0.011680099 -0.0055195163 0.99991655 7.3854935e-05
0.056586228 -0.012457863 -0.49839354 0.012546164 -0.0026477394 0.99991775 0.00015003038
0.066327117 -0.015990248 -0.49852672 0.012445007 -0.0032832187 0.99991721 0
0.074644804 -0.01456683 -0.49863276 0.012715643 -0.0026131049 0.99991584 0
0.083618186 -0.01691542 -0.49875391 0.012665449 -0.0026794143 0.9999162 0
0.099261276 -0.013936989 -0.49895287 0.012988723 -0.0014686126 0.99991453 4.4524841e-05
0.11567564 -0.013964028 -0.49916705 0.012803673 -0.001678577 0.99991655 0
0.12773348 -0.015044412 -0.4993262 0.012876763 -0.0015653935 0.99991578 0
0.13652849 -0.013677968 -0.49943858 0.012931206 -0.0011911155 0.99991572 2.0366924e-05
0.14449081 -0.014991466 -0.49954474 0.01313308 -0.0015476038 0.99991256 0.00021526404
0.1544335 -0.016283697 -0.49967661 0.01256016 -0.0013744306 0.99992019 0.00017796211
0.1653194 -0.014100309 -0.49981496 -0.067546114 0.0053726314 0.9977017 0.0038148365
0.1735879 -0.013443979 -0.49992168 -0.1245943 0.023506869 0.99192929 0.005589955
0.18652132 -0.013626598 -0.49728599 -0.41656992 0.058470912 0.90722138 0.015405876
0.19282871 -0.014319538 -0.49370509 -0.48953655 0.061693471 0.86979765 0.020713333
-0.19437817 -0.0058035385 -0.49337062 0.63798773 0.035330586 0.76923561 0.011570477
-0.18478923 -0.0044231755 -0.49856317 0.35478926 0.013625508 0.93484706 0.012380959
-0.17718701 -0.0089486158 -0.4999609 0.21962972 0.01601802 0.97545177 0.011557508
-0.16324364 -0.0059707579 -0.49977389 0.019387705 -0.0023655591 0.99980921 0.0006620927
-0.15298554 -0.0063408003 -0.4996407 -0.011929607 -1.3899203e-05 0.99992883 0
-0.14352362 -0.0074410555 -0.49951914 -0.01293025 -0.00078181428 0.99991608 0
-0.1359974 -0.0036563908 -0.49941444 -0.012856597 -0.00043355269 0.99991727 0
-0.12413546 -0.0077657537 -0.4992668 -0.013115739 -0.00093197636 0.99991357 9.2762049e-05
-0.11089551 -0.0055517554 -0.49909022 -0.013028008 -0.00029412462 0.99991506 0
-0.10588422 -0.007273382 -0.49902782 -0.01309252 -0.00098188664 0.99991381 0.00010113901
-0.098234139 -0.0043260385 -0.49892294 -0.012995593 -0.00080718606 0.99991524 5.3589371e-05
-0.080858007 -0.0024179197 -0.49869296 -0.013026088 -0.00028147103 0.99991512 4.6872128e-06
-0.073015831 -0.0057277745 -0.49859634 -0.013085192 -0.0011963506 0.99991369 0
-0.06183093 -0.0076725679 -0.49845377 -0.012906417 -0.0013155602 0.9999159 0
-0.055384852 -0.0049197078 -0.49836493 -0.012628993 -0.0012122119 0.99991947 0
-0.04733558 -0.001006772 -0.49825323 -0.012360839 -0.00028333021 0.99992353 0
-0.035871167 -0.0041867211 -0.49810958 -0.011673825 -0.001337881 0.99993092 0
-0.015544998 -0.0058351448 -0.49785393 -0.0075367521 -0.0038343763 0.99996424 0.00013338326
-0.00083584152 -0.0025812648 -0.49766952 0.00020442175 -0.0012825084 0.99999911 0.00016731644
0.0039356477 -0.004129665 -0.49771616 0.001834925 -0.0024313233 0.99999541 0.00020182536
0.01349951 -0.0062681069 -0.49783385 0.0072998572 -0.0049283719 0.99996126 6.3849235e-05
0.026049307 -0.0073407795 -0.49799097 0.011543456 -0.0038972946 0.99992579 3.5945279e-05
0.034532312 -0.0036981192 -0.49809083 0.011785411 -0.00056909485 0.99993038 0
0.045903839 -0.0061286581 -0.49824333 0.012217034 -0.0021007899 0.99992317 0.00023637073
0.063109681 -0.004705349 -0.49846536 0.012891246 -0.00085311552 0.99991655 1.0776749e-05
0.073737688 -0.0029772159 -0.49860105 0.012947284 -0.00092294795 0.99991578 0
0.085674718 -0.0046427948 -0.49875963 0.012889534 -0.00069620769 0.99991667 0.00015828834
0.096186563 -0.0063750204 -0.49889976 0.012986198 -0.0010191256 0.99991518 0
0.10571871 -0.0080258334 -0.49902692 0.012968908 -0.0011723146 0.99991524 3.2290172e-05
0.11733504 -0.0075756684 -0.49917769 0.012813401 -0.0008849763 0.99991757 0
0.12734182 -0.0033381626 -0.49930096 0.012993042 -0.00011669974 0.99991554 0.00012613356
0.13715465 -0.0065265256 -0.4994345 0.012954408 -0.00073764042 0.99991578 0
0.14314516 -0.004263219 -0.49950874 0.012964538 -0.00043884778 0.99991584 6.3135281e-05
0.15604129 -0.0073644277 -0.49968234 0.012610349 -0.00050863437 0.99992037 0
0.16543247 -0.0046239765 -0.49980015 -0.055326503 0.011993059 0.99839628 0.0029062962
0.17685094 -0.0055742851 -0.49995071 -0.1774826 0.015262515 0.98400557 0.007072472
0.18578404 -0.0037114373 -0.4981792 -0.37347296 0.0062366133 0.92762011 0.011735614
0.19143631 -0.0017751801 -0.49566114 -0.46858066 0.033486612 0.8827858 0.017235378
-0.1961329 0.0057132379 -0.49199933 0.67111337 -0.032531153 0.74064052 0.015347109
-0.18628757 0.0044725379 -0.49801493 0.35744545 0.002277242 0.93393129 0.011544568
-0.1760394 0.0055079032 -0.49994001 0.19208086 -0.014050893 0.98127854 0.01027179
-0.16321689 0.0062406943 -0.49977398 0.01754578 -0.0057382868 0.99982965 0.00085622346
-0.15527587 0.0045744735 -0.49966756 -0.012631166 -2.9978657e-06 0.99992025 4.2419153e-05
-0.14751676 0.0041609262 -0.4995656 -0.013076347 0.00029882585 0.99991453 0.00014991411
-0.13873291 0.0093676625 -0.49945992 -0.012954764 0.00082729862 0.99991578 0.00020176452
-0.12321469 0.0068273852 -0.49925315 -0.013087119 0.00047069631 0.99991423 0
-0.11431115 0.0067657596 -0.49913689 -0.012992471 0.00032209311 0.99991548 0.00016145747
-0.10249197 0.0046715708 -0.49897909 -0.013031161 0.00046949071 0.999915 5.5446122e-05
-0.098386854 0.0047778781 -0.49892569 -0.012961705 0.00063992006 0.99991578 0
-0.084306479 0.0052021481 -0.49874273 -0.012913475 0.00070425583 0.99991637 0
-0.075488076 0.0062416205 -0.49862948 -0.012883156 0.0015522627 0.99991584 8.119534e-06
-0.063024513 0.0041129682 -0.49846321 -0.012912713 0.00049998204 0.99991649 0
-0.055586688 0.0047197985 -0.49836722 -0.012511214 0.00049632497 0.99992162 0
-0.04675404 0.0011030388 -0.49824578 -0.01238735 6.7564564e-05 0.99992323 0
-0.032503668 0.0058329091 -0.498068 -0.012094097 0.0019832959 0.9999249 0
-0.023642695 0.0077310428 -0.49796113 -0.0100477 0.0044118832 0.9999398 7.5304306e-05
-0.016192388 0.0040353104 -0.49785632 -0.0085446974 0.0027462046 0.99995977 0.00016381491
-0.0029972382 0.0052209194 -0.49772048 -0.0019549211 0.0043718135 0.99998856 5.7454396e-05
0.0060904771 0.0059635653 -0.49775457 0.0022872079 0.004188918 0.99998862 8.9377761e-05
0.015673118 0.0042430921 -0.49784964 0.0086617032 0.0028081706 0.99995852 0
0.026037514 0.002770693 -0.49797839 0.011559063 0.00082925172 0.99993277 0
0.045389917 0.0042842263 -0.49823347 0.01248872 0.0010710341 0.99992144 0
0.054052789 0.0076461374 -0.49835223 0.012489437 0.0020130191 0.99992001 8.7530228e-05
0.065451279 0.0054722056 -0.49849719 0.012908123 0.0013117726 0.99991584 0.00018640175
0.074120581 0.005023384 -0.49860954 0.012900333 0.0011652788 0.99991614 0
0.081707031 0.0040956913 -0.49870691 0.013082906 0.00019493033 0.99991435 0
0.094464898 0.0080728829 -0.49888021 0.01295253 0.0013023901 0.9999153 0
0.10474633 0.0053055212 -0.49900958 0.013040361 0.00046216222 0.99991488 3.4441677e-05
0.11530044 0.0073494418 -0.49915075 0.013011262 0.00087822817 0.999915 0
0.12215546 0.0054945275 -0.49923703 0.013135146 0.00078234659 0.99991345 0.00015218493
0.13567251 0.0016189598 -0.49940673 0.012962448 0.00011101464 0.99991602 0
0.14375506 0.0037937702 -0.49951589 0.013109783 0.00032175172 0.99991405 0.00012036819
0.15519926 0.004522562 -0.49966648 0.012925035 0.00014607584 0.99991643 5.4399814e-05
0.16338213 0.0035803188 -0.4997716 -0.033536904 0.002921371 0.99943322 0.0013469605
0.17454083 0.0035796636 -0.49991718 -0.1604339 0.0064516286 0.98702556 0.0067962077
0.185591 0.0056892782 -0.49812546 -0.38286996 -0.012007237 0.92372423 0.011492403
0.19579509 0.0032111346 -0.4926405 -0.61162895 -0.020737953 0.79087293 0.013975412
-0.19406441 0.014003967 -0.49284083 0.59990901 -0.061135061 0.79772902 0.02188207
-0.1837579 0.014475224 -0.4984026 0.35239288 -0.046451285 0.93469858 0.014121193
-0.17179096 0.01747876 -0.49990514 0.16837062 -0.013295135 0.98563415 0.010507687
-0.16627643 0.013016974 -0.49982557 0.058787566 -0.00058368122 0.99827027 0.0033285613
-0.15304828 0.015042711 -0.49965644 -0.012668267 0.0011651051 0.99991906 0.00012947402
-0.14451399 0.013974276 -0.49954328 -0.013009221 0.0010733181 0.99991482 0.00010168239
-0.1330668 0.013246793 -0.49939269 -0.013065756 0.00098395173 0.99991417 0.00023212018
-0.12634249 0.013564141 -0.49930552 -0.013022142 0.0011291318 0.99991459 0
-0.11435558 0.015066708 -0.49915171 -0.012990212 0.0016215235 0.99991435 0.00023055813
-0.10830006 0.01145323 -0.4990665 -0.012884785 0.001250876 0.9999162 7.2369752e-05
-0.09439002 0.014415474 -0.4988901 -0.012920078 0.0022630177 0.99991393 0
-0.084621936 0.014885495 -0.4987635 -0.01278932 0.0025386247 0.999915 0
-0.073728383 0.016025765 -0.49862355 -0.012493016 0.0026886119 0.99991834 0
-0.064479992 0.013168004 -0.49849775 -0.012739665 0.002323407 0.99991614 2.1081354e-05
-0.055300031 0.012116143 -0.49837622 -0.012555008 0.0022145694 0.9999187 8.4958076e-05
-0.042716738 0.013046478 -0.49821892 -0.011959474 0.0039655734 0.99992061 0
-0.034490157 0.013461845 -0.49812132 -0.011265188 0.0045432658 0.99992621 0
-0.023535242 0.013850175 -0.49799612 -0.0098753711 0.0057468591 0.99993473 1.0122134e-06
-0.012530205 0.014654562 -0.49789017 -0.006669688 0.0069922167 0.99995333 0
-0.0044292631 0.017867614 -0.49787784 -0.0021849724 0.0099967513 0.99994767 7.8435136e-05
0.0053181769 0.016907061 -0.49786803 0.0021375886 0.0086418595 0.99996036 3.7153273e-05
0.013541463 0.013893555 -0.49789095 0.0072073974 0.0067863497 0.99995095 0.0001538167
0.023956677 0.014186025 -0.49800137 0.0097925467 0.0058035231 0.99993521 0
0.036889933 0.013453532 -0.49815035 0.011593577 0.0040009962 0.99992478 9.1387723e-05
0.043221094 0.015934531 -0.49823961 0.011759987 0.0037988427 0.99992371 0
0.053469911 0.015266794 -0.49836478 0.012283293 0.0034362993 0.99991864 0
0.063304365 0.014956735 -0.49848685 0.012559105 0.0029948123 0.99991667 0
0.074984923 0.014725236 -0.4986375 0.012811704 0.0025239289 0.99991477 0.00027915917
0.083996773 0.014558718 -0.49875477 0.012660044 0.0023982693 0.99991697 0.00016077758
0.098261699 0.013472114 -0.49893901 0.013054404 0.0016979808 0.99991333 4.3827269e-05
0.10502028 0.014191679 -0.49902841 0.012809916 0.0016496411 0.99991655 4.9046572e-05
0.1149018 0.016575187 -0.49916142 0.012902195 0.0020137508 0.99991477 0.00011251268
0.12582651 0.016137497 -0.49930319 0.013035321 0.0018334055 0.99991333 5.3170999e-05
0.13464633 0.01509732 -0.49941644 0.01304363 0.0012664389 0.99991411 6.9063673e-05
0.14360483 0.01566726 -0.49953434 0.013169857 0.0014865788 0.9999122 0
0.15324053 0.014582663 -0.49965814 0.012835829 0.0012287328 0.99991685 0.00029256335
0.16658935 0.01598376 -0.49983475 -0.064497381 -0.0061430116 0.997899 0.0038457559
0.17605607 0.013796184 -0.49993908 -0.24394214 -0.034916453 0.96916103 0.012466867
0.18481529 0.014360044 -0.49806118 -0.37346739 -0.042309586 0.926678 0.011775013
0.1944702 0.015042569 -0.49242702 -0.60970354 -0.058212664 0.79048902 0.019417558
-0.1927463 0.026094306 -0.49269381 0.61270487 -0.063842796 0.78772885 0.020116862
-0.18546584 0.023648344 -0.49723274 0.39452976 -0.052593179 0.91737676 0.01591688
-0.17500675 0.026600718 -0.49985009 0.21542412 -0.012187438 0.97644448 0.010916058
-0.16847241 0.027445976 -0.499879 0.11402123 -0.011837362 0.99340779 0.0058335843
-0.15600374 0.0230489 -0.49970877 0.0065588206 0.0032491342 0.99997324 0.00072502805
-0.14645998 0.025096655 -0.49958777 -0.012448963 0.0023127014 0.99991983 4.3367188e-05
-0.1262573 0.022760537 -0.49932021 -0.012986408 0.002349003 0.99991292 4.3668191e-05
-0.11373644 0.023987394 -0.49915895 -0.012753026 0.0026453182 0.99991512 0
-0.10702272 0.020127211 -0.49906474 -0.012664839 0.0023934352 0.99991697 0
-0.094041944 0.027628893 -0.49891874 -0.012631401 0.0037702662 0.9999131 1.9956144e-05
-0.084239267 0.026104594 -0.49878946 -0.012474863 0.0038054688 0.99991488 0
-0.076489396 0.025373697 -0.49869159 -0.012223227 0.0040863906 0.99991691 0
-0.06299825 0.025153387 -0.49852648 -0.012008298 0.0049048206 0.99991584 0
-0.055550415 0.021179477 -0.49841592 -0.01178084 0.0046215318 0.99991995 0
-0.045249835 0.024650747 -0.49830976 -0.011298154 0.0061095622 0.99991745 0
-0.033502635 0.024227114 -0.49817801 -0.010373682 0.0067762588 0.99992323 0
-0.024628513 0.02476947 -0.49809253 -0.0080086263 0.0095459325 0.99992234 0.00014064866
-0.01654461 0.02419351 -0.49801904 -0.0068684267 0.010077707 0.99992573 6.5441658e-05
-0.0020144454 0.025196148 -0.49796608 -0.0011399999 0.010911408 0.9999398 6.3255087e-05
0.0030987829 0.028964596 -0.49801716 0.001217613 0.011781705 0.9999299 0
0.017519766 0.026181245 -0.49804768 0.0070322286 0.010290841 0.99992234 0.00017730547
0.028196517 0.0239137 -0.49811986 0.0096159652 0.0079786191 0.99992186 4.484618e-05
0.034267809 0.024919271 -0.49819201 0.010386095 0.007265693 0.99991965 0
0.045388505 0.025268098 -0.49831486 0.011031112 0.0065738298 0.99991751 0.00012004317
0.055776816 0.02345749 -0.49843013 0.012067207 0.0047352486 0.99991602 0
0.060974967 0.026807934 -0.49851021 0.011659103 0.0056074131 0.99991632 4.4943317e-05
0.075996116 0.023012169 -0.49867371 0.012438803 0.0035571882 0.99991632 0.0002159163
0.086046286 0.024403984 -0.49880362 0.012507391 0.0034398346 0.99991584 0.00012015876
0.094901986 0.024557913 -0.49891782 0.012581887 0.0034218908 0.999915 2.5636971e-05
0.10540106 0.023786295 -0.49905053 0.012819795 0.0031909982 0.99991274 0
0.11108184 0.022758203 -0.49912223 0.012819066 0.0031361817 0.99991298 8.8601621e-05
0.12613484 0.024911242 -0.4993223 0.012838633 0.0027687291 0.99991369 8.7066852e-05
0.13349697 0.024665637 -0.4994179 0.012981886 0.0023382406 0.99991298 0.00029717965
0.14456645 0.023643341 -0.49956059 0.012909876 0.0019850649 0.99991471 0
0.15648115 0.024518393 -0.4997175 0.0012202422 0.0021172164 0.99999702 0.00032702266
0.16558012 0.026170544 -0.49983907 -0.083305545 -0.020840427 0.99630606 0.0049139494
0.1759145 0.023143556 -0.49993825 -0.25141332 -0.042086326 0.96696442 0.010907646
0.18373017 0.023673706 -0.49801236 -0.3416371 -0.069584012 0.9372524 0.013339248
-0.19325542 0.036097609 -0.491229 0.61592996 -0.086496986 0.78303808 0.021387838
-0.18438293 0.035476241 -0.49700436 0.43619269 -0.045527939 0.89870077 0.011764703
-0.1735322 0.035192557 -0.49995828 0.21081398 -0.023486326 0.97724402 0.012504607
-0.16400392 0.038323972 -0.4998394 0.078588285 -0.017294915 0.99675715 0.0047169654
-0.1545812 0.032649718 -0.49970669 -0.012245716 0.0025594556 0.99992174 9.8796867e-05
-0.14481868 0.034761678 -0.49958298 -0.012456618 0.0031141795 0.99991757 0
-0.13502529 0.036003109 -0.49946219 -0.012633406 0.003147091 0.99991524 0
-0.12504242 0.036826737 -0.49933952 -0.012543811 0.0037102245 0.99991447 0.00010789815
-0.11737269 0.039100058 -0.49925774 -0.012279656 0.0040878258 0.99991626 4.4964803e-05
-0.1052328 0.035362866 -0.49909133 -0.012214474 0.0042282222 0.99991643 0
-0.095351309 0.033857524 -0.49896365 -0.012489883 0.0040749428 0.99991369 5.5498472e-06
-0.08493349 0.036915671 -0.49885234 -0.011956088 0.0053561479 0.99991417 0
-0.070318229 0.030935664 -0.49864459 -0.01178674 0.0051425318 0.99991727 0
-0.066816643 0.034851622 -0.49862248 -0.011416615 0.005965319 0.99991703 0
-0.057048526 0.035488814 -0.49851474 -0.011163207 0.0064985165 0.99991655 0
-0.043186467 0.034615684 -0.49836206 -0.010014438 0.0081613353 0.99991655 1.0954069e-05
-0.033554878 0.036236864 -0.49828228 -0.0083036749 0.0095149782 0.99992025 0
-0.026898248 0.036506921 -0.49823049 -0.0075551705 0.010160292 0.99991989 0
-0.013262722 0.03383657 -0.49811205 -0.0054274434 0.01105931 0.99992412 0.00018202701
-0.0080711283 0.030642986 -0.4980481 -0.0029037143 0.011434732 0.99993038 5.627218e-05
0.0065961522 0.037585903 -0.49813563 0.0022032207 0.011909467 0.99992669 0
0.018073637 0.03004949 -0.49809241 0.0065251035 0.010491543 0.99992371 0.00015761648
0.035372864 0.033789828 -0.49827605 0.0090580387 0.0091726584 0.99991691 0
0.048673786 0.034943584 -0.498422 0.010567918 0.0072304644 0.99991804 0
0.055223327 0.034153566 -0.49848595 0.011152155 0.0065686689 0.9999162 4.1892599e-05
0.068701118 0.035635706 -0.49864858 0.011393492 0.0061305659 0.99991632 0
0.075510092 0.033548683 -0.49872085 0.011561027 0.0053389426 0.99991888 5.2499247e-05
0.085991003 0.036760487 -0.49886444 0.012071269 0.0049537951 0.99991482 0
0.094702348 0.033601567 -0.49895442 0.012477369 0.0041671507 0.99991345 1.8016952e-05
0.10551933 0.03808007 -0.49910852 0.012350992 0.0044185235 0.99991393 0
0.11711276 0.036668971 -0.49924234 0.01251454 0.0038023037 0.99991447 0.00012111381
0.12537 0.034257412 -0.49933434 0.012604449 0.0033670911 0.99991488 0.00012958189
0.13520288 0.033258062 -0.49945492 0.012570883 0.0032751991 0.99991566 4.6419107e-05
0.14535666 0.033062667 -0.49958706 0.012585154 0.0029291734 0.99991649 0.0001390895
0.15767208 0.03463902 -0.49975047 -0.018215891 -0.00030126737 0.999834 0.00098864769
0.16463633 0.037850108 -0.49984679 -0.10568472 -0.015045743 0.99428588 0.0063027563
0.17456132 0.032866929 -0.49993432 -0.23678479 -0.047540445 0.97039831 0.013706451
0.18524271 0.034457762 -0.49654144 -0.43364125 -0.079931274 0.89753342 0.016027316
0.19303401 0.033660948 -0.49172184 -0.55268198 -0.077219546 0.8298071 0.018022636
-0.19163209 0.045777947 -0.49156889 0.57386613 -0.14300108 0.8063674 0.018823544
-0.18403733 0.047415376 -0.49628556 0.47336051 -0.13672763 0.87019277 0.017763563
-0.17188276 0.042483475 -0.49994931 0.22490938 -0.037834857 0.97364485 0.012063907
-0.16628373 0.04639722 -0.49989152 0.10611661 -0.028130254 0.99395573 0.0051618298
-0.15646145 0.046501078 -0.49977019 0.031505581 -0.0091568977 0.99946159 0.0013956447
-0.14536169 0.046173669 -0.49963364 -0.012525037 0.004165987 0.99991292 0
-0.13271137 0.045857549 -0.49947822 -0.012350754 0.0044875923 0.99991363 6.7381996e-05
-0.12376449 0.047761533 -0.49937904 -0.012108933 0.0048619159 0.99991488 0
-0.10605796 0.046228755 -0.49915606 -0.011893538 0.0053876163 0.99991477 0
-0.095575266 0.043232184 -0.49901354 -0.011966142 0.0051807575 0.999915 2.341641e-06
-0.085001402 0.04491758 -0.49889502 -0.011305592 0.0064011691 0.99991554 0
-0.074142419 0.04693941 -0.49878398 -0.011076787 0.0068162028 0.99991542 0
-0.065119199 0.045498703 -0.49867821 -0.010622818 0.0073314202 0.99991667 0
-0.055513781 0.045029733 -0.4985742 -0.010010598 0.0081980126 0.99991632 5.0194365e-05
-0.044113073 0.045397472 -0.49846223 -0.0094831614 0.0090786088 0.99991381 0
-0.037269548 0.043164235 -0.49838307 -0.0082781129 0.0096873101 0.99991882 0.00015952875
-0.022589918 0.041478161 -0.49825296 -0.0057921652 0.01133079 0.99991906 0
-0.01331246 0.044849664 -0.49824634 -0.0033381786 0.012276639 0.99991912 1.8062143e-05
-0.0073802946 0.045619138 -0.49824175 -0.0024240438 0.012425247 0.99991983 0
0.002733781 0.04359147 -0.49820733 0.0011427838 0.012829792 0.99991709 9.3367686e-05
0.015892254 0.048498631 -0.49830353 0.0040532267 0.011824579 0.99992186 0
0.027000386 0.044638094 -0.49831989 0.0068368348 0.010763052 0.9999187 8.8160319e-05
0.03260272 0.044548351 -0.49836013 0.007070302 0.010631581 0.99991852 2.3783066e-05
0.044283908 0.047253083 -0.49848613 0.0085290456 0.0093887784 0.99991959 0
0.054467153 0.043927029 -0.49855447 0.0098308781 0.0082872827 0.99991733 0
0.064665414 0.044294298 -0.49866381 0.010744303 0.0073625599 0.99991524 0
0.074812919 0.043239452 -0.4987672 0.011156148 0.0066969167 0.99991536 0
0.082953744 0.044832807 -0.49886814 0.011467337 0.0062746285 0.99991453 6.432768e-05
0.096149445 0.043989044 -0.4990243 0.011849859 0.005456361 0.99991488 3.133608e-05
0.10646567 0.046400182 -0.4991619 0.011946521 0.0051734643 0.99991524 0.00016746671
0.11630509 0.045806445 -0.49927852 0.012073707 0.0046722675 0.99991626 0
0.12302291 0.045288939 -0.49935761 0.012236299 0.0042523784 0.99991608 0
0.13643652 0.049059581 -0.49953964 0.012281405 0.0044992082 0.99991447 0.00017297968
0.14671652 0.044039696 -0.49963933 0.010498753 0.0029012137 0.99994069 4.3482996e-05
0.1558807 0.044695515 -0.49975529 -0.029891431 -0.022361169 0.99930292 0.0018055125
0.16387016 0.045613173 -0.49985623 -0.10597198 -0.038605317 0.99361944 0.0056635733
0.17303944 0.046553813 -0.49978715 -0.24565963 -0.066492088 0.96707302 0.012636008
0.18697023 0.045740105 -0.49475569 -0.51527077 -0.10142369 0.85100484 0.01536788
0.19216481 0.042238891 -0.4915266 -0.55988753 -0.12504697 0.81907833 0.016435174
-0.18282081 0.051668376 -0.49647367 0.44429356 -0.12733494 0.88678575 0.013844645
-0.17337555 0.057942428 -0.49910295 0.30122551 -0.10919923 0.94727963 0.014928962
-0.16465493 0.053768318 -0.49990639 0.14125651 -0.061447199 0.98806417 0.0074035074
-0.15280432 0.056539819 -0.4997763 0.0036683457 -0.0033368384 0.99998772 0.00057074561
-0.14398742 0.054114707 -0.49965689 -0.0064753243 0.0020609694 0.99997687 0.00014744677
