# .PCD v0.7 - Point Cloud Data file format
VERSION 0.7
FIELDS x y z normal_x normal_y normal_z curvature
SIZE 4 4 4 4 4 4 4
TYPE F F F F F F F
COUNT 1 1 1 1 1 1 1
WIDTH 582
HEIGHT 1
VIEWPOINT 0 0 0 1 0 0 0
POINTS 582
DATA ascii
0.0045150705 0.050767474 0.27715084 0.13688704 -0.82971811 -0.54113746 0.23099369
0.012300489 0.050345063 0.27047366 -0.31429565 -0.87995273 -0.35623232 0.19522689
0.043950159 0.055220287 0.27716947 -0.61448902 -0.78865379 0.020697394 0.19918095
0.050100844 0.05087135 0.27358752 -0.66259557 -0.74814534 -0.035291564 0.19709781
-0.036871709 0.060445845 0.27915975 0.38495672 -0.92139363 -0.053311996 0.17403722
-0.022510774 0.067331187 0.2740503 0.310114 -0.94488627 -0.10497252 0.17017135
0.017126366 0.068840675 0.27810982 -0.20174015 -0.97146058 -0.12476075 0.17939809
0.025537616 0.06599962 0.27492657 -0.39444923 -0.90005112 -0.18525057 0.15223818
0.035335444 0.06160748 0.2763488 -0.57624501 -0.81457698 -0.066377386 0.15579553
-0.0061263796 0.070440754 0.27627543 0.055626012 -0.98297614 -0.17511064 0.20532551
0.0013203202 0.071035013 0.27674034 0.062871434 -0.98183066 -0.17904103 0.19133475
0.011442905 0.070156276 0.27125785 -0.18931845 -0.94944614 -0.25042081 0.15894412
-0.035533734 -0.061121903 0.28254867 0.26360464 0.95557284 0.13188277 0.17898621
-0.02353739 -0.065911971 0.28503484 0.24935573 0.95700794 0.14818099 0.18851346
-0.011313451 -0.069189347 0.2831426 -0.02965905 0.99943644 -0.01571827 0.20082337
-0.0055757761 -0.069954321 0.28302687 0.098812409 0.99509782 -0.0040675509 0.21924198
0.0038684825 -0.069936395 0.28569919 0.12987296 0.99092621 -0.034615334 0.17842728
0.017287193 -0.068412811 0.28287327 -0.12601875 0.99160749 -0.028877607 0.18370354
0.024241922 -0.065702498 0.28431115 -0.33701849 0.94111007 -0.027025601 0.2020411
0.033949599 -0.061448913 0.28481749 -0.54805082 0.82020724 0.16401355 0.18175896
-0.042249821 -0.055521809 0.28673893 0.47965643 0.87416792 0.075896248 0.17794982
-0.039029531 -0.057780668 0.28855667 0.52767563 0.8464514 0.071262211 0.16397725
-0.0051972433 -0.050268531 0.28168502 0.1337308 0.96315467 -0.23334362 0.2285074
0.0031672474 -0.050458439 0.28254235 0.037279688 0.95719498 -0.28703302 0.2255605
0.03738261 -0.059859514 0.28103825 -0.56102395 0.82772863 0.010841467 0.18621746
0.043367278 -0.054768786 0.28571478 -0.66861904 0.72647113 0.15870802 0.14022562
-0.053829953 -0.045337215 0.28032082 0.77771032 0.62213326 -0.090094186 0.16383928
-0.026418438 -0.042867634 0.2829605 0.28314662 0.94119191 -0.18435198 0.22636315
-0.013310444 -0.048651401 0.28408432 0.0029557508 0.99902397 0.044071976 0.218032
-0.0084490925 -0.049859192 0.2814768 0.35321924 0.911461 -0.21089087 0.22437221
0.006645699 -0.049700905 0.28586209 -0.013049054 0.97834337 -0.20657696 0.22787786
0.024030346 -0.044387244 0.28424296 -0.42230687 0.83650243 -0.34917119 0.2128306
0.05465509 -0.043508321 0.28584838 -0.82945424 0.55700594 0.041833241 0.1887853
-0.062330864 -0.031810973 0.2868118 0.74743354 0.66415215 0.015653132 0.18945147
-0.058299161 -0.038890716 0.28493404 0.86936557 0.49389169 -0.016568027 0.15801458
-0.034953404 -0.03581515 0.28519204 0.6599108 0.69472027 -0.2861495 0.22790943
0.035101272 -0.036118139 0.28293654 -0.81968367 0.57018775 -0.054814581 0.20473883
0.062092658 -0.032568514 0.28590927 -0.81117266 0.58246374 0.052296415 0.17199467
-0.067075491 -0.021062193 0.28368175 0.95355564 0.30117279 0.00515611 0.19125676
-0.043577973 -0.025441678 0.28381222 0.78281081 0.49863401 -0.37225178 0.21110331
0.044072714 -0.024290698 0.28526589 -0.78662014 0.47991091 -0.38847664 0.22870024
0.06654799 -0.022308825 0.28380722 -0.92685717 0.33250752 -0.17428266 0.17613336
-0.068006344 -0.016694888 0.28851941 0.9864797 0.084696606 -0.14030084 0.2182088
-0.047216546 -0.01688531 0.28652152 0.88890475 0.27904481 -0.36329374 0.21506037
0.047816869 -0.015446737 0.285402 -0.80518889 0.39334005 -0.44379562 0.21321373
0.068338826 -0.014585728 0.28659034 -0.94505805 0.20638691 -0.25351489 0.19209702
-0.070090823 -0.0011793383 0.28807801 0.99146605 -0.046688635 -0.1217178 0.17420346
-0.050577249 -0.0023789073 0.28237545 0.98215127 -0.021653971 -0.18684222 0.20326796
0.04988566 -0.0039568963 0.2877374 -0.8459655 0.20481277 -0.49233547 0.21062803
0.050384641 -0.00087928696 0.28669775 -0.93563068 0.039973531 -0.35070971 0.22455204
0.06961745 -0.0068908944 0.28494644 -0.97193247 0.13372409 -0.19355914 0.19635262
0.070200756 -0.0019262087 0.28585297 -0.96226734 0.14620049 -0.22949305 0.16931061
-0.050363105 0.0035395699 0.28305522 0.96307391 -0.13314693 -0.23400968 0.21496783
-0.049736179 0.0076932721 0.28394246 0.98487765 0.049639419 -0.16598815 0.21689451
0.049502112 0.0072662914 0.28715962 -0.90817672 -0.023219487 -0.41794237 0.22886941
0.050182752 0.0029262565 0.2859486 -0.91886902 0.1761504 -0.35305917 0.20780376
0.069301724 0.0058591589 0.28990293 -0.96587515 -0.096735775 -0.24026535 0.16158712
0.070656762 0.0013589944 0.28124738 -0.99140406 0.064104758 -0.11405518 0.17954519
-0.068826936 0.014532977 0.28239959 0.97333533 -0.11126389 -0.200596 0.20781659
-0.046683021 0.019199511 0.28213212 0.93915731 -0.25241795 -0.23295654 0.20549048
0.06854248 0.013255501 0.28760296 -0.97481769 -0.12213925 -0.18658133 0.18969937
-0.065485485 0.024888242 0.28358808 0.9206534 -0.39028448 -0.0086808857 0.19058172
-0.044657335 0.023779165 0.28314674 0.93797219 -0.25505805 -0.23484789 0.19894619
0.044634283 0.023896776 0.28319657 -0.85054529 -0.48454559 -0.20442171 0.22230829
0.064628445 0.026869537 0.28414941 -0.94639379 -0.32222444 -0.022590037 0.15860635
-0.034598719 0.036356676 0.28656426 0.83391804 -0.5028829 -0.2273531 0.22655496
0.034752466 0.036459241 0.28472355 -0.61477333 -0.77555543 -0.1434136 0.23234615
0.059410784 0.037774689 0.28246722 -0.80390829 -0.59377074 -0.034172323 0.16238162
0.061273187 0.0354729 0.2815378 -0.79210478 -0.60655349 -0.068284601 0.14913365
-0.053342938 0.045071963 0.28673083 0.81703669 -0.56556582 -0.11218861 0.17592429
-0.024173182 0.044347867 0.2837902 0.40052488 -0.88785815 -0.2264678 0.21833497
-0.017410427 0.047210976 0.28433272 0.21888153 -0.92446607 -0.31217527 0.19492283
-0.0045361505 0.049640436 0.28960931 0.34330338 -0.7551986 -0.55840653 0.21234402
0.007532605 0.049388342 0.28803143 -0.099339679 -0.85464787 -0.50961614 0.21071886
0.016158022 0.047835443 0.28324142 -0.11057257 -0.98205799 -0.15276109 0.22900352
0.025379026 0.043421872 0.28259587 -0.50484759 -0.6616919 -0.55433995 0.21598135
0.030021455 0.040362373 0.28413635 -0.57372051 -0.72327793 -0.38433546 0.23163964
0.049868941 0.049415622 0.28806865 -0.70001727 -0.71089435 0.067860201 0.17536338
0.053560983 0.045221481 0.28367731 -0.6714049 -0.73563653 0.089745484 0.16669232
-0.044762988 0.053532481 0.28722167 0.49771804 -0.86555821 0.055548847 0.17755632
-0.039166927 0.058048997 0.28521395 0.39016593 -0.91820008 -0.068405211 0.15799138
-0.0033616964 0.050376002 0.28317156 0.18786246 -0.86465323 -0.46592113 0.20330538
0.0055023665 0.050316431 0.28070867 -0.16963036 -0.97800815 -0.12134928 0.24988051
0.038760845 0.058410335 0.28482211 -0.52949762 -0.84513706 0.073318258 0.16371226
0.044242531 0.054036535 0.2862156 -0.52761167 -0.83488476 0.15682283 0.14844185
-0.034169268 0.061669372 0.28342175 0.31539938 -0.94455963 -0.091270573 0.17974758
-0.025539966 0.064958386 0.28636181 0.28415686 -0.95521122 -0.082622774 0.16725847
-0.014472909 0.068837799 0.28236365 0.11088568 -0.97723883 -0.18085515 0.18560529
-0.0046450659 0.069664516 0.28776228 0.20933363 -0.97135055 -0.11250564 0.1961078
0.012648866 0.069063842 0.28253409 -0.23564234 -0.95338947 -0.18847087 0.18973413
0.023684196 0.065544032 0.2883628 -0.30738828 -0.95131868 0.022474583 0.16114381
0.03315641 0.062057704 0.28375041 -0.49810711 -0.86673373 -0.025727723 0.1723455
0.0043574502 0.070218399 0.28177378 0.04329998 -0.97156441 -0.23278223 0.17406026
-0.032645147 -0.060871053 0.29780996 0.58237714 0.81215149 0.035311736 0.18156481
-0.025971267 -0.063866422 0.29554021 0.28817847 0.94809419 0.13442686 0.18156892
-0.014486265 -0.067657523 0.2951473 0.026714398 0.99085146 0.13228649 0.19268718
-0.0048619821 -0.068721637 0.29740566 0.088591032 0.99464047 0.053309891 0.16675264
0.0065599778 -0.06867712 0.29551771 0.0032715965 0.99669957 0.081111573 0.18137093
0.016877927 -0.066994756 0.29849425 -0.21446119 0.96588373 -0.1451726 0.16675687
0.025708137 -0.063926108 0.2960251 -0.39364046 0.90928555 -0.13508144 0.20076972
0.031285539 -0.061663855 0.29555336 -0.41857803 0.90608311 -0.061690636 0.1753855
-0.042701613 -0.054338429 0.29382753 0.66162306 0.74197537 -0.10829359 0.19286083
-0.035968825 -0.05878184 0.29992756 0.54070753 0.84040725 0.036756143 0.17551167
0.039159387 -0.056929231 0.2949014 -0.64635521 0.75675249 -0.09772779 0.19607155
0.042993963 -0.05396758 0.29506427 -0.61926991 0.7778511 -0.10701647 0.17890196
-0.051317401 -0.046448261 0.29506069 0.76870501 0.63942426 0.0151377 0.18902251
-0.025568986 -0.042299677 0.29487848 0.20526946 0.78622985 -0.58284402 0.26479873
-0.015828483 -0.046525933 0.29796731 -0.0010116925 0.82298118 -0.56806761 0.26051748
-0.0049870955 -0.049131155 0.29459551 0.22153212 0.76313514 -0.60708183 0.27551603
0.0061787856 -0.049064234 0.29359856 0.15730801 0.80268306 -0.57528615 0.24313721
0.017936468 -0.045589171 0.29883027 0.10620834 0.67440569 -0.73068243 0.27329499
0.024374744 -0.042623471 0.29886213 -0.31292489 0.71824324 -0.62145358 0.27171567
0.04892318 -0.048870612 0.29958019 -0.71068799 0.70172352 0.050067917 0.18578422
0.053442556 -0.043768775 0.29447779 -0.73495644 0.65575832 -0.17268489 0.19769131
-0.059370786 -0.036422059 0.29202226 0.83034015 0.52042639 -0.19922763 0.16624996
-0.036838125 -0.032849506 0.29614511 0.49239737 0.69645822 -0.52200645 0.27505621
-0.029411629 -0.039716706 0.29401147 0.66013223 0.60641205 -0.44327173 0.25813931
0.029389746 -0.039668694 0.29458603 -0.47360975 0.776568 -0.41549474 0.24353021
0.034593545 -0.035449326 0.29341209 -0.75814593 0.43251511 -0.48800153 0.23343089
0.057647105 -0.0379549 0.29664323 -0.83356392 0.54273051 -0.10302889 0.18766822
0.061397485 -0.0326728 0.29252416 -0.86358154 0.5038904 0.017929368 0.15410464
-0.062923849 -0.028995704 0.29249161 0.87133712 0.47517952 -0.12237673 0.1834356
-0.042821445 -0.024914276 0.29578802 0.7841574 0.26389498 -0.56165528 0.24525082
0.038929328 -0.029976761 0.29714832 -0.74852091 0.32391331 -0.57861608 0.27249914
0.042665407 -0.024611881 0.29619372 -0.86544639 0.31118286 -0.39264199 0.23611253
0.063840762 -0.026061576 0.29542506 -0.95437574 0.23342384 -0.18622619 0.17490886
-0.067806296 -0.013910607 0.29449499 0.94174379 0.22654913 -0.24858448 0.18600512
-0.04635343 -0.01657545 0.29562482 0.69957727 0.31516206 -0.64129901 0.24842051
0.04700841 -0.015431007 0.29331607 -0.81835085 0.32584751 -0.47341877 0.26003608
0.067251533 -0.015894767 0.29525089 -0.95619619 0.059130918 -0.28669211 0.1925167
-0.069789335 -0.00047388664 0.29223716 0.99570572 0.076280437 0.052453849 0.17078008
-0.049226165 -0.0046823528 0.29398698 0.87634867 0.13854046 -0.46132371 0.25489423
0.049497593 -0.0027938874 0.2937344 -0.67902011 0.042996779 -0.73285943 0.2164029
0.06884753 -0.005624563 0.29501882 -0.96352994 0.086954124 -0.25307894 0.16717973
-0.069164462 0.0017738963 0.29702234 0.99331915 -0.11323403 -0.022252232 0.193785
-0.050007172 7.3979776e-05 0.29205543 0.86332816 -0.025049459 -0.50402087 0.22854745
-0.049360458 0.0035548459 0.29414368 0.59894687 -0.15718824 -0.78520989 0.21631275
0.049236581 0.002794029 0.29662657 -0.68560654 0.19306803 -0.70190346 0.22267115
0.068584546 0.0065477295 0.2965104 -0.97586894 -0.0070158597 -0.21824455 0.17392184
-0.067208245 0.014921919 0.29939795 0.96395481 -0.25954476 0.05854648 0.21069628
-0.047179677 0.014985603 0.29452386 0.67145872 -0.57185906 -0.47129658 0.243719
0.046489649 0.017178632 0.29277319 -0.71193069 -0.34644997 -0.61084127 0.25660473
0.067404345 0.015848102 0.29539469 -0.98603272 -0.14630497 -0.079588383 0.16647929
-0.064648218 0.024705822 0.29300779 0.96003711 -0.27950004 -0.014441562 0.16055253
-0.041554138 0.026781162 0.29561603 0.56957072 -0.23249178 -0.78837603 0.24007311
0.040926948 0.026965775 0.29992142 -0.74855083 -0.17550515 -0.63942915 0.2522645
0.065086134 0.023581587 0.29328084 -0.97050416 -0.20808254 -0.12175082 0.15161814
-0.05781123 0.038396977 0.29239452 0.88198227 -0.46599889 -0.070372134 0.15413049
-0.033352625 0.036424659 0.29545149 0.69196516 -0.1931618 -0.69560963 0.25618342
0.034522541 0.035087086 0.29449978 -0.39364594 -0.83687878 -0.380364 0.22760794
0.058709782 0.037207894 0.29251194 -0.82905924 -0.52427173 -0.19442213 0.16752799
0.06133448 0.03228854 0.29470727 -0.8660233 -0.49265215 -0.085425273 0.16964015
-0.053136416 0.044045243 0.29527014 0.8693459 -0.49137425 -0.052810352 0.1682124
-0.049414214 0.048568573 0.29739109 0.73639488 -0.66541886 -0.12223056 0.19379663
-0.024790354 0.042876057 0.29744002 0.029470697 -0.79157835 -0.61035663 0.23438331
-0.018416848 0.045414682 0.2985771 0.025206776 -0.90067381 -0.43376401 0.23798589
-0.0024011878 0.049475953 0.29454684 0.15755549 -0.76999271 -0.618294 0.24864188
0.008083676 0.048732992 0.29448968 -0.0052511939 -0.72929513 -0.68417919 0.24470329
0.01397108 0.047516085 0.29589337 -0.28508174 -0.75645071 -0.58865154 0.23833382
0.028119305 0.041018449 0.29126135 -0.35769466 -0.91471678 -0.18800955 0.22740892
0.054446481 0.042667843 0.29313412 -0.78488028 -0.61670226 -0.060343698 0.16032602
-0.045657579 0.052062772 0.29388976 0.52821314 -0.83473366 -0.1555974 0.18993579
-0.038296483 0.057621747 0.2946443 0.42520958 -0.90416348 -0.04105268 0.16434635
0.03618446 0.05867039 0.29947162 -0.58028775 -0.80475461 -0.12504466 0.19990689
0.0420596 0.054780439 0.29425436 -0.47934607 -0.84394497 -0.24079931 0.1856419
-0.025875686 0.064115115 0.29348469 0.26698449 -0.942029 -0.20322563 0.18920915
-0.014052038 0.067859299 0.29373935 0.21029238 -0.97188866 -0.10587529 0.18552357
-0.0017210217 0.069349818 0.29514116 0.11183298 -0.97273082 -0.20319484 0.18709217
0.0050212592 0.069345459 0.29060471 -0.10132043 -0.98290348 -0.15373644 0.19714577
0.014478672 0.067445949 0.29750627 -0.066335835 -0.98665732 -0.14868382 0.18003055
0.02394616 0.064357594 0.2989563 -0.29730755 -0.94354534 -0.14604969 0.19497952
0.033078529 0.061216399 0.29265124 -0.3945336 -0.91859454 -0.022963598 0.17887872
-0.031087831 -0.060609311 0.30672178 0.44943255 0.86582345 -0.21990931 0.18093529
-0.024294876 -0.063721806 0.30378574 0.35340992 0.92725646 -0.12368032 0.17727895
-0.015885977 -0.066770799 0.30267331 0.09616366 0.98793364 -0.12140702 0.16353565
-0.0082069859 -0.067838863 0.30207112 0.073441394 0.99660462 0.037223876 0.16756341
0.0078024319 -0.067997992 0.30095479 -0.21797167 0.97581863 -0.016319534 0.16499114
0.016595889 -0.066349141 0.30520865 -0.23707512 0.96077281 -0.14391366 0.19512689
0.021203719 -0.064740837 0.30635452 -0.39715356 0.90021461 -0.17855676 0.19589786
0.030583223 -0.06051261 0.30972654 -0.38396814 0.87563527 -0.29296979 0.18567961
-0.040994488 -0.054499228 0.30352521 0.63944066 0.76012725 -0.11542147 0.16927807
-0.031863198 -0.059992131 0.3096309 0.42699733 0.88920361 -0.16428727 0.18439254
0.043368395 -0.052640308 0.30384067 -0.51340282 0.84226131 -0.16435759 0.22154437
-0.05119165 -0.045322195 0.30341399 0.73582679 0.60291654 -0.30830255 0.20998137
-0.048151895 -0.048316047 0.30773485 0.78304076 0.61785066 -0.071468614 0.17681268
-0.023345515 -0.04257331 0.30463415 0.2189462 0.22185253 -0.95018101 0.27428049
-0.014494354 -0.045409191 0.30303648 -0.2048308 0.57549268 -0.79174006 0.30053887
0.005481991 -0.046579078 0.30645928 -0.14703883 0.98393327 -0.10126644 0.2786077
0.014607352 -0.044918381 0.30511543 0.032750323 0.042735744 -0.99854946 0.27710873
0.021760358 -0.042577226 0.30645069 -0.012509478 0.031812131 -0.99941564 0.26685002
0.048929855 -0.047604937 0.30662754 -0.65240365 0.75538182 -0.06138302 0.19300897
0.052639239 -0.043773454 0.30122679 -0.8013624 0.59815627 0.0052327793 0.19387567
-0.059254855 -0.033962972 0.3070308 0.83461469 0.53393883 -0.13537991 0.17790706
-0.034474328 -0.03286837 0.3062745 -0.067763291 0.12847899 -0.98939437 0.26521558
-0.026558433 -0.030574912 0.30603945 -0.092984766 -0.0088590737 -0.99562812 0.23295495
-0.016149975 -0.035050225 0.30603945 0.14449337 0.56571841 -0.81184012 0.24689916
-0.0059645572 -0.034228705 0.30603945 0.18720454 0.69710296 -0.69209969 0.19801258
0.0033666976 -0.035088167 0.30603945 -0.064240612 0.73025322 -0.68014961 0.22195047
0.015649188 -0.035183262 0.30603945 0.4197799 -0.75395614 -0.5053069 0.26677167
0.028825346 -0.038628642 0.30764899 0.0066987062 -0.033355292 -0.99942112 0.28345984
0.032268431 -0.033381864 0.30773029 -0.10965295 -0.19911861 -0.97382134 0.27272987
0.058161367 -0.035726465 0.3064782 -0.8095904 0.5842399 -0.056808021 0.18634862
-0.063051403 -0.025180286 0.3067697 0.88329941 0.46246445 -0.076869294 0.17155305
-0.04238081 -0.023755178 0.30425692 0.44735178 0.25042397 -0.85858274 0.29282433
-0.038390342 -0.027259028 0.30605111 0.076091811 -0.080569997 -0.99384034 0.27220261
-0.025307162 -0.023635479 0.30603945 -0.034435816 0.055759795 -0.99785018 0.20461501
-0.01530467 -0.026950609 0.30603945 0.070289835 -0.058797851 -0.99579221 0.14674327
-0.0035949976 -0.026746424 0.30603945 0.0095763849 -0.089951135 -0.99590015 0.10335311
0.0056316722 -0.023889357 0.30603945 0.035105012 -0.044016857 -0.99841386 0.065217599
0.013360366 -0.024018485 0.30603945 0.066115394 -0.077847444 -0.99477059 0.11409817
0.027283836 -0.026496883 0.30603945 -0.73101318 0.66552418 -0.15065575 0.21810791
0.034316432 -0.024434945 0.30562729 -0.18141606 0.016008755 -0.98327607 0.23718964
0.043671474 -0.022030842 0.30112043 -0.72647595 -0.14705324 -0.67127347 0.24985951
0.062136762 -0.027130481 0.30782005 -0.92662591 0.3757095 -0.01438315 0.1664601
-0.066013962 -0.017614771 0.30507785 0.92805517 0.36417237 -0.078051411 0.18448344
-0.043675594 -0.01744386 0.30365184 0.66092908 0.4378503 -0.60947514 0.29426304
-0.033018667 -0.01643138 0.30603945 0.85693252 0.29791674 -0.4206093 0.23057902
-0.026066566 -0.012997046 0.30603945 -0.091918163 0.0014834964 -0.99576545 0.12919265
-0.012368989 -0.015951786 0.30603945 -0.013538181 -0.0034582051 -0.99990237 0.0043275026
0.0031510538 -0.014221028 0.30603945 -3.424681e-07 -1.0878868e-05 -1 6.8841226e-05
0.016150974 -0.01410634 0.30603945 0.00041131765 -0.038589437 -0.99925512 0.016562015
0.02256112 -0.01881583 0.30603945 0.063927956 -0.12634021 -0.98992491 0.14240715
0.035527058 -0.01243682 0.30603945 -0.94046617 0.16767688 -0.29564828 0.21780023
0.045438193 -0.013516227 0.30538392 -0.33989939 -0.3877883 -0.85678971 0.28564218
0.066775754 -0.01393422 0.30510348 -0.97740024 0.083563954 -0.19417979 0.18395157
-0.067296714 -0.0078263534 0.30831707 0.9877944 0.1368691 -0.074357383 0.18555668
-0.048109859 -0.0061092805 0.3042756 0.043649063 -0.20458499 -0.97787511 0.28319982
-0.032145564 -0.0040487964 0.30603945 0.060435999 0.027606646 -0.99779022 0.15602495
-0.023164416 -0.0024573579 0.30603945 -0.018873455 0.0055382438 -0.99980646 0.061881684
-0.013583156 -0.00381484 0.30603945 -9.4992556e-06 -3.8277321e-06 -1 7.2419003e-05
-0.0056400085 -0.0030920831 0.30603945 -2.0291166e-06 -8.1252443e-07 -1 6.4202075e-05
0.00402471 -0.00080863637 0.30603945 1.2916214e-06 3.3863395e-07 -1 6.5974855e-05
0.014671427 -0.0029496618 0.30603945 -0.00097809581 0.001453598 -0.99999845 4.5636647e-05
0.028591957 -0.0091839349 0.30603945 -0.10141515 0.029953325 -0.99439317 0.17361388
0.037096761 -0.0060242061 0.30603945 -0.82645977 0.12403122 -0.54916352 0.21835572
0.041297503 -0.0055490094 0.30603945 -0.48015788 0.051557511 -0.87566555 0.28051358
-0.067086913 0.009453089 0.30827093 0.98209196 -0.18812877 -0.010153471 0.18875161
-0.041355468 0.0071687973 0.30603945 0.31201744 0.47713926 -0.82157356 0.26639277
-0.032897856 0.003329868 0.30603945 0.12771162 0.068236224 -0.98946124 0.18279889
-0.022923667 0.0087509546 0.30603945 -0.056896321 0.063158892 -0.99638033 0.08240214
-0.014393215 0.0015480748 0.30603945 -7.0783149e-06 1.1599101e-06 -1 7.1547198e-05
-0.0033722979 0.0060884641 0.30603945 -2.9953733e-06 7.0395561e-07 -1 7.0297501e-05
0.015715234 0.0038618159 0.30603945 4.4292842e-06 8.3240593e-08 -1 5.8142854e-05
0.027286474 0.0047425097 0.30603945 0.051762413 -0.079588123 -0.99548304 0.15008834
0.035096895 0.0031476892 0.30603945 -0.60307348 -0.0233659 -0.79734337 0.20153202
0.048356902 0.0024864543 0.30682349 -0.89694041 0.35738128 -0.26033926 0.26828107
0.068544835 0.0011480325 0.30442652 -0.9795199 0.066135533 -0.19017594 0.18703263
-0.066499114 0.015944395 0.30433494 0.95273423 -0.28674644 0.10036898 0.21008432
-0.044401024 0.014082484 0.30313691 0.42917141 -0.12872781 -0.8940028 0.30580354
-0.034062471 0.015608164 0.30603945 0.91578496 -0.29827192 -0.26901984 0.25395963
-0.025154866 0.013043914 0.30603945 -0.083216257 0.11034205 -0.99040383 0.11340365
-0.016432025 0.014775194 0.30603945 0.010394124 0.010581993 -0.99988991 0.033475704
-0.0052867928 0.014995653 0.30603945 0.004562479 -0.0071764919 -0.99996382 0.00022694086
0.01353813 0.014474172 0.30603945 0.035510089 0.04966842 -0.99813426 0.01086032
0.024150752 0.01494355 0.30603945 0.0046623345 0.11420428 -0.99344641 0.079687417
0.035464667 0.014539823 0.30603945 -0.87523043 -0.14645983 -0.46100017 0.19364557
0.044995196 0.014279291 0.30346951 -0.63621813 0.26669618 -0.72394729 0.23347539
0.066159204 0.017450308 0.30434123 -0.98963577 -0.13146622 -0.057773329 0.14792062
-0.041926596 0.024645528 0.30334821 0.33656761 0.13614663 -0.93176514 0.27544937
-0.013597104 0.026851134 0.30603945 -0.098987415 0.089461327 -0.99105912 0.15714912
-0.0057202145 0.02633171 0.30603945 -0.079170264 0.012483803 -0.9967829 0.10629582
0.0047611333 0.023010924 0.30603945 0.049643215 -0.0091654081 -0.99872506 0.047220532
0.033227477 0.028491199 0.30536747 0.013181252 -0.090929613 -0.9957701 0.26599193
0.043499839 0.0210294 0.3057791 -0.25766829 0.18491378 -0.94837439 0.27644563
0.062988251 0.025542801 0.30591464 -0.94869977 -0.31345317 -0.041422833 0.19734007
-0.058790185 0.035007969 0.30607867 0.9147799 -0.40394679 0.0021548299 0.15897439
-0.027028317 0.0342413 0.304607 0.26421461 0.12742604 -0.95600903 0.28467989
-0.015534773 0.034147333 0.30603945 0.40023786 -0.76516539 -0.50431299 0.22244017
-0.0055234781 0.034069613 0.30603945 0.024948871 -0.33819696 -0.94074452 0.20080531
0.0080475193 0.03741594 0.30603945 -0.17147616 -0.96088898 -0.21745862 0.17506406
0.015500773 0.037202045 0.30603945 -0.49145758 -0.8529371 -0.17597675 0.21555115
0.028560702 0.031781215 0.30603945 -0.22681476 0.035229858 -0.97330046 0.28041855
0.034955684 0.030956805 0.30475581 0.081383057 0.014425185 -0.99657851 0.29116017
0.058825232 0.03452364 0.30683523 -0.79600275 -0.59685534 -0.10071392 0.16744131
0.06021557 0.032508139 0.30480957 -0.80762064 -0.58366722 -0.084151633 0.15306458
-0.051500943 0.044687346 0.30491436 0.54027981 -0.81180054 -0.22153465 0.2080593
-0.049033266 0.047888111 0.30475682 0.6593979 -0.73761255 -0.14533469 0.19326933
-0.02223899 0.043562602 0.30135402 0.013837589 -0.85427684 -0.51963413 0.25904781
-0.017330416 0.044448555 0.3038314 -0.5091092 -0.5889852 -0.62761784 0.28674173
-0.0063628629 0.046594217 0.30617601 -0.22618937 -0.43515363 -0.8714813 0.29534522
0.0060915663 0.044575769 0.30335906 0.21630713 -0.70645267 -0.67389607 0.2607246
0.01578578 0.046052217 0.30324781 0.068106383 -0.97053891 -0.23111831 0.27717161
0.022475567 0.041151732 0.30582196 0.12767787 -0.3986651 -0.90816545 0.28640726
0.047901504 0.048790284 0.30697656 -0.67627996 -0.70090181 -0.22667614 0.18578425
0.052021295 0.043677837 0.30706045 -0.63710755 -0.74699759 -0.18996984 0.17307812
-0.043276928 0.052439764 0.30612481 0.57496583 -0.81010497 -0.11464807 0.19996713
-0.036543403 0.057604503 0.30614242 0.44271982 -0.89566559 -0.042218104 0.17182569
0.036122341 0.058491286 0.30089119 -0.58129698 -0.81126255 -0.062824748 0.18618557
0.041785654 0.053441823 0.30732551 -0.70526779 -0.70309371 -0.090865634 0.17833136
-0.029443132 0.061515708 0.30450901 0.37649101 -0.91214126 -0.16202712 0.19728076
-0.015071628 0.066265538 0.30913204 0.38292482 -0.91941041 -0.08973936 0.18582317
-0.0057920776 0.068212226 0.30148599 0.18073176 -0.98267657 -0.041021615 0.21200877
0.0058169211 0.067902602 0.30471668 0.038778469 -0.99919426 -0.010344546 0.19193193
0.01492352 0.06679669 0.30327553 -0.0028356987 -0.99773508 -0.06720598 0.20155142
0.024187891 0.064028934 0.30120221 -0.34533617 -0.93379325 -0.093664236 0.18161929
-0.017110474 -0.065196753 0.31565785 0.11282756 0.98431426 -0.13563001 0.17343058
-0.0077974489 -0.066613823 0.31519264 0.12226396 0.98870581 -0.08667402 0.15356244
0.0052857939 -0.066877618 0.3158181 -0.099981688 0.97043365 -0.21968691 0.18984109
0.014488193 -0.065864854 0.313959 -0.33115062 0.94311458 -0.029564012 0.20058797
-0.043789871 -0.050648753 0.317285 0.90773952 0.41784561 -0.037603218 0.18823905
-0.037909526 -0.055382341 0.31562728 0.58965176 0.80683416 -0.036461934 0.19733234
0.032213625 -0.059502397 0.31286216 -0.47862127 0.8499158 -0.2203742 0.17707023
0.04047779 -0.054038502 0.3107596 -0.44915247 0.87351918 -0.18768682 0.17972423
-0.053659219 -0.040642921 0.31282556 0.81769347 0.54207355 -0.19373611 0.18902396
-0.048027724 -0.048199452 0.31114599 0.81278414 0.57266533 -0.10694076 0.19405523
-0.01188153 -0.046185307 0.31574875 -0.092705652 -0.82689834 -0.55465746 0.26433906
-0.0042853453 -0.046957575 0.31970608 0.12681805 -0.8643344 -0.48666546 0.22473165
0.0058261622 -0.047311451 0.31353638 0.092496067 -0.8015179 -0.5907737 0.30091068
0.016827429 -0.044410933 0.31574091 0.25212178 -0.5558024 -0.79216057 0.28285986
0.022275593 -0.042516366 0.31200141 -0.46604526 0.22362925 -0.85603255 0.30190536
0.04826875 -0.047102027 0.31382397 -0.58161068 0.80452877 -0.12025984 0.19660203
0.051177718 -0.04269474 0.3196159 -0.68877125 0.69840735 -0.19447698 0.19907497
-0.058076557 -0.034297597 0.31511214 0.87236333 0.48858875 -0.016223237 0.17525162
-0.033858586 -0.033220164 0.31811994 -0.79741281 -0.52928656 -0.28980783 0.26699141
-0.028030936 -0.03864982 0.31286651 0.36274642 -0.47902301 -0.79934472 0.29498258
0.027254229 -0.038486291 0.31960145 0.46444318 -0.79086554 -0.39852744 0.24070257
0.033065028 -0.034362637 0.31537744 0.76896822 -0.29315025 -0.56811166 0.28155446
0.059723936 -0.031664316 0.31299028 -0.89404184 0.44711518 -0.0278822 0.18103556
-0.063204296 -0.023162831 0.31329829 0.84737742 0.47693416 -0.23342088 0.18591091
-0.040968612 -0.024758672 0.31457004 -0.6191594 -0.2778728 -0.73445785 0.2223206
-0.038175985 -0.028105211 0.31656292 -0.66229409 -0.37594464 -0.64809889 0.24706669
0.041952349 -0.023218509 0.31379265 0.61736953 -0.49255192 -0.61339009 0.25849757
0.06138698 -0.026778281 0.31613547 -0.94637525 0.32243592 0.020223564 0.1940829
-0.06514746 -0.017121758 0.31531891 0.92701125 0.37494907 0.0079549244 0.18282615
-0.046126604 -0.012772274 0.31456825 -0.71262854 -0.29132736 -0.63819188 0.23858179
0.045006648 -0.015583057 0.31491229 0.52421129 -0.58763361 -0.6163516 0.24282824
0.065262191 -0.01797449 0.31366795 -0.99705327 0.069655977 0.032136958 0.18819639
-0.06666258 -0.0056666946 0.31736046 0.98771411 0.1555317 -0.01519064 0.14991254
-0.047294993 -0.0068052784 0.31229016 -0.53956395 -0.19599035 -0.81881535 0.23772544
0.047263853 -0.005840126 0.31404364 0.94613278 0.063491523 -0.31749278 0.25015682
0.066987984 -0.0036664503 0.31675315 -0.99056327 0.11500367 -0.07455644 0.1603073
-0.067439854 0.0031919051 0.31305236 0.98293149 -0.15785852 0.094479762 0.19035654
-0.047405887 0.0044781901 0.31445622 -0.53876692 0.26110572 -0.80097073 0.23065166
0.04707231 0.005750475 0.31629699 0.90501857 -0.10571413 -0.41202658 0.2452824
-0.065609902 0.014505473 0.31603348 0.96299863 -0.25994655 0.071143769 0.1821193
-0.046304449 0.012207397 0.3138881 -0.42007446 0.49267328 -0.76210922 0.22848693
0.065959364 0.013313139 0.31447724 -0.98604834 -0.13565522 -0.096469052 0.1426006
-0.061267257 0.026589151 0.31786138 0.89269865 -0.44364181 -0.079189144 0.17495891
-0.040588275 0.025643628 0.31192073 -0.75276077 0.22269683 -0.6194815 0.2978307
-0.037847131 0.028653435 0.31574827 -0.64991331 0.13926877 -0.7471391 0.25258702
0.04017657 0.025407173 0.31718034 0.7520569 0.37546158 -0.54170018 0.2673513
0.062247854 0.025027623 0.31495199 -0.92550254 -0.37234887 -0.069291197 0.17215493
-0.056726694 0.035814639 0.31650266 0.86415911 -0.43552464 -0.25208613 0.14761741
-0.033042699 0.034505066 0.31373912 -0.50935805 -0.081199467 -0.85671532 0.25179875
-0.026838385 0.039848454 0.31035182 -0.40202683 -0.18907791 -0.89589286 0.28777817
0.026184576 0.039736643 0.31579196 0.41448218 0.56512761 -0.71332693 0.28209466
0.033552878 0.033899143 0.31538999 0.20942889 0.61839092 -0.75745118 0.2757026
0.057922959 0.033996452 0.31634817 -0.80268341 -0.58822095 -0.098465323 0.16551563
-0.050288312 0.044153482 0.3178941 0.75330216 -0.63443804 -0.17327504 0.19291958
-0.048685521 0.046154007 0.31799933 0.74726194 -0.59977967 -0.28611866 0.19212012
-0.023425046 0.041488357 0.31438643 -0.34809354 0.53774786 -0.76789206 0.26054236
-0.015727602 0.045072533 0.31361297 -0.21298908 0.91379976 -0.34584039 0.26454011
-0.0068259696 0.047343653 0.31172049 -0.13906062 0.92028964 -0.36568978 0.27534524
0.0034671456 0.047334906 0.31671777 0.097850397 0.82734931 -0.55309904 0.24968116
0.01187482 0.04619123 0.31624526 0.35873613 0.69998646 -0.61751711 0.24823485
0.024888346 0.040775914 0.31539616 0.48741803 0.71147609 -0.50618714 0.28006783
0.044919524 0.049517829 0.31926167 -0.70810783 -0.69305944 -0.13509923 0.21064283
0.053645227 0.040260334 0.31512773 -0.73301017 -0.66423076 -0.14660689 0.18307148
-0.04244107 0.051935077 0.31540319 0.54498243 -0.81942785 -0.17757311 0.21469411
-0.036633793 0.056492798 0.31455719 0.45176324 -0.88090664 -0.14111507 0.1945264
0.039922416 0.054528944 0.31021684 -0.69841129 -0.67691869 -0.23238494 0.19017637
0.043585498 0.051040016 0.31552985 -0.70749325 -0.6646077 -0.24031222 0.18573116
-0.02670157 0.061566006 0.31484529 0.36834314 -0.92959255 -0.013451338 0.17415388
-0.018478658 0.065049551 0.31417564 0.26615286 -0.962372 0.054797679 0.16620265
-0.0034554333 0.06693925 0.31749508 0.093155079 -0.98627311 -0.13633609 0.16527782
0.0021504937 0.067396492 0.31482327 -0.080651984 -0.99489135 -0.060716357 0.16955993
0.019557916 0.064834185 0.31203571 -0.31535986 -0.94651639 -0.068226814 0.17769764
0.023384174 0.062854446 0.31551048 -0.20611326 -0.97559893 -0.075657718 0.18183883
-0.023978954 -0.061558761 0.3247456 0.32650208 0.92901236 -0.17416203 0.1589215
-0.012000376 -0.064982757 0.32527435 0.10840196 0.98451942 -0.1377335 0.14773051
-0.0046501956 -0.066102162 0.32385486 0.037086245 0.9861272 -0.16179514 0.16085358
0.0069315801 -0.065968715 0.32229376 -0.1728726 0.96819961 -0.18084413 0.18417929
0.014846161 -0.064614624 0.32381403 -0.23100707 0.96225125 -0.14390321 0.19875082
0.022393476 -0.062290601 0.32409066 -0.45821759 0.88254386 -0.10560732 0.1940342
-0.035327356 -0.055885632 0.32669124 0.60196829 0.78254789 -0.15891165 0.17075233
-0.028903108 -0.059182167 0.32768261 0.34637943 0.93533927 -0.071844995 0.1507353
0.029927688 -0.059637524 0.32001379 -0.53064841 0.84267557 -0.091160409 0.17034103
0.036810145 -0.055098455 0.32406718 -0.56127769 0.81138539 -0.1631594 0.1721409
0.041618824 -0.051136963 0.32610083 -0.48040125 0.86561346 -0.14116681 0.18684821
-0.047313314 -0.045900758 0.32792583 0.7292074 0.66670763 -0.15413444 0.15119137
-0.013202431 -0.045338206 0.3216705 0.087011352 -0.81174958 -0.57748735 0.23367402
-0.007398902 -0.045987014 0.32591885 -0.067629486 -0.8584609 -0.50840062 0.19266786
0.003567029 -0.046470892 0.32614699 0.28674442 -0.85867512 -0.42479953 0.19443724
0.016442463 -0.04409638 0.32063574 0.1907874 -0.8917262 -0.41039559 0.25317407
0.022998633 -0.040963154 0.32378671 0.54843014 -0.74790514 -0.37398154 0.22056513
0.047521025 -0.04605237 0.3260389 -0.62321103 0.75080168 -0.21887209 0.16729514
0.050896034 -0.041938297 0.32606936 -0.73656785 0.64946496 -0.18884651 0.19408026
-0.056084149 -0.035157874 0.3252266 0.84404022 0.53588539 0.020565713 0.16820061
-0.03209034 -0.033664629 0.32945144 -0.70997775 -0.68197876 -0.17560349 0.20886582
0.025441876 -0.039006643 0.32731885 0.56454039 -0.74957806 -0.34558228 0.22401935
0.034208201 -0.032250918 0.32241651 0.51532024 -0.77220803 -0.37167174 0.22356811
0.057552058 -0.032717749 0.32542035 -0.82709068 0.50803757 -0.2404556 0.1867121
-0.061588783 -0.023591578 0.32588229 0.87094474 0.48986614 0.038556475 0.1667695
-0.041290127 -0.021285962 0.32889694 -0.72255778 -0.64604259 -0.24604723 0.19269578
-0.037767366 -0.027226113 0.32616785 0.8865909 0.448742 0.1121923 0.23867872
0.038431361 -0.026629684 0.32433814 0.64185137 -0.67522907 -0.36344522 0.2245459
0.059723072 -0.029017076 0.3225562 -0.90179211 0.39298823 -0.17980909 0.19043918
0.061277553 -0.024447143 0.32550645 -0.90588087 0.32225147 -0.27483428 0.19572389
-0.064660393 -0.014278427 0.32498619 0.94695365 0.31199926 0.077040598 0.17256621
-0.044611145 -0.013802648 0.32463577 -0.87512898 -0.34988567 -0.33425924 0.23634103
0.043908019 -0.016258346 0.32336861 0.88461691 -0.27656952 -0.37544924 0.24354613
0.06468752 -0.014515594 0.3249386 -0.98814583 0.11456309 -0.1021919 0.18432342
-0.065870918 -0.0052111358 0.32532707 0.99702942 0.073408015 -0.023314683 0.15027821
-0.046689283 -0.0036298446 0.32363513 -0.83587456 -0.044365808 -0.54712462 0.21835183
0.046535496 -0.0047833547 0.32365662 0.86235082 -0.23946202 -0.44610417 0.22417004
0.06598559 -0.0054226923 0.32399416 -0.99359781 -0.0041921181 -0.11289718 0.16549464
-0.066074759 0.0052799471 0.32333541 0.9884991 -0.078605831 -0.12919234 0.17436433
0.046578083 0.0044287923 0.32370186 0.9087047 -0.069862179 -0.41155192 0.19774188
0.065384828 0.0063821077 0.32843241 -0.99283898 0.086921737 -0.0819472 0.15070774
-0.064916149 0.015258545 0.32188451 0.94311857 -0.3268764 -0.060656246 0.19397061
-0.044376228 0.01456565 0.32577315 -0.73908401 0.46150276 -0.49068323 0.21862379
0.044939488 0.012036586 0.32881427 0.9643178 0.16041321 -0.21061541 0.23426649
0.064229853 0.016848259 0.32394138 -0.96135861 -0.24654813 -0.12249007 0.18167129
-0.041573003 0.021635838 0.3244791 -0.78570908 0.43321767 -0.44156963 0.23508842
-0.03933024 0.02504663 0.32713836 -0.85548323 0.44797653 -0.25974116 0.22048357
0.037831172 0.0276039 0.32303104 -0.70268708 -0.69812834 0.13728701 0.25288191
0.062131114 0.022822037 0.32393342 -0.94299459 -0.32496968 -0.071805127 0.1591858
-0.056225713 0.035035998 0.32333758 0.82822609 -0.50720471 -0.23829558 0.191348
-0.031751782 0.034154374 0.32741171 -0.59814167 0.75334525 -0.27330852 0.21031737
-0.026864853 0.037859462 0.32780892 -0.58051044 0.80057812 -0.14860079 0.22116287
0.026621019 0.037982017 0.32838124 -0.59391606 -0.79595524 0.11712801 0.22425748
0.035278626 0.030810922 0.32384425 -0.75768197 -0.65254819 0.0099471584 0.24320203
0.056634694 0.034246139 0.32522741 -0.77545881 -0.59868008 -0.20061362 0.16622359
-0.052544698 0.040111318 0.32422119 0.79377925 -0.56148016 -0.23378289 0.16395321
-0.046488278 0.046689991 0.32699633 0.72010231 -0.65188426 -0.23769635 0.17194715
-0.017626971 0.043096446 0.32589471 -0.34645602 0.90702599 -0.23931593 0.21836984
-0.0059843878 0.04628526 0.32467684 -0.080354743 0.90048534 -0.42739829 0.20863611
0.0052309767 0.046282247 0.32580957 0.14840828 0.96625358 -0.2105443 0.20987436
0.01387896 0.044599727 0.32636911 0.51130337 0.8146885 -0.27359015 0.18982938
0.022713149 0.041352302 0.32215017 0.45597261 0.84889328 -0.26733717 0.23004852
0.046907507 0.046737105 0.32606077 -0.63469797 -0.75416791 -0.16849105 0.15579276
0.050536215 0.042715915 0.32429579 -0.65232569 -0.75585294 -0.056192052 0.17027241
-0.036972057 0.055048715 0.3235091 0.51122868 -0.85910624 -0.024120981 0.16771881
-0.029844176 0.059383865 0.32252619 0.43173254 -0.9013325 -0.03473717 0.17024514
0.026863404 0.059859313 0.3291443 -0.38454077 -0.91459584 -0.12507135 0.15551206
0.033592794 0.057314958 0.32376906 -0.48102221 -0.85145712 -0.20889798 0.17526828
0.040222142 0.052418888 0.32452676 -0.65614766 -0.68906373 -0.30767086 0.19687581
-0.021479391 0.062389396 0.32652944 0.33147442 -0.9421649 0.049496721 0.16426739
-0.016640108 0.064092048 0.32607412 0.17719367 -0.98405528 0.015416729 0.17953295
-0.005650667 0.065794505 0.32549998 0.0067939353 -0.99543875 -0.095160045 0.1931853
0.0042928006 0.065823078 0.32690498 -0.055510089 -0.97941333 -0.19408289 0.15062045
0.014573094 0.064658783 0.32489803 -0.41347843 -0.90390557 -0.10950004 0.18858027
0.023837093 0.061613157 0.32478315 -0.39860031 -0.89786279 -0.18697661 0.15040761
-0.013413528 -0.063635446 0.33613753 0.14220409 0.98969567 -0.016748147 0.17422417
-0.0057142922 -0.064514682 0.33730891 0.090065055 0.99509609 -0.040892124 0.17318125
0.0060940008 -0.064658076 0.33557758 -0.021472124 0.99911278 0.036229823 0.16054021
0.013682803 -0.063681513 0.33537501 -0.20050889 0.97929889 -0.027746068 0.16230056
-0.041083459 -0.050852075 0.33130798 0.74609405 0.64866859 -0.15024236 0.150479
-0.034657016 -0.05517371 0.33215219 0.54194707 0.83494425 -0.095715843 0.17556332
-0.024446629 -0.05973978 0.33886799 0.33681527 0.93772316 -0.085034259 0.1630619
0.027289908 -0.058643416 0.33820355 -0.44113651 0.89605021 -0.049926151 0.17111515
0.035888005 -0.054218553 0.33587879 -0.57735682 0.81191719 -0.0863114 0.18999945
-0.046665743 -0.045908678 0.3338398 0.75703347 0.65168166 -0.047024328 0.15416212
-0.021389414 -0.040752485 0.33400625 0.45118624 0.89107788 -0.049104545 0.20864786
-0.013376583 -0.043927938 0.33506307 0.18041748 0.97086102 -0.15772857 0.21369517
-0.0053464184 -0.045493651 0.33438051 -0.020483216 0.97825539 -0.20639017 0.20322572
0.0060178638 -0.045320313 0.33532155 -0.28204954 0.95907336 0.02502628 0.19364333
0.016493043 -0.042856634 0.33322152 0.37224519 -0.91082639 -0.17840593 0.19105421
0.048471205 -0.043645032 0.33441722 -0.68843102 0.7243824 -0.036507569 0.18321609
0.050765723 -0.040556218 0.33498323 -0.70193142 0.70627826 -0.091996245 0.18023691
-0.023413654 -0.039398544 0.3376441 0.59837443 0.79003525 -0.13338839 0.20676114
0.027809199 -0.036388893 0.33442393 -0.57258809 0.81399864 0.097719945 0.20322263
0.032181095 -0.033059578 0.33338317 0.63988221 -0.73679382 -0.21837053 0.19481215
0.054619752 -0.03549321 0.33506691 -0.80936956 0.57485574 -0.1202575 0.1792118
-0.061640978 -0.020898599 0.33514231 0.8707642 0.4691819 -0.14709897 0.17044771
-0.058494385 -0.029239267 0.33246398 0.823901 0.56603104 -0.028213851 0.16413489
-0.036101267 -0.027827112 0.33685246 0.75662321 0.63186222 -0.16814104 0.18553287
0.036576185 -0.027092084 0.33764243 -0.7702629 0.59732997 -0.22336526 0.21751432
0.040495019 -0.02226446 0.33292225 -0.93283796 0.3580367 0.040287469 0.22086877
0.059040111 -0.027203077 0.33505955 -0.89212555 0.40645292 -0.1972512 0.18642874
0.06079356 -0.023866706 0.33182126 -0.91558897 0.35164073 -0.195053 0.17920361
-0.062401369 -0.019461565 0.33371121 0.79475433 0.59790218 -0.10430017 0.17156222
-0.042508043 -0.016192 0.3381086 0.84180284 0.5139538 -0.1649835 0.18937691
0.044277333 -0.013322125 0.33211413 -0.94687784 0.3093811 0.087782167 0.21063529
0.062923796 -0.01648771 0.33693385 -0.96944773 0.22653556 -0.094088867 0.18878941
-0.064530477 -0.0072770594 0.33526659 0.97247565 0.1768164 -0.15174706 0.16181223
0.045396574 -0.0053893235 0.33539358 -0.95321327 0.2829791 -0.10633517 0.1986087
0.064940833 -0.0033022326 0.33632347 -0.9993118 0.028328413 -0.023947857 0.15861841
-0.064883508 0.003664437 0.33646846 0.98402613 -0.012341973 -0.17759573 0.14188522
-0.045189958 0.0066497414 0.33584389 0.97698045 -0.20445158 0.0608989 0.21913856
0.045165144 0.0067249881 0.33600944 -0.9953509 -0.091000535 -0.031550925 0.2134521
0.065087482 0.0031215451 0.33522955 -0.99293804 0.10150091 -0.061413918 0.16870014
-0.063393719 0.015671959 0.33561686 0.95267946 -0.2997278 -0.050647516 0.15976389
-0.042658973 0.016913643 0.3334631 0.81983298 -0.57216179 0.022465283 0.20693423
0.044715621 0.010943238 0.33483702 -0.97996992 -0.16999833 -0.1037282 0.22844513
0.063587151 0.015084527 0.33453134 -0.98538733 -0.0072008977 -0.17017636 0.18022522
-0.061003715 0.022578523 0.33463824 0.92621595 -0.37673417 -0.013980124 0.14567743
-0.058880568 0.02765034 0.33483458 0.83484584 -0.53622937 -0.12446033 0.1805501
-0.040401723 0.022498824 0.33288294 0.95386052 -0.29386303 -0.061601106 0.20811608
-0.037328921 0.026479652 0.3351343 0.77735913 -0.59029704 -0.2173986 0.21104272
0.038423926 0.02523792 0.33387339 -0.71733421 -0.6961419 -0.028602876 0.19484782
0.058718607 0.028661083 0.33259735 -0.85420853 -0.47282967 -0.21624044 0.16090205
0.061136331 0.022854229 0.33248889 -0.91636497 -0.35814819 -0.17889994 0.15384306
-0.054552704 0.035649292 0.33417687 0.80164099 -0.59506911 -0.057135087 0.16504242
-0.032424442 0.032906208 0.33229032 0.79528791 -0.56053531 -0.23090523 0.21581428
-0.028446337 0.035749704 0.33575621 0.67075711 -0.73116422 -0.12443413 0.21476309
0.025952935 0.03793896 0.33330882 -0.5465042 -0.82949811 0.11517844 0.21482061
0.030150793 0.034266528 0.33731064 -0.67423314 -0.73338234 -0.086948767 0.19331558
0.056142528 0.033575058 0.33390671 -0.80040133 -0.53343511 -0.27350447 0.15542029
-0.043988023 0.047850437 0.33419675 0.72104585 -0.68572307 -0.099381566 0.17884046
-0.015293393 0.042731583 0.33964378 0.35322353 -0.93553215 -0.0035866178 0.19488437
-0.0053409375 0.045306034 0.33646685 0.2761873 -0.95832878 -0.072983757 0.21046455
0.0081559513 0.04521082 0.33341539 -0.037109487 -0.99043947 0.13286275 0.22214869
0.015660712 0.043063 0.33465034 -0.59012502 -0.80730432 -0.0035055338 0.21000588
0.047379225 0.045041177 0.3345716 -0.65663832 -0.7436831 -0.12554546 0.15211229
-0.040740684 0.050629593 0.33494183 0.67291796 -0.71446508 -0.1916275 0.16403352
-0.034629967 0.054989856 0.33736086 0.63363856 -0.74169493 -0.21997891 0.15974566
-0.026319169 0.059232675 0.33657166 0.44726759 -0.8807109 -0.15588446 0.18935242
0.026936689 0.059645869 0.33074033 -0.33636808 -0.94137341 -0.025933323 0.17259338
0.03450622 0.055460226 0.33318037 -0.59075737 -0.80681849 0.0070483754 0.18780234
-0.016630754 0.062657304 0.33613285 0.29909247 -0.94245821 -0.14938585 0.15522777
-0.0036409053 0.065043427 0.33497435 -0.030704213 -0.99939764 -0.016175695 0.16431265
0.0033394916 0.06514959 0.33437911 -0.033367004 -0.99214917 -0.12052678 0.15116832
0.013133006 0.063534081 0.33734351 -0.19834101 -0.97834027 -0.05925519 0.17848974
0.023365267 0.060077175 0.33973256 -0.41415027 -0.90906179 0.045675024 0.16007759
-0.020958845 -0.060150899 0.3469584 0.20111249 0.9767046 -0.074846372 0.14429775
-0.012063169 -0.063223749 0.34132743 0.099666975 0.99155575 -0.082967572 0.16373038
-0.0064012608 -0.063443922 0.34573916 0.018866414 0.99371636 -0.11032592 0.17079188
0.0055884351 -0.063271888 0.34808314 -0.090666488 0.96995729 -0.22574852 0.15767358
0.015859049 -0.06218924 0.34557036 -0.050971325 0.98376495 -0.17207076 0.17128775
0.021563128 -0.060439494 0.34274018 -0.28946841 0.95708984 -0.013673864 0.17045094
-0.034890298 -0.053683143 0.34481531 0.68273193 0.68581653 -0.25205743 0.16405375
-0.027201857 -0.057641804 0.34635663 0.41057244 0.9096728 -0.062656619 0.15288259
0.026500659 -0.057868309 0.34685728 -0.42671016 0.90009421 -0.088027507 0.17041561
0.033179898 -0.055128377 0.34327468 -0.56860965 0.82169467 0.038742453 0.16582125
-0.044345319 -0.046484929 0.3435891 0.79280168 0.60281837 -0.089863665 0.16011927
-0.0010703179 -0.045307986 0.34267652 0.030014861 0.99872112 0.040685363 0.1977253
0.0032349995 -0.044720285 0.34603077 -0.014688836 0.99360842 0.11192145 0.18637216
0.013229553 -0.043462288 0.34049237 -0.4217757 0.90575725 0.041341349 0.18291526
0.042775717 -0.047436591 0.34567988 -0.67981088 0.73076743 -0.061936744 0.16768111
-0.053551383 -0.035681002 0.34141719 0.81764948 0.55167872 -0.16462047 0.15916447
-0.032739893 -0.030594373 0.34783021 0.72263378 0.67582011 -0.14514682 0.20090139
0.024087183 -0.038008124 0.34466752 -0.55393308 0.83178467 -0.035949953 0.19820902
0.031741112 -0.032126933 0.34308925 -0.74192464 0.66803211 0.057279676 0.2050487
0.054909721 -0.032896034 0.34428102 -0.85333723 0.49115288 -0.17488395 0.16206832
-0.058249116 -0.026845289 0.34275889 0.84102345 0.50487292 -0.19437815 0.16058497
-0.037053082 -0.025072569 0.34715486 0.81203854 0.52450496 -0.25590619 0.20361555
0.03695339 -0.025598697 0.34247965 -0.76622438 0.63579673 0.093073547 0.19381283
0.057624817 -0.027436629 0.3457289 -0.92118567 0.36579862 -0.1326966 0.17336026
-0.061663453 -0.016628848 0.34538475 0.93655783 0.27574453 -0.21638955 0.18243264
-0.041094854 -0.017683569 0.34632182 0.86972964 0.43389061 -0.23517942 0.20609905
0.043113843 -0.012764451 0.34535038 -0.96639669 0.23499669 -0.10418275 0.20410146
-0.063298531 -0.0081167314 0.34506315 0.96005833 0.14195943 -0.24111311 0.14755164
-0.044736803 -0.0017023084 0.3480837 0.98453456 0.08027032 -0.15571856 0.19232957
0.044777859 -0.0043583028 0.34375402 -0.96183765 0.23832768 -0.13441788 0.19155882
0.063564219 -0.005805701 0.34538764 -0.99100929 0.053180028 -0.12276986 0.1748163
-0.063217729 0.0090736635 0.34468353 0.98068827 -0.18322217 -0.068411388 0.15933375
-0.044384025 0.0054730047 0.34649163 0.97518325 -0.17602609 -0.13428526 0.19726713
0.044406042 0.0056834873 0.34594095 -0.95728475 -0.2118841 -0.19675116 0.21372177
0.063909657 0.0052215052 0.34313193 -0.9896993 0.07834018 -0.11982577 0.18256132
-0.041929573 0.015036419 0.34902459 0.74428362 -0.60866958 -0.27488756 0.18845741
0.040722188 0.018082116 0.34846544 -0.89457345 -0.41808555 -0.15793307 0.20460372
0.061995625 0.015969375 0.34487829 -0.98278052 -0.16978171 -0.072914757 0.18777145
-0.060522631 0.021124702 0.34351039 0.90259421 -0.42433652 -0.072541252 0.16532645
-0.033354409 0.029567998 0.34936416 0.82493305 -0.55267268 -0.11848377 0.17797638
0.035814025 0.027046718 0.34470904 -0.69570112 -0.71583289 -0.059859559 0.20648058
0.057580061 0.027769048 0.34500119 -0.89124405 -0.40570518 -0.20270026 0.1729705
0.060965814 0.020844156 0.34095147 -0.93119758 -0.29311472 -0.21669057 0.14416945
-0.054549243 0.033683933 0.34535211 0.82205564 -0.56849957 -0.032137085 0.15576695
-0.031115897 0.032672152 0.34488183 0.6780389 -0.73497933 -0.0082841069 0.20429222
-0.023928767 0.038204905 0.34472346 0.58370531 -0.80175292 -0.12837559 0.2225049
0.023089472 0.03892507 0.34404814 -0.65615749 -0.75457805 -0.0083253579 0.20675912
0.03257297 0.031165581 0.34542325 0.75826198 0.60325629 -0.24722588 0.17458256
0.053264331 0.034901172 0.34650448 -0.77614725 -0.62524331 -0.081647515 0.16190486
-0.045761541 0.044427663 0.34470102 0.79110873 -0.60907602 -0.056332644 0.15671359
-0.039709292 0.049312368 0.34947574 0.57789826 -0.81607717 -0.007184661 0.1671028
-0.013958359 0.042719953 0.34547427 0.24980725 -0.95651519 -0.15058196 0.21263529
-0.004355771 0.044561841 0.34615085 0.2273369 -0.95636046 -0.18355557 0.2054491
0.0036555303 0.044586461 0.34689978 0.011607519 -0.98383027 -0.17872655 0.20022333
0.015253992 0.042047255 0.34687886 -0.33209425 -0.93997544 -0.078482933 0.2220289
0.044876371 0.04553365 0.34649023 -0.67496717 -0.72555077 -0.13414691 0.13997626
-0.033953972 0.054253586 0.34529793 0.60195971 -0.79847962 0.0086512156 0.15764585
-0.027333742 0.057757858 0.34502026 0.49574745 -0.86098003 -0.11378832 0.19141881
0.025707463 0.058568835 0.34394524 -0.44522205 -0.89522457 -0.01871461 0.1760215
0.033510622 0.054393012 0.34586653 -0.57772332 -0.81478947 -0.048516151 0.16255581
-0.021545982 0.060218424 0.34452543 0.33483011 -0.93370426 -0.12682763 0.17138493
-0.01520051 0.062195074 0.34591261 0.21817124 -0.95726758 -0.18984236 0.15976553
-0.0071178759 0.063434079 0.3450287 0.13140246 -0.98464614 -0.11491423 0.1507881
0.0032156478 0.063843533 0.34590462 0.047480967 -0.99282837 -0.10971509 0.16690692
0.012274787 0.063074112 0.34234935 -0.12481322 -0.97282064 -0.1950426 0.1518427
0.020568922 0.060454205 0.34584787 -0.33461902 -0.94214648 -0.019750861 0.1759263
-0.012669578 -0.061282329 0.35696465 0.085924871 0.97994584 -0.17978616 0.15690503
