# .PCD v0.7 - Point Cloud Data file format
VERSION 0.7
FIELDS x y z normal_x normal_y normal_z curvature
SIZE 4 4 4 4 4 4 4
TYPE F F F F F F F
COUNT 1 1 1 1 1 1 1
WIDTH 547
HEIGHT 1
VIEWPOINT 0 0 0 1 0 0 0
POINTS 547
DATA ascii
-0.092379659 0.036242347 -0.071898833 0.99316734 -0.11668576 0.0017502623 0.00031407949
0.092367388 0.036322411 -0.072536737 -0.99400687 -0.10931665 -0.00045854721 0.00038019972
-0.09036544 0.049092703 -0.075091161 0.98819554 -0.15319569 0.00082947104 0.00019507947
0.09122891 0.043584671 -0.076589108 -0.99117106 -0.13258837 -0.00056459522 0.00026323512
-0.089322791 0.055743653 -0.07434538 0.98491424 -0.17303817 -0.0013233831 0.00018346154
0.089395322 0.055280983 -0.073298648 -0.98549724 -0.1696903 -0.00060710177 0.00025717594
0.090083167 0.050893292 -0.076023839 -0.98766059 -0.15660615 0.0011041684 0.00030299849
-0.087808795 0.065308571 -0.072508588 0.9792546 -0.20263337 0.00036949787 0.00036799209
0.08774402 0.06532412 -0.074314624 -0.9798705 -0.19963109 -0.0011154477 0.00035321343
-0.085655004 0.074357674 -0.074456692 0.97392619 -0.22682771 -0.0041246167 0.00024282339
0.085739665 0.074038371 -0.07671079 -0.97358388 -0.22830611 -0.0032770894 0.00026084366
-0.083837166 0.08121416 -0.072762027 0.96941203 -0.24543761 -0.00087504013 0.00028466858
0.083839126 0.081206739 -0.077263452 -0.96941948 -0.24540895 -0.00058494136 0.00027048955
-0.080433212 0.094053112 -0.073202699 0.95695114 -0.29024518 0.0014821895 0.0004150352
-0.079310112 0.098289192 -0.076338992 0.95205915 -0.30590934 -0.0016816386 0.00039557472
0.081106775 0.091512606 -0.076756231 -0.95948493 -0.28175977 -0.00025035001 0.00031589699
-0.076444998 0.1064282 -0.075940825 0.94528747 -0.32623804 0.00057642488 0.00024860096
0.077896714 0.10260426 -0.075146616 -0.9501068 -0.3119168 -0.0022510518 0.00040777086
-0.073001459 0.11549874 -0.073537722 0.93414712 -0.35688695 -0.00091948034 0.00031779383
0.073088787 0.11526868 -0.076339617 -0.93524468 -0.35400209 8.6135398e-05 0.00025964426
-0.070836581 0.12120117 -0.073972449 0.92789215 -0.37284815 0.00066520815 0.00035549336
-0.068576179 0.12715524 -0.078410879 0.91957319 -0.39291814 -0.00068417721 0.0002193433
0.068805426 0.1265514 -0.079560906 -0.92163992 -0.38804579 0.00063464197 0.00025746578
0.070702113 0.12155538 -0.07685753 -0.92553103 -0.37866396 -0.0024444703 0.00029703949
-0.064682245 0.13607749 -0.073553853 0.91113061 -0.41211769 -0.00022349798 0.00024947702
0.064495303 0.13644873 -0.076200165 -0.90988731 -0.41485545 0.0001838037 0.00022818922
-0.06153816 0.14232114 -0.075103685 0.90310949 -0.42940605 -0.0019101835 0.00028011217
-0.058812995 0.14773284 -0.075205177 0.89554125 -0.44497767 -0.00089916022 0.00023467862
0.059233051 0.1468987 -0.078220569 -0.89483702 -0.44639292 -0.00020028742 0.00025855406
0.06244044 0.14052935 -0.073421419 -0.90482235 -0.4257808 0.0026749407 0.00024040211
-0.054462247 0.15637271 -0.076066427 0.88020563 -0.47457945 0.0035327491 0.00025858259
0.055934299 0.15344946 -0.072228879 -0.88214171 -0.47098243 0.0012887374 0.0001917965
-0.050958257 0.16307043 -0.075316943 0.85140496 -0.52444661 0.0080748014 0.0025064973
-0.047059018 0.16919273 -0.0748538 0.75447172 -0.65603435 -0.01978451 0.017932542
0.047381155 0.16869035 -0.079453528 -0.7571677 -0.65261495 -0.028121065 0.017596457
0.050461687 0.16388604 -0.077645153 -0.84244114 -0.53870416 -0.0095248614 0.0034978224
-0.043629214 0.17454179 -0.074538082 0.6827991 -0.7296924 -0.036528319 0.024326278
0.045286044 0.17195782 -0.07471551 -0.73372114 -0.67944211 -0.0034374099 0.017061224
-0.036457662 0.18144409 -0.074251071 0.45505437 -0.89022249 -0.020723931 0.030494574
-0.024442902 0.1817981 -0.072374232 0.16540626 -0.98618531 0.0089109968 0.018131338
-0.014190112 0.18179809 -0.074035458 0.0026574018 -0.99999642 -0.00033347635 3.2287997e-05
-0.004809041 0.18179809 -0.074219033 -2.038905e-06 -1 -2.3796398e-05 4.1169034e-05
0.0044354284 0.18179809 -0.07695815 -6.5637578e-06 -1 -2.5025933e-05 3.1686453e-05
0.01618268 0.18179809 -0.075797997 -0.031656325 -0.99946249 0.0085229808 0.0026949758
0.024051283 0.18179809 -0.075995542 -0.17235909 -0.98500651 0.0073831035 0.015061139
0.034261368 0.18179695 -0.07515043 -0.37505344 -0.92692465 0.012067143 0.02955598
-0.031317398 -0.18179809 -0.065049663 0.36660358 0.93030506 0.011588836 0.034513321
-0.02484522 -0.18179807 -0.065717913 0.15707059 0.98756146 -0.0071525713 0.01441856
-0.014291612 -0.1817981 -0.064707711 0.022540366 0.99973023 0.0056055305 0.0013490168
-0.0075187795 -0.18179809 -0.067487448 -1.6287387e-07 1 -2.0533367e-05 4.116747e-05
0.0044042314 -0.18179809 -0.066220179 3.964205e-06 1 -1.6045446e-05 4.0564526e-05
0.017574817 -0.18179809 -0.065525852 -0.076579265 0.99702227 -0.0090698535 0.0064065913
0.024087543 -0.18179809 -0.064231634 -0.18807821 0.98211485 0.0087736854 0.019481774
0.034276176 -0.18179807 -0.064327657 -0.4026801 0.91484463 0.030133352 0.036572851
-0.045164723 -0.17214704 -0.069069415 0.7386018 0.67410457 -0.0071014101 0.02145282
0.043972526 -0.17400636 -0.0634574 -0.67094249 0.74148041 -0.006568538 0.025736988
-0.051276147 -0.16261581 -0.066985421 0.84639972 0.53253096 -0.0042788354 0.0044786502
0.048929252 -0.16627598 -0.064937919 -0.78467572 0.61990631 -0.00032093856 0.015358786
0.051435329 -0.16224764 -0.065833658 -0.84381109 0.53659779 -0.0067517511 0.0031907242
-0.05558607 -0.15414099 -0.065154582 0.88149393 0.47218943 -0.0023783818 0.00026628081
0.054922123 -0.15545948 -0.064484037 -0.88058108 0.47388953 -0.0023849411 0.00025166754
-0.062524855 -0.14036173 -0.067493781 0.90494841 0.42551824 -0.0016109948 0.00029769749
-0.058902066 -0.14755598 -0.064330973 0.89434677 0.44737396 -0.00066006707 0.00024604096
0.059081521 -0.14719959 -0.063961126 -0.89724827 0.44152638 0.00014630007 0.0002077216
0.061102957 -0.14318538 -0.065761276 -0.90185195 0.43204281 0.0014278857 0.00022212511
-0.065954909 -0.13341606 -0.065814167 0.91270715 0.40861312 -0.00099659199 0.00026858272
0.065675877 -0.13402325 -0.0673199 -0.91219789 0.40974969 -0.00044815044 0.0002738378
-0.07012134 -0.12308517 -0.061365023 0.92553759 0.37865561 -3.1031297e-05 0.00032446708
-0.069407798 -0.12496468 -0.066531867 0.92231429 0.38641974 0.0040074727 0.00028846052
0.068843089 -0.12645219 -0.064835392 -0.92058522 0.39054099 -0.00073152699 0.00026126282
0.071292363 -0.12000061 -0.065835908 -0.93220645 0.36192673 -0.00046466888 0.00028815889
-0.073525056 -0.11411954 -0.064199559 0.93768954 0.34747311 0.00087848504 0.00027061562
0.072549567 -0.11668903 -0.063988231 -0.93495423 0.35476157 0.0021897745 0.00017994954
-0.077054091 -0.10482379 -0.063455798 0.9450677 0.32687089 0.0015525623 0.00024215107
0.07652466 -0.10621835 -0.063074246 -0.9441489 0.32951894 0.00030764757 0.00021523274
-0.080523379 -0.093713008 -0.062425256 0.95912403 0.28298602 -8.3093379e-05 0.00033595099
-0.07924071 -0.098550975 -0.060205929 0.95110953 0.30885351 0.0004576229 0.00035427016
0.079742387 -0.096658766 -0.065510049 -0.95319682 0.30231577 0.0045807706 0.00035843099
-0.083251536 -0.083423026 -0.06275899 0.96758568 0.25254279 -0.00029706483 0.00029196055
0.082569726 -0.085994661 -0.066408113 -0.96701008 0.2547299 -0.0020681785 0.00017693973
-0.085525692 -0.074845418 -0.062811971 0.97390884 0.22693928 0.0004187061 0.00025813945
0.085419804 -0.075244769 -0.065919138 -0.97397149 0.2266468 -0.0032875594 0.00024700572
-0.087847687 -0.064910203 -0.065543078 0.97895288 0.2040835 0.001103177 0.00030687594
0.088003963 -0.063877746 -0.066908769 -0.98168743 0.19049877 -4.7901856e-05 0.00027859525
-0.090073645 -0.050953984 -0.068144754 0.98779881 0.15573567 0.00014492479 0.00024890414
-0.089411341 -0.055178821 -0.064141445 0.98630631 0.16492227 0.00064822152 0.00031173934
0.089108661 -0.057109535 -0.06374459 -0.98282051 0.18456276 0.00070981617 0.00025270673
-0.090757705 -0.046590406 -0.063767694 0.98891538 0.14847901 -0.00065022294 0.00021655879
0.091293879 -0.043170251 -0.064752474 -0.99207449 0.12561044 -0.0032002102 0.0002659754
-0.09284284 -0.031860184 -0.067583561 0.99535054 0.096317403 0.00061554468 0.00035325316
0.092604809 -0.034513719 -0.067556128 -0.99434209 0.10613941 -0.0042672395 0.00036123113
-0.093163371 -0.025874045 -0.06495589 0.99623579 0.086670004 -0.0016268002 0.00029650779
0.093209542 -0.02498411 -0.065632075 -0.99645513 0.084094919 -0.0022677055 0.00027578391
-0.093772881 -0.014125252 -0.06558504 0.99938011 0.035200913 -0.00050005427 0.0001698257
-0.094294876 -0.0040634167 -0.062822469 0.99990642 0.013678681 -2.9947711e-05 0.00029712688
0.094250329 -0.00492224 -0.064917393 -0.9998762 0.015654303 -0.0015908455 0.00033186434
-0.094193719 0.006013406 -0.065785877 0.99974656 -0.022146873 -0.0040386161 0.00028080741
0.094091408 0.0079854475 -0.065965004 -0.9995721 -0.02917514 0.0021091225 0.00027659169
-0.093720049 0.015143734 -0.065747604 0.99881667 -0.04857818 -0.0023296068 0.00026487076
0.093726754 0.015014559 -0.064598255 -0.99899775 -0.044755194 0.00060408493 6.3548512e-05
-0.093146317 0.026202964 -0.064696506 0.99636698 -0.085139617 0.0020086735 0.00028425668
0.093239129 0.024413856 -0.064824246 -0.99701929 -0.077150516 -0.00061649602 0.00033383284
-0.092594594 0.034072507 -0.066168144 0.99433213 -0.10629578 -0.0021920861 0.00032953318
0.092590041 0.034666102 -0.065463297 -0.99447906 -0.10485926 -0.0039812909 0.00039087559
-0.091272168 0.043308754 -0.064182132 0.99227369 -0.12406477 0.00092566246 0.00027533853
0.091014311 0.04495357 -0.065290026 -0.99065715 -0.13636243 0.0019510729 0.00018915501
-0.090051457 0.051095538 -0.063108101 0.98807234 -0.15396389 0.0028785383 0.00027907861
-0.08932592 0.055723667 -0.061051011 0.98588639 -0.167381 0.0034160824 0.00022660606
0.089212313 0.056448445 -0.06824334 -0.98380929 -0.17921838 0.00011262315 0.00022031831
0.090129808 0.050595757 -0.069238976 -0.98788977 -0.15515548 0.00067948399 0.00021439402
-0.087854594 0.065012425 -0.066156454 0.98020709 -0.1979423 -0.0035909603 0.00034259105
-0.08486852 0.077324077 -0.066440113 0.97237855 -0.23340222 -0.0018542162 0.00027810867
0.084991276 0.076861128 -0.065785341 -0.97244096 -0.23314936 2.1981743e-05 0.00028138855
-0.082812414 0.085079283 -0.063131265 0.96654445 -0.25649896 -0.00032686983 0.00013497894
0.083059721 0.084146522 -0.064560764 -0.96767807 -0.25218859 -6.6024048e-05 0.00012709366
-0.081476986 0.090116233 -0.063839167 0.96009904 -0.27965805 0.0011133623 0.00034075158
-0.079593785 0.097219259 -0.065701932 0.95253104 -0.3044329 -0.0022903043 0.00040242242
0.079551406 0.097379103 -0.067998089 -0.95272112 -0.303846 -8.8079403e-05 0.00036417707
0.081010401 0.09187609 -0.062734932 -0.9605211 -0.27819097 0.0029987593 0.00027387441
-0.076608077 0.10599864 -0.066039242 0.94758534 -0.31950247 0.00033973079 0.00034803728
0.077510774 0.10362086 -0.060352281 -0.9482078 -0.31765029 -0.00040820453 0.00029201256
-0.072743006 0.11617951 -0.066101775 0.93448305 -0.35600671 -0.00078880222 0.00026437058
0.073392481 0.11446875 -0.063058056 -0.93771237 -0.3474108 0.0011108494 0.00015063467
-0.070182011 0.12292536 -0.064538471 0.92517596 -0.37953579 0.0014024234 0.00031175287
-0.068652995 0.12695292 -0.068530202 0.91978288 -0.39242756 0.00033161382 0.00027572585
0.069440559 0.12487841 -0.067891583 -0.92360419 -0.38334703 -0.00061363104 0.00032479377
0.070932806 0.12094773 -0.067346618 -0.92716575 -0.37464738 -0.0017237337 0.00026131503
-0.065460384 0.13445055 -0.065568358 0.91121793 -0.4119243 0.00056577515 0.00027934514
0.065021984 0.13540284 -0.065209568 -0.91001242 -0.41457191 0.0027335414 0.00025042542
-0.061871409 0.14165935 -0.06718111 0.90225303 -0.43120623 -0.00075639185 0.0002921519
-0.058580909 0.14819375 -0.062594324 0.89570695 -0.44462475 0.0042275088 0.00023534322
0.059717335 0.14593698 -0.064583182 -0.89680433 -0.44242465 0.0015534059 0.0002726645
0.061481941 0.14243278 -0.065801099 -0.90065157 -0.43452942 0.0033035576 0.00021912332
-0.056153134 0.1530149 -0.066791281 0.88271493 -0.46990561 -0.0017192973 0.00031386572
0.055844117 0.15362854 -0.06830772 -0.88222528 -0.47082505 -0.0015692408 0.00022595005
-0.051057689 0.16287042 -0.06320627 0.85033011 -0.52624893 -0.00085627462 0.0023482582
-0.047801223 0.16803524 -0.067385644 0.7617386 -0.64743662 -0.024084559 0.018103419
0.048679456 0.16666555 -0.066972591 -0.80799073 -0.58912176 -0.0093028117 0.010087823
0.051562697 0.16204087 -0.063168608 -0.84721845 -0.53121567 0.0055593774 0.0042819618
-0.042095087 0.17693436 -0.063923925 0.63182396 -0.77322567 -0.054041993 0.029699869
0.043497831 0.17474668 -0.064279012 -0.63023776 -0.77634269 0.0096131777 0.027365636
-0.034831449 0.18179807 -0.065768883 0.4185029 -0.90723783 -0.042130455 0.036671799
-0.024518058 0.18179809 -0.066087887 0.18179744 -0.98329973 -0.0084419055 0.016419008
-0.01828428 0.18179809 -0.065402806 0.068500079 -0.9976511 -7.3929664e-06 0.0049584275
-0.009213239 0.1817981 -0.061472982 0.00072842313 -0.9999997 -0.00018865988 4.0087802e-05
0.003918644 0.1817981 -0.065152504 6.3820619e-07 -1 -2.2910503e-05 4.021703e-05
0.015153124 0.18179809 -0.0646258 -0.055255994 -0.99846792 -0.0029291345 0.0041929591
0.02482825 0.18179809 -0.066116549 -0.23876952 -0.97107619 0.00031397503 0.019550305
0.032789823 0.18179809 -0.066415742 -0.41711655 -0.90839905 -0.02872216 0.029994911
-0.040014178 -0.18017969 -0.055958144 0.49564037 0.86836898 -0.016609637 0.031925078
-0.036498327 -0.18165769 -0.053355683 0.46871001 0.88322377 0.015056724 0.029469855
-0.023489602 -0.18179809 -0.053394724 0.16506039 0.98624283 0.0089498078 0.016736792
-0.0063139102 -0.18179809 -0.053766098 1.1706737e-06 1 -1.6889297e-05 3.5470806e-05
0.0042411098 -0.18179809 -0.056602467 1.1278594e-06 1 -1.4719113e-05 3.7205111e-05
0.013124422 -0.1817981 -0.055308394 -0.0073799612 0.99997228 -0.0010114532 0.00021468721
0.02596198 -0.18179809 -0.056737125 -0.19486916 0.98059636 -0.02137222 0.022501085
0.033181496 -0.18179809 -0.05405286 -0.38854975 0.92088151 -0.031722508 0.034854498
0.040102437 -0.18004204 -0.050702263 -0.54091895 0.84091914 0.016175667 0.032735646
-0.042154077 -0.17684238 -0.053032655 0.63594824 0.77162892 0.012593118 0.030402707
0.043168709 -0.17525996 -0.05394271 -0.66965723 0.74266911 -0.0013812764 0.025309308
-0.051109597 -0.16279197 -0.05389078 0.84730363 0.5310595 0.0072428524 0.0040747849
-0.047990639 -0.16773981 -0.054845661 0.76922345 0.63896066 -0.0049618017 0.018490691
0.052190285 -0.16088444 -0.054152671 -0.8499788 0.52681023 0.0026658431 0.0037491661
-0.055715807 -0.15388337 -0.05465031 0.88071376 0.47364798 -0.00091239862 0.00025597186
0.05568511 -0.15394433 -0.056840051 -0.88250726 0.47029856 0.00039277648 0.00033208233
-0.061781108 -0.14183867 -0.054028854 0.90264052 0.43039358 -0.0011852359 0.00026139684
-0.059018135 -0.14732547 -0.053600479 0.89790094 0.44019672 -0.00083653157 0.00018879057
0.059418105 -0.14653119 -0.054328449 -0.89636844 0.44330588 -0.0018643892 0.00019572084
0.060191885 -0.14499462 -0.050996114 -0.89769089 0.44062147 -0.0019344098 0.0002396989
-0.06458611 -0.13626842 -0.053333491 0.90983081 0.41497853 0.00084131869 0.00030906082
0.065218121 -0.13496312 -0.056164175 -0.90996259 0.4146893 0.00093638618 0.00027070122
-0.070371032 -0.12242745 -0.050048396 0.92726821 0.37438187 -0.003447423 0.00036890621
-0.068876483 -0.12636422 -0.054087799 0.92028004 0.39125457 -0.0021246949 0.00028011439
0.068468414 -0.1274391 -0.05390276 -0.91987485 0.39219725 0.0033979462 0.00032274643
0.070250712 -0.12274439 -0.053760547 -0.92498392 0.38000637 0.00019280368 0.00033551507
-0.0719795 -0.11819063 -0.055925213 0.93384939 0.35766539 0.00091434026 0.0002347197
0.073356368 -0.11456388 -0.055151016 -0.93698949 0.34935325 0.0017246006 9.741394e-05
-0.075121023 -0.10991563 -0.05833599 0.94145459 0.33713645 0.0014881364 0.00027276587
0.078497268 -0.10099389 -0.053490892 -0.94940037 0.31403396 0.0046478892 0.00042441505
-0.080786683 -0.09271989 -0.055353403 0.95805705 0.28656638 0.0025457258 0.00030475846
-0.079525128 -0.097478233 -0.053557377 0.9523288 0.3050352 0.0048390185 0.00040728046
0.079541057 -0.097418122 -0.055600643 -0.9529177 0.30322781 -0.00091531151 0.00039267956
0.080363229 -0.094317064 -0.054041561 -0.95574915 0.29418144 0.00089660491 0.00033782254
-0.082246467 -0.087213911 -0.056645919 0.96231461 0.2719343 0.0015640314 0.00019873944
0.08294829 -0.084566794 -0.055066261 -0.96924907 0.24608153 -0.00037290005 0.00020194441
-0.085511029 -0.074900739 -0.055400692 0.97402918 0.2264225 -7.6202668e-05 0.00029716088
0.085004844 -0.076809928 -0.058299184 -0.97269654 0.23207758 -0.0011810559 0.0001821216
-0.087455794 -0.067238182 -0.054363895 0.97694623 0.2134538 0.0036840208 0.00035623455
0.088058278 -0.063726604 -0.052720048 -0.98072183 0.19540036 0.0018714891 0.00025537328
-0.089185849 -0.056617152 -0.054306962 0.9843694 0.17610431 0.0020441369 0.00027136158
0.089160182 -0.056780957 -0.055822127 -0.98347366 0.18104956 0.00078119454 0.00019290909
0.090165623 -0.050367285 -0.051010344 -0.98866367 0.15014033 0.0014278367 0.00026672785
-0.090978645 -0.045181122 -0.056220371 0.9911387 0.13281588 -0.0019789676 0.00020745724
0.091071792 -0.044586867 -0.054445554 -0.99198925 0.12631111 -0.0016497922 0.00024594611
-0.092692107 -0.032979529 -0.054973409 0.99419266 0.10755603 -0.003557944 0.00032343669
0.092383422 -0.036220137 -0.056068987 -0.99301457 0.11799201 0.0002519378 0.00025334489
-0.093115963 -0.026787842 -0.056477882 0.99616212 0.087522887 0.00087988825 0.00031368164
0.093179844 -0.025556803 -0.056670766 -0.99664587 0.081814289 -0.0018645523 0.00022132606
-0.093672544 -0.016059469 -0.052996054 0.99868709 0.051223241 -0.00060122134 0.00018617352
0.093735866 -0.01483882 -0.055762142 -0.99881178 0.048724901 -0.00096192636 0.00029037221
0.094289571 -0.0041656974 -0.054624934 -0.99995011 0.0095891748 -0.002801327 0.00030598967
-0.094334155 0.0033062997 -0.054784816 0.99995178 -0.0091709169 -0.0035223819 0.00030219278
0.094208032 0.0057375096 -0.05687096 -0.99979055 -0.020466249 0.00017563719 0.00028755324
-0.093732081 0.014911823 -0.056304429 0.9983452 -0.057485253 0.0014982742 0.00014380734
0.09369985 0.015533063 -0.053885967 -0.99839789 -0.056575313 0.00095744833 0.00015661742
-0.093266562 0.023885081 -0.056090336 0.99744904 -0.071371399 -0.001242232 0.00028387428
0.093322359 0.022809412 -0.051720422 -0.99764657 -0.068565436 -2.139123e-05 0.00022631575
-0.092624545 0.033793636 -0.055059269 0.99443769 -0.10530594 -0.0020762768 0.00040221078
0.09261521 0.034741588 -0.05191135 -0.99459594 -0.10370751 0.0048565846 0.0003036061
-0.091548085 0.041548662 -0.052791841 0.99257523 -0.12162208 0.0015514739 0.00026849812
0.090995908 0.045070991 -0.054869365 -0.9913168 -0.13149334 -0.00069377234 0.00025916161
-0.089421257 0.055115521 -0.054524884 0.98643184 -0.16416991 -0.00063189951 0.00017659739
0.089267969 0.056093425 -0.055315558 -0.98367715 -0.17993139 -0.0019942105 0.00022882962
-0.088648707 0.060043629 -0.053563904 0.98309582 -0.18303232 0.0046675545 0.00027195952
0.087873518 0.064907759 -0.056885794 -0.97876787 -0.20496742 0.0013352702 0.00031457155
-0.085692883 0.074214794 -0.055624552 0.97374517 -0.22764005 -0.0005860547 0.00024103279
0.085388958 0.075361155 -0.052059662 -0.97258919 -0.23252288 0.0018079733 0.00017545732
-0.082770959 0.085235663 -0.05525583 0.96640188 -0.25703526 -0.00058718253 0.00014855225
0.083042532 0.08421132 -0.055013236 -0.96699929 -0.25477853 -0.00040195018 0.0001731829
-0.080491364 0.093833819 -0.05408442 0.95606107 -0.29316482 0.001297334 0.00034185057
-0.079273164 0.098428577 -0.052964769 0.95254821 -0.30435193 0.0046801469 0.00036491457
0.079546481 0.097397678 -0.059642315 -0.9547382 -0.29744694 0.00064233912 0.00034336385
0.081136361 0.091400996 -0.053452834 -0.96006614 -0.27977148 0.00089600187 0.00034083356
-0.076940127 0.10512397 -0.054508049 0.94591641 -0.32440898 0.00097976427 0.0002549816
0.076585859 0.10605713 -0.05567193 -0.94511247 -0.3267422 -0.0013730109 0.00028565587
-0.073673882 0.11372751 -0.058154326 0.9384883 -0.34531054 -0.00060820457 0.00016993712
0.073056005 0.11535505 -0.055354323 -0.93795449 -0.34675628 -0.0012354844 0.00014595849
-0.070646487 0.1217019 -0.055441976 0.9278276 -0.37300923 0.00021030424 0.00034015608
-0.069858864 0.12377657 -0.058398277 0.92436558 -0.38150737 -0.00054916349 0.00034084558
0.068992116 0.12605964 -0.054892607 -0.92084986 -0.38991496 -0.0013713664 0.00026904501
0.071244225 0.1201274 -0.056107793 -0.92751753 -0.37377691 -0.0014229933 0.0002595429
-0.065256551 0.1349065 -0.054742426 0.90991402 -0.41479591 0.00093411742 0.0002952647
0.066088863 0.13320096 -0.056752264 -0.91295463 -0.40805098 -0.0028690961 0.00028759168
-0.061765146 0.14187038 -0.054993749 0.90076488 -0.43428609 0.0042811283 0.00016119536
-0.059585523 0.14619873 -0.057736784 0.89661717 -0.44280639 -0.00028502397 0.00022535327
0.058455978 0.14844184 -0.056717861 -0.89260381 -0.45083728 -0.0020234997 0.00015285594
0.060753047 0.14388022 -0.056104548 -0.89798528 -0.44001833 -0.0025352561 0.00026232208
-0.055846941 0.15362294 -0.057992645 0.88023466 -0.47453725 -0.0011539153 0.00025781113
0.055153947 0.15499911 -0.054144241 -0.87935525 -0.47616309 0.0017451204 0.00027147186
-0.051969554 0.16132279 -0.05350377 0.84912527 -0.52815253 0.0064193108 0.0038360464
-0.049645606 0.16515878 -0.054114476 0.81938916 -0.57321143 0.0054867165 0.0093236743
0.047612987 0.16832879 -0.055217277 -0.75393176 -0.65693498 0.0048317816 0.017657213
0.051568575 0.16195098 -0.057340071 -0.84168828 -0.53996366 -0.00034047413 0.0046697953
-0.042223707 0.17673376 -0.056384131 0.60799444 -0.79385316 0.011831872 0.028353274
0.042387508 0.1764783 -0.058453362 -0.63389987 -0.7731939 -0.01849748 0.023506831
-0.035110496 0.18160124 -0.054644194 0.41788444 -0.90847564 -0.0066835638 0.0336615
-0.024819376 0.1817981 -0.054711059 0.20282806 -0.97921413 -0.00062497501 0.022928229
-0.015889967 0.1817981 -0.056772444 0.037986606 -0.9992767 0.0017503439 0.0025225647
-0.0085846288 0.1817981 -0.054961953 0.00083054043 -0.99999964 -4.5936093e-05 4.3879161e-05
0.0044726715 0.18179809 -0.052516412 -0.0010297735 -0.99999946 7.3437019e-05 2.3078659e-05
0.012697517 0.18179809 -0.056558464 -0.0010325277 -0.9999994 -0.00044929908 4.1701802e-05
0.022640865 0.1817981 -0.054001633 -0.16182067 -0.98679918 0.0064420947 0.012918462
0.033484258 0.18164136 -0.052810304 -0.39531344 -0.91822392 0.024333769 0.029898768
-0.034479592 -0.18175192 -0.043210521 0.4174622 0.90862238 0.011437405 0.030849427
-0.024089426 -0.18179809 -0.043831833 0.20946062 0.97780585 -0.0046939501 0.020577321
-0.013950409 -0.18179809 -0.044326328 0.039147984 0.99919194 0.0091094002 0.0032792808
-0.0026446301 -0.1817981 -0.048657056 -6.0487308e-09 1 -1.5715932e-05 3.3014181e-05
0.0075482032 -0.18179809 -0.046344433 -0.00050899008 0.99999988 -1.1689806e-05 3.906422e-05
0.012679591 -0.1817981 -0.045702145 -0.007954021 0.99996829 0.0003347797 0.00024216283
0.023670198 -0.1817981 -0.04752963 -0.17002524 0.98535097 0.013219077 0.015244651
0.03602897 -0.18167403 -0.04551509 -0.4181169 0.90839261 -0.0010612418 0.032772508
-0.043152846 -0.17528471 -0.046219908 0.63612109 0.77124768 -0.022956042 0.028473074
0.044314969 -0.17347227 -0.046638656 -0.69771707 0.71636426 -0.0036533577 0.01803356
-0.051246639 -0.16266185 -0.048269395 0.8486625 0.52889091 -0.0068144654 0.0024017468
0.047752891 -0.16811059 -0.043882344 -0.7648654 0.64396846 0.016898682 0.016028909
0.051129594 -0.16274644 -0.045177333 -0.84502149 0.5347262 -0.0025765125 0.0037261839
-0.055100545 -0.15510516 -0.045870397 0.88072759 0.47361997 0.001737403 0.00031287325
0.055291057 -0.15472682 -0.045936521 -0.88056982 0.47390801 0.0028322989 0.00038457548
-0.058392357 -0.14856817 -0.043217499 0.89448577 0.44709575 -0.00069481833 0.00028913759
0.059506878 -0.14635491 -0.043622859 -0.89855081 0.43886897 -0.00065847422 0.00019554999
0.062380381 -0.14064863 -0.040489916 -0.90360814 0.42835552 -0.0019603334 0.00026318722
-0.06490051 -0.13564405 -0.045045197 0.90880144 0.41722021 -0.0026855876 0.00022834784
0.065351978 -0.13474751 -0.046279099 -0.91128391 0.41177696 -0.001163678 0.00027477319
-0.070358209 -0.12246125 -0.047462773 0.92724216 0.37444785 -0.0032830888 0.00036699878
-0.06872467 -0.1267641 -0.04628 0.92037141 0.39104208 -0.0016010369 0.00028392411
0.06834244 -0.12777093 -0.046087239 -0.92005903 0.39177901 -0.00077846053 0.00034133843
0.070727259 -0.12148913 -0.042344663 -0.92843395 0.3714838 0.0031898026 0.00034625918
-0.072785854 -0.11606666 -0.044341069 0.9358511 0.35238889 0.0021999073 0.00018021547
0.072804764 -0.11601685 -0.04327992 -0.93567955 0.35285094 -0.00025087493 0.00018604279
-0.077095285 -0.10471528 -0.043302093 0.94640791 0.32296032 0.0029288302 0.00026003952
0.076832496 -0.10540155 -0.047000233 -0.94470513 0.3279171 0.0016111595 0.0002296147
-0.080208644 -0.094900131 -0.047400568 0.9552989 0.29561916 0.0036527372 0.00043474647
-0.079833075 -0.096316725 -0.045213193 0.95469171 0.29756051 0.0046243877 0.00042277653
0.079825051 -0.096346974 -0.049795181 -0.95332819 0.30192506 0.0025703206 0.00038680507
0.080370232 -0.094290674 -0.04329586 -0.95423138 0.29906908 0.00027740165 0.00043180821
-0.08355701 -0.082270823 -0.042383853 0.97033608 0.24175309 -0.0018347003 0.00021249439
0.082252264 -0.087192051 -0.045245036 -0.96661973 0.25621501 0.00054873532 0.00010798229
-0.086033955 -0.072928324 -0.045232683 0.97344476 0.22892198 0.00024637874 0.00025197203
0.085902147 -0.073425531 -0.04743392 -0.97430193 0.22524057 -0.0015778739 0.00028556335
-0.088585295 -0.060448095 -0.042279996 0.98253006 0.18609685 -0.0016322337 0.00029254126
0.087871447 -0.064707972 -0.044953045 -0.98034155 0.19730686 0.00074868993 0.00027415506
-0.089241967 -0.056259222 -0.045167781 0.9846679 0.17442603 0.0021700079 0.00019587325
0.088999443 -0.057806272 -0.045029625 -0.98277169 0.18480904 0.0023047796 0.00027469918
-0.090812303 -0.046242155 -0.045022108 0.9893021 0.14588101 -0.00031641743 0.00018304792
0.090804711 -0.046290573 -0.044434842 -0.99045682 0.13782302 0.00027400904 0.00025279549
-0.092350557 -0.036347136 -0.042309836 0.99310493 0.117226 0.00088265853 0.0002881932
-0.093205884 -0.025054691 -0.046345212 0.99730074 0.07341519 -0.001201755 0.00023223454
0.093324557 -0.022767251 -0.045112148 -0.99737555 0.072401606 -0.00031456052 0.00030946414
-0.093750507 -0.014556557 -0.044642963 0.99886948 0.047489703 -0.002115834 0.00013504861
0.093568608 -0.018062916 -0.043044053 -0.99823582 0.059358388 0.0013748574 0.0003015449
-0.094328351 -0.0034182467 -0.04621521 0.9999603 0.0083522918 0.0031176629 0.00031751682
0.094422676 -0.0016001271 -0.041108329 -0.9999761 0.0067012445 0.0016841905 0.00029790954
-0.094197139 0.0059472318 -0.046635371 0.99968457 -0.024767254 -0.0041728769 0.00030578312
0.094217472 0.0055554612 -0.044224776 -0.99992025 -0.012619031 0.0004855099 0.00036729389
-0.09363848 0.016716145 -0.046023346 0.99833822 -0.057612758 0.0012249852 0.00019758151
0.093822181 0.013174882 -0.045114152 -0.99923068 -0.039137721 0.0025042938 0.0001683178
-0.093109474 0.026912797 -0.045290865 0.99595499 -0.089819312 -0.002460971 0.00032698928
-0.092374958 0.035680663 -0.045699291 0.99417192 -0.10780555 -0.00042118051 0.00034355215
0.092554897 0.034726307 -0.0439643 -0.9950273 -0.099599786 0.00074291386 0.00036229854
-0.090990603 0.04510485 -0.04435683 0.99047625 -0.13768318 0.00034675116 0.00025526079
0.090839401 0.046069361 -0.044199303 -0.98936009 -0.14546905 -0.0022901667 0.00022091108
-0.089616284 0.053871509 -0.048516855 0.98670745 -0.16250563 0.00057253987 0.00016769416
0.089182951 0.056635648 -0.042781778 -0.98444289 -0.17570134 -0.0011385366 0.00021077329
-0.08764001 0.066092551 -0.043578081 0.97974163 -0.20025389 -0.0021598139 0.00029108973
0.087634608 0.066512436 -0.044385321 -0.97774696 -0.20978236 -0.0014546554 0.00033185468
-0.085895807 0.073449403 -0.043445993 0.97550362 -0.21998087 0.0010643087 0.00032210062
0.085708223 0.074156947 -0.045150552 -0.97386891 -0.2271017 0.0020633885 0.00027935058
-0.081969164 0.088259853 -0.045539692 0.96123499 -0.27572352 -0.0019377242 0.00024406302
0.083139181 0.083846807 -0.045997392 -0.96827841 -0.24985009 0.0034404688 0.00024193169
-0.079604872 0.097177409 -0.045550678 0.95542318 -0.29523945 -0.00047742695 0.00033768406
0.079742931 0.096656725 -0.048879489 -0.95421773 -0.29911271 0.00015511621 0.00038227884
0.080948792 0.092108466 -0.043383788 -0.95952797 -0.28161258 0.00061278185 0.00031371546
-0.076092064 0.10735782 -0.043128978 0.9443658 -0.32889697 -5.0822414e-06 0.00028072498
0.07672815 0.10568233 -0.044626117 -0.94541919 -0.32583636 0.0036349227 0.000253996
-0.073505238 0.11417174 -0.043242019 0.9360441 -0.35187912 -0.0015690253 0.00022892639
0.072622709 0.11649638 -0.043199237 -0.93449467 -0.35597676 0.00029130839 0.00028915604
-0.068465039 0.12744799 -0.042557694 0.91944414 -0.3932198 0.00081173389 0.00029689266
0.068678893 0.1268847 -0.045633662 -0.92062783 -0.39043829 0.0015709347 0.00030352824
0.070398733 0.1223545 -0.041058756 -0.92671466 -0.37576497 0.00081970869 0.00025760065
-0.065769859 0.13391769 -0.043654159 0.91232294 -0.40946704 0.0018871326 0.00033973705
0.064826347 0.13579136 -0.046263471 -0.91021353 -0.41413745 -0.0012163447 0.0002467845
-0.061975427 0.14145279 -0.044112682 0.90362644 -0.42832115 -0.00045487311 0.00027962396
-0.05850831 0.1483379 -0.046042349 0.89312583 -0.44979981 -0.0025239412 0.0001542939
0.059360344 0.14664589 -0.048464853 -0.89369947 -0.44866419 -0.0013556052 0.00017732415
0.061199885 0.1429929 -0.044232324 -0.90015894 -0.43556052 -0.00097180152 0.00027786352
-0.056426384 0.15247227 -0.044106044 0.88528168 -0.46505493 -0.0003893736 0.00024827759
0.055003989 0.15529689 -0.043352127 -0.87930757 -0.47625285 -0.001209794 0.00025808025
-0.052569792 0.16013083 -0.049540661 0.85699916 -0.51531768 0.00049288251 0.003466171
-0.047806066 0.16802767 -0.041113079 0.77668327 -0.62984604 0.0075584273 0.015568979
0.04897945 0.16619769 -0.047761515 -0.8084088 -0.58861661 0.0023888657 0.011444211
0.051256116 0.16252221 -0.047419611 -0.84161824 -0.54006481 -0.0029494588 0.0044262055
-0.043266308 0.17510776 -0.045543745 0.65298468 -0.75683725 -0.028432768 0.024738232
0.041322339 0.17813952 -0.045056839 -0.60210115 -0.79793924 0.027696488 0.028627522
-0.032322641 0.18179809 -0.047270849 0.3593176 -0.93320876 -0.0035038628 0.032909434
-0.025023341 0.18179809 -0.044194438 0.19489908 -0.98049057 -0.025546843 0.017078554
-0.012213429 0.18179809 -0.045728222 0.00076145935 -0.99999976 0.00013190765 2.5178026e-05
-0.0059644515 0.18179809 -0.043909464 -1.5212321e-06 -1 -1.7331471e-05 3.5111301e-05
0.0044369986 0.18179809 -0.046604004 -0.00097860559 -0.99999952 0.00022003807 2.3394306e-05
0.015684685 0.18179809 -0.044792272 -0.016212109 -0.99986738 0.00155308 0.00094845874
0.024368938 0.18179809 -0.045139894 -0.25046703 -0.96811247 -0.004950183 0.021746408
0.032754127 0.18168503 -0.046921264 -0.37243026 -0.92799842 -0.010706429 0.032218978
-0.035940576 -0.18174145 -0.034786019 0.43468663 0.90027899 -0.023351349 0.040686451
-0.022136362 -0.18179809 -0.036268618 0.10812314 0.99413359 -0.0027916015 0.0078291744
-0.015394882 -0.18179809 -0.033418279 0.026794186 0.99963051 -0.0045715282 0.0025512953
-0.007524312 -0.18179809 -0.034470674 0.00042812311 0.99999994 0.00015749459 4.1951796e-05
0.0082482398 -0.1817981 -0.032452043 2.3332984e-06 1 -8.5432011e-06 3.4877474e-05
0.011801841 -0.18179809 -0.037991211 -0.00045657303 0.99999988 6.8164663e-05 3.2369848e-05
0.026845012 -0.1817981 -0.033006836 -0.25452241 0.96704477 -0.0065444913 0.022956107
0.033350661 -0.18179809 -0.035414126 -0.3877247 0.92122465 -0.031853769 0.034560945
-0.044958349 -0.17246889 -0.035995111 0.71199322 0.70218599 -0.00067566067 0.024200337
0.043827724 -0.17423218 -0.033629909 -0.70586121 0.70831168 -0.0073839561 0.016522318
-0.051302031 -0.16235694 -0.033481587 0.84672707 0.53201151 0.0041245776 0.0025289205
-0.048382491 -0.16712868 -0.037073907 0.79734701 0.60346335 -0.0083547262 0.016158622
0.048590966 -0.16680355 -0.035714786 -0.80919141 0.58746272 -0.0098335277 0.010700156
0.051898312 -0.16146426 -0.035543982 -0.85245514 0.52279937 -0.0010106099 0.0029303269
-0.054755896 -0.15578958 -0.034260187 0.88053411 0.473977 0.0023456963 0.00025879417
0.054276682 -0.15674122 -0.036182553 -0.87965143 0.47561893 0.00018593256 0.0002693088
-0.060831942 -0.14372356 -0.035232365 0.90026593 0.43534029 0.00028577761 0.00025844708
-0.059878692 -0.14561655 -0.038777061 0.89770907 0.44058666 0.0013477439 0.00022843207
0.061156075 -0.14307988 -0.034055937 -0.90010124 0.43568057 0.00061735359 0.00022694876
-0.065390602 -0.13461626 -0.033342805 0.91069257 0.41308469 0.00020704151 0.00023425645
0.064880267 -0.13568425 -0.034389962 -0.9085418 0.41779393 7.6822653e-05 0.0002710291
-0.069257744 -0.12535995 -0.036461715 0.92127264 0.38891542 -0.0012575724 0.00032749734
0.069661103 -0.12429748 -0.035272487 -0.92464602 0.38080692 -0.0039805206 0.00029512704
0.07067205 -0.12163457 -0.036324568 -0.92780972 0.37304991 -0.0017136653 0.00029965621
-0.072499163 -0.1168218 -0.039054293 0.93482172 0.35511011 -0.0022846519 0.000217127
0.073284127 -0.11475416 -0.036259267 -0.93594098 0.35215524 0.0011032594 0.00019171899
-0.076619849 -0.1059676 -0.035706829 0.94611937 0.32381743 0.00061352242 0.0002246739
0.07729771 -0.10418206 -0.037115771 -0.94690877 0.32149792 -0.0016763005 0.00034132344
-0.080880411 -0.092366382 -0.033916287 0.95872241 0.28434062 -0.0013225863 0.00035250216
-0.079082936 -0.099146061 -0.033736598 0.95190954 0.3063674 0.0026948985 0.00040375517
0.079504207 -0.09755712 -0.036034744 -0.95183074 0.30661356 -0.0025208127 0.00043074624
0.081042781 -0.09175396 -0.032815423 -0.95909679 0.28307804 -0.00032107221 0.00030684433
-0.08290191 -0.084741734 -0.034754474 0.96850944 0.24895673 -0.0031562988 0.000190993
0.08284685 -0.084949374 -0.035224758 -0.96824425 0.24999703 0.002130704 0.00011309011
-0.086163819 -0.072438508 -0.03516224 0.97432399 0.22514334 -0.0018050695 0.00030130002
0.0850503 -0.076638505 -0.034483582 -0.97221333 0.23408616 0.0022197682 0.00025155119
-0.087887801 -0.064897358 -0.035032872 0.98144048 0.1917659 -0.00056934892 0.00040633706
0.088323839 -0.062115874 -0.033472359 -0.98180276 0.18990223 0.0007607076 0.00032913688
-0.089335047 -0.055665463 -0.037375122 0.98435056 0.17621605 -0.0013490728 0.00024449654
0.089493737 -0.054653205 -0.034907021 -0.98699635 0.160741 -0.00078698416 0.00022659633
0.090028912 -0.051239371 -0.035542265 -0.98699594 0.16074309 -0.00078473019 0.00021848908
-0.091448426 -0.042184375 -0.034491815 0.99251473 0.12212351 -0.00053342467 0.00030698275
0.090995342 -0.045074552 -0.034720022 -0.99145383 0.1304163 0.0032874509 0.00018758819
-0.092423059 -0.035560474 -0.03535575 0.99412864 0.10820435 -0.00032010645 0.00042692618
0.09265814 -0.033755425 -0.034484446 -0.9941656 0.10785908 0.0010783629 0.00028779419
-0.093202747 -0.025115004 -0.035046298 0.9969874 0.077552512 -0.001345358 0.00018777783
0.093199492 -0.0251779 -0.036994725 -0.99646741 0.083978482 0.00045833885 0.00035411242
-0.093733646 -0.014881445 -0.033791117 0.99880439 0.048837461 0.0021403604 0.00013840037
0.093721643 -0.015112989 -0.034414008 -0.99899131 0.044511341 -0.0059265834 0.00027380561
-0.094205938 -0.0057779173 -0.034466475 0.99978155 0.020599449 -0.0035351021 0.00035598472
0.094072059 -0.0083583873 -0.034355942 -0.99964714 0.026530139 0.0013484078 0.00021023172
-0.094177037 0.0063349502 -0.0347737 0.99980301 -0.019845162 0.00028340079 0.00025099298
0.094295181 0.0040575843 -0.033869218 -0.99999934 -0.0007230406 0.00085616898 0.0003698213
-0.093636267 0.016758736 -0.030268282 0.99850929 -0.054580834 -0.00033253871 0.00025029157
0.093724638 0.015055331 -0.036196489 -0.99854523 -0.05387548 -0.0022003406 0.00020058748
-0.093193896 0.025285784 -0.035822973 0.99630195 -0.085909113 -0.0014350921 0.00029457166
0.093176663 0.02561792 -0.035499267 -0.99672925 -0.080810703 -0.00069946621 0.00034175758
-0.092554577 0.033917006 -0.036085945 0.99495387 -0.10031437 0.0019551439 0.000311412
0.092445165 0.035718609 -0.034320645 -0.99380594 -0.11104032 0.0044549741 0.00037602027
-0.090933681 0.045467895 -0.03598094 0.9899444 -0.14145675 7.69861e-05 0.00032807377
0.091240183 0.043512799 -0.034767393 -0.9915933 -0.12938216 0.0017397624 0.00024857323
-0.090067513 0.050993159 -0.035929002 0.98803866 -0.15420167 -0.0011703064 0.00021046102
-0.089608736 0.053919651 -0.034933403 0.9875136 -0.15753305 -0.00040750037 0.00021070622
0.08954791 0.05430764 -0.035421867 -0.98668987 -0.16259681 0.0023150756 0.0001931225
-0.087846465 0.064966314 -0.034105461 0.97977227 -0.20009726 0.0027123252 0.00024928967
0.087540001 0.066826254 -0.035522342 -0.97796029 -0.20877622 0.0024868627 0.00037546895
-0.085767031 0.073935114 -0.033949014 0.97508597 -0.22179331 0.003882536 0.00029943301
0.085517198 0.074877448 -0.033595264 -0.97226304 -0.23388922 0.00069224893 0.00021487314
-0.083059147 0.084148645 -0.036065172 0.96456468 -0.26384333 -0.0012653009 0.00010921464
0.08263649 0.085742854 -0.037421841 -0.96543127 -0.26065737 0.00042893531 8.9131529e-05
-0.079414248 0.097896397 -0.034845356 0.9558261 -0.2939252 0.0021093371 0.00029703722
0.079391748 0.097981282 -0.034299329 -0.9538725 -0.30021095 0.00081384234 0.00037719947
0.081151947 0.091342218 -0.038280621 -0.95965898 -0.28116649 -0.00027363692 0.00029386758
-0.076636784 0.10591756 -0.033815127 0.94523782 -0.32637841 -0.0016251943 0.0002365345
0.077817835 0.10280569 -0.035083376 -0.94778365 -0.31891373 -0.00036571347 0.00032636605
-0.072887115 0.1157999 -0.036102537 0.93338096 -0.35888544 0.0010821124 0.00021274708
0.072825059 0.11596336 -0.035141263 -0.93540758 -0.35357112 -0.00033574767 0.00021750263
-0.068685137 0.12686825 -0.032807738 0.92013538 -0.39158514 0.0034579285 0.00025615224
0.068566866 0.12717976 -0.036950368 -0.92131406 -0.38881898 -0.00048408686 0.00025819926
0.070795506 0.12130938 -0.034145333 -0.92755789 -0.37366667 -0.0030840193 0.00020743025
-0.064621821 0.13619749 -0.035206262 0.90771139 -0.41959339 0.0012008306 0.00027591348
0.065621339 0.13412313 -0.037644733 -0.91023088 -0.41409969 -0.0010920273 0.00025116079
-0.061854042 0.14169385 -0.034164935 0.90216571 -0.43138888 -0.0007890797 0.0002992333
-0.058372363 0.14860788 -0.039425582 0.89219552 -0.45164287 -0.0024150196 0.00013097184
0.05808872 0.14917113 -0.033349466 -0.88783079 -0.46016994 -0.00038702547 0.00027932139
0.06166267 0.14207387 -0.038371418 -0.90153587 -0.43270397 0.00052794599 0.0003413322
-0.054475579 0.15634623 -0.035313778 0.88127989 -0.47258955 -0.0021962505 0.00023355793
0.054732993 0.15583506 -0.032827105 -0.87964249 -0.47563505 -0.00058312475 0.00024810701
-0.051323216 0.16242151 -0.033559714 0.86162186 -0.50750703 -0.0066719172 0.0020627496
-0.048001312 0.16772318 -0.035894006 0.77097791 -0.63685995 -0.0015601246 0.017754769
0.047641214 0.16828477 -0.037542172 -0.77836734 -0.62761551 -0.01558809 0.015451944
0.051336247 0.16238409 -0.035419151 -0.84121507 -0.54070032 -0.00059788115 0.0044459347
-0.043926578 0.17407802 -0.031972975 0.6597777 -0.751311 0.015003767 0.025788803
0.043542635 0.17467679 -0.0358015 -0.66943419 -0.74250811 0.023230573 0.026596723
-0.034729637 0.18179809 -0.034082025 0.38611555 -0.92226207 -0.018636752 0.031860393
-0.023257459 0.1817981 -0.034320295 0.19164076 -0.98141575 0.0098465132 0.01875915
-0.016593551 0.1817981 -0.03571425 0.062836826 -0.9980222 0.0018078146 0.0054807407
-0.0062914952 0.1817981 -0.035808574 -1.6198297e-06 -1 -9.1066477e-06 4.3447828e-05
0.0053741806 0.18179809 -0.036178809 -0.00038166586 -0.99999994 0.00019702927 3.8456623e-05
0.014544398 0.18179809 -0.035514887 -0.044424217 -0.99900585 0.0037111968 0.0037983542
0.025515877 0.1817981 -0.035021517 -0.19948514 -0.97982353 -0.012310991 0.017445385
0.034135334 0.1817981 -0.032359798 -0.39200419 -0.91947538 0.029963104 0.033012483
-0.035607383 -0.1817981 -0.024365222 0.42042813 0.90730524 -0.0061109206 0.032194465
-0.024420777 -0.1817981 -0.026819697 0.20919891 0.97780401 -0.011620648 0.023220655
-0.014921837 -0.1817981 -0.023964096 0.027732922 0.99961537 -0.00021267902 0.0026766285
-0.0047592157 -0.18179807 -0.026632849 -4.0045308e-08 1 -4.2535335e-06 3.7158647e-05
0.003651452 -0.1817981 -0.023042571 8.6781256e-07 1 -3.9913753e-06 4.0485713e-05
0.014573717 -0.18179809 -0.024634501 -0.028086143 0.99959886 -0.0036396561 0.0022830388
0.026290659 -0.18179809 -0.024883587 -0.23837498 0.97112614 -0.0095566614 0.021615116
0.035027631 -0.18179809 -0.023910861 -0.40708217 0.91316855 -0.020183098 0.036448967
-0.042925376 -0.17563947 -0.024805183 0.591901 0.80569988 -0.022380657 0.029857621
0.042663202 -0.17604834 -0.022890983 -0.61766636 0.78635162 -0.011805014 0.029607646
-0.051805265 -0.16158751 -0.024209647 0.84640127 0.53252101 -0.0051118103 0.003028865
-0.048707131 -0.1666224 -0.026116693 0.80091244 0.59866232 -0.011946521 0.011409935
0.048147097 -0.1674958 -0.02445888 -0.78981417 0.61330813 0.0068408917 0.014508695
0.051564604 -0.16194564 -0.023586471 -0.851134 0.52492553 0.0049076383 0.0033735563
-0.053727519 -0.15783177 -0.024319097 0.8795135 0.47587177 -0.0014263473 0.00028258326
0.054029517 -0.15723205 -0.025008125 -0.87978011 0.47537845 -0.0014658259 0.00026538045
-0.061038539 -0.14331329 -0.025758335 0.89753217 0.44094369 -0.0021595731 0.00019835109
-0.057818707 -0.14970735 -0.028737366 0.88944268 0.45704675 0.00029708236 0.00014725051
0.059032328 -0.14729729 -0.022862222 -0.89636374 0.44331905 0.00059530226 0.00022664419
0.060744047 -0.14389811 -0.024810918 -0.89795554 0.44008595 0.00033786127 0.00027249238
-0.065914616 -0.13363022 -0.024528619 0.91231871 0.40948087 0.00015947105 0.00030359789
0.06537687 -0.13467664 -0.025732264 -0.91123366 0.4118863 -0.0017286969 0.00025194278
-0.071051545 -0.12063494 -0.027225655 0.93006051 0.36739498 -0.0028960921 0.00029283765
0.068989046 -0.12606773 -0.026322844 -0.92250615 0.38596258 -0.003910827 0.00030197747
0.070970565 -0.12084825 -0.028288014 -0.92790979 0.37279263 -0.0030238088 0.00029803065
-0.073095351 -0.1152514 -0.022423882 0.93773085 0.34736177 -0.00083721313 0.00013546619
0.073148154 -0.11511234 -0.025005972 -0.93703693 0.34923029 0.00023444413 0.00015319133
-0.076351233 -0.1066697 -0.02339345 0.94487113 0.32744241 -8.642664e-05 0.00028531931
0.07809791 -0.10207429 -0.024309015 -0.94928324 0.31441864 0.0015213046 0.00039126648
-0.080637336 -0.093283206 -0.025830718 0.9566251 0.29131377 -0.0021631762 0.00034708786
-0.079546429 -0.097397879 -0.024412747 0.95441711 0.2984758 -0.00038652387 0.0003832349
0.079255857 -0.098493852 -0.0243886 -0.95077068 0.30989158 -0.0015452803 0.0003841327
0.08047989 -0.093877055 -0.023228476 -0.95789278 0.28711116 0.0029115742 0.00035664454
-0.083045386 -0.084200576 -0.026777115 0.96762145 0.25240263 -0.0012874963 0.00024060628
0.083294481 -0.083261043 -0.026457286 -0.96893495 0.24731335 0.0010510957 0.00010179861
-0.085361101 -0.075466186 -0.024752693 0.97169769 0.23619442 0.0039616548 0.00014946684
0.085493833 -0.074965566 -0.026470527 -0.97332901 0.22941074 -0.0011571628 0.00025493783
-0.088117264 -0.063433684 -0.02495574 0.98137045 0.19209139 -0.0035913645 0.00033758907
0.08758378 -0.066501886 -0.026230417 -0.97805113 0.20836478 0.0001749762 0.00033049
-0.088976443 -0.057952955 -0.028833669 0.98337924 0.18156332 -3.9500079e-05 0.00029550411
0.089316286 -0.055785075 -0.02447032 -0.98419464 0.17707473 -0.0023336189 0.00020164865
-0.090969749 -0.045237862 -0.02514765 0.98975807 0.14269735 0.0040522306 0.00017082861
0.091230035 -0.043577533 -0.02635406 -0.99218529 0.12463854 0.0057976376 0.0002311709
-0.092704207 -0.033478532 -0.024357107 0.99530292 0.096783012 0.0022645495 0.00039184434
0.092726536 -0.033306476 -0.02696017 -0.99435496 0.10604209 0.0036504003 0.00028400324
-0.093163311 -0.025875149 -0.022107517 0.99727726 0.07374277 1.3173056e-06 0.00013464145
0.093284875 -0.023531923 -0.023681313 -0.99766135 0.068337806 0.0012725468 0.00033162688
-0.093725622 -0.015036293 -0.025218341 0.99883282 0.048273321 0.001631226 0.00013626274
0.093647674 -0.016538851 -0.024349315 -0.99912757 0.041752812 0.00078598363 0.00028133998
-0.094078556 -0.0082332063 -0.025204746 0.99971366 0.023929564 0.00017478471 0.00029707266
-0.094287142 0.004212549 -0.027049439 0.99986649 -0.016226688 -0.0019380809 0.00025454894
0.094225883 0.0053934744 -0.024369013 -0.99986011 -0.016384119 0.0033606531 0.0004312344
-0.093606308 0.017336277 -0.025324812 0.99862272 -0.052437659 -0.0017259845 0.0002401964
0.09391927 0.011303648 -0.026285734 -0.99958253 -0.02888546 0.00060694816 0.00030010188
-0.093105055 0.026998235 -0.024487145 0.99589443 -0.090462133 0.0033094599 0.00034642519
0.093167007 0.025803925 -0.024383878 -0.99689245 -0.078775406 -8.0081372e-05 0.00023450468
-0.092673555 0.034369409 -0.02147337 0.99321258 -0.11630646 -0.0012737891 0.0003010362
0.092624351 0.033826642 -0.026593685 -0.99445868 -0.10512775 0.0003531499 0.00040495759
-0.09121348 0.043683074 -0.026696242 0.99203062 -0.12598771 -0.001521927 0.00026234463
0.091467313 0.042063892 -0.023871029 -0.99130487 -0.13158466 0.00042428932 0.00025507365
-0.090164736 0.050372995 -0.024215814 0.98804682 -0.15414706 -0.001435393 0.00022601984
-0.089456737 0.054889191 -0.026351089 0.98640037 -0.164349 -0.0019020416 0.00016109397
0.089891896 0.052113391 -0.022510696 -0.98768336 -0.15646188 0.0011015132 0.00027236843
-0.088017426 0.063891068 -0.023935447 0.98084062 -0.19480993 -0.00083129137 0.00036945177
0.088276826 0.062415808 -0.025616029 -0.98221159 -0.18776041 0.0025252267 0.00032745773
-0.085392907 0.075346261 -0.025821418 0.97373968 -0.22766356 0.00069891621 0.00025986729
0.085313037 0.075647518 -0.023206366 -0.97296143 -0.2309676 -3.7102403e-05 0.00019965145
-0.082709096 0.085468978 -0.025282584 0.96590865 -0.25888199 0.00072654767 0.0001938574
0.082535848 0.086122438 -0.022279924 -0.96509999 -0.26187584 -0.0017693007 0.00018117827
-0.080738828 0.09290041 -0.024311975 0.95931411 -0.2823399 0.0007509581 0.00032162611
-0.079628624 0.097087868 -0.024671858 0.95483083 -0.2971302 -0.0034365826 0.00030697449
0.079286657 0.098377675 -0.021698099 -0.95239961 -0.30485234 -0.00028686391 0.00034361219
0.0806849 0.093103811 -0.024755977 -0.95847297 -0.28517562 -0.0021117036 0.000273674
-0.076181449 0.1071224 -0.025727233 0.94477695 -0.32770559 -0.0023632357 0.00025897857
0.077062897 0.10480062 -0.024201607 -0.94467098 -0.32801658 0.0013985106 0.00021446055
-0.073138475 0.11513782 -0.027523389 0.93494803 -0.35478407 0.00072633824 0.0001809961
0.073131591 0.11515597 -0.024949655 -0.93768299 -0.34749043 0.0010485369 0.00017519237
-0.068651572 0.12695666 -0.022931073 0.92149049 -0.38838661 0.0033392042 0.00028342905
0.068299383 0.12788436 -0.025020061 -0.91891539 -0.39445364 -0.00092404056 0.00034794203
-0.064099133 0.13723546 -0.027279275 0.90751308 -0.42002362 0.00053295749 0.00034404115
0.064425431 0.13657743 -0.025299065 -0.90886158 -0.41709644 0.0010933249 0.00025961566
-0.061014213 0.1433616 -0.025322596 0.8955093 -0.4450337 -0.0028492147 0.0001946831
-0.059481084 0.14640613 -0.025283001 0.89436609 -0.44733486 0.00090174755 0.00020578099
0.059179086 0.14700586 -0.023714587 -0.89378089 -0.44850272 -0.0010754791 0.00023516447
0.06092269 0.14354336 -0.025255052 -0.90131229 -0.43316638 -0.0017834376 0.00022891631
-0.053540718 0.15820271 -0.027308553 0.87039876 -0.49231854 -0.0053314194 0.001039696
0.055693056 0.15392853 -0.024995107 -0.88370317 -0.46804249 0.0022018172 0.00023744129
-0.051353097 0.16249581 -0.028853713 0.8597315 -0.51074404 -0.0015235518 0.0021160971
-0.048354868 0.16717176 -0.025586078 0.79723883 -0.60345733 -0.015794413 0.012651348
0.046638489 0.16984859 -0.029061861 -0.75151163 -0.65917921 0.026701408 0.016165806
0.051527545 0.16202599 -0.026788242 -0.85036743 -0.52618861 -0.00085590594 0.0033394443
-0.043274492 0.17509499 -0.023104919 0.6234501 -0.7812351 0.031331681 0.025685402
0.044418648 0.17331059 -0.023279794 -0.74128687 -0.67118478 0.0022069714 0.018477853
-0.036311578 0.18144798 -0.023035323 0.49678615 -0.86693108 0.04042381 0.02906437
