# .PCD v0.7 - Point Cloud Data file format
VERSION 0.7
FIELDS x y z normal_x normal_y normal_z curvature
SIZE 4 4 4 4 4 4 4
TYPE F F F F F F F
COUNT 1 1 1 1 1 1 1
WIDTH 569
HEIGHT 1
VIEWPOINT 0 0 0 1 0 0 0
POINTS 569
DATA ascii
0.098694526 -0.016181111 -0.36396369 -0.98758185 0.15228175 -0.0386311 0.090000466
0.11218166 -0.013495005 -0.36684322 -0.9965865 0.065991879 -0.049601413 0.095148832
-0.11299627 -0.0073074736 -0.36573392 0.99902904 -0.016298648 -0.040930435 0.096479222
-0.10050466 -0.0024317235 -0.36060217 0.99634522 -0.085163355 0.0065821782 0.086773463
0.10065745 -0.0012709531 -0.36676458 -0.99954551 0.026752681 -0.013891104 0.091757499
0.11332954 -0.0047759949 -0.36534172 -0.99944097 0.033421256 -0.00089892524 0.09822011
-0.11363693 0.0024411287 -0.36377889 0.99215335 -0.12340211 -0.02009115 0.099146396
-0.10037856 0.0033894274 -0.36644101 0.99934232 -0.036238652 0.0012226288 0.096822187
-0.099873275 0.007227472 -0.3603197 0.99584121 -0.090566188 -0.0098980451 0.087566257
0.10044975 0.0028486748 -0.36472559 -0.99664795 0.080606587 -0.013982257 0.091467202
0.11306411 0.0067921146 -0.36247429 -0.99820745 0.0093350336 0.059116058 0.096168078
-0.11169457 0.017194834 -0.36281133 0.99416083 -0.09739843 -0.046451274 0.093749821
-0.098918304 0.014481222 -0.36340904 0.99709767 -0.07611952 0.0014547611 0.095598698
0.099278338 0.011746508 -0.36496353 -0.99783105 -0.024824271 -0.060966894 0.092244849
0.11160845 0.017848939 -0.36484131 -0.99935156 -0.019452225 -0.030299945 0.091562465
-0.11117324 0.021154741 -0.36313993 0.99222189 -0.11416735 -0.049613748 0.096467517
-0.097174615 0.025173761 -0.36357874 0.98372579 -0.16952391 -0.059540916 0.085873343
0.097513385 0.024087526 -0.364849 -0.98695523 -0.16060309 -0.011222214 0.093198955
0.10993448 0.029834509 -0.36545578 -0.97064579 -0.23769298 -0.036724269 0.096242949
0.11047007 0.026495758 -0.36321867 -0.98629051 -0.16357623 -0.021768583 0.10322746
-0.10816817 0.034098744 -0.36861974 0.96190017 -0.26461518 -0.068752266 0.094940722
-0.094653875 0.03269922 -0.36547685 0.96207637 -0.27273515 0.0049606371 0.096789651
0.093578488 0.035295475 -0.36510786 -0.95255959 -0.30383763 -0.017689185 0.088363647
0.10727756 0.036248874 -0.36615881 -0.95233774 -0.30500108 0.0052232421 0.095381223
-0.10378227 0.044687264 -0.36599961 0.92088294 -0.38822034 -0.035491288 0.091807596
-0.090320893 0.043159962 -0.36139423 0.89883208 -0.43813884 0.011627938 0.1007668
-0.088869765 0.046663303 -0.36554089 0.89024001 -0.45228806 0.053928457 0.098812677
0.089449957 0.04526256 -0.36725724 -0.88707185 -0.46103358 0.023486577 0.098264299
0.090276837 0.043266334 -0.36816624 -0.87835342 -0.4779337 0.0086393775 0.099934414
0.10275105 0.047176909 -0.36591753 -0.92680097 -0.3747012 -0.025278421 0.090756886
-0.10023834 0.053243075 -0.36853147 0.91726702 -0.3967531 -0.034757622 0.081054978
-0.099618576 0.054739319 -0.3699083 0.88814986 -0.45947117 -0.0087218601 0.085573614
-0.083572477 0.055292144 -0.36622608 0.86304349 -0.50481915 0.017710797 0.097496249
0.082927503 0.056132667 -0.36621118 -0.76339138 -0.64432359 -0.045614868 0.097628519
0.099139437 0.055621631 -0.36749226 -0.85989898 -0.50826633 -0.047319256 0.093569644
0.10103968 0.051308505 -0.36602584 -0.88856906 -0.4518657 -0.079135709 0.093931653
-0.093166918 0.064178027 -0.36496741 0.84227157 -0.53905159 0.0014207457 0.094285771
-0.076649129 0.064314827 -0.36270037 0.77503335 -0.63167626 -0.017564617 0.099071778
0.076819591 0.064092681 -0.36529255 -0.7656976 -0.63985294 0.065539934 0.095083475
0.089800246 0.068565585 -0.36249894 -0.76643288 -0.64014578 0.052859142 0.086555324
0.093925618 0.063189298 -0.36427644 -0.83679026 -0.54731983 -0.014936117 0.091415815
-0.08333645 0.07698933 -0.36308756 0.71904093 -0.6947419 -0.01771567 0.082552217
-0.071643472 0.070838332 -0.36978769 0.74391413 -0.6677866 -0.025549047 0.084894091
-0.06434679 0.076624617 -0.36615679 0.63244539 -0.77335656 0.043961439 0.09446428
0.0637426 0.077088237 -0.36433995 -0.62147576 -0.78338385 0.0088112922 0.098810703
0.085037589 0.07477238 -0.36382467 -0.73871005 -0.6739763 -0.0079675531 0.086773306
-0.07581383 0.084238447 -0.36687422 0.67264366 -0.7399413 0.0061075585 0.082422771
-0.068627208 0.089752957 -0.36858344 0.61855423 -0.78442425 -0.045488928 0.093773633
-0.051046424 0.086765312 -0.36667603 0.48948842 -0.8719331 0.011569369 0.095717229
-0.045943294 0.08916799 -0.36419654 0.42681083 -0.89858353 -0.10188296 0.10164014
0.046892814 0.088774703 -0.36835021 -0.37816364 -0.92017198 0.10136957 0.096999243
0.069215037 0.089301907 -0.36520934 -0.60601014 -0.79494208 -0.028615281 0.089307487
0.072607204 0.086699001 -0.36987165 -0.66630822 -0.7450273 -0.031107292 0.091578461
0.080766983 0.080337949 -0.36564887 -0.74631029 -0.6651811 -0.02355889 0.086868592
-0.063661911 0.093562961 -0.36899006 0.52382129 -0.85151279 -0.02317488 0.097387664
-0.058462188 0.097552843 -0.36740723 0.49128833 -0.86999464 -0.041776557 0.097014681
-0.041760273 0.09090066 -0.36229956 0.40815637 -0.90763038 -0.098058112 0.092467666
-0.033899389 0.094156742 -0.36164635 0.33380917 -0.93830943 -0.090260401 0.093139432
-0.027939584 0.096625373 -0.36119166 0.28936166 -0.95721847 0.0016266578 0.094596289
-0.015552884 0.098777235 -0.36566457 0.11143804 -0.99332428 -0.029805621 0.095940247
0.0079585416 0.099777058 -0.36464798 -0.056166232 -0.99841887 0.0022660138 0.091983907
0.014758704 0.098881789 -0.36533323 -0.19889709 -0.97981793 -0.019919207 0.093388095
0.024149999 0.09728507 -0.36852822 -0.21386428 -0.97649729 0.026742341 0.088033877
0.033957481 0.094132684 -0.36550745 -0.29196092 -0.95551199 0.041900687 0.10036121
0.040999126 0.091215946 -0.36666927 -0.36077282 -0.93052387 0.062994808 0.095101908
0.057002388 0.098509431 -0.36507332 -0.43093252 -0.90088308 0.052028645 0.1013694
0.065150984 0.092420362 -0.36721832 -0.55684954 -0.82979023 -0.036969312 0.09084145
-0.050807331 0.10124727 -0.36495337 0.47480235 -0.8786819 -0.049807228 0.096340671
-0.046537329 0.10301596 -0.36619738 0.38742793 -0.92098433 -0.041078284 0.098198727
-0.03613326 0.10732546 -0.36680928 0.3461529 -0.93727165 -0.041233152 0.10308585
-0.029724777 0.10997993 -0.36154968 0.22275202 -0.97409117 -0.039090089 0.10807109
-0.0036847279 0.10033971 -0.3622171 0.0092094131 -0.99795353 -0.063276805 0.086998582
0.0022335208 0.10053077 -0.36583352 0.021346562 -0.99977213 -0.00016767804 0.090286314
0.035387088 0.10763453 -0.36528647 -0.29255891 -0.9562425 0.0031133147 0.097372591
0.044716507 0.10377017 -0.36617494 -0.34697384 -0.93700302 0.040427569 0.085827917
0.051093675 0.10112867 -0.36355394 -0.40051228 -0.91412854 0.062919281 0.10032047
-0.02691393 0.11041503 -0.36414954 0.22347459 -0.97470933 -0.00087893521 0.10268299
-0.013415032 0.11219221 -0.36616239 0.068313137 -0.995906 -0.059199467 0.096878685
-0.0026954631 0.11360347 -0.36597836 0.021451674 -0.99976575 -0.0028774091 0.093992896
0.0065233558 0.11309951 -0.36544618 -0.00059986458 -0.99998665 0.0051299823 0.10141444
0.015135768 0.11196566 -0.36631599 -0.11897749 -0.99160677 -0.050601006 0.097600192
0.023284579 0.11089284 -0.36564663 -0.22233188 -0.97488141 -0.013214174 0.090530016
-0.022549782 -0.11098959 -0.35361108 0.17998472 0.9836514 -0.0059622247 0.098497294
-0.014940048 -0.11199143 -0.35388625 0.084001698 0.99424398 0.06650234 0.094988741
-0.0079242252 -0.11291508 -0.35371703 -0.003513745 0.99967456 0.025269052 0.088422477
0.0048332806 -0.11332201 -0.35129479 -0.011171498 0.99976188 -0.018743807 0.09150552
0.014534836 -0.11204477 -0.35439005 -0.10916414 0.99397898 0.0094338609 0.095688358
0.028317999 -0.11023018 -0.35977045 -0.22067502 0.9742834 -0.045545023 0.0962919
-0.050142959 -0.10152243 -0.35749808 0.42930365 0.90246028 -0.035549194 0.093457922
-0.044111956 -0.10402056 -0.3561224 0.33362272 0.94247133 -0.021061324 0.086446129
-0.035437807 -0.10761351 -0.35400558 0.36915308 0.92936856 -0.00022783827 0.089345105
-0.00098513055 -0.10069509 -0.35413566 -0.030812718 0.99949139 -0.0082186414 0.088332459
0.00044071724 -0.10076675 -0.35764703 0.015885396 0.99929065 0.034146715 0.088570215
0.032498639 -0.10883097 -0.35230285 -0.28333452 0.95890206 0.015112863 0.088815406
0.046084762 -0.10320339 -0.35620156 -0.35749814 0.93212414 -0.057789836 0.09561833
0.052403674 -0.10058601 -0.35495669 -0.4111779 0.91108954 -0.029132102 0.09492588
-0.064132541 -0.093201786 -0.35486427 0.5313642 0.84713531 -0.0037272898 0.092655063
-0.059046611 -0.097104363 -0.35576671 0.51709199 0.8552773 -0.033415023 0.09960793
-0.042181764 -0.090726078 -0.35247734 0.3996647 0.91665506 -0.0034197723 0.090604991
-0.036548689 -0.093059368 -0.35623199 0.36315945 0.93163633 0.012995652 0.095143266
-0.025239341 -0.097501971 -0.355295 0.25705019 0.96637726 -0.0063346503 0.098467208
-0.015105756 -0.098836079 -0.35734355 0.099392205 0.9947229 0.025443442 0.093471363
0.0077322368 -0.099806823 -0.35520676 -0.078802109 0.99687552 0.0054315766 0.093101971
0.016542288 -0.098646961 -0.35715991 -0.11009701 0.9939208 0.00019769404 0.095385559
0.025718231 -0.097273588 -0.3531391 -0.23766685 0.96894401 -0.06827949 0.090161391
0.034839056 -0.093767539 -0.35626546 -0.33582506 0.94189769 0.0070752343 0.10284248
0.04047849 -0.091431603 -0.35743612 -0.37656635 0.92623264 0.017059434 0.097326815
0.057424042 -0.098191105 -0.35810268 -0.45691466 0.88950294 -0.0036625017 0.098171629
0.066952117 -0.091038272 -0.3533169 -0.57890362 0.81465131 0.034841511 0.089693286
-0.07487154 -0.084961452 -0.3563742 0.67453903 0.73655766 -0.04979983 0.084795214
-0.053125564 -0.085234948 -0.35633123 0.56007773 0.82669586 0.053730071 0.10279708
-0.047732804 -0.088426746 -0.35206041 0.44634587 0.89420259 -0.034307718 0.094221763
0.046159767 -0.089078337 -0.35451901 -0.38134342 0.92404497 -0.026796892 0.091783069
0.054728791 -0.08400476 -0.35614577 -0.55331373 0.83226639 -0.03430032 0.10259256
0.074668378 -0.085117362 -0.35466409 -0.65780216 0.75275797 -0.025529513 0.090749919
0.080120623 -0.080933705 -0.35740721 -0.76887822 0.63911498 -0.018927865 0.096522532
-0.08496844 -0.074862428 -0.35457835 0.76835716 0.63967687 0.02099607 0.084716462
-0.070651293 -0.071786955 -0.35867184 0.69645464 0.71637428 0.04193756 0.095331535
-0.065087408 -0.076056279 -0.35304323 0.61240476 0.79049593 -0.0087519661 0.09471295
0.06530074 -0.075892605 -0.35516509 -0.6732654 0.7387706 0.030526021 0.098761849
0.071137577 -0.07141383 -0.3563638 -0.75334889 0.65402091 0.068717226 0.10546507
0.084144332 -0.075936459 -0.35223919 -0.73694378 0.67445773 0.044952806 0.082241409
-0.093017027 -0.064373337 -0.35813037 0.82114285 0.57033294 -0.021086477 0.092115581
-0.077179201 -0.063624002 -0.35737866 0.80549216 0.59257382 0.0062158378 0.098724812
0.076474354 -0.064542569 -0.35499841 -0.78678662 0.61653972 -0.029081263 0.093377054
0.092035398 -0.065652646 -0.35515651 -0.81316668 0.58191818 0.011451864 0.095923178
-0.10083783 -0.051795725 -0.35410532 0.89495438 0.44604948 -0.0098292958 0.09515927
-0.084386185 -0.054186217 -0.35294247 0.80701309 0.59044313 -0.010327885 0.098523989
0.083344139 -0.055589702 -0.35260713 -0.82227039 0.56871879 0.020743167 0.10267456
0.099437669 -0.055176049 -0.35565373 -0.87181598 0.48290864 0.082074441 0.10075183
0.1009464 -0.051533666 -0.35379782 -0.88179159 0.46339273 0.087810792 0.096079551
-0.10262229 -0.047487676 -0.35500777 0.90206248 0.43123868 -0.01778893 0.09584415
-0.090856843 -0.041866057 -0.35672399 0.90745401 0.41932541 0.026332401 0.10275798
-0.088709392 -0.047050476 -0.35282135 0.87976831 0.47530845 0.0094692223 0.10274902
0.08897192 -0.046416633 -0.35541141 -0.87935448 0.47588605 0.016379189 0.11069647
0.090812489 -0.041973144 -0.35482329 -0.90876675 0.41578767 0.035548519 0.10778487
0.10270924 -0.047277786 -0.3584764 -0.90572059 0.42340052 -0.020054022 0.10456477
-0.10647433 -0.038188029 -0.3538506 0.94117969 0.33790618 0.00054810627 0.090514772
-0.092252478 -0.038496692 -0.35395417 0.93092954 0.36292568 -0.040684514 0.097845197
0.093433358 -0.035645824 -0.35597497 -0.92294443 0.3803364 0.059311781 0.10054936
0.10842121 -0.033487819 -0.35540175 -0.96197146 0.27311313 -0.0044845245 0.093509868
-0.1107206 -0.024592826 -0.35463375 0.98166919 0.1857288 -0.042783022 0.091834463
-0.097124338 -0.025963956 -0.35295397 0.97718281 0.19297336 -0.088741355 0.089762799
0.09767618 -0.023916271 -0.35734197 -0.97724026 0.20839226 0.039675787 0.092345744
0.11072147 -0.024586249 -0.35535562 -0.97816581 0.19668648 -0.067126781 0.094469607
-0.11191095 -0.015551234 -0.35644192 0.99838543 0.02078562 -0.052863792 0.098178826
-0.09890376 -0.01459158 -0.35470241 0.99545169 0.087898657 -0.036739852 0.10185467
0.098893009 -0.014673492 -0.35616311 -0.98956299 0.14017798 0.033395182 0.091990665
0.11181911 -0.016248859 -0.35520399 -0.99531436 0.095106021 -0.017441303 0.10228904
-0.11345206 -0.003845298 -0.35496998 0.99940431 -0.021987922 0.026597751 0.098773122
-0.10044803 -0.0028617177 -0.35526833 0.99931616 -0.033910658 -0.014741261 0.094011195
-0.099730551 -0.008311566 -0.35639742 0.99869204 0.046575204 -0.02109875 0.097178608
0.0999633 -0.0065436112 -0.35216105 -0.99966544 0.025721937 -0.002706571 0.088317521
0.10045433 -0.0028137802 -0.35389417 -0.99908352 0.03722392 -0.021130333 0.089004956
0.11310641 -0.0064708563 -0.35268146 -0.99794996 -0.012629428 0.062740058 0.093329541
-0.11368065 0.0021090971 -0.35128316 0.99667513 -0.069195926 0.043018673 0.095644414
-0.10048959 0.0025460313 -0.35901016 0.99955916 -0.018165996 0.023481576 0.093317531
-0.099532627 0.0098148808 -0.35943538 0.9991138 -0.038968634 0.015908768 0.083114989
0.099752679 0.0081434799 -0.35284218 -0.99894112 -0.012802695 -0.044189375 0.084638432
0.10031447 0.003876246 -0.35531938 -0.99935091 0.026700862 0.024184017 0.091311261
0.11320271 0.0057392903 -0.35365421 -0.99968052 0.0098493639 0.023277085 0.097312771
-0.11186175 0.015924975 -0.35309502 0.99550211 -0.08644747 0.03876118 0.094391644
-0.098908305 0.014557203 -0.35659513 0.99196023 -0.1210257 0.036982026 0.091954865
0.09872634 0.01593945 -0.35555279 -0.99566072 -0.082648613 -0.042766094 0.091608971
0.11192541 0.015441418 -0.35656554 -0.99918133 -0.040383801 -0.0024031883 0.093533844
-0.11067584 0.024932858 -0.35477552 0.97786278 -0.2009784 0.058241315 0.08808694
-0.097488135 0.025344398 -0.35860437 0.9847973 -0.17368674 0.0026810244 0.085060827
0.097318567 0.02498682 -0.3548345 -0.97759682 -0.20677625 -0.039344609 0.096583031
0.11075816 0.024307536 -0.35459349 -0.9953953 -0.089153983 -0.035212625 0.096132398
-0.10790403 0.034736477 -0.35004744 0.96454555 -0.26111281 -0.038367957 0.089998052
-0.093322396 0.035913702 -0.35618702 0.9567191 -0.29097795 0.0045083198 0.093029283
0.093261786 0.036060058 -0.3553935 -0.95435381 -0.29493347 -0.047149047 0.094775364
0.10703111 0.036843892 -0.3544209 -0.95672369 -0.29074752 -0.012066878 0.094782688
-0.10414159 0.043819796 -0.35661951 0.92057729 -0.38955468 -0.028008215 0.087434918
-0.090889417 0.041787434 -0.35251954 0.92346346 -0.37972513 -0.05499059 0.096043862
-0.089472368 0.045208488 -0.35255671 0.89233184 -0.44417062 -0.080350377 0.09293212
0.08848653 0.047588456 -0.35724065 -0.87484193 -0.48238513 -0.044228949 0.10223059
0.10426439 0.043523341 -0.35204589 -0.93620104 -0.3513487 0.0090288352 0.088924348
-0.10090455 0.051634703 -0.35226223 0.90155154 -0.43073168 0.040926639 0.093584403
-0.096448593 0.059901267 -0.35509288 0.83495355 -0.55031961 -0.00088188419 0.10604127
-0.084071159 0.054629106 -0.354653 0.86852086 -0.49533087 -0.017857345 0.10509234
0.084078483 0.054632675 -0.35414869 -0.85424423 -0.51459664 -0.073872551 0.093302272
0.09852425 0.057079207 -0.35342348 -0.87056196 -0.49186617 -0.013772623 0.095841475
-0.092816025 0.064635321 -0.35398278 0.85357517 -0.5206033 0.019539345 0.10155033
-0.089440778 0.069034025 -0.35419106 0.79171461 -0.60896426 0.048481632 0.087906398
-0.07529477 0.066079877 -0.35429803 0.78247774 -0.62137246 0.040308703 0.096205093
0.076822028 0.064089514 -0.35511228 -0.78318465 -0.62057704 -0.03880664 0.091919266
0.094182283 0.062854812 -0.35799909 -0.86348277 -0.49798167 -0.080073372 0.092108376
-0.085869163 0.073688641 -0.35603398 0.73096693 -0.6783489 0.074364766 0.082075238
-0.070448548 0.071942575 -0.35147119 0.64914459 -0.75928617 0.045779753 0.08913824
-0.061453134 0.078844994 -0.35200858 0.55920905 -0.8287974 0.019499185 0.08904364
0.066701189 0.074818037 -0.35344967 -0.70876402 -0.70494199 -0.026653118 0.10251099
0.071050256 0.071319915 -0.35253039 -0.78083253 -0.61861604 -0.087262958 0.089509323
0.084179193 0.075891078 -0.35544929 -0.75290215 -0.65638936 -0.047867402 0.086058743
-0.076465338 0.083738536 -0.35349235 0.6696378 -0.7406289 0.055264264 0.087426655
-0.069815032 0.088841505 -0.35697269 0.59194535 -0.80548638 -0.028147742 0.087756924
-0.053049613 0.085293233 -0.35480049 0.4709262 -0.88203758 0.015435851 0.099036254
-0.048303414 0.088190407 -0.35222757 0.41093558 -0.91087067 -0.038036224 0.094267018
0.04651862 0.08892969 -0.35544086 -0.40554103 -0.91405362 0.0065236771 0.1054882
0.051999949 0.086050451 -0.35504204 -0.52339226 -0.85067195 -0.049169742 0.10251895
0.076321669 0.083848797 -0.35414535 -0.73159552 -0.68165064 -0.010974484 0.087634273
-0.062773079 0.094244987 -0.35551628 0.49856386 -0.86683762 -0.0051556113 0.09667962
-0.058070138 0.097723663 -0.35637343 0.46321946 -0.88519156 -0.043170493 0.096550159
-0.042483944 0.090600908 -0.35332474 0.39856458 -0.91620475 -0.041412625 0.095074363
-0.036011219 0.093281992 -0.35408095 0.33130282 -0.94077617 -0.071963511 0.096603885
-0.026831543 0.096708268 -0.35647076 0.28370705 -0.95871562 -0.019359196 0.096872963
-0.017577492 0.098510683 -0.3529658 0.13055122 -0.99144065 0.0014211724 0.093519442
-0.0068875328 0.099918053 -0.3558507 0.054522041 -0.99842584 0.013159775 0.09513133
0.0086561739 0.099685207 -0.3559624 -0.059806395 -0.99819094 -0.0061661275 0.094750084
0.017196508 0.098560847 -0.35402739 -0.15697749 -0.98722512 -0.027285801 0.092632979
0.022541733 0.097857125 -0.35677886 -0.13700959 -0.98961782 0.043415818 0.089138031
0.035624187 0.093442313 -0.3550421 -0.31280205 -0.94976884 -0.0096912282 0.093184851
0.040886071 0.091262773 -0.35894194 -0.32238579 -0.94649887 -0.014400763 0.096974894
0.058391321 0.097607233 -0.35539389 -0.53075719 -0.84752011 0.0025385576 0.10147668
0.062419653 0.094516188 -0.35404512 -0.51030964 -0.85997742 -0.0047889459 0.086346015
-0.051865883 0.1008088 -0.35523516 0.44649503 -0.89348561 -0.048226062 0.09389732
-0.044643495 0.10380041 -0.35557818 0.37335697 -0.925282 -0.066767126 0.097079709
-0.035818778 0.10745572 -0.35694957 0.36702618 -0.92630476 -0.085155122 0.099292986
-0.0042668045 0.10026309 -0.35524827 0.017286789 -0.99946964 -0.027598638 0.091648102
0.0031491034 0.10041024 -0.35351232 0.0085719898 -0.99976075 -0.020123251 0.096431114
0.035826921 0.10745235 -0.35464367 -0.27465999 -0.96146208 0.012349742 0.098642319
0.046007413 0.10323546 -0.35708562 -0.31855318 -0.9469313 0.042954315 0.097165167
0.050223775 0.10148899 -0.3511515 -0.3816849 -0.92376471 -0.031230139 0.099190138
-0.025283374 0.1106297 -0.35529226 0.19931234 -0.97276372 -0.11834475 0.095117621
-0.013049094 0.11224037 -0.35410795 0.1302435 -0.99132562 -0.017609568 0.10277059
-0.0051341886 0.1132824 -0.35750225 0.0048093428 -0.99841255 -0.056118876 0.092446499
0.0058661993 0.11318602 -0.35249826 0.045126207 -0.99782532 0.048042722 0.093314856
0.015131153 0.11196627 -0.35308075 -0.11947688 -0.99175596 0.04631976 0.10388122
0.025340905 0.11062212 -0.35933501 -0.20620169 -0.97795403 -0.032965817 0.091121286
-0.024767792 -0.11069757 -0.34339187 0.2340095 0.97218508 0.009788081 0.099960618
-0.016894806 -0.11173407 -0.34277558 0.011115749 0.9996196 -0.025240991 0.098920554
-0.0076783467 -0.11294746 -0.34558034 -0.0048046359 0.99986446 0.015748298 0.096081279
0.0079087429 -0.11291711 -0.3439714 -0.025159398 0.99957108 -0.014986434 0.092181645
0.014849513 -0.11200334 -0.34609047 -0.02150682 0.99892092 0.041163627 0.096255295
0.024311235 -0.11075769 -0.34394029 -0.19719627 0.98025739 0.014455679 0.095543429
-0.052828159 -0.10041018 -0.34504664 0.46960402 0.88281888 0.010141063 0.094527982
-0.043266054 -0.10437094 -0.34364572 0.39113843 0.92016631 0.017455496 0.093360178
-0.034604501 -0.10795867 -0.34400281 0.29605067 0.95461076 0.03274655 0.091098443
-0.0039725229 -0.10030179 -0.34284005 -0.032052863 0.99946815 -0.0060069319 0.099039584
0.0037904661 -0.10032575 -0.34362289 0.0046229325 0.99997193 -0.0059027886 0.10078917
0.033570491 -0.10838699 -0.34456626 -0.26063606 0.96529579 -0.016517494 0.087835185
0.045246892 -0.10355046 -0.34386343 -0.37331864 0.92538428 0.065551892 0.095174119
0.053728994 -0.10003705 -0.34646907 -0.39973423 0.91557497 -0.04398863 0.094438195
-0.066162512 -0.091644123 -0.34438661 0.58668345 0.80821842 0.050847389 0.094380699
-0.057955399 -0.097890921 -0.34388766 0.47159868 0.88181305 -0.00071898854 0.10394424
-0.042443205 -0.090617783 -0.34952825 0.39137587 0.91880029 0.051293209 0.095090047
-0.03543077 -0.093522429 -0.34525272 0.32623985 0.94470632 0.033127774 0.091693029
-0.021266252 -0.098025031 -0.34609661 0.18594147 0.98229468 0.022865538 0.09365543
-0.013592998 -0.099035241 -0.34567305 0.038939938 0.99792343 0.051308751 0.092689142
-0.0081015918 -0.099758193 -0.34368026 0.038980272 0.99913126 -0.014741044 0.095144249
0.0071461974 -0.099883959 -0.34444043 0.016543483 0.99986029 -0.0024123187 0.093269095
0.016322769 -0.098675855 -0.34592006 -0.12276872 0.99231881 -0.01520491 0.089864984
0.023852848 -0.097684503 -0.34654292 -0.19681682 0.97992712 -0.031719785 0.090949208
0.033187572 -0.094451591 -0.34488735 -0.30663496 0.95172459 -0.01397284 0.10047281
0.040277965 -0.091514654 -0.34258652 -0.31871763 0.94746959 -0.026841519 0.096375607
0.0565621 -0.098650537 -0.34185794 -0.44631988 0.89417809 0.035273273 0.095781364
0.063454397 -0.093722157 -0.34488007 -0.51445162 0.85481733 -0.068021558 0.088149339
-0.075529262 -0.084456764 -0.34441373 0.60115862 0.79832655 -0.035818208 0.079320006
-0.055547982 -0.083376162 -0.34313932 0.55116415 0.83346164 -0.039493993 0.10065775
-0.046883658 -0.088778488 -0.34459797 0.40463495 0.91447383 0.0028585007 0.10396647
0.045935892 -0.089171082 -0.34796304 -0.42037928 0.90706849 -0.022536108 0.099221244
0.056593504 -0.082573913 -0.34621102 -0.55395103 0.83253747 -0.0044241282 0.099572845
0.072159573 -0.087042436 -0.3450025 -0.65899664 0.75188404 -0.019846139 0.091252908
0.080592275 -0.080565587 -0.34854877 -0.78363341 0.62038332 0.032298394 0.088605605
-0.082234837 -0.078424938 -0.34641334 0.70844936 0.705724 -0.0072846971 0.088505119
-0.06401483 -0.076879308 -0.34299764 0.59594494 0.80278325 -0.019717788 0.091201022
0.065675147 -0.075605303 -0.34774888 -0.68575263 0.72776508 -0.010063118 0.097272731
0.071370646 -0.071193859 -0.34681129 -0.70484328 0.70828474 0.039097305 0.10008882
0.085490957 -0.074181519 -0.34307048 -0.78276122 0.62210178 0.016558923 0.079400636
-0.093770713 -0.063391104 -0.34500533 0.85009736 0.52612102 0.023044609 0.093047291
-0.075476021 -0.065843627 -0.3434729 0.78235692 0.6223923 0.023355611 0.089770138
0.077908739 -0.062673248 -0.34572402 -0.77350318 0.63276654 0.036045764 0.094217546
0.088747025 -0.069938131 -0.34273449 -0.78949887 0.61172265 0.049870104 0.088286541
0.094579026 -0.062337734 -0.34594575 -0.83865112 0.54414046 0.023988483 0.098986506
-0.10076863 -0.051962808 -0.3473005 0.88983601 0.45274588 -0.056683641 0.096566103
-0.09677802 -0.05947192 -0.34340844 0.88645583 0.46042746 -0.046931401 0.09538129
-0.085057072 -0.053357378 -0.34586117 0.86099738 0.5081597 0.021382071 0.099301048
0.084015585 -0.054714639 -0.34615576 -0.82784802 0.54855746 0.1172708 0.098307669
0.098620653 -0.05659714 -0.34585395 -0.85492975 0.51518464 0.060662497 0.10130308
0.10120585 -0.050907306 -0.34435257 -0.88635308 0.4610545 -0.042508744 0.10221637
-0.10269592 -0.047309887 -0.347128 0.90579343 0.40843293 -0.11278643 0.088109605
-0.09060365 -0.04247734 -0.3449772 0.91799772 0.38837612 -0.080274925 0.098534197
-0.089351214 -0.045500953 -0.34717047 0.87728983 0.47417784 -0.074282765 0.10460371
0.089213401 -0.045833662 -0.34565568 -0.88445532 0.46242285 0.062480193 0.1052907
0.090976968 -0.041576054 -0.34060821 -0.92652482 0.37449151 -0.036163811 0.097241379
0.10530806 -0.041003674 -0.34778625 -0.93812847 0.34628704 -0.00065735413 0.097779535
-0.10711065 -0.036651798 -0.3457092 0.9485212 0.2965 -0.1113337 0.08933536
-0.093832433 -0.034682326 -0.34386417 0.95208937 0.30086115 -0.054848418 0.091648452
0.093525082 -0.0354244 -0.34524187 -0.94659144 0.32242507 0.0025905222 0.099683404
0.10933616 -0.031278934 -0.34646311 -0.96915209 0.24122837 -0.050526679 0.090123445
-0.11061189 -0.025418557 -0.34878582 0.97058636 0.23060149 -0.069175601 0.087612614
0.097291082 -0.025541598 -0.34405458 -0.97265136 0.22244504 -0.066840373 0.090783358
0.1107804 -0.024138641 -0.34767485 -0.97959715 0.19631983 -0.042988535 0.093984678
-0.11210262 -0.014095354 -0.34510812 0.99946076 0.032788653 -0.0017482803 0.098576285
-0.098717548 -0.01600608 -0.34496316 0.98713487 0.15413603 0.042507514 0.094719648
0.09868896 -0.016223425 -0.34521455 -0.99054146 0.13553849 0.021376736 0.099643253
0.11198242 -0.015008391 -0.34696057 -0.99629837 0.080266856 -0.030769715 0.096795194
-0.11320889 -0.0056924229 -0.34782207 0.99784207 -0.065634251 0.0018366005 0.09711127
-0.10028742 -0.0040816786 -0.34977469 0.99734271 -0.070521571 0.018281642 0.094868362
-0.099819474 -0.0076361094 -0.34359461 0.99985814 0.016526083 -0.0032729618 0.096391328
0.099903286 -0.006999528 -0.34982044 -0.99960566 0.026901204 -0.0080399457 0.094140589
0.10052027 -0.0023129904 -0.34733158 -0.99868143 0.031535875 0.040508322 0.094688818
0.11311999 -0.0063676853 -0.34501252 -0.99893594 -0.029606262 0.035361033 0.099776275
-0.11350644 0.0034323137 -0.3434051 0.99971396 -0.02300076 -0.0065544508 0.096910059
-0.10044699 0.0028696363 -0.34396625 0.99992055 0.010155736 -0.0074633835 0.096128643
-0.099528901 0.0098432852 -0.34087211 0.99873763 -0.050172329 0.0024114852 0.09111549
0.099868968 0.0072601507 -0.34675699 -0.99940199 -0.023379888 0.025479255 0.095951796
0.10069363 0.00099614309 -0.34495163 -0.99986273 -0.0060439599 0.015425101 0.094237685
0.11311074 0.0064380271 -0.34458596 -0.99969757 -0.021366356 0.012175488 0.10095301
-0.098870225 0.014846395 -0.34313014 0.98709631 -0.15491004 0.040543303 0.094697334
0.098896824 0.014644486 -0.34609115 -0.9917767 -0.12673926 0.017778834 0.098411016
0.11149485 0.01871188 -0.34791857 -0.99685317 -0.077814266 0.015124271 0.092277907
-0.11053461 0.026005557 -0.34463513 0.98231453 -0.17736878 0.0599874 0.098645054
-0.097251222 0.025162756 -0.34505934 0.9819572 -0.18908097 0.0029178916 0.094967835
0.096787497 0.027173031 -0.34266081 -0.97130775 -0.21966289 -0.091156147 0.096232869
0.110825 0.023799893 -0.34515119 -0.98138916 -0.19067509 0.022766812 0.10231073
-0.10763775 0.035379335 -0.34618634 0.96080983 -0.27400342 0.042031091 0.099008478
-0.093006149 0.036677171 -0.34481558 0.95158243 -0.30738306 0.0025598574 0.093096711
0.092933178 0.036853388 -0.34435004 -0.92674565 -0.37566838 -0.0039777989 0.097671159
0.10745575 0.035818707 -0.34645328 -0.96155787 -0.27400279 0.01813505 0.093065172
-0.1035436 0.045263469 -0.34566808 0.92210871 -0.38187629 -0.062337693 0.088187464
-0.090935603 0.041675925 -0.34627709 0.91169518 -0.4091416 -0.03761832 0.095030613
-0.089009821 0.046325166 -0.34020954 0.89909083 -0.43669251 0.030585706 0.091123551
0.089894213 0.044190042 -0.34244666 -0.8866322 -0.46230274 -0.012630412 0.1014951
0.090389743 0.042993728 -0.34164134 -0.91401428 -0.40463331 0.029151455 0.10276262
0.10313558 0.046248537 -0.34391186 -0.90035439 -0.43473968 -0.019065766 0.092470691
-0.10124721 0.050807461 -0.34336233 0.91210049 -0.40885541 0.030166112 0.087939471
-0.098304182 0.057483025 -0.34053656 0.87925851 -0.47611582 0.01477301 0.09231478
-0.083305247 0.055640411 -0.3467634 0.85787565 -0.51134521 0.050748315 0.099924751
0.082731143 0.056388572 -0.34501696 -0.82184368 -0.56969994 -0.0038566913 0.099501878
0.098112404 0.057660513 -0.34579712 -0.86747682 -0.49634275 0.033583652 0.09552411
0.10040821 0.05283298 -0.34258685 -0.90778089 -0.41445068 0.064532898 0.087306976
-0.093031578 0.064354412 -0.34549725 0.85226339 -0.5228641 -0.016134223 0.098178208
-0.088949926 0.069673717 -0.34890538 0.8083052 -0.58876163 0.0015346416 0.089168675
-0.075997241 0.065164395 -0.34509876 0.80420715 -0.59406275 0.018448876 0.097661346
0.077220343 0.06357041 -0.34356642 -0.77179986 -0.63500202 -0.033126373 0.10870453
0.094665013 0.062225711 -0.34246013 -0.83130008 -0.55539614 0.021802431 0.090261124
-0.084548146 0.075410224 -0.3442091 0.74384475 -0.65963548 0.10759162 0.08229313
-0.071314968 0.07126645 -0.34959486 0.67251664 -0.73846519 0.048892058 0.092276864
-0.063200817 0.077503957 -0.34410641 0.59366494 -0.80469203 -0.005712436 0.093202099
0.064117923 0.076800242 -0.34372696 -0.67927289 -0.73121303 -0.062577046 0.09491688
0.071837865 0.07058502 -0.34526068 -0.70023143 -0.71373951 -0.015870778 0.10076151
0.083401963 0.076903984 -0.34414396 -0.71387166 -0.70027512 0.0014550443 0.086216256
-0.075283669 0.084645264 -0.34451142 0.62348765 -0.77969831 0.057737205 0.084640183
-0.069175869 0.08933194 -0.34244812 0.58452439 -0.81115955 -0.018745925 0.088654041
-0.055567682 0.083346128 -0.34495673 0.49443045 -0.86902475 -0.018291349 0.10162439
-0.047935352 0.08834286 -0.34066918 0.40248457 -0.91539061 0.0081331143 0.09295506
0.046301674 0.089019559 -0.34742284 -0.42897511 -0.90330893 0.0036510171 0.097434349
0.056345884 0.082763925 -0.34639823 -0.60549831 -0.79558963 0.020220509 0.098003976
0.075460494 0.084509604 -0.34317786 -0.6566478 -0.75373918 -0.026281878 0.087842084
0.080796435 0.080299586 -0.34204638 -0.73514652 -0.67578208 0.053648785 0.083479345
-0.062901244 0.094146639 -0.34673765 0.52976859 -0.84781814 -0.023443596 0.095354639
-0.032207586 0.094857506 -0.34770986 0.32619467 -0.94484919 0.029276511 0.091812596
-0.023296205 0.097757794 -0.34760115 0.23671943 -0.97155744 -0.0063311933 0.092560045
-0.014918338 0.09886077 -0.3447046 0.069378637 -0.99757904 -0.0047464948 0.098614193
-0.0087756943 0.099669471 -0.34654018 0.10001677 -0.99449307 0.0313082 0.09705139
0.008131044 0.099754341 -0.34671891 -0.10216293 -0.99383789 -0.043000441 0.10021939
0.017874638 0.098471567 -0.3457132 -0.13580494 -0.9907065 0.0075949333 0.092950895
0.028121321 0.096550107 -0.34091854 -0.23082738 -0.97297227 -0.0065978314 0.08605624
0.036850154 0.092934504 -0.34708452 -0.27781332 -0.96061218 0.0066325828 0.092808768
0.057664793 0.098027356 -0.34470376 -0.46225879 -0.8866452 -0.013306343 0.090311445
0.064875856 0.092631482 -0.34696704 -0.54611629 -0.83289689 -0.089664303 0.082414262
-0.044388846 0.10390589 -0.34362465 0.36655608 -0.93035978 0.008202387 0.088035017
-0.0024952989 0.10049631 -0.34289506 0.01981494 -0.9997943 0.0043358821 0.10141488
0.0049234424 0.10017663 -0.34399301 -0.00011610566 -0.99989617 -0.014414504 0.10247099
0.036861777 0.10702371 -0.34373823 -0.28644097 -0.95806295 -0.0081879618 0.095243968
0.045965079 0.103253 -0.34574208 -0.32726809 -0.94462079 -0.024232907 0.096032627
0.051180322 0.10109279 -0.34681123 -0.4068217 -0.91247624 -0.043396115 0.092829183
-0.026811194 0.11041707 -0.34325153 0.22682409 -0.97386861 0.01143838 0.091256
-0.0159443 0.11185922 -0.34447488 0.085990705 -0.99612445 0.018482329 0.10552632
-0.0057789017 0.11319752 -0.34365329 -0.0064955158 -0.99804616 0.062143147 0.10570539
0.0028181854 0.1135873 -0.34453315 -0.016923748 -0.99802649 0.060471628 0.095947936
0.017578619 0.11164405 -0.3469061 -0.075150199 -0.9957549 -0.053146165 0.093894772
0.024583044 0.11072189 -0.3446745 -0.18553154 -0.98249775 0.016617741 0.089720383
-0.02625454 -0.11049523 -0.33664322 0.24388829 0.96946418 -0.025645604 0.094436154
-0.014716832 -0.11202082 -0.33460364 0.05714478 0.99824953 0.015240693 0.095176518
-0.0043531326 -0.11338523 -0.33677554 0.049977653 0.99825466 -0.031461105 0.094451331
0.007971962 -0.1129088 -0.33519423 -0.045759428 0.99671847 0.066770673 0.090413749
0.014239825 -0.11208361 -0.33548006 -0.060575839 0.99811137 0.010210513 0.097071432
0.023854235 -0.11081785 -0.33879864 -0.16553527 0.98458654 -0.056457419 0.096882038
-0.051788416 -0.10084085 -0.33406913 0.49505463 0.86829442 0.031397957 0.10626326
-0.046693858 -0.1029511 -0.33495516 0.33333367 0.94233161 0.029995937 0.10508417
-0.034420017 -0.1080351 -0.33485514 0.31149679 0.94960034 0.035057794 0.097024553
-0.0036256437 -0.10034745 -0.33360735 0.047798373 0.99788857 -0.043972246 0.090720065
0.0036569629 -0.10034332 -0.33389893 -0.029241778 0.99953014 -0.0091889147 0.092097305
0.035022046 -0.10778573 -0.33420452 -0.35329422 0.93509525 0.02792933 0.088495821
0.05197382 -0.10076407 -0.33629197 -0.40400741 0.91438824 -0.025927072 0.088568151
-0.063404433 -0.093760483 -0.337585 0.53679025 0.84308398 -0.032643355 0.095633373
-0.056737971 -0.098463319 -0.33308458 0.45069501 0.89138025 0.048116695 0.099075235
-0.041936032 -0.090827852 -0.33695465 0.40288541 0.91514206 0.014088733 0.10138121
-0.032811932 -0.094607189 -0.33128816 0.28022626 0.95993334 0.00111231 0.094292916
-0.024486281 -0.097494699 -0.33497894 0.22094068 0.97457379 -0.037298851 0.093024172
-0.0172859 -0.098549061 -0.33573458 0.11232279 0.99364984 -0.0066081411 0.092720322
-0.0093933707 -0.099588126 -0.33710665 0.018410258 0.99876505 -0.046144947 0.087814979
0.0080874069 -0.099760056 -0.33569545 -0.055969898 0.99840915 0.006831252 0.092804879
0.014771682 -0.098880053 -0.33406517 -0.13622791 0.99062473 -0.010228829 0.10047568
0.025265118 -0.097273111 -0.33608174 -0.28923881 0.95696098 -0.023804007 0.090699889
0.037512824 -0.092660017 -0.33482337 -0.35118157 0.93584841 0.029314652 0.1052861
0.041414086 -0.091044061 -0.33300731 -0.33466798 0.94225377 0.012457887 0.091783337
0.063789956 -0.09346468 -0.33604947 -0.52929533 0.84842771 -0.0041193943 0.085346751
-0.074211977 -0.085467555 -0.33472392 0.64102566 0.76743025 0.011702646 0.081351407
-0.052782312 -0.085498326 -0.33292818 0.54476547 0.8372919 0.046613354 0.10751142
-0.048124161 -0.088264652 -0.33325401 0.47615728 0.87923545 -0.014807038 0.107508
0.048602909 -0.088066354 -0.33610213 -0.43621916 0.89974225 0.013291923 0.095309667
0.05193004 -0.086139023 -0.33552563 -0.48108149 0.87551081 0.045181829 0.098068967
0.069274656 -0.089256123 -0.33713174 -0.58174062 0.81312674 -0.020069556 0.094684184
0.076358065 -0.08382082 -0.33424398 -0.7105878 0.70347995 -0.013452649 0.098506682
0.080600455 -0.08055494 -0.33245185 -0.70120323 0.70918375 0.073296763 0.09156768
-0.086049892 -0.073453061 -0.33399835 0.73549724 0.67722261 0.020330193 0.090741821
-0.063698977 -0.077121668 -0.3329711 0.62107354 0.78249729 0.044336747 0.095004641
0.062091794 -0.078354917 -0.3348909 -0.58076429 0.81404847 0.0061541498 0.10232338
0.070567802 -0.071851037 -0.3310923 -0.69376129 0.71971822 -0.026474642 0.093200937
0.084534898 -0.07542748 -0.33334437 -0.73759669 0.67412812 0.038761247 0.092337407
-0.092356436 -0.065234222 -0.33607319 0.84667999 0.52868313 -0.060226254 0.087606236
-0.089041188 -0.069554746 -0.33647779 0.78622395 0.61726224 0.028970167 0.088849895
-0.074665241 -0.066900253 -0.33572176 0.71648127 0.69711882 0.02607296 0.092350908
0.076215222 -0.064880274 -0.33563226 -0.77913344 0.62218451 0.076403834 0.095794953
0.093040474 -0.064342804 -0.3338384 -0.83840162 0.54494721 0.010735849 0.08894302
-0.099826396 -0.054237563 -0.33529699 0.88788748 0.45887613 0.03299306 0.096276775
-0.083831355 -0.054954756 -0.33471692 0.87340271 0.48689365 0.010115958 0.10168796
0.083879381 -0.05489216 -0.33535853 -0.88153595 0.47085622 0.034478471 0.094791338
0.099270135 -0.055580527 -0.33606204 -0.90707237 0.42024863 -0.024713315 0.098897897
0.10026781 -0.05317194 -0.33962831 -0.91598552 0.40102619 -0.012192666 0.098941602
-0.10414921 -0.043801352 -0.33423477 0.9280417 0.36893842 0.051216204 0.094207272
-0.091112994 -0.04124764 -0.33299062 0.95322776 0.30165178 -0.019052925 0.088379338
-0.088647284 -0.0472004 -0.33089465 0.91903526 0.39416969 -0.0021086349 0.097256824
0.089293286 -0.045640808 -0.33661214 -0.90203172 0.43166414 -0.0022014356 0.096721403
0.090365544 -0.043052144 -0.33335853 -0.91027224 0.41302508 0.028543573 0.10472451
0.1037534 -0.044756953 -0.3383019 -0.93414712 0.35393044 -0.045852412 0.093267843
-0.10772111 -0.035178006 -0.33472133 0.95636314 0.29148874 -0.020097002 0.092458814
-0.094686657 -0.032620069 -0.33614242 0.94262904 0.332129 0.033777263 0.097660951
0.094661437 -0.032680988 -0.33617458 -0.94464147 0.32745644 0.020610908 0.094572112
0.1075243 -0.035653174 -0.33496338 -0.94127762 0.33006802 -0.071074955 0.093610018
-0.11076145 -0.024282562 -0.33623239 0.97199577 0.23414223 -0.020041561 0.096843839
-0.097937748 -0.021929225 -0.33444959 0.98116213 0.18967627 -0.03665667 0.09466555
0.097045377 -0.026306441 -0.33581936 -0.96949339 0.23034662 0.083803043 0.084041201
0.11061674 -0.025335113 -0.33505192 -0.97687328 0.21377394 0.0043980717 0.096479736
-0.11202406 -0.014692063 -0.33691359 0.99436069 0.090915546 -0.054600939 0.097253717
-0.098290741 -0.019247945 -0.33272341 0.98069561 0.19129488 -0.040526889 0.090583764
0.098879665 -0.014774811 -0.33411425 -0.9968015 0.079152465 -0.011026254 0.093932204
0.11220238 -0.013337653 -0.3361215 -0.99902999 0.04306018 0.0092144748 0.098017894
-0.11320448 -0.0057259114 -0.3338387 0.99950594 0.009253243 0.030038487 0.095248424
-0.10044518 -0.0028834105 -0.33579504 0.99676758 -0.011978679 0.079441503 0.093332492
-0.09960705 -0.009249622 -0.33782402 0.99831319 0.050839685 0.02803487 0.093431622
0.099877946 -0.0071919267 -0.33649963 -0.99894011 -0.016293583 0.04304884 0.091631554
0.10052626 -0.0022675572 -0.33375269 -0.99998003 -0.00045642655 -0.0063063041 0.10053072
0.1135698 -0.002951079 -0.33620232 -0.99574739 0.063568629 -0.066679396 0.093957126
-0.11313388 0.0062621771 -0.33469781 0.99973351 0.012297186 0.019535026 0.10211751
-0.10042265 0.0030545152 -0.33396184 0.99881488 0.010787201 0.047461644 0.091867447
-0.09994477 0.0066844556 -0.33244035 0.99979722 -0.016743638 -0.011183226 0.089761749
0.099646419 0.0089506228 -0.33030143 -0.99948043 -0.031672917 0.0059783454 0.085572787
0.10060407 0.0016763858 -0.33356661 -0.99958068 0.027830234 0.0079873437 0.094377995
0.11365753 0.0022846919 -0.33461252 -0.99887973 -0.038669135 -0.027278274 0.096291319
-0.11198968 0.014953248 -0.33253482 0.99677163 -0.072460808 -0.034579784 0.094255649
-0.098912209 0.014527481 -0.33623523 0.99419582 -0.099190004 0.041664042 0.091941036
0.098894857 0.014659502 -0.33692071 -0.98556447 -0.16087852 0.052734271 0.094792359
0.11177735 0.016565969 -0.33432913 -0.99145693 -0.1208045 0.04918725 0.089118734
-0.11080647 0.023940556 -0.3330321 0.97755361 -0.19988351 0.06660033 0.096046671
-0.10993101 0.029842872 -0.33237877 0.95871198 -0.27815738 0.059160072 0.094239809
-0.097512819 0.024604032 -0.33453959 0.97438657 -0.22006229 0.046296947 0.093353562
0.097189941 0.025548609 -0.33147323 -0.98128933 -0.1918855 -0.015848521 0.088001803
0.11045613 0.026601678 -0.33633029 -0.96591437 -0.25022596 -0.066305839 0.091815203
-0.10779862 0.034990918 -0.33382404 0.95671219 -0.28645608 0.051425915 0.097780451
-0.094042793 0.034174491 -0.33325392 0.94997334 -0.31010064 -0.037258357 0.097876839
0.094222128 0.033741601 -0.33748838 -0.95796573 -0.28220403 0.051600784 0.095503986
0.10694119 0.037060957 -0.33433342 -0.96184599 -0.27359092 -0.00060037244 0.097258717
-0.10428672 0.043469436 -0.33577633 0.9081943 -0.41092938 0.079499774 0.092249386
-0.090220064 0.043403409 -0.33041382 0.88025612 -0.47419241 -0.017053522 0.099745132
-0.088794179 0.046845775 -0.33356857 0.89049321 -0.45478809 -0.013774029 0.09712857
0.089823119 0.044361688 -0.33662739 -0.86471456 -0.49820495 0.063722678 0.11275191
0.09087953 0.04181131 -0.33675659 -0.92869359 -0.36439011 0.068906002 0.1064036
0.10361467 0.045091912 -0.33416808 -0.90513599 -0.42080691 0.060417548 0.098843411
-0.098325707 0.057454966 -0.3352797 0.88802409 -0.45967713 -0.010497079 0.092984632
-0.085115984 0.053280611 -0.332937 0.9078424 -0.41925591 -0.0068278303 0.095892407
0.082597569 0.056562655 -0.33476615 -0.82411849 -0.56615883 0.017108606 0.10695274
0.098334193 0.057268016 -0.33490562 -0.85821128 -0.51329511 -0.0011703531 0.1068292
-0.092685975 0.0648048 -0.3351475 0.87042284 -0.49036774 0.043629259 0.087505773
-0.077395581 0.063342035 -0.33465794 0.8234213 -0.56737393 -0.0080088582 0.093679547
0.074545547 0.067056283 -0.33406729 -0.76497167 -0.64292383 0.038305808 0.10270887
0.093786083 0.063371152 -0.33450082 -0.8526746 -0.52216536 0.017010799 0.093053468
-0.08520817 0.074550077 -0.33580795 0.75893933 -0.65115339 0.0032097569 0.090969309
-0.063900366 0.076967165 -0.33558711 0.55631173 -0.83086622 0.013359611 0.10085074
0.066589855 0.074903458 -0.3344399 -0.6683957 -0.74368769 -0.013263326 0.09692014
0.071940631 0.070451088 -0.33294767 -0.71002471 -0.70371705 -0.02543894 0.10093091
0.085204519 0.074554853 -0.3358109 -0.74291104 -0.66921639 -0.015252197 0.090988345
-0.08086437 0.080211006 -0.3303889 0.69019449 -0.72171402 0.052540448 0.086456835
-0.073066957 0.086346209 -0.33644289 0.58045995 -0.81425554 0.0073505505 0.091276042
-0.069462076 0.089112327 -0.33375561 0.57155007 -0.81690723 0.07741563 0.091256
-0.053723756 0.08477594 -0.33499485 0.50130373 -0.86506569 0.018867424 0.10099448
-0.047063567 0.088703975 -0.33356112 0.39467829 -0.91878188 0.008295957 0.096460439
0.048318647 0.088184103 -0.33115858 -0.4656384 -0.88400853 -0.041350849 0.096181177
0.052457109 0.08574789 -0.33151937 -0.50450796 -0.86340421 -0.0021971345 0.099493936
0.078013726 0.082550429 -0.33467585 -0.72394079 -0.68885595 0.037244152 0.09884727
-0.063742198 0.093501352 -0.33471775 0.51719874 -0.85309595 0.068796165 0.090509281
-0.057554808 0.09804479 -0.33448657 0.4423489 -0.89353412 0.076969407 0.095257446
-0.042600542 0.090552613 -0.33492404 0.40338451 -0.91443819 0.032917824 0.092830703
-0.033983719 0.094121814 -0.33535451 0.35958678 -0.93200105 0.045512296 0.090412006
-0.023378499 0.097746946 -0.33354273 0.2073504 -0.97826594 0.0011967722 0.083552279
-0.015385864 0.098799214 -0.33549672 0.17501022 -0.98353618 0.045034017 0.095661953
0.0082274657 0.099741653 -0.33730853 -0.10535265 -0.99142474 0.077316232 0.093589962
0.01287539 0.099129736 -0.33299345 -0.15035632 -0.98672169 0.061427649 0.10573076
0.026578834 0.096848994 -0.3334921 -0.23269074 -0.97251236 -0.0086437063 0.092484362
0.034149263 0.094053246 -0.33642709 -0.28487238 -0.95727628 0.049698602 0.097649314
0.043127868 0.090334192 -0.33342832 -0.43669975 -0.89948392 -0.014901096 0.099432535
0.056295149 0.098892495 -0.3335506 -0.43865317 -0.89863241 0.0065697366 0.10333034
0.066156439 0.091648847 -0.33459502 -0.62458253 -0.7794894 0.047884315 0.094511099
-0.051909365 0.1007908 -0.3355518 0.45023742 -0.89258802 0.023934908 0.095447637
-0.044968516 0.10366577 -0.3335712 0.33524451 -0.94057387 0.054146469 0.088202477
-0.036638338 0.10711624 -0.33490846 0.37263751 -0.92585921 0.062658057 0.091620646
-0.0038142956 0.10032266 -0.33306187 0.018367002 -0.99983031 -0.0014457898 0.096688285
0.0042933156 0.10025959 -0.33625168 -0.0091098268 -0.99920714 0.038757838 0.092642061
0.030894153 0.10949557 -0.337659 -0.22601534 -0.97321808 -0.041996267 0.084169827
0.044609532 0.10381448 -0.33857292 -0.37222239 -0.92688543 -0.048311483 0.088932134
0.052816629 0.100415 -0.33139607 -0.46216428 -0.88675964 0.0078484537 0.10224314
-0.024141919 0.11077999 -0.33576348 0.24235088 -0.97000122 0.019069819 0.085574709
-0.013805133 0.11214084 -0.33424449 0.085926369 -0.99545413 0.04108122 0.10399438
-0.0012045439 0.11379975 -0.33522311 0.066897333 -0.99712956 0.035457544 0.098899312
0.0041313167 0.11341442 -0.33598146 -0.046374846 -0.99846053 0.030428628 0.10627759
0.016263595 0.11181718 -0.33466348 -0.13972175 -0.98994362 0.02212481 0.10227488
0.025974993 0.11053865 -0.33413461 -0.20788167 -0.97733605 0.03999136 0.090896748
-0.02307117 -0.11092094 -0.32532004 0.163636 0.98456848 -0.062034275 0.099463381
-0.015765924 -0.1118827 -0.32686958 0.04682558 0.99523795 -0.085491404 0.092360891
-0.005824049 -0.11319157 -0.32610142 0.044743858 0.99836189 -0.035656992 0.094926432
0.0080623887 -0.11289689 -0.32079864 0.015606754 0.99961025 0.023145456 0.091965981
0.014315002 -0.11207372 -0.3257117 -0.055207174 0.99830329 -0.018515494 0.095374577
0.02414076 -0.11078013 -0.32532814 -0.19363016 0.9803583 0.037482686 0.10260049
-0.052424818 -0.10057725 -0.32460281 0.37352571 0.9271453 0.029668137 0.098150492
-0.043728974 -0.10417919 -0.32378209 0.37484199 0.92697376 0.014597056 0.09577734
-0.034498151 -0.10800272 -0.32464096 0.2806555 0.95968229 -0.015571944 0.094569512
-0.0020273111 -0.10055789 -0.32526991 0.0030740937 0.99989754 -0.01398075 0.092125669
0.0027559039 -0.10046196 -0.32596785 0.027632313 0.9988001 -0.040432379 0.088659637
0.032291315 -0.10891684 -0.32568234 -0.29268691 0.95409763 0.063499913 0.096116036
0.045422595 -0.10347766 -0.32518101 -0.39020142 0.92038786 0.025079103 0.090647876
0.052417487 -0.1005803 -0.3226901 -0.43923226 0.89806217 0.023650477 0.10157967
-0.063375682 -0.093782552 -0.32476485 0.53508735 0.84467876 -0.014120403 0.11053607
-0.056504309 -0.098641358 -0.32564554 0.47978497 0.87488884 0.06614963 0.10418921
-0.041974813 -0.090811796 -0.3241843 0.39669588 0.91770297 0.021300066 0.099942215
-0.037572503 -0.092635296 -0.3275767 0.33867037 0.94007772 0.039449539 0.097276993
-0.024098642 -0.097652152 -0.32120073 0.20921534 0.97781265 0.010549058 0.087948039
-0.016325058 -0.098675556 -0.32656544 0.12581368 0.99205357 0.0007856586 0.096350402
-0.0086268038 -0.099689044 -0.32594022 0.07732743 0.99689919 -0.014572371 0.093495525
0.0082204174 -0.099742554 -0.32314005 -0.016352821 0.99986511 -0.0015450038 0.094572231
0.015815478 -0.098742642 -0.32755718 -0.16312601 0.98645264 0.017350223 0.091267511
0.027259458 -0.096823111 -0.32077736 -0.21528699 0.97543168 0.046740223 0.089086674
0.034574758 -0.093877003 -0.32611474 -0.31201032 0.94762975 0.068171859 0.099532276
0.043016542 -0.090380311 -0.32639635 -0.39928341 0.91649359 0.024747683 0.10073573
0.055688843 -0.099225253 -0.32802308 -0.42779711 0.90362823 0.02111261 0.090598814
0.065638803 -0.092046008 -0.32417136 -0.57512599 0.81797397 -0.012192097 0.096047238
-0.080019154 -0.081011549 -0.3203648 0.73141038 0.68177235 -0.015008743 0.087906137
-0.072648264 -0.086667441 -0.32633147 0.63919711 0.76676428 0.059157141 0.090116419
-0.053528376 -0.08492586 -0.32555041 0.54965639 0.83333343 0.058594815 0.099963412
-0.049196254 -0.087820582 -0.3261272 0.46491811 0.8851909 0.016975077 0.10183054
0.047704883 -0.088438332 -0.32592601 -0.47005314 0.88136739 0.047344919 0.1004713
0.057541464 -0.081846513 -0.32647523 -0.58055228 0.81407636 0.015447818 0.10242722
0.069463976 -0.089110836 -0.32519513 -0.62662643 0.77839774 0.037898403 0.082583986
0.074573919 -0.085189834 -0.32599846 -0.63798237 0.77004176 0.0037719128 0.076569371
0.080585226 -0.080574773 -0.32177329 -0.75696802 0.65318722 -0.018598285 0.098878309
-0.085892841 -0.073657736 -0.32762462 0.775994 0.63027006 -0.024349101 0.09954264
-0.070258975 -0.072087996 -0.32128742 0.62165976 0.78311384 0.016486868 0.096929528
-0.062717393 -0.077874869 -0.32392058 0.56471807 0.82515782 -0.014428037 0.092236251
0.066075124 -0.075298399 -0.32210329 -0.65101683 0.75905919 -0.0025023818 0.09155757
0.082917191 -0.077535704 -0.32329127 -0.74888653 0.66224569 -0.02448866 0.089949124
-0.092067853 -0.065610319 -0.3248111 0.80756295 0.58942187 -0.020592552 0.097314015
-0.08943221 -0.069045156 -0.32377845 0.80507231 0.59272045 0.023257831 0.099735938
-0.075285725 -0.066091627 -0.32384411 0.71823484 0.69508862 -0.031472873 0.099805735
0.076032549 -0.06511835 -0.3259632 -0.79724824 0.60333103 -0.01967166 0.095514275
0.088892162 -0.06974899 -0.32329503 -0.82355249 0.56713963 -0.010680581 0.092288725
0.092909306 -0.064513728 -0.32811981 -0.8362329 0.54689097 -0.040308539 0.092464387
-0.10062622 -0.052306615 -0.32920295 0.92546016 0.37870726 -0.010207233 0.091535628
