# .PCD v0.7 - Point Cloud Data file format
VERSION 0.7
FIELDS x y z normal_x normal_y normal_z curvature
SIZE 4 4 4 4 4 4 4
TYPE F F F F F F F
COUNT 1 1 1 1 1 1 1
WIDTH 573
HEIGHT 1
VIEWPOINT 0 0 0 1 0 0 0
POINTS 573
DATA ascii
-0.03429405 -0.029894982 0.29123744 0.72576702 0.68758684 0.022061193 0.095450424
0.043080628 -0.02384406 0.29503104 -0.88332897 0.46873766 -0.003866923 0.091991536
0.052133746 -0.024562489 0.29545993 -0.89373571 0.44799766 0.023121927 0.090652093
-0.05370266 -0.017171666 0.29352185 0.94813836 0.31731117 -0.018637626 0.08534041
0.042600639 -0.015747447 0.29341882 -0.94219595 0.33177891 0.046793129 0.099898592
0.054769099 -0.015268031 0.29599968 -0.9570089 0.28848362 0.030187083 0.077469409
-0.057027105 -0.0044192192 0.29460698 0.99940324 0.027238965 -0.02124108 0.060870115
-0.045076996 -0.0062578595 0.29456758 0.98544019 0.15434852 -0.071303412 0.085061684
0.045181129 -0.0064034252 0.29295602 -0.98163426 0.17923932 0.065325104 0.08286237
0.057978567 -0.0043230578 0.29463494 -0.98988706 0.13952045 -0.02564556 0.061561342
-0.057325896 0.0060533765 0.29664189 0.99531412 -0.094586924 0.020077582 0.064027347
-0.045846947 0.0020217241 0.29372269 0.99335068 -0.10640594 -0.043957442 0.07715445
0.056436446 0.0062674689 0.29562658 -0.99672663 -0.080607533 -0.0061957967 0.07299079
-0.055219762 0.012701173 0.29634377 0.97671622 -0.21453556 -0.00018216216 0.074068718
-0.042269167 0.014827159 0.29675084 0.9213447 -0.38864663 -0.0088225706 0.087449625
0.054493546 0.015522733 0.29451457 -0.93884438 -0.33819488 -0.064772651 0.080267608
-0.051313478 0.023200333 0.29261065 0.88274217 -0.46858227 -0.034595702 0.078108147
-0.049406867 0.027543033 0.29449055 0.82558084 -0.55960566 -0.072510153 0.085807234
-0.035214946 0.027178193 0.29449251 0.7784853 -0.62651706 -0.037908401 0.08706598
0.038560037 0.024016909 0.29537892 -0.79895538 -0.59870791 -0.056737106 0.077816643
0.04897435 0.028412789 0.29477906 -0.80313325 -0.5945003 -0.039323263 0.070395388
0.053111456 0.023138756 0.29478309 -0.89121908 -0.45344049 -0.010966197 0.075063877
-0.046943888 0.033104714 0.29298335 0.76559025 -0.64299136 -0.020825351 0.061743006
-0.035238825 0.035121538 0.29552919 0.66150403 -0.74966627 -0.020318128 0.07550399
-0.02810308 0.034431603 0.29498461 0.62631571 -0.77955902 0.0040394114 0.087454125
0.027429119 0.035632428 0.2929059 -0.53253871 -0.84613895 -0.021244535 0.075393207
0.03039515 0.032322273 0.29358703 -0.62997556 -0.7744664 -0.057729978 0.084063835
0.043522689 0.03535872 0.29457635 -0.73234314 -0.68085945 -0.010193384 0.066770904
-0.035365753 0.043415572 0.2953907 0.64192009 -0.76664853 0.013737075 0.079902984
-0.024710871 0.044199094 0.29520077 0.48047781 -0.87640214 -0.032561153 0.086993329
-0.013117417 0.041960448 0.2941545 0.26133835 -0.96505213 -0.019409245 0.094417766
0.00048420805 0.045355652 0.29946092 -0.0045685088 -0.99894416 0.045712881 0.077865377
0.014724834 0.041656412 0.29272848 -0.29268673 -0.95437831 0.059132501 0.10091129
0.027090723 0.049082134 0.29692432 -0.51905751 -0.85438824 0.024495617 0.087455399
0.035781078 0.043601979 0.29752535 -0.61211276 -0.79075783 0.0044679116 0.063415073
-0.022221535 0.052503582 0.29490569 0.42957476 -0.9015696 -0.051358812 0.081748158
-0.015026808 0.05385121 0.29666626 0.28938764 -0.95686793 -0.02566017 0.070563443
-0.0053169276 0.055484038 0.29451635 0.073472746 -0.99686557 -0.029340217 0.076182678
0.0043755667 0.056497872 0.29544574 -0.036875665 -0.99804509 0.050458401 0.071775913
0.014414508 0.054098886 0.29502741 -0.26754174 -0.96319956 0.025845638 0.076574787
0.024200976 0.050946303 0.29353619 -0.41962591 -0.90755987 -0.015785538 0.079493836
-0.00095187232 -0.060045484 0.30373549 0.070586793 0.99640965 0.04674653 0.099963643
-0.031136321 -0.051316787 0.30724695 0.57978243 0.81326121 0.04958291 0.08148697
-0.025150517 -0.052310508 0.30488229 0.51086712 0.85879689 0.03850773 0.080416903
-0.016058002 -0.055620842 0.30505374 0.28167912 0.95950854 0.00054536952 0.095081858
-0.007010147 -0.058283746 0.30374467 0.14032784 0.9901002 -0.0030913474 0.093378194
0.0036045832 -0.058309317 0.30563053 -0.030904507 0.99940789 0.015125027 0.085965566
0.016874263 -0.055895168 0.30628684 -0.35618415 0.93440419 0.0046598176 0.067410618
0.025437454 -0.053349361 0.30317119 -0.43608683 0.89985704 -0.0092511699 0.078540325
-0.04050979 -0.041919544 0.30441535 0.64341587 0.76422262 0.0444948 0.078060374
-0.036392801 -0.044782128 0.30409303 0.60877317 0.79201728 0.04586821 0.077575915
-0.020824935 -0.041423824 0.30492285 0.47943527 0.87645245 0.044415973 0.096485309
-0.01743363 -0.042558316 0.30566272 0.392636 0.91954195 0.016718356 0.097124726
0.0055538421 -0.045805253 0.30501527 -0.050727032 0.99860561 0.014616108 0.10500591
0.011401842 -0.044543054 0.30236241 -0.31667104 0.94844943 0.012770793 0.093007572
0.023954237 -0.044780184 0.30395171 -0.47697377 0.87891066 -0.0034829746 0.078274146
0.035612166 -0.045381997 0.30518699 -0.59627575 0.80166399 0.042308461 0.080972813
0.042046089 -0.040802386 0.3040528 -0.73017246 0.68270767 -0.027540896 0.077203542
-0.050424792 -0.030796617 0.30292055 0.84470457 0.53250498 0.053968374 0.082186602
-0.045941327 -0.034274068 0.30569747 0.74130189 0.66660804 0.078136072 0.08191172
-0.028271548 -0.036560453 0.30059189 0.59360564 0.80386889 0.037779015 0.08537817
0.027584542 -0.036756087 0.30385703 -0.58492047 0.81096888 -0.014055581 0.091049775
0.032564975 -0.032330096 0.30444336 -0.69908237 0.71474618 0.020534504 0.081365883
0.045043204 -0.036670122 0.3053723 -0.77148288 0.63346636 -0.059452415 0.083246268
0.050482541 -0.032223318 0.30879137 -0.8017239 0.59710181 -0.026612723 0.081139103
-0.052271508 -0.025037896 0.30476025 0.9148578 0.39967623 0.057394572 0.096947156
-0.041561633 -0.021109164 0.30391809 0.88552821 0.45986575 0.066055715 0.1012748
-0.036940068 -0.027526524 0.30733606 0.7588805 0.6496942 0.044697113 0.092283793
0.037492368 -0.027897866 0.30632487 -0.8444013 0.53435981 -0.038026631 0.083830714
0.044249628 -0.025948346 0.30429834 -0.84551901 0.53387392 0.0087367641 0.08332213
0.051857848 -0.024501676 0.3061547 -0.91650373 0.40002611 0.00030683418 0.081306234
-0.054797575 -0.013814524 0.30433452 0.98936957 0.14520727 0.0079116747 0.076384611
-0.042937104 -0.014664795 0.30429333 0.95891589 0.28325626 0.015688805 0.099933952
0.043041188 -0.015084346 0.30759177 -0.95330697 0.29956535 -0.03829335 0.083566472
0.055304572 -0.015280436 0.30443311 -0.96863121 0.24738982 -0.023491723 0.080749668
-0.05701822 -0.0034813224 0.30551824 0.99909985 0.042416856 0.00054092077 0.066934675
-0.0455391 -0.0047970554 0.30748898 0.99422586 0.09377829 -0.052158397 0.070204012
0.04580608 -0.0053289654 0.30531684 -0.99009794 0.13892312 -0.020161428 0.076452643
0.057753772 -0.0064679692 0.30330956 -0.98890287 0.14224853 -0.042854544 0.061307628
-0.057518706 0.004859563 0.30639431 0.99965745 -0.02593163 0.0035504447 0.073467776
-0.045135509 0.0050751334 0.30400962 0.98973191 -0.14282221 0.0057144132 0.099949315
0.045407426 0.004512901 0.30825648 -0.98726904 -0.14687736 -0.061047632 0.078140594
0.056819882 0.0041504451 0.30672067 -0.99818683 -0.055750329 0.022690615 0.077307075
-0.053239584 0.015924091 0.30532673 0.95122707 -0.30847287 -0.0033947991 0.073152035
-0.043075219 0.011586863 0.30861777 0.97677189 -0.21415447 -0.0073769544 0.078339286
0.043575414 0.011024712 0.3058376 -0.9702915 -0.24174596 -0.0096569546 0.083109505
0.054367524 0.01472311 0.30496764 -0.95735073 -0.28558889 -0.043802515 0.080908574
-0.051063359 0.024158522 0.304782 0.90672284 -0.41907483 -0.047222406 0.080715463
-0.046543285 0.024727792 0.30212921 0.85701805 -0.51205653 -0.057603661 0.07931374
-0.03531215 0.027574189 0.30509055 0.78042686 -0.62473363 -0.025334325 0.083673507
0.039171651 0.023452645 0.30531749 -0.82291865 -0.55961329 -0.098172829 0.075087436
0.049834132 0.027442522 0.30147013 -0.81931955 -0.57018942 -0.059995417 0.071281709
0.052952468 0.021922475 0.30558208 -0.90906602 -0.40406999 -0.10161858 0.074093059
-0.043809436 0.035747148 0.3040427 0.76822752 -0.63914263 -0.036377251 0.063751854
-0.02321635 0.038518511 0.30217987 0.48511165 -0.87433386 0.014385432 0.084500134
0.02492485 0.037718765 0.3031984 -0.56204754 -0.82703519 -0.010742404 0.077669635
0.032453135 0.030323884 0.30623206 -0.71829063 -0.68914843 -0.095567547 0.074461594
0.044828095 0.033620466 0.30465227 -0.77586794 -0.62764907 -0.063919798 0.061943762
-0.034834567 0.043914784 0.30496365 0.58968759 -0.80706835 -0.030153491 0.074451342
-0.028227624 0.048719026 0.30692032 0.49078426 -0.87045008 0.038045771 0.083391592
-0.014380475 0.041803442 0.30105436 0.33948773 -0.94035518 0.021914843 0.093970425
-0.0059088483 0.043885395 0.30460024 0.12271981 -0.99076927 0.057585444 0.075307921
0.0039392472 0.04486971 0.30586916 -0.054943163 -0.99847639 -0.0050948402 0.082083978
0.01390594 0.042019073 0.30470654 -0.23704048 -0.97147489 -0.0069509419 0.086959995
0.028107455 0.049286515 0.30620658 -0.51304632 -0.85806125 0.022678781 0.078419931
0.035429168 0.044549484 0.30587611 -0.6326763 -0.7736913 -0.033503089 0.068202332
-0.024193803 0.052045926 0.30284765 0.43718368 -0.89924538 -0.0151002 0.088283144
-0.012872788 0.054049786 0.30467534 0.17870097 -0.9830476 0.041029107 0.074308954
-0.0046498366 0.055419296 0.30361721 0.049598951 -0.99846739 -0.024552558 0.074388936
0.0051206467 0.056513336 0.30577788 -0.064884432 -0.99780357 0.013341881 0.074924439
0.012909731 0.054298531 0.30667964 -0.17603363 -0.98438144 -0.0023100018 0.067659773
0.022145014 0.051400375 0.30467701 -0.38376501 -0.92325521 -0.018007938 0.079185896
-0.0043339035 -0.060179904 0.31422502 0.13887033 0.988985 -0.051222105 0.089107409
-0.030516138 -0.051527262 0.31210732 0.55415237 0.83059347 -0.055041969 0.086634338
-0.02347051 -0.052597001 0.31581762 0.4648003 0.88538569 -0.0072653755 0.086718678
-0.015622858 -0.055516399 0.31468889 0.31034985 0.95008731 -0.03189297 0.083181359
-0.0048354995 -0.058370531 0.31324503 0.10187083 0.99404126 -0.038784131 0.095461033
0.0054688938 -0.057362188 0.31307414 -0.1244383 0.99136686 -0.041312356 0.074317105
0.01522781 -0.056332361 0.31504127 -0.34436712 0.93802494 -0.038995206 0.075103633
0.027928546 -0.051917069 0.31354612 -0.48242447 0.87573051 -0.019043537 0.086103037
-0.033566173 -0.047637668 0.31642288 0.54510021 0.83831012 0.010089573 0.084464304
-0.020579498 -0.041766807 0.31875032 0.45816234 0.8887797 -0.012564737 0.093645878
-0.015519653 -0.043418728 0.31770211 0.36804864 0.92952734 -0.022782788 0.092299648
-0.0049264631 -0.046869297 0.31509349 0.14049096 0.99008197 8.2813407e-05 0.096644044
0.0055848542 -0.045976814 0.31459072 -0.088799462 0.9957639 -0.023853159 0.10531559
0.010484569 -0.044877402 0.31011528 -0.2837705 0.95876968 -0.015330354 0.086858846
0.026306387 -0.045487273 0.31472585 -0.47006977 0.88145947 0.045426615 0.082751714
0.035698079 -0.045249384 0.31595337 -0.6163879 0.78730941 -0.01448738 0.077539437
0.041186258 -0.041066021 0.31463915 -0.76924545 0.63832229 -0.028391797 0.068086252
-0.050447937 -0.030781247 0.31503779 0.86961633 0.49180764 0.04350581 0.082934253
-0.046143871 -0.034441497 0.31424165 0.76297837 0.64624542 -0.015195105 0.084597304
-0.033039507 -0.031689677 0.31540042 0.68579364 0.72770965 -0.011211179 0.088807493
-0.027962517 -0.037264477 0.3142001 0.61460274 0.78860486 0.019128818 0.090593308
0.029865481 -0.035101414 0.31950891 -0.64036769 0.76762396 0.026129927 0.082037404
0.03284248 -0.032387711 0.31704536 -0.66299385 0.74858177 0.0080302907 0.082304858
0.046626508 -0.034936693 0.31504256 -0.77203923 0.63550889 0.0091554867 0.075722449
-0.052373622 -0.025587726 0.31396729 0.88421917 0.46372476 0.055819232 0.09061069
-0.040072899 -0.024507646 0.31502384 0.86937761 0.49392602 0.014819512 0.093936913
-0.038038939 -0.026549986 0.31439599 0.79354751 0.60682756 0.045195092 0.094939664
0.052532639 -0.022102624 0.31534207 -0.93458307 0.35555342 0.011669211 0.081913523
-0.055072058 -0.01438806 0.31619865 0.98681378 0.16149458 0.010861445 0.081437178
-0.043482795 -0.013096672 0.31903428 0.97349805 0.22649218 -0.031668261 0.086942002
0.042343054 -0.01780213 0.31544489 -0.92249316 0.38461044 -0.032881103 0.084300093
0.055570312 -0.014805229 0.31351441 -0.97981185 0.19736363 -0.031881768 0.075328954
-0.056802768 -0.0039259475 0.31417811 0.99887842 0.030134574 -0.036522347 0.07255511
-0.046367805 -0.0013309361 0.31726989 0.99800748 0.054595791 -0.031627886 0.066406146
0.046574365 -0.0034012944 0.31757963 -0.99709797 0.075743325 -0.0076552304 0.078159653
0.057122257 -0.0063167308 0.31676602 -0.9981097 0.06072998 0.0094340965 0.081427231
-0.057146288 0.0049730209 0.31488326 0.99887562 -0.043813761 -0.018107429 0.074547224
-0.04561723 0.0039402507 0.31564942 0.99155647 -0.12948251 -0.0070764762 0.095102154
0.045129105 0.0057115168 0.31638387 -0.9854961 -0.15877609 -0.059896871 0.087722756
0.056666929 0.0061807972 0.31414053 -0.99070704 -0.12260836 -0.058879379 0.08089336
-0.054061871 0.015885523 0.31557262 0.96200699 -0.25991499 -0.083586961 0.080538295
-0.043045305 0.012083542 0.31649831 0.96405226 -0.26545975 -0.011596058 0.095773786
0.042056225 0.019148689 0.31540895 -0.87159991 -0.48911369 -0.032883573 0.084115222
0.054710824 0.015403179 0.31450686 -0.9323985 -0.35610205 -0.061842121 0.077720881
-0.051246595 0.023360793 0.31434757 0.90432972 -0.41679016 -0.092052273 0.080008976
-0.04961013 0.026873995 0.31610909 0.86129773 -0.50730175 -0.028480666 0.080560073
-0.035557449 0.027549677 0.31431013 0.78414261 -0.6205672 -0.0040754424 0.083514877
0.036144357 0.027117008 0.31456897 -0.76928627 -0.6388877 -0.0046051303 0.074908584
0.04516916 0.024588808 0.31422341 -0.83691937 -0.54590154 -0.039462853 0.076486327
0.052633747 0.024258953 0.31372476 -0.88854074 -0.44821903 -0.097954132 0.075589955
-0.045836598 0.033629268 0.31631589 0.80794513 -0.58907968 0.014483451 0.073683567
-0.032486141 0.030201275 0.31020576 0.75715917 -0.65242749 -0.032378297 0.084568977
-0.026481157 0.036105763 0.3154628 0.58895415 -0.80789036 0.021122362 0.083521068
0.025817521 0.037478566 0.31452468 -0.59673434 -0.80236691 0.010743774 0.070223741
0.044170644 0.034883924 0.3148675 -0.74330467 -0.66889113 -0.0090960711 0.065321989
-0.033361983 0.044905625 0.31574968 0.56810158 -0.82263029 0.023238681 0.07396213
-0.027858341 0.049042109 0.31276008 0.5032779 -0.86395824 0.016954418 0.082456008
-0.014438001 0.042016424 0.31518358 0.3081255 -0.94926399 0.062901042 0.098987602
-0.0044668731 0.044393748 0.31566337 0.09052626 -0.99589407 0.00019939752 0.070704818
0.0097273868 0.043243542 0.31049034 -0.16964364 -0.98432034 0.048316721 0.083913282
0.015103475 0.041793745 0.31434807 -0.31259477 -0.94984806 0.0085574361 0.096272402
0.026116129 0.047234125 0.31336018 -0.51727015 -0.85532814 -0.029073158 0.081262596
0.034608614 0.045200266 0.31418926 -0.6340189 -0.77323765 0.011118031 0.067197666
-0.02686011 0.050963044 0.31790754 0.49902886 -0.86244506 0.084609419 0.078714445
-0.015280967 0.053916074 0.31504881 0.25526071 -0.96635681 0.031565506 0.080643781
-0.0034765182 0.055711318 0.31511962 0.051241972 -0.99859071 -0.01381374 0.072848044
0.0034989037 0.056895558 0.3155838 -0.067620911 -0.99771094 -0.00050781388 0.078858495
0.015664402 0.053508531 0.31312412 -0.25298184 -0.96636254 -0.046300467 0.079959989
0.023573214 0.050634369 0.31635195 -0.40161154 -0.91494924 -0.039699603 0.083602726
-0.0030764099 -0.060516793 0.32759869 0.1390678 0.98986793 0.028664675 0.089109913
-0.033200696 -0.05013831 0.32750815 0.54802024 0.83556181 -0.038861815 0.079944074
-0.026890034 -0.051100273 0.32524693 0.50033826 0.8638643 -0.058310769 0.085358776
-0.015046081 -0.055811636 0.32496566 0.28393355 0.95878851 -0.010314291 0.079127029
-0.0057444717 -0.058875274 0.32481459 0.13041395 0.99143046 -0.0076063788 0.092013679
0.0056819054 -0.057790201 0.3251082 -0.088155404 0.99603003 0.012360743 0.076301873
0.012130355 -0.056569561 0.32522181 -0.2814998 0.95950854 0.010059753 0.067470007
0.025457773 -0.053362437 0.32493901 -0.40871912 0.91149551 0.046093795 0.071395554
-0.040063802 -0.042435482 0.32234678 0.6667791 0.74515539 0.012208505 0.089848235
-0.035943188 -0.045717996 0.32319739 0.60388565 0.79627687 -0.035572879 0.07147792
-0.02194545 -0.041367523 0.32149681 0.48217553 0.87548518 -0.032128617 0.087763362
-0.017745852 -0.042871222 0.32762966 0.45298314 0.89108211 -0.027911581 0.094728336
-0.0058527458 -0.046717711 0.32324854 0.17913838 0.98380995 0.005243124 0.098952807
0.0020570706 -0.046864428 0.3229804 -0.0020582899 0.99914181 0.04136803 0.093030013
0.012553207 -0.044753496 0.32653081 -0.2873795 0.95691866 0.041470412 0.086193912
0.022318805 -0.041937124 0.32395655 -0.44515324 0.89462686 0.038488876 0.086769275
0.035292674 -0.045411762 0.32473195 -0.63344812 0.7729665 0.035585657 0.077452525
0.041594215 -0.040593348 0.32118687 -0.70822775 0.70598322 -0.0010927392 0.081754237
-0.050483789 -0.03074836 0.3234182 0.87707484 0.4768281 -0.058092464 0.083760992
-0.045693398 -0.034251224 0.32479256 0.77260965 0.63486946 0.0038790593 0.08568871
-0.033365898 -0.031480808 0.32370153 0.71771336 0.69624305 0.011535499 0.089152329
-0.027527191 -0.037989534 0.32321459 0.609433 0.79283738 -0.00065020827 0.086500622
0.027656689 -0.037179768 0.32401878 -0.55401498 0.83190936 0.031532805 0.085818619
0.030951126 -0.034282628 0.32566857 -0.67882586 0.73265052 0.049180422 0.083710894
0.045403957 -0.036299627 0.32511473 -0.78456706 0.61938089 0.028667193 0.077762716
0.050544079 -0.032081239 0.3279151 -0.85562956 0.5171786 0.020598736 0.07828857
-0.053079069 -0.024515308 0.323616 0.92458141 0.37500206 -0.067251101 0.091518007
-0.049866073 -0.029105835 0.32628322 0.89338362 0.44927326 0.0043772864 0.085725568
0.039554268 -0.026401315 0.32411939 -0.85436058 0.51849908 0.035026271 0.074956365
0.041491117 -0.021409081 0.32512996 -0.91551757 0.40084743 0.033895943 0.096995473
0.052299514 -0.024501061 0.32415673 -0.89674777 0.44206434 -0.020555325 0.073927119
-0.054842405 -0.016038012 0.32493383 0.95748913 0.2865144 -0.033524573 0.085589126
-0.044140074 -0.010415013 0.32480121 0.98431587 0.17618977 0.0089099994 0.082985081
0.043453068 -0.014488649 0.32543412 -0.95311522 0.3020077 0.01904021 0.090917386
0.055691022 -0.014148464 0.32670656 -0.98779625 0.15556467 0.0076366309 0.065798342
-0.056800105 -0.0051714401 0.32392389 0.99824566 0.056676134 0.017130867 0.069066301
-0.045990657 -0.0038835183 0.32419091 0.99869466 0.050987717 0.0030260726 0.062918901
0.046908528 -0.003113097 0.32700127 -0.9976936 0.051415432 -0.044316087 0.071719237
0.058423351 -0.0034068509 0.32580724 -0.99851632 0.034620646 0.042029597 0.077606559
-0.0572569 0.0050136279 0.32465985 0.99287987 -0.084082246 -0.084378339 0.072622739
-0.045797031 0.00402431 0.3231779 0.99026203 -0.13640797 -0.027818793 0.075070918
0.045071039 0.006587835 0.32679239 -0.9953469 -0.087435864 0.040491186 0.082899339
0.05722338 0.0043270877 0.32522112 -0.9974218 -0.070214152 -0.014821467 0.070346795
-0.054181635 0.014262011 0.32473165 0.97121048 -0.23531966 -0.03708107 0.08273197
-0.043404728 0.011781327 0.32842886 0.97356969 -0.22788395 -0.01519872 0.083202794
0.043076236 0.015293436 0.32811707 -0.94515896 -0.32660729 -0.0014870849 0.089180753
0.055218287 0.013541178 0.32480857 -0.96473396 -0.26018757 0.039885871 0.069957249
-0.051248878 0.023759978 0.32498819 0.90907496 -0.41577908 0.026655959 0.08089447
-0.044836722 0.025001142 0.32864422 0.88417995 -0.46632251 0.027733406 0.075286217
-0.034676615 0.028539784 0.3240369 0.77276504 -0.63244414 0.053373095 0.078696802
0.037337065 0.026197132 0.32386792 -0.77873349 -0.62463516 0.058352429 0.075006329
0.046643019 0.026477145 0.32423714 -0.87598825 -0.48228472 0.006789837 0.077542767
0.052422922 0.024717385 0.32466713 -0.88883197 -0.45792258 0.016874259 0.076899983
-0.046031065 0.033517145 0.32479781 0.82350552 -0.5669238 0.020884275 0.066531777
-0.030748403 0.032110412 0.32729754 0.71852368 -0.69379616 0.048688799 0.075581938
-0.023609336 0.038583998 0.32084653 0.49226648 -0.87034661 0.013056858 0.079010792
0.028199334 0.035628766 0.3280012 -0.61063206 -0.79190826 0.0031441061 0.075322449
0.036154509 0.035281435 0.32342282 -0.67285877 -0.73975718 -0.0044973018 0.061837204
0.04352314 0.035372205 0.3241995 -0.73113674 -0.6811471 -0.038442064 0.067253843
-0.033491526 0.044705138 0.32412151 0.6277529 -0.77815396 0.020066762 0.062785707
-0.029412091 0.047626924 0.3241106 0.53588706 -0.84358567 0.034470495 0.078795739
-0.011007826 0.042812899 0.3205255 0.23154356 -0.97281677 0.0039004234 0.090487823
-0.0033984352 0.044776708 0.32439861 0.06109434 -0.99786121 0.02324955 0.073854566
0.005850743 0.044582099 0.32532442 -0.15987833 -0.98614293 -0.044284135 0.071385741
0.017082432 0.041384865 0.32558468 -0.36306885 -0.93172747 -0.0080615953 0.081923254
0.028659845 0.048531517 0.32497579 -0.49869412 -0.86655587 -0.019626131 0.075499102
0.032778203 0.046988178 0.32554355 -0.57058704 -0.82121426 -0.0061199949 0.062563233
-0.024043329 0.052084401 0.32599777 0.42099348 -0.90399951 0.074494906 0.080741003
-0.016684024 0.053526819 0.32331359 0.23628996 -0.97146124 -0.020736646 0.074620768
-0.0061274548 0.055252314 0.32579893 0.074434817 -0.99641061 0.040316384 0.069417469
0.0056271842 0.056609083 0.32484558 -0.094096653 -0.99513245 0.02927725 0.069125518
0.013132361 0.054682802 0.32374325 -0.22217941 -0.9746083 -0.027839769 0.072039053
0.0232997 0.05112654 0.32420442 -0.40191698 -0.9150278 0.03445112 0.080132373
-0.0024756361 -0.060151871 0.33814818 0.08538238 0.99578506 0.033495065 0.086646676
-0.025713768 -0.051865883 0.33414358 0.5052731 0.86222219 -0.035665777 0.086234234
-0.014140934 -0.055866864 0.3348375 0.2577363 0.96564567 0.033172235 0.071139231
-0.007318221 -0.057948776 0.33443779 0.14010325 0.98910213 0.045255378 0.085298128
0.00532396 -0.057990313 0.33438933 -0.092831165 0.99552923 0.01743184 0.078938752
0.014998809 -0.056242928 0.3357397 -0.3406941 0.93955189 0.034201987 0.071904682
0.025569422 -0.053029623 0.33396092 -0.48063865 0.87633216 0.032067381 0.078023963
0.030104717 -0.051493756 0.33303499 -0.530316 0.84779018 -0.004094128 0.076052286
-0.042104453 -0.040154006 0.33094341 0.69059372 0.72199702 -0.042434368 0.083028235
-0.035590082 -0.045866586 0.33287263 0.61086732 0.78918666 -0.06344866 0.070888184
-0.022913843 -0.041325882 0.33619118 0.51012731 0.8582108 -0.056958344 0.076217577
-0.014378802 -0.044120859 0.3348715 0.40076432 0.91581976 0.025731811 0.091423251
-0.0051369215 -0.047181174 0.33523121 0.11252377 0.99199915 0.057237342 0.093985245
0.0033427672 -0.046780463 0.33280891 -0.054278597 0.99819082 0.02586364 0.094642483
0.015696336 -0.044247668 0.33438879 -0.39726487 0.91578525 0.0593112 0.081711106
0.029964812 -0.04955012 0.33927858 -0.53079998 0.84604508 0.049590286 0.063444927
0.03576785 -0.04543962 0.33631441 -0.58173674 0.8122232 0.043309696 0.0705183
0.040586308 -0.041462671 0.33689323 -0.68530452 0.72299439 0.087389022 0.076738074
-0.050682314 -0.030534089 0.33305398 0.86940938 0.49192104 -0.04627163 0.083507024
-0.046315446 -0.033561982 0.33452505 0.78195488 0.62239999 -0.034128401 0.076400302
-0.033651117 -0.031528119 0.33875245 0.71749723 0.69639719 0.015122182 0.081030376
-0.028657829 -0.036949418 0.3319031 0.57997447 0.81331176 -0.046406861 0.076449648
0.029883092 -0.035536248 0.33812273 -0.63930345 0.76894337 0.0041613947 0.088353023
0.032664917 -0.032918848 0.33244938 -0.74427277 0.66633874 0.045284353 0.089324541
0.047499668 -0.034327038 0.33545035 -0.79985017 0.59565681 0.073707454 0.089662172
-0.052436288 -0.025024187 0.33450201 0.9296602 0.3684161 -0.0012138491 0.084698603
-0.047664739 -0.027519938 0.33467203 0.89419162 0.4471975 -0.020877151 0.086600691
-0.037128184 -0.027853392 0.33471826 0.7845149 0.61977464 -0.020393431 0.092511229
0.038893569 -0.027536046 0.33948141 -0.80954814 0.58663011 0.022291485 0.086607248
0.04980281 -0.029399358 0.33626312 -0.87119323 0.48352519 0.08500427 0.072803915
0.0520849 -0.024127945 0.33511552 -0.89940315 0.43532273 0.039599631 0.087156534
-0.055081882 -0.014346467 0.33494875 0.96946031 0.24151441 0.042632766 0.08158014
-0.04301342 -0.016664125 0.33478665 0.95000809 0.31173649 0.017461527 0.088781841
0.044211421 -0.012791676 0.33775368 -0.96844834 0.23953028 0.068797641 0.085913591
0.055388357 -0.014161181 0.33604404 -0.97941047 0.1868943 0.076326393 0.069528438
-0.056567278 -0.0052595059 0.33645749 0.9977479 0.059030645 0.031854019 0.07523261
-0.046081945 -0.0034042362 0.33413583 0.99933875 0.01908893 0.030945927 0.071926616
0.045869231 -0.0061537158 0.33410808 -0.99116033 0.11319625 0.069194332 0.078196146
0.057787329 -0.0057548122 0.33400956 -0.99511027 0.09847144 -0.0076721096 0.076065116
-0.056699108 0.0060083386 0.33309808 0.9962104 -0.084955886 -0.018639622 0.070117176
-0.046348412 0.0020860063 0.33440876 0.99670446 -0.080296524 0.011523277 0.070307694
0.045521069 0.0055479212 0.33470884 -0.99544555 -0.091783211 0.025769657 0.084019966
0.056829881 0.0063529094 0.33518201 -0.99523813 -0.091265798 0.034230404 0.071845971
-0.053635888 0.015901642 0.33472544 0.95292395 -0.30320826 0.00078696798 0.078483224
-0.042709995 0.014731136 0.33295679 0.94671106 -0.322007 -0.0070454869 0.080897897
0.043171037 0.015434426 0.33527198 -0.94364542 -0.32904828 0.035505448 0.081513435
0.0548914 0.014713553 0.33585182 -0.97312194 -0.22813362 0.031445947 0.070299216
-0.050812509 0.023199605 0.33294955 0.92756218 -0.37300923 -0.02219468 0.074722126
-0.039113611 0.024504546 0.33322477 0.87130666 -0.48423362 0.079639904 0.070769891
0.036969099 0.026473803 0.33545026 -0.78996676 -0.61276054 0.021841597 0.07551644
0.049088128 0.028241761 0.3366257 -0.86151093 -0.50697589 0.027828082 0.076000556
0.052230682 0.024575511 0.3366738 -0.88836294 -0.45445049 0.065467909 0.073047079
-0.045869462 0.033864591 0.33421582 0.79877084 -0.59805101 0.065574937 0.060506858
-0.022808388 0.039488483 0.33371997 0.47484955 -0.87788266 0.061967004 0.085475504
0.02693896 0.036750596 0.33269823 -0.56576431 -0.82362318 0.039439779 0.076602489
0.030946637 0.03268389 0.33357573 -0.65497768 -0.7525456 0.068406612 0.071885288
0.042901371 0.036085229 0.33572024 -0.69525194 -0.71727389 0.046289992 0.06500113
-0.034955513 0.04319505 0.33591348 0.65674525 -0.75047874 0.073941432 0.065129921
-0.029359693 0.047668476 0.33514354 0.53009951 -0.84570825 0.061416995 0.080754869
-0.013773515 0.042446394 0.33353671 0.23773322 -0.97056198 0.038630698 0.097932145
-0.00012397335 0.045731027 0.33244243 -0.038755231 -0.99865496 0.034441322 0.070971131
0.0015195984 0.045846574 0.33007115 -0.065060392 -0.99785072 0.0078158919 0.076577216
0.016208615 0.041653059 0.33376276 -0.32679904 -0.94469935 0.027305683 0.080889843
0.025121329 0.046223339 0.3346467 -0.45637006 -0.8897419 0.0092614079 0.078250229
0.034447007 0.045696914 0.33409229 -0.57914209 -0.81515324 -0.01094155 0.059890606
-0.02520597 0.051916476 0.33464807 0.3855457 -0.92222416 0.029275451 0.085744306
-0.013565133 0.054206241 0.33671707 0.23957522 -0.9699496 0.042443566 0.072109118
-0.0077667097 0.054823142 0.33257547 0.11456025 -0.99315524 -0.022774568 0.070112348
0.0037194118 0.057183888 0.33442602 -0.083592042 -0.99588859 -0.034902252 0.065410897
0.015518936 0.053572297 0.33432436 -0.28516826 -0.95840496 -0.011783281 0.068518713
0.022300016 0.051602375 0.33638829 -0.38358164 -0.92279446 0.036269642 0.074861407
-0.0037129032 -0.060425762 0.34966251 0.068234436 0.9972105 0.030255768 0.078084506
-0.031928506 -0.050386716 0.34539866 0.54557681 0.83805948 0.0014614346 0.069394387
-0.026070775 -0.051862895 0.34518704 0.54302746 0.83939737 -0.023092316 0.066164285
-0.016502846 -0.055073936 0.34379274 0.37573674 0.92507607 0.055282824 0.076218545
-0.0063979877 -0.058388442 0.34457153 0.089541435 0.9930287 0.076657072 0.090446673
0.0056075957 -0.058307346 0.3457531 -0.1097199 0.99254245 0.053114586 0.079300895
0.016897013 -0.05600398 0.34607333 -0.3343161 0.94116014 0.049501266 0.067189485
0.025214154 -0.053583805 0.34596169 -0.46637997 0.88221323 0.064727254 0.070725285
0.030469956 -0.051184572 0.34348878 -0.48805103 0.87037164 0.065264113 0.069334954
-0.036015239 -0.044871952 0.34306887 0.61834633 0.78590304 0.0020607905 0.066846281
-0.021742636 -0.04191374 0.34679788 0.50708902 0.86157703 0.023360496 0.078064814
-0.014070448 -0.044388849 0.34364188 0.40870643 0.91053396 0.062346205 0.089688107
-0.0059356173 -0.046869516 0.34560254 0.11259731 0.98886943 0.097257368 0.086670354
0.00625626 -0.04633842 0.34153613 -0.13751563 0.98810965 0.068766795 0.089038529
0.01519362 -0.044554997 0.34531331 -0.37197807 0.92651665 0.056561291 0.08098539
0.02240151 -0.042268481 0.34490925 -0.41394037 0.90429568 0.10441632 0.088594757
0.035288051 -0.045514286 0.34605405 -0.58445501 0.80907112 0.061775263 0.062553108
0.040933751 -0.040243667 0.34543374 -0.71585256 0.69510275 0.066237099 0.07315325
-0.044936318 -0.03512115 0.34589279 0.7960372 0.6044594 -0.030881697 0.067402437
-0.033817943 -0.031507693 0.3451004 0.7343145 0.67856908 -0.018062243 0.081500635
0.028339423 -0.037048105 0.34372663 -0.59353054 0.803298 0.049333721 0.081975847
0.033419125 -0.032624889 0.34808439 -0.713844 0.698093 0.055613924 0.077520654
0.047672343 -0.033568781 0.34559828 -0.81908298 0.57218426 0.041331675 0.077664517
0.05061242 -0.031906493 0.34181172 -0.85781443 0.51205266 0.044232566 0.073193118
-0.052666649 -0.024487128 0.34393969 0.91591686 0.39843652 -0.04842107 0.075408831
-0.043248288 -0.024202397 0.34595656 0.89004856 0.45580617 -0.0073674377 0.081702612
-0.03782418 -0.027290054 0.34211293 0.79084611 0.61200935 -0.00266536 0.086040244
0.038891323 -0.027591836 0.34170371 -0.81092137 0.58069313 0.072124943 0.083242163
0.049825918 -0.029340716 0.34741855 -0.86368752 0.50297403 0.032574743 0.076344498
0.052227154 -0.025373898 0.34595066 -0.9271794 0.36684981 0.075892687 0.081857525
-0.054609548 -0.015083115 0.34495878 0.96407211 0.26083457 -0.050303005 0.071345553
-0.044022366 -0.012551264 0.34387407 0.97859013 0.2017718 -0.040613003 0.08487913
0.044635277 -0.012093462 0.34816551 -0.98205847 0.18019953 0.05558227 0.076532714
0.054660074 -0.015892502 0.34634668 -0.97459418 0.22189617 0.030467926 0.065158971
-0.056839507 -0.0045745666 0.34617826 0.99633503 0.05583417 0.06480027 0.070770621
-0.046224408 -0.004419893 0.34397307 0.99255896 0.12063484 0.016550273 0.076987274
0.047020625 -0.0047081606 0.34522915 -0.99848044 0.055099949 -0.00091391907 0.067003876
0.058084272 -0.0048873471 0.34501976 -0.99899799 0.044725806 0.0016271515 0.066692919
-0.05766122 0.0046288427 0.34677005 0.99591994 -0.05807849 0.069067754 0.069461145
-0.045651078 0.0057029244 0.34571996 0.98808783 -0.15245387 -0.020983085 0.075477421
0.046442412 0.0018506809 0.34390235 -0.99262232 -0.12109635 -0.0060612354 0.071939662
0.056818493 0.00545554 0.34531108 -0.99734533 -0.070252389 -0.019152932 0.067609772
-0.055150796 0.012515723 0.34597185 0.97803098 -0.20748837 0.020099357 0.070457205
-0.04272905 0.014973952 0.34485266 0.95007938 -0.30933946 0.040721089 0.077795707
0.043368593 0.015643371 0.34916621 -0.94122958 -0.33613381 -0.033178844 0.074357122
0.054450512 0.015378118 0.34522 -0.96678799 -0.25203013 0.042447623 0.074170575
-0.051254809 0.025376251 0.34671596 0.89622921 -0.44024122 0.054414112 0.072676674
-0.04502007 0.024624174 0.34471416 0.90111625 -0.43354562 0.0052660359 0.076472305
-0.036876202 0.026962472 0.34515518 0.83064222 -0.55620724 0.025825255 0.068836845
0.035378195 0.028065223 0.34767425 -0.77234119 -0.6349234 0.019011062 0.077342264
0.04849701 0.02889657 0.34345326 -0.84249729 -0.53866947 0.005791063 0.073301032
0.05240621 0.025063181 0.34502015 -0.89099687 -0.45306751 0.029233446 0.065588206
-0.044989683 0.034307752 0.34581408 0.8413738 -0.5404042 0.0073075471 0.058142029
-0.030967109 0.032290541 0.34510803 0.75033754 -0.66002506 0.036883973 0.075562634
-0.026822425 0.036137413 0.34332603 0.65884173 -0.75102454 0.043468878 0.075900704
0.024866302 0.039005429 0.34296346 -0.50561351 -0.86085159 0.057353564 0.066740043
0.039220966 0.039503396 0.34302056 -0.6940763 -0.71987873 -0.0057160319 0.06417834
0.044529915 0.034281209 0.34650737 -0.73995733 -0.67259043 0.009240781 0.062034458
-0.040214557 0.040048115 0.34872812 0.77378547 -0.63027459 0.063324228 0.060628701
-0.03393691 0.044348605 0.34502017 0.63729531 -0.76992053 0.03281831 0.06213028
-0.028763022 0.048176423 0.34653604 0.58092129 -0.81340706 0.029990805 0.071144611
-0.014578658 0.042502869 0.34757486 0.27467686 -0.96151966 0.0057068202 0.073333122
-0.0050063236 0.044590682 0.34457248 0.086493835 -0.99395114 0.067675665 0.075606681
0.0040979553 0.045421224 0.3476989 -0.16137683 -0.98542225 0.053857666 0.073964201
0.016261173 0.041841432 0.34524453 -0.39728439 -0.91694927 0.037001092 0.080845304
0.023736008 0.044939272 0.34394664 -0.41835043 -0.9081279 -0.016933236 0.076484881
0.036466762 0.04303683 0.34601125 -0.64860171 -0.75952327 0.049400311 0.059135728
-0.025454827 0.051954959 0.34534833 0.4512465 -0.89141273 0.041951947 0.072544768
-0.016174806 0.053077061 0.34431911 0.25950861 -0.96557426 0.017932465 0.061903317
-0.0067493594 0.05515502 0.34495005 0.058781177 -0.9960041 0.067235216 0.071218386
0.005164274 0.056909751 0.34410027 -0.10554164 -0.99387693 0.032705251 0.074688867
0.01207883 0.054302972 0.34512287 -0.16997941 -0.98455644 0.041900206 0.063088916
0.024484904 0.050823364 0.34646574 -0.42410305 -0.90199757 0.080851652 0.070108443
-0.0019375723 -0.060255926 0.35633722 0.064127401 0.99791104 0.0078264195 0.074460134
-0.02539314 -0.052286994 0.35671639 0.50096369 0.86376143 0.054328073 0.06091753
-0.015432122 -0.055463657 0.354242 0.33777705 0.94120944 0.0056197885 0.0725585
-0.0049716835 -0.058225866 0.35291672 0.12925391 0.99150282 -0.014681903 0.073952124
0.0069119511 -0.05753129 0.35559195 -0.13324127 0.99095327 -0.016073672 0.073725268
0.014448211 -0.055724856 0.3525025 -0.27274495 0.96200007 0.012887488 0.062339928
0.025643991 -0.052861016 0.35447994 -0.44176549 0.89692485 -0.01921211 0.067192778
-0.035361208 -0.045541428 0.35586572 0.61411691 0.7892065 -0.0036741558 0.075775161
-0.016235553 -0.043875948 0.35433066 0.42271349 0.90338844 0.072129443 0.074240804
-0.0055482881 -0.047454745 0.3568511 0.17748266 0.98410869 0.0054709213 0.080864385
0.0044053583 -0.046976812 0.35522872 -0.12137323 0.99121326 0.052581675 0.087225609
0.013810661 -0.045080557 0.35815656 -0.32473409 0.94544601 0.026071638 0.076442473
0.025302257 -0.046657298 0.35472932 -0.51031876 0.85846514 0.05111099 0.077268295
0.035500586 -0.045674339 0.35318083 -0.62481821 0.77936 0.046904944 0.059035707
0.040654168 -0.041433793 0.35701632 -0.70276558 0.71118009 0.018532034 0.067934588
-0.050586969 -0.030659139 0.35375714 0.89314169 0.44945753 -0.016906451 0.06499169
-0.043937027 -0.03607671 0.3535018 0.76302654 0.64609027 -0.018919626 0.075172745
-0.032153279 -0.033648275 0.35550582 0.7178188 0.69481617 0.044348177 0.075642817
0.026259253 -0.039138507 0.35347176 -0.56195909 0.82423097 0.069608018 0.070271924
0.046434566 -0.035220198 0.35622948 -0.7836048 0.62021941 0.035935801 0.062187914
0.050358057 -0.032715827 0.35887584 -0.84484369 0.53501302 0.00054378959 0.068368591
-0.052344017 -0.025504829 0.35601526 0.89864546 0.43856654 0.0097762644 0.071186624
-0.040563606 -0.024734853 0.35331619 0.86385071 0.50312805 -0.024981892 0.076200731
-0.03804335 -0.027358763 0.35747978 0.82288837 0.56816816 0.006298922 0.07804551
0.049707752 -0.029725611 0.35919881 -0.87217247 0.48919365 0.0021697467 0.070635021
0.052334625 -0.024595471 0.35265449 -0.92285937 0.38511783 -0.0038363878 0.081153013
-0.054931518 -0.016328193 0.35667613 0.96094304 0.27657607 -0.0097076241 0.074089825
-0.044164982 -0.012521899 0.35182613 0.97234672 0.23339452 -0.0083023719 0.078162618
0.043286454 -0.016623585 0.35380778 -0.92884386 0.36961621 0.025157783 0.084508076
0.05608147 -0.012489882 0.35819426 -0.98925799 0.14462534 0.021261534 0.06086291
-0.056710739 -0.0048288056 0.35512856 0.99483508 0.10137144 0.0051889759 0.075056024
-0.04651146 -0.0035467474 0.35228834 0.99669814 0.06860292 0.043434422 0.067145392
0.047091596 -0.0033539885 0.35516962 -0.99756199 0.067927107 0.016000157 0.062099613
0.057597335 -0.0067810472 0.35498011 -0.99705547 0.061558701 -0.045726035 0.061928608
-0.057184756 0.0042079836 0.3553791 0.99157679 -0.12638846 0.028310629 0.072716102
-0.044864792 0.00857687 0.35530868 0.97162503 -0.23609217 0.014328789 0.068564296
0.04599373 0.0045863898 0.35254925 -0.98556423 -0.16876112 0.013523114 0.077146225
0.056929987 0.0049183876 0.35614657 -0.99392873 -0.096167885 0.053454366 0.073672645
-0.053892177 0.015489101 0.35326794 0.9566943 -0.28992918 0.026021682 0.066438287
-0.042870592 0.015494588 0.3557016 0.9406265 -0.33803985 0.030834358 0.072746605
0.043818243 0.014244548 0.35836571 -0.94348752 -0.33139226 -0.0032320083 0.070237882
0.05495875 0.016182929 0.35291231 -0.9544583 -0.29618821 -0.035802413 0.064617656
-0.050605461 0.025439033 0.35667887 0.89432758 -0.44680926 0.023228882 0.061529972
-0.038186193 0.026098728 0.35669041 0.85118091 -0.52408028 -0.028825849 0.052676909
0.036962785 0.026857087 0.35507515 -0.79331946 -0.60448462 0.072405457 0.071219072
0.046638265 0.027872939 0.35701025 -0.8663919 -0.4990491 0.017749585 0.072399117
0.052417628 0.023814086 0.35479003 -0.91506046 -0.40302089 0.015448195 0.078946106
-0.043814339 0.035573501 0.35407636 0.80947047 -0.58700764 0.013403712 0.055485561
-0.039345063 0.038741447 0.3510443 0.74522483 -0.66617078 0.029263943 0.056044646
0.026545016 0.038119733 0.35392377 -0.62869757 -0.77741617 0.019063033 0.077825353
0.039474215 0.039079905 0.3560614 -0.71136558 -0.69952643 0.067983806 0.05736839
0.046019919 0.033001937 0.35536999 -0.78379613 -0.6184147 0.056805741 0.059713691
-0.034664862 0.043830294 0.35564253 0.71762234 -0.69637525 0.0089264968 0.063325137
-0.027527094 0.049266361 0.35411489 0.51975709 -0.85429674 0.0054479744 0.072191894
-0.0039469642 0.044962134 0.35252804 0.046051588 -0.99787289 0.046142224 0.065821417
0.004074296 0.04580031 0.35523525 -0.11137231 -0.99266106 0.047118697 0.057901211
0.014804756 0.042297427 0.35336947 -0.31778088 -0.94193703 0.10848966 0.074701428
0.025996039 0.045982122 0.35421905 -0.50870973 -0.86093801 -0.00041924664 0.067283601
0.035143595 0.044775303 0.35589918 -0.6228177 -0.78019249 0.058290258 0.054871939
-0.024527319 0.051623352 0.35447705 0.45351377 -0.89062268 -0.033415377 0.078255802
-0.015829146 0.053545933 0.35420042 0.27700675 -0.96056885 -0.023974715 0.059978802
-0.0030694248 0.056360189 0.3549611 0.026870457 -0.99920481 0.029456051 0.05012745
0.0051409542 0.056611139 0.35465682 -0.15136926 -0.98800761 0.030468972 0.065355331
0.015266933 0.053742278 0.35466933 -0.25422314 -0.96417195 0.075783409 0.059830733
0.023649752 0.05097197 0.35532537 -0.45495671 -0.89033258 0.017951533 0.069314584
-0.0034432104 -0.060534749 0.3669824 0.14631747 0.98917055 0.011521962 0.072326221
-0.030847715 -0.051476978 0.36372292 0.52078617 0.8524369 0.04618552 0.074029483
-0.02493855 -0.051800229 0.36778352 0.47697306 0.87826282 0.033929527 0.060500775
-0.01512975 -0.055736236 0.36476025 0.34442943 0.93865794 -0.017018816 0.066435061
-0.0046140268 -0.058823425 0.3620435 0.14687252 0.98915392 -0.0017433227 0.080782942
0.0049112169 -0.057857454 0.3675817 -0.087684058 0.99583399 0.025021449 0.071133547
0.014682154 -0.056177445 0.36420417 -0.27790874 0.96048874 -0.015106017 0.060062081
0.024953119 -0.053580537 0.36506844 -0.44987768 0.89305371 0.0080656549 0.057858907
0.031083718 -0.050674647 0.36719933 -0.51417506 0.85764134 0.0086905146 0.065752223
-0.040372066 -0.040960468 0.36389595 0.73755896 0.67258263 0.060327537 0.069269568
-0.034914717 -0.046266019 0.36445528 0.63511544 0.76879501 0.074716583 0.068107843
-0.024987619 -0.041009806 0.36806649 0.58864248 0.80838764 0.0030571332 0.075366899
-0.014911227 -0.044529893 0.36575532 0.34304142 0.93910325 0.020191574 0.091393471
0.0067832293 -0.046673518 0.365444 -0.19283447 0.98122144 -0.0043967739 0.07667999
0.0271357 -0.045342628 0.36350685 -0.52316779 0.85186422 -0.024958372 0.065572627
0.036095642 -0.045159727 0.36425444 -0.62533069 0.78026295 -0.012302022 0.066033706
0.040558223 -0.042231012 0.36908635 -0.70083272 0.71269619 -0.029958948 0.067623481
-0.045384496 -0.034749512 0.36510664 0.81025207 0.58522791 0.031623024 0.063997157
-0.032472204 -0.033412151 0.36013725 0.71671367 0.69487619 0.058894686 0.072711222
-0.029222524 -0.037187427 0.36508656 0.64417642 0.76331705 0.048823256 0.077051103
0.027389303 -0.038389817 0.36416313 -0.59398049 0.80447936 0.00031148692 0.071367137
0.031485785 -0.034792826 0.36644113 -0.66335726 0.74829936 -0.0023014527 0.072738424
0.046716847 -0.03469779 0.36388963 -0.808429 0.58794075 -0.027717283 0.063832343
0.051071446 -0.030570894 0.365082 -0.87804073 0.4785828 0.0016963743 0.071698844
-0.052412748 -0.02608108 0.36425748 0.9079572 0.41891265 -0.011222765 0.072058685
-0.042209316 -0.022648256 0.36748582 0.91593856 0.40127242 0.0060894196 0.073992327
-0.039598078 -0.025869288 0.36175594 0.87346429 0.48272395 0.063541748 0.068762556
0.039916262 -0.027255103 0.36554378 -0.86209995 0.5036236 -0.056096569 0.069417074
0.043483619 -0.024921192 0.36466381 -0.89461398 0.44554526 -0.033987772 0.0745029
0.051310468 -0.025590625 0.36249685 -0.92498839 0.37809289 -0.03797733 0.076326586
-0.054390039 -0.016388914 0.36622557 0.96028405 0.27793419 0.024640631 0.065862887
-0.044016667 -0.014532256 0.36747056 0.96022809 0.2774244 0.031587765 0.068550371
0.043329298 -0.0170823 0.36543393 -0.95253402 0.30436531 0.0063742632 0.071105316
0.055185378 -0.013447882 0.3630096 -0.98197395 0.18174928 -0.051907226 0.059796296
-0.056592893 -0.0031954907 0.36114192 0.99907559 0.038408574 -0.019305203 0.063523278
-0.04660815 -0.0031393869 0.36547101 0.9937399 0.11069819 0.015061229 0.071583651
0.046420515 -0.0049665403 0.36599702 -0.99762946 0.056567226 -0.039186645 0.064015307
0.058497235 -0.0047667297 0.36461857 -0.99656391 0.070521303 0.043439474 0.063309744
-0.056881506 0.0060904943 0.36594957 0.99162006 -0.12846908 0.013615013 0.075989217
-0.04590008 0.0059485314 0.36510849 0.99504876 -0.099286124 -0.0045067365 0.074285887
0.046834707 0.001496619 0.36449841 -0.99980867 -0.015179463 -0.012343431 0.072388738
0.056504514 0.0049126353 0.36405155 -0.99885309 -0.039657727 -0.026830913 0.069338724
-0.054015309 0.013984187 0.3649193 0.95635551 -0.29110485 0.025340239 0.06442938
-0.042554662 0.016804114 0.36550635 0.91657698 -0.39952129 -0.016413406 0.063177623
0.043532722 0.016172541 0.36496374 -0.94328636 -0.33197862 0.0010341197 0.074193425
0.055201676 0.01381696 0.36387119 -0.94958073 -0.30543295 -0.070761047 0.065767713
-0.050417852 0.025141509 0.36825609 0.89543277 -0.44316885 0.042444777 0.060337298
-0.036957789 0.027303791 0.36417812 0.83179903 -0.55499315 -0.009642696 0.058011342
0.034775622 0.029156514 0.36488372 -0.73200822 -0.6808722 0.024020975 0.065773584
0.044574708 0.023246288 0.36546078 -0.92641348 -0.37610367 -0.017438063 0.065701209
0.052283373 0.024336485 0.36353952 -0.92752099 -0.3663941 -0.073892586 0.062082727
-0.045142893 0.033897087 0.36468995 0.82731098 -0.56174254 -0.001357712 0.056933105
-0.035985537 0.034950808 0.36284915 0.76615608 -0.64263535 0.0049675819 0.057479873
-0.025947571 0.037540641 0.36161426 0.60184646 -0.79857475 -0.0076960311 0.073310792
0.034641512 0.03434442 0.36486194 -0.70606798 -0.70812368 -0.0053843195 0.05453648
0.044747602 0.033667743 0.36583081 -0.78426903 -0.62041098 -0.0034953151 0.047247224
-0.03288772 0.044728536 0.36592293 0.64107597 -0.76690853 -0.029545227 0.061331864
-0.028977137 0.047954343 0.36445642 0.54154921 -0.83966523 -0.041069549 0.064264357
0.0053009153 0.045542765 0.36606857 -0.072693944 -0.99724239 0.014939493 0.06016599
0.025562564 0.049501203 0.36888832 -0.45943579 -0.88765836 0.031325527 0.053910129
0.03411635 0.045737352 0.36511624 -0.60624969 -0.7951594 -0.013519506 0.061210323
-0.025730409 0.051087674 0.36518273 0.48045987 -0.87700886 0.00372064 0.06513536
-0.015703132 0.053172272 0.36366156 0.25653449 -0.96576929 -0.038468476 0.061299425
-0.0036036998 0.055591892 0.36349097 0.066465192 -0.99719334 -0.034463469 0.056869663
0.0049601742 0.056412194 0.36477312 -0.042214125 -0.99861819 0.031300317 0.059680294
0.014099519 0.053839605 0.36447185 -0.21206443 -0.97612786 0.046936572 0.058584135
0.023723636 0.0510539 0.36593342 -0.43792716 -0.89827341 0.036395829 0.05300511
-0.00071945385 -0.060086332 0.37046877 0.0291804 0.99954522 0.007602727 0.07199093
-0.024912519 -0.051814597 0.37518877 0.4476113 0.89370883 0.030473599 0.066146627
-0.013988696 -0.055891078 0.37694073 0.25983456 0.96564049 0.0049572042 0.069326773
-0.0036278025 -0.05845667 0.37480336 0.16099344 0.98686552 0.013327353 0.079690047
0.0061143646 -0.057566084 0.37642166 -0.14810771 0.98780674 -0.047978602 0.065540396
0.013844421 -0.055959642 0.37541941 -0.2839984 0.9586767 -0.016850151 0.063564412
0.027739333 -0.05262737 0.37630633 -0.47638679 0.87918878 -0.0090969345 0.065964922
0.031251695 -0.050544854 0.37989977 -0.52614009 0.85039169 0.0032663713 0.068388246
-0.040596183 -0.041880615 0.37075096 0.71865422 0.69509321 0.019530447 0.076230586
-0.03565947 -0.045697935 0.37408891 0.63389993 0.77336246 0.0090199197 0.068646945
-0.024637837 -0.041306645 0.37240511 0.55033284 0.83491796 0.0067701312 0.0759653
-0.012010008 -0.045652591 0.37442166 0.2806356 0.95893824 0.041001491 0.066832095
-0.0026634743 -0.048359554 0.37577668 0.12504646 0.99042988 -0.058412332 0.076014265
0.0041829008 -0.047425639 0.37689242 -0.11478578 0.99165058 -0.058764942 0.079236642
0.013021395 -0.045558147 0.3750436 -0.27260619 0.96206546 0.010767883 0.075720727
0.029932573 -0.04962562 0.37290639 -0.54853261 0.83578908 -0.023845809 0.064660922
0.033222903 -0.046694141 0.37465525 -0.56699908 0.82371765 -0.001127632 0.066429295
0.040849302 -0.041288864 0.37549773 -0.7192291 0.69460267 -0.01538387 0.07177148
-0.044910759 -0.03494006 0.37520805 0.82275337 0.56758004 -0.030496147 0.064867102
0.026125427 -0.039890867 0.37962621 -0.56607419 0.82434362 -0.0041856109 0.066741288
0.035990067 -0.030900676 0.37154517 -0.78218484 0.62057185 -0.055475131 0.077062994
0.046010327 -0.03703123 0.37365234 -0.7640267 0.64442807 -0.03123495 0.06100459
-0.052590616 -0.024409713 0.37527105 0.9109453 0.41191131 0.02253144 0.061134785
-0.044178009 -0.025920764 0.37362126 0.88279748 0.46969384 -0.0075150253 0.068812214
-0.037364319 -0.028417548 0.37611207 0.84045011 0.54148185 0.0209994 0.071925633
0.039845485 -0.027653426 0.37939358 -0.84335762 0.5304119 -0.086087763 0.070838369
0.044639733 -0.024307624 0.37289461 -0.89110535 0.44902024 -0.065666087 0.074234001
0.051573161 -0.025918471 0.37406692 -0.90641266 0.41311395 -0.088050693 0.071739756
-0.055118512 -0.0141367 0.37516877 0.97802752 0.20753124 0.019827235 0.066241078
-0.044254344 -0.014127907 0.37643027 0.95456588 0.2975131 -0.017029641 0.067917623
0.04442339 -0.014441183 0.37854576 -0.94459355 0.32302505 -0.058291469 0.06642805
0.055435032 -0.014113401 0.3752729 -0.97210687 0.2292836 -0.049368866 0.056333926
-0.056694742 -0.004627753 0.37409544 0.99780136 0.064915054 -0.013365261 0.065743387
-0.046300489 -0.0050201099 0.3743324 0.9895038 0.12616983 0.070450366 0.070070766
0.047486328 -0.0032206252 0.37247601 -0.99815053 0.060641024 -0.0042720786 0.067062512
0.058012515 -0.0059460774 0.37389773 -0.99588507 0.090602666 0.0020214363 0.070316188
-0.057176016 0.0048552272 0.37411854 0.99201137 -0.11263914 -0.056796744 0.062111139
-0.046283171 0.0052742744 0.3745231 0.99484408 -0.10031758 0.014885849 0.070591465
0.046805732 0.0022964983 0.37211967 -0.99649686 -0.077225059 0.032096721 0.065622248
0.056510713 0.0048906198 0.37495199 -0.99312109 -0.11489049 -0.022602212 0.070007496
-0.054386832 0.014270609 0.37698722 0.96420783 -0.26514074 0.0019022886 0.064507373
-0.04271093 0.016334342 0.37656814 0.92710119 -0.3746697 -0.010296619 0.068861395
0.054379921 0.016081756 0.37345007 -0.94818753 -0.31747484 0.012249936 0.066537529
