# .PCD v0.7 - Point Cloud Data file format
VERSION 0.7
FIELDS x y z normal_x normal_y normal_z curvature
SIZE 4 4 4 4 4 4 4
TYPE F F F F F F F
COUNT 1 1 1 1 1 1 1
WIDTH 571
HEIGHT 1
VIEWPOINT 0 0 0 1 0 0 0
POINTS 571
DATA ascii
0.022214305 0.16022769 0.051148865 -0.13241634 -0.98600435 -0.10129803 0.0013666227
-0.019078299 -0.16004288 0.060009502 0.11526114 0.98086417 -0.15690865 0.0016490866
-0.0036476674 -0.16150452 0.062554166 0.014534226 0.98382068 -0.17856546 0.0026983968
0.007117372 -0.16070493 0.063752905 -0.058837481 0.98228419 -0.17792101 0.0020535854
0.012265749 -0.16017041 0.063251846 -0.074551612 0.97950321 -0.18712398 0.001876179
-0.053957503 -0.15113328 0.063687563 0.34689754 0.91900057 -0.1873498 0.0019938285
-0.045147046 -0.15449634 0.064620607 0.26612663 0.94424617 -0.19384477 0.0030149517
-0.036390983 -0.15606247 0.066510163 0.21614368 0.95596981 -0.19850348 0.0025018719
-0.023857946 -0.1577957 0.066219196 0.14246339 0.96448833 -0.22241068 0.0016029252
-0.01519499 -0.15876772 0.066808328 0.096769854 0.97169238 -0.21552147 0.0014594049
-0.0075023128 -0.15955698 0.067589805 0.055431191 0.97343689 -0.22214431 0.0019866193
0.015212337 -0.1583893 0.068123661 -0.11293449 0.96936804 -0.21810862 0.001181861
0.026473351 -0.15747064 0.066096164 -0.1494208 0.96270907 -0.22553185 0.001511674
0.035435967 -0.15646261 0.065491021 -0.20904435 0.95742524 -0.19909127 0.0025552933
0.044659074 -0.15456453 0.065057121 -0.27347738 0.94434094 -0.18283965 0.0027473688
0.053040445 -0.1514122 0.064016469 -0.3240684 0.92874527 -0.18003349 0.0020406945
-0.08055529 -0.14046034 0.062565856 0.48916972 0.85279506 -0.1829031 0.0030774395
-0.074336402 -0.14232987 0.064867824 0.46355215 0.86122012 -0.20837289 0.0028003424
-0.063291579 -0.14666402 0.065652385 0.38039184 0.90167361 -0.20563716 0.001527491
-0.058804341 -0.14802136 0.067286015 0.36036617 0.90846646 -0.21171899 0.0016040171
0.065957837 -0.14510727 0.067126401 -0.41228691 0.88734823 -0.20647652 0.0013787919
0.074660711 -0.14279784 0.062905155 -0.44930547 0.87456363 -0.18238157 0.002272387
-0.091259085 -0.13250215 0.062282201 0.57669562 0.79686373 -0.18008408 0.0016888749
-0.085946724 -0.1355678 0.065105684 0.52499425 0.82685202 -0.20173441 0.0029270593
0.086848266 -0.13448419 0.066206738 -0.54216021 0.81261301 -0.21382798 0.0019190559
0.090696119 -0.13049707 0.069101632 -0.55454081 0.80061054 -0.22695181 0.0015460569
-0.10390002 -0.12234657 0.063494325 0.6335761 0.7477271 -0.19870946 0.0021025417
-0.097250953 -0.12702118 0.064742044 0.5981034 0.77555525 -0.20195618 0.0015489241
0.096431747 -0.12747793 0.065234594 -0.57838237 0.78885186 -0.20781383 0.0015621703
0.1020961 -0.12356739 0.064014971 -0.62263823 0.75574899 -0.20289205 0.0021216497
-0.11300913 -0.11519204 0.063706554 0.67920166 0.70812213 -0.1929979 0.0028129532
-0.10845385 -0.11697523 0.068810172 0.65341347 0.71967244 -0.23478167 0.0023930992
0.10868929 -0.11639418 0.069930509 -0.65980369 0.71219301 -0.23966683 0.0023391906
0.11172954 -0.11652435 0.062972568 -0.67439789 0.71411586 -0.18768583 0.0025617674
-0.1218068 -0.10432138 0.064163409 0.74572641 0.63645726 -0.19701341 0.002070223
-0.11851764 -0.10659528 0.068484753 0.72875971 0.64349359 -0.23414786 0.0021352069
0.12039809 -0.10706551 0.062213331 -0.74098521 0.64808023 -0.17587778 0.0019136203
-0.12646993 -0.09687461 0.067034364 0.77646524 0.58723706 -0.2285922 0.0015568316
0.12711757 -0.096587539 0.065908484 -0.77512723 0.59296703 -0.21810071 0.001544358
0.13225664 -0.091175705 0.063148312 -0.80978203 0.55509257 -0.19006649 0.0022044205
-0.14058219 -0.081453934 0.06070577 0.85042554 0.49597242 -0.17546459 0.0031245085
-0.13617714 -0.085236907 0.064929321 0.82195747 0.53387588 -0.1983999 0.002800416
0.13541225 -0.086004578 0.065421395 -0.81960541 0.53214896 -0.21228407 0.0021772664
-0.1421071 -0.075894855 0.063490257 0.87227798 0.45064715 -0.18986408 0.0026881266
0.14208637 -0.07545568 0.064150564 -0.86508787 0.45932329 -0.2016062 0.0019759671
-0.14608659 -0.065232672 0.064913966 0.89506787 0.40067115 -0.19574526 0.0020028737
0.14587823 -0.066109732 0.064409181 -0.89297777 0.40969157 -0.18639582 0.001837558
-0.15115193 -0.053530645 0.064202949 0.92545152 0.32747352 -0.19052702 0.0018366871
-0.14925459 -0.055189431 0.068146527 0.91435522 0.34270224 -0.21566132 0.0014548027
0.14800921 -0.05814524 0.068215176 -0.91048992 0.35094032 -0.21874411 0.0015468561
0.15122908 -0.053441703 0.064071603 -0.92650396 0.33224505 -0.17664552 0.002234739
-0.15393093 -0.045311414 0.066097103 0.94330096 0.27211139 -0.19010189 0.0025515421
0.15519072 -0.042955182 0.064607367 -0.94808292 0.25532293 -0.18960232 0.0023198617
-0.15610801 -0.033471067 0.067695186 0.95682156 0.19567883 -0.21494702 0.0017811635
0.15651305 -0.03559503 0.065301053 -0.9555496 0.20718431 -0.20976084 0.0021330279
-0.15797529 -0.025414675 0.064867586 0.96557182 0.15875888 -0.20607464 0.0018119606
0.15837312 -0.024134828 0.063987069 -0.97211403 0.13921443 -0.18871564 0.0019148602
-0.16009681 -0.017439542 0.061127335 0.97848189 0.11793101 -0.16930871 0.0016339779
-0.15846373 -0.017689591 0.0667229 0.97089791 0.11422785 -0.2104978 0.0013201901
0.15890424 -0.016251188 0.065844737 -0.96870929 0.11359007 -0.22068003 0.0014366781
0.16028839 -0.014351475 0.061743852 -0.97891814 0.11298197 -0.17015989 0.0017829372
-0.16088985 -0.0045015346 0.064310536 0.97926605 0.04609992 -0.19726345 0.002594095
0.16126828 -0.0045268983 0.062889472 -0.98265243 0.025620537 -0.18367869 0.0029723782
-0.16137488 0.0051080962 0.062328864 0.98494977 -0.033605184 -0.16954274 0.0026643912
-0.15926884 0.0065716612 0.069025859 0.97188097 -0.057453465 -0.22835594 0.0021929347
0.15925705 0.0056260577 0.069502398 -0.97247499 -0.046785224 -0.2282619 0.0021413611
0.16129038 0.0034091338 0.063412808 -0.9833529 -0.031210182 -0.1790058 0.0027491641
-0.16026962 0.013495937 0.062338632 0.97922403 -0.096351877 -0.17842816 0.0020782342
-0.15847835 0.016495522 0.067221433 0.9675442 -0.10910391 -0.22793557 0.0014317879
0.15875231 0.016778149 0.06613344 -0.97303063 -0.12099183 -0.19639868 0.00160417
-0.15750495 0.025656391 0.066407889 0.96150792 -0.15807329 -0.22475637 0.0013207713
0.15750708 0.02410195 0.067116134 -0.96477479 -0.14965712 -0.21636166 0.0013393804
-0.15655956 0.035916667 0.064990252 0.9567731 -0.21725319 -0.19335531 0.0021698235
0.15600064 0.034559473 0.067569584 -0.95540118 -0.20509505 -0.21247275 0.0020185304
-0.15441684 0.046648782 0.062689058 0.94080472 -0.28639507 -0.18128534 0.0021607089
0.1541568 0.045396917 0.06522011 -0.94207793 -0.27151707 -0.19689511 0.0025237638
0.14979458 0.056867011 0.064122804 -0.91241521 -0.34976092 -0.21252228 0.0012950134
0.15102516 0.053891107 0.064129569 -0.91473752 -0.34450138 -0.21112554 0.0012634731
-0.14744894 0.061365865 0.065693848 0.9036082 -0.37783113 -0.20183118 0.0011170696
0.14512476 0.066852786 0.065861426 -0.88940531 -0.40067744 -0.22003557 0.0022623716
-0.14362422 0.071900092 0.063938558 0.88540679 -0.42563248 -0.18679351 0.0022182241
0.13998058 0.079714701 0.065263838 -0.85050589 -0.48804861 -0.19608265 0.00355697
0.14220354 0.075165048 0.06416098 -0.86644459 -0.46235842 -0.1884104 0.0036389271
-0.14042996 0.081668004 0.06056264 0.85020071 -0.5004642 -0.16338402 0.0029808988
-0.13533556 0.086250313 0.065072723 0.81872457 -0.53439486 -0.21002902 0.0027196053
0.13692071 0.083946064 0.065587193 -0.82963121 -0.5207544 -0.20131293 0.0036761861
0.14006016 0.080245614 0.064287931 -0.85112178 -0.48901501 -0.19093452 0.0035000113
-0.13074386 0.091295272 0.067124486 0.79427791 -0.56684333 -0.21865767 0.0021889461
-0.12702329 0.096552201 0.066248089 0.7776764 -0.59331858 -0.20782813 0.0016267487
0.1265596 0.097470775 0.06557335 -0.7778759 -0.59627742 -0.19839935 0.0016672128
-0.12217112 0.10383262 0.064193442 0.74779201 -0.63627911 -0.18962066 0.0018742926
-0.1176229 0.10837131 0.067175098 0.72626466 -0.65387416 -0.21210414 0.0023236999
0.11901125 0.10963118 0.060110085 -0.73001802 -0.66160268 -0.17133464 0.0023349551
0.12369242 0.10136014 0.065245308 -0.7576313 -0.61886001 -0.20738129 0.0016945344
-0.11279235 0.11520281 0.064454459 0.68894315 -0.69753993 -0.19696559 0.0024875032
-0.10536887 0.11945467 0.06849613 0.6394676 -0.7314471 -0.23678331 0.0020161041
0.10539646 0.11945646 0.068431884 -0.63414484 -0.74128151 -0.21991383 0.0019924338
0.11351015 0.11402317 0.065038271 -0.68248272 -0.7010287 -0.20682362 0.0025273664
-0.10474735 0.12125394 0.064795896 0.64510173 -0.74158382 -0.18411216 0.0020890813
-0.095002137 0.1282924 0.066025153 0.57640123 -0.78869867 -0.21381275 0.0013566713
0.097238563 0.12637049 0.06660112 -0.59323359 -0.77784353 -0.2074445 0.0012235951
0.10286486 0.12309476 0.06368687 -0.62199134 -0.75916928 -0.1918041 0.001867414
-0.084941514 0.13660091 0.064331166 0.51730776 -0.83184713 -0.20105499 0.0024835181
-0.078947321 0.13895532 0.069640487 0.47688755 -0.85114491 -0.21938685 0.0026938538
0.084298827 0.13697419 0.064713195 -0.53299814 -0.82251781 -0.1984375 0.0024956246
0.091076396 0.13245213 0.062814444 -0.55803806 -0.80870897 -0.18596625 0.0021580674
-0.076004148 0.14183146 0.064240895 0.46518379 -0.86502981 -0.1879562 0.0024458866
-0.064935446 0.14655149 0.063745953 0.39079419 -0.89599425 -0.21088949 0.0014315312
-0.058446549 0.14833164 0.066757873 0.35483277 -0.90983158 -0.21517499 0.0014645935
0.054515295 0.14915511 0.069380701 -0.33931416 -0.91100365 -0.23438905 0.001602508
0.06346944 0.14704269 0.064143077 -0.38248309 -0.90338075 -0.19393256 0.0017014673
0.074677251 0.14222203 0.064759158 -0.46067017 -0.86613214 -0.193902 0.0028167914
-0.052235696 0.15066493 0.067537747 0.33080718 -0.91840029 -0.21704271 0.0017451509
-0.044283558 0.15470681 0.065068789 0.26866275 -0.94434822 -0.18980721 0.0027616119
-0.035969041 0.15672798 0.064296588 0.20751859 -0.95639235 -0.20554721 0.0022343749
-0.024618017 0.15818995 0.064490631 0.15075114 -0.96506196 -0.21431164 0.0014380972
-0.016932212 0.15968202 0.062811375 0.11067075 -0.97837973 -0.17471449 0.0017765723
-0.0090888487 0.15910415 0.068442918 0.054142121 -0.9735027 -0.2221739 0.0019521392
0.016436886 0.15873842 0.066339053 -0.10782851 -0.97282857 -0.20488447 0.0020363878
0.022875445 0.15829408 0.064928718 -0.13055041 -0.97223037 -0.19422838 0.0020608243
0.036068555 0.15641823 0.065414667 -0.21992308 -0.95604837 -0.19392073 0.0022416722
0.045293801 0.15397732 0.066113889 -0.26411155 -0.94086593 -0.2121705 0.0025493328
0.052282911 0.15133195 0.065300569 -0.33452159 -0.91971171 -0.20548877 0.0019042304
-0.0038587202 0.16112499 0.063784145 0.014678637 -0.98145849 -0.19111182 0.0025377853
0.0093492344 0.16002586 0.06509994 -0.067044839 -0.97883749 -0.19334477 0.0021951536
0.018462196 0.16002153 0.060919888 -0.11170966 -0.97856641 -0.17299953 0.0017639182
-0.045166403 -0.1509553 0.07613311 0.2890507 0.91703647 -0.27476126 0.0023283893
-0.03884019 -0.15468924 0.07018467 0.23018983 0.94783866 -0.22048689 0.0027048795
-0.023687564 -0.15551503 0.074272759 0.13716251 0.95623183 -0.25847065 0.0011481225
-0.013909792 -0.15638225 0.075741559 0.082369335 0.96039146 -0.26620194 0.0012615675
-0.0051676719 -0.15744436 0.076052107 0.040426888 0.96140629 -0.27214622 0.0020785173
0.0034803599 -0.15778629 0.07563325 -0.010478017 0.96347558 -0.267591 0.002017007
0.014817876 -0.15599374 0.076682083 -0.098470449 0.95629954 -0.2753084 0.0011688711
0.023020463 -0.15550125 0.07462801 -0.13213044 0.95862108 -0.2521652 0.0012498092
0.037652895 -0.15313995 0.07614883 -0.21519703 0.93364918 -0.28633797 0.0024111574
0.043608107 -0.15270725 0.072527625 -0.26128483 0.93649542 -0.23389414 0.002788638
-0.06488324 -0.1432759 0.074544393 0.40037218 0.87195045 -0.28178814 0.0010482133
-0.054925539 -0.14756289 0.074015252 0.34529081 0.89885795 -0.26986772 0.00092081277
-0.048304096 -0.14897382 0.07835488 0.29226828 0.91154087 -0.28926194 0.0022188874
0.04863872 -0.14962105 0.075794183 -0.31129819 0.91181439 -0.26774603 0.0020327254
0.055398524 -0.14684409 0.075719111 -0.35431805 0.89775258 -0.26172307 0.0013405477
0.064629436 -0.14359242 0.073855624 -0.39782554 0.88038534 -0.25817907 0.0013970982
0.071894489 -0.14076205 0.073272616 -0.43318161 0.86765212 -0.24399483 0.0018962978
-0.08427462 -0.13315298 0.075457633 0.524436 0.80721921 -0.27085796 0.0019293868
-0.07711859 -0.13803208 0.075093284 0.47323245 0.83812505 -0.27128869 0.0023773483
0.077710159 -0.13707568 0.077217147 -0.48221222 0.8285597 -0.28453502 0.0019874494
0.084348671 -0.13305458 0.075573966 -0.52666777 0.80592722 -0.27037445 0.0017062745
-0.10169492 -0.12128098 0.071274132 0.61799133 0.74768329 -0.24301533 0.0017298226
-0.093790986 -0.12651542 0.073597915 0.58004886 0.77390844 -0.25418311 0.00099463691
-0.08939074 -0.12864621 0.077083446 0.5470767 0.78732306 -0.2843053 0.0015152023
0.093922138 -0.12591308 0.075001821 -0.57129651 0.77602714 -0.267212 0.0011263744
0.10168083 -0.12170461 0.070119001 -0.61614203 0.75144905 -0.23599443 0.0018715775
-0.1114608 -0.1136069 0.071779013 0.66747981 0.7021513 -0.24789979 0.0024603971
-0.10613942 -0.11614522 0.076102018 0.64193106 0.71602845 -0.27427679 0.0019422395
0.10492719 -0.11742024 0.075137079 -0.62856054 0.72791463 -0.27395603 0.0015743531
0.11264011 -0.11157366 0.073822923 -0.68711197 0.6747523 -0.26941851 0.0021408694
-0.12169906 -0.10061676 0.072419152 0.74482358 0.61272776 -0.26420164 0.0013850511
-0.11418843 -0.1094123 0.074550167 0.6926741 0.66500747 -0.27922687 0.0024184058
0.11746161 -0.10415048 0.076689079 -0.72650433 0.63115305 -0.27173018 0.0013524482
0.1205592 -0.10259722 0.07135646 -0.73748666 0.62989688 -0.24360491 0.0015639265
-0.13057493 -0.090059184 0.070251316 0.79649162 0.55588269 -0.23789798 0.0020380898
-0.12083515 -0.09908849 0.078117974 0.74702412 0.59831464 -0.28978372 0.00067893229
0.12589164 -0.094817422 0.073139533 -0.77366519 0.57909596 -0.25707972 0.0010711439
0.13041899 -0.090099245 0.070601664 -0.79656637 0.55101305 -0.24873033 0.0017485794
-0.13309911 -0.084602818 0.074903719 0.80362612 0.5273779 -0.27578542 0.0017931989
-0.12945257 -0.087660223 0.078542709 0.78931487 0.54086506 -0.29059786 0.0013262286
0.12918261 -0.087681323 0.079252884 -0.79211968 0.53735149 -0.28948197 0.0015349459
0.13390261 -0.08423505 0.073445059 -0.81919444 0.51822084 -0.24569826 0.0020889444
-0.14072657 -0.071743414 0.073592104 0.86510909 0.4294931 -0.25907931 0.0018909388
-0.13860825 -0.074425086 0.076875225 0.85158807 0.44259569 -0.28090343 0.0018706972
0.13900402 -0.073908687 0.076282613 -0.85314482 0.44623694 -0.27021551 0.001686201
-0.14300975 -0.06501323 0.075236179 0.87373579 0.40556648 -0.26851708 0.0013379279
0.14348944 -0.062665768 0.076841623 -0.87634665 0.39212859 -0.27973524 0.0010654676
-0.15005198 -0.051187776 0.070949413 0.91836101 0.3183378 -0.23510432 0.0019566056
-0.14748459 -0.055917736 0.072931252 0.90393943 0.34750348 -0.24926868 0.0015537619
0.14803629 -0.054421809 0.073152609 -0.90539604 0.34479797 -0.24773444 0.0016679086
-0.15086088 -0.045073725 0.076565862 0.91889268 0.28725109 -0.27041283 0.0018228015
-0.14818567 -0.049800321 0.078903563 0.91136193 0.29888302 -0.28299892 0.0016005267
0.14844766 -0.049288742 0.078740448 -0.90267265 0.31228539 -0.29607391 0.0011700533
0.15248638 -0.043299355 0.073232859 -0.9321574 0.25578094 -0.25623959 0.002158426
-0.15411988 -0.034756195 0.074055716 0.94793832 0.19569096 -0.25123283 0.0015334317
0.15404463 -0.034976803 0.074217364 -0.94033247 0.21860056 -0.26074627 0.0020507502
-0.15460518 -0.025238628 0.07674028 0.94659537 0.16307859 -0.27814129 0.0009549649
0.15543571 -0.024897723 0.073993087 -0.95455056 0.14578079 -0.25996372 0.0012581627
-0.15586482 -0.015370393 0.076878496 0.95773524 0.084634304 -0.27491853 0.0013148596
0.1563914 -0.016252538 0.074631222 -0.96087819 0.10792097 -0.25508067 0.0012780393
-0.15814644 -0.0060051866 0.073211513 0.96544164 0.046169177 -0.25649703 0.001706647
0.15759557 -0.0050303582 0.075586684 -0.95688778 0.031003961 -0.28879842 0.0016632576
-0.15765318 0.0062200376 0.074837402 0.96248823 -0.039714165 -0.26840103 0.0020579763
0.15829998 0.0043580267 0.073432997 -0.96553046 -0.025717275 -0.25901648 0.0020823292
-0.15619798 0.014249314 0.076229602 0.95689338 -0.094356127 -0.2746852 0.0012909813
0.15623137 0.015692182 0.075448662 -0.95437819 -0.10987748 -0.27764964 0.00083536352
-0.15430501 0.028144076 0.0764523 0.95063257 -0.16895665 -0.26029083 0.0015647417
0.15576504 0.02362521 0.073427275 -0.95633554 -0.13578404 -0.25881484 0.0010346161
-0.1542322 0.031726457 0.075057663 0.95090091 -0.17228267 -0.25711122 0.0016559466
0.15375657 0.034430198 0.075476341 -0.94426817 -0.20061773 -0.26097918 0.0022661805
-0.15131739 0.046267655 0.073466942 0.92006618 -0.30673894 -0.24369958 0.0017945113
-0.14907843 0.04867956 0.077507243 0.91000879 -0.31285977 -0.27203435 0.0015855866
0.14929868 0.04659798 0.079599254 -0.91150486 -0.28720662 -0.29439995 0.0019108771
0.15186103 0.044623602 0.07389275 -0.92731017 -0.267138 -0.2621699 0.0025609513
-0.14632832 0.055684943 0.077013262 0.90054935 -0.33393267 -0.27838787 0.0013758058
0.14536442 0.057377249 0.077870004 -0.88772357 -0.35789135 -0.2895872 0.00084316434
-0.14307332 0.065916337 0.073810145 0.87551475 -0.40776551 -0.25923195 0.0016287713
0.14350237 0.064089552 0.074877732 -0.88006842 -0.39090854 -0.26957381 0.0014605289
-0.14079089 0.073268078 0.071324609 0.86486888 -0.43852025 -0.24433936 0.0023942827
-0.13774917 0.076092087 0.077300049 0.84549993 -0.45538253 -0.27884877 0.0020815292
0.13805974 0.076667078 0.075636506 -0.84259236 -0.45403028 -0.28964576 0.0025391171
0.14111069 0.072406933 0.071444914 -0.86415559 -0.43267548 -0.2569572 0.0027099275
-0.13294448 0.085317686 0.073801458 0.80599052 -0.52938628 -0.26481974 0.0018876118
-0.12958296 0.088369958 0.076654002 0.78940433 -0.54354721 -0.28530189 0.0012852603
0.12892333 0.089451864 0.076176852 -0.78713888 -0.54872632 -0.2816239 0.0013160645
0.13487938 0.082956165 0.073457748 -0.81224054 -0.52104217 -0.26226011 0.0024904655
-0.12427197 0.095554605 0.076088727 0.75984675 -0.58440888 -0.28477907 0.00090063352
0.12627164 0.09483581 0.072036713 -0.76822382 -0.59094864 -0.24619474 0.0013805849
-0.12054822 0.10110187 0.074597836 0.73847204 -0.61888081 -0.26766676 0.0013180998
-0.11699065 0.10584475 0.074369006 0.72165364 -0.63742697 -0.2700054 0.0019031322
0.11823897 0.10344286 0.07603316 -0.73331344 -0.62415409 -0.26959807 0.001315574
-0.11347368 0.11132159 0.072306514 0.7038517 -0.66836071 -0.24059674 0.002394008
-0.10553505 0.11728726 0.074204102 0.62988573 -0.73074037 -0.26317763 0.0019574678
0.10586056 0.11618223 0.076597266 -0.6433031 -0.71147728 -0.28277406 0.0021337997
0.11272086 0.11122408 0.07436163 -0.69284904 -0.67124277 -0.26342654 0.0026079896
-0.095214672 0.12513669 0.074399099 0.5884214 -0.76494008 -0.26196736 0.0010402295
-0.088452175 0.12900263 0.078101359 0.5495398 -0.78687477 -0.28077418 0.0015689688
0.089331582 0.12936178 0.075208202 -0.55194694 -0.78553659 -0.279798 0.0012283677
0.094884343 0.12467784 0.076392293 -0.57130367 -0.77029437 -0.28329954 0.00068209594
0.10322644 0.12010492 0.071276627 -0.6185267 -0.74652034 -0.2452189 0.0020530384
-0.084440097 0.13343461 0.074314274 0.53249872 -0.80181438 -0.27118051 0.0019611567
-0.076330833 0.13866253 0.074126177 0.45815918 -0.84624058 -0.27196893 0.0023695366
0.077721395 0.13846508 0.072818987 -0.47134772 -0.84125865 -0.2647925 0.0024665941
0.084113285 0.13330358 0.075382665 -0.52652371 -0.80538672 -0.27225903 0.0018368115
-0.070646174 0.14095306 0.074335136 0.42323384 -0.86816233 -0.25916654 0.0020212245
-0.064206801 0.14355278 0.07455527 0.39516151 -0.87773669 -0.27097189 0.0012752543
-0.055057026 0.14738443 0.074419409 0.34710145 -0.89586568 -0.27739009 0.00073060393
-0.047421265 0.14935879 0.078292176 0.29498249 -0.91267085 -0.28287312 0.0019531632
0.053028256 0.1475448 0.076635189 -0.34539774 -0.89639986 -0.27779049 0.00093269971
0.065514214 0.14316225 0.074063137 -0.40494779 -0.87313277 -0.27139744 0.0014401043
0.073096335 0.14067423 0.071936615 -0.43952829 -0.86209506 -0.25220448 0.0023703144
-0.044624642 0.15215328 0.07295838 0.28139475 -0.92795825 -0.24435711 0.002437863
-0.033805192 0.15412389 0.074479662 0.19604385 -0.94580376 -0.25888634 0.0019941956
-0.022121098 0.15497217 0.076892301 0.13403842 -0.94888216 -0.28575572 0.00080178952
-0.011495024 0.15712386 0.074260041 0.073334105 -0.96244866 -0.26137069 0.0016348663
-0.0049421401 0.15789978 0.074563496 0.02687704 -0.96378434 -0.26532498 0.0020377978
0.0040132105 0.1589011 0.071489677 -0.025609637 -0.97032601 -0.24044041 0.0022924731
0.013718401 0.15728787 0.072662964 -0.088956095 -0.96320516 -0.25361919 0.0015941322
0.023938557 0.15514952 0.075435467 -0.1332964 -0.95338702 -0.27071235 0.00086265389
0.036267869 0.15367663 0.07490997 -0.20618312 -0.94015676 -0.27128187 0.0017860392
0.04311344 0.15237714 0.074157409 -0.26167575 -0.93002445 -0.25803161 0.0023929274
-0.040428158 -0.15154837 0.080436625 0.24303612 0.92302442 -0.29826054 0.0025204881
-0.035071719 -0.15115096 0.084254466 0.21372621 0.92675245 -0.30895129 0.0020586702
-0.022747584 -0.15259822 0.084460825 0.13339171 0.94263422 -0.30601862 0.00070350093
-0.014456131 -0.15305248 0.086425141 0.098352082 0.94135785 -0.32275748 0.00071084697
-0.0026597402 -0.15502957 0.085177168 0.0019985926 0.94846314 -0.31688106 0.0019350116
0.0041930773 -0.15457214 0.085790485 -0.025318002 0.94805115 -0.31710893 0.0016931597
0.012489371 -0.15371937 0.085207708 -0.070990518 0.94545764 -0.3179155 0.001136492
0.025828645 -0.15227728 0.084398232 -0.15653758 0.93548727 -0.31679568 0.000887045
0.035188347 -0.15160587 0.082647838 -0.20865959 0.92720032 -0.31106389 0.0018031837
-0.064362638 -0.14105813 0.082374007 0.39493513 0.86675686 -0.30456308 0.00090510596
-0.056933612 -0.1427598 0.086176537 0.35993713 0.87461311 -0.32480323 0.00047684467
-0.045870859 -0.14816661 0.084269322 0.29966003 0.90092301 -0.31391326 0.0017930276
-0.037906412 -0.14969359 0.087214611 0.23660362 0.91422808 -0.32894635 0.0022763682
0.037279051 -0.14954424 0.087815396 -0.22801955 0.91495937 -0.33295098 0.0018046837
0.045937747 -0.14743502 0.08594045 -0.28953201 0.9029212 -0.31765491 0.0017767929
0.053948164 -0.1451803 0.083038926 -0.33665246 0.88969594 -0.30839306 0.00086612313
0.061735775 -0.14154379 0.084107496 -0.37540436 0.87306088 -0.31118536 0.00079563027
-0.082265399 -0.131337 0.084715627 0.51128066 0.79796141 -0.31913903 0.0015993244
-0.076713227 -0.13561457 0.082830712 0.46298561 0.83207154 -0.30545262 0.0017666443
-0.064237855 -0.13884403 0.088528231 0.39253628 0.86155647 -0.32192498 0.00088083075
0.064557917 -0.13976619 0.085982561 -0.38828006 0.86254805 -0.32442173 0.00087336957
0.074580804 -0.13637216 0.083534591 -0.46371451 0.83017898 -0.30947006 0.0018137749
0.083228439 -0.130835 0.083904736 -0.52155411 0.79654706 -0.3057681 0.0014251674
-0.092326932 -0.12363002 0.084586978 0.58027327 0.74860626 -0.32073596 0.00058809487
-0.085901253 -0.12770693 0.086563177 0.53027558 0.78439999 -0.3217521 0.001272281
0.085651599 -0.1279746 0.086319514 -0.52330124 0.79132682 -0.31616092 0.0014161011
0.093359649 -0.12274843 0.084507406 -0.58293408 0.74658364 -0.32062566 0.00057847361
-0.10505928 -0.11201131 0.088625789 0.64976823 0.68510497 -0.32929078 0.0018457033
-0.097625874 -0.11902035 0.085850857 0.59698164 0.73543692 -0.32053915 0.00088881655
0.09810856 -0.11778966 0.08770375 -0.60387892 0.72722417 -0.32630536 0.00094997458
0.10424735 -0.11487244 0.083618715 -0.63993096 0.70249104 -0.31143987 0.0014663106
-0.11483169 -0.10460096 0.082899138 0.70424503 0.63692284 -0.31363714 0.0016511693
-0.10888387 -0.10994414 0.086827673 0.66817373 0.67055088 -0.32234347 0.0021475102
0.11417792 -0.10463703 0.084593952 -0.69966435 0.63575906 -0.32600635 0.0014753693
-0.12381162 -0.092790991 0.083042562 0.76040059 0.57403207 -0.30377308 0.00083073601
-0.11796256 -0.098216854 0.08712168 0.72584045 0.60272682 -0.33147559 0.0009975927
0.11903337 -0.099252887 0.082806721 -0.73542583 0.60482842 -0.30550203 0.00086574553
0.12276848 -0.094075032 0.083402812 -0.74857658 0.58918762 -0.30412343 0.00082981784
-0.13135703 -0.080734871 0.08721444 0.79725945 0.50719815 -0.32730335 0.0017705869
-0.12772396 -0.087108724 0.084219836 0.78405321 0.53917485 -0.3074916 0.0012259261
0.12767152 -0.086686403 0.085145094 -0.79179418 0.5223614 -0.31654471 0.0014562198
0.13029703 -0.082143083 0.08717186 -0.7904011 0.52118993 -0.32191181 0.0014245176
-0.1332131 -0.077431858 0.087806478 0.81695682 0.47557577 -0.32620442 0.0020243749
0.13684027 -0.076178387 0.080269784 -0.8396256 0.46020171 -0.28851908 0.0017476743
-0.14043131 -0.064951181 0.083572388 0.86332768 0.40005791 -0.30760181 0.00094398519
-0.13971445 -0.065328337 0.085337169 0.8609013 0.39753526 -0.31751326 0.00095380988
0.13907449 -0.066391475 0.085818931 -0.85504711 0.40896487 -0.31881362 0.0010878046
0.14136891 -0.062420662 0.084005445 -0.86740035 0.38592046 -0.31413683 0.00092288619
-0.14550297 -0.053281728 0.08287812 0.89157814 0.33616239 -0.30345228 0.0011041173
0.14507031 -0.054130416 0.083168522 -0.8929534 0.32948253 -0.30671734 0.00086028234
-0.14877473 -0.044699878 0.083510779 0.90563285 0.28636563 -0.31276786 0.0015842633
0.14714584 -0.046635684 0.085901618 -0.90107459 0.28446969 -0.3273249 0.001542817
-0.15196757 -0.032596502 0.082576215 0.93305606 0.19965664 -0.29923844 0.0012147736
0.149774 -0.034096826 0.08830554 -0.9205724 0.20503622 -0.3324255 0.0015382204
0.15127653 -0.034005594 0.084068879 -0.92565787 0.20636347 -0.31713042 0.0015859704
-0.15312731 -0.022128923 0.083307959 0.94059062 0.13520317 -0.31146339 0.00081529882
0.15237205 -0.025666857 0.084126055 -0.93363565 0.15978633 -0.32061329 0.00084028085
-0.15282536 -0.013880718 0.087181501 0.94309378 0.078784004 -0.32305911 0.00097393862
0.15356737 -0.01506395 0.084573284 -0.94538945 0.089290686 -0.31347388 0.00054376887
-0.15469851 -0.0046355207 0.085372463 0.94779289 0.033278711 -0.31714529 0.0015611979
0.15395212 -0.0058521526 0.087027922 -0.94396204 0.050297644 -0.32619917 0.0013795909
-0.15535939 0.0048882323 0.083384894 0.95049602 -0.03724714 -0.30849642 0.0016893999
0.1549702 0.0064441105 0.083973423 -0.94674653 -0.044689793 -0.31886333 0.0017299679
-0.15341637 0.013535175 0.085694134 0.94337153 -0.082011446 -0.32144076 0.0010854832
0.15361084 0.01773498 0.083475865 -0.94662142 -0.11714915 -0.30030629 0.00080342824
-0.15259555 0.027418882 0.082548514 0.93664277 -0.17323506 -0.30445027 0.0012879609
0.15210406 0.025105527 0.085156441 -0.93298638 -0.15633632 -0.32418433 0.00099579373
-0.15155655 0.032506891 0.083799243 0.93311834 -0.18651654 -0.30741125 0.001632988
-0.14929795 0.036491472 0.088721909 0.91415739 -0.22483651 -0.33729044 0.0018118836
0.1494509 0.034141913 0.089127079 -0.91803706 -0.20832521 -0.33735529 0.0018946453
0.1507244 0.034978505 0.085427374 -0.92188811 -0.21377499 -0.32314488 0.0020928318
-0.15021774 0.042834923 0.081683427 0.9158482 -0.25403783 -0.31094509 0.0021580781
-0.14833888 0.044901669 0.084599137 0.90843838 -0.27073625 -0.31849894 0.0018590658
0.14864473 0.043840446 0.084986135 -0.90981603 -0.26478082 -0.31957155 0.0021142166
0.15034363 0.041347761 0.083154887 -0.91387308 -0.25744969 -0.3139357 0.0021281284
-0.14475177 0.054792784 0.083256945 0.88937378 -0.33373633 -0.31246504 0.0011495433
0.14441916 0.053667001 0.085158691 -0.88949221 -0.32527524 -0.32093561 0.0011180595
-0.14178449 0.061823804 0.08340124 0.8642875 -0.38763669 -0.32053843 0.00090365991
-0.13893175 0.067473039 0.084953494 0.85682774 -0.40348563 -0.32100719 0.00085441954
0.13772054 0.067593046 0.087885648 -0.84864265 -0.41076338 -0.33328536 0.0010761827
0.14179343 0.061846398 0.083300196 -0.87394422 -0.37172467 -0.31311676 0.00067571318
-0.13605291 0.073728353 0.085408032 0.83587444 -0.44440043 -0.32221469 0.0016655377
0.13577905 0.074449256 0.085325345 -0.82122695 -0.46349487 -0.3328045 0.0016752082
-0.13264826 0.081795804 0.082189538 0.8124491 -0.49395928 -0.30972689 0.0019078808
-0.12670645 0.08724086 0.086379424 0.77819014 -0.54055828 -0.31971368 0.0011156637
0.12617357 0.087665208 0.086713374 -0.76560986 -0.55792874 -0.32024524 0.00055534893
0.13165423 0.081439592 0.085403368 -0.80565983 -0.4978205 -0.32107174 0.0018497531
-0.12203181 0.093755282 0.085834704 0.74957609 -0.57846946 -0.32172778 0.00071409455
-0.11863238 0.098834552 0.084556855 0.73811334 -0.60004044 -0.30844793 0.00095068058
0.11868761 0.097745299 0.086407028 -0.73774654 -0.59438235 -0.32006216 0.00095243525
0.12118325 0.093572706 0.087711833 -0.74644738 -0.57890123 -0.32816094 0.00062020088
-0.11307784 0.10603178 0.084541932 0.69653851 -0.64624655 -0.31176829 0.0019936389
-0.10942478 0.10963722 0.086603567 0.6640237 -0.6738562 -0.32402208 0.0020379936
0.10803759 0.10960133 0.088884167 -0.66007209 -0.67795825 -0.32353869 0.0020939631
0.11416551 0.10355856 0.086290553 -0.70305318 -0.62960333 -0.33062968 0.0017807609
-0.10410604 0.11504215 0.083325058 0.63696748 -0.70631057 -0.30886567 0.0017239377
0.098809481 0.11948988 0.082481392 -0.60063618 -0.7396543 -0.30355829 0.0011305742
0.10435054 0.11426054 0.084838659 -0.6358636 -0.69963735 -0.32586062 0.0018827067
0.11075577 0.11048344 0.08185561 -0.67248333 -0.67391968 -0.30593872 0.0021267135
-0.096024051 0.12111449 0.083857447 0.5855431 -0.74779767 -0.31295034 0.00061648496
-0.083482735 0.12893972 0.087820113 0.5214327 -0.7884286 -0.32632536 0.0014911637
0.086728439 0.12830666 0.083582982 -0.54003721 -0.78370738 -0.30685917 0.0010709383
0.093366466 0.12248291 0.085253909 -0.58162951 -0.74935305 -0.31650764 0.00059217314
-0.081594549 0.13234803 0.083360992 0.50647193 -0.8048346 -0.3093985 0.0021952752
-0.075010858 0.13558017 0.085166007 0.4586933 -0.82814711 -0.32213792 0.0023158239
-0.068486974 0.13719589 0.088258229 0.40743989 -0.85131866 -0.33052868 0.0011791013
0.074746326 0.13607092 0.084233992 -0.46158576 -0.82942057 -0.31464297 0.001853644
0.082632221 0.13216335 0.081753321 -0.51637834 -0.80350602 -0.29619503 0.001659915
-0.063692734 0.14086163 0.083990574 0.38749495 -0.86958635 -0.30605119 0.00087041245
-0.050839838 0.14513573 0.08661969 0.32173505 -0.89080042 -0.32087567 0.0011914377
-0.045769602 0.14767978 0.08528126 0.29434425 -0.90067875 -0.31959221 0.0017664593
-0.037044145 0.14965528 0.087608069 0.21546376 -0.9208799 -0.32489324 0.001881039
0.0333541 0.14970843 0.088728726 -0.19667536 -0.92482316 -0.32560825 0.0014032497
0.045621742 0.14780873 0.085171871 -0.29031146 -0.90195793 -0.31967336 0.00145963
0.054892063 0.14378896 0.085787356 -0.34235165 -0.88477707 -0.31617224 0.00053132989
0.063857302 0.14111473 0.082917325 -0.40113315 -0.86194634 -0.31006569 0.00086047628
-0.043858603 0.15010746 0.080661267 0.28027427 -0.91398698 -0.29338381 0.0020997385
-0.035467245 0.15137863 0.083215043 0.20597301 -0.93014526 -0.30398172 0.0019350197
-0.022888184 0.15245794 0.085125469 0.14013956 -0.94017488 -0.31053534 0.00080606528
-0.015147924 0.15313156 0.08582104 0.092921838 -0.94177824 -0.32313958 0.00091956573
-0.0029641844 0.15526821 0.084228918 0.010130535 -0.94978184 -0.31274891 0.0017928234
0.0049731806 0.15471227 0.085293554 -0.036318332 -0.94837332 -0.31506976 0.0016234607
0.014582183 0.15383239 0.084060788 -0.076472394 -0.94746894 -0.31057143 0.001050473
0.023747195 0.15253377 0.084280729 -0.13936666 -0.94219059 -0.30471918 0.00066003727
0.034229513 0.15135747 0.083852194 -0.19942728 -0.93059796 -0.30694658 0.0015841103
-0.013311193 -0.15072957 0.092918277 0.078896768 0.93507171 -0.3455666 0.0011474572
-0.0041253413 -0.15192194 0.09296222 0.020473065 0.94025362 -0.33985883 0.0020167511
0.0022785238 -0.15158707 0.094459355 -0.0076480219 0.93684679 -0.34965625 0.002159385
0.014837859 -0.15062785 0.092661157 -0.094720334 0.93591148 -0.33926055 0.00095023494
0.022113683 -0.15032183 0.090972714 -0.13606371 0.93019629 -0.34091282 0.00062526541
-0.054543853 -0.14097074 0.093086801 0.34882855 0.87116957 -0.34551746 0.0007732503
-0.043795854 -0.14483622 0.094502375 0.27963895 0.8900097 -0.36011785 0.0019728646
-0.036799073 -0.14659153 0.095607869 0.22251122 0.90734392 -0.35667324 0.0020423753
-0.026711524 -0.14841677 0.094339304 0.16643497 0.92116451 -0.3517887 0.00120216
-0.017023286 -0.14836024 0.097789407 0.11314671 0.92461205 -0.36371735 0.00064778462
-0.0036892842 -0.14952369 0.099322736 0.014657238 0.92750323 -0.37352756 0.001939714
0.0076933755 -0.14913493 0.098964319 -0.051583275 0.92766261 -0.36983934 0.0014842129
0.015633471 -0.14838105 0.098209411 -0.094146863 0.92555261 -0.36672696 0.00083020283
0.023019301 -0.14796831 0.096759908 -0.14102542 0.92171222 -0.36132872 0.00073114398
0.033427577 -0.1470969 0.095467828 -0.20246938 0.91450596 -0.35026431 0.0015277228
0.045508292 -0.14342703 0.096191682 -0.28614727 0.88828945 -0.35925141 0.0013622009
-0.074135795 -0.13236603 0.093970105 0.47225714 0.80953318 -0.34875384 0.0021323073
-0.066836327 -0.1335911 0.09860903 0.41225436 0.83599555 -0.36215702 0.0012919381
-0.053125814 -0.13892761 0.099435881 0.33698085 0.86697936 -0.36713845 0.00091369188
0.056383103 -0.13882847 0.096418716 -0.35047451 0.86661321 -0.35517478 0.00038132726
0.064072542 -0.13583788 0.095949315 -0.39894798 0.84551269 -0.35489267 0.0012386419
0.075113885 -0.1329544 0.091870278 -0.47416586 0.81594616 -0.33075452 0.0018906381
-0.09196379 -0.12087432 0.091082931 0.57413667 0.74567646 -0.3381325 0.00076985371
-0.085307546 -0.12484961 0.093429625 0.53552306 0.77229244 -0.34173021 0.0013066729
-0.079598337 -0.12813939 0.095690951 0.48130175 0.8025102 -0.35259891 0.0022245771
0.077545024 -0.1292741 0.096604779 -0.48585334 0.79933828 -0.35356018 0.0017551839
0.086015984 -0.12398352 0.094098039 -0.54241222 0.76553625 -0.34603944 0.0010014143
0.091937564 -0.12067498 0.091537841 -0.57524425 0.74600685 -0.33551133 0.00057433173
-0.097324952 -0.11416214 0.096468493 0.60778737 0.71269745 -0.35022393 0.0012231917
0.089367695 -0.11981179 0.097414039 -0.54457301 0.75789428 -0.35921663 0.00076874648
0.096158251 -0.11582543 0.094876677 -0.60258591 0.71752816 -0.34934717 0.00096297008
0.10288977 -0.11083709 0.094509922 -0.63288045 0.69173592 -0.34779856 0.0013571349
-0.11188915 -0.10282912 0.092425801 0.69980836 0.63046753 -0.3358258 0.0014967371
-0.10608123 -0.10691145 0.096790105 0.66317213 0.65977812 -0.35340571 0.0019799585
0.10668737 -0.10651086 0.096438594 -0.66037631 0.65576619 -0.36588758 0.0015094141
0.11302151 -0.10228155 0.090949744 -0.70173341 0.62750971 -0.33734512 0.0014194733
-0.12240854 -0.090127528 0.090823427 0.75660574 0.56293267 -0.33264768 0.00076124066
-0.1164974 -0.094526507 0.096079007 0.72920853 0.58301133 -0.35826334 0.00081698655
0.11591755 -0.095454194 0.095805481 -0.7146039 0.60387301 -0.35309851 0.0010404057
0.12020925 -0.093426779 0.09013468 -0.74127913 0.58174622 -0.33477849 0.00055338303
-0.1303547 -0.080165371 0.090197645 0.79746991 0.50172478 -0.33513305 0.0018263677
-0.12350276 -0.086434424 0.094428979 0.76959735 0.53848058 -0.34315971 0.0012056371
-0.11923371 -0.088830084 0.099467143 0.7431916 0.55782384 -0.36945745 0.00090067985
0.1237897 -0.086501069 0.093728304 -0.76373816 0.54249161 -0.34986696 0.00099439279
0.13007854 -0.080581769 0.090107784 -0.80073798 0.49774295 -0.33327258 0.0019008007
-0.13296953 -0.073108837 0.093763813 0.81139767 0.46991628 -0.34758103 0.0019277916
-0.12794375 -0.078606352 0.097674124 0.7929166 0.49355921 -0.35732695 0.0018013889
0.12845348 -0.078615248 0.096603535 -0.7934823 0.49229425 -0.35781598 0.0018894278
0.13230009 -0.075542219 0.092449792 -0.81668055 0.4711943 -0.33317971 0.0018368999
-0.13596921 -0.065270968 0.094434135 0.84217596 0.41090381 -0.34913853 0.0014359436
0.13589206 -0.064377233 0.09551391 -0.84241313 0.40682623 -0.35331649 0.0011941186
-0.14086899 -0.054971881 0.092904478 0.87186867 0.34735486 -0.34523857 0.0007956287
-0.13828254 -0.057385284 0.096734375 0.86256897 0.36316916 -0.35225418 0.00038317498
0.1386068 -0.054882497 0.098454051 -0.86722863 0.3428643 -0.36105192 0.0006528658
0.14122397 -0.053018779 0.094000377 -0.87562543 0.33241898 -0.3503966 0.00094484934
-0.14410213 -0.043504722 0.096565269 0.89823383 0.26647127 -0.34952673 0.0016919469
0.14562826 -0.042725094 0.093661338 -0.90096116 0.26326144 -0.34490919 0.001605213
-0.14592266 -0.036285073 0.097429693 0.90602851 0.21900055 -0.36214796 0.0016057332
0.14823622 -0.03167377 0.093114935 -0.91776538 0.18833837 -0.34962168 0.001168626
-0.14760746 -0.026828855 0.09639553 0.92003995 0.17496048 -0.35059276 0.0010635392
0.14794394 -0.024008533 0.096485808 -0.92152464 0.15188691 -0.3573831 0.0010823784
0.15041263 -0.020550888 0.091270536 -0.93289161 0.1201716 -0.33951735 0.00085484225
-0.15123875 -0.015020426 0.091016546 0.93720275 0.089866765 -0.33700892 0.0011403152
-0.1488598 -0.016309867 0.096738763 0.92768419 0.11409108 -0.35550702 0.00057812862
0.14829808 -0.016356254 0.09817791 -0.92509651 0.10753133 -0.36418885 0.00073483889
0.15103401 -0.01427497 0.091801144 -0.93386215 0.10242783 -0.34265143 0.00066977873
-0.15198503 -0.0036578462 0.092958212 0.93868202 0.028489377 -0.34360504 0.0014998092
0.14959961 -0.0017624124 0.099783294 -0.93223375 0.0081636701 -0.36176458 0.0017541702
0.15162063 -0.0057131513 0.093201302 -0.93924612 0.041452888 -0.34073222 0.0015853296
-0.15135869 0.0065005347 0.093611181 0.9378438 -0.048368573 -0.34367073 0.0013920995
-0.14985281 0.0032867284 0.098607548 0.93364978 -0.016600344 -0.35780233 0.0017455135
0.14953147 0.0080993585 0.097798876 -0.93328947 -0.051216524 -0.35545403 0.0014038195
0.15184407 0.0057614557 0.092606068 -0.93834746 -0.038277742 -0.34356779 0.0015390636
-0.1510752 0.013445699 0.091977149 0.93658233 -0.088705651 -0.3390353 0.0010927378
-0.14887501 0.0177138 0.09622059 0.92633879 -0.11760305 -0.35786307 0.00053633028
0.14871688 0.017615328 0.096663818 -0.92644578 -0.11911356 -0.35708565 0.00071852666
-0.15065095 0.020632479 0.090625301 0.93276936 -0.12729406 -0.33724973 0.00047121014
-0.147246 0.026603417 0.097408615 0.91667742 -0.17162322 -0.36089894 0.0012695864
0.14815626 0.025901314 0.095290437 -0.92304778 -0.1622944 -0.34877396 0.0010392797
-0.14629051 0.037295241 0.096216261 0.90323317 -0.23715553 -0.35766906 0.0018715151
0.14691152 0.036240347 0.094945632 -0.91063863 -0.22198135 -0.34851331 0.0020523532
-0.14583068 0.042748556 0.093149163 0.89948243 -0.25859967 -0.35221815 0.0017954495
0.14314511 0.046976887 0.095403917 -0.88403398 -0.29676625 -0.36112848 0.0016490559
-0.14112006 0.051900215 0.095369428 0.87602031 -0.32240424 -0.35866985 0.0010776663
-0.13896024 0.056445308 0.096038453 0.86530524 -0.35602513 -0.35283548 0.00060907891
0.13867536 0.057040703 0.096130848 -0.86241853 -0.3624711 -0.35333988 0.00060489005
0.14125465 0.055118941 0.091826692 -0.87175834 -0.35559276 -0.33703279 0.00062854105
-0.13676742 0.060143892 0.097633451 0.8541863 -0.37666038 -0.35845873 0.00072341051
0.13673744 0.061109245 0.09674076 -0.85440695 -0.37716925 -0.35739636 0.00064142683
-0.13114075 0.07611537 0.094322123 0.80666906 -0.47298932 -0.35435322 0.0018686829
-0.12798259 0.079557396 0.09608113 0.78714758 -0.50444818 -0.35486722 0.0014797164
0.12787217 0.079516202 0.09637554 -0.7936312 -0.49648196 -0.35164633 0.0018699806
0.13256468 0.073365159 0.094414704 -0.81860191 -0.4523035 -0.353995 0.0019127533
-0.1250511 0.083937079 0.095191628 0.77228212 -0.52705717 -0.35467035 0.0010543381
-0.11934406 0.089948356 0.097459994 0.74653447 -0.55920708 -0.36051869 0.00065374491
0.12667865 0.082672313 0.093829803 -0.78518564 -0.51286459 -0.34706408 0.0015381173
-0.11574709 0.096097708 0.095135264 0.72324389 -0.59184515 -0.35586163 0.00095508498
0.11693988 0.094389759 0.095379442 -0.73257685 -0.5792796 -0.35744387 0.00064727967
0.12155119 0.090696916 0.091694906 -0.75142169 -0.5660373 -0.33906797 0.00076095719
-0.11227941 0.10305534 0.09125717 0.69476825 -0.63379079 -0.34000945 0.0015902193
-0.10622589 0.10740746 0.095930159 0.65876806 -0.6644913 -0.35281157 0.0020199216
0.10716194 0.10661242 0.095652193 -0.6605078 -0.65859067 -0.36053821 0.0022919502
0.11178567 0.10309694 0.092214406 -0.69027323 -0.63775432 -0.34174895 0.0019882908
-0.10206932 0.1119284 0.093552835 0.63472444 -0.69056505 -0.34676331 0.001771373
-0.095199056 0.1161691 0.095689788 0.59394199 -0.72402054 -0.35075226 0.0011321572
0.08918801 0.11983593 0.097649798 -0.55573916 -0.75039822 -0.3578496 0.00088706572
0.093060538 0.1173208 0.096703917 -0.57747054 -0.73324537 -0.35899737 0.00064428744
0.10299796 0.11094314 0.094118088 -0.6313473 -0.69333273 -0.34740514 0.0017617925
-0.091444045 0.12043554 0.092818975 0.57001132 -0.74699455 -0.3421787 0.00065947371
-0.08624322 0.12334383 0.095062442 0.54009372 -0.76146787 -0.3584207 0.00085546722
-0.079162747 0.12950702 0.093549132 0.49237648 -0.79452407 -0.3553828 0.0016668045
0.078322403 0.12839907 0.097182043 -0.49146813 -0.79315174 -0.35967949 0.0015615229
0.084410325 0.12441969 0.095747702 -0.53290105 -0.77047908 -0.34982619 0.0011639085
0.090011522 0.12012052 0.095750242 -0.56174088 -0.74682373 -0.35595152 0.00067962683
-0.074763395 0.13249291 0.093209863 0.46761274 -0.80993778 -0.35403264 0.001925061
-0.063384816 0.1364563 0.095144257 0.38761312 -0.85222459 -0.35138199 0.00068127498
-0.055603798 0.13926379 0.09614718 0.35792947 -0.86410445 -0.35385031 0.00048748584
0.058093973 0.13924465 0.093703814 -0.3576037 -0.86760044 -0.3455272 0.00066555693
0.064973123 0.13460965 0.09801349 -0.41422194 -0.83554107 -0.3609589 0.0011402292
0.073468708 0.13265644 0.093786739 -0.4597064 -0.81496197 -0.35285556 0.0018092158
-0.051139645 0.14177418 0.094551116 0.32446483 -0.88045788 -0.34571153 0.0010461883
-0.044109836 0.14486347 0.094122835 0.27273667 -0.89806998 -0.34508711 0.0020890106
-0.034156434 0.14806475 0.092712522 0.19861913 -0.91480166 -0.35169339 0.0015387223
-0.026251605 0.14909233 0.092746414 0.16397657 -0.92404282 -0.34533522 0.00085429597
-0.015003393 0.14858399 0.097898744 0.1049904 -0.92457914 -0.36623812 0.00054861413
-0.0077400613 0.14900056 0.099296585 0.045590274 -0.93017036 -0.36428645 0.0012967986
0.015455094 0.14949849 0.095376037 -0.090813197 -0.9304561 -0.35497084 0.0007099362
0.02689351 0.14769682 0.096142106 -0.1635136 -0.91846949 -0.36010715 0.00089043536
0.036532585 0.14714423 0.094158716 -0.22020924 -0.90924114 -0.35325417 0.0015365146
0.046424344 0.14324552 0.09571404 -0.304115 -0.88420242 -0.35454187 0.0010975791
0.051600579 0.14239787 0.092584945 -0.32476455 -0.87995607 -0.34670636 0.00072109461
-0.012420126 0.15052685 0.093747333 0.066052131 -0.93487692 -0.34877253 0.0013164765
-0.0067250691 0.15154049 0.093063861 0.042434908 -0.9354713 -0.35084572 0.0013880752
0.0043400675 0.15140986 0.094215468 -0.036929525 -0.93641454 -0.34894696 0.0015010973
0.015468897 0.15058371 0.092560403 -0.090483315 -0.93455541 -0.34412044 0.00071352959
-0.043974668 -0.14140071 0.10261572 0.29199412 0.87746447 -0.38052005 0.0014530643
-0.034610789 -0.14325906 0.10495057 0.2043592 0.90082479 -0.3830823 0.0015755208
-0.023453176 -0.14481464 0.10464282 0.13593629 0.91256899 -0.385667 0.00077794067
-0.013696346 -0.14551455 0.10614482 0.083188519 0.91592282 -0.39263847 0.00093213981
-0.0073603606 -0.1470395 0.10440947 0.046871208 0.92113173 -0.38641873 0.0014257542
0.0042826724 -0.14734419 0.10469764 -0.019421173 0.9177984 -0.39657149 0.001641728
0.015918581 -0.14577942 0.10470313 -0.10634358 0.91754735 -0.38314217 0.00086802221
0.024145635 -0.1437396 0.10703507 -0.14237976 0.90827936 -0.39339098 0.00068377896
0.036634021 -0.14256856 0.10552974 -0.23735017 0.8965112 -0.37407574 0.0018158798
0.044631079 -0.1409149 0.10313209 -0.28201678 0.88316995 -0.37480325 0.0015581087
-0.070588522 -0.13142291 0.10009099 0.44026774 0.81834018 -0.36943686 0.0017704807
-0.06349992 -0.13282526 0.10373434 0.40063813 0.83542162 -0.37624431 0.0010232002
-0.055619307 -0.13590576 0.1042367 0.36046141 0.85312569 -0.37715262 0.0005736287
-0.046882253 -0.13929586 0.10473311 0.30391383 0.87286448 -0.3817642 0.0010650277
0.046950161 -0.13844575 0.10654817 -0.30169722 0.87016714 -0.38959965 0.0011417728
0.054952249 -0.13547005 0.10571066 -0.352274 0.85220528 -0.38684511 0.00043440083
0.064023465 -0.13254194 0.10387881 -0.40295437 0.83636415 -0.37164867 0.0013740992
0.07002455 -0.13133496 0.10086716 -0.44172698 0.81820643 -0.36798844 0.0016865813
-0.081420287 -0.12145808 0.10651074 0.51238286 0.76022476 -0.39940229 0.001081451
-0.075811803 -0.12653157 0.10478109 0.47648346 0.79100543 -0.38376275 0.0017518001
-0.068003923 -0.12951139 0.10714924 0.41848627 0.82104367 -0.38827395 0.0012454527
0.069529481 -0.12769671 0.10957696 -0.43753862 0.80789036 -0.3948077 0.0019038161
0.076059647 -0.12660828 0.10410639 -0.48571238 0.78809965 -0.37813023 0.0016931031
0.081721172 -0.12128869 0.10642111 -0.52510083 0.7589398 -0.38507074 0.001007325
-0.094114177 -0.11367751 0.10257936 0.585181 0.72083747 -0.37142497 0.00093816087
-0.084967911 -0.11874926 0.10641651 0.5376485 0.74474007 -0.3953433 0.00073801033
0.086073101 -0.11688075 0.10837382 -0.54889113 0.73838353 -0.39180127 0.00081375754
0.093668237 -0.11411381 0.10238431 -0.5890277 0.71559954 -0.37545121 0.00096322899
-0.10551565 -0.10369719 0.1035547 0.66891122 0.64094073 -0.37650061 0.0019348531
-0.098182857 -0.10955811 0.10459545 0.62216389 0.6852755 -0.37856245 0.001871195
0.099041142 -0.10799298 0.10632435 -0.61501878 0.68246502 -0.39495999 0.0012054495
0.10371137 -0.10549777 0.10342802 -0.65346104 0.65607637 -0.37756142 0.0016007806
-0.11451481 -0.092433892 0.10351624 0.72058481 0.5843668 -0.37319306 0.00087913324
-0.10845386 -0.099244632 0.10522126 0.69364715 0.6126585 -0.37881815 0.001469794
0.10835257 -0.097230047 0.10831591 -0.68337697 0.61494368 -0.39349735 0.001441578
0.11158552 -0.095336378 0.10486764 -0.70249504 0.60325116 -0.37760934 0.0010039381
-0.12219269 -0.08222314 0.1038323 0.76209605 0.51752561 -0.38907194 0.0013336337
-0.11718783 -0.086988874 0.10651549 0.73393714 0.55720586 -0.38840446 0.00068976579
0.11858582 -0.085016929 0.10667439 -0.75132787 0.53657156 -0.38418418 0.00076010724
0.12175848 -0.084555268 0.10103288 -0.75839597 0.5353874 -0.37174696 0.00094146316
-0.1312044 -0.071062408 0.10014462 0.81392497 0.45334253 -0.36332706 0.0017937022
-0.12633973 -0.076113068 0.10456953 0.79086381 0.47884059 -0.38111174 0.0017032154
0.12703907 -0.07443098 0.10547838 -0.79432201 0.46951345 -0.38549909 0.0017656172
-0.13141647 -0.065057226 0.10556063 0.82560188 0.40539443 -0.39247528 0.0013387278
0.12946911 -0.067530259 0.10763878 -0.81603128 0.4195227 -0.39761007 0.0010751358
0.13269204 -0.06428647 0.10330901 -0.83507121 0.39942339 -0.37830806 0.0009132034
-0.1344308 -0.055904079 0.10724348 0.84499961 0.36476082 -0.39105651 0.00058316998
0.13512011 -0.056336254 0.10524887 -0.84975952 0.3542012 -0.39044884 0.0007945181
-0.14234164 -0.042986192 0.10133291 0.89208573 0.26240119 -0.36787057 0.0018221734
-0.13917688 -0.045302097 0.10640682 0.87441587 0.29416063 -0.38583228 0.0013201353
0.13821524 -0.047695924 0.10637195 -0.87271821 0.30194837 -0.38365358 0.00094034552
0.14100537 -0.044068258 0.10347642 -0.885086 0.2772156 -0.37386417 0.0013525969
-0.14249626 -0.037259053 0.1056562 0.89399689 0.23358548 -0.38237077 0.00191267
0.1426966 -0.036291655 0.10558768 -0.89604867 0.2226378 -0.38409522 0.0015919157
-0.14469448 -0.025082458 0.1044303 0.91581589 0.14631373 -0.37399694 0.00060687226
0.14457363 -0.024081878 0.10499126 -0.91253459 0.14637497 -0.38190958 0.00071740296
-0.14539158 -0.014919028 0.10598606 0.9176656 0.092255861 -0.3864955 0.00079939485
0.14529264 -0.012798565 0.10690928 -0.91689706 0.076125219 -0.3917968 0.0010402509
-0.14650145 -0.0051433016 0.1064641 0.92212063 0.034969795 -0.38531891 0.0014096264
0.14757146 -0.0072278655 0.10316986 -0.92312509 0.058301914 -0.38005382 0.0012424487
-0.14671096 0.0071115629 0.1054261 0.92174011 -0.049469501 -0.38464001 0.0014572931
0.14717184 0.004453423 0.10499361 -0.92393172 -0.020827701 -0.38198999 0.0019190165
-0.14647584 0.013890401 0.10364739 0.92147267 -0.095328815 -0.37656412 0.00080813316
0.14588523 0.015338634 0.1046553 -0.91953784 -0.088728853 -0.38285407 0.00089384435
